ply
format ascii 1.0
comment File generated
element vertex 2155
property float x
property float y
property float z
end_header
-2782.18 -634.292 3916
-2772.81 -634.292 3916
-2769.8 -635.75 3925
-2767.45 -637.37 3935
-2758.04 -637.37 3935
-2748.63 -637.37 3935
-2739.22 -637.37 3935
-2729.81 -637.37 3935
-2720.4 -637.37 3935
-2648.29 -622.63 3844
-2639.1 -622.63 3844
-2588.17 -612.75 3783
-2579.13 -612.75 3783
-2558.53 -609.996 3766
-2538.02 -607.243 3749
-2529.05 -607.243 3749
-2520.09 -607.243 3749
-2499.74 -604.489 3732
-2542.2 -616.961 3809
-2539.08 -618.419 3818
-2529.95 -618.419 3818
-2520.82 -618.419 3818
-2511.69 -618.419 3818
-1495.79 -599.144 3699
-1486.94 -599.144 3699
-1484.89 -601.898 3716
-1476.01 -601.898 3716
-1467.12 -601.898 3716
-1458.23 -601.898 3716
-1449.35 -601.898 3716
-1430.77 -597.848 3691
-1428.11 -600.44 3707
-1428.82 -604.489 3732
-1419.89 -604.489 3732
-1410.97 -604.489 3732
-1396.03 -601.898 3716
-1374.83 -596.552 3683
-1366.02 -596.552 3683
-1351.32 -593.961 3667
-1345.48 -595.257 3675
-1342.51 -597.848 3691
-1333.68 -597.848 3691
-1324.86 -597.848 3691
-1316.03 -597.848 3691
-1321.72 -604.489 3732
-1312.8 -604.489 3732
-1303.87 -604.489 3732
-1294.95 -604.489 3732
-1280.51 -601.898 3716
-1268.55 -600.44 3707
-1270.9 -605.785 3740
-1261.95 -605.785 3740
-1253.01 -605.785 3740
-1244.07 -605.785 3740
-1235.12 -605.785 3740
-1218.31 -601.898 3716
-1214.63 -604.489 3732
-1225.09 -614.208 3792
-1216.02 -614.208 3792
-1206.96 -614.208 3792
-1178.93 -604.489 3732
-1149.63 -593.961 3667
-1140.86 -593.961 3667
-1126.85 -591.207 3650
-307.079 -531.924 3284
-299.226 -531.924 3284
-293.058 -535.002 3303
-286.886 -538.242 3323
-280.115 -540.509 3337
-272.136 -540.509 3337
-264.156 -540.509 3337
-255.639 -539.375 3330
-247.676 -539.375 3330
-238.273 -536.136 3310
-231.262 -538.242 3323
-223.316 -538.242 3323
-215.37 -538.242 3323
-204.615 -530.953 3278
-195.995 -528.847 3265
-188.188 -528.847 3265
-180.38 -528.847 3265
-172.573 -528.847 3265
-102.795 -329.942 2037
-98.0203 -330.266 2039
-93.1444 -330.266 2039
-88.2685 -330.266 2039
-83.3927 -330.266 2039
-78.5168 -330.266 2039
-73.5687 -329.942 2037
-68.6976 -329.942 2037
-63.7325 -329.456 2034
-58.8107 -329.132 2032
-53.8189 -328.322 2027
-48.9717 -328.322 2027
-44.081 -327.999 2025
-39.3355 -328.808 2030
-34.5491 -329.456 2034
-29.7581 -330.266 2039
-24.8823 -330.266 2039
-20.0064 -330.266 2039
-15.1899 -331.562 2047
-10.3703 -333.992 2062
-5.43948 -333.992 2062
-0.509356 -334.477 2065
4.43941 -335.287 2070
9.41209 -336.097 2075
14.374 -336.097 2075
19.3639 -336.583 2078
24.415 -337.717 2085
29.4432 -338.203 2088
34.4363 -338.203 2088
39.5237 -339.013 2093
44.5925 -339.499 2096
49.652 -339.823 2098
54.669 -339.823 2098
59.686 -339.823 2098
64.7029 -339.823 2098
69.7199 -339.823 2098
74.7368 -339.823 2098
79.7538 -339.823 2098
84.8919 -340.309 2101
89.9161 -340.309 2101
94.9402 -340.309 2101
99.8216 -339.823 2098
104.839 -339.823 2098
109.594 -339.013 2093
114.599 -339.013 2093
119.604 -339.013 2093
124.609 -339.013 2093
129.614 -339.013 2093
134.812 -339.499 2096
139.824 -339.499 2096
145.181 -340.309 2101
150.563 -341.118 2106
156.042 -342.09 2112
161.093 -342.09 2112
166.301 -342.414 2114
171.842 -343.386 2120
177.329 -344.196 2125
182.411 -344.196 2125
188.198 -345.492 2133
193.842 -346.464 2139
199.422 -347.273 2144
204.549 -347.273 2144
210.263 -348.245 2150
215.705 -348.731 2153
221.982 -350.513 2164
227.157 -350.513 2164
232.653 -350.999 2167
238.384 -351.809 2172
244.251 -352.781 2178
249.459 -352.781 2178
255.369 -353.752 2184
260.83 -354.076 2186
266.058 -354.076 2186
271.285 -354.076 2186
276.512 -354.076 2186
281.095 -353.267 2181
286.311 -353.267 2181
291.526 -353.267 2181
296.742 -353.267 2181
301.542 -352.781 2178
509.701 -586.186 3619
522.795 -591.207 3650
531.523 -591.207 3650
540.252 -591.207 3650
551.537 -593.961 3667
560.306 -593.961 3667
569.075 -593.961 3667
576.425 -592.503 3658
585.173 -592.503 3658
595.381 -593.961 3667
604.15 -593.961 3667
616.931 -597.848 3691
625.757 -597.848 3691
634.583 -597.848 3691
643.409 -597.848 3691
650.822 -596.552 3683
659.629 -596.552 3683
669.888 -597.848 3691
678.715 -597.848 3691
687.541 -597.848 3691
696.367 -597.848 3691
705.194 -597.848 3691
723.499 -605.785 3740
732.442 -605.785 3740
743.17 -607.243 3749
753.74 -608.538 3757
766.175 -611.292 3774
775.2 -611.292 3774
789.628 -615.503 3800
798.714 -615.503 3800
807.801 -615.503 3800
816.888 -615.503 3800
825.975 -615.503 3800
831.326 -612.75 3783
840.373 -612.75 3783
849.419 -612.75 3783
858.465 -612.75 3783
869.576 -614.208 3792
884.668 -618.419 3818
893.798 -618.419 3818
902.928 -618.419 3818
909.908 -616.961 3809
919.016 -616.961 3809
921.789 -612.75 3783
928.621 -611.292 3774
935.658 -609.996 3766
936.135 -604.489 3732
945.06 -604.489 3732
949.894 -601.898 3716
956.458 -600.44 3707
961.156 -597.848 3691
969.983 -597.848 3691
974.566 -595.257 3675
978.805 -592.503 3658
985.393 -591.207 3650
994.121 -591.207 3650
1002.85 -591.207 3650
1009.36 -589.911 3642
1013.88 -587.482 3627
1022.55 -587.482 3627
1028.95 -586.186 3619
1035.31 -584.89 3611
1046.26 -586.186 3619
1057.24 -587.482 3627
1065.92 -587.482 3627
1074.59 -587.482 3627
1083.26 -587.482 3627
1091.94 -587.482 3627
1100.61 -587.482 3627
1109.28 -587.482 3627
1117.96 -587.482 3627
1126.63 -587.482 3627
1135.3 -587.482 3627
1141.45 -586.186 3619
1155.19 -588.778 3635
1163.88 -588.778 3635
1174.83 -589.911 3642
1183.54 -589.911 3642
1192.25 -589.911 3642
1203.6 -591.207 3650
1212.33 -591.207 3650
1221.06 -591.207 3650
1229.78 -591.207 3650
1235.8 -589.911 3642
1247.24 -591.207 3650
1255.97 -591.207 3650
1264.7 -591.207 3650
1273.43 -591.207 3650
1276.88 -588.778 3635
1285.58 -588.778 3635
1291.42 -587.482 3627
1300.09 -587.482 3627
1311.65 -588.778 3635
1322.89 -589.911 3642
1331.6 -589.911 3642
1340.31 -589.911 3642
1349.02 -589.911 3642
1357.73 -589.911 3642
1363.81 -588.778 3635
1369.48 -587.482 3627
1378.15 -587.482 3627
1386.83 -587.482 3627
1395.5 -587.482 3627
1404.17 -587.482 3627
1409.73 -586.186 3619
1418.38 -586.186 3619
1427.04 -586.186 3619
1432.52 -584.89 3611
1434.77 -582.299 3595
1440.55 -581.165 3588
1451.96 -582.299 3595
1460.56 -582.299 3595
1469.15 -582.299 3595
1477.75 -582.299 3595
1486.35 -582.299 3595
1492.03 -581.165 3588
1497.27 -579.869 3580
1489.85 -573.714 3542
1498.32 -573.714 3542
1503.38 -572.418 3534
1505.84 -570.151 3520
-2736.11 -606.4 3800
-2727.02 -606.4 3800
-2749.41 -613.422 3844
-2765.88 -619.167 3880
-2782.18 -624.912 3916
-2772.81 -624.912 3916
-2769.8 -626.348 3925
-2767.45 -627.944 3935
-2758.04 -627.944 3935
-2748.63 -627.944 3935
-2739.22 -627.944 3935
-2729.81 -627.944 3935
-2720.4 -627.944 3935
-2648.29 -613.422 3844
-2639.1 -613.422 3844
-2588.17 -603.688 3783
-2579.13 -603.688 3783
-2558.53 -600.975 3766
-2538.02 -598.262 3749
-2529.05 -598.262 3749
-2520.09 -598.262 3749
-2499.74 -595.549 3732
-2542.2 -607.837 3809
-2539.08 -609.273 3818
-2529.95 -609.273 3818
-2520.82 -609.273 3818
-2511.69 -609.273 3818
-1495.79 -590.283 3699
-1486.94 -590.283 3699
-1491.29 -595.549 3732
-1482.36 -595.549 3732
-1473.44 -595.549 3732
-1464.51 -595.549 3732
-1455.59 -595.549 3732
-1436.97 -591.56 3707
-1431.58 -592.996 3716
-1431.88 -596.826 3740
-1422.93 -596.826 3740
-1413.99 -596.826 3740
-1402.04 -595.549 3732
-1374.83 -587.73 3683
-1366.02 -587.73 3683
-1357.21 -587.73 3683
-1348.41 -587.73 3683
-1342.51 -589.006 3691
-1333.68 -589.006 3691
-1324.86 -589.006 3691
-1316.03 -589.006 3691
-1321.72 -595.549 3732
-1312.8 -595.549 3732
-1303.87 -595.549 3732
-1294.95 -595.549 3732
-1280.51 -592.996 3716
-1268.55 -591.56 3707
-1270.9 -596.826 3740
-1261.95 -596.826 3740
-1253.01 -596.826 3740
-1244.07 -596.826 3740
-1235.12 -596.826 3740
-1218.31 -592.996 3716
-1214.63 -595.549 3732
-1225.09 -605.124 3792
-1216.02 -605.124 3792
-1206.96 -605.124 3792
-1178.93 -595.549 3732
-1149.63 -585.176 3667
-1140.86 -585.176 3667
-1126.85 -582.464 3650
-314.932 -524.058 3284
-307.079 -524.058 3284
-299.226 -524.058 3284
-293.058 -527.09 3303
-286.886 -530.281 3323
-280.115 -532.515 3337
-272.136 -532.515 3337
-264.156 -532.515 3337
-255.639 -531.398 3330
-247.676 -531.398 3330
-238.273 -528.207 3310
-231.262 -530.281 3323
-223.316 -530.281 3323
-215.37 -530.281 3323
-204.615 -523.1 3278
-195.995 -521.026 3265
-188.188 -521.026 3265
-180.38 -521.026 3265
-172.573 -521.026 3265
-102.795 -325.063 2037
-98.0203 -325.382 2039
-93.1444 -325.382 2039
-88.2685 -325.382 2039
-83.3927 -325.382 2039
-78.5168 -325.382 2039
-73.5687 -325.063 2037
-68.6976 -325.063 2037
-63.7325 -324.584 2034
-58.8107 -324.265 2032
-53.8189 -323.467 2027
-48.9717 -323.467 2027
-44.081 -323.148 2025
-39.3355 -323.945 2030
-34.5491 -324.584 2034
-29.7581 -325.382 2039
-24.8823 -325.382 2039
-20.0064 -325.382 2039
-15.1899 -326.658 2047
-10.3703 -329.052 2062
-5.43948 -329.052 2062
-0.509356 -329.531 2065
4.43941 -330.329 2070
9.41209 -331.127 2075
14.374 -331.127 2075
19.3826 -331.924 2080
24.415 -332.722 2085
29.4432 -333.201 2088
34.4363 -333.201 2088
39.5237 -333.999 2093
44.5925 -334.478 2096
49.652 -334.797 2098
54.669 -334.797 2098
59.686 -334.797 2098
64.7954 -335.276 2101
69.8196 -335.276 2101
74.8437 -335.276 2101
79.8678 -335.276 2101
84.8919 -335.276 2101
89.9161 -335.276 2101
94.9402 -335.276 2101
99.9643 -335.276 2101
104.988 -335.276 2101
109.751 -334.478 2096
114.763 -334.478 2096
119.604 -333.999 2093
124.609 -333.999 2093
129.799 -334.478 2096
134.94 -334.797 2098
139.957 -334.797 2098
145.389 -335.754 2104
150.563 -336.074 2106
156.042 -337.031 2112
161.093 -337.031 2112
166.301 -337.35 2114
171.842 -338.308 2120
177.329 -339.105 2125
182.411 -339.105 2125
188.198 -340.382 2133
193.842 -341.34 2139
199.701 -342.616 2147
204.836 -342.616 2147
210.263 -343.095 2150
215.705 -343.574 2153
221.982 -345.329 2164
227.157 -345.329 2164
232.653 -345.808 2167
238.384 -346.606 2172
244.251 -347.563 2178
249.459 -347.563 2178
255.369 -348.521 2184
260.83 -348.84 2186
266.058 -348.84 2186
271.285 -348.84 2186
276.512 -348.84 2186
281.095 -348.042 2181
286.311 -348.042 2181
291.927 -348.521 2184
297.15 -348.521 2184
302.372 -348.521 2184
509.701 -577.517 3619
522.795 -582.464 3650
531.523 -582.464 3650
540.252 -582.464 3650
551.537 -585.176 3667
560.306 -585.176 3667
569.075 -585.176 3667
576.425 -583.74 3658
585.173 -583.74 3658
595.381 -585.176 3667
604.15 -585.176 3667
616.931 -589.006 3691
625.757 -589.006 3691
634.583 -589.006 3691
643.409 -589.006 3691
650.822 -587.73 3683
659.629 -587.73 3683
669.888 -589.006 3691
678.715 -589.006 3691
687.541 -589.006 3691
696.367 -589.006 3691
705.194 -589.006 3691
723.499 -596.826 3740
732.442 -596.826 3740
743.17 -598.262 3749
753.74 -599.539 3757
766.175 -602.251 3774
775.2 -602.251 3774
789.628 -606.4 3800
798.714 -606.4 3800
807.801 -606.4 3800
816.888 -606.4 3800
825.975 -606.4 3800
831.326 -603.688 3783
840.373 -603.688 3783
849.419 -603.688 3783
858.465 -603.688 3783
869.576 -605.124 3792
884.668 -609.273 3818
893.798 -609.273 3818
902.928 -609.273 3818
909.908 -607.837 3809
919.016 -607.837 3809
921.789 -603.688 3783
928.621 -602.251 3774
935.658 -600.975 3766
936.135 -595.549 3732
945.06 -595.549 3732
949.894 -592.996 3716
956.458 -591.56 3707
961.156 -589.006 3691
969.983 -589.006 3691
974.566 -586.453 3675
978.805 -583.74 3658
985.393 -582.464 3650
994.121 -582.464 3650
1002.85 -582.464 3650
1009.36 -581.187 3642
1013.88 -578.793 3627
1022.55 -578.793 3627
1028.95 -577.517 3619
1035.31 -576.24 3611
1046.26 -577.517 3619
1057.24 -578.793 3627
1065.92 -578.793 3627
1074.59 -578.793 3627
1083.26 -578.793 3627
1091.94 -578.793 3627
1100.61 -578.793 3627
1109.28 -578.793 3627
1117.96 -578.793 3627
1126.63 -578.793 3627
1135.3 -578.793 3627
1141.45 -577.517 3619
1155.19 -580.07 3635
1163.88 -580.07 3635
1174.83 -581.187 3642
1183.54 -581.187 3642
1194.87 -582.464 3650
1206.24 -583.74 3658
1214.98 -583.74 3658
1223.73 -583.74 3658
1232.48 -583.74 3658
1235.8 -581.187 3642
1247.24 -582.464 3650
1255.97 -582.464 3650
1264.7 -582.464 3650
1273.43 -582.464 3650
1276.88 -580.07 3635
1285.58 -580.07 3635
1294.27 -580.07 3635
1302.96 -580.07 3635
1311.65 -580.07 3635
1322.89 -581.187 3642
1331.6 -581.187 3642
1340.31 -581.187 3642
1349.02 -581.187 3642
1357.73 -581.187 3642
1363.81 -580.07 3635
1369.48 -578.793 3627
1378.15 -578.793 3627
1386.83 -578.793 3627
1395.5 -578.793 3627
1404.17 -578.793 3627
1409.73 -577.517 3619
1418.38 -577.517 3619
1427.04 -577.517 3619
1432.52 -576.24 3611
1434.77 -573.687 3595
1440.55 -572.57 3588
1451.96 -573.687 3595
1460.56 -573.687 3595
1469.15 -573.687 3595
1477.75 -573.687 3595
1486.35 -573.687 3595
1492.03 -572.57 3588
1497.27 -571.293 3580
1489.85 -565.229 3542
1498.32 -565.229 3542
1503.38 -563.952 3534
1505.84 -561.718 3520
-2723.87 -594.625 3783
-2714.82 -594.625 3783
-2717.94 -597.297 3800
-2740.21 -604.214 3844
-2762.99 -611.287 3889
-2753.69 -611.287 3889
-2763.45 -615.531 3916
-2760.41 -616.945 3925
-2758.04 -618.517 3935
-2748.63 -618.517 3935
-2739.22 -618.517 3935
-2729.81 -618.517 3935
-2720.4 -618.517 3935
-2648.29 -604.214 3844
-2597.22 -594.625 3783
-2576.54 -591.953 3766
-2567.54 -591.953 3766
-2546.98 -589.281 3749
-2531.93 -587.867 3740
-2506.79 -584.094 3716
-2497.91 -584.094 3716
-2482.99 -582.679 3707
-2490.81 -586.609 3732
-2521.79 -596.04 3792
-2512.72 -596.04 3792
-2503.65 -596.04 3792
-2494.59 -596.04 3792
-1495.79 -581.422 3699
-1486.94 -581.422 3699
-1491.29 -586.609 3732
-1482.36 -586.609 3732
-1473.44 -586.609 3732
-1464.51 -586.609 3732
-1455.59 -586.609 3732
-1436.97 -582.679 3707
-1431.58 -584.094 3716
-1431.88 -587.867 3740
-1422.93 -587.867 3740
-1413.99 -587.867 3740
-1402.04 -586.609 3732
-1374.83 -578.907 3683
-1366.02 -578.907 3683
-1357.21 -578.907 3683
-1348.41 -578.907 3683
-1342.51 -580.164 3691
-1333.68 -580.164 3691
-1324.86 -580.164 3691
-1316.03 -580.164 3691
-1321.72 -586.609 3732
-1312.8 -586.609 3732
-1303.87 -586.609 3732
-1294.95 -586.609 3732
-1280.51 -584.094 3716
-1265.81 -581.422 3699
-1268.18 -586.609 3732
-1259.25 -586.609 3732
-1250.33 -586.609 3732
-1241.4 -586.609 3732
-1232.48 -586.609 3732
-1212.74 -581.422 3699
-1214.63 -586.609 3732
-1225.09 -596.04 3792
-1216.02 -596.04 3792
-1206.96 -596.04 3792
-1178.93 -586.609 3732
-1144.3 -573.72 3650
-1135.57 -573.72 3650
-1112.34 -566.332 3603
-314.932 -516.191 3284
-307.079 -516.191 3284
-299.226 -516.191 3284
-291.372 -516.191 3284
-284.642 -518.234 3297
-277.849 -520.278 3310
-269.934 -520.278 3310
-262.018 -520.278 3310
-253.105 -518.234 3297
-245.221 -518.234 3297
-236.401 -516.191 3284
-227.226 -513.204 3265
-219.418 -513.204 3265
-211.611 -513.204 3265
-203.366 -512.104 3258
-194.855 -510.218 3246
-185.998 -507.231 3227
-111.874 -318.297 2025
-107.032 -318.297 2025
-102.442 -319.083 2030
-97.6838 -319.397 2032
-92.8246 -319.397 2032
-88.0521 -319.711 2034
-83.1882 -319.711 2034
-78.3243 -319.711 2034
-73.4604 -319.711 2034
-68.5965 -319.711 2034
-63.6699 -319.397 2032
-58.666 -318.611 2027
-53.7658 -318.297 2025
-48.9234 -318.297 2025
-44.0157 -317.825 2022
-39.2386 -318.297 2025
-34.5151 -319.397 2032
-29.7581 -320.497 2039
-24.8823 -320.497 2039
-20.0064 -320.497 2039
-15.1899 -321.755 2047
-10.3703 -324.112 2062
-5.43948 -324.112 2062
-0.509356 -324.584 2065
4.43941 -325.37 2070
9.41209 -326.156 2075
14.374 -326.156 2075
19.3826 -326.942 2080
24.415 -327.728 2085
29.4432 -328.199 2088
34.4363 -328.199 2088
39.5237 -328.985 2093
44.5925 -329.457 2096
49.652 -329.771 2098
54.669 -329.771 2098
59.686 -329.771 2098
64.7954 -330.243 2101
69.8196 -330.243 2101
74.8437 -330.243 2101
79.8678 -330.243 2101
84.8919 -330.243 2101
89.9161 -330.243 2101
94.9402 -330.243 2101
99.9643 -330.243 2101
104.988 -330.243 2101
109.751 -329.457 2096
114.763 -329.457 2096
119.604 -328.985 2093
124.609 -328.985 2093
129.799 -329.457 2096
134.94 -329.771 2098
139.957 -329.771 2098
145.389 -330.714 2104
150.563 -331.029 2106
156.042 -331.972 2112
161.093 -331.972 2112
166.301 -332.286 2114
171.842 -333.229 2120
177.329 -334.015 2125
182.411 -334.015 2125
188.198 -335.273 2133
193.842 -336.216 2139
199.701 -337.473 2147
204.836 -337.473 2147
210.263 -337.945 2150
215.404 -337.945 2150
221.674 -339.674 2161
226.842 -339.674 2161
232.653 -340.617 2167
238.384 -341.403 2172
243.914 -341.874 2175
249.116 -341.874 2175
255.018 -342.817 2181
260.83 -343.603 2186
266.058 -343.603 2186
271.285 -343.603 2186
276.259 -343.289 2184
281.095 -342.817 2181
286.311 -342.817 2181
291.927 -343.289 2184
297.15 -343.289 2184
302.372 -343.289 2184
509.701 -568.847 3619
521.649 -572.463 3642
530.358 -572.463 3642
539.067 -572.463 3642
547.777 -572.463 3642
556.486 -572.463 3642
565.195 -572.463 3642
573.904 -572.463 3642
582.613 -572.463 3642
592.621 -573.72 3650
601.349 -573.72 3650
611.415 -574.977 3658
620.162 -574.977 3658
628.91 -574.977 3658
637.657 -574.977 3658
646.404 -574.977 3658
655.152 -574.977 3658
663.899 -574.977 3658
675.773 -577.65 3675
684.561 -577.65 3675
693.349 -577.65 3675
705.194 -580.164 3691
717.115 -582.679 3707
725.98 -582.679 3707
741.386 -587.867 3740
753.74 -590.539 3757
766.175 -593.211 3774
775.2 -593.211 3774
789.628 -597.297 3800
798.714 -597.297 3800
807.801 -597.297 3800
816.888 -597.297 3800
825.975 -597.297 3800
831.326 -594.625 3783
840.373 -594.625 3783
849.419 -594.625 3783
858.465 -594.625 3783
869.576 -596.04 3792
884.668 -600.127 3818
893.798 -600.127 3818
902.928 -600.127 3818
909.908 -598.712 3809
919.016 -598.712 3809
921.789 -594.625 3783
928.621 -593.211 3774
935.658 -591.953 3766
932.122 -584.094 3716
941.008 -584.094 3716
947.594 -582.679 3707
954.394 -581.422 3699
959.073 -578.907 3683
967.88 -578.907 3683
972.444 -576.392 3667
974.524 -572.463 3642
983.233 -572.463 3642
991.942 -572.463 3642
1000.65 -572.463 3642
1007.42 -571.362 3635
1011.64 -568.847 3619
1020.29 -568.847 3619
1026.67 -567.59 3611
1035.31 -567.59 3611
1043.94 -567.59 3611
1057.24 -570.105 3627
1065.92 -570.105 3627
1074.59 -570.105 3627
1083.26 -570.105 3627
1091.94 -570.105 3627
1100.61 -570.105 3627
1109.28 -570.105 3627
1117.96 -570.105 3627
1126.63 -570.105 3627
1135.3 -570.105 3627
1141.45 -568.847 3619
1155.19 -571.362 3635
1163.88 -571.362 3635
1174.83 -572.463 3642
1183.54 -572.463 3642
1194.87 -573.72 3650
1206.24 -574.977 3658
1214.98 -574.977 3658
1223.73 -574.977 3658
1232.48 -574.977 3658
1235.8 -572.463 3642
1247.24 -573.72 3650
1255.97 -573.72 3650
1264.7 -573.72 3650
1273.43 -573.72 3650
1276.88 -571.362 3635
1285.58 -571.362 3635
1294.27 -571.362 3635
1302.96 -571.362 3635
1311.65 -571.362 3635
1322.89 -572.463 3642
1331.6 -572.463 3642
1340.31 -572.463 3642
1349.02 -572.463 3642
1357.73 -572.463 3642
1363.81 -571.362 3635
1369.48 -570.105 3627
1378.15 -570.105 3627
1386.83 -570.105 3627
1395.5 -570.105 3627
1404.17 -570.105 3627
1409.73 -568.847 3619
1418.38 -568.847 3619
1423.88 -567.59 3611
1432.52 -567.59 3611
1434.77 -565.075 3595
1440.55 -563.975 3588
1451.96 -565.075 3595
1460.56 -565.075 3595
1469.15 -565.075 3595
1474.87 -563.975 3588
1483.45 -563.975 3588
1488.71 -562.717 3580
1493.92 -561.46 3572
1486.48 -555.487 3534
1494.93 -555.487 3534
1500.4 -554.386 3527
1502.42 -552.029 3512
-2711.63 -582.932 3766
-2702.62 -582.932 3766
-2693.62 -582.932 3766
-2703.15 -586.956 3792
-2731.02 -595.005 3844
-2721.83 -595.005 3844
-2744.39 -601.971 3889
-2754.08 -606.15 3916
-2744.72 -606.15 3916
-2735.35 -606.15 3916
-2725.99 -606.15 3916
-2685.41 -599.185 3871
-2676.15 -599.185 3871
-2648.29 -595.005 3844
-2597.22 -585.563 3783
-2570.39 -581.539 3757
-2561.4 -581.539 3757
-2540.87 -578.907 3740
-2521.09 -576.431 3724
-2500.72 -573.799 3707
-2491.86 -573.799 3707
-2472.27 -571.323 3691
-2490.81 -577.669 3732
-2509.82 -584.17 3774
-2500.79 -584.17 3774
-2491.77 -584.17 3774
-2482.74 -584.17 3774
-1491.29 -577.669 3732
-1482.36 -577.669 3732
-1473.44 -577.669 3732
-1464.51 -577.669 3732
-1455.59 -577.669 3732
-1446.66 -577.669 3732
-1440.82 -578.907 3740
-1431.88 -578.907 3740
-1422.93 -578.907 3740
-1413.99 -578.907 3740
-1405.05 -578.907 3740
-1377.81 -571.323 3691
-1368.99 -571.323 3691
-1357.21 -570.084 3683
-1351.33 -571.323 3691
-1345.42 -572.561 3699
-1339.46 -573.799 3707
-1330.6 -573.799 3707
-1321.73 -573.799 3707
-1316.06 -575.192 3716
-1312.8 -577.669 3732
-1303.87 -577.669 3732
-1294.95 -577.669 3732
-1280.51 -575.192 3716
-1274.36 -576.431 3724
-1270.9 -578.907 3740
-1261.95 -578.907 3740
-1253.01 -578.907 3740
-1241.4 -577.669 3732
-1232.48 -577.669 3732
-1202.24 -567.608 3667
-1214.63 -577.669 3732
-1225.09 -586.956 3792
-1216.02 -586.956 3792
-1206.96 -586.956 3792
-1178.93 -577.669 3732
-1129.57 -557.701 3603
-1120.95 -557.701 3603
-1107.7 -555.38 3588
-314.932 -508.324 3284
-307.079 -508.324 3284
-299.226 -508.324 3284
-291.372 -508.324 3284
-282.397 -506.312 3271
-276.17 -509.253 3290
-268.303 -509.253 3290
-260.435 -509.253 3290
-251.647 -507.395 3278
-243.808 -507.395 3278
-234.098 -503.371 3252
-225.904 -502.442 3246
-218.141 -502.442 3246
-209.148 -499.501 3227
-201.431 -499.501 3227
-193.354 -498.572 3221
-185.652 -498.572 3221
-112.151 -314.22 2030
-107.296 -314.22 2030
-102.442 -314.22 2030
-97.6838 -314.529 2032
-92.8246 -314.529 2032
-87.9655 -314.529 2032
-83.1064 -314.529 2032
-78.2473 -314.529 2032
-73.3159 -314.22 2030
-68.4616 -314.22 2030
-63.5132 -313.755 2027
-58.666 -313.755 2027
-53.6861 -312.981 2022
-48.8509 -312.981 2022
-43.9068 -312.207 2017
-39.2386 -313.446 2025
-34.5151 -314.529 2032
-29.7581 -315.613 2039
-24.8823 -315.613 2039
-20.0064 -315.613 2039
-15.1899 -316.851 2047
-10.3603 -318.863 2060
-5.43421 -318.863 2060
-0.509849 -319.947 2067
4.43941 -320.411 2070
9.41209 -321.185 2075
14.374 -321.185 2075
19.3826 -321.959 2080
24.415 -322.733 2085
29.4432 -323.197 2088
34.4363 -323.197 2088
39.5804 -324.436 2096
44.5925 -324.436 2096
49.652 -324.745 2098
54.669 -324.745 2098
59.7713 -325.21 2101
64.7954 -325.21 2101
69.8196 -325.21 2101
74.8437 -325.21 2101
79.8678 -325.21 2101
84.8919 -325.21 2101
89.9161 -325.21 2101
94.9402 -325.21 2101
99.9643 -325.21 2101
104.988 -325.21 2101
109.751 -324.436 2096
114.763 -324.436 2096
119.775 -324.436 2096
124.787 -324.436 2096
129.799 -324.436 2096
134.94 -324.745 2098
139.957 -324.745 2098
145.389 -325.674 2104
150.563 -325.984 2106
156.042 -326.912 2112
161.093 -326.912 2112
166.301 -327.222 2114
171.842 -328.151 2120
177.329 -328.925 2125
182.411 -328.925 2125
188.198 -330.163 2133
193.842 -331.092 2139
199.701 -332.33 2147
204.836 -332.33 2147
210.263 -332.794 2150
215.404 -332.794 2150
221.982 -334.961 2164
227.157 -334.961 2164
232.868 -335.735 2169
238.713 -336.664 2175
244.587 -337.593 2181
249.803 -337.593 2181
255.603 -338.367 2186
260.83 -338.367 2186
266.058 -338.367 2186
271.285 -338.367 2186
276.259 -338.057 2184
281.482 -338.057 2184
286.967 -338.367 2186
292.195 -338.367 2186
297.422 -338.367 2186
497.724 -556.463 3595
509.701 -560.178 3619
519.501 -561.416 3627
528.174 -561.416 3627
538.031 -562.655 3635
547.777 -563.738 3642
556.486 -563.738 3642
565.195 -563.738 3642
572.801 -562.655 3635
580.214 -561.416 3627
591.322 -563.738 3642
600.031 -563.738 3642
608.74 -563.738 3642
617.45 -563.738 3642
626.159 -563.738 3642
634.868 -563.738 3642
643.577 -563.738 3642
653.719 -564.976 3650
662.447 -564.976 3650
671.175 -564.976 3650
679.904 -564.976 3650
688.632 -564.976 3650
702.137 -568.846 3675
714.02 -571.323 3691
722.846 -571.323 3691
736.628 -575.192 3716
750.329 -578.907 3740
761.1 -580.3 3749
770.065 -580.3 3749
786.095 -585.563 3783
797.033 -586.956 3792
806.101 -586.956 3792
815.169 -586.956 3792
824.236 -586.956 3792
831.326 -585.563 3783
840.373 -585.563 3783
847.398 -584.17 3774
858.465 -585.563 3783
869.576 -586.956 3792
882.582 -589.588 3809
891.691 -589.588 3809
900.799 -589.588 3809
907.758 -588.195 3800
916.845 -588.195 3800
919.596 -584.17 3774
926.653 -582.932 3766
933.422 -581.539 3757
929.865 -573.799 3707
938.729 -573.799 3707
945.549 -572.561 3699
950.266 -570.084 3683
956.99 -568.846 3675
965.778 -568.846 3675
967.936 -564.976 3650
974.524 -563.738 3642
983.233 -563.738 3642
991.942 -563.738 3642
1000.65 -563.738 3642
1007.42 -562.655 3635
1011.64 -560.178 3619
1020.29 -560.178 3619
1026.67 -558.94 3611
1035.31 -558.94 3611
1046.26 -560.178 3619
1054.91 -560.178 3619
1063.56 -560.178 3619
1072.22 -560.178 3619
1080.87 -560.178 3619
1089.53 -560.178 3619
1100.61 -561.416 3627
1109.28 -561.416 3627
1117.96 -561.416 3627
1126.63 -561.416 3627
1135.3 -561.416 3627
1141.45 -560.178 3619
1155.19 -562.655 3635
1163.88 -562.655 3635
1174.83 -563.738 3642
1183.54 -563.738 3642
1194.87 -564.976 3650
1206.24 -566.215 3658
1214.98 -566.215 3658
1223.73 -566.215 3658
1232.48 -566.215 3658
1235.8 -563.738 3642
1247.24 -564.976 3650
1255.97 -564.976 3650
1264.7 -564.976 3650
1273.43 -564.976 3650
1276.88 -562.655 3635
1285.58 -562.655 3635
1294.27 -562.655 3635
1302.96 -562.655 3635
1311.65 -562.655 3635
1322.89 -563.738 3642
1331.6 -563.738 3642
1340.31 -563.738 3642
1349.02 -563.738 3642
1357.73 -563.738 3642
1363.81 -562.655 3635
1369.48 -561.416 3627
1378.15 -561.416 3627
1386.83 -561.416 3627
1395.5 -561.416 3627
1404.17 -561.416 3627
1409.73 -560.178 3619
1418.38 -560.178 3619
1423.88 -558.94 3611
1432.52 -558.94 3611
1434.77 -556.463 3595
1443.36 -556.463 3595
1451.96 -556.463 3595
1460.56 -556.463 3595
1469.15 -556.463 3595
1477.75 -556.463 3595
1486.35 -556.463 3595
1488.71 -554.141 3580
1493.92 -552.903 3572
1489.85 -548.259 3542
1498.32 -548.259 3542
1500.4 -545.937 3527
1502.42 -543.616 3512
-2692.91 -569.948 3740
-2683.96 -569.948 3740
-2693.62 -573.91 3766
-2696.73 -576.501 3783
-2712.55 -581.835 3818
-2703.42 -581.835 3818
-2699.94 -583.054 3826
-2709.78 -587.168 3853
-2713.18 -589.911 3871
-2703.92 -589.911 3871
-2694.66 -589.911 3871
-2679.16 -588.54 3862
-2669.93 -588.54 3862
-2612.47 -577.872 3792
-2585.55 -573.91 3766
-2558.76 -569.948 3740
-2549.81 -569.948 3740
-2540.87 -569.948 3740
-2509.58 -564.919 3707
-2489.93 -562.481 3691
-2481.1 -562.481 3691
-2472.27 -562.481 3691
-2474.13 -564.919 3707
-2509.82 -575.129 3774
-2500.79 -575.129 3774
-2491.77 -575.129 3774
-2482.74 -575.129 3774
-1473.44 -568.729 3732
-1464.51 -568.729 3732
-1455.59 -568.729 3732
-1446.66 -568.729 3732
-1447.37 -572.539 3757
-1438.39 -572.539 3757
-1429.4 -572.539 3757
-1420.42 -572.539 3757
-1405.05 -569.948 3740
-1377.81 -562.481 3691
-1368.99 -562.481 3691
-1357.21 -561.262 3683
-1354.26 -563.7 3699
-1348.33 -564.919 3707
-1339.46 -564.919 3707
-1330.6 -564.919 3707
-1321.73 -564.919 3707
-1316.06 -566.291 3716
-1315.61 -569.948 3740
-1306.67 -569.948 3740
-1297.73 -569.948 3740
-1288.78 -569.948 3740
-1279.84 -569.948 3740
-1270.9 -569.948 3740
-1261.95 -569.948 3740
-1253.01 -569.948 3740
-1244.07 -569.948 3740
-1235.12 -569.948 3740
-1212.74 -563.7 3699
-1198.68 -561.262 3683
-1189.88 -561.262 3683
-1181.07 -561.262 3683
-1167.17 -558.823 3667
-1158.4 -558.823 3667
-1127.06 -547.851 3595
-1118.46 -547.851 3595
-1102.76 -544.346 3572
-323.374 -501.371 3290
-315.507 -501.371 3290
-307.64 -501.371 3290
-299.226 -500.457 3284
-288.533 -495.581 3252
-278.598 -491.771 3227
-274.575 -498.476 3271
-266.753 -498.476 3271
-258.931 -498.476 3271
-248.192 -492.685 3233
-240.461 -492.685 3233
-232.298 -491.771 3227
-223.677 -489.79 3214
-215.991 -489.79 3214
-207.916 -488.875 3208
-200.245 -488.875 3208
-191.853 -487.047 3196
-184.211 -487.047 3196
-112.151 -309.357 2030
-107.296 -309.357 2030
-102.442 -309.357 2030
-97.6838 -309.662 2032
-92.8246 -309.662 2032
-87.9655 -309.662 2032
-83.1064 -309.662 2032
-78.2473 -309.662 2032
-73.3159 -309.357 2030
-68.4616 -309.357 2030
-63.5132 -308.9 2027
-58.6082 -308.595 2025
-53.6861 -308.138 2022
-48.8509 -308.138 2022
-43.9068 -307.376 2017
-39.2774 -308.9 2027
-34.5151 -309.662 2032
-29.729 -310.424 2037
-24.8579 -310.424 2037
-20.0358 -311.186 2042
-15.2047 -312.252 2049
-10.3603 -313.929 2060
-5.43421 -313.929 2060
-0.509849 -314.995 2067
4.4437 -315.757 2072
9.41209 -316.215 2075
14.374 -316.215 2075
19.4105 -317.434 2083
24.4502 -318.196 2088
29.4855 -318.653 2091
34.4857 -318.653 2091
39.5804 -319.415 2096
44.6351 -319.72 2098
49.723 -320.177 2101
54.7472 -320.177 2101
59.7713 -320.177 2101
64.7954 -320.177 2101
69.8196 -320.177 2101
74.8437 -320.177 2101
79.8678 -320.177 2101
84.8919 -320.177 2101
89.9161 -320.177 2101
94.9402 -320.177 2101
99.9643 -320.177 2101
104.988 -320.177 2101
109.751 -319.415 2096
114.763 -319.415 2096
119.775 -319.415 2096
124.787 -319.415 2096
129.923 -319.72 2098
134.94 -319.72 2098
139.957 -319.72 2098
145.389 -320.634 2104
150.778 -321.396 2109
156.042 -321.853 2112
161.093 -321.853 2112
166.537 -322.615 2117
171.842 -323.072 2120
177.329 -323.834 2125
182.411 -323.834 2125
188.021 -324.749 2131
193.842 -325.968 2139
199.701 -327.187 2147
204.836 -327.187 2147
210.263 -327.644 2150
215.404 -327.644 2150
221.982 -329.777 2164
227.157 -329.777 2164
232.868 -330.539 2169
238.713 -331.454 2175
244.587 -332.368 2181
249.803 -332.368 2181
255.603 -333.13 2186
260.83 -333.13 2186
266.058 -333.13 2186
271.285 -333.13 2186
276.512 -333.13 2186
281.74 -333.13 2186
286.967 -333.13 2186
292.195 -333.13 2186
297.422 -333.13 2186
497.724 -547.851 3595
510.827 -552.728 3627
519.501 -552.728 3627
528.174 -552.728 3627
538.031 -553.947 3635
546.724 -553.947 3635
555.416 -553.947 3635
564.109 -553.947 3635
571.54 -552.728 3627
578.934 -551.509 3619
588.887 -552.728 3627
597.56 -552.728 3627
608.74 -555.014 3642
617.45 -555.014 3642
626.159 -555.014 3642
634.868 -555.014 3642
642.34 -553.947 3635
651.032 -553.947 3635
660.995 -555.014 3642
669.704 -555.014 3642
678.413 -555.014 3642
687.123 -555.014 3642
697.36 -556.233 3650
709.377 -558.823 3667
718.146 -558.823 3667
731.672 -562.481 3691
745.514 -566.291 3716
756.025 -567.51 3724
764.93 -567.51 3724
780.692 -572.539 3757
795.141 -576.501 3783
804.188 -576.501 3783
813.234 -576.501 3783
822.28 -576.501 3783
827.591 -573.91 3766
836.596 -573.91 3766
845.602 -573.91 3766
854.608 -573.91 3766
865.448 -575.129 3774
878.643 -577.872 3792
887.711 -577.872 3792
896.779 -577.872 3792
901.547 -575.129 3774
910.572 -575.129 3774
917.647 -573.91 3766
924.438 -572.539 3757
929.199 -569.948 3740
929.865 -564.919 3707
938.729 -564.919 3707
943.504 -562.481 3691
950.266 -561.262 3683
956.99 -560.043 3675
965.778 -560.043 3675
967.936 -556.233 3650
972.651 -553.947 3635
981.343 -553.947 3635
990.035 -553.947 3635
998.728 -553.947 3635
1005.2 -552.728 3627
1013.88 -552.728 3627
1022.55 -552.728 3627
1026.67 -550.289 3611
1037.6 -551.509 3619
1046.26 -551.509 3619
1054.91 -551.509 3619
1063.56 -551.509 3619
1072.22 -551.509 3619
1080.87 -551.509 3619
1089.53 -551.509 3619
1098.18 -551.509 3619
1106.84 -551.509 3619
1115.49 -551.509 3619
1124.14 -551.509 3619
1132.8 -551.509 3619
1141.45 -551.509 3619
1155.19 -553.947 3635
1163.88 -553.947 3635
1174.83 -555.014 3642
1183.54 -555.014 3642
1192.25 -555.014 3642
1203.6 -556.233 3650
1212.33 -556.233 3650
1221.06 -556.233 3650
1227.09 -555.014 3642
1235.8 -555.014 3642
1244.51 -555.014 3642
1253.22 -555.014 3642
1261.92 -555.014 3642
1268.19 -553.947 3635
1276.88 -553.947 3635
1285.58 -553.947 3635
1294.27 -553.947 3635
1302.96 -553.947 3635
1311.65 -553.947 3635
1322.89 -555.014 3642
1331.6 -555.014 3642
1340.31 -555.014 3642
1349.02 -555.014 3642
1357.73 -555.014 3642
1363.81 -553.947 3635
1369.48 -552.728 3627
1378.15 -552.728 3627
1386.83 -552.728 3627
1395.5 -552.728 3627
1404.17 -552.728 3627
1409.73 -551.509 3619
1418.38 -551.509 3619
1423.88 -550.289 3611
1432.52 -550.289 3611
1434.77 -547.851 3595
1446.58 -549.07 3603
1455.19 -549.07 3603
1463.81 -549.07 3603
1472.42 -549.07 3603
1477.75 -547.851 3595
1486.35 -547.851 3595
1492.03 -546.784 3588
1497.27 -545.565 3580
1489.85 -539.774 3542
1498.32 -539.774 3542
1503.38 -538.555 3534
-2692.91 -560.989 3740
-2683.96 -560.989 3740
-2693.62 -564.889 3766
-2696.73 -567.439 3783
-2712.55 -572.689 3818
-2703.42 -572.689 3818
-2699.94 -573.889 3826
-2709.78 -577.939 3853
-2713.18 -580.638 3871
-2703.92 -580.638 3871
-2694.66 -580.638 3871
-2679.16 -579.289 3862
-2669.93 -579.289 3862
-2612.47 -568.789 3792
-2585.55 -564.889 3766
-2558.76 -560.989 3740
-2549.81 -560.989 3740
-2540.87 -560.989 3740
-2509.58 -556.039 3707
-2489.93 -553.639 3691
-2486.48 -554.839 3699
-2477.63 -554.839 3699
-2474.13 -556.039 3707
-2509.82 -566.089 3774
-2500.79 -566.089 3774
-2491.77 -566.089 3774
-2482.74 -566.089 3774
-1473.44 -559.789 3732
-1464.51 -559.789 3732
-1455.59 -559.789 3732
-1446.66 -559.789 3732
-1447.37 -563.539 3757
-1438.39 -563.539 3757
-1429.4 -563.539 3757
-1420.42 -563.539 3757
-1405.05 -560.989 3740
-1383.79 -556.039 3707
-1374.92 -556.039 3707
-1360.16 -553.639 3691
-1357.19 -556.039 3707
-1348.33 -556.039 3707
-1339.46 -556.039 3707
-1330.6 -556.039 3707
-1321.73 -556.039 3707
-1327.74 -562.339 3749
-1318.78 -562.339 3749
-1309.81 -562.339 3749
-1300.85 -562.339 3749
-1291.88 -562.339 3749
-1282.92 -562.339 3749
-1282.45 -566.089 3774
-1273.42 -566.089 3774
-1264.4 -566.089 3774
-1255.38 -566.089 3774
-1246.35 -566.089 3774
-1212.74 -554.839 3699
-1198.68 -552.439 3683
-1189.88 -552.439 3683
-1181.07 -552.439 3683
-1167.17 -550.039 3667
-1158.4 -550.039 3667
-1127.06 -539.239 3595
-1118.46 -539.239 3595
-1102.76 -535.789 3572
-370.267 -514.94 3433
-362.058 -514.94 3433
-353.849 -514.94 3433
-342.115 -509.69 3398
-327.306 -499.49 3330
-315.507 -493.49 3290
-307.64 -493.49 3290
-299.226 -492.59 3284
-288.533 -487.79 3252
-278.598 -484.04 3227
-274.575 -490.64 3271
-266.753 -490.64 3271
-258.931 -490.64 3271
-248.192 -484.94 3233
-240.461 -484.94 3233
-232.298 -484.04 3227
-223.677 -482.09 3214
-215.991 -482.09 3214
-207.916 -481.19 3208
-200.245 -481.19 3208
-191.853 -479.391 3196
-184.211 -479.391 3196
-112.151 -304.494 2030
-107.296 -304.494 2030
-102.442 -304.494 2030
-97.6838 -304.794 2032
-92.8246 -304.794 2032
-87.9655 -304.794 2032
-83.1064 -304.794 2032
-78.2473 -304.794 2032
-73.3159 -304.494 2030
-68.4616 -304.494 2030
-63.5132 -304.044 2027
-58.6082 -303.744 2025
-53.6861 -303.294 2022
-48.8509 -303.294 2022
-43.9068 -302.544 2017
-39.2774 -304.044 2027
-34.5491 -305.094 2034
-29.7581 -305.844 2039
-24.8823 -305.844 2039
-20.0555 -306.594 2044
-15.227 -307.794 2052
-10.3603 -308.994 2060
-5.43421 -308.994 2060
-0.509849 -310.044 2067
4.4437 -310.794 2072
9.42569 -311.694 2078
14.3948 -311.694 2078
19.4105 -312.444 2083
24.4502 -313.194 2088
29.4855 -313.644 2091
34.4857 -313.644 2091
39.5804 -314.394 2096
44.6351 -314.694 2098
49.723 -315.144 2101
54.7472 -315.144 2101
59.7713 -315.144 2101
64.8879 -315.594 2104
69.9193 -315.594 2104
74.9505 -315.594 2104
79.9818 -315.594 2104
85.0132 -315.594 2104
90.0445 -315.594 2104
94.9402 -315.144 2101
99.9643 -315.144 2101
104.988 -315.144 2101
109.855 -314.694 2098
114.872 -314.694 2098
119.775 -314.394 2096
124.787 -314.394 2096
129.923 -314.694 2098
135.133 -315.144 2101
140.157 -315.144 2101
145.527 -315.894 2106
150.778 -316.344 2109
156.042 -316.794 2112
161.093 -316.794 2112
166.537 -317.544 2117
172.004 -318.294 2122
177.329 -318.744 2125
182.411 -318.744 2125
188.021 -319.644 2131
193.842 -320.844 2139
199.701 -322.044 2147
204.836 -322.044 2147
210.263 -322.494 2150
215.404 -322.494 2150
221.982 -324.594 2164
227.157 -324.594 2164
232.868 -325.344 2169
238.713 -326.244 2175
244.587 -327.144 2181
249.803 -327.144 2181
255.603 -327.893 2186
260.83 -327.893 2186
266.058 -327.893 2186
271.285 -327.893 2186
276.512 -327.893 2186
281.74 -327.893 2186
286.967 -327.893 2186
292.195 -327.893 2186
297.422 -327.893 2186
497.724 -539.239 3595
510.827 -544.039 3627
520.647 -545.239 3635
529.339 -545.239 3635
538.031 -545.239 3635
546.724 -545.239 3635
555.416 -545.239 3635
564.109 -545.239 3635
571.54 -544.039 3627
580.214 -544.039 3627
588.887 -544.039 3627
597.56 -544.039 3627
608.74 -546.289 3642
617.45 -546.289 3642
626.159 -546.289 3642
634.868 -546.289 3642
642.34 -545.239 3635
651.032 -545.239 3635
660.995 -546.289 3642
669.704 -546.289 3642
678.413 -546.289 3642
687.123 -546.289 3642
697.36 -547.489 3650
709.377 -550.039 3667
718.146 -550.039 3667
731.672 -553.639 3691
745.514 -557.389 3716
756.025 -558.589 3724
764.93 -558.589 3724
780.692 -563.539 3757
795.141 -567.439 3783
804.188 -567.439 3783
813.234 -567.439 3783
822.28 -567.439 3783
827.591 -564.889 3766
836.596 -564.889 3766
845.602 -564.889 3766
854.608 -564.889 3766
865.448 -566.089 3774
878.643 -568.789 3792
887.711 -568.789 3792
896.779 -568.789 3792
901.547 -566.089 3774
910.572 -566.089 3774
917.647 -564.889 3766
924.438 -563.539 3757
929.199 -560.989 3740
929.865 -556.039 3707
938.729 -556.039 3707
943.504 -553.639 3691
950.266 -552.439 3683
956.99 -551.239 3675
965.778 -551.239 3675
967.936 -547.489 3650
972.651 -545.239 3635
981.343 -545.239 3635
990.035 -545.239 3635
998.728 -545.239 3635
1005.2 -544.039 3627
1013.88 -544.039 3627
1022.55 -544.039 3627
1028.95 -542.839 3619
1037.6 -542.839 3619
1046.26 -542.839 3619
1054.91 -542.839 3619
1063.56 -542.839 3619
1072.22 -542.839 3619
1083.26 -544.039 3627
1091.94 -544.039 3627
1100.61 -544.039 3627
1109.28 -544.039 3627
1117.96 -544.039 3627
1124.14 -542.839 3619
1135.3 -544.039 3627
1143.98 -544.039 3627
1155.19 -545.239 3635
1163.88 -545.239 3635
1174.83 -546.289 3642
1183.54 -546.289 3642
1192.25 -546.289 3642
1203.6 -547.489 3650
1212.33 -547.489 3650
1221.06 -547.489 3650
1227.09 -546.289 3642
1235.8 -546.289 3642
1244.51 -546.289 3642
1253.22 -546.289 3642
1261.92 -546.289 3642
1268.19 -545.239 3635
1276.88 -545.239 3635
1285.58 -545.239 3635
1294.27 -545.239 3635
1302.96 -545.239 3635
1311.65 -545.239 3635
1322.89 -546.289 3642
1331.6 -546.289 3642
1340.31 -546.289 3642
1349.02 -546.289 3642
1357.73 -546.289 3642
1363.81 -545.239 3635
1369.48 -544.039 3627
1378.15 -544.039 3627
1386.83 -544.039 3627
1395.5 -544.039 3627
1404.17 -544.039 3627
1409.73 -542.839 3619
1418.38 -542.839 3619
1423.88 -541.639 3611
1432.52 -541.639 3611
1434.77 -539.239 3595
1446.58 -540.439 3603
1455.19 -540.439 3603
1463.81 -540.439 3603
1472.42 -540.439 3603
1477.75 -539.239 3595
1486.35 -539.239 3595
1492.03 -538.189 3588
1497.27 -536.989 3580
1499.52 -534.739 3565
1508.04 -534.739 3565
1506.79 -531.289 3542
-2675.63 -548.487 3716
-2666.74 -548.487 3716
-2675.02 -552.03 3740
-2684.61 -555.867 3766
-2694.08 -559.705 3792
-2685.01 -559.705 3792
-2694.29 -563.543 3818
-2690.79 -564.723 3826
-2700.56 -568.709 3853
-2691.35 -568.709 3853
-2682.13 -568.709 3853
-2672.92 -568.709 3853
-2663.71 -568.709 3853
-2612.47 -559.705 3792
-2585.55 -555.867 3766
-2558.76 -552.03 3740
-2549.81 -552.03 3740
-2524.56 -548.487 3716
-2509.58 -547.159 3707
-2484.53 -543.616 3683
-2486.48 -545.978 3699
-2477.63 -545.978 3699
-2474.13 -547.159 3707
-2498.51 -554.539 3757
-2489.53 -554.539 3757
-2480.55 -554.539 3757
-2466.3 -553.358 3749
-1451.56 -545.978 3699
-1455.59 -550.849 3732
-1446.66 -550.849 3732
-1447.37 -554.539 3757
-1438.39 -554.539 3757
-1429.4 -554.539 3757
-1420.42 -554.539 3757
-1405.05 -552.03 3740
-1383.79 -547.159 3707
-1374.92 -547.159 3707
-1360.16 -544.797 3691
-1357.19 -547.159 3707
-1348.33 -547.159 3707
-1339.46 -547.159 3707
-1330.6 -547.159 3707
-1321.73 -547.159 3707
-1327.74 -553.358 3749
-1318.78 -553.358 3749
-1309.81 -553.358 3749
-1300.85 -553.358 3749
-1291.88 -553.358 3749
-1282.92 -553.358 3749
-1282.45 -557.048 3774
-1273.42 -557.048 3774
-1264.4 -557.048 3774
-1255.38 -557.048 3774
-1246.35 -557.048 3774
-1212.74 -545.978 3699
-1193.48 -541.255 3667
-1184.71 -541.255 3667
-1175.94 -541.255 3667
-1167.17 -541.255 3667
-1145.76 -535.351 3627
-1127.06 -530.627 3595
-1118.46 -530.627 3595
-370.267 -506.716 3433
-362.058 -506.716 3433
-353.849 -506.716 3433
-342.115 -501.55 3398
-327.306 -491.513 3330
-315.507 -485.609 3290
-307.64 -485.609 3290
-299.226 -484.723 3284
-285.783 -475.424 3221
-277.476 -474.391 3214
-270.882 -476.31 3227
-263.165 -476.31 3227
-255.448 -476.31 3227
-246.734 -474.391 3214
-239.048 -474.391 3214
-231.362 -474.391 3214
-222.006 -470.849 3190
-214.378 -470.849 3190
-206.75 -470.849 3190
-199.122 -470.849 3190
-191.493 -470.849 3190
-183.173 -469.078 3178
-112.151 -299.631 2030
-107.296 -299.631 2030
-102.442 -299.631 2030
-97.5876 -299.631 2030
-92.7333 -299.631 2030
-87.8789 -299.631 2030
-82.9019 -299.188 2027
-78.0547 -299.188 2027
-73.2076 -299.188 2027
-68.3604 -299.188 2027
-63.5132 -299.188 2027
-58.6082 -298.893 2025
-53.6861 -298.45 2022
-48.8509 -298.45 2022
-43.9068 -297.712 2017
-39.2774 -299.188 2027
-34.5491 -300.221 2034
-29.7581 -300.96 2039
-24.8823 -300.96 2039
-20.0555 -301.698 2044
-15.227 -302.878 2052
-10.3603 -304.059 2060
-5.43421 -304.059 2060
-0.509849 -305.092 2067
4.4437 -305.83 2072
9.42569 -306.716 2078
14.3948 -306.716 2078
19.4105 -307.454 2083
24.4502 -308.192 2088
29.4855 -308.635 2091
34.4857 -308.635 2091
39.5804 -309.373 2096
44.6351 -309.668 2098
49.723 -310.111 2101
54.7472 -310.111 2101
59.7713 -310.111 2101
64.8879 -310.554 2104
69.9193 -310.554 2104
74.9505 -310.554 2104
79.9818 -310.554 2104
85.0132 -310.554 2104
90.0445 -310.554 2104
94.9402 -310.111 2101
99.9643 -310.111 2101
104.988 -310.111 2101
109.855 -309.668 2098
114.872 -309.668 2098
119.775 -309.373 2096
124.787 -309.373 2096
129.923 -309.668 2098
135.133 -310.111 2101
140.157 -310.111 2101
145.527 -310.849 2106
150.778 -311.292 2109
156.042 -311.734 2112
161.093 -311.734 2112
166.537 -312.472 2117
172.004 -313.21 2122
177.329 -313.653 2125
182.411 -313.653 2125
188.021 -314.539 2131
193.842 -315.72 2139
199.422 -316.458 2144
204.549 -316.458 2144
210.263 -317.343 2150
215.404 -317.343 2150
221.982 -319.41 2164
227.157 -319.41 2164
232.868 -320.148 2169
238.713 -321.033 2175
244.587 -321.919 2181
249.803 -321.919 2181
255.603 -322.657 2186
260.83 -322.657 2186
266.058 -322.657 2186
271.285 -322.657 2186
276.512 -322.657 2186
281.74 -322.657 2186
286.967 -322.657 2186
292.195 -322.657 2186
297.422 -322.657 2186
510.827 -535.351 3627
520.647 -536.531 3635
529.339 -536.531 3635
538.031 -536.531 3635
546.724 -536.531 3635
555.416 -536.531 3635
564.109 -536.531 3635
571.54 -535.351 3627
580.214 -535.351 3627
588.887 -535.351 3627
597.56 -535.351 3627
607.57 -536.531 3635
616.263 -536.531 3635
624.955 -536.531 3635
633.648 -536.531 3635
642.34 -536.531 3635
651.032 -536.531 3635
660.995 -537.565 3642
669.704 -537.565 3642
678.413 -537.565 3642
687.123 -537.565 3642
695.832 -537.565 3642
709.377 -541.255 3667
718.146 -541.255 3667
731.672 -544.797 3691
740.499 -544.797 3691
756.025 -549.668 3724
764.93 -549.668 3724
779.03 -553.358 3749
791.568 -555.867 3766
800.574 -555.867 3766
809.579 -555.867 3766
818.585 -555.867 3766
825.613 -554.539 3757
834.597 -554.539 3757
843.581 -554.539 3757
852.565 -554.539 3757
859.715 -553.358 3749
872.619 -555.867 3766
881.625 -555.867 3766
890.63 -555.867 3766
897.486 -554.539 3757
906.47 -554.539 3757
913.505 -553.358 3749
920.255 -552.03 3740
927.211 -550.849 3732
927.858 -545.978 3699
936.703 -545.978 3699
943.504 -544.797 3691
948.202 -542.436 3675
952.563 -539.926 3658
961.31 -539.926 3658
965.815 -537.565 3642
970.51 -535.351 3627
979.183 -535.351 3627
987.857 -535.351 3627
996.53 -535.351 3627
1005.2 -535.351 3627
1013.88 -535.351 3627
1022.55 -535.351 3627
1028.95 -534.17 3619
1037.6 -534.17 3619
1046.26 -534.17 3619
1054.91 -534.17 3619
1063.56 -534.17 3619
1072.22 -534.17 3619
1083.26 -535.351 3627
1091.94 -535.351 3627
1100.61 -535.351 3627
1109.28 -535.351 3627
1117.96 -535.351 3627
1124.14 -534.17 3619
1135.3 -535.351 3627
1143.98 -535.351 3627
1152.65 -535.351 3627
1163.88 -536.531 3635
1172.58 -536.531 3635
1181.27 -536.531 3635
1192.25 -537.565 3642
1200.96 -537.565 3642
1209.67 -537.565 3642
1218.38 -537.565 3642
1227.09 -537.565 3642
1233.42 -536.531 3635
1242.11 -536.531 3635
1250.81 -536.531 3635
1259.5 -536.531 3635
1268.19 -536.531 3635
1274.07 -535.351 3627
1282.75 -535.351 3627
1291.42 -535.351 3627
1300.09 -535.351 3627
1311.65 -536.531 3635
1320.35 -536.531 3635
1329.04 -536.531 3635
1337.73 -536.531 3635
1346.42 -536.531 3635
1355.12 -536.531 3635
1363.81 -536.531 3635
1369.48 -535.351 3627
1378.15 -535.351 3627
1386.83 -535.351 3627
1395.5 -535.351 3627
1404.17 -535.351 3627
1409.73 -534.17 3619
1418.38 -534.17 3619
1423.88 -532.989 3611
1432.52 -532.989 3611
1434.77 -530.627 3595
1446.58 -531.808 3603
1455.19 -531.808 3603
1463.81 -531.808 3603
1472.42 -531.808 3603
1477.75 -530.627 3595
1486.35 -530.627 3595
1492.03 -529.594 3588
1497.27 -528.413 3580
1499.52 -526.199 3565
1508.04 -526.199 3565
1506.79 -522.805 3542
-2910.59 -569.934 3925
-2901.2 -569.934 3925
-2891.81 -569.934 3925
-2882.43 -569.934 3925
-2873.04 -569.934 3925
-2863.66 -569.934 3925
-2669.15 -538.279 3707
-2660.28 -538.279 3707
-2657.86 -539.586 3716
-2678.2 -545.539 3757
-2687.68 -549.314 3783
-2678.64 -549.314 3783
-2687.94 -553.09 3809
-2690.79 -555.558 3826
-2700.56 -559.479 3853
-2691.35 -559.479 3853
-2682.13 -559.479 3853
-2672.92 -559.479 3853
-2663.71 -559.479 3853
-2606.27 -549.314 3783
-2585.55 -546.846 3766
-2558.76 -543.07 3740
-2549.81 -543.07 3740
-2524.56 -539.586 3716
-2509.58 -538.279 3707
-2484.53 -534.794 3683
-2486.48 -537.117 3699
-2477.63 -537.117 3699
-2474.13 -538.279 3707
-2498.51 -545.539 3757
-2489.53 -545.539 3757
-2480.55 -545.539 3757
-1490.02 -548.008 3774
-1480.99 -548.008 3774
-1471.97 -548.008 3774
-1456.36 -545.539 3757
-1450.84 -546.846 3766
-1441.83 -546.846 3766
-1432.83 -546.846 3766
-1423.82 -546.846 3766
-1405.05 -543.07 3740
-1387.15 -539.586 3716
-1378.26 -539.586 3716
-1366.06 -538.279 3707
-1357.19 -538.279 3707
-1348.33 -538.279 3707
-1339.46 -538.279 3707
-1330.6 -538.279 3707
-1321.73 -538.279 3707
-1327.74 -544.377 3749
-1318.78 -544.377 3749
-1309.81 -544.377 3749
-1300.85 -544.377 3749
-1291.88 -544.377 3749
-1282.92 -544.377 3749
-1282.45 -548.008 3774
-1273.42 -548.008 3774
-1264.4 -548.008 3774
-1255.38 -548.008 3774
-1246.35 -548.008 3774
-1212.74 -537.117 3699
-1193.48 -532.47 3667
-1176.63 -528.84 3642
-1167.92 -528.84 3642
-1159.21 -528.84 3642
-1143.24 -525.501 3619
-1127.06 -522.016 3595
-1118.46 -522.016 3595
-444.142 -538.279 3707
-435.278 -538.279 3707
-426.413 -538.279 3707
-417.549 -538.279 3707
-403.282 -531.164 3658
-383.641 -516.498 3557
-375.135 -516.498 3557
-361.991 -509.964 3512
-342.115 -493.41 3398
-328.584 -485.424 3343
-316.754 -479.615 3303
-308.855 -479.615 3303
-297.494 -474.098 3265
-285.783 -467.709 3221
-276.958 -465.821 3208
-269.79 -466.692 3214
-262.105 -466.692 3214
-254.419 -466.692 3214
-246.734 -466.692 3214
-239.048 -466.692 3214
-229.635 -463.207 3190
-222.006 -463.207 3190
-214.378 -463.207 3190
-205.972 -461.465 3178
-198.372 -461.465 3178
-190.773 -461.465 3178
-116.832 -294.333 2027
-112.151 -294.768 2030
-107.296 -294.768 2030
-102.442 -294.768 2030
-97.5876 -294.768 2030
-92.7333 -294.768 2030
-87.8789 -294.768 2030
-82.9019 -294.333 2027
-78.0547 -294.333 2027
-73.2076 -294.333 2027
-68.3604 -294.333 2027
-63.4505 -294.042 2025
-58.6082 -294.042 2025
-53.6861 -293.607 2022
-48.8509 -293.607 2022
-43.9068 -292.881 2017
-39.2774 -294.333 2027
-34.5491 -295.349 2034
-29.8019 -296.511 2042
-24.9189 -296.511 2042
-20.0849 -297.237 2047
-15.227 -297.963 2052
-10.3603 -299.124 2060
-5.43421 -299.124 2060
-0.509849 -300.141 2067
4.4437 -300.867 2072
9.42569 -301.738 2078
14.3948 -301.738 2078
19.4105 -302.464 2083
24.4502 -303.19 2088
29.4855 -303.626 2091
34.4857 -303.626 2091
39.5804 -304.352 2096
44.6351 -304.642 2098
49.723 -305.078 2101
54.7472 -305.078 2101
59.7713 -305.078 2101
64.8879 -305.513 2104
69.9193 -305.513 2104
74.9505 -305.513 2104
79.9818 -305.513 2104
85.0132 -305.513 2104
90.0445 -305.513 2104
94.9402 -305.078 2101
99.9643 -305.078 2101
104.988 -305.078 2101
109.855 -304.642 2098
114.872 -304.642 2098
119.889 -304.642 2098
124.906 -304.642 2098
129.923 -304.642 2098
135.133 -305.078 2101
140.157 -305.078 2101
145.527 -305.804 2106
150.778 -306.239 2109
156.042 -306.675 2112
161.093 -306.675 2112
166.537 -307.401 2117
172.004 -308.127 2122
