ply
format ascii 1.0
comment File generated
element vertex 2259
property float x
property float y
property float z
end_header
-115.462 385.77 2288
-109.99 385.77 2288
-104.245 384.758 2282
-98.2686 382.735 2270
-92.5949 381.723 2264
-87.181 381.723 2264
-81.7671 381.723 2264
-76.252 381.217 2261
-70.6259 380.037 2254
-65.2359 380.037 2254
-59.8459 380.037 2254
-54.311 379.025 2248
-48.8047 378.014 2242
-43.3853 377.508 2239
-38.0312 377.508 2239
-32.5019 375.485 2227
-27.1033 374.473 2221
-21.6842 372.618 2210
-16.3995 372.618 2210
-11.0845 371.607 2204
-5.80616 371.101 2201
-0.540682 369.584 2192
4.70105 369.584 2192
9.8929 367.729 2181
15.0875 367.223 2178
20.2119 365.706 2169
25.3753 365.368 2167
30.5572 365.368 2167
35.6402 364.357 2161
40.6945 363.345 2155
45.8052 363.008 2153
50.9537 363.008 2153
55.9458 361.996 2147
60.9946 361.491 2144
66.1216 361.491 2144
71.2485 361.491 2144
76.3755 361.491 2144
81.5024 361.491 2144
86.5486 361.153 2142
91.7563 361.491 2144
96.8833 361.491 2144
102.01 361.491 2144
107.137 361.491 2144
112.421 361.996 2147
117.555 361.996 2147
122.861 362.502 2150
128.479 363.851 2158
133.825 364.357 2161
138.992 364.357 2161
144.16 364.357 2161
149.328 364.357 2161
154.71 364.863 2164
159.884 364.863 2164
165.059 364.863 2164
356.367 680.998 4039
366.026 680.998 4039
375.684 680.998 4039
382.576 676.109 4010
393.143 677.795 4020
406.663 684.37 4059
416.37 684.37 4059
426.076 684.37 4059
435.782 684.37 4059
445.489 684.37 4059
455.195 684.37 4059
464.901 684.37 4059
474.607 684.37 4059
481.927 680.998 4039
491.586 680.998 4039
527.836 510.538 3028
535.961 511.381 3033
543.214 511.381 3033
552.463 513.236 3044
559.742 513.236 3044
567.021 513.236 3044
574.3 513.236 3044
581.579 513.236 3044
587.891 512.393 3039
595.158 512.393 3039
599.056 509.526 3022
606.282 509.526 3022
615.742 511.381 3033
624.227 512.393 3039
631.494 512.393 3039
639.812 513.236 3044
647.091 513.236 3044
654.371 513.236 3044
660.563 512.393 3039
664.094 509.526 3022
660.658 501.433 2974
667.77 501.433 2974
673.52 500.422 2968
679.471 499.579 2963
684.239 497.892 2953
691.3 497.892 2953
698.362 497.892 2953
705.423 497.892 2953
709.831 496.038 2942
716.866 496.038 2942
723.901 496.038 2942
730.937 496.038 2942
739.226 496.881 2947
751.591 500.422 2968
758.688 500.422 2968
765.786 500.422 2968
772.883 500.422 2968
781.557 501.433 2974
794.238 504.974 2995
801.4 504.974 2995
808.562 504.974 2995
815.724 504.974 2995
828.93 508.683 3017
836.145 508.683 3017
846.434 510.538 3028
856.776 512.393 3039
865.465 513.236 3044
872.744 513.236 3044
881.758 514.247 3050
894.007 517.114 3067
904.574 518.968 3078
913.712 519.98 3084
921.087 519.98 3084
935.386 523.858 3107
955.257 530.771 3148
962.785 530.771 3148
970.313 530.771 3148
983.432 533.805 3166
1004.15 540.887 3208
1011.82 540.887 3208
1056.04 560.277 3323
1066.23 561.457 3330
1082.9 566.009 3357
1101.98 571.742 3391
1110.08 571.742 3391
1120.5 572.922 3398
1137.93 577.643 3426
1162.85 586.073 3476
1171.16 586.073 3476
1181.85 587.253 3483
1194.96 589.614 3497
1203.32 589.614 3497
1211.68 589.614 3497
1225.28 592.143 3512
1233.68 592.143 3512
1244.91 593.492 3520
1253.32 593.492 3520
1264.25 594.672 3527
1275.21 595.852 3534
1286.57 597.201 3542
1295.04 597.201 3542
1303.51 597.201 3542
1317.53 599.73 3557
1329.02 601.079 3565
1337.54 601.079 3565
1346.07 601.079 3565
1357.25 602.259 3572
1365.8 602.259 3572
1374.34 602.259 3572
1382.88 602.259 3572
1388.69 601.079 3565
1397.22 601.079 3565
1396.68 597.201 3542
1396.42 593.492 3520
1395.66 589.614 3497
1389.56 583.544 3461
1397.84 583.544 3461
1391.9 577.643 3426
1382.93 570.562 3384
1379.92 566.009 3357
1387.95 566.009 3357
1384.75 561.457 3330
1389.78 560.277 3323
1392.26 558.085 3310
1400.18 558.085 3310
1397.03 553.701 3284
1399.32 551.509 3271
1404.56 550.497 3265
1409.34 549.317 3258
1417.13 549.317 3258
1422.3 548.306 3252
1427.44 547.294 3246
1437.85 548.306 3252
1445.63 548.306 3252
1453.41 548.306 3252
1463.88 549.317 3258
1471.67 549.317 3258
1479.46 549.317 3258
1484.51 548.306 3252
1489.54 547.294 3246
1494.07 546.114 3239
1501.81 546.114 3239
1506.76 545.102 3233
1511.68 544.09 3227
1516.58 543.079 3221
1512.45 538.864 3196
1520.09 538.864 3196
1522 536.84 3184
1518.08 532.794 3160
1511.15 527.736 3130
1518.64 527.736 3130
1514.91 523.858 3107
1511.07 519.98 3084
1498.75 513.236 3044
1495.14 509.526 3022
1502.37 509.526 3022
1482.62 500.422 2968
1464.12 491.823 2917
1460.51 488.282 2896
1467.43 488.282 2896
1469.27 486.596 2886
1471.05 484.91 2876
1475.36 484.067 2871
1482.22 484.067 2871
1481.83 481.706 2857
1488.66 481.706 2857
1490.26 480.02 2847
1497.07 480.02 2847
1503.87 480.02 2847
1510.68 480.02 2847
1514.83 479.177 2842
1518.94 478.334 2837
1525.73 478.334 2837
1529.81 477.491 2832
1534.41 476.817 2828
1538.45 475.974 2823
1545.2 475.974 2823
1551.95 475.974 2823
1555.94 475.131 2818
1557.69 473.613 2809
1564.41 473.613 2809
1568.33 472.77 2804
1569.42 471.084 2794
1573.84 470.41 2790
1582.78 471.084 2794
1592.3 471.927 2799
1599 471.927 2799
1608.56 472.77 2804
1615.26 472.77 2804
1621.97 472.77 2804
1628.68 472.77 2804
1635.38 472.77 2804
1645.01 473.613 2809
1651.73 473.613 2809
1658.45 473.613 2809
1667.54 474.288 2813
1674.26 474.288 2813
1680.99 474.288 2813
1690.72 475.131 2818
1697.46 475.131 2818
1704.19 475.131 2818
1710.93 475.131 2818
1723.77 476.817 2828
1730.53 476.817 2828
1737.29 476.817 2828
1744.05 476.817 2828
1750.82 476.817 2828
1754.47 475.974 2823
1754.98 474.288 2813
1761.71 474.288 2813
1768.44 474.288 2813
1772.64 473.613 2809
1779.36 473.613 2809
1782.9 472.77 2804
1789.6 472.77 2804
1793.1 471.927 2799
1799.8 471.927 2799
1800.68 470.41 2790
1807.35 470.41 2790
1814.02 470.41 2790
1820.7 470.41 2790
1827.37 470.41 2790
1834.04 470.41 2790
1840.71 470.41 2790
1847.38 470.41 2790
1850.73 469.567 2785
1857.39 469.567 2785
1864.05 469.567 2785
1870.71 469.567 2785
1877.37 469.567 2785
1884.03 469.567 2785
1890.69 469.567 2785
1897.35 469.567 2785
1894.44 467.206 2771
1904.5 468.049 2776
1913.89 468.724 2780
1920.54 468.724 2780
1927.18 468.724 2780
1931.05 468.049 2776
1937.69 468.049 2776
1944.32 468.049 2776
1950.96 468.049 2776
1954.08 467.206 2771
1957.87 466.532 2767
1967.33 467.206 2771
1973.95 467.206 2771
1980.58 467.206 2771
1987.21 467.206 2771
1993.83 467.206 2771
1997.57 466.532 2767
1994.05 464.171 2753
1994.09 462.654 2744
2000.65 462.654 2744
2016.72 464.846 2757
2023.32 464.846 2757
2029.91 464.846 2757
2036.5 464.846 2757
2043.09 464.846 2757
2043 463.328 2748
2060.01 465.689 2762
2066.61 465.689 2762
2073.22 465.689 2762
2079.82 465.689 2762
2079.63 464.171 2753
2086.21 464.171 2753
2092.8 464.171 2753
2095.57 463.328 2748
2099.08 462.654 2744
-2059.64 482.736 2823
-2073.98 487.695 2852
-2067.16 487.695 2852
-2060.34 487.695 2852
-2053.52 487.695 2852
-2039.53 485.985 2842
-2032.73 485.985 2842
-2022.37 485.13 2837
-2072.42 498.81 2917
-2159.62 521.554 3050
-2152.33 521.554 3050
-2145.03 521.554 3050
-2130.03 519.672 3039
-2122.76 519.672 3039
-2059.11 505.821 2958
-2030.53 500.52 2927
-2023.53 500.52 2927
-1998.62 496.074 2901
-1991.68 496.074 2901
-1984.75 496.074 2901
-1981.22 496.929 2906
-1977.67 497.784 2911
-1970.7 497.784 2911
-1963.74 497.784 2911
-1946.7 495.219 2896
-1939.77 495.219 2896
-1942.86 497.784 2911
-1935.9 497.784 2911
-1932.91 498.81 2917
-1932.54 500.52 2927
-1932.12 502.23 2937
-1925.1 502.23 2937
-1942.24 508.557 2974
-1959.2 514.884 3011
-1952 514.884 3011
-1973.22 522.409 3055
-1973.64 524.461 3067
-1973.35 526.342 3078
-1965.99 526.342 3078
-1973.27 530.275 3101
-1976.63 533.182 3118
-1980.54 536.26 3136
-1973.04 536.26 3136
-1969.31 537.286 3142
-1965.54 538.312 3148
-1961.74 539.338 3154
-1954.2 539.338 3154
-1950.36 540.364 3160
-1953.87 543.442 3178
-1964.64 548.572 3208
-1956.97 548.572 3208
-1952.95 549.598 3214
-1945.26 549.598 3214
-1941.8 550.795 3221
-1934.09 550.795 3221
-1933.57 552.847 3233
-1940.73 557.122 3258
-1963.79 566.014 3310
-1955.87 566.014 3310
-1971.5 572.854 3350
-1995.72 582.259 3405
-2016.18 590.638 3454
-2007.93 590.638 3454
-2012.4 594.4 3476
-2024.85 600.556 3512
-2029.08 604.318 3534
-2020.63 604.318 3534
-2025.27 608.251 3557
-2016.77 608.251 3557
-2008.26 608.251 3557
-1999.76 608.251 3557
-1991.25 608.251 3557
-1982.74 608.251 3557
-1974.24 608.251 3557
-1965.73 608.251 3557
-1957.23 608.251 3557
-1944.34 606.883 3549
-1935.85 606.883 3549
-1927.36 606.883 3549
-1915.09 605.686 3542
-1910.39 606.883 3549
-1906.19 608.251 3557
-1897.69 608.251 3557
-1889.18 608.251 3557
-1880.67 608.251 3557
-1872.17 608.251 3557
-1863.66 608.251 3557
-1855.16 608.251 3557
-1850.8 609.619 3565
-1842.28 609.619 3565
-1833.75 609.619 3565
-1825.23 609.619 3565
-1816.7 609.619 3565
-1811.73 610.816 3572
-1803.19 610.816 3572
-1798.66 612.184 3580
-1790.1 612.184 3580
-1789.01 614.749 3595
-1780.41 614.749 3595
-1771.81 614.749 3595
-1763.22 614.749 3595
-1766.33 618.853 3619
-1757.68 618.853 3619
-1752.89 620.221 3627
-1751.43 622.786 3642
-1762.34 629.797 3683
-1753.54 629.797 3683
-1748.52 631.165 3691
-1751.47 635.44 3716
-1750.09 638.176 3732
-1741.17 638.176 3732
-1740.13 641.083 3749
-1739.02 643.99 3766
-1730.01 643.99 3766
-1721.01 643.99 3766
-1715.64 645.358 3774
-1710.68 646.897 3783
-1717.38 652.882 3818
-1708.25 652.882 3818
-1699.12 652.882 3818
-1689.99 652.882 3818
-1680.86 652.882 3818
-1656.41 646.897 3783
-1639.96 643.99 3766
-1605.4 633.901 3707
-1579.31 627.061 3667
-1570.54 627.061 3667
-1551.12 622.786 3642
-1529.28 617.485 3611
-1494.54 606.883 3549
-1486.05 606.883 3549
-1471.32 604.318 3534
-1453.76 600.556 3512
-1445.37 600.556 3512
-1436.97 600.556 3512
-1416.77 595.597 3483
-1402.38 593.032 3468
-1382.83 588.244 3440
-1374.6 588.244 3440
-1358.04 584.653 3419
-1336.04 578.668 3384
-1322.46 576.274 3370
-1309.33 574.051 3357
-1301.3 574.051 3357
-1290.58 572.854 3350
-1282.56 572.854 3350
-1279.5 575.077 3363
-1271.46 575.077 3363
-1263.42 575.077 3363
-1255.37 575.077 3363
-1247.33 575.077 3363
-1252.19 581.062 3398
-1244.06 581.062 3398
-1238.48 582.259 3405
-1230.34 582.259 3405
-1222.2 582.259 3405
-1214.06 582.259 3405
-1205.91 582.259 3405
-752.135 617.485 3611
-743.5 617.485 3611
-734.865 617.485 3611
-726.23 617.485 3611
-717.595 617.485 3611
-683.83 595.597 3483
-675.501 595.597 3483
-657.594 587.047 3433
-648.061 585.85 3426
-649.207 594.4 3476
-649.007 601.924 3520
-641.864 603.121 3527
-633.429 603.121 3527
-626.236 604.318 3534
-619.183 605.686 3542
-611.92 606.883 3549
-603.434 606.883 3549
-596.288 608.251 3557
-589.104 609.619 3565
-584.325 613.552 3588
-575.745 613.552 3588
-568.271 614.749 3595
-560.92 616.117 3603
-552.304 616.117 3603
-543.688 616.117 3603
-536.26 617.485 3611
-528.794 618.853 3619
-521.29 620.221 3627
-512.617 620.221 3627
-505.055 621.589 3635
-496.363 621.589 3635
-487.67 621.589 3635
-477.924 620.221 3627
-469.25 620.221 3627
-458.545 617.485 3611
-449.91 617.485 3611
-441.275 617.485 3611
-434.557 620.221 3627
-426.824 621.589 3635
-419.857 624.154 3650
-411.128 624.154 3650
-403.282 625.522 3658
-396.368 628.429 3675
-388.424 629.797 3683
-379.617 629.797 3683
-373.226 633.901 3707
-367.605 639.544 3740
-359.525 641.083 3749
-350.56 641.083 3749
-343.872 645.358 3774
-335.646 646.897 3783
-326.6 646.897 3783
-317.554 646.897 3783
-309.894 649.804 3800
-300.807 649.804 3800
-291.72 649.804 3800
-282.633 649.804 3800
-272.322 646.897 3783
-262.649 645.358 3774
-253.625 645.358 3774
-244.081 643.99 3766
-235.076 643.99 3766
-137.947 392.961 2298
-132.452 392.961 2298
-126.957 392.961 2298
-121.462 392.961 2298
-115.815 392.448 2295
-110.327 392.448 2295
-104.245 390.225 2282
-98.2686 388.173 2270
-92.5949 387.147 2264
-87.181 387.147 2264
-81.7671 387.147 2264
-76.0159 385.437 2254
-70.6259 385.437 2254
-65.2359 385.437 2254
-59.8459 385.437 2254
-54.311 384.411 2248
-48.7394 382.872 2239
-43.269 381.846 2233
-37.9293 381.846 2233
-32.4143 379.794 2221
-27.03 378.768 2215
-21.6548 377.4 2207
-16.3772 377.4 2207
-11.0845 376.887 2204
-5.79033 375.348 2195
-0.540682 374.835 2192
4.70105 374.835 2192
9.87929 372.441 2178
15.0875 372.441 2178
20.1933 370.56 2167
25.3401 370.047 2164
30.5149 370.047 2164
35.5907 369.02 2158
40.6945 368.507 2155
45.8052 368.165 2153
50.9537 368.165 2153
55.9458 367.139 2147
61.08 367.139 2147
66.1216 366.626 2144
71.2485 366.626 2144
76.3755 366.626 2144
81.5024 366.626 2144
86.6294 366.626 2144
91.7563 366.626 2144
96.8833 366.626 2144
102.01 366.626 2144
107.137 366.626 2144
112.421 367.139 2147
117.555 367.139 2147
122.861 367.652 2150
128.479 369.02 2158
133.825 369.534 2161
138.992 369.534 2161
144.16 369.534 2161
149.328 369.534 2161
154.71 370.047 2164
159.884 370.047 2164
165.059 370.047 2164
356.367 690.674 4039
366.026 690.674 4039
375.684 690.674 4039
382.576 685.715 4010
393.143 687.425 4020
406.663 694.094 4059
416.37 694.094 4059
426.076 694.094 4059
435.782 694.094 4059
445.489 694.094 4059
455.195 694.094 4059
464.901 694.094 4059
474.607 694.094 4059
552.463 520.528 3044
559.742 520.528 3044
567.021 520.528 3044
574.3 520.528 3044
581.579 520.528 3044
587.891 519.672 3039
595.158 519.672 3039
599.056 516.766 3022
606.282 516.766 3022
615.742 518.646 3033
624.227 519.672 3039
631.494 519.672 3039
639.812 520.528 3044
647.091 520.528 3044
654.371 520.528 3044
660.563 519.672 3039
664.094 516.766 3022
660.658 508.557 2974
667.77 508.557 2974
673.52 507.531 2968
679.471 506.676 2963
684.239 504.966 2953
691.3 504.966 2953
698.362 504.966 2953
705.423 504.966 2953
709.831 503.085 2942
716.866 503.085 2942
723.901 503.085 2942
730.937 503.085 2942
739.226 503.94 2947
751.591 507.531 2968
758.688 507.531 2968
765.786 507.531 2968
772.883 507.531 2968
781.557 508.557 2974
794.238 512.148 2995
801.4 512.148 2995
808.562 512.148 2995
815.724 512.148 2995
828.93 515.91 3017
836.145 515.91 3017
846.434 517.792 3028
856.776 519.672 3039
865.465 520.528 3044
872.744 520.528 3044
881.758 521.554 3050
894.007 524.461 3067
904.574 526.342 3078
913.712 527.368 3084
921.087 527.368 3084
935.386 531.301 3107
955.257 538.312 3148
962.785 538.312 3148
970.313 538.312 3148
983.432 541.39 3166
1004.15 548.572 3208
1011.82 548.572 3208
1056.04 568.237 3323
1066.23 569.434 3330
1082.9 574.051 3357
1101.98 579.865 3391
1110.08 579.865 3391
1120.5 581.062 3398
1137.93 585.85 3426
1162.85 594.4 3476
1171.16 594.4 3476
1181.85 595.597 3483
1194.96 597.991 3497
1203.32 597.991 3497
1211.68 597.991 3497
1225.28 600.556 3512
1233.68 600.556 3512
1244.91 601.924 3520
1253.32 601.924 3520
1264.25 603.121 3527
1275.21 604.318 3534
1286.57 605.686 3542
1295.04 605.686 3542
1303.51 605.686 3542
1317.53 608.251 3557
1329.02 609.619 3565
1337.54 609.619 3565
1346.07 609.619 3565
1357.25 610.816 3572
1365.8 610.816 3572
1374.34 610.816 3572
1382.88 610.816 3572
1382.46 606.883 3549
1390.95 606.883 3549
1393.52 604.318 3534
1396.42 601.924 3520
1390.07 595.597 3483
1383.94 589.441 3447
1392.19 589.441 3447
1391.9 585.85 3426
1382.93 578.668 3384
1379.92 574.051 3357
1387.95 574.051 3357
1384.75 569.434 3330
1389.78 568.237 3323
1392.26 566.014 3310
1400.18 566.014 3310
1397.03 561.568 3284
1399.32 559.345 3271
1404.56 558.319 3265
1409.34 557.122 3258
1417.13 557.122 3258
1422.3 556.096 3252
1427.44 555.07 3246
1435.2 555.07 3246
1442.96 555.07 3246
1450.73 555.07 3246
1458.49 555.07 3246
1466.25 555.07 3246
1474.01 555.07 3246
1481.77 555.07 3246
1489.54 555.07 3246
1491.3 552.847 3233
1499.03 552.847 3233
1506.76 552.847 3233
1511.68 551.821 3227
1513.28 549.598 3214
1512.45 546.52 3196
1520.09 546.52 3196
1522 544.468 3184
1518.08 540.364 3160
1511.15 535.234 3130
1518.64 535.234 3130
1514.91 531.301 3107
1511.07 527.368 3084
1498.75 520.528 3044
1495.14 516.766 3022
1502.37 516.766 3022
1482.62 507.531 2968
1464.12 498.81 2917
1460.51 495.219 2896
1467.43 495.219 2896
1469.27 493.509 2886
1471.05 491.799 2876
1475.36 490.944 2871
1482.22 490.944 2871
1481.83 488.55 2857
1488.66 488.55 2857
1490.26 486.84 2847
1494.44 485.985 2842
1501.23 485.985 2842
1508.03 485.985 2842
1512.16 485.13 2837
1516.27 484.275 2832
1523.04 484.275 2832
1527.65 483.591 2828
1534.41 483.591 2828
1538.45 482.736 2823
1545.2 482.736 2823
1549.2 481.881 2818
1555.94 481.881 2818
1557.69 480.342 2809
1564.41 480.342 2809
1568.33 479.487 2804
1569.42 477.777 2794
1573.84 477.093 2790
1582.78 477.777 2794
1592.3 478.632 2799
1599 478.632 2799
1608.56 479.487 2804
1615.26 479.487 2804
1621.97 479.487 2804
1628.68 479.487 2804
1635.38 479.487 2804
1645.01 480.342 2809
1651.73 480.342 2809
1658.45 480.342 2809
1667.54 481.026 2813
1674.26 481.026 2813
1680.99 481.026 2813
1690.72 481.881 2818
1697.46 481.881 2818
1704.19 481.881 2818
1717 483.591 2828
1723.77 483.591 2828
1730.53 483.591 2828
1739.75 484.275 2832
1746.52 484.275 2832
1753.29 484.275 2832
1760.07 484.275 2832
1761.22 482.736 2823
1761.71 481.026 2813
1768.44 481.026 2813
1775.16 481.026 2813
1779.36 480.342 2809
1782.9 479.487 2804
1789.6 479.487 2804
1796.31 479.487 2804
1799.8 478.632 2799
1803.26 477.777 2794
1807.35 477.093 2790
1814.02 477.093 2790
1817.43 476.238 2785
1827.37 477.093 2790
1834.04 477.093 2790
1840.71 477.093 2790
1847.38 477.093 2790
1850.73 476.238 2785
1857.39 476.238 2785
1864.05 476.238 2785
1870.71 476.238 2785
1877.37 476.238 2785
1884.03 476.238 2785
1890.69 476.238 2785
1897.35 476.238 2785
1894.44 473.844 2771
1904.5 474.699 2776
1913.89 475.383 2780
1920.54 475.383 2780
1927.18 475.383 2780
1931.05 474.699 2776
1937.69 474.699 2776
1944.32 474.699 2776
1950.96 474.699 2776
1954.08 473.844 2771
1957.87 473.16 2767
1967.33 473.844 2771
1973.95 473.844 2771
1980.58 473.844 2771
1987.21 473.844 2771
1993.83 473.844 2771
1997.57 473.16 2767
1994.05 470.766 2753
1994.09 469.227 2744
2000.65 469.227 2744
2016.72 471.45 2757
2023.32 471.45 2757
2029.91 471.45 2757
2036.5 471.45 2757
2043.09 471.45 2757
2043 469.911 2748
2060.01 472.305 2762
2066.61 472.305 2762
2073.22 472.305 2762
2079.82 472.305 2762
2082.65 471.45 2757
2086.21 470.766 2753
2092.8 470.766 2753
2099.38 470.766 2753
2099.08 469.227 2744
-2059.64 489.499 2823
-2073.98 494.527 2852
-2067.16 494.527 2852
-2060.34 494.527 2852
-2053.52 494.527 2852
-2039.53 492.793 2842
-2032.73 492.793 2842
-2022.37 491.926 2837
-2203.15 537.703 3101
-2195.73 537.703 3101
-2188.32 537.703 3101
-2168.95 534.755 3084
-2149.66 531.808 3067
-2142.32 531.808 3067
-2111.32 525.912 3033
-2040.94 510.133 2942
-2033.9 510.133 2942
-2019.98 508.399 2932
-2012.97 508.399 2932
-2002.53 507.532 2927
-1995.54 507.532 2927
-1991.93 508.399 2932
-1984.92 508.399 2932
-1977.91 508.399 2932
-1970.9 508.399 2932
-1957.19 506.665 2922
-1950.2 506.665 2922
-1939.89 505.798 2917
-1946.17 509.266 2937
-1963.57 515.682 2974
-1956.46 515.682 2974
-1949.35 515.682 2974
-1966.4 522.097 3011
-1991.73 530.767 3061
-1984.42 530.767 3061
-1980.97 531.808 3067
-1995.52 537.703 3101
-1988.1 537.703 3101
-1980.68 537.703 3101
-1987.91 541.691 3124
-1991.85 544.812 3142
-1988.12 545.853 3148
-1980.59 545.853 3148
-1984.35 548.974 3166
-1976.78 548.974 3166
-1969.21 548.974 3166
-1961.64 548.974 3166
-1961.47 551.055 3178
-1972.32 556.256 3208
-1968.32 557.297 3214
-1960.63 557.297 3214
-1960.85 559.551 3227
-1953.13 559.551 3227
-1949.03 560.591 3233
-1941.3 560.591 3233
-1948.52 564.926 3258
-1952.64 568.394 3278
-1987.52 580.879 3350
-1979.51 580.879 3350
-1999.75 589.202 3398
-2008.03 594.057 3426
-2029.03 602.727 3476
-2020.71 602.727 3476
-2029.19 607.755 3505
-2029.46 610.356 3520
-2029.08 612.784 3534
-2020.63 612.784 3534
-2025.27 616.772 3557
-2021.3 618.159 3565
-2012.78 618.159 3565
-2004.25 618.159 3565
-1995.73 618.159 3565
-1987.2 618.159 3565
-1978.68 618.159 3565
-1970.15 618.159 3565
-1961.63 618.159 3565
-1948.72 616.772 3557
-1940.21 616.772 3557
-1927.36 615.385 3549
-1918.88 615.385 3549
-1910.39 615.385 3549
-1906.19 616.772 3557
-1897.69 616.772 3557
-1889.18 616.772 3557
-1876.44 615.385 3549
-1867.96 615.385 3549
-1859.47 615.385 3549
-1855.16 616.772 3557
-1846.65 616.772 3557
-1838.14 616.772 3557
-1829.64 616.772 3557
-1825.23 618.159 3565
-1816.7 618.159 3565
-1808.18 618.159 3565
-1799.65 618.159 3565
-1798.66 620.76 3580
-1790.1 620.76 3580
-1781.54 620.76 3580
-1772.98 620.76 3580
-1771.81 623.361 3595
-1763.22 623.361 3595
-1754.62 623.361 3595
-1746.02 623.361 3595
-1749.03 627.523 3619
-1748.07 630.297 3635
-1750.38 634.285 3658
-1741.63 634.285 3658
-1744.73 638.62 3683
-1739.69 640.007 3691
-1742.59 644.342 3716
-1733.7 644.342 3716
-1732.24 647.116 3732
-1727.01 648.504 3740
-1722.2 650.064 3749
-1713.24 650.064 3749
-1712 653.012 3766
-1706.61 654.399 3774
-1709.28 658.907 3800
-1700.2 658.907 3800
-1691.11 658.907 3800
-1682.02 658.907 3800
-1672.94 658.907 3800
-1656.41 655.96 3783
-1636.04 651.451 3757
-1601.94 641.394 3699
-1575.43 634.285 3658
-1566.68 634.285 3658
-1548.14 630.297 3635
-1525.9 624.748 3603
-1491.59 614.171 3542
-1483.12 614.171 3542
-1471.32 612.784 3534
-1453.76 608.969 3512
-1442.49 607.755 3505
-1434.1 607.755 3505
-1413.93 602.727 3476
-1399.55 600.126 3461
-1382.83 596.484 3440
-1374.6 596.484 3440
-1355.26 591.629 3412
-1336.04 586.774 3384
-1325.2 585.561 3377
-1309.33 582.093 3357
-1301.3 582.093 3357
-1293.27 582.093 3357
-1292.9 585.561 3377
-1287.49 586.774 3384
-1279.4 586.774 3384
-1271.31 586.774 3384
-1263.21 586.774 3384
-1265.51 591.629 3412
-1265.09 595.271 3433
-1256.88 595.271 3433
-1248.67 595.271 3433
-1235.4 592.843 3419
-1227.22 592.843 3419
-1219.05 592.843 3419
-1205.91 590.416 3405
-753.802 627.523 3619
-745.148 627.523 3619
-736.493 627.523 3619
-727.839 627.523 3619
-717.595 626.135 3611
-683.83 603.941 3483
-675.501 603.941 3483
-667.172 603.941 3483
-657.519 602.727 3476
-657.424 610.356 3520
-657.304 618.159 3565
-648.779 618.159 3565
-641.511 619.373 3572
-632.969 619.373 3572
-624.428 619.373 3572
-615.886 619.373 3572
-606.154 618.159 3565
-600.144 620.76 3580
-594.061 623.361 3595
-586.768 624.748 3603
-578.152 624.748 3603
-569.536 624.748 3603
-562.165 626.135 3611
-553.53 626.135 3611
-544.895 626.135 3611
-537.448 627.523 3619
-529.963 628.91 3627
-521.29 628.91 3627
-512.617 628.91 3627
-505.055 630.297 3635
-496.363 630.297 3635
-487.67 630.297 3635
-477.924 628.91 3627
-469.25 628.91 3627
-458.545 626.135 3611
-449.91 626.135 3611
-441.275 626.135 3611
-434.557 628.91 3627
-426.824 630.297 3635
-418.936 631.511 3642
-410.227 631.511 3642
-402.4 632.898 3650
-394.535 634.285 3658
-388.424 638.62 3683
-379.617 638.62 3683
-372.42 641.394 3699
-366.032 645.729 3724
-358.661 648.504 3740
-349.718 648.504 3740
-341.595 650.064 3749
-334.848 654.399 3774
-326.6 655.96 3783
-317.554 655.96 3783
-309.894 658.907 3800
-300.807 658.907 3800
-291.72 658.907 3800
-282.633 658.907 3800
-271.098 653.012 3766
-262.093 653.012 3766
-253.087 653.012 3766
-244.081 653.012 3766
-235.076 653.012 3766
-137.947 398.466 2298
-132.452 398.466 2298
-126.957 398.466 2298
-121.462 398.466 2298
-115.815 397.945 2295
-110.327 397.945 2295
-104.245 395.691 2282
-98.2686 393.61 2270
-92.7176 393.09 2267
-87.2965 393.09 2267
-81.7671 392.57 2264
-76.0159 390.836 2254
-70.6259 390.836 2254
-65.2359 390.836 2254
-59.8459 390.836 2254
-54.2385 389.276 2245
-48.7394 388.235 2239
-43.269 387.195 2233
-37.9293 387.195 2233
-32.3706 384.594 2218
-27.0056 383.727 2213
-21.6254 382.166 2204
-16.3549 382.166 2204
-11.0694 381.646 2201
-5.78242 380.085 2192
-0.540682 380.085 2192
4.70105 380.085 2192
9.87929 377.658 2178
15.0668 377.138 2175
20.1933 375.751 2167
25.3401 375.23 2164
30.5149 375.23 2164
35.5907 374.19 2158
40.6945 373.67 2155
45.8052 373.323 2153
50.9537 373.323 2153
55.9458 372.283 2147
61.08 372.283 2147
66.2141 372.283 2147
71.3482 372.283 2147
76.3755 371.762 2144
81.5024 371.762 2144
86.7506 372.283 2147
91.8847 372.283 2147
97.0188 372.283 2147
102.01 371.762 2144
107.137 371.762 2144
112.578 372.803 2150
117.72 372.803 2150
123.032 373.323 2153
128.836 375.23 2164
134.01 375.23 2164
139.185 375.23 2164
144.36 375.23 2164
149.535 375.23 2164
154.71 375.23 2164
159.884 375.23 2164
165.059 375.23 2164
359.897 707.285 4079
369.651 707.285 4079
379.405 707.285 4079
386.297 702.083 4049
396.957 703.817 4059
407.665 705.551 4069
417.395 705.551 4069
427.126 705.551 4069
436.856 705.551 4069
446.586 705.551 4069
456.316 705.551 4069
466.047 705.551 4069
475.777 705.551 4069
624.227 526.952 3039
631.494 526.952 3039
639.812 527.819 3044
648.367 528.86 3050
655.66 528.86 3050
662.954 528.86 3050
664.094 524.005 3022
665.323 519.323 2995
672.485 519.323 2995
673.52 514.641 2968
680.617 514.641 2968
686.556 513.774 2963
693.641 513.774 2963
700.727 513.774 2963
705.423 512.04 2953
709.831 510.133 2942
718.084 511 2947
727.838 512.907 2958
734.912 512.907 2958
747.253 516.549 2979
754.377 516.549 2979
768.402 521.23 3006
775.59 521.23 3006
785.643 523.138 3017
792.858 523.138 3017
802.989 525.045 3028
810.23 525.045 3028
824.76 529.727 3055
835.334 531.808 3067
850.361 536.663 3095
857.762 536.663 3095
868.518 538.743 3107
875.948 538.743 3107
884.799 539.61 3112
892.241 539.61 3112
906.621 543.772 3136
921.116 547.933 3160
930.436 548.974 3166
938.006 548.974 3166
949.161 551.055 3178
960.374 553.135 3190
975.285 557.297 3214
982.97 557.297 3214
990.656 557.297 3214
998.341 557.297 3214
1027.94 569.435 3284
1035.79 569.435 3284
1058.26 577.411 3330
1083.52 586.774 3384
1098.38 590.416 3405
1106.52 590.416 3405
1119.25 592.843 3419
1129.73 594.057 3426
1144.9 597.698 3447
1162.85 602.727 3476
1171.16 602.727 3476
1181.85 603.941 3483
1194.96 606.368 3497
1203.32 606.368 3497
1211.68 606.368 3497
1220.05 606.368 3497
1233.68 608.969 3512
1244.91 610.356 3520
1253.32 610.356 3520
1264.25 611.57 3527
1275.21 612.784 3534
1286.57 614.171 3542
1295.04 614.171 3542
1306.08 615.385 3549
1317.53 616.772 3557
1329.02 618.159 3565
1337.54 618.159 3565
1348.71 619.373 3572
1357.25 619.373 3572
1365.8 619.373 3572
1374.34 619.373 3572
1382.88 619.373 3572
1382.46 615.385 3549
1390.95 615.385 3549
1388 610.356 3520
1393.24 608.969 3512
1390.07 603.941 3483
1386.75 598.912 3454
1395.01 598.912 3454
1394.74 595.271 3433
1388.65 589.202 3398
1382.39 583.133 3363
1390.43 583.133 3363
1387.66 578.625 3337
1392.71 577.411 3330
1397.73 576.197 3323
1405.68 576.197 3323
1399.58 570.475 3290
1402.32 568.394 3278
1407.14 567.18 3271
1409.34 564.926 3258
1417.13 564.926 3258
1422.3 563.886 3252
1427.44 562.846 3246
1435.2 562.846 3246
1442.96 562.846 3246
1450.73 562.846 3246
1458.49 562.846 3246
1466.25 562.846 3246
1474.01 562.846 3246
1481.77 562.846 3246
1486.32 561.632 3239
1491.3 560.591 3233
1499.03 560.591 3233
1503.97 559.551 3227
1508.87 558.511 3221
1513.28 557.297 3214
1512.45 554.176 3196
1520.09 554.176 3196
1522 552.095 3184
1518.08 547.933 3160
1514.05 543.772 3136
1521.55 543.772 3136
1514.91 538.743 3107
1516.46 536.663 3095
1507.12 530.767 3061
1514.44 530.767 3061
1510.82 526.952 3039
1493.61 518.456 2990
1471.65 508.399 2932
1468.07 504.758 2911
1475.03 504.758 2911
1471.81 501.29 2891
1473.61 499.556 2881
1477.93 498.689 2876
1484.81 498.689 2876
1489.09 497.822 2871
1488.66 495.394 2857
1490.26 493.66 2847
1494.44 492.793 2842
1501.23 492.793 2842
1505.38 491.926 2837
1512.16 491.926 2837
1516.27 491.059 2832
1523.04 491.059 2832
1527.65 490.366 2828
1531.7 489.499 2823
1535.73 488.632 2818
1542.47 488.632 2818
1549.2 488.632 2818
1553.18 487.765 2813
1557.69 487.071 2809
1564.41 487.071 2809
1565.53 485.337 2799
1569.42 484.47 2794
1571.02 482.91 2785
1580.51 483.777 2790
1589.46 484.47 2794
1596.14 484.47 2794
1605.69 485.337 2799
1615.26 486.204 2804
1621.97 486.204 2804
1628.68 486.204 2804
1635.38 486.204 2804
1645.01 487.071 2809
1651.73 487.071 2809
1658.45 487.071 2809
1667.54 487.765 2813
1674.26 487.765 2813
1680.99 487.765 2813
1690.72 488.632 2818
1697.46 488.632 2818
1704.19 488.632 2818
1717 490.366 2828
1723.77 490.366 2828
1730.53 490.366 2828
1739.75 491.059 2832
1746.52 491.059 2832
1753.29 491.059 2832
1760.07 491.059 2832
1761.22 489.499 2823
1761.71 487.765 2813
1768.44 487.765 2813
1775.16 487.765 2813
1779.36 487.071 2809
1782.9 486.204 2804
1789.6 486.204 2804
1796.31 486.204 2804
1799.8 485.337 2799
1803.26 484.47 2794
1807.35 483.777 2790
1814.02 483.777 2790
1817.43 482.91 2785
1827.37 483.777 2790
1834.04 483.777 2790
1840.71 483.777 2790
1847.38 483.777 2790
1850.73 482.91 2785
1857.39 482.91 2785
1864.05 482.91 2785
1870.71 482.91 2785
1877.37 482.91 2785
1884.03 482.91 2785
1890.69 482.91 2785
1897.35 482.91 2785
1894.44 480.482 2771
1904.5 481.349 2776
1913.89 482.043 2780
1920.54 482.043 2780
1927.18 482.043 2780
1931.05 481.349 2776
1937.69 481.349 2776
1944.32 481.349 2776
1947.45 480.482 2771
1954.08 480.482 2771
1954.33 478.922 2762
1967.33 480.482 2771
1973.95 480.482 2771
1980.58 480.482 2771
1987.21 480.482 2771
1993.83 480.482 2771
1993.96 478.922 2762
1990.43 476.494 2748
1990.46 474.933 2739
1997.01 474.933 2739
2016.72 478.055 2757
2023.32 478.055 2757
2029.91 478.055 2757
2036.5 478.055 2757
2043.09 478.055 2757
2043 476.494 2748
2056.28 478.055 2757
2062.87 478.055 2757
2069.47 478.055 2757
2076.06 478.055 2757
2082.65 478.055 2757
2086.21 477.361 2753
2092.8 477.361 2753
2099.38 477.361 2753
2099.08 475.8 2744
-2203.15 545.132 3101
-2195.73 545.132 3101
-2188.32 545.132 3101
-2168.95 542.143 3084
-2149.66 539.155 3067
-2142.32 539.155 3067
-2111.32 533.178 3033
-2040.94 517.181 2942
-2033.9 517.181 2942
-2019.98 515.423 2932
-2012.97 515.423 2932
-2002.53 514.544 2927
-1995.54 514.544 2927
-1991.93 515.423 2932
-1984.92 515.423 2932
-1977.91 515.423 2932
-1970.9 515.423 2932
-1957.19 513.665 2922
-1950.2 513.665 2922
-1939.89 512.786 2917
-1946.17 516.302 2937
-1963.57 522.806 2974
-1956.46 522.806 2974
-1949.35 522.806 2974
-1966.4 529.31 3011
-1991.73 538.1 3061
-1984.42 538.1 3061
-1980.97 539.155 3067
-1995.52 545.132 3101
-1988.1 545.132 3101
-1980.68 545.132 3101
-1987.91 549.175 3124
-1991.85 552.339 3142
-1988.12 553.394 3148
-1980.59 553.394 3148
-1984.35 556.558 3166
-1976.78 556.558 3166
-1969.21 556.558 3166
-1961.64 556.558 3166
-1961.47 558.668 3178
-1972.32 563.941 3208
-1968.32 564.996 3214
-1960.63 564.996 3214
-1960.85 567.281 3227
-1953.13 567.281 3227
-1949.03 568.336 3233
-1941.3 568.336 3233
-1948.52 572.731 3258
-1952.64 576.247 3278
-1987.52 588.904 3350
-1979.51 588.904 3350
-1999.75 597.342 3398
-2008.03 602.264 3426
-2029.03 611.054 3476
-2020.71 611.054 3476
-2029.19 616.152 3505
-2029.46 618.788 3520
-2029.08 621.25 3534
-2020.63 621.25 3534
-2025.27 625.293 3557
-2021.3 626.699 3565
-2012.78 626.699 3565
-2004.25 626.699 3565
-1995.73 626.699 3565
-1987.2 626.699 3565
-1978.68 626.699 3565
-1970.15 626.699 3565
-1961.63 626.699 3565
-1948.72 625.293 3557
-1940.21 625.293 3557
-1927.36 623.886 3549
-1918.88 623.886 3549
-1910.39 623.886 3549
-1901.9 623.886 3549
-1893.42 623.886 3549
-1884.93 623.886 3549
-1876.44 623.886 3549
-1867.96 623.886 3549
-1859.47 623.886 3549
-1855.16 625.293 3557
-1846.65 625.293 3557
-1838.14 625.293 3557
-1829.64 625.293 3557
-1825.23 626.699 3565
-1816.7 626.699 3565
-1808.18 626.699 3565
-1799.65 626.699 3565
-1798.66 629.336 3580
-1790.1 629.336 3580
-1781.54 629.336 3580
-1772.98 629.336 3580
-1771.81 631.973 3595
-1763.22 631.973 3595
-1754.62 631.973 3595
-1746.02 631.973 3595
-1749.03 636.192 3619
-1748.07 639.005 3635
-1750.38 643.048 3658
-1741.63 643.048 3658
-1744.73 647.443 3683
-1739.69 648.849 3691
-1742.59 653.244 3716
-1733.7 653.244 3716
-1732.24 656.056 3732
-1727.01 657.463 3740
-1725.88 660.451 3757
-1716.89 660.451 3757
-1712 662.033 3766
-1714.75 666.604 3792
-1720.98 672.581 3826
-1711.83 672.581 3826
-1702.68 672.581 3826
-1693.53 672.581 3826
-1684.38 672.581 3826
-1663.85 668.01 3800
-1636.04 660.451 3757
-1605.4 651.662 3707
-1586.2 647.443 3683
-1577.39 647.443 3683
-1554.53 641.641 3650
-1529.28 634.786 3611
-1494.54 623.886 3549
-1486.05 623.886 3549
-1471.32 621.25 3534
-1453.76 617.382 3512
-1442.49 616.152 3505
-1434.1 616.152 3505
-1413.93 611.054 3476
-1399.55 608.417 3461
-1382.83 604.725 3440
-1374.6 604.725 3440
-1355.26 599.803 3412
-1338.81 596.111 3391
-1325.2 593.65 3377
-1314.4 592.42 3370
-1306.34 592.42 3370
-1298.28 592.42 3370
-1295.58 594.881 3384
-1292.82 597.342 3398
-1284.69 597.342 3398
-1276.56 597.342 3398
-1268.44 597.342 3398
-1273.3 603.495 3433
-1267.67 604.725 3440
-1259.44 604.725 3440
-1251.21 604.725 3440
-1242.99 604.725 3440
-1234.76 604.725 3440
-1226.53 604.725 3440
-1218.31 604.725 3440
-922.1 657.463 3740
-913.157 657.463 3740
-904.213 657.463 3740
-891.44 654.65 3724
-886.326 657.463 3740
-877.383 657.463 3740
-868.439 657.463 3740
-859.496 657.463 3740
-791.83 646.036 3675
-783.042 646.036 3675
-774.254 646.036 3675
-765.466 646.036 3675
-751.53 641.641 3650
-742.802 641.641 3650
-734.074 641.641 3650
-719.185 636.192 3619
-707.39 633.379 3603
-698.774 633.379 3603
-679.814 623.886 3549
-671.327 623.886 3549
-665.829 626.699 3565
-661.545 630.742 3588
-652.965 630.742 3588
-648.515 634.786 3611
-639.88 634.786 3611
-631.245 634.786 3611
-621.231 633.379 3603
-610.065 630.742 3588
-602.658 631.973 3595
-595.383 633.379 3603
-588.07 634.786 3611
-579.435 634.786 3611
-572.065 636.192 3619
-563.411 636.192 3619
-554.757 636.192 3619
-546.103 636.192 3619
-537.448 636.192 3619
-529.963 637.598 3627
-521.29 637.598 3627
-512.617 637.598 3627
-505.055 639.005 3635
-496.363 639.005 3635
-487.67 639.005 3635
-477.924 637.598 3627
-469.25 637.598 3627
-458.545 634.786 3611
-449.91 634.786 3611
-441.275 634.786 3611
-434.557 637.598 3627
-426.824 639.005 3635
-418.936 640.235 3642
-410.227 640.235 3642
-402.4 641.641 3650
-394.535 643.048 3658
-388.424 647.443 3683
-379.617 647.443 3683
-372.42 650.255 3699
-366.032 654.65 3724
-358.661 657.463 3740
-349.718 657.463 3740
-341.595 659.045 3749
-334.848 663.44 3774
-326.6 665.022 3783
-317.554 665.022 3783
-309.894 668.01 3800
-300.807 668.01 3800
-291.72 668.01 3800
-282.633 668.01 3800
-271.098 662.033 3766
-262.093 662.033 3766
-253.087 662.033 3766
-244.081 662.033 3766
-235.076 662.033 3766
-138.307 405.025 2304
-132.798 405.025 2304
-126.957 403.97 2298
-121.462 403.97 2298
-115.815 403.443 2295
-110.327 403.443 2295
-104.382 401.685 2285
-98.3984 399.576 2273
-92.8403 399.048 2270
-87.412 399.048 2270
-81.7671 397.993 2264
-76.0159 396.236 2254
-70.6259 396.236 2254
-65.2359 396.236 2254
-59.8459 396.236 2254
-54.311 395.181 2248
-48.7394 393.599 2239
-43.269 392.544 2233
-37.9293 392.544 2233
-32.3706 389.907 2218
-27.03 389.38 2215
-21.6254 387.446 2204
-16.3549 387.446 2204
-11.0694 386.919 2201
-5.78242 385.336 2192
-0.540682 385.336 2192
4.70105 385.336 2192
9.87929 382.875 2178
15.0668 382.348 2175
20.2119 381.293 2169
25.3401 380.414 2164
30.5149 380.414 2164
35.5907 379.359 2158
40.6945 378.832 2155
45.8052 378.481 2153
50.9537 378.481 2153
56.024 377.953 2150
61.08 377.426 2147
66.2141 377.426 2147
71.3482 377.426 2147
76.4823 377.426 2147
81.6165 377.426 2147
86.7506 377.426 2147
91.8847 377.426 2147
97.0188 377.426 2147
102.153 377.426 2147
107.287 377.426 2147
112.578 377.953 2150
117.72 377.953 2150
123.032 378.481 2153
128.836 380.414 2164
134.01 380.414 2164
139.185 380.414 2164
144.56 380.942 2167
149.742 380.942 2167
154.924 380.942 2167
159.884 380.414 2164
359.897 717.056 4079
369.651 717.056 4079
379.405 717.056 4079
389.159 717.056 4079
397.935 715.298 4069
408.667 717.056 4079
418.421 717.056 4079
428.175 717.056 4079
437.93 717.056 4079
447.684 717.056 4079
457.438 717.056 4079
466.047 715.298 4069
475.777 715.298 4069
648.367 536.166 3050
655.66 536.166 3050
662.954 536.166 3050
664.094 531.244 3022
665.323 526.498 2995
672.485 526.498 2995
673.52 521.751 2968
680.617 521.751 2968
686.556 520.872 2963
693.641 520.872 2963
700.727 520.872 2963
702.796 517.181 2942
709.831 517.181 2942
720.765 519.993 2958
733.005 523.685 2979
740.129 523.685 2979
747.253 523.685 2979
765.266 531.244 3022
772.492 531.244 3022
779.719 531.244 3022
785.643 530.365 3017
792.858 530.365 3017
802.989 532.299 3028
810.23 532.299 3028
824.76 537.045 3055
835.334 539.155 3067
850.361 544.077 3095
857.762 544.077 3095
868.518 546.186 3107
875.948 546.186 3107
884.799 547.065 3112
892.241 547.065 3112
906.621 551.284 3136
921.116 555.503 3160
930.436 556.558 3166
938.006 556.558 3166
949.161 558.668 3178
960.374 560.777 3190
975.285 564.996 3214
982.97 564.996 3214
990.656 564.996 3214
998.341 564.996 3214
1054.86 592.42 3370
1062.92 592.42 3370
1075.42 594.881 3384
1090.24 598.572 3405
1109.67 604.725 3440
1117.9 604.725 3440
1126.12 604.725 3440
1136.66 605.956 3447
1149.55 608.417 3461
1162.85 611.054 3476
1171.16 611.054 3476
1179.47 611.054 3476
1192.57 613.515 3490
1200.91 613.515 3490
1209.26 613.515 3490
1220.05 614.745 3497
1228.41 614.745 3497
1242.08 617.382 3512
1250.47 617.382 3512
1261.74 618.788 3520
1275.21 621.25 3534
1286.57 622.656 3542
1295.04 622.656 3542
1306.08 623.886 3549
1317.53 625.293 3557
1329.02 626.699 3565
1337.54 626.699 3565
1348.71 627.93 3572
1360.29 629.336 3580
1368.86 629.336 3580
1377.42 629.336 3580
1382.88 627.93 3572
1382.46 623.886 3549
1390.95 623.886 3549
1390.76 620.019 3527
1396.42 618.788 3520
1392.86 613.515 3490
1392.38 609.647 3468
1400.67 609.647 3468
1397.59 604.725 3440
1391.51 598.572 3405
1391.02 594.881 3384
1399.11 594.881 3384
1393.06 588.904 3350
1392.71 585.388 3330
1397.73 584.157 3323
1405.68 584.157 3323
1399.58 578.356 3290
1404.88 577.302 3284
1407.14 575.016 3271
1409.34 572.731 3258
1417.13 572.731 3258
1422.3 571.676 3252
1427.44 570.621 3246
1432.11 569.391 3239
1439.85 569.391 3239
1447.6 569.391 3239
1455.34 569.391 3239
1463.09 569.391 3239
1470.83 569.391 3239
1478.58 569.391 3239
1483.57 568.336 3233
1491.3 568.336 3233
1499.03 568.336 3233
1503.97 567.281 3227
1508.87 566.227 3221
1513.28 564.996 3214
1512.45 561.832 3196
1520.09 561.832 3196
1522 559.722 3184
1518.08 555.503 3160
1514.05 551.284 3136
1521.55 551.284 3136
1520.27 548.12 3118
1516.46 544.077 3095
1512.54 540.034 3072
1519.88 540.034 3072
1513.31 535.111 3044
1493.61 525.619 2990
1474.16 516.302 2937
1471.1 512.786 2917
1478.07 512.786 2917
1474.36 509.094 2896
1476.17 507.336 2886
1480.5 506.457 2881
1487.39 506.457 2881
1489.09 504.699 2871
1488.66 502.238 2857
1490.26 500.48 2847
1494.44 499.601 2842
1501.23 499.601 2842
1505.38 498.722 2837
1512.16 498.722 2837
1516.27 497.843 2832
1523.04 497.843 2832
1527.65 497.14 2828
1528.99 495.382 2818
1535.73 495.382 2818
1542.47 495.382 2818
1546.46 494.503 2813
1553.18 494.503 2813
1554.92 492.921 2804
1561.62 492.921 2804
1562.74 491.163 2794
1567.17 490.46 2790
1568.2 488.702 2780
1577.68 489.581 2785
1587.18 490.46 2790
1593.86 490.46 2790
1605.69 492.042 2799
1612.38 492.042 2799
1619.08 492.042 2799
1625.77 492.042 2799
1632.46 492.042 2799
1639.16 492.042 2799
1651.73 493.8 2809
1658.45 493.8 2809
1665.17 493.8 2809
1674.26 494.503 2813
1683.98 495.382 2818
1693.72 496.261 2823
1700.47 496.261 2823
1710.24 497.14 2828
1719.43 497.843 2832
1729.25 498.722 2837
1736.04 498.722 2837
1745.89 499.601 2842
1752.69 499.601 2842
1759.48 499.601 2842
1766.28 499.601 2842
1766.84 497.843 2832
1767.97 496.261 2823
1774.72 496.261 2823
1778.32 495.382 2818
1781.89 494.503 2813
1786.07 493.8 2809
1792.79 493.8 2809
1796.31 492.921 2804
1803.01 492.921 2804
1806.49 492.042 2799
1807.35 490.46 2790
1814.02 490.46 2790
1817.43 489.581 2785
1824.09 489.581 2785
1830.75 489.581 2785
1837.41 489.581 2785
1844.07 489.581 2785
1850.73 489.581 2785
1854.06 488.702 2780
1860.7 488.702 2780
1867.35 488.702 2780
1874 488.702 2780
1880.65 488.702 2780
1887.3 488.702 2780
1887.81 487.12 2771
1894.44 487.12 2771
1901.06 487.12 2771
1911.13 487.999 2776
1917.77 487.999 2776
1924.41 487.999 2776
1931.05 487.999 2776
1934.2 487.12 2771
1940.82 487.12 2771
1947.45 487.12 2771
1941.38 483.956 2753
1947.97 483.956 2753
1960.94 485.538 2762
1967.54 485.538 2762
1974.15 485.538 2762
1980.75 485.538 2762
1987.36 485.538 2762
1983.86 483.077 2748
1983.91 481.495 2739
1990.46 481.495 2739
1997.01 481.495 2739
2016.72 484.659 2757
2023.32 484.659 2757
2029.91 484.659 2757
2036.5 484.659 2757
2043.09 484.659 2757
2043 483.077 2748
2060.01 485.538 2762
2066.61 485.538 2762
2073.22 485.538 2762
2079.82 485.538 2762
2086.43 485.538 2762
2096.82 486.417 2767
2103.44 486.417 2767
2110.06 486.417 2767
2116.67 486.417 2767
-2215.23 555.589 3118
-2207.77 555.589 3118
-2200.31 555.589 3118
-2180.9 552.56 3101
-2161.57 549.531 3084
-2154.2 549.531 3084
-2115.5 541.512 3039
-2081.17 534.563 3000
-2041.51 526.188 2953
-2034.45 526.188 2953
-2027.38 526.188 2953
-2020.32 526.188 2953
-2027.58 529.93 2974
-2034.73 533.672 2995
-2027.57 533.672 2995
-2020.41 533.672 2995
-2013.25 533.672 2995
-2006.09 533.672 2995
-1995.59 532.781 2990
-1995.09 534.563 3000
-2006.47 539.552 3028
-2021.01 545.432 3061
-2013.69 545.432 3061
-2010.31 546.502 3067
-2014.08 549.531 3084
-2036.63 557.727 3130
-2029.15 557.727 3130
-2021.66 557.727 3130
-2029.62 562.004 3154
-2022.08 562.004 3154
-2014.54 562.004 3154
-2007 562.004 3154
-2010.86 565.211 3172
-2010.86 567.35 3184
-2003.24 567.35 3184
-1999.39 568.419 3190
-1991.76 568.419 3190
-1984.13 568.419 3190
-1976.51 568.419 3190
-1979.99 571.626 3208
-1984 575.012 3227
-1987.92 578.397 3246
-1980.15 578.397 3246
-1979.68 580.535 3258
-1971.89 580.535 3258
-1968.32 581.783 3265
-1960.51 581.783 3265
-1960.48 584.099 3278
-1975.87 591.049 3317
-1995.23 599.245 3363
-1987.19 599.245 3363
-1999.75 605.482 3398
-2008.03 610.471 3426
-2029.03 619.38 3476
-2020.71 619.38 3476
-2029.19 624.548 3505
-2029.46 627.221 3520
-2029.08 629.715 3534
-2020.63 629.715 3534
-2025.27 633.814 3557
-2021.3 635.239 3565
-2012.78 635.239 3565
-2004.25 635.239 3565
-1995.73 635.239 3565
-1987.2 635.239 3565
-1978.68 635.239 3565
-1970.15 635.239 3565
-1961.63 635.239 3565
-1948.72 633.814 3557
-1940.21 633.814 3557
-1927.36 632.388 3549
-1918.88 632.388 3549
-1906.62 631.141 3542
-1901.9 632.388 3549
-1893.42 632.388 3549
-1884.93 632.388 3549
-1876.44 632.388 3549
-1867.96 632.388 3549
-1855.8 631.141 3542
-1847.33 631.141 3542
-1838.86 631.141 3542
-1830.39 631.141 3542
-1821.92 631.141 3542
-1817.04 632.388 3549
-1812.63 633.814 3557
-1804.12 633.814 3557
-1795.61 633.814 3557
-1787.11 633.814 3557
-1782.6 635.239 3565
-1774.08 635.239 3565
-1765.55 635.239 3565
-1757.03 635.239 3565
-1755.86 637.912 3580
-1751.2 639.337 3588
-1742.62 639.337 3588
-1741.29 642.01 3603
-1744.22 646.287 3627
-1750.38 651.811 3658
-1741.63 651.811 3658
-1740.94 654.84 3675
-1735.92 656.265 3683
-1734.62 659.116 3699
-1725.77 659.116 3699
-1724.82 662.145 3716
-1723.32 664.996 3732
-1725.88 669.451 3757
-1716.89 669.451 3757
-1712 671.055 3766
-1714.75 675.688 3792
-1720.98 681.746 3826
-1711.83 681.746 3826
-1702.68 681.746 3826
-1693.53 681.746 3826
-1684.38 681.746 3826
-1663.85 677.113 3800
-1636.04 669.451 3757
-1605.4 660.542 3707
-1586.2 656.265 3683
-1577.39 656.265 3683
-1554.53 650.385 3650
-1529.28 643.436 3611
-1494.54 632.388 3549
-1486.05 632.388 3549
-1465.49 627.221 3520
-1453.76 625.795 3512
-1442.49 624.548 3505
-1434.1 624.548 3505
-1410.67 617.955 3468
-1399.55 616.708 3461
-1382.83 612.966 3440
-1374.6 612.966 3440
-1355.26 607.976 3412
-1338.81 604.234 3391
-1325.2 601.74 3377
-1314.4 600.492 3370
-1306.34 600.492 3370
-1298.28 600.492 3370
-1295.58 602.987 3384
-1292.82 605.482 3398
-1284.69 605.482 3398
-1276.56 605.482 3398
-1268.44 605.482 3398
-1273.3 611.718 3433
-1267.67 612.966 3440
-1259.44 612.966 3440
-1251.21 612.966 3440
-1242.99 612.966 3440
-1234.76 612.966 3440
-1226.53 612.966 3440
-1218.31 612.966 3440
-922.1 666.422 3740
-913.157 666.422 3740
-904.213 666.422 3740
-891.44 663.571 3724
-886.326 666.422 3740
-877.383 666.422 3740
-868.439 666.422 3740
-859.496 666.422 3740
-791.83 654.84 3675
-783.042 654.84 3675
-774.254 654.84 3675
-765.466 654.84 3675
-751.53 650.385 3650
-742.802 650.385 3650
-734.074 650.385 3650
-719.185 644.861 3619
-707.39 642.01 3603
-698.774 642.01 3603
-679.814 632.388 3549
-671.327 632.388 3549
-665.829 635.239 3565
-661.545 639.337 3588
-652.965 639.337 3588
-648.515 643.436 3611
-639.88 643.436 3611
-631.245 643.436 3611
-621.231 642.01 3603
-610.065 639.337 3588
-602.658 640.585 3595
-595.383 642.01 3603
-588.07 643.436 3611
-579.435 643.436 3611
-572.065 644.861 3619
-563.411 644.861 3619
-554.757 644.861 3619
-546.103 644.861 3619
-537.448 644.861 3619
-529.963 646.287 3627
-521.29 646.287 3627
-512.617 646.287 3627
-505.055 647.712 3635
-496.363 647.712 3635
-487.67 647.712 3635
-477.924 646.287 3627
-469.25 646.287 3627
-458.545 643.436 3611
-449.91 643.436 3611
-441.275 643.436 3611
-434.557 646.287 3627
-426.824 647.712 3635
-418.936 648.96 3642
-410.227 648.96 3642
-402.4 650.385 3650
-393.672 650.385 3650
-385.787 651.811 3658
-377.04 651.811 3658
-370.81 656.265 3683
-363.575 659.116 3699
-355.497 660.542 3707
-346.632 660.542 3707
-339.317 663.571 3724
-332.63 668.026 3749
-325.132 671.055 3766
-316.127 671.055 3766
-307.773 672.48 3774
-298.749 672.48 3774
-289.724 672.48 3774
-280.104 671.055 3766
-269.875 668.026 3749
-259.727 664.996 3732
-252.482 669.451 3757
-243.498 669.451 3757
-234.514 669.451 3757
-138.307 410.544 2304
-132.798 410.544 2304
-126.957 409.475 2298
-121.462 409.475 2298
-115.815 408.941 2295
-110.327 408.941 2295
-104.382 407.159 2285
-98.3984 405.021 2273
-92.8403 404.486 2270
-87.412 404.486 2270
-81.7671 403.417 2264
-76.0159 401.635 2254
-70.6259 401.635 2254
-65.2359 401.635 2254
-59.8459 401.635 2254
-54.311 400.566 2248
-48.8047 399.497 2242
-43.3272 398.428 2236
-37.9802 398.428 2236
-32.3706 395.22 2218
-27.03 394.686 2215
-21.5959 392.191 2201
-16.3327 392.191 2201
-11.0543 391.657 2198
-5.79033 391.122 2195
-0.539202 389.518 2186
4.68819 389.518 2186
9.87929 388.093 2178
15.0668 387.558 2175
20.2119 386.489 2169
25.3401 385.598 2164
30.5149 385.598 2164
35.6402 385.064 2161
40.7512 384.529 2158
45.8478 383.994 2155
51.001 383.994 2155
56.1022 383.638 2153
61.1653 383.104 2150
66.2141 382.569 2147
71.3482 382.569 2147
76.4823 382.569 2147
81.6165 382.569 2147
86.7506 382.569 2147
91.8847 382.569 2147
97.0188 382.569 2147
102.153 382.569 2147
107.437 383.104 2150
112.735 383.638 2153
117.884 383.638 2153
123.032 383.638 2153
128.836 385.598 2164
134.01 385.598 2164
139.185 385.598 2164
144.694 386.489 2169
149.88 386.489 2169
155.067 386.489 2169
159.884 385.598 2164
359.897 726.828 4079
369.651 726.828 4079
379.405 726.828 4079
389.159 726.828 4079
397.935 725.046 4069
408.667 726.828 4079
418.421 726.828 4079
428.175 726.828 4079
437.93 726.828 4079
447.684 726.828 4079
457.438 726.828 4079
466.047 725.046 4069
475.777 725.046 4069
758.434 681.746 3826
767.583 681.746 3826
776.732 681.746 3826
785.881 681.746 3826
789.628 677.113 3800
648.367 543.472 3050
655.66 543.472 3050
662.954 543.472 3050
664.094 538.483 3022
665.323 533.672 2995
672.485 533.672 2995
673.52 528.861 2968
680.617 528.861 2968
686.556 527.97 2963
693.641 527.97 2963
700.727 527.97 2963
702.796 524.228 2942
709.831 524.228 2942
720.765 527.079 2958
733.005 530.821 2979
740.129 530.821 2979
747.253 530.821 2979
765.266 538.483 3022
772.492 538.483 3022
866.153 598.176 3357
874.181 598.176 3357
882.208 598.176 3357
890.236 598.176 3357
891.039 593.365 3330
888.203 586.237 3290
903.424 591.049 3317
914.928 593.365 3330
922.891 593.365 3330
938.402 598.176 3357
946.429 598.176 3357
954.457 598.176 3357
956.75 594.612 3337
964.73 594.612 3337
980.289 599.245 3363
988.331 599.245 3363
996.373 599.245 3363
1006.51 600.492 3370
1014.56 600.492 3370
1028.99 604.234 3391
1037.1 604.234 3391
1045.21 604.234 3391
1053.32 604.234 3391
1063.62 605.482 3398
1071.75 605.482 3398
1095.45 614.213 3447
1103.69 614.213 3447
1116.45 616.708 3461
1124.72 616.708 3461
1133 616.708 3461
1141.28 616.708 3461
1154.53 619.38 3476
1162.85 619.38 3476
1171.16 619.38 3476
1179.47 619.38 3476
1192.57 621.875 3490
1200.91 621.875 3490
1209.26 621.875 3490
