ply
format ascii 1.0
comment File generated
element vertex 2248
property float x
property float y
property float z
end_header
-1290.79 1068.96 2619
-1284.52 1068.96 2619
-1278.26 1068.96 2619
-1268.11 1065.7 2611
-1261.87 1065.7 2611
-1249.86 1060.8 2599
-1241.25 1058.76 2594
-1237.43 1060.8 2599
-1231.21 1060.8 2599
-1225 1060.8 2599
-1218.78 1060.8 2599
-1212.57 1060.8 2599
-1202.17 1057.13 2590
-1195.98 1057.13 2590
-1186.11 1053.86 2582
-1178.11 1052.23 2578
-1170.13 1050.59 2574
-1163.97 1050.59 2574
-1156.47 1049.37 2571
-1150.32 1049.37 2571
-1144.17 1049.37 2571
-1138.02 1049.37 2571
-1131.87 1049.37 2571
-1123.97 1047.74 2567
-1126.11 1055.49 2586
-1119.93 1055.49 2586
-1113.74 1055.49 2586
-1101.13 1049.37 2571
-1093.28 1047.74 2567
-1087.14 1047.74 2567
-1079.32 1046.11 2563
-1071.52 1044.47 2559
-1065.4 1044.47 2559
-1062.59 1047.74 2567
-1056.45 1047.74 2567
-1054.81 1052.23 2578
-1058.82 1062.43 2603
-1059.06 1068.96 2619
-1052.8 1068.96 2619
-1046.54 1068.96 2619
-1040.27 1068.96 2619
-1034.01 1068.96 2619
-1026.18 1067.33 2615
-1015.25 1062.43 2603
-1018.32 1072.23 2627
-1017.05 1077.53 2640
-1010.74 1077.53 2640
-1004.42 1077.53 2640
-996.221 1075.49 2635
-989.92 1075.49 2635
-983.619 1075.49 2635
-977.318 1075.49 2635
-972.859 1077.53 2640
-970.94 1082.43 2652
-964.598 1082.43 2652
-958.256 1082.43 2652
-951.914 1082.43 2652
-945.573 1082.43 2652
-934.981 1077.53 2640
-924.095 1072.23 2627
-913.621 1067.33 2615
-904.591 1064.06 2607
-903.871 1070.59 2623
-897.598 1070.59 2623
-891.326 1070.59 2623
-885.054 1070.59 2623
-878.781 1070.59 2623
-869.848 1067.33 2615
-859.632 1062.43 2603
-852.096 1060.8 2599
-845.881 1060.8 2599
-839.666 1060.8 2599
-830.565 1057.13 2590
-824.371 1057.13 2590
-818.178 1057.13 2590
-808.222 1052.23 2578
-802.057 1052.23 2578
-794.658 1050.59 2574
-788.502 1050.59 2574
-782.347 1050.59 2574
-775.287 1049.37 2571
-773.627 1055.49 2586
-769.817 1058.76 2594
-763.614 1058.76 2594
-757.411 1058.76 2594
-752.656 1060.8 2599
-746.441 1060.8 2599
-740.226 1060.8 2599
-735.14 1062.43 2603
-728.916 1062.43 2603
-724.912 1065.7 2611
-718.669 1065.7 2611
-712.425 1065.7 2611
-706.181 1065.7 2611
-699.938 1065.7 2611
-693.694 1065.7 2611
-689.557 1068.96 2619
-683.294 1068.96 2619
-677.031 1068.96 2619
-671.792 1070.59 2623
-665.52 1070.59 2623
-661.258 1073.86 2631
-654.967 1073.86 2631
-648.675 1073.86 2631
-642.384 1073.86 2631
-636.092 1073.86 2631
-626.928 1068.96 2619
-620.665 1068.96 2619
-611.588 1064.06 2607
-603.496 1060.8 2599
-596.132 1058.76 2594
-589.929 1058.76 2594
-582.826 1057.13 2590
-576.632 1057.13 2590
-570.439 1057.13 2590
-564.245 1057.13 2590
-558.052 1057.13 2590
-553.776 1060.8 2599
-547.561 1060.8 2599
-541.346 1060.8 2599
-533.278 1057.13 2590
-527.084 1057.13 2590
-519.282 1053.86 2582
-513.107 1053.86 2582
-506.933 1053.86 2582
-499.207 1050.59 2574
-495.351 1055.49 2586
-489.923 1057.13 2590
-483.73 1057.13 2590
-477.536 1057.13 2590
-472.981 1060.8 2599
-466.766 1060.8 2599
-460.551 1060.8 2599
-454.336 1060.8 2599
-448.811 1062.43 2603
-442.586 1062.43 2603
-436.361 1062.43 2603
-430.137 1062.43 2603
-423.912 1062.43 2603
-417.046 1060.8 2599
-411.463 1062.43 2603
-405.239 1062.43 2603
-399.627 1064.06 2607
-393.997 1065.7 2611
-389.535 1070.59 2623
-383.263 1070.59 2623
-378.715 1075.49 2635
-372.414 1075.49 2635
-366.113 1075.49 2635
-359.812 1075.49 2635
-352.974 1073.86 2631
-346.155 1072.23 2627
-340.908 1075.49 2635
-334.607 1075.49 2635
-328.306 1075.49 2635
-322.005 1075.49 2635
-315.704 1075.49 2635
-308.933 1073.86 2631
-302.642 1073.86 2631
-296.801 1075.49 2635
-291.051 1077.53 2640
-284.738 1077.53 2640
-278.847 1079.17 2644
-272.524 1079.17 2644
-267.007 1082.43 2652
-260.665 1082.43 2652
-254.324 1082.43 2652
-247.982 1082.43 2652
-241.64 1082.43 2652
-235.298 1082.43 2652
-228.957 1082.43 2652
-223.706 1087.74 2665
-217.66 1089.37 2669
-211.594 1091 2673
-205.202 1091 2673
-198.81 1091 2673
-193.354 1096.31 2686
-187.279 1098.35 2691
-180.844 1098.35 2691
-174.409 1098.35 2691
-167.162 1093.04 2678
-160.758 1093.04 2678
-153.375 1086.1 2661
-145.354 1073.86 2631
-137.582 1062.43 2603
-131.358 1062.43 2603
-93.7401 935.495 2292
-88.2592 935.495 2292
-82.7784 935.495 2292
-77.1626 933.862 2288
-71.3153 928.964 2276
-65.8727 928.964 2276
-60.1911 925.291 2267
-54.6251 922.842 2261
-49.1313 921.209 2257
-43.7341 921.209 2257
-38.3369 921.209 2257
-32.896 919.985 2254
-27.506 919.985 2254
-22.0865 918.76 2251
-16.7037 918.76 2251
-11.3058 917.536 2248
-5.92223 916.311 2245
-0.552275 913.862 2239
4.80185 913.862 2239
10.1424 912.638 2236
15.4893 912.638 2236
20.8363 912.638 2236
26.1832 912.638 2236
31.5302 912.638 2236
36.9266 913.862 2239
42.3374 915.087 2242
47.6987 915.087 2242
53.06 915.087 2242
58.4213 915.087 2242
63.868 916.311 2245
69.2364 916.311 2245
74.6049 916.311 2245
79.6528 912.638 2236
84.9997 912.638 2236
90.3467 912.638 2236
95.822 913.862 2239
101.176 913.862 2239
107.387 921.209 2257
112.984 922.842 2261
118.548 924.066 2264
123.961 924.066 2264
129.718 926.515 2270
135.504 928.964 2276
141.132 930.189 2279
146.582 930.189 2279
152.232 931.413 2282
157.896 932.638 2285
163.861 935.495 2292
169.342 935.495 2292
174.822 935.495 2292
180.539 936.719 2295
186.027 936.719 2295
191.515 936.719 2295
197.776 940.393 2304
203.903 943.25 2311
211.151 951.005 2330
216.723 951.005 2330
222.581 952.229 2333
228.551 953.862 2337
236.043 961.617 2356
241.677 961.617 2356
249.095 968.555 2373
259.601 986.922 2418
270.871 1007.33 2468
276.773 1007.33 2468
288.63 1028.55 2520
298.749 1042.84 2555
306.291 1047.74 2567
312.429 1047.74 2567
320.429 1053.86 2582
327.109 1055.49 2586
333.293 1055.49 2586
339.477 1055.49 2586
345.661 1055.49 2586
351.845 1055.49 2586
358.029 1055.49 2586
364.213 1055.49 2586
371.543 1058.76 2594
380.804 1067.33 2615
387.057 1067.33 2615
393.31 1067.33 2615
399.563 1067.33 2615
405.817 1067.33 2615
412.07 1067.33 2615
417.683 1065.7 2611
423.927 1065.7 2611
430.83 1067.33 2615
437.083 1067.33 2615
443.336 1067.33 2615
450.965 1070.59 2623
460.201 1077.53 2640
466.514 1077.53 2640
472.827 1077.53 2640
479.14 1077.53 2640
485.453 1077.53 2640
490.835 1075.49 2635
497.136 1075.49 2635
503.437 1075.49 2635
508.964 1073.86 2631
515.256 1073.86 2631
521.547 1073.86 2631
527.036 1072.23 2627
531.694 1068.96 2619
538.778 1070.59 2623
545.051 1070.59 2623
551.323 1070.59 2623
557.596 1070.59 2623
563.868 1070.59 2623
570.14 1070.59 2623
576.413 1070.59 2623
581.797 1068.96 2619
580.65 1055.49 2586
586.834 1055.49 2586
593.017 1055.49 2586
597.348 1052.23 2578
600.937 1047.74 2567
609.677 1052.23 2578
618.709 1057.13 2590
624.902 1057.13 2590
632.07 1058.76 2594
640.488 1062.43 2603
646.712 1062.43 2603
652.937 1062.43 2603
662.2 1067.33 2615
668.454 1067.33 2615
674.707 1067.33 2615
680.96 1067.33 2615
686.162 1065.7 2611
697.71 1073.86 2631
710.691 1084.06 2656
717.042 1084.06 2656
724.755 1086.1 2661
731.118 1086.1 2661
737.482 1086.1 2661
741.329 1082.43 2652
748.798 1084.06 2656
761.405 1093.04 2678
770.102 1096.31 2686
776.525 1096.31 2686
786.738 1101.61 2699
795.837 1105.29 2708
804.979 1108.96 2717
811.476 1108.96 2717
817.973 1108.96 2717
819.008 1101.61 2699
823.016 1098.35 2691
837.465 1108.96 2717
843.962 1108.96 2717
851.711 1110.59 2721
858.218 1110.59 2721
864.725 1110.59 2721
871.231 1110.59 2721
875.158 1107.33 2713
878.72 1103.66 2704
888.133 1107.33 2713
894.62 1107.33 2713
902.437 1108.96 2717
908.934 1108.96 2717
915.431 1108.96 2717
921.928 1108.96 2717
928.425 1108.96 2717
934.922 1108.96 2717
941.42 1108.96 2717
947.917 1108.96 2717
946.686 1099.98 2695
953.13 1099.98 2695
960.999 1101.61 2699
969.246 1103.66 2704
975.712 1103.66 2704
983.631 1105.29 2708
993.397 1108.96 2717
1003.21 1112.63 2726
1009.72 1112.63 2726
1017.73 1114.27 2730
1026.14 1116.31 2735
1032.68 1116.31 2735
1039.22 1116.31 2735
1045.76 1116.31 2735
1048.84 1112.63 2726
1055.36 1112.63 2726
1053.3 1103.66 2704
1057.81 1101.61 2699
1064.27 1101.61 2699
1070.72 1101.61 2699
1077.17 1101.61 2699
1064.03 1068.96 2619
1070.3 1068.96 2619
1076.56 1068.96 2619
1081.17 1067.33 2615
1080.77 1060.8 2599
1086.98 1060.8 2599
1089.41 1057.13 2590
1095.61 1057.13 2590
1096.69 1052.23 2578
1102.86 1052.23 2578
1106.01 1049.37 2571
1112.16 1049.37 2571
1119.61 1050.59 2574
1125.77 1050.59 2574
1131.92 1050.59 2574
1138.08 1050.59 2574
1144.23 1050.59 2574
1150.39 1050.59 2574
1165.53 1058.76 2594
1171.73 1058.76 2594
1189.29 1068.96 2619
1195.55 1068.96 2619
1201.82 1068.96 2619
1208.08 1068.96 2619
1218.05 1072.23 2627
1232.26 1079.17 2644
1240.45 1080.8 2648
1246.78 1080.8 2648
1253.12 1080.8 2648
1253.27 1075.49 2635
1267.69 1082.43 2652
1274.03 1082.43 2652
1303.07 1101.61 2699
1335.72 1123.65 2753
1349.13 1129.37 2767
1355.75 1129.37 2767
1362.36 1129.37 2767
1368.98 1129.37 2767
1375.6 1129.37 2767
1382.22 1129.37 2767
1388.83 1129.37 2767
1395.45 1129.37 2767
1402.07 1129.37 2767
1408.68 1129.37 2767
1408.14 1123.65 2753
1412.15 1121.61 2748
1407.37 1112.63 2726
1413.88 1112.63 2726
1411.02 1105.29 2708
1422.21 1108.96 2717
1435.54 1114.27 2730
1442.07 1114.27 2730
1448.6 1114.27 2730
1450.33 1110.59 2721
1452.55 1107.33 2713
1459.04 1107.33 2713
1441.76 1089.37 2669
1429.7 1075.49 2635
1433.82 1073.86 2631
1433.54 1068.96 2619
1439.8 1068.96 2619
1446.07 1068.96 2619
1458.98 1073.86 2631
1465.27 1073.86 2631
1471.57 1073.86 2631
1486.41 1075.49 2635
1507.44 1086.1 2661
1520.63 1091 2673
1527.02 1091 2673
1556.36 1107.33 2713
1562.84 1107.33 2713
1576.85 1112.63 2726
1583.37 1112.63 2726
1589.89 1112.63 2726
1606.95 1119.98 2744
1613.51 1119.98 2744
1620.07 1119.98 2744
1615.96 1112.63 2726
1622.48 1112.63 2726
1629 1112.63 2726
1637.92 1114.27 2730
1644.45 1114.27 2730
1650.98 1114.27 2730
1633.83 1098.35 2691
1640.26 1098.35 2691
1641.19 1094.68 2682
1645.14 1093.04 2678
1651.55 1093.04 2678
1657.95 1093.04 2678
1658.76 1089.37 2669
1647.05 1077.53 2640
1627.69 1060.8 2599
1633.9 1060.8 2599
1640.12 1060.8 2599
1646.33 1060.8 2599
1644.28 1055.49 2586
1718.52 1011.82 2479
1724.45 1011.82 2479
1730.38 1011.82 2479
1736.3 1011.82 2479
1742.23 1011.82 2479
1748.16 1011.82 2479
1847.4 1020.8 2501
1853.38 1020.8 2501
1859.36 1020.8 2501
1848.94 1011.82 2479
1848.88 1008.55 2471
1888.57 1026.92 2516
1908.89 1034.68 2535
1914.95 1034.68 2535
1927.08 1037.94 2543
1954.44 1049.37 2571
1968.98 1053.86 2582
1975.15 1053.86 2582
-1757.44 1032.95 2516
-1751.43 1032.95 2516
-1745.41 1032.95 2516
-1739.39 1032.95 2516
-1741.65 1037.88 2528
-1743.15 1042.39 2539
-1737.08 1042.39 2539
-1731.01 1042.39 2539
-1727.66 1044.03 2543
-1721.57 1044.03 2543
-1715.49 1044.03 2543
-1699.33 1037.88 2528
-1675.87 1034.59 2520
-1669.85 1034.59 2520
-1663.82 1034.59 2520
-1657.79 1034.59 2520
-1651.77 1034.59 2520
-1645.74 1034.59 2520
-1639.72 1034.59 2520
-1623.97 1028.43 2505
-1617.98 1028.43 2505
-1609.41 1026.79 2501
-1600.87 1025.15 2497
-1576.98 1025.15 2497
-1588 1036.23 2524
-1584.47 1037.88 2528
-1578.42 1037.88 2528
-1574.87 1039.52 2532
-1578.11 1045.68 2547
-1574.48 1047.32 2551
-1568.38 1047.32 2551
-1569.63 1052.24 2563
-1563.5 1052.24 2563
-1557.38 1052.24 2563
-1551.25 1052.24 2563
-1542.71 1050.6 2559
-1536.59 1050.6 2559
-1539.44 1056.76 2574
-1533.28 1056.76 2574
-1527.13 1056.76 2574
-1520.97 1056.76 2574
-1514.82 1056.76 2574
-1508.66 1056.76 2574
-1502.51 1056.76 2574
-1501 1060.05 2582
-1494.83 1060.05 2582
-1488.65 1060.05 2582
-1482.48 1060.05 2582
-1471.73 1056.76 2574
-1465.58 1056.76 2574
-1455.45 1053.89 2567
-1449.31 1053.89 2567
-1445.42 1055.53 2571
-1439.28 1055.53 2571
-1433.13 1055.53 2571
-1437.53 1063.33 2590
-1447.36 1075.24 2619
-1445.5 1078.52 2627
-1439.22 1078.52 2627
-1432.93 1078.52 2627
-1435.88 1085.5 2644
-1438.75 1092.48 2661
-1432.39 1092.48 2661
-1430.31 1095.76 2669
-1430.87 1101.1 2682
-1424.45 1101.1 2682
-1418.04 1101.1 2682
-1404.78 1095.76 2669
-1389.49 1088.78 2652
-1383.15 1088.78 2652
-1365.91 1080.16 2631
-1351.35 1073.59 2615
-1299.33 1071.95 2611
-1293.09 1071.95 2611
-1290.79 1075.24 2619
-1284.52 1075.24 2619
-1278.26 1075.24 2619
-1268.11 1071.95 2611
-1261.87 1071.95 2611
-1249.86 1067.02 2599
-1241.25 1064.97 2594
-1237.43 1067.02 2599
-1231.21 1067.02 2599
-1225 1067.02 2599
-1218.78 1067.02 2599
-1212.57 1067.02 2599
-1202.17 1063.33 2590
-1195.98 1063.33 2590
-1186.11 1060.05 2582
-1178.11 1058.4 2578
-1170.13 1056.76 2574
-1163.97 1056.76 2574
-1156.47 1055.53 2571
-1150.32 1055.53 2571
-1144.17 1055.53 2571
-1138.02 1055.53 2571
-1131.87 1055.53 2571
-1123.97 1053.89 2567
-1126.11 1061.69 2586
-1119.93 1061.69 2586
-1113.74 1061.69 2586
-1101.13 1055.53 2571
-1093.28 1053.89 2567
-1087.14 1053.89 2567
-1079.32 1052.24 2563
-1071.52 1050.6 2559
-1065.4 1050.6 2559
-1062.59 1053.89 2567
-1056.45 1053.89 2567
-1054.81 1058.4 2578
-1058.82 1068.67 2603
-1059.06 1075.24 2619
-1052.8 1075.24 2619
-1046.54 1075.24 2619
-1040.27 1075.24 2619
-1034.01 1075.24 2619
-1026.18 1073.59 2615
-1015.25 1068.67 2603
-1018.32 1078.52 2627
-1017.05 1083.86 2640
-1010.74 1083.86 2640
-1004.42 1083.86 2640
-996.221 1081.8 2635
-989.92 1081.8 2635
-983.619 1081.8 2635
-977.318 1081.8 2635
-972.859 1083.86 2640
-970.94 1088.78 2652
-964.598 1088.78 2652
-958.256 1088.78 2652
-951.914 1088.78 2652
-945.573 1088.78 2652
-934.981 1083.86 2640
-924.095 1078.52 2627
-912.223 1071.95 2611
-904.591 1070.31 2607
-898.357 1070.31 2607
-892.123 1070.31 2607
-888.608 1073.59 2615
-882.354 1073.59 2615
-876.101 1073.59 2615
-867.187 1070.31 2607
-856.659 1064.97 2594
-847.833 1061.69 2586
-841.65 1061.69 2586
-835.466 1061.69 2586
-827.999 1060.05 2582
-820.552 1058.4 2578
-814.387 1058.4 2578
-806.968 1056.76 2574
-800.813 1056.76 2574
-793.731 1055.53 2571
-787.583 1055.53 2571
-780.219 1053.89 2567
-774.081 1053.89 2567
-767.943 1053.89 2567
-766.256 1060.05 2582
-760.081 1060.05 2582
-755.075 1061.69 2586
-748.891 1061.69 2586
-742.707 1061.69 2586
-736.523 1061.69 2586
-734.011 1067.02 2599
-728.916 1068.67 2603
-722.691 1068.67 2603
-716.467 1068.67 2603
-710.242 1068.67 2603
-705.099 1070.31 2607
-698.865 1070.31 2607
-692.631 1070.31 2607
-686.397 1070.31 2607
-680.163 1070.31 2607
-673.929 1070.31 2607
-669.744 1073.59 2615
-663.49 1073.59 2615
-657.237 1073.59 2615
-651.98 1075.24 2619
-645.717 1075.24 2619
-639.454 1075.24 2619
-632.224 1073.59 2615
-622.141 1067.02 2599
-615.926 1067.02 2599
-609.711 1067.02 2599
-601.406 1063.33 2590
-595.212 1063.33 2590
-589.019 1063.33 2590
-581.025 1060.05 2582
-575.741 1061.69 2586
-569.558 1061.69 2586
-563.374 1061.69 2586
-557.19 1061.69 2586
-551.858 1063.33 2590
-545.665 1063.33 2590
-539.471 1063.33 2590
-533.278 1063.33 2590
-524.642 1058.4 2578
-518.477 1058.4 2578
-512.313 1058.4 2578
-506.148 1058.4 2578
-499.207 1056.76 2574
-494.584 1060.05 2582
-489.923 1063.33 2590
-483.73 1063.33 2590
-477.536 1063.33 2590
-472.071 1064.97 2594
-465.868 1064.97 2594
-460.551 1067.02 2599
-454.336 1067.02 2599
-448.811 1068.67 2603
-442.586 1068.67 2603
-436.361 1068.67 2603
-429.476 1067.02 2599
-423.261 1067.02 2599
-417.046 1067.02 2599
-411.463 1068.67 2603
-405.239 1068.67 2603
-399.014 1068.67 2603
-393.997 1071.95 2611
-388.941 1075.24 2619
-382.678 1075.24 2619
-376.99 1076.88 2623
-371.849 1080.16 2631
-365.557 1080.16 2631
-359.266 1080.16 2631
-351.364 1075.24 2619
-345.628 1076.88 2623
-339.873 1078.52 2627
-333.591 1078.52 2627
-327.808 1080.16 2631
-321.516 1080.16 2631
-315.225 1080.16 2631
-307.994 1076.88 2623
-301.262 1075.24 2619
-294.999 1075.24 2619
-289.618 1078.52 2627
-283.336 1078.52 2627
-277.054 1078.52 2627
-270.772 1078.52 2627
-264.893 1080.16 2631
-258.601 1080.16 2631
-252.31 1080.16 2631
-246.018 1080.16 2631
-240.091 1081.8 2635
-233.79 1081.8 2635
-228.266 1085.5 2644
-222.951 1090.43 2656
-216.599 1090.43 2656
-210.644 1092.48 2661
-204.281 1092.48 2661
-198.215 1094.12 2665
-191.842 1094.12 2665
-185.748 1095.76 2669
-179.365 1095.76 2669
-172.983 1095.76 2669
-166.101 1092.48 2661
-159.738 1092.48 2661
-153.375 1092.48 2661
-145.354 1080.16 2631
-136.472 1060.05 2582
-130.298 1060.05 2582
-87.7586 935.648 2279
-82.3088 935.648 2279
-76.8591 935.648 2279
-71.3153 934.416 2276
-65.8727 934.416 2276
-60.0318 928.258 2261
-54.6251 928.258 2261
-49.1313 926.616 2257
-43.7341 926.616 2257
-38.3369 926.616 2257
-32.8522 924.153 2251
-27.4694 924.153 2251
-22.0571 922.921 2248
-16.6814 922.921 2248
-11.3058 922.921 2248
-5.91432 920.458 2242
-0.552275 919.226 2239
4.80185 919.226 2239
10.1424 917.994 2236
15.4893 917.994 2236
20.8363 917.994 2236
26.1832 917.994 2236
31.5302 917.994 2236
36.8771 917.994 2236
42.3374 920.458 2242
47.6987 920.458 2242
53.06 920.458 2242
58.4213 920.458 2242
63.868 921.689 2245
69.2364 921.689 2245
74.6049 921.689 2245
79.6528 917.994 2236
84.9997 917.994 2236
90.3467 917.994 2236
95.822 919.226 2239
101.176 919.226 2239
107.387 926.616 2257
112.984 928.258 2261
118.548 929.49 2264
123.961 929.49 2264
129.547 930.721 2267
135.325 933.185 2273
140.946 934.416 2276
146.389 934.416 2276
152.032 935.648 2279
157.689 936.88 2282
163.36 938.111 2285
168.824 938.111 2285
174.288 938.111 2285
179.989 939.343 2288
186.027 942.217 2295
191.515 942.217 2295
197.261 943.449 2298
203.903 948.786 2311
210.879 955.355 2327
216.444 955.355 2327
222.581 957.818 2333
228.16 957.818 2333
233.739 957.818 2333
239.318 957.818 2333
247.311 967.261 2356
256.917 982.451 2393
265.383 992.715 2418
271.166 992.715 2418
282.675 1013.24 2468
294.657 1034.59 2520
302.472 1040.75 2535
308.534 1040.75 2535
316.086 1045.68 2547
322.682 1047.32 2551
329.813 1050.6 2559
335.933 1050.6 2559
342.052 1050.6 2559
348.171 1050.6 2559
354.291 1050.6 2559
360.41 1050.6 2559
367.102 1052.24 2563
374.833 1056.76 2574
381.58 1058.4 2578
387.745 1058.4 2578
393.91 1058.4 2578
400.696 1060.05 2582
406.87 1060.05 2582
413.044 1060.05 2582
419.219 1060.05 2582
426.052 1061.69 2586
432.236 1061.69 2586
438.42 1061.69 2586
448.214 1070.31 2607
456.54 1075.24 2619
463.51 1076.88 2623
469.782 1076.88 2623
476.055 1076.88 2623
482.327 1076.88 2623
488.599 1076.88 2623
494.872 1076.88 2623
500.38 1075.24 2619
507.416 1076.88 2623
513.689 1076.88 2623
519.961 1076.88 2623
526.234 1076.88 2623
530.882 1073.59 2615
537.135 1073.59 2615
544.22 1075.24 2619
550.482 1075.24 2619
556.745 1075.24 2619
563.008 1075.24 2619
569.271 1075.24 2619
574.655 1073.59 2615
574.466 1061.69 2586
580.65 1061.69 2586
586.834 1061.69 2586
591.183 1058.4 2578
594.799 1053.89 2567
600.001 1052.24 2563
606.13 1052.24 2563
615.842 1058.4 2578
622.007 1058.4 2578
628.172 1058.4 2578
635.321 1060.05 2582
641.495 1060.05 2582
647.669 1060.05 2582
655.87 1063.33 2590
662.063 1063.33 2590
668.256 1063.33 2590
674.45 1063.33 2590
679.592 1061.69 2586
692.406 1071.95 2611
704.001 1080.16 2631
710.293 1080.16 2631
721.214 1087.14 2648
727.546 1087.14 2648
733.879 1087.14 2648
740.211 1087.14 2648
742.878 1081.8 2635
749.179 1081.8 2635
756.914 1083.86 2640
763.227 1083.86 2640
771.872 1087.14 2648
778.204 1087.14 2648
789.573 1094.12 2665
795.945 1094.12 2665
802.318 1094.12 2665
804.746 1088.78 2652
812.311 1090.43 2656
827.91 1102.74 2686
834.333 1102.74 2686
842.321 1104.8 2691
854.118 1111.77 2708
860.593 1111.77 2708
867.069 1111.77 2708
868.061 1104.8 2691
872.871 1102.74 2686
882.24 1106.44 2695
888.685 1106.44 2695
901.108 1113.83 2713
907.596 1113.83 2713
914.083 1113.83 2713
918.874 1111.77 2708
925.35 1111.77 2708
931.825 1111.77 2708
938.301 1111.77 2708
941.637 1108.08 2699
945.281 1104.8 2691
953.13 1106.44 2695
960.999 1108.08 2699
969.246 1110.13 2704
975.712 1110.13 2704
983.631 1111.77 2708
993.397 1115.47 2717
1003.21 1119.16 2726
1009.72 1119.16 2726
1017.73 1120.81 2730
1026.14 1122.86 2735
1032.68 1122.86 2735
1039.22 1122.86 2735
1045.76 1122.86 2735
1048.84 1119.16 2726
1055.36 1119.16 2726
1051.36 1108.08 2699
1057.81 1108.08 2699
1057.56 1101.1 2682
1063.98 1101.1 2682
1068.79 1099.46 2678
1064.03 1075.24 2619
1070.3 1075.24 2619
1076.56 1075.24 2619
1081.17 1073.59 2615
1080.77 1067.02 2599
1086.98 1067.02 2599
1089.41 1063.33 2590
1090.53 1058.4 2578
1093.72 1055.53 2571
1099.86 1055.53 2571
1102.57 1052.24 2563
1108.7 1052.24 2563
1116.57 1053.89 2567
1122.71 1053.89 2567
1128.85 1053.89 2567
1134.98 1053.89 2567
1141.12 1053.89 2567
1149.05 1055.53 2571
1160.14 1060.05 2582
1166.31 1060.05 2582
1187.47 1073.59 2615
1193.73 1073.59 2615
1199.98 1073.59 2615
1206.23 1073.59 2615
1210.63 1071.95 2611
1224.33 1078.52 2627
1230.61 1078.52 2627
1236.9 1078.52 2627
1243.18 1078.52 2627
1249.46 1078.52 2627
1257.65 1080.16 2631
1263.95 1080.16 2631
1280.38 1088.78 2652
1309.52 1108.08 2699
1342.31 1130.25 2753
1348.89 1130.25 2753
1357.44 1131.89 2757
1364.03 1131.89 2757
1370.63 1131.89 2757
1375.22 1130.25 2753
1381.81 1130.25 2753
1388.39 1130.25 2753
1394.97 1130.25 2753
1401.55 1130.25 2753
1394.33 1119.16 2726
1400.85 1119.16 2726
1391.36 1106.44 2695
1397.81 1106.44 2695
1402.17 1104.8 2691
1410.69 1106.44 2695
1428.71 1115.47 2717
1437.32 1117.11 2721
1443.82 1117.11 2721
1450.33 1117.11 2721
1452.55 1113.83 2713
1459.04 1113.83 2713
1441.76 1095.76 2669
1429.7 1081.8 2635
1433.82 1080.16 2631
1433.54 1075.24 2619
1439.8 1075.24 2619
1446.07 1075.24 2619
1458.98 1080.16 2631
1465.27 1080.16 2631
1483.31 1088.78 2652
1489.65 1088.78 2652
1496 1088.78 2652
1507.44 1092.48 2661
1520.63 1097.41 2673
1527.02 1097.41 2673
1556.36 1113.83 2713
1562.84 1113.83 2713
1576.85 1119.16 2726
1583.37 1119.16 2726
1589.89 1119.16 2726
1606.95 1126.55 2744
1613.51 1126.55 2744
1620.07 1126.55 2744
1615.96 1119.16 2726
1622.48 1119.16 2726
1629 1119.16 2726
1637.92 1120.81 2730
1644.45 1120.81 2730
1650.98 1120.81 2730
1633.83 1104.8 2691
1640.26 1104.8 2691
1641.19 1101.1 2682
1645.14 1099.46 2678
1651.55 1099.46 2678
1657.95 1099.46 2678
1658.76 1095.76 2669
1647.05 1083.86 2640
1627.69 1067.02 2599
1633.9 1067.02 2599
1640.12 1067.02 2599
1646.33 1067.02 2599
1644.28 1061.69 2586
1736.54 1028.43 2505
1742.53 1028.43 2505
1748.52 1028.43 2505
1754.51 1028.43 2505
1760.51 1028.43 2505
1766.5 1028.43 2505
1754.09 1017.76 2479
1752.21 1013.24 2468
1758.11 1013.24 2468
1756.15 1008.73 2457
1746.25 999.694 2435
1744.87 995.589 2425
1750.67 995.589 2425
1756.47 995.589 2425
1847.4 1026.79 2501
1853.38 1026.79 2501
1859.36 1026.79 2501
1865.35 1026.79 2501
1854.87 1017.76 2479
1894.57 1036.23 2524
1908.89 1040.75 2535
1914.95 1040.75 2535
1927.08 1044.03 2543
1954.44 1055.53 2571
1968.98 1060.05 2582
1975.15 1060.05 2582
-1716.59 991.074 2400
-1710.85 991.074 2400
-1705.11 991.074 2400
-1699.37 991.074 2400
-1757.44 1038.98 2516
-1751.43 1038.98 2516
-1745.41 1038.98 2516
-1739.39 1038.98 2516
-1733.38 1038.98 2516
-1735.6 1043.93 2528
-1729.55 1043.93 2528
-1723.51 1043.93 2528
-1717.46 1043.93 2528
-1711.42 1043.93 2528
-1705.37 1043.93 2528
-1696.64 1042.28 2524
-1690.6 1042.28 2524
-1675.87 1040.63 2520
-1669.85 1040.63 2520
-1663.82 1040.63 2520
-1657.79 1040.63 2520
-1651.77 1040.63 2520
-1645.74 1040.63 2520
-1639.72 1040.63 2520
-1623.97 1034.43 2505
-1617.98 1034.43 2505
-1609.41 1032.78 2501
-1600.87 1031.13 2497
-1576.98 1031.13 2497
-1582.96 1038.98 2516
-1581.96 1042.28 2524
-1575.93 1042.28 2524
-1574.87 1045.58 2532
-1575.63 1050.13 2543
-1572.02 1051.78 2547
-1565.93 1051.78 2547
-1562.28 1053.43 2551
-1556.18 1053.43 2551
-1550.08 1053.43 2551
-1541.56 1051.78 2547
-1535.47 1051.78 2547
-1529.38 1051.78 2547
-1523.29 1051.78 2547
-1517.2 1051.78 2547
-1511.11 1051.78 2547
-1509.75 1055.08 2555
-1503.64 1055.08 2555
-1497.53 1055.08 2555
-1496.09 1058.38 2563
-1492.28 1060.04 2567
-1486.14 1060.04 2567
-1480.01 1060.04 2567
-1473.87 1060.04 2567
-1467.73 1060.04 2567
-1461.59 1060.04 2567
-1446.38 1053.43 2551
-1433.5 1048.47 2539
-1436.43 1055.08 2555
-1434.8 1058.38 2563
-1428.67 1058.38 2563
-1428.64 1062.93 2574
-1442.94 1078.21 2611
-1441.1 1081.51 2619
-1434.83 1081.51 2619
-1428.57 1081.51 2619
-1424.48 1083.16 2623
-1431.72 1093.49 2648
-1425.39 1093.49 2648
-1426.03 1098.85 2661
-1423.93 1102.16 2669
-1417.55 1102.16 2669
-1411.17 1102.16 2669
-1395.84 1095.14 2652
-1378.49 1086.46 2631
-1372.2 1086.46 2631
-1359.68 1081.51 2619
-1289.13 1074.9 2603
-1286.84 1078.21 2611
-1280.6 1078.21 2611
-1274.36 1078.21 2611
-1268.11 1078.21 2611
-1261.87 1078.21 2611
-1249.86 1073.25 2599
-1241.25 1071.19 2594
-1237.43 1073.25 2599
-1231.21 1073.25 2599
-1225 1073.25 2599
-1218.78 1073.25 2599
-1212.57 1073.25 2599
-1202.17 1069.53 2590
-1195.98 1069.53 2590
-1186.11 1066.23 2582
-1178.11 1064.58 2578
-1170.13 1062.93 2574
-1163.97 1062.93 2574
-1154.67 1060.04 2567
-1150.32 1061.69 2571
-1144.17 1061.69 2571
-1138.02 1061.69 2571
-1131.87 1061.69 2571
-1123.97 1060.04 2567
-1117.84 1060.04 2567
-1111.7 1060.04 2567
-1103.84 1058.38 2563
-1095.99 1056.73 2559
-1089.87 1056.73 2559
-1083.76 1056.73 2559
-1072.58 1051.78 2547
-1066.49 1051.78 2547
-1058.74 1050.13 2543
-1057.62 1055.08 2555
-1051.51 1055.08 2555
-1047.04 1056.73 2559
-1047.02 1062.93 2574
-1045.72 1067.88 2586
-1039.53 1067.88 2586
-1038.55 1073.25 2599
-1032.33 1073.25 2599
-1026.12 1073.25 2599
-1014.8 1067.88 2586
-1005.49 1064.58 2578
-1007.47 1073.25 2599
-1010.5 1083.16 2623
-1004.23 1083.16 2623
-997.957 1083.16 2623
-991.684 1083.16 2623
-985.412 1083.16 2623
-979.14 1083.16 2623
-975.834 1086.46 2631
-971.017 1088.12 2635
-969.475 1093.49 2648
-963.143 1093.49 2648
-956.811 1093.49 2648
-947.607 1090.18 2640
-941.294 1090.18 2640
-931.794 1086.46 2631
-921.281 1081.51 2619
-912.223 1078.21 2611
-904.591 1076.55 2607
-898.357 1076.55 2607
-892.123 1076.55 2607
-888.608 1079.86 2615
-882.354 1079.86 2615
-876.101 1079.86 2615
-867.187 1076.55 2607
-856.659 1071.19 2594
-847.833 1067.88 2586
-841.65 1067.88 2586
-835.466 1067.88 2586
-827.999 1066.23 2582
-820.552 1064.58 2578
-814.387 1064.58 2578
-806.968 1062.93 2574
-800.813 1062.93 2574
-793.731 1061.69 2571
-787.583 1061.69 2571
-780.219 1060.04 2567
-774.081 1060.04 2567
-767.943 1060.04 2567
-766.256 1066.23 2582
-760.081 1066.23 2582
-755.075 1067.88 2586
-748.891 1067.88 2586
-742.707 1067.88 2586
-736.523 1067.88 2586
-734.011 1073.25 2599
-728.916 1074.9 2603
-722.691 1074.9 2603
-716.467 1074.9 2603
-710.242 1074.9 2603
-705.099 1076.55 2607
-698.865 1076.55 2607
-692.631 1076.55 2607
-686.397 1076.55 2607
-680.163 1076.55 2607
-673.929 1076.55 2607
-669.744 1079.86 2615
-663.49 1079.86 2615
-657.237 1079.86 2615
-651.98 1081.51 2619
-645.717 1081.51 2619
-639.454 1081.51 2619
-632.224 1079.86 2615
-622.141 1073.25 2599
-615.926 1073.25 2599
-609.711 1073.25 2599
-601.406 1069.53 2590
-595.212 1069.53 2590
-589.019 1069.53 2590
-581.025 1066.23 2582
-575.741 1067.88 2586
-569.558 1067.88 2586
-563.374 1067.88 2586
-557.19 1067.88 2586
-551.858 1069.53 2590
-545.665 1069.53 2590
-539.471 1069.53 2590
-533.278 1069.53 2590
-524.642 1064.58 2578
-518.477 1064.58 2578
-512.313 1064.58 2578
-506.148 1064.58 2578
-499.207 1062.93 2574
-494.584 1066.23 2582
-489.923 1069.53 2590
-483.73 1069.53 2590
-477.536 1069.53 2590
-472.071 1071.19 2594
-465.868 1071.19 2594
-460.551 1073.25 2599
-454.336 1073.25 2599
-448.811 1074.9 2603
-442.586 1074.9 2603
-436.361 1074.9 2603
-429.476 1073.25 2599
-423.261 1073.25 2599
-417.046 1073.25 2599
-411.463 1074.9 2603
-405.239 1074.9 2603
-399.014 1074.9 2603
-393.997 1078.21 2611
-388.941 1081.51 2619
-382.678 1081.51 2619
-376.99 1083.16 2623
-371.849 1086.46 2631
-365.557 1086.46 2631
-359.266 1086.46 2631
-351.364 1081.51 2619
-345.628 1083.16 2623
-339.873 1084.81 2627
-333.591 1084.81 2627
-327.808 1086.46 2631
-321.516 1086.46 2631
-315.225 1086.46 2631
-307.994 1083.16 2623
-301.262 1081.51 2619
-294.999 1081.51 2619
-289.618 1084.81 2627
-283.336 1084.81 2627
-277.054 1084.81 2627
-270.772 1084.81 2627
-264.893 1086.46 2631
-258.601 1086.46 2631
-252.31 1086.46 2631
-246.018 1086.46 2631
-240.091 1088.12 2635
-233.79 1088.12 2635
-228.266 1091.83 2644
-222.951 1096.79 2656
-216.599 1096.79 2656
-210.644 1098.85 2661
-204.281 1098.85 2661
-198.215 1100.51 2665
-191.842 1100.51 2665
-185.469 1100.51 2665
-179.096 1100.51 2665
-172.724 1100.51 2665
-165.539 1095.14 2652
-159.198 1095.14 2652
-151.645 1086.46 2631
-144.691 1081.51 2619
-136.472 1066.23 2582
-130.298 1066.23 2582
-87.7586 941.107 2279
-82.3088 941.107 2279
-76.8591 941.107 2279
-71.4093 941.107 2279
-65.9595 941.107 2279
-60.1115 934.913 2264
-54.6975 934.913 2264
-49.1313 932.023 2257
-43.7341 932.023 2257
-38.3369 932.023 2257
-32.8522 929.545 2251
-27.4694 929.545 2251
-22.0571 928.306 2248
-16.6814 928.306 2248
-11.3058 928.306 2248
-5.91432 925.828 2242
-0.551535 923.351 2236
4.79542 923.351 2236
10.1424 923.351 2236
15.4893 923.351 2236
20.8083 922.112 2233
26.1481 922.112 2233
31.4879 922.112 2233
36.8771 923.351 2236
42.2807 924.59 2239
47.6987 925.828 2242
53.06 925.828 2242
58.4213 925.828 2242
63.7826 925.828 2242
69.1439 925.828 2242
74.5052 925.828 2242
79.6528 923.351 2236
84.9997 923.351 2236
90.3467 923.351 2236
95.822 924.59 2239
101.176 924.59 2239
107.244 930.784 2254
112.784 932.023 2257
118.548 934.913 2264
123.961 934.913 2264
129.547 936.152 2267
135.325 938.63 2273
140.946 939.869 2276
146.389 939.869 2276
152.032 941.107 2279
157.689 942.346 2282
163.36 943.585 2285
168.824 943.585 2285
174.288 943.585 2285
179.989 944.824 2288
185.784 946.476 2292
191.265 946.476 2292
197.261 948.953 2298
203.285 951.431 2304
210.245 958.038 2320
215.793 958.038 2320
222.009 960.929 2327
227.573 960.929 2327
233.438 962.168 2330
239.01 962.168 2330
246.261 968.775 2346
253.696 975.795 2363
260.445 979.924 2373
266.119 979.924 2373
276.948 998.507 2418
291.967 1031.13 2497
300.683 1040.63 2520
306.709 1040.63 2520
314.596 1046.82 2535
321.67 1050.13 2543
328.782 1053.43 2551
334.883 1053.43 2551
340.983 1053.43 2551
346.539 1051.78 2547
352.629 1051.78 2547
358.72 1051.78 2547
365.384 1053.43 2551
374.396 1061.69 2571
380.988 1062.93 2574
387.144 1062.93 2574
393.299 1062.93 2574
399.454 1062.93 2574
406.24 1064.58 2578
412.404 1064.58 2578
418.569 1064.58 2578
424.734 1064.58 2578
431.567 1066.23 2582
438.42 1067.88 2586
444.604 1067.88 2586
453.751 1074.9 2603
461.389 1078.21 2611
468.349 1079.86 2615
474.603 1079.86 2615
480.856 1079.86 2615
486.364 1078.21 2611
492.608 1078.21 2611
498.851 1078.21 2611
505.869 1079.86 2615
512.122 1079.86 2615
518.375 1079.86 2615
523.024 1076.55 2607
529.258 1076.55 2607
537.135 1079.86 2615
543.388 1079.86 2615
549.642 1079.86 2615
555.895 1079.86 2615
562.148 1079.86 2615
568.401 1079.86 2615
568.282 1067.88 2586
574.466 1067.88 2586
578.853 1064.58 2578
585.018 1064.58 2578
588.66 1060.04 2567
592.945 1056.73 2559
598.128 1055.08 2555
604.238 1055.08 2555
612.259 1058.38 2563
618.388 1058.38 2563
624.517 1058.38 2563
630.646 1058.38 2563
638.762 1061.69 2571
644.91 1061.69 2571
651.818 1062.93 2574
657.973 1062.93 2574
664.128 1062.93 2574
670.283 1062.93 2574
678.541 1066.23 2582
685.776 1067.88 2586
698.65 1078.21 2611
704.893 1078.21 2611
715.495 1084.81 2627
721.777 1084.81 2627
728.059 1084.81 2627
734.341 1084.81 2627
740.622 1084.81 2627
746.904 1084.81 2627
753.186 1084.81 2627
759.468 1084.81 2627
769.54 1090.18 2640
775.853 1090.18 2640
782.166 1090.18 2640
788.479 1090.18 2640
794.792 1090.18 2640
798.374 1086.46 2631
805.889 1088.12 2635
817.43 1095.14 2652
823.771 1095.14 2652
835.435 1102.16 2669
847.179 1109.18 2686
853.602 1109.18 2686
860.025 1109.18 2686
862.254 1103.81 2673
863.122 1096.79 2656
875.038 1103.81 2673
881.43 1103.81 2673
895.129 1112.89 2695
901.574 1112.89 2695
909.366 1114.55 2699
915.82 1114.55 2699
922.274 1114.55 2699
925.976 1111.24 2691
932.411 1111.24 2691
938.846 1111.24 2691
938.958 1103.81 2673
947.118 1105.87 2678
959.575 1112.89 2695
966.02 1112.89 2695
972.464 1112.89 2695
982.178 1116.61 2704
990.106 1118.26 2708
999.894 1121.98 2717
1006.39 1121.98 2717
1012.89 1121.98 2717
1024.26 1127.35 2730
1030.79 1127.35 2730
1037.32 1127.35 2730
1042.32 1125.7 2726
1040.37 1116.61 2704
1046.84 1116.61 2704
1046.29 1109.18 2686
1046.05 1102.16 2669
1045.73 1095.14 2652
1052.07 1095.14 2652
1053.63 1090.18 2640
1062.12 1073.25 2599
1068.34 1073.25 2599
1074.55 1073.25 2599
1077.03 1069.53 2590
1083.22 1069.53 2590
1082.68 1062.93 2574
1087.57 1061.69 2571
1090.31 1058.38 2563
1096.44 1058.38 2563
1102.57 1058.38 2563
1106.97 1056.73 2559
1114.83 1058.38 2563
1120.96 1058.38 2563
1127.09 1058.38 2563
1133.22 1058.38 2563
1139.35 1058.38 2563
1145.47 1058.38 2563
1158.34 1064.58 2578
1164.51 1064.58 2578
1174.31 1067.88 2586
1180.49 1067.88 2586
1186.67 1067.88 2586
1192.86 1067.88 2586
1199.04 1067.88 2586
1213.15 1074.9 2603
1226.87 1081.51 2619
1233.13 1081.51 2619
1239.39 1081.51 2619
1245.66 1081.51 2619
1251.92 1081.51 2619
1258.18 1081.51 2619
1272.17 1088.12 2635
1299.33 1105.87 2678
1326.7 1123.63 2721
1333.21 1123.63 2721
1342.18 1125.7 2726
1348.7 1125.7 2726
1355.22 1125.7 2726
1361.73 1125.7 2726
1368.25 1125.7 2726
1370.23 1121.98 2717
1376.73 1121.98 2717
1383.23 1121.98 2717
1383.07 1116.61 2704
1384.92 1112.89 2695
1386.71 1109.18 2686
1393.14 1109.18 2686
1399.56 1109.18 2686
1392.9 1098.85 2661
1399.26 1098.85 2661
1409.85 1102.16 2669
1416.23 1102.16 2669
1422.61 1102.16 2669
1419.89 1095.14 2652
1426.24 1095.14 2652
1423.39 1088.12 2635
1418.84 1079.86 2615
1425.1 1079.86 2615
1429.16 1078.21 2611
1439.8 1081.51 2619
1446.07 1081.51 2619
1458.98 1086.46 2631
1465.27 1086.46 2631
1483.31 1095.14 2652
1489.65 1095.14 2652
1496 1095.14 2652
1492.71 1088.12 2635
1504.13 1091.83 2644
1510.45 1091.83 2644
1531.11 1102.16 2669
1537.5 1102.16 2669
1543.88 1102.16 2669
1550.26 1102.16 2669
1556.64 1102.16 2669
1568.3 1105.87 2678
1574.7 1105.87 2678
1581.11 1105.87 2678
1574.47 1096.79 2656
1580.82 1096.79 2656
1587.17 1096.79 2656
1593.52 1096.79 2656
1599.87 1096.79 2656
1606.22 1096.79 2656
1599.83 1088.12 2635
1606.13 1088.12 2635
1607.53 1084.81 2627
1639.62 1102.16 2669
1646 1102.16 2669
1652.38 1102.16 2669
1658.76 1102.16 2669
1647.05 1090.18 2640
1627.69 1073.25 2599
1620.7 1064.58 2578
1626.87 1064.58 2578
1633.03 1064.58 2578
1639.2 1064.58 2578
1736.54 1034.43 2505
1742.53 1034.43 2505
1748.52 1034.43 2505
1754.51 1034.43 2505
1760.51 1034.43 2505
1766.5 1034.43 2505
1754.09 1023.7 2479
1752.21 1019.15 2468
1758.11 1019.15 2468
1756.15 1014.61 2457
1746.25 1005.53 2435
1744.87 1001.4 2425
1750.67 1001.4 2425
1756.47 1001.4 2425
1847.4 1032.78 2501
1853.38 1032.78 2501
1859.36 1032.78 2501
1865.35 1032.78 2501
1854.87 1023.7 2479
1894.57 1042.28 2524
1908.89 1046.82 2535
1914.95 1046.82 2535
1927.08 1050.13 2543
1954.44 1061.69 2571
1968.98 1066.23 2582
1975.15 1066.23 2582
-1726.58 992.67 2390
-1720.87 992.67 2390
-1715.15 992.67 2390
-1716.59 996.823 2400
-1710.85 996.823 2400
-1705.11 996.823 2400
-1699.37 996.823 2400
-1757.44 1045 2516
-1751.43 1045 2516
-1745.41 1045 2516
-1739.39 1045 2516
-1730.62 1043.34 2512
-1727.36 1045 2516
-1721.34 1045 2516
-1715.33 1045 2516
-1714.75 1048.33 2524
-1708.71 1048.33 2524
-1702.68 1048.33 2524
-1696.64 1048.33 2524
-1690.6 1048.33 2524
-1669.22 1038.77 2501
-1675.87 1046.66 2520
-1669.85 1046.66 2520
-1663.82 1046.66 2520
-1657.79 1046.66 2520
-1651.77 1046.66 2520
-1645.74 1046.66 2520
-1639.72 1046.66 2520
-1621.37 1038.77 2501
-1615.39 1038.77 2501
-1609.41 1038.77 2501
-1600.87 1037.11 2497
-1580.84 1027.97 2475
-1587.02 1035.87 2494
-1581.05 1035.87 2494
-1576.98 1037.11 2497
-1573.53 1038.77 2501
-1576.95 1045 2516
-1570.93 1045 2516
-1569.89 1048.33 2524
-1570.67 1052.89 2535
-1567.08 1054.56 2539
-1561.01 1054.56 2539
-1559.83 1057.88 2547
-1553.74 1057.88 2547
-1547.65 1057.88 2547
-1532.48 1051.65 2532
-1521.61 1048.33 2524
-1513.17 1046.66 2520
-1514.32 1051.65 2532
-1508.26 1051.65 2532
-1511.11 1057.88 2547
-1505.02 1057.88 2547
-1498.93 1057.88 2547
-1492.84 1057.88 2547
-1491.42 1061.2 2555
-1485.31 1061.2 2555
-1479.2 1061.2 2555
-1473.09 1061.2 2555
-1466.98 1061.2 2555
-1458.58 1059.54 2551
-1452.48 1059.54 2551
-1439.58 1054.56 2539
-1431.25 1052.89 2535
-1427.43 1054.56 2539
-1430.32 1061.2 2555
-1424.21 1061.2 2555
-1426.98 1067.85 2571
-1436.31 1079.48 2599
-1436.69 1084.46 2611
-1430.45 1084.46 2611
-1424.21 1084.46 2611
-1417.96 1084.46 2611
-1418.21 1089.44 2623
-1411.93 1089.44 2623
-1405.66 1089.44 2623
-1284.67 1077.4 2594
-1280.93 1079.48 2599
-1274.72 1079.48 2599
-1268.5 1079.48 2599
-1262.29 1079.48 2599
-1256.07 1079.48 2599
-1249.86 1079.48 2599
-1243.64 1079.48 2599
-1233.14 1075.74 2590
-1231.21 1079.48 2599
-1225 1079.48 2599
-1218.78 1079.48 2599
-1210.23 1077.4 2594
-1200.32 1074.08 2586
-1194.13 1074.08 2586
-1184.27 1070.75 2578
-1178.11 1070.75 2578
-1166.94 1066.19 2567
-1160.8 1066.19 2567
-1151.07 1062.86 2559
-1146.74 1064.52 2563
-1142.39 1066.19 2567
-1136.25 1066.19 2567
-1130.11 1066.19 2567
-1122.22 1064.52 2563
-1114.35 1062.86 2559
-1108.23 1062.86 2559
-1102.11 1062.86 2559
-1094.28 1061.2 2555
-1084.76 1057.88 2547
-1078.67 1057.88 2547
-1070.9 1056.22 2543
-1063.14 1054.56 2539
-1057.07 1054.56 2539
-1051 1054.56 2539
-1043.28 1052.89 2535
-1038.86 1054.56 2539
-1037.67 1059.54 2551
-1036.42 1064.52 2563
-1030.29 1064.52 2563
-1027.36 1067.85 2571
-1021.21 1067.85 2571
-1015.06 1067.85 2571
-1008.91 1067.85 2571
-1002.76 1067.85 2571
-999.33 1070.75 2578
-1001.26 1079.48 2599
-995.041 1079.48 2599
-990.347 1081.14 2603
-985.635 1082.8 2607
-979.401 1082.8 2607
-973.167 1082.8 2607
-971.384 1087.78 2619
-966.595 1089.44 2623
-964.716 1094.43 2635
-958.415 1094.43 2635
-952.114 1094.43 2635
-945.812 1094.43 2635
-939.511 1094.43 2635
-928.96 1089.44 2623
-919.874 1086.12 2615
-912.223 1084.46 2611
-904.591 1082.8 2607
-898.357 1082.8 2607
-892.123 1082.8 2607
-885.889 1082.8 2607
-879.655 1082.8 2607
-873.421 1082.8 2607
-864.526 1079.48 2599
-855.338 1075.74 2590
-846.522 1072.42 2582
-840.348 1072.42 2582
-834.173 1072.42 2582
-825.434 1069.09 2574
-819.278 1069.09 2574
-813.123 1069.09 2574
-806.027 1067.85 2571
-799.879 1067.85 2571
-791.262 1064.52 2563
-785.133 1064.52 2563
-777.788 1062.86 2559
-770.462 1061.2 2555
-765.549 1062.86 2559
-761.804 1066.19 2567
-755.666 1066.19 2567
-751.571 1069.09 2574
-745.416 1069.09 2574
-741.558 1072.42 2582
-735.384 1072.42 2582
-730.339 1074.08 2586
-725.275 1075.74 2590
-720.193 1077.4 2594
-713.989 1077.4 2594
-707.786 1077.4 2594
-702.936 1079.48 2599
-696.721 1079.48 2599
-690.506 1079.48 2599
-684.291 1079.48 2599
-678.076 1079.48 2599
-672.895 1081.14 2603
-667.695 1082.8 2607
-661.461 1082.8 2607
-655.226 1082.8 2607
-650.984 1086.12 2615
-644.731 1086.12 2615
-638.477 1086.12 2615
-629.323 1081.14 2603
-620.944 1077.4 2594
-614.741 1077.4 2594
-607.599 1075.74 2590
-600.477 1074.08 2586
-592.455 1070.75 2578
-586.29 1070.75 2578
-579.225 1069.09 2574
-573.96 1070.75 2578
-569.558 1074.08 2586
-563.374 1074.08 2586
-557.19 1074.08 2586
-551.006 1074.08 2586
-544.822 1074.08 2586
-538.638 1074.08 2586
-529.983 1069.09 2574
-523.828 1069.09 2574
-517.673 1069.09 2574
-511.518 1069.09 2574
-505.362 1069.09 2574
-499.207 1069.09 2574
-494.584 1072.42 2582
-489.167 1074.08 2586
-482.983 1074.08 2586
-477.536 1075.74 2590
-471.343 1075.74 2590
-465.149 1075.74 2590
-460.551 1079.48 2599
-454.336 1079.48 2599
-448.121 1079.48 2599
-441.906 1079.48 2599
-435.691 1079.48 2599
-429.476 1079.48 2599
-423.261 1079.48 2599
-417.046 1079.48 2599
-410.831 1079.48 2599
-403.837 1077.4 2594
-397.634 1077.4 2594
-392.789 1081.14 2603
-387.753 1084.46 2611
-381.509 1084.46 2611
-376.415 1087.78 2619
-370.153 1087.78 2619
-363.89 1087.78 2619
-357.627 1087.78 2619
-350.291 1084.46 2611
-343.52 1082.8 2607
-338.321 1086.12 2615
-332.068 1086.12 2615
-326.313 1087.78 2619
-320.05 1087.78 2619
-313.787 1087.78 2619
-307.055 1086.12 2615
-300.801 1086.12 2615
-294.098 1084.46 2611
-287.854 1084.46 2611
-281.61 1084.46 2611
-275.366 1084.46 2611
-269.947 1087.78 2619
-264.087 1089.44 2623
-257.815 1089.44 2623
-251.543 1089.44 2623
-245.644 1091.11 2627
-239.362 1091.11 2627
-233.435 1092.77 2631
-227.144 1092.77 2631
-221.943 1098.17 2644
-216.273 1101.49 2652
-210.248 1103.15 2656
-203.897 1103.15 2656
-197.545 1103.15 2656
-191.194 1103.15 2656
-185.469 1106.89 2665
-179.096 1106.89 2665
-172.724 1106.89 2665
-165.539 1101.49 2652
-159.198 1101.49 2652
-151.645 1092.77 2631
-144.691 1087.78 2619
-136.472 1072.42 2582
-130.298 1072.42 2582
-87.7586 946.567 2279
-82.3088 946.567 2279
-76.8591 946.567 2279
-71.4093 946.567 2279
-65.9595 946.567 2279
-60.1115 940.337 2264
-54.6975 940.337 2264
-49.1313 937.429 2257
-43.7341 937.429 2257
-38.3369 937.429 2257
-32.8522 934.937 2251
-27.4694 934.937 2251
-22.0865 934.937 2251
-16.7037 934.937 2251
-11.3058 933.691 2248
-5.91432 931.199 2242
-0.551535 928.707 2236
4.79542 928.707 2236
10.1424 928.707 2236
15.4893 928.707 2236
20.8083 927.461 2233
26.1481 927.461 2233
31.4879 927.461 2233
36.8771 928.707 2236
42.2807 929.953 2239
47.6987 931.199 2242
53.06 931.199 2242
58.4213 931.199 2242
63.7826 931.199 2242
69.1439 931.199 2242
74.5052 931.199 2242
79.6528 928.707 2236
84.9997 928.707 2236
90.3467 928.707 2236
95.822 929.953 2239
101.176 929.953 2239
107.244 936.183 2254
112.784 937.429 2257
118.548 940.337 2264
123.961 940.337 2264
129.547 941.583 2267
135.325 944.075 2273
140.946 945.321 2276
146.389 945.321 2276
152.032 946.567 2279
157.689 947.813 2282
163.36 949.059 2285
168.824 949.059 2285
174.288 949.059 2285
179.989 950.305 2288
185.784 951.966 2292
191.265 951.966 2292
197.261 954.458 2298
203.285 956.95 2304
210.517 964.842 2323
216.072 964.842 2323
222.009 966.503 2327
227.573 966.503 2327
233.438 967.749 2330
239.01 967.749 2330
246.261 974.395 2346
253.696 981.456 2363
260.445 985.609 2373
266.119 985.609 2373
276.948 1004.3 2418
291.967 1037.11 2497
300.683 1046.66 2520
306.709 1046.66 2520
314.596 1052.89 2535
321.67 1056.22 2543
328.782 1059.54 2551
334.883 1059.54 2551
340.983 1059.54 2551
346.539 1057.88 2547
352.629 1057.88 2547
358.72 1057.88 2547
365.384 1059.54 2551
374.396 1067.85 2571
380.988 1069.09 2574
387.144 1069.09 2574
393.299 1069.09 2574
399.454 1069.09 2574
406.24 1070.75 2578
412.404 1070.75 2578
418.569 1070.75 2578
424.734 1070.75 2578
431.567 1072.42 2582
438.42 1074.08 2586
444.604 1074.08 2586
453.751 1081.14 2603
461.389 1084.46 2611
468.349 1086.12 2615
474.603 1086.12 2615
480.856 1086.12 2615
486.364 1084.46 2611
492.608 1084.46 2611
498.851 1084.46 2611
505.869 1086.12 2615
512.122 1086.12 2615
518.375 1086.12 2615
523.024 1082.8 2607
529.258 1082.8 2607
535.492 1082.8 2607
541.726 1082.8 2607
541.024 1069.09 2574
547.179 1069.09 2574
552.689 1067.85 2571
558.838 1067.85 2571
564.986 1067.85 2571
570.245 1066.19 2567
574.587 1062.86 2559
580.707 1062.86 2559
586.826 1062.86 2559
592.945 1062.86 2559
598.128 1061.2 2555
604.238 1061.2 2555
611.303 1062.86 2559
617.423 1062.86 2559
624.517 1064.52 2563
630.646 1064.52 2563
637.768 1066.19 2567
643.907 1066.19 2567
650.045 1066.19 2567
656.184 1066.19 2567
662.322 1066.19 2567
668.461 1066.19 2567
675.65 1067.85 2571
684.715 1072.42 2582
695.439 1079.48 2599
701.654 1079.48 2599
712.226 1086.12 2615
720.678 1089.44 2623
726.95 1089.44 2623
733.222 1089.44 2623
738.367 1087.78 2619
744.63 1087.78 2619
752.04 1089.44 2623
759.468 1091.11 2627
765.75 1091.11 2627
772.032 1091.11 2627
778.314 1091.11 2627
784.596 1091.11 2627
790.878 1091.11 2627
795.946 1089.44 2623
802.219 1089.44 2623
813.731 1096.51 2640
820.044 1096.51 2640
830.113 1101.49 2652
837.717 1103.15 2656
844.068 1103.15 2656
850.419 1103.15 2656
854.19 1099.83 2648
857.922 1096.51 2640
865.545 1098.17 2644
871.867 1098.17 2644
887.822 1110.21 2673
894.214 1110.21 2673
902.291 1112.29 2678
908.695 1112.29 2678
915.099 1112.29 2678
918.406 1108.55 2669
924.788 1108.55 2669
931.17 1108.55 2669
927.366 1096.51 2640
937.923 1101.49 2652
948.893 1106.89 2665
956.7 1108.55 2669
963.082 1108.55 2669
974.187 1113.95 2682
980.6 1113.95 2682
996.582 1124.75 2708
1003.06 1124.75 2708
1009.53 1124.75 2708
1017.88 1126.83 2713
1024.37 1126.83 2713
1030.86 1126.83 2713
1033.91 1123.09 2704
1033.45 1115.61 2686
1039.87 1115.61 2686
1038.11 1106.89 2665
1036.26 1098.17 2644
1041 1096.51 2640
1047.31 1096.51 2640
1051.63 1094.43 2635
1051.51 1087.78 2619
1069.12 1067.85 2571
1076.53 1069.09 2574
1082.68 1069.09 2574
1088.84 1069.09 2574
1094.99 1069.09 2574
1101.15 1069.09 2574
1107.3 1069.09 2574
1108.7 1064.52 2563
1113.09 1062.86 2559
1119.21 1062.86 2559
1125.33 1062.86 2559
1131.45 1062.86 2559
1137.57 1062.86 2559
1138.32 1057.88 2547
1153.4 1066.19 2567
1159.54 1066.19 2567
1172.49 1072.42 2582
1180.49 1074.08 2586
1186.67 1074.08 2586
1192.86 1074.08 2586
1195.33 1070.75 2578
1203.36 1072.42 2582
1209.53 1072.42 2582
1215.71 1072.42 2582
1223.78 1074.08 2586
1233.77 1077.4 2594
1246.18 1082.8 2607
1252.42 1082.8 2607
1260.58 1084.46 2611
1282.84 1098.17 2644
1305.74 1112.29 2678
1312.14 1112.29 2678
1328.88 1121.01 2699
1339.79 1124.75 2708
1346.27 1124.75 2708
1352.74 1124.75 2708
1359.22 1124.75 2708
1363.68 1123.09 2704
1367.61 1121.01 2699
1374.06 1121.01 2699
1373.87 1115.61 2686
1378.24 1113.95 2682
1369.16 1101.49 2652
1375.5 1101.49 2652
1366.73 1089.44 2623
1375.1 1091.11 2627
1390.32 1098.17 2644
1398.76 1099.83 2648
1405.09 1099.83 2648
1411.42 1099.83 2648
1410.79 1094.43 2635
1417.09 1094.43 2635
1412.59 1086.12 2615
1414.5 1082.8 2607
1416.38 1079.48 2599
1419.86 1077.4 2594
1431.01 1081.14 2603
1437.23 1081.14 2603
1452.33 1087.78 2619
1458.59 1087.78 2619
1483.31 1101.49 2652
1489.65 1101.49 2652
1496 1101.49 2652
1488.17 1091.11 2627
1494.46 1091.11 2627
1500.74 1091.11 2627
1516.77 1098.17 2644
1523.1 1098.17 2644
1529.42 1098.17 2644
1530.51 1094.43 2635
1536.81 1094.43 2635
1550.73 1099.83 2648
1557.06 1099.83 2648
1563.39 1099.83 2648
1564.98 1096.51 2640
1568.32 1094.43 2635
1574.62 1094.43 2635
1580.92 1094.43 2635
1587.22 1094.43 2635
1593.52 1094.43 2635
1582.83 1082.8 2607
1589.06 1082.8 2607
1592.85 1081.14 2603
1639.62 1108.55 2669
1646 1108.55 2669
1652.38 1108.55 2669
1658.76 1108.55 2669
1610.15 1067.85 2571
1616.3 1067.85 2571
1622.45 1067.85 2571
1623.53 1064.52 2563
1622.03 1059.54 2551
1736.54 1040.43 2505
1774.53 1059.54 2551
1780.63 1059.54 2551
1786.73 1059.54 2551
1790.02 1057.88 2547
1787.65 1052.89 2535
1788.76 1049.99 2528
1778.48 1040.43 2505
1784.47 1040.43 2505
1790.46 1040.43 2505
1793.58 1038.77 2501
1799.56 1038.77 2501
1805.54 1038.77 2501
1811.52 1038.77 2501
1817.5 1038.77 2501
1849.39 1046.66 2520
1855.41 1046.66 2520
1861.44 1046.66 2520
1867.46 1046.66 2520
1873.49 1046.66 2520
1873.55 1043.34 2512
1877.31 1042.1 2509
1894.57 1048.33 2524
1908.89 1052.89 2535
1914.95 1052.89 2535
1927.08 1056.22 2543
1951.4 1066.19 2567
1965.93 1070.75 2578
1972.09 1070.75 2578
-1726.58 998.395 2390
-1720.87 998.395 2390
-1715.15 998.395 2390
-1716.59 1002.57 2400
-1710.85 1002.57 2400
-1705.11 1002.57 2400
-1699.37 1002.57 2400
-1757.44 1051.03 2516
-1751.43 1051.03 2516
-1745.41 1051.03 2516
-1739.39 1051.03 2516
-1730.62 1049.36 2512
-1727.36 1051.03 2516
-1721.34 1051.03 2516
-1715.33 1051.03 2516
-1714.75 1054.37 2524
-1708.71 1054.37 2524
-1702.68 1054.37 2524
-1696.64 1054.37 2524
-1690.6 1054.37 2524
-1669.22 1044.76 2501
-1670.55 1049.36 2512
-1664.55 1049.36 2512
-1658.54 1049.36 2512
-1652.53 1049.36 2512
-1646.52 1049.36 2512
-1640.52 1049.36 2512
-1634.51 1049.36 2512
-1621.37 1044.76 2501
-1615.39 1044.76 2501
-1606.84 1043.09 2497
-1589.33 1035.57 2479
-1587.87 1038.5 2486
-1587.02 1041.84 2494
-1581.05 1041.84 2494
-1579.51 1044.76 2501
-1578.56 1048.11 2509
-1576.95 1051.03 2516
-1570.93 1051.03 2516
-1567.4 1052.7 2520
-1570.67 1058.97 2535
-1564.61 1058.97 2535
-1558.55 1058.97 2535
-1552.49 1058.97 2535
-1546.42 1058.97 2535
-1540.36 1058.97 2535
-1530.06 1056.04 2528
-1516.78 1051.03 2516
-1508.36 1049.36 2512
-1507.14 1052.7 2520
-1501.12 1052.7 2520
-1503.99 1058.97 2535
-1502.65 1062.31 2543
-1496.57 1062.31 2543
-1490.49 1062.31 2543
-1486.75 1063.98 2547
-1482.98 1065.65 2551
-1476.88 1065.65 2551
