ply
format ascii 1.0
comment File generated
element vertex 2249
property float x
property float y
property float z
end_header
1276.48 1111.19 2292
1281.96 1111.19 2292
1287.44 1111.19 2292
1292.92 1111.19 2292
1294.43 1107.8 2285
1298.19 1106.34 2282
1303.65 1106.34 2282
1305.66 1103.43 2276
1311.11 1103.43 2276
1321.76 1107.8 2285
1328.96 1109.25 2288
1342.02 1115.55 2301
1347.52 1115.55 2301
1356.55 1118.46 2307
1366.2 1121.86 2314
1373.51 1123.31 2317
1379.05 1123.31 2317
1384.59 1123.31 2317
1388.33 1121.86 2314
1393.86 1121.86 2314
1397.58 1120.4 2311
1400.68 1118.46 2307
1406.2 1118.46 2307
1411.72 1118.46 2307
1417.23 1118.46 2307
1422.75 1118.46 2307
1428.27 1118.46 2307
1433.78 1118.46 2307
1439.3 1118.46 2307
1444.82 1118.46 2307
1450.33 1118.46 2307
1448.28 1112.65 2295
1453.76 1112.65 2295
1457.35 1111.19 2292
1456.44 1106.34 2282
1461.9 1106.34 2282
1467.36 1106.34 2282
1468.94 1103.43 2276
1466.61 1097.62 2264
1472.03 1097.62 2264
1477.44 1097.62 2264
1482.85 1097.62 2264
1490.24 1099.07 2267
1501.6 1103.43 2276
1511.01 1106.34 2282
1516.47 1106.34 2282
1521.93 1106.34 2282
1527.38 1106.34 2282
1530.83 1104.89 2279
1536.28 1104.89 2279
1541.73 1104.89 2279
1553.29 1109.25 2288
1571.7 1118.46 2307
1582 1121.86 2314
1587.54 1121.86 2314
1593.07 1121.86 2314
1598.6 1121.86 2314
1604.14 1121.86 2314
1604.8 1118.46 2307
1608.22 1117.01 2304
1611.63 1115.55 2301
1617.13 1115.55 2301
1616.29 1111.19 2292
1616.82 1107.8 2285
1627.25 1111.19 2292
1634.87 1112.65 2295
1644.65 1115.55 2301
1650.15 1115.55 2301
1662.85 1120.4 2311
1672.7 1123.31 2317
1678.25 1123.31 2317
1683.79 1123.31 2317
1689.33 1123.31 2317
1690.48 1120.4 2311
1696 1120.4 2311
1701.53 1120.4 2311
1695.24 1112.65 2295
1695.54 1109.25 2288
1701.01 1109.25 2288
1699.77 1104.89 2279
1705.22 1104.89 2279
1710.67 1104.89 2279
1725.91 1111.19 2292
1735.92 1114.1 2298
1741.42 1114.1 2298
1746.91 1114.1 2298
1752.41 1114.1 2298
1757.9 1114.1 2298
-1641.2 1067.96 2192
-1638.2 1069.42 2195
-1632.95 1069.42 2195
-1627.7 1069.42 2195
-1591.24 1062.6 2181
-1586.03 1062.6 2181
-1582.99 1064.06 2184
-1596.55 1076.73 2210
-1594.86 1079.17 2215
-1600.33 1086.47 2230
-1595 1086.47 2230
-1598.22 1092.32 2242
-1592.86 1092.32 2242
-1603.08 1103.04 2264
-1597.66 1103.04 2264
-1592.25 1103.04 2264
-1586.83 1103.04 2264
-1600.98 1116.68 2292
-1595.5 1116.68 2292
-1592.1 1118.14 2295
-1586.61 1118.14 2295
-1581.12 1118.14 2295
-1554.35 1103.04 2264
-1548.94 1103.04 2264
-1502.36 1096.71 2251
-1507.62 1104.5 2267
-1502.2 1104.5 2267
-1496.78 1104.5 2267
-1489.38 1103.04 2264
-1477.42 1098.17 2254
-1472.03 1098.17 2254
-1466.64 1098.17 2254
-1461.25 1098.17 2254
-1453.92 1096.71 2251
-1448.53 1096.71 2251
-1443.15 1096.71 2251
-1437.77 1096.71 2251
-1436.2 1099.63 2257
-1439.05 1105.96 2270
-1433.62 1105.96 2270
-1428.19 1105.96 2270
-1422.76 1105.96 2270
-1417.34 1105.96 2270
-1400.09 1096.71 2251
-1387.27 1090.86 2239
-1374.51 1085.01 2227
-1369.19 1085.01 2227
-1349.77 1073.81 2204
-1330.47 1062.6 2181
-1325.26 1062.6 2181
-1320.04 1062.6 2181
-1313.02 1061.14 2178
-1304.21 1058.22 2172
-1299.01 1058.22 2172
-1295.61 1059.68 2175
-1290.41 1059.68 2175
-1285.2 1059.68 2175
-1280 1059.68 2175
-1274.8 1059.68 2175
-1269.6 1059.68 2175
-1262.66 1058.22 2172
-1257.46 1058.22 2172
-1252.27 1058.22 2172
-1247.07 1058.22 2172
-1243.6 1059.68 2175
-1238.39 1059.68 2175
-1233.19 1059.68 2175
-1226.3 1058.22 2172
-1221.1 1058.22 2172
-1220.95 1062.6 2181
-1215.73 1062.6 2181
-1210.52 1062.6 2181
-1208.07 1065.04 2186
-1204.49 1066.5 2189
-1199.25 1066.5 2189
-1194.02 1066.5 2189
-1188.79 1066.5 2189
-1188.42 1070.88 2198
-1192.31 1079.17 2215
-1187.02 1079.17 2215
-1181.72 1079.17 2215
-1176.42 1079.17 2215
-1172.71 1080.63 2218
-1167.41 1080.63 2218
-1162.1 1080.63 2218
-1164.62 1087.94 2233
-1160.84 1089.4 2236
-1155.49 1089.4 2236
-1157.86 1096.71 2251
-1160.67 1104.5 2267
-1162.89 1111.81 2282
-1157.44 1111.81 2282
-1153.49 1113.27 2285
-1148.03 1113.27 2285
-1142.57 1113.27 2285
-1137.1 1113.27 2285
-1125.7 1107.42 2273
-1110.9 1098.17 2254
-1108.94 1101.58 2261
-1105 1103.04 2264
-1099.58 1103.04 2264
-1094.17 1103.04 2264
-1090.2 1104.5 2267
-1087.65 1107.42 2273
-1082.21 1107.42 2273
-1078.2 1108.89 2276
-1074.17 1110.35 2279
-1068.72 1110.35 2279
-1063.27 1110.35 2279
-1060.6 1113.27 2285
-1059.76 1118.14 2295
-1055.65 1119.6 2298
-1050.15 1119.6 2298
-1046.02 1121.07 2301
-1040.52 1121.07 2301
-1035.02 1121.07 2301
-1028.17 1119.6 2298
-1022.68 1119.6 2298
-1017.18 1119.6 2298
-1011.69 1119.6 2298
-1004.88 1118.14 2295
-998.083 1116.68 2292
-985.673 1108.89 2276
-980.23 1108.89 2276
-974.788 1108.89 2276
-969.345 1108.89 2276
-963.903 1108.89 2276
-958.46 1108.89 2276
-951.761 1107.42 2273
-946.326 1107.42 2273
-942.132 1108.89 2276
-936.69 1108.89 2276
-931.247 1108.89 2276
-929.465 1113.27 2285
-925.214 1114.73 2288
-919.743 1114.73 2288
-914.272 1114.73 2288
-906.417 1111.81 2282
-900.96 1111.81 2282
-896.681 1113.27 2285
-891.216 1113.27 2285
-886.915 1114.73 2288
-884.141 1118.14 2295
-879.801 1119.6 2298
-874.306 1119.6 2298
-872.213 1123.99 2307
-869.326 1127.4 2314
-863.793 1127.4 2314
-858.259 1127.4 2314
-850.146 1123.99 2307
-843.531 1122.53 2304
-839.113 1123.99 2307
-835.042 1125.94 2311
-829.515 1125.94 2311
-825.059 1127.4 2314
-819.525 1127.4 2314
-813.992 1127.4 2314
-808.458 1127.4 2314
-802.925 1127.4 2314
-797.391 1127.4 2314
-791.858 1127.4 2314
-786.324 1127.4 2314
-780.791 1127.4 2314
-774.252 1125.94 2311
-768.726 1125.94 2311
-763.2 1125.94 2311
-757.673 1125.94 2311
-753.123 1127.4 2314
-747.59 1127.4 2314
-742.056 1127.4 2314
-736.523 1127.4 2314
-730.99 1127.4 2314
-725.456 1127.4 2314
-719.923 1127.4 2314
-714.389 1127.4 2314
-708.856 1127.4 2314
-703.322 1127.4 2314
-696.884 1125.94 2311
-692.255 1127.4 2314
-688.502 1130.32 2320
-682.955 1130.32 2320
-677.407 1130.32 2320
-671.859 1130.32 2320
-666.311 1130.32 2320
-660.763 1130.32 2320
-654.368 1128.86 2317
-648.827 1128.86 2317
-641.621 1125.94 2311
-636.095 1125.94 2311
-630.568 1125.94 2311
-625.042 1125.94 2311
-618.443 1123.99 2307
-612.927 1123.99 2307
-607.41 1123.99 2307
-601.893 1123.99 2307
-597.411 1125.94 2311
-591.884 1125.94 2311
-586.358 1125.94 2311
-580.832 1125.94 2311
-575.305 1125.94 2311
-568.053 1122.53 2304
-562.544 1122.53 2304
-556.309 1121.07 2301
-548.652 1116.68 2292
-543.171 1116.68 2292
-537.69 1116.68 2292
-532.209 1116.68 2292
-526.729 1116.68 2292
-520.338 1114.73 2288
-514.867 1114.73 2288
-509.395 1114.73 2288
-503.263 1113.27 2285
-496.492 1110.35 2279
-491.042 1110.35 2279
-484.953 1108.89 2276
-479.511 1108.89 2276
-472.818 1105.96 2270
-467.39 1105.96 2270
-461.962 1105.96 2270
-456.534 1105.96 2270
-451.105 1105.96 2270
-445.677 1105.96 2270
-439.667 1104.5 2267
-433.671 1103.04 2264
-427.69 1101.58 2261
-422.283 1101.58 2261
-418.536 1105.96 2270
-413.108 1105.96 2270
-408.757 1108.89 2276
-404.377 1111.81 2282
-399.445 1113.27 2285
-393.981 1113.27 2285
-389.707 1116.68 2292
-384.729 1118.14 2295
-379.241 1118.14 2295
-373.753 1118.14 2295
-368.746 1119.6 2298
-363.251 1119.6 2298
-358.223 1121.07 2301
-352.72 1121.07 2301
-347.218 1121.07 2301
-341.716 1121.07 2301
-336.213 1121.07 2301
-330.711 1121.07 2301
-325.208 1121.07 2301
-319.706 1121.07 2301
-315.023 1123.99 2307
-309.506 1123.99 2307
-303.99 1123.99 2307
-298.085 1122.53 2304
-292.575 1122.53 2304
-286.692 1121.07 2301
-280.823 1119.6 2298
-274.609 1116.68 2292
-269.128 1116.68 2292
-262.842 1113.27 2285
-257.378 1113.27 2285
-251.913 1113.27 2285
-246.449 1113.27 2285
-240.036 1108.89 2276
-234.593 1108.89 2276
-229.151 1108.89 2276
-223.708 1108.89 2276
-218.266 1108.89 2276
-212.543 1107.42 2273
-206.834 1105.96 2270
-201.405 1105.96 2270
-195.977 1105.96 2270
-190.549 1105.96 2270
-185.121 1105.96 2270
-179.217 1103.04 2264
-173.804 1103.04 2264
-167.869 1099.63 2257
-162.04 1096.71 2251
-156.657 1096.71 2251
-151.274 1096.71 2251
-145.891 1096.71 2251
-140.509 1096.71 2251
-134.766 1093.78 2245
-129.397 1093.78 2245
-123.366 1087.94 2233
-117.709 1085.01 2227
15.5932 1096.71 2251
21.2649 1111.81 2282
26.7219 1111.81 2282
32.1788 1111.81 2282
37.2895 1101.58 2261
42.2241 1089.4 2236
47.571 1089.4 2236
52.776 1086.47 2230
57.9523 1083.55 2224
63.2705 1083.55 2224
68.5888 1083.55 2224
197.648 1062.6 2181
203.887 1067.96 2192
209.129 1067.96 2192
215.251 1072.35 2201
223.119 1085.01 2227
230.291 1093.78 2245
235.659 1093.78 2245
241.994 1098.17 2254
248.811 1104.5 2267
254.232 1104.5 2267
259.653 1104.5 2267
266.477 1110.35 2279
273.001 1114.73 2288
278.472 1114.73 2288
283.943 1114.73 2288
290.68 1119.6 2298
296.948 1122.53 2304
302.851 1123.99 2307
308.368 1123.99 2307
314.837 1127.4 2314
320.371 1127.4 2314
325.904 1127.4 2314
331.438 1127.4 2314
336.971 1127.4 2314
342.505 1127.4 2314
348.038 1127.4 2314
353.113 1125.94 2311
358.64 1125.94 2311
364.166 1125.94 2311
369.692 1125.94 2311
375.218 1125.94 2311
381.239 1127.4 2314
386.772 1127.4 2314
392.306 1127.4 2314
397.839 1127.4 2314
402.85 1125.94 2311
407.669 1123.99 2307
413.186 1123.99 2307
417.614 1121.07 2301
423.116 1121.07 2301
428.619 1121.07 2301
434.121 1121.07 2301
440.197 1122.53 2304
445.706 1122.53 2304
451.216 1122.53 2304
457.32 1123.99 2307
463.639 1125.94 2311
469.166 1125.94 2311
474.692 1125.94 2311
480.218 1125.94 2311
485.745 1125.94 2311
491.271 1125.94 2311
496.797 1125.94 2311
504.28 1130.32 2320
510.487 1131.78 2323
516.042 1131.78 2323
523.842 1136.66 2333
529.421 1136.66 2333
535 1136.66 2333
540.579 1136.66 2333
546.158 1136.66 2333
551.737 1136.66 2333
557.316 1136.66 2333
562.171 1135.2 2330
566.037 1131.78 2323
570.854 1130.32 2320
575.656 1128.86 2317
581.197 1128.86 2317
585.978 1127.4 2314
591.511 1127.4 2314
596.271 1125.94 2311
602.578 1127.4 2314
608.112 1127.4 2314
613.645 1127.4 2314
619.178 1127.4 2314
624.712 1127.4 2314
630.245 1127.4 2314
635.779 1127.4 2314
642.144 1128.86 2317
647.684 1128.86 2317
653.225 1128.86 2317
659.619 1130.32 2320
668.894 1136.66 2333
676.496 1140.07 2340
682.092 1140.07 2340
688.569 1141.53 2343
695.061 1142.99 2346
700.671 1142.99 2346
708.388 1146.4 2353
714.015 1146.4 2353
719.642 1146.4 2353
725.269 1146.4 2353
730.895 1146.4 2353
736.522 1146.4 2353
741.203 1144.94 2350
744.598 1141.53 2343
750.2 1141.53 2343
755.803 1141.53 2343
761.406 1141.53 2343
767.009 1141.53 2343
772.612 1141.53 2343
777.218 1140.07 2340
780.472 1136.66 2333
785.04 1135.2 2330
790.612 1135.2 2330
795.158 1133.73 2327
797.282 1128.86 2317
796.239 1119.6 2298
800.688 1118.14 2295
807.23 1119.6 2298
812.725 1119.6 2298
818.22 1119.6 2298
824.791 1121.07 2301
830.293 1121.07 2301
835.795 1121.07 2301
840.201 1119.6 2298
846.8 1121.07 2301
852.303 1121.07 2301
857.805 1121.07 2301
863.307 1121.07 2301
868.81 1121.07 2301
874.312 1121.07 2301
879.815 1121.07 2301
887.625 1123.99 2307
893.142 1123.99 2307
900.217 1125.94 2311
906.919 1127.4 2314
912.453 1127.4 2314
923.143 1133.73 2327
929.905 1135.2 2330
935.477 1135.2 2330
941.049 1135.2 2330
946.62 1135.2 2330
952.192 1135.2 2330
957.764 1135.2 2330
963.336 1135.2 2330
974.313 1141.53 2343
984.098 1146.4 2353
989.725 1146.4 2353
995.352 1146.4 2353
1002.25 1147.86 2356
1007.89 1147.86 2356
1015.24 1149.81 2360
1020.89 1149.81 2360
1027.84 1151.27 2363
1034.8 1152.73 2366
1040.46 1152.73 2366
1046.11 1152.73 2366
1051.77 1152.73 2366
1057.43 1152.73 2366
1063.09 1152.73 2366
1068.74 1152.73 2366
1071.68 1149.81 2360
1075.5 1147.86 2356
1079.75 1146.4 2353
1085.38 1146.4 2353
1091.01 1146.4 2353
1095.23 1144.94 2350
1098.98 1142.99 2346
1104.59 1142.99 2346
1107.36 1140.07 2340
1106.77 1133.73 2327
1098.48 1119.6 2298
1103.97 1119.6 2298
1094.5 1104.5 2267
1074.69 1079.17 2215
1070.24 1069.42 2195
1072.55 1066.5 2189
1077.78 1066.5 2189
1083.01 1066.5 2189
1088.25 1066.5 2189
1097.98 1070.88 2198
1104.74 1072.35 2201
1110 1072.35 2201
1119.83 1076.73 2210
1136.82 1087.94 2233
1145.23 1090.86 2239
1150.59 1090.86 2239
1155.94 1090.86 2239
1158.18 1087.94 2233
1163.52 1087.94 2233
1173.57 1092.32 2242
1178.93 1092.32 2242
1185.88 1093.78 2245
1196.02 1098.17 2254
1209.94 1105.96 2270
1215.37 1105.96 2270
1222.41 1107.42 2273
1227.85 1107.42 2273
1238.17 1111.81 2282
1243.62 1111.81 2282
1252.36 1114.73 2288
1260.03 1116.68 2292
1265.51 1116.68 2292
1271 1116.68 2292
1276.48 1116.68 2292
1281.96 1116.68 2292
1287.44 1116.68 2292
1290.66 1114.73 2288
1294.43 1113.27 2285
1298.19 1111.81 2282
1303.65 1111.81 2282
1303.94 1107.42 2273
1309.38 1107.42 2273
1316.55 1108.89 2276
1328.96 1114.73 2288
1342.02 1121.07 2301
1347.52 1121.07 2301
1354.78 1122.53 2304
1360.29 1122.53 2304
1369.95 1125.94 2311
1375.48 1125.94 2311
1381.01 1125.94 2311
1382.33 1122.53 2304
1387.84 1122.53 2304
1393.35 1122.53 2304
1398.86 1122.53 2304
1404.37 1122.53 2304
1409.88 1122.53 2304
1415.39 1122.53 2304
1417.2 1119.6 2298
1414.65 1113.27 2285
1420.11 1113.27 2285
1425.57 1113.27 2285
1431.04 1113.27 2285
1436.5 1113.27 2285
1438.18 1110.35 2279
1443.63 1110.35 2279
1449.08 1110.35 2279
1448.78 1105.96 2270
1454.21 1105.96 2270
1459.64 1105.96 2270
1459.26 1101.58 2261
1456.25 1095.24 2248
1459.67 1093.78 2245
1465.04 1093.78 2245
1468.44 1092.32 2242
1463.94 1085.01 2227
1479.17 1092.32 2242
1499.09 1103.04 2264
1504.51 1103.04 2264
1509.92 1103.04 2264
1515.34 1103.04 2264
1520.75 1103.04 2264
1530.21 1105.96 2270
1535.64 1105.96 2270
1545.14 1108.89 2276
1558.76 1114.73 2288
1573.12 1121.07 2301
1578.62 1121.07 2301
1586.19 1122.53 2304
1591.7 1122.53 2304
1597.2 1122.53 2304
1600.63 1121.07 2301
1604.04 1119.6 2298
1605.33 1116.68 2292
1610.81 1116.68 2292
1609.24 1111.81 2282
1612.57 1110.35 2279
1622.28 1113.27 2285
1632.73 1116.68 2292
1640.36 1118.14 2295
1645.85 1118.14 2295
1655.65 1121.07 2301
1665.49 1123.99 2307
1673.9 1125.94 2311
1679.43 1125.94 2311
1684.95 1125.94 2311
1683.16 1121.07 2301
1688.67 1121.07 2301
1691.96 1119.6 2298
1693.02 1116.68 2292
1684.42 1107.42 2273
1689.86 1107.42 2273
1693.06 1105.96 2270
1698.48 1105.96 2270
1703.91 1105.96 2270
1718.38 1111.81 2282
1731.39 1116.68 2292
1736.87 1116.68 2292
1742.35 1116.68 2292
1747.83 1116.68 2292
1753.31 1116.68 2292
-1635.21 1069.29 2184
-1629.99 1069.29 2184
-1618.07 1064.89 2175
-1591.24 1067.83 2181
-1586.03 1067.83 2181
-1582.99 1069.29 2184
-1596.55 1082.02 2210
-1594.86 1084.47 2215
-1589.57 1084.47 2215
-1595 1091.82 2230
-1598.22 1097.69 2242
-1592.86 1097.69 2242
-1603.08 1108.46 2264
-1597.66 1108.46 2264
-1592.25 1108.46 2264
-1586.83 1108.46 2264
-1587.71 1112.87 2273
-1592.71 1120.21 2288
-1587.24 1120.21 2288
-1581.77 1120.21 2288
-1568.03 1114.34 2276
-1554.35 1108.46 2264
-1548.94 1108.46 2264
-1507.62 1109.93 2267
-1502.2 1109.93 2267
-1496.78 1109.93 2267
-1489.38 1108.46 2264
-1477.42 1103.57 2254
-1472.03 1103.57 2254
-1466.64 1103.57 2254
-1461.25 1103.57 2254
-1453.92 1102.1 2251
-1448.53 1102.1 2251
-1441.23 1100.63 2248
-1435.85 1100.63 2248
-1434.3 1103.57 2254
-1437.15 1109.93 2267
-1431.73 1109.93 2267
-1426.3 1109.93 2267
-1420.88 1109.93 2267
-1415.46 1109.93 2267
-1394.49 1097.69 2242
-1381.69 1091.82 2230
-1370.81 1087.41 2221
-1365.5 1087.41 2221
-1335.69 1067.83 2181
-1328.64 1066.36 2178
-1319.79 1063.42 2172
-1314.6 1063.42 2172
-1307.59 1061.95 2169
-1301.2 1060.97 2167
-1296.02 1060.97 2167
-1290.84 1060.97 2167
-1285.66 1060.97 2167
-1280.48 1060.97 2167
-1276.47 1061.95 2169
-1271.29 1061.95 2169
-1266.1 1061.95 2169
-1260.91 1061.95 2169
-1255.73 1061.95 2169
-1250.54 1061.95 2169
-1245.35 1061.95 2169
-1241.88 1063.42 2172
-1236.69 1063.42 2172
-1231.49 1063.42 2172
-1226.3 1063.42 2172
-1221.1 1063.42 2172
-1220.95 1067.83 2181
-1215.73 1067.83 2181
-1210.52 1067.83 2181
-1208.07 1070.27 2186
-1204.49 1071.74 2189
-1199.25 1071.74 2189
-1194.02 1071.74 2189
-1188.79 1071.74 2189
-1188.42 1076.15 2198
-1192.31 1084.47 2215
-1187.02 1084.47 2215
-1181.72 1084.47 2215
-1176.42 1084.47 2215
-1172.71 1085.94 2218
-1167.41 1085.94 2218
-1162.1 1085.94 2218
-1164.62 1093.29 2233
-1160.84 1094.75 2236
-1155.49 1094.75 2236
-1157.86 1102.1 2251
-1160.67 1109.93 2267
-1162.89 1117.28 2282
-1157.44 1117.28 2282
-1158.54 1123.64 2295
-1153.05 1123.64 2295
-1147.57 1123.64 2295
-1142.08 1123.64 2295
-1128.67 1115.81 2279
-1117.3 1109.93 2267
-1108.94 1106.99 2261
-1105 1108.46 2264
-1099.58 1108.46 2264
-1094.17 1108.46 2264
-1090.2 1109.93 2267
-1087.65 1112.87 2273
-1082.21 1112.87 2273
-1078.2 1114.34 2276
-1074.17 1115.81 2279
-1068.72 1115.81 2279
-1063.27 1115.81 2279
-1060.6 1118.74 2285
-1059.76 1123.64 2295
-1055.65 1125.11 2298
-1050.15 1125.11 2298
-1046.02 1126.58 2301
-1040.52 1126.58 2301
-1035.02 1126.58 2301
-1028.17 1125.11 2298
-1022.68 1125.11 2298
-1017.18 1125.11 2298
-1011.69 1125.11 2298
-1004.88 1123.64 2295
-998.083 1122.17 2292
-985.673 1114.34 2276
-980.23 1114.34 2276
-974.788 1114.34 2276
-969.345 1114.34 2276
-963.903 1114.34 2276
-958.46 1114.34 2276
-951.761 1112.87 2273
-946.326 1112.87 2273
-942.132 1114.34 2276
-936.69 1114.34 2276
-931.247 1114.34 2276
-929.465 1118.74 2285
-925.214 1120.21 2288
-919.743 1120.21 2288
-914.272 1120.21 2288
-906.417 1117.28 2282
-900.96 1117.28 2282
-896.681 1118.74 2285
-891.216 1118.74 2285
-886.915 1120.21 2288
-884.141 1123.64 2295
-879.801 1125.11 2298
-874.306 1125.11 2298
-872.213 1129.52 2307
-869.326 1132.94 2314
-863.793 1132.94 2314
-858.259 1132.94 2314
-850.146 1129.52 2307
-843.531 1128.05 2304
-839.113 1129.52 2307
-835.042 1131.47 2311
-829.515 1131.47 2311
-825.059 1132.94 2314
-819.525 1132.94 2314
-813.992 1132.94 2314
-808.458 1132.94 2314
-802.925 1132.94 2314
-797.391 1132.94 2314
-791.858 1132.94 2314
-786.324 1132.94 2314
-780.791 1132.94 2314
-774.252 1131.47 2311
-768.726 1131.47 2311
-763.2 1131.47 2311
-757.673 1131.47 2311
-752.147 1131.47 2311
-746.621 1131.47 2311
-741.094 1131.47 2311
-736.523 1132.94 2314
-730.99 1132.94 2314
-725.456 1132.94 2314
-719.923 1132.94 2314
-714.389 1132.94 2314
-707.937 1131.47 2311
-702.41 1131.47 2311
-696.884 1131.47 2311
-691.358 1131.47 2311
-686.722 1132.94 2314
-682.071 1134.41 2317
-676.531 1134.41 2317
-671.859 1135.88 2320
-666.311 1135.88 2320
-660.763 1135.88 2320
-654.368 1134.41 2317
-647.987 1132.94 2314
-641.621 1131.47 2311
-636.095 1131.47 2311
-630.568 1131.47 2311
-625.042 1131.47 2311
-618.443 1129.52 2307
-612.927 1129.52 2307
-607.41 1129.52 2307
-601.893 1129.52 2307
-597.411 1131.47 2311
-591.884 1131.47 2311
-586.358 1131.47 2311
-579.826 1129.52 2307
-574.31 1129.52 2307
-567.314 1126.58 2301
-561.811 1126.58 2301
-554.133 1122.17 2292
-548.652 1122.17 2292
-542.223 1120.21 2288
-536.752 1120.21 2288
-530.584 1118.74 2285
-525.12 1118.74 2285
-518.973 1117.28 2282
-513.517 1117.28 2282
-508.06 1117.28 2282
-501.942 1115.81 2279
-495.839 1114.34 2276
-490.396 1114.34 2276
-483.675 1111.4 2270
-478.247 1111.4 2270
-472.194 1109.93 2267
-466.772 1109.93 2267
-460.741 1108.46 2264
-455.327 1108.46 2264
-449.913 1108.46 2264
-444.499 1108.46 2264
-438.503 1106.99 2261
-432.33 1105.04 2257
-426.933 1105.04 2257
-421.536 1105.04 2257
-416.876 1106.99 2261
-411.47 1106.99 2261
-407.679 1111.4 2270
-403.314 1114.34 2276
-398.396 1115.81 2279
-392.946 1115.81 2279
-388.007 1117.28 2282
-383.053 1118.74 2285
-377.588 1118.74 2285
-372.124 1118.74 2285
-367.142 1120.21 2288
-361.67 1120.21 2288
-356.199 1120.21 2288
-350.728 1120.21 2288
-345.256 1120.21 2288
-339.785 1120.21 2288
-334.898 1122.17 2292
-329.417 1122.17 2292
-324.36 1123.64 2295
-319.289 1125.11 2298
-313.794 1125.11 2298
-308.299 1125.11 2298
-302.804 1125.11 2298
-297.308 1125.11 2298
-291.813 1125.11 2298
-285.944 1123.64 2295
-280.09 1122.17 2292
-273.77 1118.74 2285
-268.306 1118.74 2285
-262.152 1115.81 2279
-255.688 1111.4 2270
-250.26 1111.4 2270
-244.832 1111.4 2270
-239.403 1111.4 2270
-233.047 1106.99 2261
-227.641 1106.99 2261
-222.234 1106.99 2261
-216.827 1106.99 2261
-211.42 1106.99 2261
-204.829 1100.63 2248
-198.655 1096.22 2239
-193.301 1096.22 2239
-187.947 1096.22 2239
-182.348 1094.75 2236
-177.001 1094.75 2236
-171.654 1094.75 2236
-166.084 1093.29 2233
-160.96 1094.75 2236
-155.613 1094.75 2236
-150.266 1094.75 2236
-144.919 1094.75 2236
-139.572 1094.75 2236
-133.685 1090.35 2227
-128.36 1090.35 2227
-123.034 1090.35 2227
-117.709 1090.35 2227
-112.081 1087.41 2221
-106.77 1087.41 2221
15.5932 1102.1 2251
21.2649 1117.28 2282
26.7219 1117.28 2282
32.1788 1117.28 2282
37.2895 1106.99 2261
42.2241 1094.75 2236
47.571 1094.75 2236
52.776 1091.82 2230
57.9523 1088.88 2224
63.2705 1088.88 2224
68.5888 1088.88 2224
197.648 1067.83 2181
203.329 1070.27 2186
208.556 1070.27 2186
214.077 1071.74 2189
220.814 1079.09 2204
228.444 1090.35 2227
233.77 1090.35 2227
239.417 1091.82 2230
246.067 1097.69 2242
252.101 1100.63 2248
257.477 1100.63 2248
264.723 1108.46 2264
271.569 1114.34 2276
277.012 1114.34 2276
282.454 1114.34 2276
289.035 1118.74 2285
296.175 1125.11 2298
302.064 1126.58 2301
307.566 1126.58 2301
313.477 1128.05 2304
319.402 1129.52 2307
324.918 1129.52 2307
330.435 1129.52 2307
335.952 1129.52 2307
341.469 1129.52 2307
346.985 1129.52 2307
352.502 1129.52 2307
358.019 1129.52 2307
363.536 1129.52 2307
369.052 1129.52 2307
374.569 1129.52 2307
380.745 1131.47 2311
386.271 1131.47 2311
391.797 1131.47 2311
396.636 1129.52 2307
402.153 1129.52 2307
406.609 1126.58 2301
412.112 1126.58 2301
417.614 1126.58 2301
423.116 1126.58 2301
428.06 1125.11 2298
433.555 1125.11 2298
439.624 1126.58 2301
445.126 1126.58 2301
450.628 1126.58 2301
456.725 1128.05 2304
462.235 1128.05 2304
467.744 1128.05 2304
473.254 1128.05 2304
478.764 1128.05 2304
484.273 1128.05 2304
489.783 1128.05 2304
495.937 1129.52 2307
502.323 1131.47 2311
507.85 1131.47 2311
513.376 1131.47 2311
520.923 1135.88 2320
528.059 1139.31 2327
534.312 1140.78 2330
539.884 1140.78 2330
545.455 1140.78 2330
550.318 1139.31 2327
555.882 1139.31 2327
560.482 1137.35 2323
565.306 1135.88 2320
568.639 1131.47 2311
574.165 1131.47 2311
579.692 1131.47 2311
584.205 1129.52 2307
589.722 1129.52 2307
593.69 1126.58 2301
600.755 1129.52 2307
606.272 1129.52 2307
612.849 1131.47 2311
618.376 1131.47 2311
623.902 1131.47 2311
629.428 1131.47 2311
634.955 1131.47 2311
640.481 1131.47 2311
646.846 1132.94 2314
652.379 1132.94 2314
658.766 1134.41 2317
665.167 1135.88 2320
674.473 1142.25 2333
681.218 1144.2 2337
686.806 1144.2 2337
693.283 1145.67 2340
699.775 1147.14 2343
706.281 1148.61 2346
711.891 1148.61 2346
717.501 1148.61 2346
723.111 1148.61 2346
728.721 1148.61 2346
734.331 1148.61 2346
738.995 1147.14 2343
743.644 1145.67 2340
749.24 1145.67 2340
753.868 1144.2 2337
759.456 1144.2 2337
765.045 1144.2 2337
770.633 1144.2 2337
774.893 1142.25 2333
779.468 1140.78 2330
784.029 1139.31 2327
789.594 1139.31 2327
792.766 1135.88 2320
797.282 1134.41 2317
796.239 1125.11 2298
800.688 1123.64 2295
806.176 1123.64 2295
811.664 1123.64 2295
817.152 1123.64 2295
822.64 1123.64 2295
828.128 1123.64 2295
833.616 1123.64 2295
839.104 1123.64 2295
845.696 1125.11 2298
851.191 1125.11 2298
856.687 1125.11 2298
862.182 1125.11 2298
867.677 1125.11 2298
874.312 1126.58 2301
879.815 1126.58 2301
886.471 1128.05 2304
891.981 1128.05 2304
898.659 1129.52 2307
905.743 1131.47 2311
911.27 1131.47 2311
923.143 1139.31 2327
929.905 1140.78 2330
935.477 1140.78 2330
941.049 1140.78 2330
946.62 1140.78 2330
952.192 1140.78 2330
957.764 1140.78 2330
963.336 1140.78 2330
974.313 1147.14 2343
984.098 1152.04 2353
989.725 1152.04 2353
995.352 1152.04 2353
1002.25 1153.51 2356
1007.89 1153.51 2356
1015.24 1155.47 2360
1020.89 1155.47 2360
1027.84 1156.93 2363
1034.8 1158.4 2366
1040.46 1158.4 2366
1046.11 1158.4 2366
1051.77 1158.4 2366
1057.43 1158.4 2366
1063.09 1158.4 2366
1068.74 1158.4 2366
1071.68 1155.47 2360
1075.5 1153.51 2356
1079.75 1152.04 2353
1085.38 1152.04 2353
1091.01 1152.04 2353
1095.23 1150.57 2350
1098.98 1148.61 2346
1104.59 1148.61 2346
1107.36 1145.67 2340
1106.77 1139.31 2327
1098.48 1125.11 2298
1103.97 1125.11 2298
1094.5 1109.93 2267
1074.69 1084.47 2215
1070.24 1074.68 2195
1072.55 1071.74 2189
1077.78 1071.74 2189
1083.01 1071.74 2189
1088.25 1071.74 2189
1097.98 1076.15 2198
1104.74 1077.62 2201
1110 1077.62 2201
1119.83 1082.02 2210
1136.82 1093.29 2233
1145.23 1096.22 2239
1150.59 1096.22 2239
1155.94 1096.22 2239
1158.18 1093.29 2233
1163.52 1093.29 2233
1173.57 1097.69 2242
1178.93 1097.69 2242
1185.88 1099.16 2245
1196.02 1103.57 2254
1209.94 1111.4 2270
1215.37 1111.4 2270
1222.41 1112.87 2273
1227.85 1112.87 2273
1238.17 1117.28 2282
1243.62 1117.28 2282
1252.36 1120.21 2288
1260.03 1122.17 2292
1265.51 1122.17 2292
1271 1122.17 2292
1276.48 1122.17 2292
1281.96 1122.17 2292
1287.44 1122.17 2292
1290.66 1120.21 2288
1294.43 1118.74 2285
1298.19 1117.28 2282
1303.65 1117.28 2282
1303.94 1112.87 2273
1309.38 1112.87 2273
1316.55 1114.34 2276
1328.96 1120.21 2288
1342.02 1126.58 2301
1347.52 1126.58 2301
1354.78 1128.05 2304
1360.29 1128.05 2304
1369.95 1131.47 2311
1375.48 1131.47 2311
1381.01 1131.47 2311
1382.33 1128.05 2304
1387.84 1128.05 2304
1393.35 1128.05 2304
1398.86 1128.05 2304
1404.37 1128.05 2304
1409.88 1128.05 2304
1415.39 1128.05 2304
1417.2 1125.11 2298
1414.65 1118.74 2285
1420.11 1118.74 2285
1425.57 1118.74 2285
1431.04 1118.74 2285
1436.5 1118.74 2285
1438.18 1115.81 2279
1443.63 1115.81 2279
1449.08 1115.81 2279
1448.78 1111.4 2270
1454.21 1111.4 2270
1459.64 1111.4 2270
1459.26 1106.99 2261
1456.25 1100.63 2248
1459.67 1099.16 2245
1465.04 1099.16 2245
1468.44 1097.69 2242
1463.94 1090.35 2227
1479.17 1097.69 2242
1499.09 1108.46 2264
1504.51 1108.46 2264
1509.92 1108.46 2264
1515.34 1108.46 2264
1512.02 1102.1 2251
1524.14 1106.99 2261
1529.55 1106.99 2261
1534.96 1106.99 2261
1550.58 1114.34 2276
1566.96 1122.17 2292
1572.44 1122.17 2292
1584.12 1126.58 2301
1589.62 1126.58 2301
1595.13 1126.58 2301
1594.37 1122.17 2292
1597.06 1120.21 2288
1602.53 1120.21 2288
1608 1120.21 2288
1609.24 1117.28 2282
1608.33 1112.87 2273
1620.15 1117.28 2282
1629.88 1120.21 2288
1638.21 1122.17 2292
1643.69 1122.17 2292
1653.49 1125.11 2298
1663.32 1128.05 2304
1671 1129.52 2307
1676.52 1129.52 2307
1682.04 1129.52 2307
1683.16 1126.58 2301
1688.67 1126.58 2301
1689.75 1123.64 2295
1693.02 1122.17 2292
1682.2 1111.4 2270
1687.63 1111.4 2270
1688.58 1108.46 2264
1694 1108.46 2264
1699.41 1108.46 2264
1713.86 1114.34 2276
1723.83 1117.28 2282
1729.29 1117.28 2282
1734.75 1117.28 2282
1740.21 1117.28 2282
1745.66 1117.28 2282
-1628.48 1070.1 2175
-1623.27 1070.1 2175
-1618.07 1070.1 2175
-1589.88 1054.85 2144
-1584.76 1054.85 2144
-1601.68 1073.05 2181
-1602.32 1076.99 2189
-1597.08 1076.99 2189
-1591.85 1076.99 2189
-1582.99 1074.53 2184
-1596.55 1087.32 2210
-1591.26 1087.32 2210
-1589.57 1089.78 2215
-1595 1097.16 2230
-1598.22 1103.06 2242
-1592.86 1103.06 2242
-1603.08 1113.89 2264
-1597.66 1113.89 2264
-1592.25 1113.89 2264
-1586.83 1113.89 2264
-1587.71 1118.31 2273
-1592.71 1125.69 2288
-1587.24 1125.69 2288
-1581.77 1125.69 2288
-1568.03 1119.79 2276
-1554.35 1113.89 2264
-1548.94 1113.89 2264
-1538.75 1110.44 2257
-1509.62 1116.84 2270
-1504.19 1116.84 2270
-1498.76 1116.84 2270
-1491.36 1115.36 2267
-1477.42 1108.97 2254
-1476.6 1112.41 2261
-1471.19 1112.41 2261
-1465.78 1112.41 2261
-1460.38 1112.41 2261
-1454.97 1112.41 2261
-1441.23 1106.01 2248
-1435.85 1106.01 2248
-1434.3 1108.97 2254
-1428.91 1108.97 2254
-1423.52 1108.97 2254
-1414.35 1106.01 2248
-1408.97 1106.01 2248
-1403.6 1106.01 2248
-1392.63 1101.59 2239
-1377.98 1094.21 2224
-1362.17 1085.84 2207
-1356.89 1085.84 2207
-1335.69 1073.05 2181
-1326.81 1070.1 2175
-1317.97 1067.15 2169
-1312.78 1067.15 2169
-1307.59 1067.15 2169
-1301.2 1066.16 2167
-1296.02 1066.16 2167
-1290.84 1066.16 2167
-1285.66 1066.16 2167
-1280.48 1066.16 2167
-1275.3 1066.16 2167
-1270.11 1066.16 2167
-1264.93 1066.16 2167
-1259.75 1066.16 2167
-1254.57 1066.16 2167
-1249.39 1066.16 2167
-1242.48 1064.69 2164
-1237.31 1064.69 2164
-1232.13 1064.69 2164
-1228.66 1066.16 2167
-1223.48 1066.16 2167
-1218.29 1066.16 2167
-1215.91 1068.62 2172
-1210.72 1068.62 2172
-1208.85 1071.57 2178
-1203.64 1071.57 2178
-1198.44 1071.57 2178
-1193.23 1071.57 2178
-1188.02 1071.57 2178
-1182.81 1071.57 2178
-1177.6 1071.57 2178
-1183.16 1081.41 2198
-1181.12 1084.37 2204
-1175.85 1084.37 2204
-1172.17 1085.84 2207
-1168.48 1087.32 2210
-1164.78 1088.79 2213
-1159.48 1088.79 2213
-1164.62 1098.63 2233
-1160.84 1100.11 2236
-1155.49 1100.11 2236
-1156.32 1106.01 2248
-1160.67 1115.36 2267
-1162.89 1122.74 2282
-1157.44 1122.74 2282
-1158.54 1129.14 2295
-1153.05 1129.14 2295
-1147.57 1129.14 2295
-1142.08 1129.14 2295
-1128.67 1121.27 2279
-1117.3 1115.36 2267
-1108.94 1112.41 2261
-1103.53 1112.41 2261
-1098.13 1112.41 2261
-1092.72 1112.41 2261
-1090.2 1115.36 2267
-1087.65 1118.31 2273
-1082.21 1118.31 2273
-1076.78 1118.31 2273
-1071.34 1118.31 2273
-1065.91 1118.31 2273
-1057.67 1115.36 2267
-1052.25 1115.36 2267
-1048.21 1116.84 2270
-1042.79 1116.84 2270
-1037.36 1116.84 2270
-1033.29 1118.31 2273
-1027.86 1118.31 2273
-1022.42 1118.31 2273
-1015.64 1116.84 2270
-1010.22 1116.84 2270
-1003.46 1115.36 2267
-998.039 1115.36 2267
-992.618 1115.36 2267
-972.391 1098.63 2233
-965.752 1097.16 2230
-960.419 1097.16 2230
-955.086 1097.16 2230
-951.032 1098.63 2233
-945.692 1098.63 2233
-940.352 1098.63 2233
-935.012 1098.63 2233
-930.922 1100.11 2236
-928.058 1103.06 2242
-923.932 1104.54 2245
-918.563 1104.54 2245
-919.703 1112.41 2261
-915.509 1113.89 2264
-910.095 1113.89 2264
-904.681 1113.89 2264
-902.842 1118.31 2273
-897.407 1118.31 2273
-893.149 1119.79 2276
-887.706 1119.79 2276
-884.589 1122.74 2282
-882.985 1127.66 2292
-878.653 1129.14 2295
-873.165 1129.14 2295
-869.945 1132.09 2301
-865.57 1133.57 2304
-860.06 1133.57 2304
-854.55 1133.57 2304
-849.041 1133.57 2304
-842.433 1132.09 2301
-838.022 1133.57 2304
-833.596 1135.04 2307
-828.079 1135.04 2307
-822.563 1135.04 2307
-818.463 1137.01 2311
-812.936 1137.01 2311
-807.41 1137.01 2311
-800.496 1135.04 2307
-793.945 1133.57 2304
-789.462 1135.04 2307
-783.946 1135.04 2307
-778.429 1135.04 2307
-772.912 1135.04 2307
-767.395 1135.04 2307
-761.879 1135.04 2307
-756.362 1135.04 2307
-752.147 1137.01 2311
-746.621 1137.01 2311
-741.094 1137.01 2311
-736.523 1138.49 2314
-730.99 1138.49 2314
-725.456 1138.49 2314
-719.923 1138.49 2314
-714.389 1138.49 2314
-707.937 1137.01 2311
-702.41 1137.01 2311
-696.884 1137.01 2311
-691.358 1137.01 2311
-686.722 1138.49 2314
-682.071 1139.96 2317
-676.531 1139.96 2317
-671.859 1141.44 2320
-666.311 1141.44 2320
-660.763 1141.44 2320
-654.368 1139.96 2317
-647.987 1138.49 2314
-641.621 1137.01 2311
-636.095 1137.01 2311
-630.568 1137.01 2311
-625.042 1137.01 2311
-618.443 1135.04 2307
-612.927 1135.04 2307
-607.41 1135.04 2307
-601.893 1135.04 2307
-597.411 1137.01 2311
-591.884 1137.01 2311
-586.358 1137.01 2311
-579.826 1135.04 2307
-574.31 1135.04 2307
-567.314 1132.09 2301
-561.811 1132.09 2301
-554.133 1127.66 2292
-548.652 1127.66 2292
-542.223 1125.69 2288
-536.752 1125.69 2288
-530.584 1124.22 2285
-525.12 1124.22 2285
-518.973 1122.74 2282
-513.517 1122.74 2282
-508.06 1122.74 2282
-501.942 1121.27 2279
-495.839 1119.79 2276
-490.396 1119.79 2276
-483.675 1116.84 2270
-478.247 1116.84 2270
-472.194 1115.36 2267
-466.772 1115.36 2267
-460.741 1113.89 2264
-455.327 1113.89 2264
-449.913 1113.89 2264
-444.499 1113.89 2264
-438.503 1112.41 2261
-432.33 1110.44 2257
-426.933 1110.44 2257
-421.536 1110.44 2257
-416.876 1112.41 2261
-411.47 1112.41 2261
-407.679 1116.84 2270
-403.314 1119.79 2276
-398.396 1121.27 2279
-392.946 1121.27 2279
-388.007 1122.74 2282
-383.053 1124.22 2285
-377.588 1124.22 2285
-372.124 1124.22 2285
-367.142 1125.69 2288
-361.67 1125.69 2288
-356.199 1125.69 2288
-350.728 1125.69 2288
-345.256 1125.69 2288
-339.785 1125.69 2288
-334.898 1127.66 2292
-329.417 1127.66 2292
-324.36 1129.14 2295
-319.289 1130.61 2298
-313.794 1130.61 2298
-308.299 1130.61 2298
-302.804 1130.61 2298
-297.308 1130.61 2298
-291.813 1130.61 2298
-285.944 1129.14 2295
-280.09 1127.66 2292
-273.77 1124.22 2285
-268.306 1124.22 2285
-262.152 1121.27 2279
-255.688 1116.84 2270
-250.26 1116.84 2270
-244.832 1116.84 2270
-239.403 1116.84 2270
-233.047 1112.41 2261
-227.641 1112.41 2261
-222.234 1112.41 2261
-216.827 1112.41 2261
-211.42 1112.41 2261
-204.829 1106.01 2248
-198.655 1101.59 2239
-193.301 1101.59 2239
-187.947 1101.59 2239
-182.103 1098.63 2233
-175.814 1092.73 2221
-170.503 1092.73 2221
-164.968 1091.25 2218
-159.448 1089.78 2215
-154.36 1091.25 2218
-149.661 1095.68 2227
-144.336 1095.68 2227
-139.011 1095.68 2227
-132.965 1089.78 2215
-127.668 1089.78 2215
-122.371 1089.78 2215
-117.392 1092.73 2221
-112.081 1092.73 2221
-106.77 1092.73 2221
-100.408 1081.41 2198
-95.1517 1081.41 2198
-90.2637 1085.84 2207
-85.5252 1092.73 2221
-80.2141 1092.73 2221
-74.903 1092.73 2221
-69.5919 1092.73 2221
197.105 1070.1 2175
202.306 1070.1 2175
207.507 1070.1 2175
213.784 1075.51 2186
219.312 1076.99 2189
226.7 1087.32 2210
231.985 1087.32 2210
237.807 1089.78 2215
244.421 1095.68 2227
250.755 1100.11 2236
256.102 1100.11 2236
262.852 1106.01 2248
270.137 1113.89 2264
275.916 1115.36 2267
281.337 1115.36 2267
287.897 1119.79 2276
294.499 1124.22 2285
301.276 1129.14 2295
306.764 1129.14 2295
312.66 1130.61 2298
318.571 1132.09 2301
324.073 1132.09 2301
329.576 1132.09 2301
335.078 1132.09 2301
340.581 1132.09 2301
346.083 1132.09 2301
351.585 1132.09 2301
357.088 1132.09 2301
362.59 1132.09 2301
368.092 1132.09 2301
373.595 1132.09 2301
379.591 1133.57 2304
385.101 1133.57 2304
390.611 1133.57 2304
396.12 1133.57 2304
401.63 1133.57 2304
406.609 1132.09 2301
411.574 1130.61 2298
417.069 1130.61 2298
422.565 1130.61 2298
428.06 1130.61 2298
433.555 1130.61 2298
439.05 1130.61 2298
444.546 1130.61 2298
450.041 1130.61 2298
456.131 1132.09 2301
461.633 1132.09 2301
467.135 1132.09 2301
472.638 1132.09 2301
478.14 1132.09 2301
483.643 1132.09 2301
488.507 1130.61 2298
494.002 1130.61 2298
500.15 1132.09 2301
505.652 1132.09 2301
511.155 1132.09 2301
518.902 1137.01 2311
526.471 1141.44 2320
532.019 1141.44 2320
537.567 1141.44 2320
543.114 1141.44 2320
547.243 1138.49 2314
552.777 1138.49 2314
556.621 1135.04 2307
560.676 1132.09 2301
566.178 1132.09 2301
570.935 1130.61 2298
576.431 1130.61 2298
581.166 1129.14 2295
586.654 1129.14 2295
590.336 1125.69 2288
598.412 1130.61 2298
603.907 1130.61 2298
609.402 1130.61 2298
614.897 1130.61 2298
620.392 1130.61 2298
625.888 1130.61 2298
631.383 1130.61 2298
636.878 1130.61 2298
642.373 1130.61 2298
647.868 1130.61 2298
655.07 1133.57 2304
662.586 1137.01 2311
669.847 1139.96 2317
676.262 1141.44 2320
681.81 1141.44 2320
688.247 1142.91 2323
693.802 1142.91 2323
700.561 1144.88 2327
706.125 1144.88 2327
712.608 1146.36 2330
718.179 1146.36 2330
723.751 1146.36 2330
729.323 1146.36 2330
734.894 1146.36 2330
738.242 1142.91 2323
745.077 1144.88 2327
750.642 1144.88 2327
757.181 1146.36 2330
762.753 1146.36 2330
768.325 1146.36 2330
773.897 1146.36 2330
776.123 1141.44 2320
781.671 1141.44 2320
787.219 1141.44 2320
790.716 1138.49 2314
796.25 1138.49 2314
796.239 1130.61 2298
800.688 1129.14 2295
806.176 1129.14 2295
811.664 1129.14 2295
817.152 1129.14 2295
822.64 1129.14 2295
828.128 1129.14 2295
833.616 1129.14 2295
839.104 1129.14 2295
845.696 1130.61 2298
851.191 1130.61 2298
856.687 1130.61 2298
861.056 1129.14 2295
865.412 1127.66 2292
873.172 1130.61 2298
878.667 1130.61 2298
885.317 1132.09 2301
890.819 1132.09 2301
898.659 1135.04 2307
905.743 1137.01 2311
911.27 1137.01 2311
920.366 1141.44 2320
928.708 1144.88 2327
934.272 1144.88 2327
939.837 1144.88 2327
945.402 1144.88 2327
950.966 1144.88 2327
956.531 1144.88 2327
962.095 1144.88 2327
973.066 1151.28 2340
981.171 1154.23 2346
989.725 1157.67 2353
995.352 1157.67 2353
1000.98 1157.67 2353
1007.89 1159.15 2356
1013.52 1159.15 2356
1019.16 1159.15 2356
1024.79 1159.15 2356
1030.42 1159.15 2356
1037.82 1161.12 2360
1043.46 1161.12 2360
1049.1 1161.12 2360
1054.75 1161.12 2360
1060.39 1161.12 2360
1064.23 1159.15 2356
1067.14 1156.2 2350
1070.93 1154.23 2346
1076.54 1154.23 2346
1082.15 1154.23 2346
1087.76 1154.23 2346
1091.97 1152.75 2343
1096.17 1151.28 2340
1101.77 1151.28 2340
1101.21 1144.88 2327
1097.26 1135.04 2307
1092.26 1124.22 2285
1097.73 1124.22 2285
1086.78 1107.49 2251
1064.99 1079.94 2195
1065.85 1075.51 2186
1065.69 1070.1 2175
1073.84 1073.05 2181
1079.06 1073.05 2181
1088.25 1076.99 2189
1096.48 1079.94 2195
1103.24 1081.41 2198
1108.49 1081.41 2198
1118.31 1085.84 2207
1135.3 1097.16 2230
1142.16 1098.63 2233
1147.5 1098.63 2233
1152.84 1098.63 2233
1158.18 1098.63 2233
1163.52 1098.63 2233
1172 1101.59 2239
1177.36 1101.59 2239
1185.88 1104.54 2245
1196.02 1108.97 2254
1209.94 1116.84 2270
1215.37 1116.84 2270
1222.41 1118.31 2273
1227.85 1118.31 2273
1234.91 1119.79 2276
1240.35 1119.79 2276
1249.08 1122.74 2282
1256.19 1124.22 2285
1261.65 1124.22 2285
1267.11 1124.22 2285
1272.58 1124.22 2285
1278.04 1124.22 2285
1283.51 1124.22 2285
1288.97 1124.22 2285
1292.74 1122.74 2282
1293.07 1118.31 2273
1298.51 1118.31 2273
1302.22 1116.84 2270
1307.65 1116.84 2270
1314.81 1118.31 2273
1321.99 1119.79 2276
1334.43 1125.69 2288
1339.9 1125.69 2288
1353.02 1132.09 2301
1358.52 1132.09 2301
1365.8 1133.57 2304
1371.31 1133.57 2304
1376.82 1133.57 2304
1380.53 1132.09 2301
1386.03 1132.09 2301
1391.54 1132.09 2301
1397.04 1132.09 2301
1400.71 1130.61 2298
1406.21 1130.61 2298
1405.56 1125.69 2288
1403.63 1119.79 2276
1407.22 1118.31 2273
1407.06 1113.89 2264
1412.47 1113.89 2264
1417.89 1113.89 2264
1423.3 1113.89 2264
1426.82 1112.41 2261
1432.23 1112.41 2261
1437.63 1112.41 2261
1434.74 1106.01 2248
1440.12 1106.01 2248
1445.5 1106.01 2248
1447 1103.06 2242
1442.64 1095.68 2227
1446.02 1094.21 2224
1451.34 1094.21 2224
1449.45 1088.79 2213
1450.8 1085.84 2207
1460.03 1088.79 2213
1478.57 1098.63 2233
1489.89 1103.06 2242
1495.25 1103.06 2242
1506.64 1107.49 2251
1512.02 1107.49 2251
1524.14 1112.41 2261
1529.55 1112.41 2261
1534.96 1112.41 2261
1550.58 1119.79 2276
1566.96 1127.66 2292
1572.44 1127.66 2292
1584.12 1132.09 2301
1589.62 1132.09 2301
1595.13 1132.09 2301
1594.37 1127.66 2292
1597.06 1125.69 2288
1602.53 1125.69 2288
1608 1125.69 2288
1609.24 1122.74 2282
1608.33 1118.31 2273
1620.15 1122.74 2282
1629.88 1125.69 2288
1638.21 1127.66 2292
1643.69 1127.66 2292
1653.49 1130.61 2298
1663.32 1133.57 2304
1671 1135.04 2307
1676.52 1135.04 2307
1682.04 1135.04 2307
1683.16 1132.09 2301
1688.67 1132.09 2301
1689.75 1129.14 2295
1693.02 1127.66 2292
1682.2 1116.84 2270
1687.63 1116.84 2270
1688.58 1113.89 2264
1694 1113.89 2264
1699.41 1113.89 2264
1713.86 1119.79 2276
1723.83 1122.74 2282
1729.29 1122.74 2282
1734.75 1122.74 2282
1740.21 1122.74 2282
1745.66 1122.74 2282
-1620.24 1069.87 2164
-1615.07 1069.87 2164
-1599.48 1062.95 2150
-1598.04 1065.42 2155
-1592.89 1065.42 2155
-1628.26 1092.61 2210
-1622.97 1092.61 2210
-1617.69 1092.61 2210
-1612.4 1092.61 2210
-1591.85 1082.23 2189
-1582.99 1079.76 2184
-1592.21 1089.65 2204
-1593.42 1094.1 2213
-1588.13 1094.1 2213
-1586.42 1096.57 2218
-1598.22 1108.43 2242
-1592.86 1108.43 2242
-1587.5 1108.43 2242
-1595.54 1117.83 2261
-1590.14 1117.83 2261
-1584.73 1117.83 2261
-1587.71 1123.76 2273
-1588.54 1128.21 2282
-1583.08 1128.21 2282
-1577.62 1128.21 2282
-1568.03 1125.24 2276
-1554.35 1119.31 2264
-1548.94 1119.31 2264
-1538.75 1115.85 2257
-1517.05 1103.98 2233
-1519.05 1125.24 2276
-1513.61 1125.24 2276
-1508.16 1125.24 2276
-1502.72 1125.24 2276
-1491.36 1120.79 2267
-1477.42 1114.37 2254
-1476.6 1117.83 2261
-1471.19 1117.83 2261
-1465.78 1117.83 2261
-1460.38 1117.83 2261
-1454.97 1117.83 2261
-1441.23 1111.4 2248
-1435.85 1111.4 2248
-1430.48 1111.4 2248
-1425.1 1111.4 2248
-1419.73 1111.4 2248
-1412.46 1109.92 2245
-1407.09 1109.92 2245
-1401.73 1109.92 2245
-1388.89 1103.98 2233
-1367.44 1091.13 2207
-1351.06 1082.23 2189
-1345.82 1082.23 2189
-1332.01 1075.31 2175
-1323.15 1072.34 2169
-1313.1 1068.39 2161
-1307.94 1068.39 2161
-1302.77 1068.39 2161
-1295.8 1066.9 2158
-1290.64 1066.9 2158
-1285.48 1066.9 2158
-1280.32 1066.9 2158
-1275.16 1066.9 2158
-1270 1066.9 2158
-1264.84 1066.9 2158
-1259.68 1066.9 2158
-1252.77 1065.42 2155
-1244.73 1062.95 2150
-1239.58 1062.95 2150
-1234.44 1062.95 2150
-1229.3 1062.95 2150
-1224.16 1062.95 2150
-1221.85 1065.42 2155
-1216.7 1065.42 2155
-1211.55 1065.42 2155
-1208.07 1066.9 2158
-1206.26 1069.87 2164
-1201.08 1069.87 2164
-1195.91 1069.87 2164
-1192.38 1071.35 2167
-1187.2 1071.35 2167
-1184.75 1073.83 2172
-1179.55 1073.83 2172
-1174.36 1073.83 2172
-1174.01 1078.28 2181
-1174.69 1083.71 2192
-1169.45 1083.71 2192
-1167.39 1086.68 2198
-1165.31 1089.65 2204
-1164.78 1094.1 2213
-1159.48 1094.1 2213
-1164.62 1103.98 2233
-1160.84 1105.47 2236
-1158.59 1108.43 2242
-1156.32 1111.4 2248
-1160.67 1120.79 2267
-1162.89 1128.21 2282
-1157.44 1128.21 2282
-1158.54 1134.64 2295
-1153.05 1134.64 2295
-1147.57 1134.64 2295
-1142.08 1134.64 2295
-1128.67 1126.73 2279
-1118.78 1122.28 2270
-1108.94 1117.83 2261
-1103.53 1117.83 2261
-1098.13 1117.83 2261
-1092.72 1117.83 2261
-1087.31 1117.83 2261
-1084.78 1120.79 2267
-1079.35 1120.79 2267
-1073.93 1120.79 2267
-1065.68 1117.83 2261
-1060.28 1117.83 2261
-1054.87 1117.83 2261
-1046.22 1114.37 2254
-1042.21 1115.85 2257
-1036.81 1115.85 2257
-1031.42 1115.85 2257
-1026.02 1115.85 2257
-1020.62 1115.85 2257
-1015.22 1115.85 2257
-1004.46 1109.92 2245
-996.42 1106.95 2239
-985.754 1101.02 2227
-980.429 1101.02 2227
-975.103 1101.02 2227
-962.375 1092.61 2210
-950.594 1085.2 2195
-945.345 1085.2 2195
-940.096 1085.2 2195
-934.847 1085.2 2195
-929.599 1085.2 2195
-924.35 1085.2 2195
-917.845 1083.71 2192
-915.101 1086.68 2198
-912.328 1089.65 2204
-911.585 1095.08 2215
-906.288 1095.08 2215
-909.534 1105.47 2236
-909.039 1111.4 2248
-903.664 1111.4 2248
-898.288 1111.4 2248
-895.296 1114.37 2254
-889.906 1114.37 2254
-890.794 1122.28 2270
-885.366 1122.28 2270
-882.264 1125.24 2276
-877.977 1126.73 2279
-875.973 1131.18 2288
-870.501 1131.18 2288
-865.03 1131.18 2288
-859.559 1131.18 2288
-854.087 1131.18 2288
-848.616 1131.18 2288
-843.145 1131.18 2288
-840.236 1134.64 2295
-835.839 1136.12 2298
-830.344 1136.12 2298
-824.849 1136.12 2298
-820.423 1137.6 2301
-814.921 1137.6 2301
-809.419 1137.6 2301
-803.916 1137.6 2301
-798.414 1137.6 2301
-791.878 1136.12 2298
-786.383 1136.12 2298
-777.489 1131.18 2288
-772.018 1131.18 2288
-766.547 1131.18 2288
-762.406 1133.15 2292
-756.925 1133.15 2292
-752.428 1134.64 2295
-747.916 1136.12 2298
-742.421 1136.12 2298
-736.926 1136.12 2298
-731.43 1136.12 2298
-725.935 1136.12 2298
-720.44 1136.12 2298
-714.945 1136.12 2298
-709.45 1136.12 2298
-703.035 1134.64 2295
-697.547 1134.64 2295
-692.059 1134.64 2295
-686.571 1134.64 2295
-683.754 1139.09 2304
-679.128 1140.57 2307
-673.611 1140.57 2307
-669.253 1142.55 2311
-663.726 1142.55 2311
-658.2 1142.55 2311
-652.674 1142.55 2311
-647.147 1142.55 2311
-640.51 1140.57 2307
-634.994 1140.57 2307
-629.477 1140.57 2307
-623.96 1140.57 2307
-618.443 1140.57 2307
-612.927 1140.57 2307
-607.41 1140.57 2307
-601.893 1140.57 2307
-597.411 1142.55 2311
-591.884 1142.55 2311
-586.358 1142.55 2311
-579.826 1140.57 2307
-572.816 1137.6 2301
-565.834 1134.64 2295
-560.346 1134.64 2295
-554.133 1133.15 2292
-546.258 1128.21 2282
-540.801 1128.21 2282
-535.344 1128.21 2282
-529.191 1126.73 2279
-523.741 1126.73 2279
-518.291 1126.73 2279
-512.841 1126.73 2279
-507.392 1126.73 2279
-499.96 1122.28 2270
-494.531 1122.28 2270
-489.103 1122.28 2270
-483.036 1120.79 2267
-476.983 1119.31 2264
-470.944 1117.83 2261
-465.537 1117.83 2261
-460.13 1117.83 2261
-454.724 1117.83 2261
-449.317 1117.83 2261
-443.91 1117.83 2261
-437.728 1115.85 2257
-431.181 1112.88 2251
-425.798 1112.88 2251
-420.415 1112.88 2251
-416.876 1117.83 2261
-411.47 1117.83 2261
-406.063 1117.83 2261
-402.251 1122.28 2270
-397.347 1123.76 2273
-391.912 1123.76 2273
-386.986 1125.24 2276
-381.544 1125.24 2276
-377.093 1128.21 2282
-371.636 1128.21 2282
-366.66 1129.69 2285
-361.196 1129.69 2285
-355.732 1129.69 2285
-350.268 1129.69 2285
-344.804 1129.69 2285
-339.34 1129.69 2285
-333.875 1129.69 2285
-328.411 1129.69 2285
-323.371 1131.18 2288
-318.456 1133.15 2292
-313.384 1134.64 2295
-307.896 1134.64 2295
-302.408 1134.64 2295
-296.532 1133.15 2292
-291.051 1133.15 2292
-284.698 1129.69 2285
-278.501 1126.73 2279
-271.973 1122.28 2270
-266.545 1122.28 2270
-261.116 1122.28 2270
-255.688 1122.28 2270
-249.268 1117.83 2261
-243.861 1117.83 2261
-238.454 1117.83 2261
-232.326 1114.37 2254
-226.936 1114.37 2254
-221.251 1112.88 2251
-215.868 1112.88 2251
-210.205 1111.4 2248
-204.009 1106.95 2239
-198.655 1106.95 2239
-193.301 1106.95 2239
-187.695 1105.47 2236
-182.103 1103.98 2233
-175.814 1098.05 2221
-170.503 1098.05 2221
-164.968 1096.57 2218
-159.448 1095.08 2215
-154.36 1096.57 2218
-149.661 1101.02 2227
-144.336 1101.02 2227
-139.011 1101.02 2227
-132.965 1095.08 2215
-127.668 1095.08 2215
-122.371 1095.08 2215
-117.392 1098.05 2221
-112.081 1098.05 2221
-106.77 1098.05 2221
-100.408 1086.68 2198
-95.1517 1086.68 2198
-90.2637 1091.13 2207
-85.5252 1098.05 2221
-80.2141 1098.05 2221
-74.903 1098.05 2221
-69.5919 1098.05 2221
126.038 1046.63 2117
131.1 1046.63 2117
136.162 1046.63 2117
141.225 1046.63 2117
189.963 1064.43 2153
197.105 1075.31 2175
202.306 1075.31 2175
207.507 1075.31 2175
213.784 1080.75 2186
219.312 1082.23 2189
226.7 1092.61 2210
231.985 1092.61 2210
237.807 1095.08 2215
244.421 1101.02 2227
250.755 1105.47 2236
256.102 1105.47 2236
262.852 1111.4 2248
270.137 1119.31 2264
275.916 1120.79 2267
281.337 1120.79 2267
287.897 1125.24 2276
294.499 1129.69 2285
301.276 1134.64 2295
306.764 1134.64 2295
312.66 1136.12 2298
318.571 1137.6 2301
324.073 1137.6 2301
329.576 1137.6 2301
335.078 1137.6 2301
340.581 1137.6 2301
346.083 1137.6 2301
351.585 1137.6 2301
357.088 1137.6 2301
361.645 1134.64 2295
367.613 1136.12 2298
373.108 1136.12 2298
379.097 1137.6 2301
385.101 1139.09 2304
390.611 1139.09 2304
396.12 1139.09 2304
400.584 1136.12 2298
406.079 1136.12 2298
411.574 1136.12 2298
417.069 1136.12 2298
422.565 1136.12 2298
425.638 1129.69 2285
431.102 1129.69 2285
438.477 1134.64 2295
443.965 1134.64 2295
449.453 1134.64 2295
454.941 1134.64 2295
460.429 1134.64 2295
465.917 1134.64 2295
471.405 1134.64 2295
476.893 1134.64 2295
482.381 1134.64 2295
487.232 1133.15 2292
492.713 1133.15 2292
498.194 1133.15 2292
504.334 1134.64 2295
509.822 1134.64 2295
515.31 1134.64 2295
521.479 1136.12 2298
526.974 1136.12 2298
532.469 1136.12 2298
537.964 1136.12 2298
543.459 1136.12 2298
548.238 1134.64 2295
553.726 1134.64 2295
557.508 1131.18 2288
562.98 1131.18 2288
567.706 1129.69 2285
573.17 1129.69 2285
577.874 1128.21 2282
583.331 1128.21 2282
590.336 1131.18 2288
595.807 1131.18 2288
601.279 1131.18 2288
606.75 1131.18 2288
612.221 1131.18 2288
617.693 1131.18 2288
623.164 1131.18 2288
628.635 1131.18 2288
636.047 1134.64 2295
641.535 1134.64 2295
647.023 1134.64 2295
652.511 1134.64 2295
657.999 1134.64 2295
666.956 1140.57 2307
672.473 1140.57 2307
677.99 1140.57 2307
684.691 1142.55 2311
690.218 1142.55 2311
695.744 1142.55 2311
701.27 1142.55 2311
708.632 1145.51 2317
714.172 1145.51 2317
719.713 1145.51 2317
725.254 1145.51 2317
729.848 1144.03 2314
734.428 1142.55 2311
741.875 1145.51 2317
747.416 1145.51 2317
753.932 1147 2320
759.479 1147 2320
765.027 1147 2320
770.575 1147 2320
774.116 1144.03 2314
779.649 1144.03 2314
785.183 1144.03 2314
787.299 1139.09 2304
790.744 1136.12 2298
795.2 1134.64 2295
800.688 1134.64 2295
806.176 1134.64 2295
810.603 1133.15 2292
816.084 1133.15 2292
821.565 1133.15 2292
827.046 1133.15 2292
832.526 1133.15 2292
838.007 1133.15 2292
844.592 1134.64 2295
850.08 1134.64 2295
855.568 1134.64 2295
859.931 1133.15 2292
862.769 1129.69 2285
868.233 1129.69 2285
873.697 1129.69 2285
884.163 1136.12 2298
890.819 1137.6 2301
896.322 1137.6 2301
901.824 1137.6 2301
907.327 1137.6 2301
916.796 1142.55 2311
922.322 1142.55 2311
