ply
format ascii 1.0
comment File generated
element vertex 2145
property float x
property float y
property float z
end_header
-46.149 -658.252 2120
-41.0794 -658.252 2120
-36.0099 -658.252 2120
-30.9403 -658.252 2120
-25.8341 -657.32 2117
-20.7717 -657.32 2117
-15.7093 -657.32 2117
-10.647 -657.32 2117
-5.58457 -657.32 2117
-0.521442 -656.389 2114
4.52948 -655.768 2112
9.57992 -655.768 2112
14.6303 -655.768 2112
19.6994 -656.389 2114
24.8483 -658.873 2122
30.0496 -661.667 2131
35.1454 -661.667 2131
40.2791 -662.288 2133
45.3797 -662.288 2133
50.4804 -662.288 2133
55.5289 -661.667 2131
60.6817 -662.288 2133
65.8748 -663.22 2136
71.0824 -664.151 2139
76.1973 -664.151 2139
81.4264 -665.083 2142
86.6294 -665.704 2144
92.0131 -667.567 2150
97.1544 -667.567 2150
102.438 -668.498 2153
107.987 -670.982 2161
113.311 -671.914 2164
118.486 -671.914 2164
123.661 -671.914 2164
128.836 -671.914 2164
134.196 -672.845 2167
139.378 -672.845 2167
144.56 -672.845 2167
149.88 -673.466 2169
155.282 -674.398 2172
160.697 -675.329 2175
165.898 -675.329 2175
171.807 -678.124 2184
177.192 -678.745 2186
184.172 -685.265 2207
189.449 -685.265 2207
195.962 -689.612 2221
201.273 -689.612 2221
208.817 -697.064 2245
214.185 -697.064 2245
220.141 -698.927 2251
226.525 -702.032 2261
231.932 -702.032 2261
237.339 -702.032 2261
242.316 -700.79 2257
247.713 -700.79 2257
253.11 -700.79 2257
255.415 -692.406 2230
718.23 -1111.58 3580
729.836 -1116.23 3595
738.432 -1116.23 3595
752.016 -1123.69 3619
765.505 -1130.83 3642
774.214 -1130.83 3642
782.923 -1130.83 3642
791.632 -1130.83 3642
800.341 -1130.83 3642
814.604 -1138.59 3667
823.373 -1138.59 3667
832.142 -1138.59 3667
840.911 -1138.59 3667
849.68 -1138.59 3667
1392.2 -1174.61 3783
1410.87 -1182.68 3809
1419.98 -1182.68 3809
1429.09 -1182.68 3809
1438.2 -1182.68 3809
1443.89 -1179.89 3800
1452.97 -1179.89 3800
1455.52 -1174.61 3783
1447.92 -1161.26 3740
1450.63 -1156.29 3724
1459.54 -1156.29 3724
1468.44 -1156.29 3724
1487.26 -1164.05 3749
1503.01 -1169.33 3766
1512.02 -1169.33 3766
1524.26 -1171.81 3774
1533.28 -1171.81 3774
1542.31 -1171.81 3774
1551.33 -1171.81 3774
1560.36 -1171.81 3774
1569.38 -1171.81 3774
1578.41 -1171.81 3774
1584.07 -1169.33 3766
1593.07 -1169.33 3766
1594.84 -1164.05 3749
-2893.54 -1217.92 3953
-2905.24 -1226.86 3982
-2895.72 -1226.86 3982
-2886.2 -1226.86 3982
-2876.68 -1226.86 3982
-2867.16 -1226.86 3982
-2857.63 -1226.86 3982
-2827.37 -1217.92 3953
-2817.92 -1217.92 3953
-2808.46 -1217.92 3953
-2779.18 -1209.29 3925
-2744.39 -1198.2 3889
-2728.76 -1195.43 3880
-2719.49 -1195.43 3880
-2691.35 -1187.11 3853
-2663.34 -1178.79 3826
-2648.64 -1176.33 3818
-2639.51 -1176.33 3818
-2630.38 -1176.33 3818
-2615.07 -1173.56 3809
-2605.96 -1173.56 3809
-2596.85 -1173.56 3809
-2587.75 -1173.56 3809
-2561.04 -1165.54 3783
-2551.99 -1165.54 3783
-2548.99 -1168.32 3792
-2539.93 -1168.32 3792
-2530.86 -1168.32 3792
-2550.39 -1181.57 3835
-2541.22 -1181.57 3835
-2532.04 -1181.57 3835
-2522.87 -1181.57 3835
-1361.31 -1176.33 3818
-1358.2 -1181.57 3835
-1349.03 -1181.57 3835
-1339.86 -1181.57 3835
-1324.79 -1176.33 3818
-1312.56 -1173.56 3809
-1297.63 -1168.32 3792
-1288.57 -1168.32 3792
-1279.5 -1168.32 3792
-1264.4 -1162.77 3774
-1255.38 -1162.77 3774
-1246.35 -1162.77 3774
-1237.33 -1162.77 3774
-1225.7 -1160.31 3766
-1216.69 -1160.31 3766
-1207.69 -1160.31 3766
-1198.68 -1160.31 3766
-1189.67 -1160.31 3766
-1175.34 -1155.07 3749
-1166.37 -1155.07 3749
-1149.69 -1147.37 3724
-1138.34 -1144.9 3716
-1124.28 -1139.66 3699
-1115.44 -1139.66 3699
-182.077 -649.784 2109
-177.286 -650.708 2112
-172.236 -650.708 2112
-168.214 -654.714 2125
-163.133 -654.714 2125
-158.051 -654.714 2125
-152.97 -654.714 2125
-147.888 -654.714 2125
-142.807 -654.714 2125
-137.725 -654.714 2125
-132.644 -654.714 2125
-127.562 -654.714 2125
-122.481 -654.714 2125
-117.399 -654.714 2125
-112.318 -654.714 2125
-107.085 -653.789 2122
-102.01 -653.789 2122
-96.936 -653.789 2122
-91.6452 -652.249 2117
-86.5828 -652.249 2117
-81.4049 -651.325 2114
-76.3497 -651.325 2114
-71.227 -650.708 2112
-66.1766 -650.708 2112
-61.2708 -652.249 2117
-56.2881 -653.173 2120
-51.2185 -653.173 2120
-46.149 -653.173 2120
-41.0794 -653.173 2120
-36.0099 -653.173 2120
-30.9403 -653.173 2120
-25.8341 -652.249 2117
-20.7717 -652.249 2117
-15.7093 -652.249 2117
-10.647 -652.249 2117
-5.58457 -652.249 2117
-0.521442 -651.325 2114
4.52948 -650.708 2112
9.57992 -650.708 2112
14.6303 -650.708 2112
19.6994 -651.325 2114
24.8483 -653.789 2122
30.0496 -656.562 2131
35.1454 -656.562 2131
40.2791 -657.179 2133
45.3797 -657.179 2133
50.4804 -657.179 2133
55.5289 -656.562 2131
60.6817 -657.179 2133
65.8748 -658.103 2136
71.0824 -659.027 2139
76.1973 -659.027 2139
81.4264 -659.952 2142
86.6294 -660.568 2144
92.0131 -662.416 2150
97.1544 -662.416 2150
102.438 -663.341 2153
107.987 -665.805 2161
113.311 -666.73 2164
118.486 -666.73 2164
123.661 -666.73 2164
128.836 -666.73 2164
134.196 -667.654 2167
139.378 -667.654 2167
144.56 -667.654 2167
149.88 -668.27 2169
155.496 -670.119 2175
160.697 -670.119 2175
165.898 -670.119 2175
171.807 -672.892 2184
177.192 -673.508 2186
184.172 -679.978 2207
189.449 -679.978 2207
195.962 -684.291 2221
201.273 -684.291 2221
208.817 -691.686 2245
214.185 -691.686 2245
220.141 -693.534 2251
226.525 -696.615 2261
231.932 -696.615 2261
237.339 -696.615 2261
242.316 -695.383 2257
247.713 -695.383 2257
253.11 -695.383 2257
255.415 -687.064 2230
721.239 -1107.62 3595
731.46 -1110.09 3603
740.076 -1110.09 3603
752.016 -1115.02 3619
765.505 -1122.1 3642
775.914 -1124.57 3650
784.643 -1124.57 3650
797.066 -1129.8 3667
805.835 -1129.8 3667
814.604 -1129.8 3667
823.373 -1129.8 3667
832.142 -1129.8 3667
837.012 -1124.57 3650
845.741 -1124.57 3650
1392.2 -1165.54 3783
1410.87 -1173.56 3809
1419.98 -1173.56 3809
1429.09 -1173.56 3809
1438.2 -1173.56 3809
1443.89 -1170.78 3800
1452.97 -1170.78 3800
1455.52 -1165.54 3783
1447.92 -1152.3 3740
1450.63 -1147.37 3724
1459.54 -1147.37 3724
1468.44 -1147.37 3724
1487.26 -1155.07 3749
1503.01 -1160.31 3766
1512.02 -1160.31 3766
1524.26 -1162.77 3774
1533.28 -1162.77 3774
1542.31 -1162.77 3774
1551.33 -1162.77 3774
1560.36 -1162.77 3774
1569.38 -1162.77 3774
1575.06 -1160.31 3766
1576.91 -1155.07 3749
1585.88 -1155.07 3749
1594.84 -1155.07 3749
-2893.54 -1208.45 3953
-2905.24 -1217.32 3982
-2895.72 -1217.32 3982
-2886.2 -1217.32 3982
-2876.68 -1217.32 3982
-2867.16 -1217.32 3982
-2857.63 -1217.32 3982
-2827.37 -1208.45 3953
-2817.92 -1208.45 3953
-2808.46 -1208.45 3953
-2779.18 -1199.89 3925
-2744.39 -1188.89 3889
-2728.76 -1186.14 3880
-2719.49 -1186.14 3880
-2691.35 -1177.88 3853
-2663.34 -1169.63 3826
-2648.64 -1167.18 3818
-2639.51 -1167.18 3818
-2630.38 -1167.18 3818
-2621.25 -1167.18 3818
-2605.96 -1164.43 3809
-2596.85 -1164.43 3809
-2587.75 -1164.43 3809
-2567.13 -1159.23 3792
-2558.06 -1159.23 3792
-2566.47 -1167.18 3818
-2557.34 -1167.18 3818
-2559.56 -1172.38 3835
-2580.31 -1186.14 3880
-2571.03 -1186.14 3880
-2561.76 -1186.14 3880
-2522.87 -1172.38 3835
-2513.7 -1172.38 3835
-2504.53 -1172.38 3835
-1361.31 -1167.18 3818
-1358.2 -1172.38 3835
-1349.03 -1172.38 3835
-1339.86 -1172.38 3835
-1324.79 -1167.18 3818
-1312.56 -1164.43 3809
-1297.63 -1159.23 3792
-1288.57 -1159.23 3792
-1279.5 -1159.23 3792
-1264.4 -1153.73 3774
-1255.38 -1153.73 3774
-1246.35 -1153.73 3774
-1237.33 -1153.73 3774
-1225.7 -1151.29 3766
-1216.69 -1151.29 3766
-1207.69 -1151.29 3766
-1198.68 -1151.29 3766
-1189.67 -1151.29 3766
-1175.34 -1146.09 3749
-1166.37 -1146.09 3749
-1149.69 -1138.45 3724
-1138.34 -1136 3716
-1124.28 -1130.8 3699
-1115.44 -1130.8 3699
-182.077 -644.732 2109
-177.286 -645.649 2112
-172.236 -645.649 2112
-168.214 -649.623 2125
-163.133 -649.623 2125
-158.051 -649.623 2125
-152.97 -649.623 2125
-147.888 -649.623 2125
-142.807 -649.623 2125
-137.725 -649.623 2125
-132.644 -649.623 2125
-127.562 -649.623 2125
-122.192 -648.095 2120
-117.123 -648.095 2120
-112.053 -648.095 2120
-106.984 -648.095 2120
-101.77 -647.178 2117
-96.7076 -647.178 2117
-91.6452 -647.178 2117
-86.4601 -646.261 2114
-81.4049 -646.261 2114
-76.3497 -646.261 2114
-71.227 -645.649 2112
-66.1766 -645.649 2112
-61.184 -646.261 2114
-56.2085 -647.178 2117
-51.1461 -647.178 2117
-46.0837 -647.178 2117
-40.9632 -646.261 2114
-35.9079 -646.261 2114
-30.8527 -646.261 2114
-25.7975 -646.261 2114
-20.7423 -646.261 2114
-15.6871 -646.261 2114
-10.6319 -646.261 2114
-5.57666 -646.261 2114
-0.521442 -646.261 2114
4.52948 -645.649 2112
9.57992 -645.649 2112
14.6096 -644.732 2109
19.6528 -644.732 2109
24.8249 -648.095 2120
30.0496 -651.458 2131
35.1454 -651.458 2131
40.2791 -652.069 2133
45.3797 -652.069 2133
50.4804 -652.069 2133
55.5289 -651.458 2131
60.6817 -652.069 2133
65.8748 -652.986 2136
71.0824 -653.903 2139
76.1973 -653.903 2139
81.4264 -654.82 2142
86.6294 -655.432 2144
92.0131 -657.266 2150
97.1544 -657.266 2150
102.438 -658.183 2153
107.987 -660.629 2161
113.311 -661.546 2164
118.486 -661.546 2164
123.661 -661.546 2164
128.836 -661.546 2164
134.196 -662.463 2167
139.378 -662.463 2167
144.56 -662.463 2167
149.88 -663.074 2169
155.496 -664.909 2175
160.697 -664.909 2175
165.898 -664.909 2175
171.807 -667.66 2184
177.192 -668.271 2186
183.921 -673.774 2204
189.192 -673.774 2204
195.962 -678.971 2221
201.273 -678.971 2221
207.701 -682.639 2233
213.04 -682.639 2233
218.674 -683.557 2236
224.021 -683.557 2236
229.367 -683.557 2236
234.714 -683.557 2236
240.061 -683.557 2236
244.75 -681.722 2230
250.082 -681.722 2230
255.415 -681.722 2230
721.239 -1099.01 3595
731.46 -1101.46 3603
740.076 -1101.46 3603
752.016 -1106.35 3619
765.505 -1113.38 3642
775.914 -1115.82 3650
784.643 -1115.82 3650
797.066 -1121.02 3667
805.835 -1121.02 3667
814.604 -1121.02 3667
823.373 -1121.02 3667
832.142 -1121.02 3667
837.012 -1115.82 3650
845.741 -1115.82 3650
1392.2 -1156.48 3783
1433.84 -1183.38 3871
1443.1 -1183.38 3871
1452.35 -1183.38 3871
1451.41 -1175.13 3844
1447.31 -1164.43 3809
1456.42 -1164.43 3809
1455.52 -1156.48 3783
1447.92 -1143.34 3740
1453.75 -1140.89 3732
1462.67 -1140.89 3732
1471.6 -1140.89 3732
1487.26 -1146.09 3749
1499.42 -1148.53 3757
1512.02 -1151.29 3766
1524.26 -1153.73 3774
1533.28 -1153.73 3774
1542.31 -1153.73 3774
1551.33 -1153.73 3774
1560.36 -1153.73 3774
1569.38 -1153.73 3774
1571.3 -1148.53 3757
1576.91 -1146.09 3749
1585.88 -1146.09 3749
1587.61 -1140.89 3732
-2893.54 -1198.98 3953
-2884.09 -1198.98 3953
-2874.63 -1198.98 3953
-2865.18 -1198.98 3953
-2849.23 -1196.25 3944
-2839.79 -1196.25 3944
-2816.73 -1190.49 3925
-2807.34 -1190.49 3925
-2797.96 -1190.49 3925
-2788.57 -1190.49 3925
-2779.18 -1190.49 3925
-2744.39 -1179.57 3889
-2716.1 -1171.38 3862
-2706.87 -1171.38 3862
-2666.9 -1158.04 3818
-2657.77 -1158.04 3818
-2648.64 -1158.04 3818
-2639.51 -1158.04 3818
-2630.38 -1158.04 3818
-2621.25 -1158.04 3818
-2594.33 -1150.15 3792
-2585.26 -1150.15 3792
-2576.2 -1150.15 3792
-2567.13 -1150.15 3792
-2558.06 -1150.15 3792
-2566.47 -1158.04 3818
-2557.34 -1158.04 3818
-2559.56 -1163.19 3835
-2580.31 -1176.84 3880
-2571.03 -1176.84 3880
-2561.76 -1176.84 3880
-2522.87 -1163.19 3835
-2513.7 -1163.19 3835
-2504.53 -1163.19 3835
-1361.31 -1158.04 3818
-1358.2 -1163.19 3835
-1349.03 -1163.19 3835
-1339.86 -1163.19 3835
-1327.57 -1160.46 3826
-1315.66 -1158.04 3818
-1297.63 -1150.15 3792
-1288.57 -1150.15 3792
-1279.5 -1150.15 3792
-1270.43 -1150.15 3792
-1267.02 -1155.31 3809
-1257.91 -1155.31 3809
-1248.8 -1155.31 3809
-1234.16 -1150.15 3792
-1225.09 -1150.15 3792
-1218.59 -1152.58 3800
-1209.5 -1152.58 3800
-1200.41 -1152.58 3800
-1183.18 -1144.69 3774
-1174.15 -1144.69 3774
-1157.41 -1137.11 3749
-1140.79 -1129.52 3724
-1129.45 -1127.1 3716
-1120.56 -1127.1 3716
-197.488 -640.59 2112
-192.437 -640.59 2112
-187.387 -640.59 2112
-182.077 -639.68 2109
-177.286 -640.59 2112
-172.236 -640.59 2112
-167.581 -642.106 2117
-162.749 -643.016 2120
-157.679 -643.016 2120
-152.61 -643.016 2120
-147.54 -643.016 2120
-142.471 -643.016 2120
-137.401 -643.016 2120
-132.332 -643.016 2120
-127.262 -643.016 2120
-122.02 -642.106 2117
-116.957 -642.106 2117
-111.895 -642.106 2117
-106.832 -642.106 2117
-101.77 -642.106 2117
-96.7076 -642.106 2117
-91.5153 -641.196 2114
-86.3783 -640.59 2112
-81.3279 -640.59 2112
-76.2774 -640.59 2112
-71.227 -640.59 2112
-66.1766 -640.59 2112
-61.1261 -640.59 2112
-56.1288 -641.196 2114
-51.0736 -641.196 2114
-46.0184 -641.196 2114
-40.9632 -641.196 2114
-35.9079 -641.196 2114
-30.8527 -641.196 2114
-25.7975 -641.196 2114
-20.7423 -641.196 2114
-15.6871 -641.196 2114
-10.6319 -641.196 2114
-5.57666 -641.196 2114
-0.521442 -641.196 2114
4.53377 -641.196 2114
9.58899 -641.196 2114
14.6096 -639.68 2109
19.6249 -638.77 2106
24.7898 -642.106 2117
30.0496 -646.353 2131
35.1454 -646.353 2131
40.2413 -646.353 2131
45.3372 -646.353 2131
50.433 -646.353 2131
55.5289 -646.353 2131
60.6817 -646.959 2133
65.7823 -646.959 2133
71.0824 -648.779 2139
76.1973 -648.779 2139
81.4264 -649.689 2142
86.6294 -650.296 2144
92.0131 -652.116 2150
97.1544 -652.116 2150
102.438 -653.026 2153
107.837 -654.542 2158
113.154 -655.452 2161
118.322 -655.452 2161
123.661 -656.362 2164
128.836 -656.362 2164
134.196 -657.272 2167
139.378 -657.272 2167
144.56 -657.272 2167
149.88 -657.878 2169
155.496 -659.698 2175
160.697 -659.698 2175
165.898 -659.698 2175
171.571 -661.518 2181
177.03 -662.428 2184
183.921 -668.494 2204
189.192 -668.494 2204
194.727 -669.404 2207
201.273 -673.651 2221
206.584 -673.651 2221
211.896 -673.651 2221
218.38 -677.29 2233
223.72 -677.29 2233
229.06 -677.29 2233
234.4 -677.29 2233
239.417 -676.38 2230
244.75 -676.38 2230
250.082 -676.38 2230
255.415 -676.38 2230
722.844 -1092.82 3603
734.708 -1097.68 3619
743.362 -1097.68 3619
756.796 -1104.65 3642
767.186 -1107.08 3650
779.528 -1112.24 3667
788.297 -1112.24 3667
797.066 -1112.24 3667
805.835 -1112.24 3667
814.604 -1112.24 3667
823.373 -1112.24 3667
832.142 -1112.24 3667
837.012 -1107.08 3650
845.741 -1107.08 3650
1392.2 -1147.42 3783
1433.84 -1174.11 3871
1443.1 -1174.11 3871
1452.35 -1174.11 3871
1451.41 -1165.92 3844
1447.31 -1155.31 3809
1456.42 -1155.31 3809
1455.52 -1147.42 3783
1447.92 -1134.38 3740
1453.75 -1131.95 3732
1462.67 -1131.95 3732
1471.6 -1131.95 3732
1480.52 -1131.95 3732
1499.42 -1139.53 3757
1508.41 -1139.53 3757
1517.39 -1139.53 3757
1526.37 -1139.53 3757
1535.36 -1139.53 3757
1544.34 -1139.53 3757
1553.33 -1139.53 3757
1562.31 -1139.53 3757
1567.95 -1137.11 3749
1573.13 -1134.38 3740
1582.07 -1134.38 3740
1587.61 -1131.95 3732
-2893.54 -1189.51 3953
-2897.95 -1195.23 3972
-2888.45 -1195.23 3972
-2878.95 -1195.23 3972
-2849.23 -1186.81 3944
-2839.79 -1186.81 3944
-2830.36 -1186.81 3944
-2820.93 -1186.81 3944
-2811.5 -1186.81 3944
-2802.07 -1186.81 3944
-2779.18 -1181.09 3925
-2750.74 -1172.96 3898
-2722.43 -1164.84 3871
-2713.18 -1164.84 3871
-2672.49 -1151.3 3826
-2657.77 -1148.89 3818
-2648.64 -1148.89 3818
-2639.51 -1148.89 3818
-2630.38 -1148.89 3818
-2621.25 -1148.89 3818
-2594.33 -1141.07 3792
-2585.26 -1141.07 3792
-2576.2 -1141.07 3792
-2567.13 -1141.07 3792
-2563.46 -1143.47 3800
-2571.85 -1151.3 3826
-2562.7 -1151.3 3826
-2589.59 -1167.55 3880
-2586.3 -1170.25 3889
-2577 -1170.25 3889
-2567.7 -1170.25 3889
-2558.4 -1170.25 3889
-2543.2 -1167.55 3880
-2533.92 -1167.55 3880
-1364.16 -1151.3 3826
-1361.39 -1156.71 3844
-1352.2 -1156.71 3844
-1343 -1156.71 3844
-1333.81 -1156.71 3844
-1318.42 -1151.3 3826
-1300.37 -1143.47 3800
-1291.28 -1143.47 3800
-1279.5 -1141.07 3792
-1281.82 -1151.3 3826
-1272.67 -1151.3 3826
-1263.52 -1151.3 3826
-1254.37 -1151.3 3826
-1239.69 -1146.18 3809
-1233.49 -1148.89 3818
-1224.36 -1148.89 3818
-1215.23 -1148.89 3818
-1206.1 -1148.89 3818
-1191.33 -1143.47 3800
-1182.24 -1143.47 3800
-1165.13 -1135.65 3774
-1153.65 -1133.24 3766
-1144.65 -1133.24 3766
-1135.64 -1133.24 3766
-1126.63 -1133.24 3766
-197.488 -635.531 2112
-192.437 -635.531 2112
-187.387 -635.531 2112
-182.337 -635.531 2112
-177.286 -635.531 2112
-172.236 -635.531 2112
-167.581 -637.035 2117
-162.749 -637.938 2120
-157.679 -637.938 2120
-152.61 -637.938 2120
-147.54 -637.938 2120
-142.471 -637.938 2120
-137.401 -637.938 2120
-132.144 -637.035 2117
-127.082 -637.035 2117
-121.847 -636.132 2114
-116.791 -636.132 2114
-111.736 -636.132 2114
-106.681 -636.132 2114
-101.626 -636.132 2114
-96.5705 -636.132 2114
-91.5153 -636.132 2114
-86.3783 -635.531 2112
-81.3279 -635.531 2112
-76.2774 -635.531 2112
-71.227 -635.531 2112
-66.1766 -635.531 2112
-61.1261 -635.531 2112
-56.1288 -636.132 2114
-51.0736 -636.132 2114
-46.0184 -636.132 2114
-40.9632 -636.132 2114
-35.9079 -636.132 2114
-30.8527 -636.132 2114
-25.7731 -635.531 2112
-20.7227 -635.531 2112
-15.6871 -636.132 2114
-10.6319 -636.132 2114
-5.57666 -636.132 2114
-0.521442 -636.132 2114
4.53377 -636.132 2114
9.58899 -636.132 2114
14.6096 -634.628 2109
19.6528 -634.628 2109
24.7546 -636.132 2114
30.0073 -640.345 2128
35.096 -640.345 2128
40.2413 -641.248 2131
45.3372 -641.248 2131
50.433 -641.248 2131
55.5289 -641.248 2131
60.6248 -641.248 2131
65.7823 -641.85 2133
71.0824 -643.655 2139
76.1973 -643.655 2139
81.4264 -644.558 2142
86.6294 -645.16 2144
92.0131 -646.965 2150
97.1544 -646.965 2150
102.296 -646.965 2150
107.837 -649.373 2158
113.154 -650.275 2161
118.322 -650.275 2161
123.661 -651.178 2164
128.836 -651.178 2164
134.01 -651.178 2164
139.378 -652.081 2167
144.56 -652.081 2167
149.88 -652.683 2169
155.496 -654.488 2175
160.697 -654.488 2175
165.898 -654.488 2175
171.571 -656.294 2181
177.192 -657.798 2186
183.671 -662.312 2201
188.934 -662.312 2201
194.462 -663.215 2204
200.73 -666.525 2215
206.584 -668.33 2221
211.896 -668.33 2221
217.207 -668.33 2221
223.419 -671.038 2230
228.752 -671.038 2230
234.085 -671.038 2230
239.417 -671.038 2230
244.75 -671.038 2230
250.082 -671.038 2230
255.071 -670.136 2227
722.844 -1084.19 3603
734.708 -1089.01 3619
743.362 -1089.01 3619
756.796 -1095.93 3642
767.186 -1098.34 3650
779.528 -1103.45 3667
788.297 -1103.45 3667
797.066 -1103.45 3667
805.835 -1103.45 3667
814.604 -1103.45 3667
823.373 -1103.45 3667
832.142 -1103.45 3667
837.012 -1098.34 3650
845.741 -1098.34 3650
850.957 -1093.82 3635
1392.2 -1138.36 3783
1433.84 -1164.84 3871
1443.1 -1164.84 3871
1452.35 -1164.84 3871
1454.81 -1159.42 3853
1447.31 -1146.18 3809
1456.42 -1146.18 3809
1455.52 -1138.36 3783
1447.92 -1125.42 3740
1453.75 -1123.01 3732
1462.67 -1123.01 3732
1471.6 -1123.01 3732
1480.52 -1123.01 3732
1499.42 -1130.53 3757
1508.41 -1130.53 3757
1517.39 -1130.53 3757
1526.37 -1130.53 3757
1535.36 -1130.53 3757
1544.34 -1130.53 3757
1553.33 -1130.53 3757
1562.31 -1130.53 3757
1567.95 -1128.13 3749
1573.13 -1125.42 3740
1582.07 -1125.42 3740
1587.61 -1123.01 3732
-2966.15 -1205.72 4039
-2956.49 -1205.72 4039
-2946.83 -1205.72 4039
-2916.08 -1197.06 4010
-2906.49 -1197.06 4010
-2869.45 -1185.72 3972
-2859.95 -1185.72 3972
-2830.36 -1177.36 3944
-2834.52 -1183.03 3963
-2825.04 -1183.03 3963
-2815.57 -1183.03 3963
-2806.09 -1183.03 3963
-2763.45 -1169 3916
-2728.76 -1158.25 3880
-2719.49 -1158.25 3880
-2672.49 -1142.13 3826
-2657.77 -1139.74 3818
-2648.64 -1139.74 3818
-2639.51 -1139.74 3818
-2630.38 -1139.74 3818
-2615.07 -1137.06 3809
-2594.33 -1131.98 3792
-2585.26 -1131.98 3792
-2576.2 -1131.98 3792
-2567.13 -1131.98 3792
-2563.46 -1134.37 3800
-2571.85 -1142.13 3826
-2562.7 -1142.13 3826
-2589.59 -1158.25 3880
-2586.3 -1160.94 3889
-2577 -1160.94 3889
-2567.7 -1160.94 3889
-2558.4 -1160.94 3889
-2543.2 -1158.25 3880
-2533.92 -1158.25 3880
-1364.16 -1142.13 3826
-1367.76 -1152.88 3862
-1358.53 -1152.88 3862
-1349.29 -1152.88 3862
-1340.06 -1152.88 3862
-1324.62 -1147.51 3844
-1315.43 -1147.51 3844
-1297.4 -1139.74 3818
-1288.27 -1139.74 3818
-1281.82 -1142.13 3826
-1275.67 -1144.82 3835
-1266.5 -1144.82 3835
-1257.32 -1144.82 3835
-1248.15 -1144.82 3835
-1238.98 -1144.82 3835
-1229.81 -1144.82 3835
-1220.64 -1144.82 3835
-1211.47 -1144.82 3835
-1194.15 -1137.06 3809
-1185.04 -1137.06 3809
-1173.15 -1134.37 3800
-1158.86 -1129.3 3783
-1157.72 -1137.06 3809
-1148.61 -1137.06 3809
-1139.5 -1137.06 3809
-197.488 -630.471 2112
-192.437 -630.471 2112
-187.387 -630.471 2112
-182.337 -630.471 2112
-177.286 -630.471 2112
-172.236 -630.471 2112
-167.581 -631.964 2117
-162.749 -632.859 2120
-157.679 -632.859 2120
-152.61 -632.859 2120
-147.54 -632.859 2120
-142.471 -632.859 2120
-137.401 -632.859 2120
-132.144 -631.964 2117
-127.082 -631.964 2117
-121.847 -631.068 2114
-116.791 -631.068 2114
-111.736 -631.068 2114
-106.681 -631.068 2114
-101.626 -631.068 2114
-96.5705 -631.068 2114
-91.5153 -631.068 2114
-86.3783 -630.471 2112
-81.3279 -630.471 2112
-76.2774 -630.471 2112
-71.227 -630.471 2112
-66.1766 -630.471 2112
-61.1261 -630.471 2112
-56.1288 -631.068 2114
-51.0736 -631.068 2114
-46.0184 -631.068 2114
-40.9632 -631.068 2114
-35.9079 -631.068 2114
-30.8527 -631.068 2114
-25.7731 -630.471 2112
-20.7227 -630.471 2112
-15.6871 -631.068 2114
-10.6319 -631.068 2114
-5.57666 -631.068 2114
-0.521442 -631.068 2114
4.53377 -631.068 2114
9.58899 -631.068 2114
14.6303 -630.471 2112
19.6528 -629.576 2109
24.7546 -631.068 2114
30.0073 -635.248 2128
35.096 -635.248 2128
40.2413 -636.143 2131
45.3372 -636.143 2131
50.433 -636.143 2131
55.5289 -636.143 2131
60.6248 -636.143 2131
65.8748 -637.636 2136
71.0824 -638.531 2139
76.1973 -638.531 2139
81.4264 -639.427 2142
86.6294 -640.024 2144
92.0131 -641.815 2150
97.1544 -641.815 2150
102.296 -641.815 2150
107.987 -645.099 2161
113.311 -645.994 2164
118.486 -645.994 2164
123.661 -645.994 2164
128.836 -645.994 2164
134.196 -646.89 2167
139.507 -647.487 2169
144.694 -647.487 2169
150.088 -648.382 2172
155.496 -649.278 2175
160.919 -650.173 2178
166.127 -650.173 2178
171.807 -651.965 2184
177.192 -652.562 2186
183.671 -657.039 2201
188.934 -657.039 2201
194.462 -657.935 2204
200.73 -661.219 2215
206.584 -663.01 2221
211.896 -663.01 2221
217.207 -663.01 2221
223.419 -665.696 2230
228.752 -665.696 2230
234.085 -665.696 2230
239.417 -665.696 2230
244.75 -665.696 2230
250.082 -665.696 2230
255.071 -664.801 2227
701.36 -1169 3916
710.724 -1169 3916
720.089 -1169 3916
722.844 -1075.56 3603
734.708 -1080.34 3619
743.362 -1080.34 3619
756.796 -1087.2 3642
767.186 -1089.59 3650
779.528 -1094.67 3667
788.297 -1094.67 3667
797.066 -1094.67 3667
805.835 -1094.67 3667
814.604 -1094.67 3667
823.373 -1094.67 3667
832.142 -1094.67 3667
837.012 -1089.59 3650
845.741 -1089.59 3650
850.957 -1085.11 3635
1433.84 -1155.57 3871
1443.1 -1155.57 3871
1452.35 -1155.57 3871
1454.81 -1150.19 3853
1447.31 -1137.06 3809
1456.42 -1137.06 3809
1455.52 -1129.3 3783
1447.92 -1116.46 3740
1450.63 -1111.68 3724
1459.54 -1111.68 3724
1465.29 -1109.3 3716
1480.52 -1114.07 3732
1489.44 -1114.07 3732
1505.19 -1119.15 3749
1514.16 -1119.15 3749
1523.12 -1119.15 3749
1532.09 -1119.15 3749
1537.35 -1116.46 3740
1546.3 -1116.46 3740
1555.24 -1116.46 3740
1560.84 -1114.07 3732
1566.4 -1111.68 3724
1575.3 -1111.68 3724
1584.21 -1111.68 3724
-2966.15 -1196.04 4039
-2956.49 -1196.04 4039
-2946.83 -1196.04 4039
-2937.17 -1196.04 4039
-2927.51 -1196.04 4039
-2896.91 -1187.45 4010
-2887.32 -1187.45 4010
-2836.82 -1170.57 3953
-2840.96 -1176.2 3972
-2831.46 -1176.2 3972
-2821.96 -1176.2 3972
-2812.46 -1176.2 3972
-2763.45 -1159.62 3916
-2728.76 -1148.96 3880
-2719.49 -1148.96 3880
-2672.49 -1132.97 3826
-2657.77 -1130.6 3818
-2648.64 -1130.6 3818
-2639.51 -1130.6 3818
-2630.38 -1130.6 3818
-2615.07 -1127.93 3809
-2594.33 -1122.9 3792
-2585.26 -1122.9 3792
-2576.2 -1122.9 3792
-2567.13 -1122.9 3792
-2563.46 -1125.27 3800
-2571.85 -1132.97 3826
-2562.7 -1132.97 3826
-2589.59 -1148.96 3880
-2586.3 -1151.62 3889
-2582.96 -1154.29 3898
-2573.64 -1154.29 3898
-2564.32 -1154.29 3898
-2543.2 -1148.96 3880
-2533.92 -1148.96 3880
-1380.21 -1146.29 3871
-1374.14 -1148.96 3880
-1364.86 -1148.96 3880
-1355.58 -1148.96 3880
-1346.3 -1148.96 3880
-1324.62 -1138.3 3844
-1315.43 -1138.3 3844
-1297.4 -1130.6 3818
-1288.27 -1130.6 3818
-1290.87 -1140.96 3853
-1284.65 -1143.63 3862
-1275.41 -1143.63 3862
-1266.18 -1143.63 3862
-1254.01 -1140.96 3853
-1244.8 -1140.96 3853
-1235.58 -1140.96 3853
-1226.37 -1140.96 3853
-1217.16 -1140.96 3853
-1199.48 -1132.97 3826
-1190.33 -1132.97 3826
-1173.15 -1125.27 3800
-1166.82 -1127.93 3809
-1157.72 -1127.93 3809
-1148.61 -1127.93 3809
-1139.5 -1127.93 3809
-197.488 -625.412 2112
-192.437 -625.412 2112
-187.387 -625.412 2112
-182.337 -625.412 2112
-177.286 -625.412 2112
-172.236 -625.412 2112
-167.581 -626.893 2117
-162.749 -627.781 2120
-157.679 -627.781 2120
-152.61 -627.781 2120
-147.331 -626.893 2117
-142.269 -626.893 2117
-137.207 -626.893 2117
-131.957 -626.004 2114
-126.782 -625.412 2112
-121.731 -625.412 2112
-116.681 -625.412 2112
-111.63 -625.412 2112
-106.58 -625.412 2112
-101.53 -625.412 2112
-96.4792 -625.412 2112
-91.4287 -625.412 2112
-86.3783 -625.412 2112
-81.3279 -625.412 2112
-76.2774 -625.412 2112
-71.227 -625.412 2112
-66.1766 -625.412 2112
-61.1261 -625.412 2112
-56.1288 -626.004 2114
-51.0736 -626.004 2114
-46.0184 -626.004 2114
-40.9632 -626.004 2114
-35.9079 -626.004 2114
-30.8527 -626.004 2114
-25.7731 -625.412 2112
-20.7227 -625.412 2112
-15.6871 -626.004 2114
-10.6319 -626.004 2114
-5.57666 -626.004 2114
-0.521442 -626.004 2114
4.53377 -626.004 2114
9.58899 -626.004 2114
14.6303 -625.412 2112
19.6528 -624.524 2109
24.7546 -626.004 2114
29.965 -629.262 2125
35.0465 -629.262 2125
40.1846 -630.15 2128
45.2733 -630.15 2128
50.362 -630.15 2128
55.4507 -630.15 2128
60.6248 -631.038 2131
65.8748 -632.519 2136
71.0824 -633.407 2139
76.1973 -633.407 2139
81.4264 -634.296 2142
86.6294 -634.888 2144
92.0131 -636.665 2150
97.1544 -636.665 2150
102.296 -636.665 2150
107.987 -639.922 2161
113.311 -640.81 2164
118.486 -640.81 2164
123.661 -640.81 2164
128.836 -640.81 2164
134.196 -641.699 2167
139.507 -642.291 2169
144.694 -642.291 2169
150.088 -643.179 2172
155.496 -644.068 2175
160.919 -644.956 2178
166.127 -644.956 2178
171.807 -646.733 2184
177.192 -647.325 2186
183.421 -650.878 2198
188.677 -650.878 2198
194.462 -652.655 2204
200.73 -655.913 2215
206.305 -656.801 2218
211.609 -656.801 2218
217.207 -657.689 2221
223.119 -659.466 2227
228.444 -659.466 2227
233.77 -659.466 2227
238.451 -657.689 2221
243.104 -655.913 2215
248.4 -655.913 2215
253.697 -655.913 2215
701.36 -1159.62 3916
710.724 -1159.62 3916
720.089 -1159.62 3916
722.844 -1066.93 3603
734.708 -1071.67 3619
743.362 -1071.67 3619
756.796 -1078.48 3642
767.186 -1080.85 3650
779.528 -1085.88 3667
788.297 -1085.88 3667
797.066 -1085.88 3667
805.835 -1085.88 3667
814.604 -1085.88 3667
821.352 -1083.22 3658
828.284 -1080.85 3650
833.573 -1076.41 3635
842.265 -1076.41 3635
850.957 -1076.41 3635
1433.84 -1146.29 3871
1443.1 -1146.29 3871
1452.35 -1146.29 3871
1454.81 -1140.96 3853
1447.31 -1127.93 3809
1456.42 -1127.93 3809
1448.98 -1115.2 3766
1447.92 -1107.5 3740
1450.63 -1102.76 3724
1459.54 -1102.76 3724
1465.29 -1100.39 3716
1477.35 -1102.76 3724
1486.25 -1102.76 3724
1495.16 -1102.76 3724
1504.06 -1102.76 3724
1512.97 -1102.76 3724
1518.6 -1100.39 3716
1527.49 -1100.39 3716
1536.38 -1100.39 3716
1545.26 -1100.39 3716
1550.38 -1097.73 3707
1555.88 -1095.36 3699
1564.73 -1095.36 3699
1563.36 -1088.25 3675
1572.15 -1088.25 3675
-2966.15 -1186.37 4039
-2956.49 -1186.37 4039
-2946.83 -1186.37 4039
-2937.17 -1186.37 4039
-2927.51 -1186.37 4039
-2896.91 -1177.85 4010
-2887.32 -1177.85 4010
-2836.82 -1161.1 3953
-2840.96 -1166.69 3972
-2831.46 -1166.69 3972
-2821.96 -1166.69 3972
-2812.46 -1166.69 3972
-2763.45 -1150.24 3916
-2728.76 -1139.66 3880
-2719.49 -1139.66 3880
-2672.49 -1123.8 3826
-2657.77 -1121.45 3818
-2648.64 -1121.45 3818
-2639.51 -1121.45 3818
-2624.18 -1118.81 3809
-2603.4 -1113.81 3792
-2582.02 -1108.53 3774
-2572.99 -1108.53 3774
-2563.97 -1108.53 3774
-2561.04 -1111.17 3783
-2558.06 -1113.81 3792
-2566.47 -1121.45 3818
-2557.34 -1121.45 3818
-2589.59 -1139.66 3880
-2586.3 -1142.31 3889
-2582.96 -1144.95 3898
-2573.64 -1144.95 3898
-2564.32 -1144.95 3898
-2525.5 -1131.73 3853
-2516.29 -1131.73 3853
-1380.21 -1137.02 3871
-1374.14 -1139.66 3880
-1364.86 -1139.66 3880
-1355.58 -1139.66 3880
-1346.3 -1139.66 3880
-1324.62 -1129.09 3844
-1315.43 -1129.09 3844
-1297.4 -1121.45 3818
-1288.27 -1121.45 3818
-1290.87 -1131.73 3853
-1284.65 -1134.38 3862
-1275.41 -1134.38 3862
-1266.18 -1134.38 3862
-1254.01 -1131.73 3853
-1244.8 -1131.73 3853
-1235.58 -1131.73 3853
-1226.37 -1131.73 3853
-1217.16 -1131.73 3853
-1199.48 -1123.8 3826
-1190.33 -1123.8 3826
-1173.15 -1116.16 3800
-1166.82 -1118.81 3809
-1157.72 -1118.81 3809
-1148.61 -1118.81 3809
-1139.5 -1118.81 3809
-201.004 -615.653 2096
-197.488 -620.353 2112
-192.437 -620.353 2112
-187.387 -620.353 2112
-182.337 -620.353 2112
-177.286 -620.353 2112
-172.236 -620.353 2112
-167.581 -621.821 2117
-162.749 -622.702 2120
-157.679 -622.702 2120
-152.61 -622.702 2120
-147.331 -621.821 2117
-142.067 -620.94 2114
-137.012 -620.94 2114
-131.832 -620.353 2112
-126.782 -620.353 2112
-121.731 -620.353 2112
-116.681 -620.353 2112
-111.63 -620.353 2112
-106.58 -620.353 2112
-101.53 -620.353 2112
-96.4792 -620.353 2112
-91.2989 -619.471 2109
-86.3783 -620.353 2112
-81.3279 -620.353 2112
-76.2774 -620.353 2112
-71.1258 -619.471 2109
-66.0826 -619.471 2109
-61.1261 -620.353 2112
-56.1288 -620.94 2114
-51.0736 -620.94 2114
-46.0184 -620.94 2114
-40.9632 -620.94 2114
-35.9079 -620.94 2114
-30.8527 -620.94 2114
-25.7731 -620.353 2112
-20.7227 -620.353 2112
-15.6871 -620.94 2114
-10.6319 -620.94 2114
-5.57666 -620.94 2114
-0.521442 -620.94 2114
4.53377 -620.94 2114
9.58899 -620.94 2114
14.6303 -620.353 2112
19.6528 -619.471 2109
24.7312 -620.353 2112
29.965 -624.171 2125
35.0465 -624.171 2125
40.128 -624.171 2125
45.2095 -624.171 2125
50.362 -625.052 2128
55.4507 -625.052 2128
60.6248 -625.933 2131
65.8748 -627.402 2136
71.0824 -628.283 2139
76.1973 -628.283 2139
81.4264 -629.164 2142
86.6294 -629.752 2144
92.0131 -631.514 2150
97.1544 -631.514 2150
102.296 -631.514 2150
107.987 -634.745 2161
113.311 -635.626 2164
118.486 -635.626 2164
123.661 -635.626 2164
128.836 -635.626 2164
134.196 -636.508 2167
139.507 -637.095 2169
144.694 -637.095 2169
150.088 -637.976 2172
155.496 -638.857 2175
160.919 -639.739 2178
166.127 -639.739 2178
171.807 -641.501 2184
177.192 -642.088 2186
183.421 -645.613 2198
188.677 -645.613 2198
194.462 -647.376 2204
200.73 -650.607 2215
206.305 -651.488 2218
211.609 -651.488 2218
217.207 -652.369 2221
222.518 -652.369 2221
227.829 -652.369 2221
233.14 -652.369 2221
237.807 -650.607 2215
243.104 -650.607 2215
248.737 -651.488 2218
254.041 -651.488 2218
259.345 -651.488 2218
693.586 -1152.88 3925
702.972 -1152.88 3925
712.358 -1152.88 3925
721.743 -1152.88 3925
756.796 -1069.76 3642
770.759 -1077.1 3667
782.93 -1081.8 3683
791.737 -1081.8 3683
800.544 -1081.8 3683
809.351 -1081.8 3683
818.158 -1081.8 3683
826.965 -1081.8 3683
830.099 -1074.46 3658
833.573 -1067.7 3635
842.265 -1067.7 3635
847.212 -1063 3619
853.974 -1060.65 3611
1427.17 -1131.73 3853
1436.39 -1131.73 3853
1445.6 -1131.73 3853
1451.41 -1129.09 3844
1440.85 -1113.81 3792
1449.92 -1113.81 3792
1452.06 -1108.53 3774
1451.4 -1101.18 3749
1453.75 -1096.19 3732
1462.67 -1096.19 3732
1468.44 -1093.84 3724
1480.52 -1096.19 3732
1489.44 -1096.19 3732
1498.37 -1096.19 3732
1507.29 -1096.19 3732
1516.22 -1096.19 3732
1521.87 -1093.84 3724
1527.49 -1091.49 3716
1536.38 -1091.49 3716
1541.52 -1088.85 3707
1547.04 -1086.5 3699
1555.88 -1086.5 3699
1564.73 -1086.5 3699
1563.36 -1079.45 3675
1572.15 -1079.45 3675
-2966.15 -1176.69 4039
-2956.49 -1176.69 4039
-2946.83 -1176.69 4039
-2937.17 -1176.69 4039
-2927.51 -1176.69 4039
-2896.91 -1168.24 4010
-2887.32 -1168.24 4010
-2836.82 -1151.64 3953
-2840.96 -1157.17 3972
-2831.46 -1157.17 3972
-2821.96 -1157.17 3972
-2812.46 -1157.17 3972
-2769.8 -1143.48 3925
-2741.42 -1135.61 3898
-2732.1 -1135.61 3898
-2691.35 -1122.5 3853
-2669.6 -1117.26 3835
-2660.43 -1117.26 3835
-2651.26 -1117.26 3835
-2635.89 -1114.64 3826
-2603.4 -1104.73 3792
-2588.17 -1102.11 3783
-2579.13 -1102.11 3783
-2570.08 -1102.11 3783
-2567.13 -1104.73 3792
-2558.06 -1104.73 3792
-2560.42 -1109.68 3809
-2551.31 -1109.68 3809
-2589.59 -1130.37 3880
-2580.31 -1130.37 3880
-2588.93 -1138.23 3907
-2579.58 -1138.23 3907
-2570.24 -1138.23 3907
-1382.46 -1114.64 3826
-1373.31 -1114.64 3826
-1380.21 -1127.75 3871
-1374.14 -1130.37 3880
-1364.86 -1130.37 3880
-1355.58 -1130.37 3880
-1346.3 -1130.37 3880
-1324.62 -1119.88 3844
-1315.43 -1119.88 3844
-1297.4 -1112.31 3818
-1288.27 -1112.31 3818
-1296.9 -1127.75 3871
-1293.63 -1132.99 3889
-1284.33 -1132.99 3889
-1275.03 -1132.99 3889
-1265.73 -1132.99 3889
-1247.71 -1125.12 3862
-1238.47 -1125.12 3862
-1229.24 -1125.12 3862
-1217.16 -1122.5 3853
-1199.48 -1114.64 3826
-1190.33 -1114.64 3826
-1173.15 -1107.06 3800
-1166.82 -1109.68 3809
-1157.72 -1109.68 3809
-1148.61 -1109.68 3809
-1139.5 -1109.68 3809
-201.004 -610.632 2096
-197.207 -614.419 2109
-192.164 -614.419 2109
-187.121 -614.419 2109
-182.337 -615.293 2112
-177.286 -615.293 2112
-172.236 -615.293 2112
-167.344 -615.876 2114
-162.288 -615.876 2114
-157.233 -615.876 2114
-152.178 -615.876 2114
-146.983 -615.293 2112
-141.731 -614.419 2109
-136.688 -614.419 2109
-131.645 -614.419 2109
-126.602 -614.419 2109
-121.558 -614.419 2109
-116.515 -614.419 2109
-111.472 -614.419 2109
-106.429 -614.419 2109
-101.385 -614.419 2109
-96.3421 -614.419 2109
-91.2989 -614.419 2109
-86.2556 -614.419 2109
-81.2123 -614.419 2109
-76.1691 -614.419 2109
-71.1258 -614.419 2109
-66.0826 -614.419 2109
-61.1261 -615.293 2112
-56.0757 -615.293 2112
-51.0253 -615.293 2112
-45.9748 -615.293 2112
-40.9632 -615.876 2114
-35.9079 -615.876 2114
-30.8527 -615.876 2114
-25.7731 -615.293 2112
-20.7227 -615.293 2112
-15.6871 -615.876 2114
-10.6319 -615.876 2114
-5.57666 -615.876 2114
-0.521442 -615.876 2114
4.53377 -615.876 2114
9.58899 -615.876 2114
14.6303 -615.293 2112
19.6528 -614.419 2109
24.6961 -614.419 2109
29.965 -619.081 2125
35.0465 -619.081 2125
40.128 -619.081 2125
45.2095 -619.081 2125
50.362 -619.955 2128
55.4507 -619.955 2128
60.6248 -620.829 2131
65.8748 -622.285 2136
71.0824 -623.159 2139
76.1973 -623.159 2139
81.3123 -623.159 2139
86.6294 -624.616 2144
92.0131 -626.364 2150
97.1544 -626.364 2150
102.296 -626.364 2150
107.837 -628.695 2158
113.154 -629.569 2161
118.322 -629.569 2161
123.661 -630.443 2164
128.836 -630.443 2164
134.196 -631.317 2167
139.507 -631.899 2169
144.694 -631.899 2169
150.088 -632.773 2172
155.282 -632.773 2172
160.919 -634.521 2178
166.127 -634.521 2178
171.807 -636.269 2184
177.192 -636.852 2186
183.421 -640.348 2198
188.677 -640.348 2198
194.462 -642.096 2204
200.73 -645.3 2215
206.305 -646.174 2218
211.609 -646.174 2218
217.207 -647.048 2221
222.518 -647.048 2221
227.829 -647.048 2221
233.14 -647.048 2221
238.451 -647.048 2221
243.433 -646.174 2218
248.737 -646.174 2218
254.041 -646.174 2218
260.748 -649.67 2230
266.796 -651.418 2236
272.143 -651.418 2236
277.49 -651.418 2236
660.722 -1151.64 3953
679.839 -1168.24 4010
689.428 -1168.24 4010
699.017 -1168.24 4010
698.534 -1151.64 3953
707.987 -1151.64 3953
717.439 -1151.64 3953
725.237 -1149.01 3944
731.129 -1143.48 3925
772.441 -1070.65 3675
784.63 -1075.31 3691
793.457 -1075.31 3691
802.283 -1075.31 3691
811.109 -1075.31 3691
819.935 -1075.31 3691
828.762 -1075.31 3691
835.773 -1072.98 3683
837.012 -1063.36 3650
845.741 -1063.36 3650
849.084 -1056.66 3627
855.866 -1054.33 3619
864.52 -1054.33 3619
1427.17 -1122.5 3853
1436.39 -1122.5 3853
1445.6 -1122.5 3853
1451.41 -1119.88 3844
1443.89 -1107.06 3800
1452.97 -1107.06 3800
1458.98 -1104.73 3792
1457.99 -1097.16 3766
1460.37 -1092.2 3749
1469.33 -1092.2 3749
1478.3 -1092.2 3749
1487.26 -1092.2 3749
1496.23 -1092.2 3749
1508.41 -1094.53 3757
1517.39 -1094.53 3757
1526.37 -1094.53 3757
1532.09 -1092.2 3749
1541.05 -1092.2 3749
1550.02 -1092.2 3749
1548.59 -1084.92 3724
1557.49 -1084.92 3724
1559.25 -1079.97 3707
1568.11 -1079.97 3707
1576.98 -1079.97 3707
1579 -1075.31 3691
-2966.15 -1167.01 4039
-2956.49 -1167.01 4039
-2946.83 -1167.01 4039
-2937.17 -1167.01 4039
-2927.51 -1167.01 4039
-2896.91 -1158.64 4010
-2887.32 -1158.64 4010
-2836.82 -1142.17 3953
-2840.96 -1147.66 3972
-2831.46 -1147.66 3972
-2821.96 -1147.66 3972
-2812.46 -1147.66 3972
-2769.8 -1134.08 3925
-2741.42 -1126.27 3898
-2732.1 -1126.27 3898
-2691.35 -1113.27 3853
-2675.87 -1110.67 3844
-2666.68 -1110.67 3844
-2657.49 -1110.67 3844
-2648.29 -1110.67 3844
-2608.89 -1097.96 3800
-2599.81 -1097.96 3800
-2590.72 -1097.96 3800
-2581.63 -1097.96 3800
-2572.54 -1097.96 3800
-2563.46 -1097.96 3800
-2566.47 -1103.16 3818
-2557.34 -1103.16 3818
-2583.58 -1118.47 3871
-2610.24 -1134.08 3925
-2600.85 -1134.08 3925
-2591.47 -1134.08 3925
-2582.08 -1134.08 3925
-1395.47 -1115.87 3862
-1386.23 -1115.87 3862
-1377 -1115.87 3862
-1374.14 -1121.07 3880
-1364.86 -1121.07 3880
-1355.58 -1121.07 3880
-1336.94 -1113.27 3853
-1324.62 -1110.67 3844
-1315.43 -1110.67 3844
-1297.4 -1103.16 3818
-1288.27 -1103.16 3818
-1302.93 -1123.67 3889
-1302.61 -1131.48 3916
-1293.25 -1131.48 3916
-1283.88 -1131.48 3916
-1268.66 -1126.27 3898
-1256.43 -1123.67 3889
-1247.13 -1123.67 3889
-1232.1 -1118.47 3871
-1220 -1115.87 3862
-1202.3 -1108.07 3835
-1193.13 -1108.07 3835
-1173.15 -1097.96 3800
-1166.82 -1100.56 3809
-1168.35 -1110.67 3844
-1159.16 -1110.67 3844
-1149.97 -1110.67 3844
-201.004 -605.611 2096
-197.207 -609.367 2109
-192.164 -609.367 2109
-187.121 -609.367 2109
-182.337 -610.234 2112
-177.286 -610.234 2112
-172.236 -610.234 2112
-167.344 -610.812 2114
-162.288 -610.812 2114
-157.233 -610.812 2114
-152.178 -610.812 2114
-146.983 -610.234 2112
-141.731 -609.367 2109
-136.688 -609.367 2109
-131.645 -609.367 2109
-126.602 -609.367 2109
-121.558 -609.367 2109
-116.515 -609.367 2109
-111.472 -609.367 2109
-106.429 -609.367 2109
-101.385 -609.367 2109
-96.3421 -609.367 2109
-91.2989 -609.367 2109
-86.2556 -609.367 2109
-81.2123 -609.367 2109
-76.1691 -609.367 2109
-71.1258 -609.367 2109
-66.0826 -609.367 2109
-61.1261 -610.234 2112
-56.0757 -610.234 2112
-51.0253 -610.234 2112
-45.9748 -610.234 2112
-40.9632 -610.812 2114
-35.9079 -610.812 2114
-30.8527 -610.812 2114
-25.7731 -610.234 2112
-20.7227 -610.234 2112
-15.6871 -610.812 2114
-10.6319 -610.812 2114
-5.57666 -610.812 2114
-0.521442 -610.812 2114
4.53377 -610.812 2114
9.58899 -610.812 2114
14.6303 -610.234 2112
19.6528 -609.367 2109
24.6961 -609.367 2109
29.965 -613.99 2125
35.0465 -613.99 2125
40.128 -613.99 2125
45.2095 -613.99 2125
50.362 -614.857 2128
55.4507 -614.857 2128
60.6248 -615.724 2131
65.8748 -617.168 2136
71.0824 -618.035 2139
76.1973 -618.035 2139
81.3123 -618.035 2139
86.6294 -619.48 2144
92.0131 -621.214 2150
97.1544 -621.214 2150
102.296 -621.214 2150
107.837 -623.525 2158
113.154 -624.392 2161
118.322 -624.392 2161
123.661 -625.259 2164
128.836 -625.259 2164
134.196 -626.125 2167
139.507 -626.703 2169
144.694 -626.703 2169
150.088 -627.57 2172
155.282 -627.57 2172
160.919 -629.304 2178
166.127 -629.304 2178
171.807 -631.037 2184
177.192 -631.615 2186
183.421 -635.083 2198
188.677 -635.083 2198
194.462 -636.816 2204
200.73 -639.994 2215
206.305 -640.861 2218
211.609 -640.861 2218
217.207 -641.728 2221
222.518 -641.728 2221
228.137 -642.595 2224
233.455 -642.595 2224
238.773 -642.595 2224
244.421 -643.462 2227
250.082 -644.328 2230
255.415 -644.328 2230
260.748 -644.328 2230
267.512 -647.796 2242
272.873 -647.796 2242
278.235 -647.796 2242
283.596 -647.796 2242
613.487 -1108.07 3835
624.119 -1110.67 3844
633.312 -1110.67 3844
662.394 -1145.06 3963
679.839 -1158.64 4010
689.428 -1158.64 4010
699.017 -1158.64 4010
703.658 -1150.55 3982
713.18 -1150.55 3982
722.703 -1150.55 3982
728.731 -1145.06 3963
734.669 -1139.57 3944
742.402 -1136.97 3935
751.812 -1136.97 3935
752.323 -1123.67 3889
766.978 -1066.46 3691
775.804 -1066.46 3691
784.63 -1066.46 3691
793.457 -1066.46 3691
804.022 -1068.78 3699
812.867 -1068.78 3699
821.713 -1068.78 3699
830.558 -1068.78 3699
835.773 -1064.15 3683
844.58 -1064.15 3683
853.387 -1064.15 3683
849.084 -1047.97 3627
857.758 -1047.97 3627
864.52 -1045.66 3619
1429.68 -1108.07 3835
1438.85 -1108.07 3835
1448.02 -1108.07 3835
1447.31 -1100.56 3809
1456.42 -1100.56 3809
1462.06 -1097.96 3800
1468.05 -1095.65 3792
1466.99 -1088.14 3766
1476 -1088.14 3766
1481.45 -1085.53 3757
1494.01 -1088.14 3766
1503.01 -1088.14 3766
1512.02 -1088.14 3766
1524.26 -1090.45 3774
1533.28 -1090.45 3774
1542.31 -1090.45 3774
1544.34 -1085.53 3757
1553.33 -1085.53 3757
1558.98 -1083.22 3749
1564.19 -1080.62 3740
1569.76 -1078.31 3732
1578.69 -1078.31 3732
1584.21 -1076 3724
1589.69 -1073.69 3716
-2966.15 -1157.34 4039
-2956.49 -1157.34 4039
-2946.83 -1157.34 4039
-2937.17 -1157.34 4039
-2927.51 -1157.34 4039
-2896.91 -1149.03 4010
-2887.32 -1149.03 4010
-2836.82 -1132.7 3953
-2840.96 -1138.14 3972
-2831.46 -1138.14 3972
-2821.96 -1138.14 3972
-2812.46 -1138.14 3972
-2769.8 -1124.67 3925
-2741.42 -1116.94 3898
-2732.1 -1116.94 3898
-2691.35 -1104.04 3853
-2675.87 -1101.46 3844
-2666.68 -1101.46 3844
-2657.49 -1101.46 3844
-2648.29 -1101.46 3844
-2615.07 -1091.43 3809
-2599.81 -1088.86 3800
-2590.72 -1088.86 3800
-2581.63 -1088.86 3800
-2584.73 -1094.01 3818
-2575.6 -1094.01 3818
-2571.85 -1096.31 3826
-2562.7 -1096.31 3826
-2583.58 -1109.2 3871
-2616.89 -1127.54 3935
-2607.48 -1127.54 3935
-2598.07 -1127.54 3935
-2588.66 -1127.54 3935
-2579.25 -1127.54 3935
-2569.84 -1127.54 3935
-1395.47 -1106.62 3862
-1386.23 -1106.62 3862
-1377 -1106.62 3862
-1380.51 -1116.94 3898
-1371.19 -1116.94 3898
-1361.87 -1116.94 3898
-1336.94 -1104.04 3853
-1327.72 -1104.04 3853
-1318.51 -1104.04 3853
-1309.29 -1104.04 3853
-1300.08 -1104.04 3853
-1311.97 -1122.09 3916
-1305.6 -1124.67 3925
-1296.22 -1124.67 3925
-1286.83 -1124.67 3925
-1277.45 -1124.67 3925
-1259.34 -1116.94 3898
-1250.02 -1116.94 3898
-1237.83 -1114.36 3889
-1228.53 -1114.36 3889
-1202.3 -1098.88 3835
-1193.13 -1098.88 3835
-1173.15 -1088.86 3800
-1166.82 -1091.43 3809
-1179.3 -1111.78 3880
-1170.02 -1111.78 3880
-1160.74 -1111.78 3880
-201.004 -600.59 2096
-196.179 -601.163 2098
-191.162 -601.163 2098
-186.145 -601.163 2098
-181.387 -602.023 2101
-176.615 -602.882 2104
-171.583 -602.882 2104
-166.948 -604.315 2109
-161.904 -604.315 2109
-156.861 -604.315 2109
-151.818 -604.315 2109
-146.566 -603.455 2106
-141.395 -602.882 2104
-136.494 -603.455 2106
-131.458 -603.455 2106
-126.422 -603.455 2106
-121.385 -603.455 2106
-116.515 -604.315 2109
-111.472 -604.315 2109
-106.429 -604.315 2109
-101.385 -604.315 2109
-96.3421 -604.315 2109
-91.2989 -604.315 2109
-86.2556 -604.315 2109
-81.2123 -604.315 2109
-76.1691 -604.315 2109
-71.1258 -604.315 2109
-66.0826 -604.315 2109
-61.0393 -604.315 2109
-56.0757 -605.175 2112
-51.0253 -605.175 2112
-45.9748 -605.175 2112
-40.9244 -605.175 2112
-35.874 -605.175 2112
-30.8235 -605.175 2112
-25.7731 -605.175 2112
-20.7227 -605.175 2112
-15.6722 -605.175 2112
-10.6319 -605.748 2114
-5.57666 -605.748 2114
-0.521442 -605.748 2114
4.52948 -605.175 2112
9.57992 -605.175 2112
14.6303 -605.175 2112
19.6528 -604.315 2109
24.6961 -604.315 2109
29.9227 -608.04 2122
34.997 -608.04 2122
40.0713 -608.04 2122
45.2095 -608.9 2125
50.362 -609.759 2128
55.4507 -609.759 2128
60.6248 -610.619 2131
65.8748 -612.052 2136
71.0824 -612.911 2139
76.1973 -612.911 2139
81.3123 -612.911 2139
86.6294 -614.344 2144
91.8847 -615.204 2147
97.0188 -615.204 2147
102.296 -616.063 2150
107.687 -617.496 2155
112.997 -618.356 2158
118.158 -618.356 2158
123.49 -619.215 2161
128.836 -620.075 2164
134.01 -620.075 2164
139.378 -620.934 2167
144.56 -620.934 2167
149.88 -621.508 2169
155.282 -622.367 2172
160.919 -624.086 2178
166.127 -624.086 2178
171.571 -624.946 2181
177.192 -626.379 2186
182.92 -628.098 2192
188.162 -628.098 2192
194.198 -630.677 2201
200.277 -633.256 2210
206.026 -634.688 2215
211.323 -634.688 2215
217.207 -636.408 2221
222.518 -636.408 2221
228.137 -637.267 2224
233.455 -637.267 2224
238.773 -637.267 2224
244.421 -638.127 2227
250.082 -638.987 2230
255.415 -638.987 2230
260.748 -638.987 2230
267.512 -642.425 2242
272.873 -642.425 2242
278.235 -642.425 2242
283.596 -642.425 2242
613.487 -1098.88 3835
624.119 -1101.46 3844
633.312 -1101.46 3844
662.394 -1135.56 3963
679.839 -1149.03 4010
689.428 -1149.03 4010
699.017 -1149.03 4010
703.658 -1141.01 3982
713.18 -1141.01 3982
722.703 -1141.01 3982
728.731 -1135.56 3963
734.669 -1130.12 3944
742.402 -1127.54 3935
751.812 -1127.54 3935
752.323 -1114.36 3889
766.978 -1057.62 3691
775.804 -1057.62 3691
784.63 -1057.62 3691
793.457 -1057.62 3691
804.022 -1059.92 3699
812.867 -1059.92 3699
821.713 -1059.92 3699
830.558 -1059.92 3699
835.773 -1055.33 3683
844.58 -1055.33 3683
853.387 -1055.33 3683
849.084 -1039.28 3627
857.758 -1039.28 3627
864.52 -1036.99 3619
1438.2 -1091.43 3809
1447.31 -1091.43 3809
1456.42 -1091.43 3809
1462.06 -1088.86 3800
1468.05 -1086.56 3792
1466.99 -1079.11 3766
1476 -1079.11 3766
1481.45 -1076.53 3757
1494.01 -1079.11 3766
1503.01 -1079.11 3766
1512.02 -1079.11 3766
1524.26 -1081.41 3774
1533.28 -1081.41 3774
1542.31 -1081.41 3774
1544.34 -1076.53 3757
1553.33 -1076.53 3757
1558.98 -1074.24 3749
1564.19 -1071.66 3740
1569.76 -1069.37 3732
1578.69 -1069.37 3732
1584.21 -1067.08 3724
1589.69 -1064.79 3716
-2944.85 -1139.42 4010
-2949.9 -1145.11 4030
-2946.83 -1147.66 4039
-2937.17 -1147.66 4039
-2927.51 -1147.66 4039
-2896.91 -1139.42 4010
-2887.32 -1139.42 4010
-2836.82 -1123.23 3953
-2840.96 -1128.63 3972
-2831.46 -1128.63 3972
-2821.96 -1128.63 3972
-2812.46 -1128.63 3972
-2769.8 -1115.27 3925
-2741.42 -1107.6 3898
-2732.1 -1107.6 3898
-2691.35 -1094.81 3853
-2675.87 -1092.26 3844
-2666.68 -1092.26 3844
-2657.49 -1092.26 3844
-2648.29 -1092.26 3844
-2615.07 -1082.31 3809
-2599.81 -1079.75 3800
-2590.72 -1079.75 3800
-2581.63 -1079.75 3800
-2584.73 -1084.87 3818
-2575.6 -1084.87 3818
-2571.85 -1087.14 3826
-2562.7 -1087.14 3826
-2565.56 -1092.26 3844
-2616.89 -1118.11 3935
-2607.48 -1118.11 3935
-2598.07 -1118.11 3935
-2588.66 -1118.11 3935
-2579.25 -1118.11 3935
-2569.84 -1118.11 3935
-1395.47 -1097.37 3862
-1386.23 -1097.37 3862
-1377 -1097.37 3862
-1380.51 -1107.6 3898
-1371.19 -1107.6 3898
-1361.87 -1107.6 3898
-1336.94 -1094.81 3853
-1327.72 -1094.81 3853
-1318.51 -1094.81 3853
-1309.29 -1094.81 3853
-1300.08 -1094.81 3853
-1311.97 -1112.71 3916
-1305.6 -1115.27 3925
-1296.22 -1115.27 3925
-1286.83 -1115.27 3925
-1277.45 -1115.27 3925
-1259.34 -1107.6 3898
-1250.02 -1107.6 3898
-1237.83 -1105.04 3889
-1228.53 -1105.04 3889
-1202.3 -1089.7 3835
-1193.13 -1089.7 3835
-1173.15 -1079.75 3800
-1166.82 -1082.31 3809
-1179.3 -1102.48 3880
-1170.02 -1102.48 3880
-1160.74 -1102.48 3880
-201.004 -595.569 2096
-196.74 -597.842 2104
-191.708 -597.842 2104
-186.677 -597.842 2104
-181.646 -597.842 2104
-176.615 -597.842 2104
-171.339 -596.99 2101
-166.552 -597.842 2104
-161.674 -598.41 2106
-156.638 -598.41 2106
-151.602 -598.41 2106
-146.566 -598.41 2106
-141.395 -597.842 2104
-136.364 -597.842 2104
-131.333 -597.842 2104
-126.302 -597.842 2104
-121.385 -598.41 2106
-116.349 -598.41 2106
-111.313 -598.41 2106
-106.429 -599.263 2109
-101.385 -599.263 2109
-96.3421 -599.263 2109
-91.2989 -599.263 2109
-86.2556 -599.263 2109
-81.2123 -599.263 2109
-76.1691 -599.263 2109
-71.1258 -599.263 2109
-66.0826 -599.263 2109
-61.0393 -599.263 2109
-55.996 -599.263 2109
-50.9528 -599.263 2109
-45.9095 -599.263 2109
-40.9244 -600.115 2112
-35.874 -600.115 2112
-30.8235 -600.115 2112
-25.7365 -599.263 2109
-20.6932 -599.263 2109
-15.65 -599.263 2109
-10.6218 -600.115 2112
-5.57138 -600.115 2112
-0.520949 -600.115 2112
4.52305 -599.263 2109
9.56631 -599.263 2109
14.6096 -599.263 2109
19.6528 -599.263 2109
24.6961 -599.263 2109
29.8945 -602.388 2120
34.964 -602.388 2120
40.0713 -602.957 2122
45.1457 -602.957 2122
50.291 -603.809 2125
55.3726 -603.809 2125
60.5394 -604.662 2128
65.7206 -605.514 2131
70.9827 -606.935 2136
76.0905 -606.935 2136
81.3123 -607.787 2139
86.6294 -609.208 2144
91.8847 -610.06 2147
97.0188 -610.06 2147
102.296 -610.913 2150
107.587 -611.765 2153
112.84 -612.334 2155
117.993 -612.334 2155
123.318 -613.186 2158
