ply
format ascii 1.0
comment File generated
element vertex 2252
property float x
property float y
property float z
end_header
-539.01 576.589 3572
-532.845 579.172 3588
-526.456 581.593 3603
-523.446 587.888 3642
-514.737 587.888 3642
-508.251 590.471 3658
-499.503 590.471 3658
-490.756 590.471 3658
-480.954 589.18 3650
-471.191 587.888 3642
-463.498 589.18 3650
-456.888 591.924 3667
-448.119 591.924 3667
-442.225 595.798 3691
-435.278 598.381 3707
-429.289 602.416 3732
-420.365 602.416 3732
-413.315 605.16 3749
-405.212 606.452 3757
-398.021 609.196 3774
-388.996 609.196 3774
-379.972 609.196 3774
-373.502 613.393 3800
-365.278 614.845 3809
-356.17 614.845 3809
-347.062 614.845 3809
-337.953 614.845 3809
-329.622 616.298 3818
-320.492 616.298 3818
-313.482 620.495 3844
-305.715 623.401 3862
-296.479 623.401 3862
-287.244 623.401 3862
-278.009 623.401 3862
-267.521 620.495 3844
-258.329 620.495 3844
-248.553 619.042 3835
-238.821 617.59 3826
-227.631 612.101 3792
-218.044 610.649 3783
-208.998 610.649 3783
-117.075 357.543 2215
-111.778 357.543 2215
-106.097 356.252 2207
-100.819 356.252 2207
-94.7621 353.346 2189
-89.323 352.539 2184
-83.8694 351.571 2178
-78.6611 351.571 2178
-73.3517 351.087 2175
-68.2446 351.571 2178
-63.0363 351.571 2178
-57.8281 351.571 2178
-52.6198 351.571 2178
-47.3462 351.087 2175
-42.1452 351.087 2175
-36.9441 351.087 2175
-31.743 351.087 2175
-26.5785 351.571 2178
-21.3703 351.571 2178
-16.162 351.571 2178
-10.9236 350.602 2172
-5.72175 350.118 2169
-0.535749 350.602 2172
4.6646 351.087 2175
9.86568 351.087 2175
15.0668 351.087 2175
20.2958 351.571 2178
25.5392 352.055 2181
30.9097 353.831 2192
36.1515 353.831 2192
41.3932 353.831 2192
46.6349 353.831 2192
51.8767 353.831 2192
57.0402 353.346 2189
62.2748 353.346 2189
67.5094 353.346 2189
72.7439 353.346 2189
77.9785 353.346 2189
83.099 352.862 2186
88.2456 352.539 2184
93.5538 352.862 2186
98.7812 352.862 2186
104.151 353.346 2189
109.386 353.346 2189
114.62 353.346 2189
119.855 353.346 2189
124.632 352.055 2181
129.669 351.571 2178
134.877 351.571 2178
140.086 351.571 2178
145.294 351.571 2178
150.295 351.087 2175
155.496 351.087 2175
160.697 351.087 2175
165.669 350.602 2172
171.571 352.055 2181
176.787 352.055 2181
182.002 352.055 2181
187.218 352.055 2181
192.698 352.539 2184
197.92 352.539 2184
203.143 352.539 2184
208.079 352.055 2181
213.588 352.539 2184
219.011 352.862 2186
224.854 353.831 2192
230.096 353.831 2192
237.807 357.543 2215
244.091 358.996 2224
249.41 358.996 2224
254.728 358.996 2224
492.39 496.848 3078
499.75 496.848 3078
507.111 496.848 3078
513.468 495.88 3072
514.202 489.584 3033
521.455 489.584 3033
528.708 489.584 3033
535.961 489.584 3033
543.214 489.584 3033
548.47 487.809 3022
554.777 487.001 3017
561.992 487.001 3017
565.999 484.257 3000
572.217 483.45 2995
578.412 482.643 2990
585.562 482.643 2990
592.712 482.643 2990
599.862 482.643 2990
608.027 483.45 2995
615.189 483.45 2995
622.351 483.45 2995
629.513 483.45 2995
634.337 481.675 2984
641.472 481.675 2984
646.434 480.06 2974
651.129 478.285 2963
658.214 478.285 2963
667.77 480.06 2974
676.016 480.868 2979
683.14 480.868 2979
691.422 481.675 2984
699.962 482.643 2990
707.112 482.643 2990
714.262 482.643 2990
721.412 482.643 2990
728.562 482.643 2990
736.942 483.45 2995
744.104 483.45 2995
751.266 483.45 2995
758.428 483.45 2995
765.59 483.45 2995
772.752 483.45 2995
779.914 483.45 2995
785.762 482.643 2990
792.912 482.643 2990
800.062 482.643 2990
807.212 482.643 2990
814.362 482.643 2990
821.512 482.643 2990
826.999 481.675 2984
834.135 481.675 2984
841.27 481.675 2984
848.406 481.675 2984
855.542 481.675 2984
862.677 481.675 2984
869.813 481.675 2984
876.949 481.675 2984
884.084 481.675 2984
891.22 481.675 2984
898.356 481.675 2984
913.684 486.033 3011
920.885 486.033 3011
928.085 486.033 3011
945.536 491.36 3044
991.002 511.053 3166
998.573 511.053 3166
1006.14 511.053 3166
1023.32 515.896 3196
1055.16 528.002 3271
1067.2 530.1 3284
1075.06 530.1 3284
1089.17 533.167 3303
1108.37 538.656 3337
1127.39 543.982 3370
1135.44 543.982 3370
1162.5 553.022 3426
1180.27 557.542 3454
1198.5 562.223 3483
1206.83 562.223 3483
1217.6 563.353 3490
1225.95 563.353 3490
1234.3 563.353 3490
1240.15 562.223 3483
1253.5 564.483 3497
1261.86 564.483 3497
1270.22 564.483 3497
1278.58 564.483 3497
1295.41 568.195 3520
1306.42 569.325 3527
1320.45 571.747 3542
1328.92 571.747 3542
1337.39 571.747 3542
1348.52 572.876 3549
1357 572.876 3549
1365.49 572.876 3549
1373.98 572.876 3549
1382.46 572.876 3549
1390.95 572.876 3549
1390.76 569.325 3527
1387.29 564.483 3497
1384.08 559.802 3468
1364.27 548.502 3398
1372.4 548.502 3398
1363.86 541.884 3357
1363.72 538.656 3337
1363.48 535.427 3317
1371.41 535.427 3317
1368.11 531.069 3290
1370.96 529.132 3278
1375.86 528.002 3271
1378.18 525.904 3258
1385.97 525.904 3258
1391.19 524.935 3252
1396.39 523.966 3246
1404.15 523.966 3246
1411.91 523.966 3246
1419.68 523.966 3246
1427.44 523.966 3246
1437.85 524.935 3252
1448.3 525.904 3258
1456.09 525.904 3258
1463.88 525.904 3258
1471.67 525.904 3258
1479.46 525.904 3258
1487.25 525.904 3258
1492.29 524.935 3252
1494.07 522.837 3239
1501.81 522.837 3239
1501.17 519.931 3221
1508.87 519.931 3221
1510.45 517.833 3208
1503.93 512.99 3178
1511.53 512.99 3178
1507.66 509.116 3154
1500.79 504.273 3124
1486.05 496.848 3078
1493.41 496.848 3078
1481.75 490.553 3039
1469.91 484.257 3000
1448.53 474.895 2942
1440.23 469.891 2911
1447.19 469.891 2911
1439.16 465.048 2881
1441.03 463.434 2871
1443.36 461.982 2862
1450.2 461.982 2862
1454.5 461.174 2857
1458.78 460.367 2852
1463.03 459.56 2847
1469.83 459.56 2847
1476.64 459.56 2847
1478.24 457.946 2837
1485.02 457.946 2837
1489.18 457.139 2832
1495.95 457.139 2832
1502.72 457.139 2832
1509.5 457.139 2832
1514.13 456.493 2828
1520.89 456.493 2828
1524.95 455.686 2823
1528.99 454.879 2818
1533 454.072 2813
1539.73 454.072 2813
1544.26 453.426 2809
1548.21 452.619 2804
1549.37 451.005 2794
1556.05 451.005 2794
1562.74 451.005 2794
1564.36 449.552 2785
1573.84 450.359 2790
1582.78 451.005 2794
1589.46 451.005 2794
1596.14 451.005 2794
1602.82 451.005 2794
1612.38 451.812 2799
1619.08 451.812 2799
1625.77 451.812 2799
1632.46 451.812 2799
1639.16 451.812 2799
1648.79 452.619 2804
1655.5 452.619 2804
1665.17 453.426 2809
1671.88 453.426 2809
1678.6 453.426 2809
1687.72 454.072 2813
1694.44 454.072 2813
1704.19 454.879 2818
1710.93 454.879 2818
1717.67 454.879 2818
1724.41 454.879 2818
1731.15 454.879 2818
1734.8 454.072 2813
1741.53 454.072 2813
1745.77 453.426 2809
1752.49 453.426 2809
1759.21 453.426 2809
1765.92 453.426 2809
1772.64 453.426 2809
1779.36 453.426 2809
1782.9 452.619 2804
1789.6 452.619 2804
1793.1 451.812 2799
1799.8 451.812 2799
1803.26 451.005 2794
1807.35 450.359 2790
1814.02 450.359 2790
1817.43 449.552 2785
1820.82 448.745 2780
1827.47 448.745 2780
1834.11 448.745 2780
1834.8 447.292 2771
1841.43 447.292 2771
1848.05 447.292 2771
1854.68 447.292 2771
1858.62 446.647 2767
1861.87 445.84 2762
1868.47 445.84 2762
1875.08 445.84 2762
1881.68 445.84 2762
1882.13 444.387 2753
1891.46 445.033 2757
1898.05 445.033 2757
1904.65 445.033 2757
1911.24 445.033 2757
1915.05 444.387 2753
1924.42 445.033 2757
1931.02 445.033 2757
1937.61 445.033 2757
1944.2 445.033 2757
1947.97 444.387 2753
1957.39 445.033 2757
1963.98 445.033 2757
1970.57 445.033 2757
1977.17 445.033 2757
1983.76 445.033 2757
1987.46 444.387 2753
1990.43 443.58 2748
1987.55 441.481 2735
1987.53 440.029 2726
2007.21 442.934 2744
2013.78 442.934 2744
2020.34 442.934 2744
2026.9 442.934 2744
2033.46 442.934 2744
2036.31 442.127 2739
2060.01 445.84 2762
2070.36 446.647 2767
2076.97 446.647 2767
2083.59 446.647 2767
2082.65 445.033 2757
2089.24 445.033 2757
2095.84 445.033 2757
2102.43 445.033 2757
2105.96 444.387 2753
-2135.36 467.199 2852
-2128.54 467.199 2852
-2121.72 467.199 2852
-2100.07 463.923 2832
-2093.3 463.923 2832
-2090.21 464.742 2837
-2083.43 464.742 2837
-2076.64 464.742 2837
-2069.86 464.742 2837
-2063.07 464.742 2837
-2056.29 464.742 2837
-2045.89 463.923 2832
-2039.12 463.923 2832
-2022.3 461.63 2818
-2015.56 461.63 2818
-2008.83 461.63 2818
-2022.69 466.38 2847
-2050.58 474.407 2896
-2050.71 476.045 2906
-2043.76 476.045 2906
-2036.81 476.045 2906
-2019.38 473.588 2891
-2012.47 473.588 2891
-1991.68 470.312 2871
-1984.82 470.312 2871
-1974.51 469.493 2866
-1967.65 469.493 2866
-1960.8 469.493 2866
-1957.36 470.312 2871
-1950.49 470.312 2871
-1943.63 470.312 2871
-1936.76 470.312 2871
-1933.26 471.131 2876
-1926.38 471.131 2876
-1926.17 472.769 2886
-1919.27 472.769 2886
-1919 474.407 2896
-1912.07 474.407 2896
-1905.15 474.407 2896
-1898.22 474.407 2896
-1888.03 473.588 2891
-1881.12 473.588 2891
-1880.69 475.226 2901
-1873.75 475.226 2901
-1880.33 478.666 2922
-1896.42 484.564 2958
-1892.54 485.383 2963
-1885.46 485.383 2963
-1922.75 496.85 3033
-1933.18 501.437 3061
-1943.47 506.023 3089
-1936.09 506.023 3089
-1928.7 506.023 3089
-1921.31 506.023 3089
-1925.08 508.972 3107
-1917.65 508.972 3107
-1931.74 514.706 3142
-1946.27 520.603 3178
-1938.67 520.603 3178
-1942.01 523.552 3196
-1934.37 523.552 3196
-1926.72 523.552 3196
-1911.88 521.586 3184
-1893.5 518.637 3166
-1907.37 524.534 3202
-1914.55 528.63 3227
-1906.83 528.63 3227
-1929.13 536.984 3278
-1921.29 536.984 3278
-1932.13 542.226 3310
-1924.21 542.226 3310
-1923.82 544.356 3323
-1942.98 552.055 3370
-1967.07 561.229 3426
-1958.88 561.229 3426
-1966.63 565.816 3454
-1987.28 574.17 3505
-1987.37 576.628 3520
-1978.95 576.628 3520
-1974.46 577.774 3527
-1974.38 580.231 3542
-1974.24 582.689 3557
-1965.73 582.689 3557
-1961.63 583.999 3565
-1956.94 585.146 3572
-1952.76 586.456 3580
-1944.2 586.456 3580
-1935.64 586.456 3580
-1931.38 587.767 3588
-1926.56 588.914 3595
-1917.96 588.914 3595
-1909.36 588.914 3595
-1904.99 590.224 3603
-1896.38 590.224 3603
-1887.76 590.224 3603
-1879.15 590.224 3603
-1874.68 591.535 3611
-1866.05 591.535 3611
-1857.41 591.535 3611
-1852.88 592.845 3619
-1844.22 592.845 3619
-1835.57 592.845 3619
-1822.87 591.535 3611
-1814.24 591.535 3611
-1805.6 591.535 3611
-1796.97 591.535 3611
-1788.33 591.535 3611
-1779.7 591.535 3611
-1778.91 594.156 3627
-1770.24 594.156 3627
-1761.57 594.156 3627
-1756.76 595.466 3635
-1759.13 599.234 3658
-1762.34 603.329 3683
-1753.54 603.329 3683
-1752.31 605.95 3699
-1759.02 611.356 3732
-1758.06 614.141 3749
-1749.1 614.141 3749
-1751.74 618.236 3774
-1742.71 618.236 3774
-1733.69 618.236 3774
-1724.66 618.236 3774
-1712 616.926 3766
-1726.51 625.444 3818
-1717.38 625.444 3818
-1708.25 625.444 3818
-1699.12 625.444 3818
-1689.99 625.444 3818
-1680.86 625.444 3818
-1667.79 623.97 3809
-1643.44 618.236 3774
-1612.76 610.046 3724
-1575.43 599.234 3658
-1566.68 599.234 3658
-1544.73 594.156 3627
-1516.16 586.456 3580
-1488.22 578.921 3534
-1479.77 578.921 3534
-1462.16 575.317 3512
-1441.76 570.566 3483
-1424.38 566.962 3461
-1416.1 566.962 3461
-1390.74 560.082 3419
-1376.9 557.789 3405
-1363.13 555.495 3391
-1355.02 555.495 3391
-1335.79 550.909 3363
-1314.72 545.503 3330
-1304.01 544.356 3323
-1296.07 544.356 3323
-1288.12 544.356 3323
-1277.86 543.373 3317
-1262.27 540.097 3297
-1254.39 540.097 3297
-1246.51 540.097 3297
-1238.62 540.097 3297
-1228.12 538.95 3290
-1213.21 535.838 3271
-1217.18 541.08 3303
-1209.28 541.08 3303
-1211.2 545.503 3330
-1205.77 546.649 3337
-1197.79 546.649 3337
-1189.81 546.649 3337
-1181.83 546.649 3337
-1171.39 545.503 3330
-1163.43 545.503 3330
-1155.46 545.503 3330
-1147.5 545.503 3330
-1137.14 544.356 3323
-1129.19 544.356 3323
-1025.42 497.833 3039
-996.377 487.185 2974
-980.284 482.762 2947
-969.934 481.124 2937
-962.911 481.124 2937
-952.633 479.485 2927
-942.403 477.847 2917
-925.486 472.769 2886
-918.585 472.769 2886
-908.525 471.131 2876
-903.215 471.95 2881
-899.437 473.588 2891
-895.611 475.226 2901
-888.673 475.226 2901
-881.736 475.226 2901
-874.799 475.226 2901
-867.862 475.226 2901
-860.925 475.226 2901
-853.987 475.226 2901
-851.722 477.847 2917
-847.643 479.485 2927
-840.643 479.485 2927
-833.644 479.485 2927
-825.232 478.666 2922
-815.165 476.864 2911
-808.204 476.864 2911
-801.243 476.864 2911
-794.282 476.864 2911
-787.32 476.864 2911
-780.359 476.864 2911
-773.398 476.864 2911
-768.017 477.847 2917
-763.651 479.485 2927
-756.651 479.485 2927
-749.652 479.485 2927
-741.384 478.666 2922
-734.396 478.666 2922
-727.409 478.666 2922
-719.189 477.847 2917
-713.434 478.666 2922
-706.447 478.666 2922
-699.46 478.666 2922
-612.857 517.654 3160
-606.45 518.637 3166
-598.879 518.637 3166
-621.938 545.503 3330
-613.975 545.503 3330
-628.579 565.816 3454
-620.319 565.816 3454
-618.439 571.713 3490
-611.317 572.86 3497
-604.334 574.17 3505
-595.952 574.17 3505
-590.085 576.628 3520
-582.825 577.774 3527
-575.531 578.921 3534
-567.08 578.921 3534
-563.529 583.999 3565
-556.094 585.146 3572
-548.778 586.456 3580
-540.218 586.456 3580
-533.884 588.914 3595
-526.456 590.224 3603
-523.446 596.613 3642
-514.737 596.613 3642
-506.028 596.613 3642
-497.319 596.613 3642
-488.609 596.613 3642
-479.9 596.613 3642
-471.191 596.613 3642
-462.482 596.613 3642
-455.766 599.234 3658
-447.019 599.234 3658
-441.267 603.329 3683
-433.399 604.64 3691
-427.449 608.735 3716
-418.562 608.735 3716
-411.44 611.356 3732
-403.379 612.667 3740
-396.228 615.452 3757
-387.244 615.452 3757
-378.26 615.452 3757
-371.831 619.711 3783
-364.415 622.496 3800
-355.328 622.496 3800
-346.241 622.496 3800
-337.155 622.496 3800
-329.622 625.444 3818
-320.492 625.444 3818
-312.748 628.229 3835
-305.002 631.178 3853
-295.788 631.178 3853
-286.575 631.178 3853
-277.361 631.178 3853
-266.895 628.229 3835
-257.724 628.229 3835
-247.452 625.444 3818
-237.198 622.496 3800
-227.091 619.711 3783
-126.515 359.573 2195
-121.929 361.539 2207
-116.652 361.539 2207
-111.374 361.539 2207
-105.664 360.065 2198
-100.408 360.065 2198
-94.7621 358.59 2189
-89.323 357.771 2184
-83.9849 357.28 2181
-78.7694 357.28 2181
-73.3517 356.297 2175
-68.2446 356.788 2178
-63.0363 356.788 2178
-57.8281 356.788 2178
-52.6198 356.788 2178
-47.3462 356.297 2175
-42.1452 356.297 2175
-36.9441 356.297 2175
-31.743 356.297 2175
-26.5785 356.788 2178
-21.3703 356.788 2178
-16.162 356.788 2178
-10.9236 355.805 2172
-5.71647 354.986 2167
-0.535749 355.805 2172
4.6646 356.297 2175
9.86568 356.297 2175
15.0668 356.297 2175
20.2958 356.788 2178
25.5392 357.28 2181
30.9097 359.082 2192
36.1515 359.082 2192
41.3932 359.082 2192
46.6349 359.082 2192
51.8767 359.082 2192
57.0402 358.59 2189
62.2748 358.59 2189
67.5094 358.59 2189
72.7439 358.59 2189
77.9785 358.59 2189
83.099 358.099 2186
88.2456 357.771 2184
93.4682 357.771 2184
98.6908 357.771 2184
104.151 358.59 2189
109.386 358.59 2189
114.62 358.59 2189
119.855 358.59 2189
124.632 357.28 2181
129.669 356.788 2178
134.877 356.788 2178
140.086 356.788 2178
145.294 356.788 2178
150.295 356.297 2175
155.496 356.297 2175
160.475 355.805 2172
165.669 355.805 2172
171.335 356.788 2178
176.787 357.28 2181
182.002 357.28 2181
187.218 357.28 2181
192.698 357.771 2184
197.92 357.771 2184
203.143 357.771 2184
208.079 357.28 2181
213.588 357.771 2184
219.011 358.099 2186
224.854 359.082 2192
230.096 359.082 2192
237.807 362.849 2215
244.091 364.324 2224
249.41 364.324 2224
254.728 364.324 2224
492.39 504.221 3078
499.75 504.221 3078
507.111 504.221 3078
513.468 503.239 3072
515.219 497.833 3039
522.487 497.833 3039
529.754 497.833 3039
537.021 497.833 3039
544.288 497.833 3039
548.47 495.048 3022
553.674 493.246 3011
560.874 493.246 3011
567.131 492.427 3006
574.319 492.427 3006
581.507 492.427 3006
588.696 492.427 3006
593.703 490.625 2995
603.072 492.427 3006
612.494 494.229 3017
619.708 494.229 3017
626.923 494.229 3017
631.825 492.427 3006
636.675 490.625 2995
643.837 490.625 2995
648.608 488.823 2984
654.645 488.004 2979
661.769 488.004 2979
668.892 488.004 2979
678.512 489.806 2990
685.662 489.806 2990
692.812 489.806 2990
701.133 490.625 2995
708.295 490.625 2995
715.457 490.625 2995
722.618 490.625 2995
729.78 490.625 2995
739.649 492.427 3006
746.837 492.427 3006
754.026 492.427 3006
758.428 490.625 2995
766.868 491.444 3000
774.042 491.444 3000
784.081 493.246 3011
791.281 493.246 3011
798.481 493.246 3011
805.681 493.246 3011
812.881 493.246 3011
824.712 496.031 3028
831.953 496.031 3028
839.194 496.031 3028
843.359 494.229 3017
850.574 494.229 3017
860.916 496.031 3028
868.157 496.031 3028
875.398 496.031 3028
882.639 496.031 3028
889.88 496.031 3028
900.38 497.833 3039
907.647 497.833 3039
914.914 497.833 3039
925.519 499.635 3050
938.012 502.419 3067
945.346 502.419 3067
957.961 505.204 3084
991.002 518.637 3166
1006.14 522.569 3190
1013.77 522.569 3190
1031.33 527.647 3221
1063.54 540.097 3297
1084.43 546.649 3337
1092.41 546.649 3337
1106.98 549.926 3357
1119.33 552.055 3370
1143.78 560.082 3419
1151.95 560.082 3419
1172.01 565.816 3454
1192.57 571.713 3490
1206.07 574.17 3505
1214.46 574.17 3505
1222.84 574.17 3505
1231.22 574.17 3505
1239.6 574.17 3505
1247.98 574.17 3505
1256.36 574.17 3505
1267.27 575.317 3512
1278.57 576.628 3520
1286.99 576.628 3520
1297.99 577.774 3527
1311.98 580.231 3542
1323.06 581.378 3549
1331.54 581.378 3549
1340.03 581.378 3549
1351.56 582.689 3557
1360.06 582.689 3557
1368.57 582.689 3557
1377.07 582.689 3557
1382.46 581.378 3549
1390.95 581.378 3549
1390.76 577.774 3527
1387.29 572.86 3497
1384.08 568.109 3468
1364.27 556.642 3398
1372.4 556.642 3398
1371.99 553.202 3377
1366.17 547.632 3343
1368.82 545.503 3330
1376.78 545.503 3330
1368.11 538.95 3290
1375.98 538.95 3290
1378.8 536.984 3278
1381.14 534.855 3265
1388.95 534.855 3265
1391.19 532.725 3252
1396.39 531.742 3246
1404.15 531.742 3246
1411.91 531.742 3246
1419.68 531.742 3246
1427.44 531.742 3246
1437.85 532.725 3252
1445.63 532.725 3252
1453.41 532.725 3252
1463.88 533.708 3258
1471.67 533.708 3258
1479.46 533.708 3258
1484.51 532.725 3252
1492.29 532.725 3252
1494.07 530.596 3239
1501.81 530.596 3239
1501.17 527.647 3221
1508.87 527.647 3221
1510.45 525.517 3208
1503.93 520.603 3178
1511.53 520.603 3178
1507.66 516.671 3154
1500.79 511.757 3124
1488.94 505.204 3084
1496.32 505.204 3084
1484.19 498.652 3044
1472.85 492.427 3006
1450.99 482.762 2947
1445.67 478.666 2922
1452.66 478.666 2922
1444.16 473.588 2891
1443.54 471.131 2876
1443.36 468.837 2862
1450.2 468.837 2862
1454.5 468.018 2857
1458.78 467.199 2852
1463.03 466.38 2847
1469.83 466.38 2847
1476.64 466.38 2847
1478.24 464.742 2837
1485.02 464.742 2837
1489.18 463.923 2832
1495.95 463.923 2832
1502.72 463.923 2832
1509.5 463.923 2832
1514.13 463.268 2828
1520.89 463.268 2828
1524.95 462.449 2823
1528.99 461.63 2818
1533 460.811 2813
1539.73 460.811 2813
1544.26 460.155 2809
1548.21 459.336 2804
1549.37 457.698 2794
1556.05 457.698 2794
1562.74 457.698 2794
1567.17 457.043 2790
1573.84 457.043 2790
1582.78 457.698 2794
1592.3 458.517 2799
1599 458.517 2799
1605.69 458.517 2799
1615.26 459.336 2804
1621.97 459.336 2804
1628.68 459.336 2804
1635.38 459.336 2804
1642.09 459.336 2804
1651.73 460.155 2809
1658.45 460.155 2809
1667.54 460.811 2813
1674.26 460.811 2813
1680.99 460.811 2813
1690.72 461.63 2818
1697.46 461.63 2818
1704.19 461.63 2818
1710.93 461.63 2818
1717.67 461.63 2818
1724.41 461.63 2818
1731.15 461.63 2818
1737.89 461.63 2818
1744.63 461.63 2818
1748.26 460.811 2813
1754.98 460.811 2813
1761.71 460.811 2813
1768.44 460.811 2813
1775.16 460.811 2813
1779.36 460.155 2809
1782.9 459.336 2804
1789.6 459.336 2804
1796.31 459.336 2804
1803.01 459.336 2804
1803.26 457.698 2794
1807.35 457.043 2790
1814.02 457.043 2790
1820.7 457.043 2790
1824.09 456.224 2785
1830.75 456.224 2785
1837.41 456.224 2785
1840.76 455.405 2780
1841.43 453.93 2771
1848.05 453.93 2771
1854.68 453.93 2771
1858.62 453.275 2767
1865.24 453.275 2767
1868.47 452.456 2762
1875.08 452.456 2762
1881.68 452.456 2762
1882.13 450.982 2753
1891.46 451.637 2757
1898.05 451.637 2757
1904.65 451.637 2757
1911.24 451.637 2757
1915.05 450.982 2753
1924.42 451.637 2757
1931.02 451.637 2757
1937.61 451.637 2757
1944.2 451.637 2757
1947.97 450.982 2753
1957.39 451.637 2757
1963.98 451.637 2757
1970.57 451.637 2757
1977.17 451.637 2757
1983.76 451.637 2757
1987.46 450.982 2753
1990.43 450.163 2748
1987.55 448.033 2735
1987.53 446.559 2726
2007.21 449.507 2744
2013.78 449.507 2744
2020.34 449.507 2744
2026.9 449.507 2744
2033.46 449.507 2744
2036.31 448.688 2739
2060.01 452.456 2762
2070.36 453.275 2767
2076.97 453.275 2767
2083.59 453.275 2767
2082.65 451.637 2757
2089.24 451.637 2757
2095.84 451.637 2757
2102.43 451.637 2757
2105.96 450.982 2753
-2135.36 474.031 2852
-2128.54 474.031 2852
-2121.72 474.031 2852
-2100.07 470.707 2832
-2093.3 470.707 2832
-2090.21 471.538 2837
-2083.43 471.538 2837
-2076.64 471.538 2837
-2069.86 471.538 2837
-2063.07 471.538 2837
-2056.29 471.538 2837
-2043 470.042 2828
-2036.24 470.042 2828
-2018.71 467.549 2813
-2015.56 468.38 2818
-2008.83 468.38 2818
-2022.69 473.2 2847
-2050.58 481.345 2896
-2050.71 483.007 2906
-2043.76 483.007 2906
-2036.81 483.007 2906
-2019.38 480.514 2891
-2012.47 480.514 2891
-1991.68 477.189 2871
-1984.82 477.189 2871
-1974.51 476.358 2866
-1967.65 476.358 2866
-1960.8 476.358 2866
-1957.36 477.189 2871
-1950.49 477.189 2871
-1943.63 477.189 2871
-1936.76 477.189 2871
-1933.26 478.02 2876
-1926.38 478.02 2876
-1926.17 479.682 2886
-1919.27 479.682 2886
-1919 481.345 2896
-1912.07 481.345 2896
-1905.15 481.345 2896
-1898.22 481.345 2896
-1888.03 480.514 2891
-1881.12 480.514 2891
-1880.69 482.176 2901
-1873.75 482.176 2901
-1880.33 485.666 2922
-1896.42 491.65 2958
-1892.54 492.481 2963
-1885.46 492.481 2963
-1922.75 504.115 3033
-1933.18 508.769 3061
-1943.47 513.423 3089
-1936.09 513.423 3089
-1928.7 513.423 3089
-1921.31 513.423 3089
-1925.08 516.415 3107
-1917.65 516.415 3107
-1931.74 522.232 3142
-1946.27 528.216 3178
-1938.67 528.216 3178
-1942.01 531.208 3196
-1934.37 531.208 3196
-1926.72 531.208 3196
-1911.88 529.213 3184
-1893.5 526.221 3166
-1907.37 532.205 3202
-1914.55 536.36 3227
-1906.83 536.36 3227
-1929.13 544.837 3278
-1921.29 544.837 3278
-1932.13 550.156 3310
-1924.21 550.156 3310
-1923.82 552.316 3323
-1942.98 560.128 3370
-1967.07 569.436 3426
-1958.88 569.436 3426
-1966.63 574.09 3454
-1987.28 582.567 3505
-1987.37 585.06 3520
-1978.95 585.06 3520
-1974.46 586.223 3527
-1974.38 588.716 3542
-1974.24 591.209 3557
-1965.73 591.209 3557
-1961.63 592.539 3565
-1956.94 593.703 3572
-1952.76 595.032 3580
-1944.2 595.032 3580
-1935.64 595.032 3580
-1931.38 596.362 3588
-1926.56 597.525 3595
-1917.96 597.525 3595
-1909.36 597.525 3595
-1904.99 598.855 3603
-1896.38 598.855 3603
-1887.76 598.855 3603
-1879.15 598.855 3603
-1874.68 600.185 3611
-1866.05 600.185 3611
-1857.41 600.185 3611
-1848.78 600.185 3611
-1840.14 600.185 3611
-1831.51 600.185 3611
-1822.87 600.185 3611
-1810.22 598.855 3603
-1801.6 598.855 3603
-1792.99 598.855 3603
-1784.37 598.855 3603
-1775.76 598.855 3603
-1771.06 600.185 3611
-1766.33 601.514 3619
-1757.68 601.514 3619
-1756.76 604.174 3635
-1755.28 606.667 3650
-1750.38 607.997 3658
-1741.63 607.997 3658
-1752.31 614.811 3699
-1759.02 620.296 3732
-1758.06 623.122 3749
-1749.1 623.122 3749
-1751.74 627.277 3774
-1742.71 627.277 3774
-1733.69 627.277 3774
-1724.66 627.277 3774
-1712 625.947 3766
-1726.51 634.59 3818
-1717.38 634.59 3818
-1708.25 634.59 3818
-1699.12 634.59 3818
-1689.99 634.59 3818
-1680.86 634.59 3818
-1667.79 633.094 3809
-1643.44 627.277 3774
-1612.76 618.967 3724
-1575.43 607.997 3658
-1566.68 607.997 3658
-1544.73 602.844 3627
-1516.16 595.032 3580
-1488.22 587.387 3534
-1479.77 587.387 3534
-1462.16 583.73 3512
-1441.76 578.91 3483
-1424.38 575.253 3461
-1416.1 575.253 3461
-1390.74 568.272 3419
-1376.9 565.945 3405
-1368.76 565.945 3405
-1360.62 565.945 3405
-1341.35 561.292 3377
-1317.49 554.643 3337
-1306.76 553.48 3330
-1298.8 553.48 3330
-1290.83 553.48 3330
-1277.86 551.319 3317
-1267.25 550.156 3310
-1264.28 552.316 3323
-1256.34 552.316 3323
-1248.39 552.316 3323
-1238.2 551.319 3317
-1225.08 548.992 3303
-1234.5 556.804 3350
-1226.49 556.804 3350
-1218.48 556.804 3350
-1210.47 556.804 3350
-1202.46 556.804 3350
-1194.45 556.804 3350
-1181.83 554.643 3337
-1173.85 554.643 3337
-1165.87 554.643 3337
-1157.89 554.643 3337
-1149.91 554.643 3337
-1141.93 554.643 3337
-1133.95 554.643 3337
-1123.61 553.48 3330
-1098.23 544.837 3278
-980.284 489.821 2947
-973.236 489.821 2947
-966.189 489.821 2947
-959.142 489.821 2947
-942.403 484.835 2917
-930.296 482.176 2901
-923.359 482.176 2901
-910.104 478.851 2881
-903.215 478.851 2881
-899.437 480.514 2891
-895.611 482.176 2901
-888.673 482.176 2901
-881.736 482.176 2901
-874.799 482.176 2901
-867.862 482.176 2901
-860.925 482.176 2901
-853.987 482.176 2901
-851.722 484.835 2917
-847.643 486.497 2927
-840.643 486.497 2927
-833.644 486.497 2927
-825.232 485.666 2922
-815.165 483.838 2911
-808.204 483.838 2911
-801.243 483.838 2911
-794.282 483.838 2911
-787.32 483.838 2911
-781.968 484.835 2917
-774.992 484.835 2917
-769.333 485.666 2922
-764.955 487.328 2932
-757.944 487.328 2932
-750.932 487.328 2932
-741.384 485.666 2922
-734.396 485.666 2922
-727.409 485.666 2922
-719.189 484.835 2917
-713.434 485.666 2922
-706.447 485.666 2922
-699.46 485.666 2922
-612.857 525.224 3160
-606.45 526.221 3166
-598.879 526.221 3166
-621.938 553.48 3330
-613.975 553.48 3330
-628.579 574.09 3454
-634.687 587.387 3534
-626.236 587.387 3534
-619.183 588.716 3542
-610.713 588.716 3542
-602.243 588.716 3542
-593.773 588.716 3542
-589.104 592.539 3565
-580.579 592.539 3565
-572.054 592.539 3565
-565.9 595.032 3580
-559.674 597.525 3595
-551.078 597.525 3595
-542.481 597.525 3595
-535.072 598.855 3603
-528.794 601.514 3619
-523.446 605.337 3642
-514.737 605.337 3642
-506.028 605.337 3642
-497.319 605.337 3642
-488.609 605.337 3642
-479.9 605.337 3642
-471.191 605.337 3642
-462.482 605.337 3642
-455.766 607.997 3658
-447.019 607.997 3658
-441.267 612.152 3683
-433.399 613.482 3691
-427.449 617.637 3716
-418.562 617.637 3716
-411.44 620.296 3732
-403.379 621.626 3740
-396.228 624.451 3757
-387.244 624.451 3757
-378.26 624.451 3757
-371.831 628.773 3783
-364.415 631.599 3800
-355.328 631.599 3800
-346.241 631.599 3800
-337.155 631.599 3800
-329.622 634.59 3818
-320.492 634.59 3818
-312.748 637.416 3835
-305.002 640.408 3853
-295.788 640.408 3853
-286.575 640.408 3853
-277.361 640.408 3853
-266.895 637.416 3835
-257.724 637.416 3835
-247.452 634.59 3818
-237.198 631.599 3800
-227.091 628.773 3783
-126.515 364.831 2195
-121.929 366.826 2207
-116.652 366.826 2207
-111.374 366.826 2207
-105.664 365.33 2198
-100.408 365.33 2198
-94.7621 363.834 2189
-89.323 363.003 2184
-83.9849 362.504 2181
-78.7694 362.504 2181
-73.3517 361.507 2175
-68.2446 362.006 2178
-63.0363 362.006 2178
-57.8281 362.006 2178
-52.6198 362.006 2178
-47.3462 361.507 2175
-42.1452 361.507 2175
-36.9441 361.507 2175
-31.743 361.507 2175
-26.5785 362.006 2178
-21.3703 362.006 2178
-16.162 362.006 2178
-10.9236 361.008 2172
-5.72175 360.51 2169
-0.535749 361.008 2172
4.6646 361.507 2175
9.86568 361.507 2175
15.0668 361.507 2175
20.2958 362.006 2178
25.5392 362.504 2181
30.9097 364.333 2192
36.1515 364.333 2192
41.3932 364.333 2192
46.6349 364.333 2192
51.8767 364.333 2192
57.0402 363.834 2189
62.2748 363.834 2189
67.5094 363.834 2189
72.7439 363.834 2189
77.9785 363.834 2189
83.099 363.335 2186
88.2456 363.003 2184
93.4682 363.003 2184
98.6908 363.003 2184
104.151 363.834 2189
109.386 363.834 2189
114.62 363.834 2189
119.855 363.834 2189
124.632 362.504 2181
129.669 362.006 2178
134.877 362.006 2178
140.086 362.006 2178
145.294 362.006 2178
150.295 361.507 2175
155.496 361.507 2175
160.475 361.008 2172
165.669 361.008 2172
171.335 362.006 2178
176.787 362.504 2181
182.002 362.504 2181
187.218 362.504 2181
192.698 363.003 2184
197.92 363.003 2184
203.143 363.003 2184
208.079 362.504 2181
213.588 363.003 2184
219.011 363.335 2186
224.854 364.333 2192
230.096 364.333 2192
237.807 368.155 2215
244.091 369.651 2224
249.41 369.651 2224
254.728 369.651 2224
496.016 507.772 3055
503.321 507.772 3055
510.627 507.772 3055
517.932 507.772 3055
525.237 507.772 3055
532.543 507.772 3055
538.965 506.941 3050
545.184 505.944 3044
550.466 504.115 3033
555.696 502.287 3022
562.923 502.287 3022
568.074 500.459 3011
575.274 500.459 3011
582.475 500.459 3011
589.675 500.459 3011
596.875 500.459 3011
606.282 502.287 3022
613.509 502.287 3022
620.735 502.287 3022
627.962 502.287 3022
635.188 502.287 3022
641.352 501.456 3017
648.566 501.456 3017
650.999 497.799 2995
657.062 496.968 2990
664.212 496.968 2990
672.485 497.799 2995
679.647 497.799 2995
686.809 497.799 2995
696.519 499.628 3006
703.708 499.628 3006
710.896 499.628 3006
718.084 499.628 3006
725.273 499.628 3006
732.461 499.628 3006
740.879 500.459 3011
748.08 500.459 3011
755.28 500.459 3011
763.999 501.456 3017
771.214 501.456 3017
778.428 501.456 3017
788.508 503.284 3028
795.748 503.284 3028
802.989 503.284 3028
810.23 503.284 3028
817.471 503.284 3028
827.708 505.113 3039
834.975 505.113 3039
842.242 505.113 3039
849.509 505.113 3039
856.776 505.113 3039
865.465 505.944 3044
872.744 505.944 3044
880.023 505.944 3044
887.303 505.944 3044
894.582 505.944 3044
903.638 506.941 3050
910.932 506.941 3050
918.225 506.941 3050
935.836 512.592 3084
946.575 514.42 3095
953.976 514.42 3095
966.658 517.246 3112
998.515 530.21 3190
1011.82 533.202 3208
1019.49 533.202 3208
1045.41 542.676 3265
1071.93 552.316 3323
1090.93 557.967 3357
1098.95 557.967 3357
1113.58 561.292 3377
1128.63 564.782 3398
1155.49 574.09 3454
1163.75 574.09 3454
1179.47 577.746 3476
1197.69 582.567 3505
1208.48 583.73 3512
1216.88 583.73 3512
1228.07 585.06 3520
1236.49 585.06 3520
1244.91 585.06 3520
1253.32 585.06 3520
1261.74 585.06 3520
1270.16 585.06 3520
1283.66 587.387 3534
1292.11 587.387 3534
1303.51 588.716 3542
1314.57 589.88 3549
1323.06 589.88 3549
1331.54 589.88 3549
1343.05 591.209 3557
1351.56 591.209 3557
1360.06 591.209 3557
1368.57 591.209 3557
1377.07 591.209 3557
1382.46 589.88 3549
1390.95 589.88 3549
1390.76 586.223 3527
1387.29 581.237 3497
1384.08 576.417 3468
1364.27 564.782 3398
1372.4 564.782 3398
1371.99 561.292 3377
1366.17 555.641 3343
1368.82 553.48 3330
1376.78 553.48 3330
1368.11 546.831 3290
1375.98 546.831 3290
1381.32 545.834 3284
1381.14 542.676 3265
1388.95 542.676 3265
1391.19 540.515 3252
1398.97 540.515 3252
1404.15 539.518 3246
1411.91 539.518 3246
1419.68 539.518 3246
1427.44 539.518 3246
1435.2 539.518 3246
1445.63 540.515 3252
1453.41 540.515 3252
1461.18 540.515 3252
1468.96 540.515 3252
1476.74 540.515 3252
1484.51 540.515 3252
1486.32 538.355 3239
1491.3 537.357 3233
1499.03 537.357 3233
1501.17 535.363 3221
1505.59 534.199 3214
1510.45 533.202 3208
1503.93 528.216 3178
1511.53 528.216 3178
1507.66 524.227 3154
1500.79 519.24 3124
1488.94 512.592 3084
1496.32 512.592 3084
1489.55 507.772 3055
1483.63 503.284 3028
1464.28 494.309 2974
1455.56 488.99 2942
1462.6 488.99 2942
1451.65 483.007 2906
1446.05 478.851 2881
1445.38 476.358 2866
1452.23 476.358 2866
1457.05 475.693 2862
1458.78 474.031 2852
1465.6 474.031 2852
1472.42 474.031 2852
1476.64 473.2 2847
1480.85 472.369 2842
1482.41 470.707 2832
1489.18 470.707 2832
1495.95 470.707 2832
1502.72 470.707 2832
1509.5 470.707 2832
1514.13 470.042 2828
1520.89 470.042 2828
1524.95 469.211 2823
1528.99 468.38 2818
1533 467.549 2813
1539.73 467.549 2813
1544.26 466.884 2809
1548.21 466.053 2804
1549.37 464.391 2794
1556.05 464.391 2794
1562.74 464.391 2794
1567.17 463.726 2790
1573.84 463.726 2790
1582.78 464.391 2794
1592.3 465.222 2799
1599 465.222 2799
1605.69 465.222 2799
1615.26 466.053 2804
1621.97 466.053 2804
1628.68 466.053 2804
1635.38 466.053 2804
1642.09 466.053 2804
1654.08 467.549 2813
1660.81 467.549 2813
1670.5 468.38 2818
1677.24 468.38 2818
1683.98 468.38 2818
1690.72 468.38 2818
1697.46 468.38 2818
1704.19 468.38 2818
1713.97 469.211 2823
1720.72 469.211 2823
1727.47 469.211 2823
1734.22 469.211 2823
1737.89 468.38 2818
1744.63 468.38 2818
1751.36 468.38 2818
1758.1 468.38 2818
1764.84 468.38 2818
1771.58 468.38 2818
1778.32 468.38 2818
1781.89 467.549 2813
1786.07 466.884 2809
1792.79 466.884 2809
1796.31 466.053 2804
1803.01 466.053 2804
1806.49 465.222 2799
1809.94 464.391 2794
1816.62 464.391 2794
1820.7 463.726 2790
1827.37 463.726 2790
1834.04 463.726 2790
1840.71 463.726 2790
1840.76 462.064 2780
1847.41 462.064 2780
1851.39 461.399 2776
1858.03 461.399 2776
1861.31 460.568 2771
1865.24 459.903 2767
1871.85 459.903 2767
1878.47 459.903 2767
1881.68 459.072 2762
1882.13 457.577 2753
1888.72 457.577 2753
1898.05 458.241 2757
1904.65 458.241 2757
1911.24 458.241 2757
1915.05 457.577 2753
1921.63 457.577 2753
1928.22 457.577 2753
1934.8 457.577 2753
1941.38 457.577 2753
1947.97 457.577 2753
1960.94 459.072 2762
1967.54 459.072 2762
1974.15 459.072 2762
1980.75 459.072 2762
1987.36 459.072 2762
1990.35 458.241 2757
1990.43 456.745 2748
1994.09 456.081 2744
1994.09 454.585 2735
2007.21 456.081 2744
2013.78 456.081 2744
2020.34 456.081 2744
2026.9 456.081 2744
2033.46 456.081 2744
2040.02 456.081 2744
2063.74 459.903 2767
2070.36 459.903 2767
2079.98 460.568 2771
2086.6 460.568 2771
2093.23 460.568 2771
2099.85 460.568 2771
2106.48 460.568 2771
2113.11 460.568 2771
2112.85 459.072 2762
-2139.11 481.706 2857
-2132.27 481.706 2857
-2121.72 480.863 2852
-2100.07 477.491 2832
-2093.3 477.491 2832
-2090.21 478.334 2837
-2083.43 478.334 2837
-2076.64 478.334 2837
-2073.51 479.177 2842
-2066.71 479.177 2842
-2059.91 479.177 2842
-2049.51 478.334 2837
-2036.24 476.817 2828
-2015.84 473.613 2809
-2036.31 480.02 2847
-2029.5 480.02 2847
-2064.61 489.968 2906
-2079.61 495.195 2937
-2072.59 495.195 2937
-2065.56 495.195 2937
-2058.54 495.195 2937
-2051.52 495.195 2937
-2034.05 492.666 2922
-2005.56 487.439 2891
-1988.27 484.91 2876
-1981.4 484.91 2876
-1974.52 484.91 2876
-1967.64 484.91 2876
-1964.17 485.753 2881
-1960.68 486.596 2886
-1953.78 486.596 2886
-1946.88 486.596 2886
-1939.98 486.596 2886
-1933.08 486.596 2886
-1936.19 489.125 2901
-1929.25 489.125 2901
-1928.94 490.811 2911
-1925.94 491.823 2917
-1918.96 491.823 2917
-1911.99 491.823 2917
-1901.09 490.811 2911
-1894.13 490.811 2911
-1907.27 496.038 2942
-1900.23 496.038 2942
-1909.93 500.422 2968
-1944.5 511.381 3033
-1944.28 513.236 3044
-1937 513.236 3044
-1947.47 517.957 3072
-1969.18 525.712 3118
-1961.72 525.712 3118
-1965.54 528.747 3136
-1958.05 528.747 3136
-1950.55 528.747 3136
-1943.05 528.747 3136
-1946.66 531.782 3154
-1953.87 535.829 3178
-1960.97 539.875 3202
-1953.31 539.875 3202
-1945.66 539.875 3202
-1938 539.875 3202
-1930.34 539.875 3202
-1919.08 538.864 3196
-1911.44 538.864 3196
-1922.26 544.09 3227
-1944.8 552.689 3278
-1936.97 552.689 3278
-1955.61 560.277 3323
-1951.77 561.457 3330
-1963.07 567.021 3363
-1955.02 567.021 3363
-1963.19 571.742 3391
-1975.26 577.643 3426
-1983.15 582.364 3454
-1974.89 582.364 3454
-1991.11 589.614 3497
-1995.79 593.492 3520
-1995.28 595.852 3534
-1986.82 595.852 3534
-1982.85 597.201 3542
-1978.28 598.381 3549
-1982.56 602.259 3572
-1974.02 602.259 3572
-1965.48 602.259 3572
-1956.94 602.259 3572
-1948.4 602.259 3572
-1939.85 602.259 3572
-1935.64 603.608 3580
-1931.38 604.957 3588
-1926.56 606.137 3595
-1917.96 606.137 3595
-1909.36 606.137 3595
-1904.99 607.486 3603
-1896.38 607.486 3603
-1887.76 607.486 3603
-1879.15 607.486 3603
-1874.68 608.835 3611
-1866.05 608.835 3611
-1857.41 608.835 3611
-1848.78 608.835 3611
-1840.14 608.835 3611
-1831.51 608.835 3611
-1822.87 608.835 3611
-1810.22 607.486 3603
-1801.6 607.486 3603
-1792.99 607.486 3603
-1784.37 607.486 3603
-1775.76 607.486 3603
-1767.14 607.486 3603
-1762.43 608.835 3611
-1753.79 608.835 3611
-1752.89 611.533 3627
-1751.43 614.062 3642
-1750.38 616.759 3658
-1741.63 616.759 3658
-1744.73 620.975 3683
-1747.23 625.021 3707
-1758.06 632.103 3749
-1749.1 632.103 3749
-1751.74 636.318 3774
-1742.71 636.318 3774
-1733.69 636.318 3774
-1724.66 636.318 3774
-1712 634.969 3766
-1726.51 643.736 3818
-1717.38 643.736 3818
-1708.25 643.736 3818
-1699.12 643.736 3818
-1689.99 643.736 3818
-1680.86 643.736 3818
-1663.85 640.701 3800
-1639.96 634.969 3766
-1605.4 625.021 3707
-1568.54 614.062 3642
-1559.83 614.062 3642
-1544.73 611.533 3627
-1516.16 603.608 3580
-1488.22 595.852 3534
-1479.77 595.852 3534
-1462.16 592.143 3512
-1441.76 587.253 3483
-1424.38 583.544 3461
-1416.1 583.544 3461
-1390.74 576.463 3419
-1376.9 574.102 3405
-1368.76 574.102 3405
-1360.62 574.102 3405
-1341.35 569.381 3377
-1317.49 562.637 3337
-1306.76 561.457 3330
-1298.8 561.457 3330
-1290.83 561.457 3330
-1277.86 559.265 3317
-1267.25 558.085 3310
-1264.28 560.277 3323
-1256.34 560.277 3323
-1248.39 560.277 3323
-1238.2 559.265 3317
-1225.08 556.904 3303
-1234.5 564.829 3350
-1226.49 564.829 3350
-1218.48 564.829 3350
-1210.47 564.829 3350
-1202.46 564.829 3350
-1194.45 564.829 3350
-1181.83 562.637 3337
-1173.85 562.637 3337
-1165.87 562.637 3337
-1157.89 562.637 3337
-1149.91 562.637 3337
-1141.93 562.637 3337
-1133.95 562.637 3337
-1123.61 561.457 3330
-1098.23 552.689 3278
-980.284 496.881 2947
-973.236 496.881 2947
-966.189 496.881 2947
-959.142 496.881 2947
-938.849 489.968 2906
-930.296 489.125 2901
-923.359 489.125 2901
-910.104 485.753 2881
-903.215 485.753 2881
-897.881 486.596 2886
-895.611 489.125 2901
-888.673 489.125 2901
-881.736 489.125 2901
-874.799 489.125 2901
-867.862 489.125 2901
-859.441 488.282 2896
-852.516 488.282 2896
-849.97 490.811 2911
-846.195 492.666 2922
-839.207 492.666 2922
-832.22 492.666 2922
-823.82 491.823 2917
-815.165 490.811 2911
-808.204 490.811 2911
-801.243 490.811 2911
-792.917 489.968 2906
-785.968 489.968 2906
-781.968 491.823 2917
-774.992 491.823 2917
-769.333 492.666 2922
-764.955 494.352 2932
-757.944 494.352 2932
-750.932 494.352 2932
-741.384 492.666 2922
-734.396 492.666 2922
-727.409 492.666 2922
-628.579 582.364 3454
-634.687 595.852 3534
-626.236 595.852 3534
-619.183 597.201 3542
-610.713 597.201 3542
-602.243 597.201 3542
-593.773 597.201 3542
-589.104 601.079 3565
-580.579 601.079 3565
-572.054 601.079 3565
-565.9 603.608 3580
-559.674 606.137 3595
-551.078 606.137 3595
-542.481 606.137 3595
-535.072 607.486 3603
-528.794 610.184 3619
-523.446 614.062 3642
-514.737 614.062 3642
-506.028 614.062 3642
-497.319 614.062 3642
-488.609 614.062 3642
-479.9 614.062 3642
-471.191 614.062 3642
-462.482 614.062 3642
-453.773 614.062 3642
-445.064 614.062 3642
-441.267 620.975 3683
-433.399 622.323 3691
-426.413 625.021 3707
-417.549 625.021 3707
-409.676 626.539 3716
-402.516 629.236 3732
-395.385 632.103 3749
-386.42 632.103 3749
-377.455 632.103 3749
-370.16 634.969 3766
-361.922 636.318 3774
-352.897 636.318 3774
-344.693 637.835 3783
-337.155 640.701 3800
-329.622 643.736 3818
-320.492 643.736 3818
-312.748 646.603 3835
-304.29 648.12 3844
-295.098 648.12 3844
-285.905 648.12 3844
-276.713 648.12 3844
-265.712 643.736 3818
-256.582 643.736 3818
-245.767 639.353 3792
-236.137 637.835 3783
-224.509 630.585 3740
-126.515 370.089 2195
-121.266 370.089 2195
-116.017 370.089 2195
-110.769 370.089 2195
-105.375 369.584 2192
-100.134 369.584 2192
-94.6322 368.572 2186
-89.323 368.235 2184
-83.9849 367.729 2181
-78.7694 367.729 2181
-73.3517 366.717 2175
-68.2446 367.223 2178
-63.0363 367.223 2178
-57.8281 367.223 2178
-52.6198 367.223 2178
-47.3462 366.717 2175
-42.1452 366.717 2175
-36.9441 366.717 2175
-31.743 366.717 2175
-26.5419 366.717 2175
-21.3408 366.717 2175
-16.1397 366.717 2175
-10.9236 366.211 2172
-5.72175 365.706 2169
-0.535749 366.211 2172
4.6646 366.717 2175
9.86568 366.717 2175
15.0668 366.717 2175
20.2678 366.717 2175
25.5392 367.729 2181
30.9097 369.584 2192
36.1515 369.584 2192
41.3932 369.584 2192
46.6349 369.584 2192
51.8767 369.584 2192
57.0402 369.078 2189
62.2748 369.078 2189
67.5094 369.078 2189
72.7439 369.078 2189
77.9785 369.078 2189
83.099 368.572 2186
88.2456 368.235 2184
93.4682 368.235 2184
98.6908 368.235 2184
104.151 369.078 2189
109.386 369.078 2189
114.62 369.078 2189
119.855 369.078 2189
124.632 367.729 2181
129.669 367.223 2178
134.877 367.223 2178
140.086 367.223 2178
145.094 366.717 2175
150.295 366.717 2175
155.496 366.717 2175
160.475 366.211 2172
165.441 365.706 2169
170.863 366.211 2172
176.3 366.717 2175
181.752 367.223 2178
186.96 367.223 2178
192.168 367.223 2178
197.377 367.223 2178
202.585 367.223 2178
207.793 367.223 2178
213.001 367.223 2178
218.21 367.223 2178
224.033 368.235 2184
229.256 368.235 2184
234.693 368.572 2186
243.104 373.462 2215
248.4 373.462 2215
253.697 373.462 2215
496.016 515.09 3055
503.321 515.09 3055
510.627 515.09 3055
517.932 515.09 3055
525.237 515.09 3055
532.543 515.09 3055
538.965 514.247 3050
545.184 513.236 3044
550.466 511.381 3033
555.696 509.526 3022
562.923 509.526 3022
570.15 509.526 3022
577.376 509.526 3022
584.603 509.526 3022
591.829 509.526 3022
598.064 508.683 3017
606.282 509.526 3022
615.742 511.381 3033
622.995 511.381 3033
630.247 511.381 3033
637.5 511.381 3033
643.69 510.538 3028
650.931 510.538 3028
655.781 508.683 3017
660.578 506.829 3006
667.766 506.829 3006
674.955 506.829 3006
682.143 506.829 3006
693 509.526 3022
700.227 509.526 3022
708.858 510.538 3028
716.099 510.538 3028
723.34 510.538 3028
730.581 510.538 3028
737.821 510.538 3028
745.062 510.538 3028
752.303 510.538 3028
759.544 510.538 3028
768.051 511.381 3033
775.304 511.381 3033
782.557 511.381 3033
792.674 513.236 3044
799.953 513.236 3044
807.232 513.236 3044
814.511 513.236 3044
826.38 516.102 3061
833.7 516.102 3061
841.02 516.102 3061
848.339 516.102 3061
855.659 516.102 3061
862.979 516.102 3061
870.299 516.102 3061
874.465 514.247 3050
881.758 514.247 3050
890.509 515.09 3055
897.814 515.09 3055
908.675 517.114 3067
916.009 517.114 3067
935.386 523.858 3107
951.616 528.747 3136
959.115 528.747 3136
966.614 528.747 3136
981.568 532.794 3160
1000.39 538.864 3196
1029.8 550.497 3265
1037.61 550.497 3265
1045.41 550.497 3265
1082.9 566.009 3357
1097.43 569.381 3377
1105.5 569.381 3377
1125.12 575.282 3412
1135.6 576.463 3419
1160.17 584.724 3468
1168.46 584.724 3468
1184.22 588.434 3490
1197.69 590.963 3505
1208.48 592.143 3512
1216.88 592.143 3512
1228.07 593.492 3520
1236.49 593.492 3520
1244.91 593.492 3520
1253.32 593.492 3520
1261.74 593.492 3520
1275.21 595.852 3534
1286.57 597.201 3542
1295.04 597.201 3542
1306.08 598.381 3549
1317.53 599.73 3557
1329.02 601.079 3565
1337.54 601.079 3565
1346.07 601.079 3565
1357.25 602.259 3572
1365.8 602.259 3572
1374.34 602.259 3572
1382.88 602.259 3572
1382.46 598.381 3549
1390.95 598.381 3549
1390.76 594.672 3527
1387.29 589.614 3497
1384.08 584.724 3468
1367.08 574.102 3405
1375.22 574.102 3405
1371.99 569.381 3377
1366.17 563.649 3343
1368.82 561.457 3330
1376.78 561.457 3330
1371.02 555.893 3297
1375.98 554.713 3290
1381.32 553.701 3284
1381.14 550.497 3265
1388.95 550.497 3265
1393.76 549.317 3258
1398.97 548.306 3252
1404.15 547.294 3246
1411.91 547.294 3246
1419.68 547.294 3246
1427.44 547.294 3246
1435.2 547.294 3246
1445.63 548.306 3252
1453.41 548.306 3252
1461.18 548.306 3252
1468.96 548.306 3252
1476.74 548.306 3252
1484.51 548.306 3252
1486.32 546.114 3239
1491.3 545.102 3233
1499.03 545.102 3233
1501.17 543.079 3221
1505.59 541.899 3214
1510.45 540.887 3208
1503.93 535.829 3178
1511.53 535.829 3178
1513.39 533.805 3166
1506.55 528.747 3136
1497.15 522.846 3101
1504.57 522.846 3101
1497.84 517.957 3072
1496.86 515.09 3055
1474.62 504.974 2995
1468.43 500.422 2968
1475.52 500.422 2968
1464.64 494.352 2932
1451.07 487.439 2891
1450.42 484.91 2876
1457.3 484.91 2876
1459.08 483.224 2866
1463.89 482.549 2862
1468.17 481.706 2857
1475 481.706 2857
1476.64 480.02 2847
1480.85 479.177 2842
1482.41 477.491 2832
1489.18 477.491 2832
1495.95 477.491 2832
1502.72 477.491 2832
1509.5 477.491 2832
1514.13 476.817 2828
1520.89 476.817 2828
1524.95 475.974 2823
1528.99 475.131 2818
1533 474.288 2813
1539.73 474.288 2813
1544.26 473.613 2809
1548.21 472.77 2804
1549.37 471.084 2794
1556.05 471.084 2794
1562.74 471.084 2794
1567.17 470.41 2790
1573.84 470.41 2790
1582.78 471.084 2794
1592.3 471.927 2799
1599 471.927 2799
1605.69 471.927 2799
1615.26 472.77 2804
1621.97 472.77 2804
1628.68 472.77 2804
1635.38 472.77 2804
1642.09 472.77 2804
1657.02 475.131 2818
1663.76 475.131 2818
1670.5 475.131 2818
1677.24 475.131 2818
1683.98 475.131 2818
1693.72 475.974 2823
1700.47 475.974 2823
1707.22 475.974 2823
1717 476.817 2828
1723.77 476.817 2828
1730.53 476.817 2828
1737.29 476.817 2828
1740.97 475.974 2823
1747.72 475.974 2823
1751.36 475.131 2818
1758.1 475.131 2818
1764.84 475.131 2818
1771.58 475.131 2818
1778.32 475.131 2818
1781.89 474.288 2813
1788.62 474.288 2813
1795.34 474.288 2813
1799.51 473.613 2809
1806.23 473.613 2809
1806.49 471.927 2799
1809.94 471.084 2794
1816.62 471.084 2794
1823.31 471.084 2794
1829.99 471.084 2794
1836.67 471.084 2794
1843.35 471.084 2794
1844.07 469.567 2785
1847.41 468.724 2780
1851.39 468.049 2776
1858.03 468.049 2776
1861.31 467.206 2771
1867.93 467.206 2771
1871.85 466.532 2767
1878.47 466.532 2767
1881.68 465.689 2762
1882.13 464.171 2753
1888.72 464.171 2753
1898.05 464.846 2757
1904.65 464.846 2757
1911.24 464.846 2757
1917.83 464.846 2757
1924.42 464.846 2757
1931.02 464.846 2757
1934.8 464.171 2753
1941.38 464.171 2753
1947.97 464.171 2753
1960.94 465.689 2762
1967.54 465.689 2762
1974.15 465.689 2762
1980.75 465.689 2762
1987.36 465.689 2762
1990.35 464.846 2757
1994.05 464.171 2753
1994.09 462.654 2744
2000.65 462.654 2744
2016.72 464.846 2757
2023.32 464.846 2757
2029.91 464.846 2757
2036.5 464.846 2757
2043.09 464.846 2757
2040.02 462.654 2744
2063.74 466.532 2767
2073.35 467.206 2771
2079.98 467.206 2771
2086.6 467.206 2771
2097 468.049 2776
2103.64 468.049 2776
2110.28 468.049 2776
2113.11 467.206 2771
2119.73 467.206 2771
-2139.11 488.55 2857
-2132.27 488.55 2857
-2121.72 487.695 2852
-2100.07 484.275 2832
-2093.3 484.275 2832
-2093.89 485.985 2842
-2087.1 485.985 2842
-2080.3 485.985 2842
-2073.51 485.985 2842
-2077.62 488.55 2857
-2070.79 488.55 2857
-2063.95 488.55 2857
-2057.12 488.55 2857
-2056.75 490.089 2866
-2067.78 494.364 2891
-2060.86 494.364 2891
-2064.61 496.929 2906
-2171.66 524.461 3067
-2164.32 524.461 3067
-2156.99 524.461 3067
-2125.82 518.646 3033
-2118.57 518.646 3033
-2047.97 503.085 2942
-2037.47 502.23 2937
-2030.45 502.23 2937
-1995.18 495.219 2896
-1988.25 495.219 2896
-1981.33 495.219 2896
-1977.81 496.074 2901
-1974.27 496.929 2906
-1967.32 496.929 2906
-1960.37 496.929 2906
-1943.34 494.364 2891
-1943.12 496.074 2901
-1942.86 497.784 2911
-1935.9 497.784 2911
-1932.91 498.81 2917
-1932.54 500.52 2927
-1925.54 500.52 2927
-1918.54 500.52 2927
-1914.81 501.375 2932
-1927.97 506.676 2963
-1955.89 515.91 3017
-1948.68 515.91 3017
-1955.62 519.672 3039
-1969.51 525.316 3072
-1962.16 525.316 3072
-1973.27 530.275 3101
-1976.63 533.182 3118
-1988.12 538.312 3148
-1980.59 538.312 3148
-1980.59 540.364 3160
-1973.03 540.364 3160
-1965.47 540.364 3160
-1957.92 540.364 3160
-1961.47 543.442 3178
-1968.63 547.546 3202
-1964.64 548.572 3208
-1956.97 548.572 3208
-1957.2 550.795 3221
-1949.5 550.795 3221
-1941.8 550.795 3221
-1926.29 548.572 3208
-1929.98 551.821 3227
-1933.58 555.07 3246
-1971.5 568.237 3323
-1963.56 568.237 3323
-1971.5 572.854 3350
-1983.42 578.668 3384
-1983.5 581.062 3398
-1975.37 581.062 3398
-1987.51 587.047 3433
-1995.44 591.835 3461
-2003.82 596.794 3490
-1995.47 596.794 3490
-2004.21 601.924 3520
-2008.26 605.686 3542
-2003.74 606.883 3549
-1995.26 606.883 3549
-1986.77 606.883 3549
-1991.11 610.816 3572
-1987 612.184 3580
-1978.44 612.184 3580
-1969.88 612.184 3580
-1961.32 612.184 3580
-1952.76 612.184 3580
-1944.2 612.184 3580
-1939.96 613.552 3588
-1931.38 613.552 3588
-1926.56 614.749 3595
-1917.96 614.749 3595
-1909.36 614.749 3595
-1900.77 614.749 3595
-1892.17 614.749 3595
-1883.57 614.749 3595
-1879.15 616.117 3603
-1870.53 616.117 3603
-1861.92 616.117 3603
-1853.3 616.117 3603
-1844.68 616.117 3603
-1836.07 616.117 3603
-1827.45 616.117 3603
-1818.84 616.117 3603
