ply
format ascii 1.0
comment File generated
element vertex 2164
property float x
property float y
property float z
end_header
-2919.11 -1002.68 4001
-2909.54 -1002.68 4001
-2899.97 -1002.68 4001
-2890.4 -1002.68 4001
-2880.84 -1002.68 4001
-2864.09 -1000.18 3991
-2848.11 -997.923 3982
-2838.59 -997.923 3982
-2835.46 -1000.18 3991
-2825.92 -1000.18 3991
-2829.78 -1004.94 4010
-2820.19 -1004.94 4010
-2810.6 -1004.94 4010
-2801.01 -1004.94 4010
-2791.42 -1004.94 4010
-2742.29 -990.655 3953
-2732.84 -990.655 3953
-2679.3 -974.616 3889
-2639.1 -963.339 3844
-2588.17 -948.052 3783
-2602.99 -956.823 3818
-2593.86 -956.823 3818
-2584.73 -956.823 3818
-2563.46 -952.312 3800
-2554.37 -952.312 3800
-2527.87 -945.796 3774
-1385.71 -961.083 3835
-1376.54 -961.083 3835
-1367.37 -961.083 3835
-1358.2 -961.083 3835
-1349.03 -961.083 3835
-1339.86 -961.083 3835
-1330.69 -961.083 3835
-1321.52 -961.083 3835
-1315.43 -963.339 3844
-1309.29 -965.594 3853
-1300.08 -965.594 3853
-1290.87 -965.594 3853
-1290.63 -972.361 3880
-1287.3 -976.872 3898
-1277.98 -976.872 3898
-1268.66 -976.872 3898
-1262.24 -979.127 3907
-1255.79 -981.383 3916
-1246.42 -981.383 3916
-1239.9 -983.638 3925
-1230.52 -983.638 3925
-1221.13 -983.638 3925
-1211.74 -983.638 3925
-1202.36 -983.638 3925
-248.578 -541.565 2161
-243.411 -541.565 2161
-238.243 -541.565 2161
-232.428 -540.061 2155
-227.275 -540.061 2155
-221.916 -539.56 2153
-216.767 -539.56 2153
-211.029 -538.056 2147
-205.895 -538.056 2147
-200.761 -538.056 2147
-195.353 -537.304 2144
-190.226 -537.304 2144
-185.099 -537.304 2144
-179.972 -537.304 2144
-174.845 -537.304 2144
-169.56 -536.803 2142
-164.208 -536.051 2139
-159.093 -536.051 2139
-153.978 -536.051 2139
-148.306 -534.047 2131
-143.21 -534.047 2131
-138.114 -534.047 2131
-132.644 -532.543 2125
-127.382 -531.791 2122
-122.192 -531.29 2120
-117.123 -531.29 2120
-112.053 -531.29 2120
-106.832 -530.538 2117
-101.77 -530.538 2117
-96.7076 -530.538 2117
-91.6452 -530.538 2117
-86.4601 -529.786 2114
-81.4049 -529.786 2114
-76.3497 -529.786 2114
-71.1258 -528.533 2109
-65.9259 -527.28 2104
-60.8946 -527.28 2104
-55.8633 -527.28 2104
-50.832 -527.28 2104
-45.8007 -527.28 2104
-40.7694 -527.28 2104
-35.7381 -527.28 2104
-30.7068 -527.28 2104
-25.6755 -527.28 2104
-20.6147 -526.528 2101
-15.5906 -526.528 2101
-10.5665 -526.528 2101
-5.53445 -525.776 2098
-0.517003 -525.275 2096
4.49517 -525.275 2096
9.50734 -525.275 2096
14.5195 -525.275 2096
19.5317 -525.275 2096
24.5439 -525.275 2096
29.556 -525.275 2096
34.5682 -525.275 2096
39.5804 -525.275 2096
44.6351 -525.776 2098
49.652 -525.776 2098
54.669 -525.776 2098
59.686 -525.776 2098
64.7954 -526.528 2101
69.8196 -526.528 2101
74.8437 -526.528 2101
79.8678 -526.528 2101
84.7707 -525.776 2098
89.7877 -525.776 2098
94.9402 -526.528 2101
99.9643 -526.528 2101
105.138 -527.28 2104
110.17 -527.28 2104
115.201 -527.28 2104
120.232 -527.28 2104
125.264 -527.28 2104
130.295 -527.28 2104
135.326 -527.28 2104
140.357 -527.28 2104
145.181 -526.528 2101
150.206 -526.528 2101
155.451 -527.28 2104
160.483 -527.28 2104
165.514 -527.28 2104
170.302 -526.528 2101
175.326 -526.528 2101
180.093 -525.776 2098
185.11 -525.776 2098
190.127 -525.776 2098
195.144 -525.776 2098
200.161 -525.776 2098
205.471 -526.528 2101
210.796 -527.28 2104
215.827 -527.28 2104
220.858 -527.28 2104
226.104 -527.781 2106
231.47 -528.533 2109
236.513 -528.533 2109
241.9 -529.285 2112
246.95 -529.285 2112
252.239 -529.786 2114
257.66 -530.538 2117
262.722 -530.538 2117
267.784 -530.538 2117
273.233 -531.29 2120
278.303 -531.29 2120
283.373 -531.29 2120
288.442 -531.29 2120
293.512 -531.29 2120
298.581 -531.29 2120
304.367 -532.543 2125
309.449 -532.543 2125
314.53 -532.543 2125
319.612 -532.543 2125
324.693 -532.543 2125
329.775 -532.543 2125
335.329 -533.295 2128
340.418 -533.295 2128
345.506 -533.295 2128
350.595 -533.295 2128
355.684 -533.295 2128
359.755 -531.791 2122
364.829 -531.791 2122
725.24 -939.531 3749
734.205 -939.531 3749
751.694 -950.307 3792
762.367 -952.312 3800
773.281 -954.567 3809
782.389 -954.567 3809
798.771 -963.339 3844
828.982 -988.4 3944
846.491 -997.923 3982
856.013 -997.923 3982
869.665 -1002.68 4001
885.605 -1009.95 4030
901.685 -1017.22 4059
911.391 -1017.22 4059
923.367 -1019.73 4069
933.097 -1019.73 4069
945.144 -1022.23 4079
954.898 -1022.23 4079
964.652 -1022.23 4079
974.406 -1022.23 4079
984.161 -1022.23 4079
993.915 -1022.23 4079
1001.21 -1019.73 4069
1010.94 -1019.73 4069
1020.67 -1019.73 4069
1020.52 -1009.95 4030
1020.19 -1000.18 3991
1027.41 -997.923 3982
1036.93 -997.923 3982
994.16 -948.052 3783
1003.21 -948.052 3783
989.776 -927 3699
998.621 -927 3699
1007.47 -927 3699
1016.31 -927 3699
1424.98 -945.796 3774
1434.01 -945.796 3774
1443.03 -945.796 3774
1448.98 -943.791 3766
1444.82 -935.271 3732
1453.75 -935.271 3732
1462.67 -935.271 3732
1471.6 -935.271 3732
1464.26 -924.996 3691
1469.89 -922.991 3683
1478.7 -922.991 3683
1497.2 -929.005 3707
1506.06 -929.005 3707
1525.14 -935.271 3732
1534.07 -935.271 3732
1542.99 -935.271 3732
1551.92 -935.271 3732
1550.38 -929.005 3707
1555.88 -927 3699
1564.73 -927 3699
1559.96 -918.981 3667
1568.73 -918.981 3667
-2919.11 -993.1 4001
-2909.54 -993.1 4001
-2899.97 -993.1 4001
-2890.4 -993.1 4001
-2880.84 -993.1 4001
-2864.09 -990.618 3991
-2848.11 -988.384 3982
-2838.59 -988.384 3982
-2835.46 -990.618 3991
-2825.92 -990.618 3991
-2829.78 -995.334 4010
-2827.22 -997.816 4020
-2817.61 -997.816 4020
-2808 -997.816 4020
-2798.39 -997.816 4020
-2755.47 -985.902 3972
-2745.98 -985.902 3972
-2691.7 -969.768 3907
-2657.64 -960.832 3871
-2623.75 -951.896 3835
-2632.99 -958.598 3862
-2623.75 -958.598 3862
-2614.52 -958.598 3862
-2593.14 -954.13 3844
-2583.95 -954.13 3844
-2551.31 -945.443 3809
-2536.2 -943.209 3800
-1385.71 -951.896 3835
-1376.54 -951.896 3835
-1367.37 -951.896 3835
-1358.2 -951.896 3835
-1349.03 -951.896 3835
-1339.86 -951.896 3835
-1330.69 -951.896 3835
-1321.52 -951.896 3835
-1315.43 -954.13 3844
-1309.29 -956.364 3853
-1300.08 -956.364 3853
-1299.91 -963.066 3880
-1293.63 -965.3 3889
-1290.27 -969.768 3907
-1280.93 -969.768 3907
-1271.59 -969.768 3907
-1262.24 -969.768 3907
-1255.79 -972.002 3916
-1246.42 -972.002 3916
-1239.9 -974.236 3925
-1230.52 -974.236 3925
-1221.13 -974.236 3925
-1211.74 -974.236 3925
-1202.36 -974.236 3925
-255.037 -539.118 2172
-249.843 -539.118 2172
-244.65 -539.118 2172
-238.243 -536.388 2161
-232.752 -535.643 2158
-227.591 -535.643 2158
-221.916 -534.402 2153
-216.767 -534.402 2153
-211.029 -532.913 2147
-205.895 -532.913 2147
-200.761 -532.913 2147
-195.353 -532.168 2144
-190.226 -532.168 2144
-185.099 -532.168 2144
-179.972 -532.168 2144
-174.845 -532.168 2144
-169.56 -531.672 2142
-164.208 -530.927 2139
-159.093 -530.927 2139
-153.978 -530.927 2139
-148.306 -528.942 2131
-143.21 -528.942 2131
-138.114 -528.942 2131
-132.831 -528.197 2128
-127.382 -526.708 2122
-122.308 -526.708 2122
-117.233 -526.708 2122
-112.053 -526.211 2120
-106.984 -526.211 2120
-101.77 -525.467 2117
-96.7076 -525.467 2117
-91.6452 -525.467 2117
-86.5828 -525.467 2117
-81.4049 -524.722 2114
-76.3497 -524.722 2114
-71.1258 -523.481 2109
-65.9259 -522.24 2104
-60.8946 -522.24 2104
-55.8633 -522.24 2104
-50.832 -522.24 2104
-45.8007 -522.24 2104
-40.7694 -522.24 2104
-35.7381 -522.24 2104
-30.7068 -522.24 2104
-25.6755 -522.24 2104
-20.6147 -521.495 2101
-15.5906 -521.495 2101
-10.5665 -521.495 2101
-5.53445 -520.751 2098
-0.517003 -520.254 2096
4.49517 -520.254 2096
9.50734 -520.254 2096
14.5195 -520.254 2096
19.5317 -520.254 2096
24.5439 -520.254 2096
29.556 -520.254 2096
34.5682 -520.254 2096
39.5804 -520.254 2096
44.6351 -520.751 2098
49.652 -520.751 2098
54.669 -520.751 2098
59.686 -520.751 2098
64.7954 -521.495 2101
69.8196 -521.495 2101
74.8437 -521.495 2101
79.8678 -521.495 2101
84.7707 -520.751 2098
89.7877 -520.751 2098
94.9402 -521.495 2101
99.9643 -521.495 2101
105.138 -522.24 2104
110.17 -522.24 2104
115.201 -522.24 2104
120.232 -522.24 2104
125.264 -522.24 2104
130.295 -522.24 2104
135.326 -522.24 2104
140.357 -522.24 2104
145.181 -521.495 2101
150.206 -521.495 2101
155.451 -522.24 2104
160.483 -522.24 2104
165.514 -522.24 2104
170.302 -521.495 2101
175.326 -521.495 2101
180.093 -520.751 2098
185.11 -520.751 2098
190.127 -520.751 2098
195.144 -520.751 2098
200.161 -520.751 2098
205.471 -521.495 2101
210.796 -522.24 2104
216.032 -522.736 2106
221.068 -522.736 2106
226.104 -522.736 2106
231.47 -523.481 2109
236.849 -524.226 2112
241.9 -524.226 2112
246.95 -524.226 2112
252.239 -524.722 2114
257.66 -525.467 2117
262.722 -525.467 2117
267.784 -525.467 2117
273.233 -526.211 2120
278.303 -526.211 2120
283.373 -526.211 2120
288.442 -526.211 2120
293.512 -526.211 2120
298.863 -526.708 2122
304.367 -527.452 2125
309.449 -527.452 2125
314.53 -527.452 2125
319.612 -527.452 2125
324.693 -527.452 2125
329.775 -527.452 2125
335.329 -528.197 2128
340.418 -528.197 2128
345.506 -528.197 2128
350.595 -528.197 2128
355.684 -528.197 2128
359.755 -526.708 2122
364.829 -526.708 2122
725.24 -930.55 3749
734.205 -930.55 3749
751.694 -941.223 3792
762.367 -943.209 3800
773.281 -945.443 3809
782.389 -945.443 3809
798.771 -954.13 3844
828.982 -978.952 3944
840.326 -981.186 3953
849.779 -981.186 3953
869.665 -993.1 4001
885.605 -1000.3 4030
899.463 -1005.01 4049
909.146 -1005.01 4049
923.367 -1009.98 4069
933.097 -1009.98 4069
945.144 -1012.46 4079
954.898 -1012.46 4079
964.652 -1012.46 4079
974.406 -1012.46 4079
984.161 -1012.46 4079
993.915 -1012.46 4079
1001.21 -1009.98 4069
1010.94 -1009.98 4069
1020.67 -1009.98 4069
1020.52 -1000.3 4030
1020.19 -990.618 3991
1027.41 -988.384 3982
1036.93 -988.384 3982
994.16 -938.989 3783
1003.21 -938.989 3783
989.776 -918.139 3699
998.621 -918.139 3699
1007.47 -918.139 3699
1016.31 -918.139 3699
1424.98 -936.755 3774
1434.01 -936.755 3774
1443.03 -936.755 3774
1448.98 -934.77 3766
1444.82 -926.331 3732
1453.75 -926.331 3732
1462.67 -926.331 3732
1471.6 -926.331 3732
1461.08 -914.168 3683
1463.5 -910.197 3667
1478.7 -914.168 3683
1490.73 -916.154 3691
1499.56 -916.154 3691
1525.14 -926.331 3732
1534.07 -926.331 3732
1542.99 -926.331 3732
1551.92 -926.331 3732
1547.04 -918.139 3699
1545.79 -912.182 3675
1554.58 -912.182 3675
1559.96 -910.197 3667
1558.04 -903.991 3642
-2919.11 -983.515 4001
-2909.54 -983.515 4001
-2899.97 -983.515 4001
-2890.4 -983.515 4001
-2880.84 -983.515 4001
-2864.09 -981.057 3991
-2848.11 -978.845 3982
-2838.59 -978.845 3982
-2835.46 -981.057 3991
-2825.92 -981.057 3991
-2829.78 -985.728 4010
-2827.22 -988.186 4020
-2817.61 -988.186 4020
-2808 -988.186 4020
-2798.39 -988.186 4020
-2755.47 -976.387 3972
-2745.98 -976.387 3972
-2691.7 -960.409 3907
-2670 -955.984 3889
-2648.38 -951.559 3871
-2645.26 -953.771 3880
-2635.98 -953.771 3880
-2626.7 -953.771 3880
-2611.35 -951.559 3871
-2602.1 -951.559 3871
-2586.81 -949.347 3862
-2548.21 -938.531 3818
-1385.71 -942.71 3835
-1376.54 -942.71 3835
-1367.37 -942.71 3835
-1358.2 -942.71 3835
-1349.03 -942.71 3835
-1339.86 -942.71 3835
-1327.57 -940.497 3826
-1321.52 -942.71 3835
-1315.43 -944.922 3844
-1309.29 -947.134 3853
-1300.08 -947.134 3853
-1299.91 -953.771 3880
-1293.63 -955.984 3889
-1290.27 -960.409 3907
-1280.93 -960.409 3907
-1271.59 -960.409 3907
-1262.24 -960.409 3907
-1252.9 -960.409 3907
-1243.56 -960.409 3907
-1237.06 -962.621 3916
-1227.69 -962.621 3916
-1218.33 -962.621 3916
-1208.97 -962.621 3916
-1199.6 -962.621 3916
-255.037 -533.915 2172
-249.843 -533.915 2172
-244.65 -533.915 2172
-238.243 -531.211 2161
-232.752 -530.474 2158
-227.591 -530.474 2158
-221.916 -529.245 2153
-216.767 -529.245 2153
-211.029 -527.77 2147
-205.895 -527.77 2147
-200.761 -527.77 2147
-195.353 -527.032 2144
-190.226 -527.032 2144
-185.099 -527.032 2144
-179.972 -527.032 2144
-174.845 -527.032 2144
-169.56 -526.541 2142
-164.208 -525.803 2139
-159.093 -525.803 2139
-153.978 -525.803 2139
-148.306 -523.837 2131
-143.21 -523.837 2131
-138.114 -523.837 2131
-132.831 -523.099 2128
-127.382 -521.625 2122
-122.308 -521.625 2122
-117.233 -521.625 2122
-112.053 -521.133 2120
-106.984 -521.133 2120
-101.77 -520.395 2117
-96.7076 -520.395 2117
-91.6452 -520.395 2117
-86.5828 -520.395 2117
-81.4049 -519.658 2114
-76.3497 -519.658 2114
-71.1258 -518.429 2109
-65.9259 -517.2 2104
-60.8946 -517.2 2104
-55.8633 -517.2 2104
-50.832 -517.2 2104
-45.8007 -517.2 2104
-40.7694 -517.2 2104
-35.7381 -517.2 2104
-30.7068 -517.2 2104
-25.6755 -517.2 2104
-20.6147 -516.462 2101
-15.5906 -516.462 2101
-10.5665 -516.462 2101
-5.53445 -515.725 2098
-0.517003 -515.233 2096
4.49517 -515.233 2096
9.50734 -515.233 2096
14.5195 -515.233 2096
19.5317 -515.233 2096
24.5439 -515.233 2096
29.556 -515.233 2096
34.5682 -515.233 2096
39.5804 -515.233 2096
44.6351 -515.725 2098
49.652 -515.725 2098
54.669 -515.725 2098
59.686 -515.725 2098
64.7954 -516.462 2101
69.8196 -516.462 2101
74.8437 -516.462 2101
79.8678 -516.462 2101
84.7707 -515.725 2098
89.7877 -515.725 2098
94.8046 -515.725 2098
99.8216 -515.725 2098
104.988 -516.462 2101
110.013 -516.462 2101
115.037 -516.462 2101
120.061 -516.462 2101
125.085 -516.462 2101
130.109 -516.462 2101
135.133 -516.462 2101
140.157 -516.462 2101
145.181 -516.462 2101
150.206 -516.462 2101
155.23 -516.462 2101
160.254 -516.462 2101
165.278 -516.462 2101
170.302 -516.462 2101
175.326 -516.462 2101
180.093 -515.725 2098
185.11 -515.725 2098
190.127 -515.725 2098
195.144 -515.725 2098
200.161 -515.725 2098
205.471 -516.462 2101
210.796 -517.2 2104
216.032 -517.691 2106
221.068 -517.691 2106
226.104 -517.691 2106
231.47 -518.429 2109
236.849 -519.166 2112
241.9 -519.166 2112
246.95 -519.166 2112
252.239 -519.658 2114
257.66 -520.395 2117
262.722 -520.395 2117
267.784 -520.395 2117
273.233 -521.133 2120
278.303 -521.133 2120
283.373 -521.133 2120
288.442 -521.133 2120
293.512 -521.133 2120
298.863 -521.625 2122
304.367 -522.362 2125
309.449 -522.362 2125
314.53 -522.362 2125
320.063 -523.099 2128
325.151 -523.099 2128
330.24 -523.099 2128
335.329 -523.099 2128
340.418 -523.099 2128
345.506 -523.099 2128
350.595 -523.099 2128
355.684 -523.099 2128
360.772 -523.099 2128
365.861 -523.099 2128
733.558 -932.14 3792
742.626 -932.14 3792
753.28 -934.106 3800
769.388 -942.71 3835
778.559 -942.71 3835
787.73 -942.71 3835
800.641 -947.134 3853
819.313 -958.196 3898
840.326 -971.716 3953
849.779 -971.716 3953
867.491 -981.057 3991
881.21 -985.728 4010
895.242 -990.644 4030
904.879 -990.644 4030
914.516 -990.644 4030
926.217 -992.856 4039
942.827 -1000.23 4069
952.557 -1000.23 4069
962.287 -1000.23 4069
972.018 -1000.23 4069
981.748 -1000.23 4069
991.478 -1000.23 4069
1001.21 -1000.23 4069
1005.97 -995.315 4049
1015.65 -995.315 4049
1020.52 -990.644 4030
1020.19 -981.057 3991
1027.41 -978.845 3982
1036.93 -978.845 3982
994.16 -929.927 3783
1003.21 -929.927 3783
989.776 -909.279 3699
998.621 -909.279 3699
1007.47 -909.279 3699
1011.92 -905.345 3683
1428.38 -929.927 3783
1437.43 -929.927 3783
1446.47 -929.927 3783
1448.98 -925.748 3766
1444.82 -917.39 3732
1453.75 -917.39 3732
1462.67 -917.39 3732
1471.6 -917.39 3732
1461.08 -905.345 3683
1463.5 -901.412 3667
1475.48 -903.379 3675
1490.73 -907.312 3691
1499.56 -907.312 3691
1518.6 -913.457 3716
1527.49 -913.457 3716
1536.38 -913.457 3716
1545.26 -913.457 3716
1547.04 -909.279 3699
1545.79 -903.379 3675
1554.58 -903.379 3675
1559.96 -901.412 3667
1555.04 -893.546 3635
-2919.11 -973.931 4001
-2909.54 -973.931 4001
-2899.97 -973.931 4001
-2883.18 -971.497 3991
-2873.64 -971.497 3991
-2864.09 -971.497 3991
-2840.96 -966.872 3972
-2831.46 -966.872 3972
-2835.46 -971.497 3991
-2825.92 -971.497 3991
-2829.78 -976.122 4010
-2827.22 -978.556 4020
-2817.61 -978.556 4020
-2808 -978.556 4020
-2798.39 -978.556 4020
-2755.47 -966.872 3972
-2745.98 -966.872 3972
-2691.7 -951.049 3907
-2670 -946.668 3889
-2648.38 -942.286 3871
-2645.26 -944.477 3880
-2635.98 -944.477 3880
-2626.7 -944.477 3880
-2611.35 -942.286 3871
-2602.1 -942.286 3871
-2586.81 -940.095 3862
-2548.21 -929.385 3818
-1367.37 -933.523 3835
-1358.2 -933.523 3835
-1349.03 -933.523 3835
-1333.92 -929.385 3818
-1327.57 -931.332 3826
-1321.52 -933.523 3835
-1318.51 -937.904 3853
-1312.35 -940.095 3862
-1303.12 -940.095 3862
-1299.91 -944.477 3880
-1296.62 -948.858 3898
-1293.25 -953.24 3916
-1283.88 -953.24 3916
-1274.52 -953.24 3916
-1265.15 -953.24 3916
-1255.79 -953.24 3916
-1246.42 -953.24 3916
-1237.06 -953.24 3916
-1230.52 -955.431 3925
-1221.13 -955.431 3925
-1211.74 -955.431 3925
-1199.6 -953.24 3916
-255.037 -528.712 2172
-249.843 -528.712 2172
-244.65 -528.712 2172
-238.243 -526.035 2161
-232.752 -525.304 2158
-227.591 -525.304 2158
-221.916 -524.087 2153
-216.465 -523.357 2150
-211.029 -522.627 2147
-205.895 -522.627 2147
-200.48 -521.896 2144
-195.353 -521.896 2144
-190.226 -521.896 2144
-185.099 -521.896 2144
-179.972 -521.896 2144
-174.845 -521.896 2144
-169.56 -521.41 2142
-164.208 -520.679 2139
-159.093 -520.679 2139
-153.978 -520.679 2139
-148.445 -519.219 2133
-143.21 -518.732 2131
-138.114 -518.732 2131
-132.831 -518.002 2128
-127.562 -517.271 2125
-122.308 -516.541 2122
-117.233 -516.541 2122
-112.159 -516.541 2122
-106.984 -516.054 2120
-101.914 -516.054 2120
-96.8446 -516.054 2120
-91.775 -516.054 2120
-86.5828 -515.324 2117
-81.4049 -514.594 2114
-76.3497 -514.594 2114
-71.1258 -513.377 2109
-65.9886 -512.646 2106
-60.8946 -512.16 2104
-55.8633 -512.16 2104
-50.832 -512.16 2104
-45.8007 -512.16 2104
-40.7113 -511.429 2101
-35.6871 -511.429 2101
-30.7068 -512.16 2104
-25.6755 -512.16 2104
-20.6442 -512.16 2104
-15.5906 -511.429 2101
-10.5665 -511.429 2101
-5.53445 -510.699 2098
-0.517003 -510.212 2096
4.49517 -510.212 2096
9.50734 -510.212 2096
14.5195 -510.212 2096
19.5317 -510.212 2096
24.5439 -510.212 2096
29.556 -510.212 2096
34.5682 -510.212 2096
39.5804 -510.212 2096
44.6351 -510.699 2098
49.652 -510.699 2098
54.669 -510.699 2098
59.686 -510.699 2098
64.7954 -511.429 2101
69.8196 -511.429 2101
74.8437 -511.429 2101
79.8678 -511.429 2101
84.7707 -510.699 2098
89.7877 -510.699 2098
94.7142 -510.212 2096
99.7264 -510.212 2096
104.839 -510.699 2098
109.855 -510.699 2098
114.872 -510.699 2098
119.889 -510.699 2098
124.906 -510.699 2098
130.109 -511.429 2101
135.133 -511.429 2101
140.157 -511.429 2101
145.181 -511.429 2101
150.206 -511.429 2101
155.23 -511.429 2101
160.254 -511.429 2101
165.278 -511.429 2101
170.302 -511.429 2101
175.326 -511.429 2101
180.093 -510.699 2098
185.11 -510.699 2098
190.127 -510.699 2098
195.423 -511.429 2101
200.447 -511.429 2101
205.764 -512.16 2104
210.796 -512.16 2104
216.032 -512.646 2106
221.068 -512.646 2106
226.426 -513.377 2109
231.799 -514.107 2112
236.849 -514.107 2112
242.129 -514.594 2114
247.184 -514.594 2114
252.239 -514.594 2114
257.66 -515.324 2117
263.094 -516.054 2120
268.164 -516.054 2120
273.233 -516.054 2120
278.303 -516.054 2120
283.64 -516.541 2122
288.714 -516.541 2122
293.789 -516.541 2122
298.863 -516.541 2122
304.367 -517.271 2125
309.449 -517.271 2125
314.974 -518.002 2128
320.063 -518.002 2128
325.61 -518.732 2131
330.706 -518.732 2131
335.802 -518.732 2131
340.897 -518.732 2131
345.993 -518.732 2131
351.089 -518.732 2131
356.185 -518.732 2131
360.772 -518.002 2128
365.861 -518.002 2128
733.558 -923.056 3792
742.626 -923.056 3792
753.28 -925.003 3800
771.194 -935.714 3844
782.213 -937.904 3853
791.427 -937.904 3853
808.121 -946.668 3889
819.313 -948.858 3898
844.365 -966.872 3972
853.863 -966.872 3972
867.491 -971.497 3991
881.21 -976.122 4010
895.242 -980.99 4030
904.879 -980.99 4030
914.516 -980.99 4030
926.217 -983.181 4039
940.51 -988.049 4059
950.216 -988.049 4059
959.922 -988.049 4059
969.629 -988.049 4059
979.335 -988.049 4059
989.041 -988.049 4059
996.287 -985.615 4049
1001.25 -980.99 4030
1010.89 -980.99 4030
1013.18 -973.931 4001
1020.19 -971.497 3991
1022.51 -964.681 3963
1031.99 -964.681 3963
1005.46 -931.332 3826
1003.21 -920.865 3783
989.776 -900.417 3699
989.982 -892.628 3667
998.751 -892.628 3667
1007.52 -892.628 3667
1413.64 -923.056 3792
1422.71 -923.056 3792
1431.78 -923.056 3792
1437.43 -920.865 3783
1446.47 -920.865 3783
1452.06 -918.674 3774
1444.82 -908.45 3732
1453.75 -908.45 3732
1462.67 -908.45 3732
1471.6 -908.45 3732
1464.26 -898.47 3691
1469.89 -896.523 3683
1478.7 -896.523 3683
1490.73 -898.47 3691
1499.56 -898.47 3691
1514.93 -902.365 3707
1523.79 -902.365 3707
1532.65 -902.365 3707
1541.52 -902.365 3707
1543.69 -898.47 3691
1542.42 -892.628 3667
1551.19 -892.628 3667
1552.73 -888.49 3650
1555.04 -884.839 3635
-2919.11 -964.346 4001
-2909.54 -964.346 4001
-2899.97 -964.346 4001
-2883.18 -961.936 3991
-2873.64 -961.936 3991
-2850.46 -957.357 3972
-2840.96 -957.357 3972
-2831.46 -957.357 3972
-2835.46 -961.936 3991
-2825.92 -961.936 3991
-2829.78 -966.516 4010
-2827.22 -968.926 4020
-2817.61 -968.926 4020
-2808 -968.926 4020
-2798.39 -968.926 4020
-2755.47 -957.357 3972
-2745.98 -957.357 3972
-2697.9 -943.859 3916
-2676.17 -939.521 3898
-2654.54 -935.182 3880
-2651.4 -937.352 3889
-2642.1 -937.352 3889
-2632.8 -937.352 3889
-2611.35 -933.013 3871
-2602.1 -933.013 3871
-2592.84 -933.013 3871
-2571.57 -928.675 3853
-1367.37 -924.336 3835
-1358.2 -924.336 3835
-1349.03 -924.336 3835
-1339.86 -924.336 3835
-1330.69 -924.336 3835
-1324.62 -926.505 3844
-1321.59 -930.844 3862
-1315.41 -933.013 3871
-1306.15 -933.013 3871
-1302.93 -937.352 3889
-1299.62 -941.69 3907
-1296.22 -946.029 3925
-1286.83 -946.029 3925
-1277.45 -946.029 3925
-1265.15 -943.859 3916
-1255.79 -943.859 3916
-1246.42 -943.859 3916
-1237.06 -943.859 3916
-1230.52 -946.029 3925
-1221.13 -946.029 3925
-1211.74 -946.029 3925
-1196.84 -941.69 3907
-255.037 -523.509 2172
-249.843 -523.509 2172
-244.65 -523.509 2172
-238.904 -522.304 2167
-233.075 -520.858 2161
-227.908 -520.858 2161
-222.122 -519.412 2155
-216.465 -518.207 2150
-211.029 -517.484 2147
-205.895 -517.484 2147
-200.48 -516.76 2144
-195.626 -517.484 2147
-190.492 -517.484 2147
-185.358 -517.484 2147
-180.224 -517.484 2147
-175.09 -517.484 2147
-169.718 -516.76 2144
-164.438 -516.278 2142
-159.316 -516.278 2142
-153.978 -515.555 2139
-148.654 -514.832 2136
-143.344 -514.109 2133
-138.244 -514.109 2133
-133.018 -513.627 2131
-127.742 -512.904 2128
-122.481 -512.181 2125
-117.399 -512.181 2125
-112.159 -511.458 2122
-107.085 -511.458 2122
-102.01 -511.458 2122
-96.936 -511.458 2122
-91.8616 -511.458 2122
-86.7055 -510.976 2120
-81.4049 -509.53 2114
-76.3497 -509.53 2114
-71.227 -509.048 2112
-65.9886 -507.602 2106
-60.8946 -507.119 2104
-55.8633 -507.119 2104
-50.832 -507.119 2104
-45.8007 -507.119 2104
-40.7113 -506.396 2101
-35.6871 -506.396 2101
-30.7068 -507.119 2104
-25.6755 -507.119 2104
-20.6442 -507.119 2104
-15.5906 -506.396 2101
-10.5665 -506.396 2101
-5.53445 -505.673 2098
-0.517003 -505.191 2096
4.49517 -505.191 2096
9.50734 -505.191 2096
14.5195 -505.191 2096
19.5317 -505.191 2096
24.5087 -504.468 2093
29.556 -505.191 2096
34.5682 -505.191 2096
39.5804 -505.191 2096
44.6351 -505.673 2098
49.652 -505.673 2098
54.669 -505.673 2098
59.686 -505.673 2098
64.7954 -506.396 2101
69.8196 -506.396 2101
74.8437 -506.396 2101
79.8678 -506.396 2101
84.6899 -505.191 2096
89.7021 -505.191 2096
94.7142 -505.191 2096
99.7264 -505.191 2096
104.839 -505.673 2098
109.855 -505.673 2098
114.872 -505.673 2098
119.889 -505.673 2098
124.906 -505.673 2098
130.109 -506.396 2101
135.133 -506.396 2101
140.157 -506.396 2101
145.181 -506.396 2101
150.206 -506.396 2101
155.23 -506.396 2101
160.254 -506.396 2101
165.278 -506.396 2101
170.302 -506.396 2101
175.326 -506.396 2101
180.093 -505.673 2098
185.11 -505.673 2098
190.399 -506.396 2101
195.423 -506.396 2101
200.447 -506.396 2101
205.764 -507.119 2104
210.996 -507.602 2106
216.34 -508.325 2109
221.383 -508.325 2109
226.426 -508.325 2109
231.799 -509.048 2112
237.074 -509.53 2114
242.129 -509.53 2114
247.184 -509.53 2114
252.597 -510.253 2117
257.66 -510.253 2117
263.094 -510.976 2120
268.164 -510.976 2120
273.491 -511.458 2122
278.566 -511.458 2122
283.64 -511.458 2122
288.714 -511.458 2122
293.789 -511.458 2122
299.285 -512.181 2125
304.797 -512.904 2128
309.885 -512.904 2128
314.974 -512.904 2128
320.514 -513.627 2131
325.61 -513.627 2131
330.706 -513.627 2131
336.117 -514.109 2133
341.217 -514.109 2133
346.318 -514.109 2133
351.419 -514.109 2133
356.519 -514.109 2133
361.62 -514.109 2133
366.721 -514.109 2133
371.821 -514.109 2133
733.558 -913.972 3792
742.626 -913.972 3792
756.848 -920.239 3818
771.194 -926.505 3844
784.04 -930.844 3862
793.276 -930.844 3862
809.992 -939.521 3898
828.982 -950.608 3944
844.365 -957.357 3972
853.863 -957.357 3972
867.491 -961.936 3991
881.21 -966.516 4010
895.242 -971.336 4030
904.879 -971.336 4030
914.516 -971.336 4030
926.217 -973.505 4039
940.51 -978.326 4059
950.216 -978.326 4059
959.922 -978.326 4059
969.629 -978.326 4059
979.335 -978.326 4059
989.041 -978.326 4059
996.287 -975.916 4049
1001.25 -971.336 4030
1010.89 -971.336 4030
1013.18 -964.346 4001
1020.19 -961.936 3991
1022.51 -955.188 3963
1031.99 -955.188 3963
1005.46 -922.167 3826
1003.21 -911.803 3783
989.776 -891.557 3699
989.982 -883.844 3667
998.751 -883.844 3667
1007.52 -883.844 3667
1427.89 -935.182 3880
1437.17 -935.182 3880
1446.45 -935.182 3880
1448.98 -930.844 3862
1448.02 -924.336 3835
1437.43 -911.803 3783
1446.47 -911.803 3783
1452.06 -909.633 3774
1444.82 -899.51 3732
1453.75 -899.51 3732
1462.67 -899.51 3732
1471.6 -899.51 3732
1464.26 -889.628 3691
1469.89 -887.7 3683
1478.7 -887.7 3683
1490.73 -889.628 3691
1499.56 -889.628 3691
1514.93 -893.485 3707
1523.79 -893.485 3707
1532.65 -893.485 3707
1541.52 -893.485 3707
1543.69 -889.628 3691
1542.42 -883.844 3667
1551.19 -883.844 3667
1552.73 -879.746 3650
1555.04 -876.131 3635
-2940.26 -961.682 4030
-2930.63 -961.682 4030
-2920.99 -961.682 4030
-2869.45 -947.842 3972
-2859.95 -947.842 3972
-2844 -945.694 3963
-2834.52 -945.694 3963
-2831.46 -947.842 3972
-2821.96 -947.842 3972
-2812.46 -947.842 3972
-2816.37 -952.376 3991
-2827.22 -959.296 4020
-2817.61 -959.296 4020
-2808 -959.296 4020
-2798.39 -959.296 4020
-2755.47 -947.842 3972
-2745.98 -947.842 3972
-2697.9 -934.478 3916
-2676.17 -930.183 3898
-2654.54 -925.888 3880
-2651.4 -928.035 3889
-2642.1 -928.035 3889
-2632.8 -928.035 3889
-2611.35 -923.74 3871
-2602.1 -923.74 3871
-2592.84 -923.74 3871
-2571.57 -919.445 3853
-1367.37 -915.149 3835
-1361.39 -917.297 3844
-1352.2 -917.297 3844
-1343 -917.297 3844
-1333.81 -917.297 3844
-1324.62 -917.297 3844
-1321.59 -921.592 3862
-1315.41 -923.74 3871
-1306.15 -923.74 3871
-1302.93 -928.035 3889
-1299.62 -932.331 3907
-1296.22 -936.626 3925
-1286.83 -936.626 3925
-1277.45 -936.626 3925
-1268.06 -936.626 3925
-1258.67 -936.626 3925
-1249.29 -936.626 3925
-1237.06 -934.478 3916
-1233.65 -939.012 3935
-1224.24 -939.012 3935
-1214.83 -939.012 3935
-1196.84 -932.331 3907
-262.987 -523.795 2195
-257.738 -523.795 2195
-252.489 -523.795 2195
-246.564 -522.363 2189
-239.786 -519.022 2175
-233.722 -517.113 2167
-228.54 -517.113 2167
-222.74 -515.681 2161
-217.27 -514.965 2158
-211.324 -513.056 2150
-206.182 -513.056 2150
-201.041 -513.056 2150
-195.9 -513.056 2150
-190.758 -513.056 2150
-185.617 -513.056 2150
-180.476 -513.056 2150
-175.09 -512.34 2147
-169.956 -512.34 2147
-164.438 -511.147 2142
-159.316 -511.147 2142
-154.193 -511.147 2142
-148.863 -510.431 2139
-143.546 -509.716 2136
-138.438 -509.716 2136
-133.143 -509 2133
-127.922 -508.522 2131
-122.654 -507.806 2128
-117.565 -507.806 2128
-112.318 -507.091 2125
-107.085 -506.375 2122
-102.01 -506.375 2122
-96.936 -506.375 2122
-91.8616 -506.375 2122
-86.7055 -505.897 2120
-81.5204 -505.182 2117
-76.458 -505.182 2117
-71.227 -503.988 2112
-66.0826 -503.272 2109
-60.9525 -502.557 2106
-55.9164 -502.557 2106
-50.832 -502.079 2104
-45.8007 -502.079 2104
-40.7113 -501.363 2101
-35.6871 -501.363 2101
-30.7068 -502.079 2104
-25.6755 -502.079 2104
-20.6442 -502.079 2104
-15.5906 -501.363 2101
-10.5665 -501.363 2101
-5.53445 -500.648 2098
-0.517003 -500.17 2096
4.49517 -500.17 2096
9.50734 -500.17 2096
14.5195 -500.17 2096
19.5317 -500.17 2096
24.5087 -499.454 2093
29.556 -500.17 2096
34.5682 -500.17 2096
39.5804 -500.17 2096
44.6351 -500.648 2098
49.652 -500.648 2098
54.669 -500.648 2098
59.686 -500.648 2098
64.7954 -501.363 2101
69.8196 -501.363 2101
74.8437 -501.363 2101
79.8678 -501.363 2101
84.6899 -500.17 2096
89.7021 -500.17 2096
94.7142 -500.17 2096
99.7264 -500.17 2096
104.839 -500.648 2098
109.855 -500.648 2098
114.872 -500.648 2098
119.889 -500.648 2098
125.085 -501.363 2101
130.109 -501.363 2101
135.133 -501.363 2101
140.157 -501.363 2101
145.181 -501.363 2101
150.206 -501.363 2101
155.23 -501.363 2101
160.254 -501.363 2101
165.278 -501.363 2101
170.302 -501.363 2101
175.326 -501.363 2101
180.093 -500.648 2098
185.11 -500.648 2098
190.399 -501.363 2101
195.702 -502.079 2104
200.733 -502.079 2104
205.764 -502.079 2104
211.297 -503.272 2109
216.34 -503.272 2109
221.383 -503.272 2109
226.426 -503.272 2109
232.018 -504.466 2114
237.074 -504.466 2114
242.129 -504.466 2114
247.184 -504.466 2114
252.597 -505.182 2117
258.025 -505.897 2120
263.343 -506.375 2122
268.417 -506.375 2122
273.491 -506.375 2122
278.959 -507.091 2125
284.041 -507.091 2125
289.122 -507.091 2125
294.204 -507.091 2125
299.285 -507.091 2125
304.797 -507.806 2128
309.885 -507.806 2128
314.974 -507.806 2128
320.514 -508.522 2131
325.915 -509 2133
331.016 -509 2133
336.117 -509 2133
341.217 -509 2133
346.318 -509 2133
351.419 -509 2133
356.519 -509 2133
362.129 -509.716 2136
367.236 -509.716 2136
372.344 -509.716 2136
733.558 -904.888 3792
742.626 -904.888 3792
756.848 -911.093 3818
771.194 -917.297 3844
784.04 -921.592 3862
793.276 -921.592 3862
809.992 -930.183 3898
828.982 -941.16 3944
844.365 -947.842 3972
853.863 -947.842 3972
867.491 -952.376 3991
881.21 -956.91 4010
893.021 -959.296 4020
902.634 -959.296 4020
912.247 -959.296 4020
924.153 -961.682 4030
938.193 -966.216 4049
947.875 -966.216 4049
957.557 -966.216 4049
964.851 -963.83 4039
974.51 -963.83 4039
984.168 -963.83 4039
993.826 -963.83 4039
1001.25 -961.682 4030
1010.89 -961.682 4030
1013.18 -954.762 4001
1017.89 -950.228 3982
1017.61 -941.16 3944
1027.04 -941.16 3944
1005.46 -913.002 3826
994.19 -894.627 3749
983.354 -876.968 3675
987.552 -872.912 3658
996.3 -872.912 3658
1005.05 -872.912 3658
1427.89 -925.888 3880
1437.17 -925.888 3880
1446.45 -925.888 3880
1448.98 -921.592 3862
1448.02 -915.149 3835
1437.43 -902.741 3783
1446.47 -902.741 3783
1452.06 -900.593 3774
1444.82 -890.57 3732
1453.75 -890.57 3732
1462.67 -890.57 3732
1471.6 -890.57 3732
1464.26 -880.786 3691
1469.89 -878.877 3683
1478.7 -878.877 3683
1490.73 -880.786 3691
1499.56 -880.786 3691
1514.93 -884.605 3707
1523.79 -884.605 3707
1532.65 -884.605 3707
1541.52 -884.605 3707
1540.35 -878.877 3683
1535.27 -871.003 3650
1544 -871.003 3650
1546.35 -867.423 3635
1551.62 -865.514 3627
-2961.42 -958.879 4059
-2951.72 -958.879 4059
-2942.01 -958.879 4059
-2911.35 -952.028 4030
-2901.72 -952.028 4030
-2864.09 -942.815 3991
-2854.55 -942.815 3991
-2845 -942.815 3991
-2835.46 -942.815 3991
-2819.54 -940.689 3982
-2816.37 -942.815 3991
-2827.22 -949.666 4020
-2817.61 -949.666 4020
-2808 -949.666 4020
-2798.39 -949.666 4020
-2755.47 -938.327 3972
-2745.98 -938.327 3972
-2697.9 -925.098 3916
-2676.17 -920.845 3898
-2654.54 -916.593 3880
-2651.4 -918.719 3889
-2642.1 -918.719 3889
-2632.8 -918.719 3889
-2611.35 -914.467 3871
-2602.1 -914.467 3871
-2592.84 -914.467 3871
-2571.57 -910.215 3853
-1367.37 -905.963 3835
-1361.39 -908.089 3844
-1352.2 -908.089 3844
-1343 -908.089 3844
-1333.81 -908.089 3844
-1324.62 -908.089 3844
-1321.59 -912.341 3862
-1315.41 -914.467 3871
-1306.15 -914.467 3871
-1302.93 -918.719 3889
-1299.62 -922.971 3907
-1296.22 -927.224 3925
-1286.83 -927.224 3925
-1277.45 -927.224 3925
-1268.06 -927.224 3925
-1258.67 -927.224 3925
-1249.29 -927.224 3925
-1237.06 -925.098 3916
-1233.65 -929.586 3935
-1224.24 -929.586 3935
-1214.83 -929.586 3935
-1196.84 -922.971 3907
-262.987 -518.537 2195
-257.738 -518.537 2195
-252.489 -518.537 2195
-246.564 -517.119 2189
-239.786 -513.812 2175
-233.722 -511.922 2167
-228.54 -511.922 2167
-222.74 -510.505 2161
-217.27 -509.796 2158
-211.324 -507.906 2150
-206.182 -507.906 2150
-201.041 -507.906 2150
-195.9 -507.906 2150
-190.758 -507.906 2150
-185.617 -507.906 2150
-180.476 -507.906 2150
-175.09 -507.197 2147
-169.956 -507.197 2147
-164.438 -506.016 2142
-159.316 -506.016 2142
-154.193 -506.016 2142
-148.863 -505.307 2139
-143.546 -504.599 2136
-138.438 -504.599 2136
-133.143 -503.89 2133
-127.922 -503.418 2131
-122.654 -502.709 2128
-117.565 -502.709 2128
-112.318 -502 2125
-107.085 -501.291 2122
-102.01 -501.291 2122
-96.936 -501.291 2122
-91.8616 -501.291 2122
-86.7055 -500.819 2120
-81.5204 -500.11 2117
-76.458 -500.11 2117
-71.227 -498.929 2112
-66.0826 -498.22 2109
-60.9525 -497.512 2106
-55.9164 -497.512 2106
-50.832 -497.039 2104
-45.8007 -497.039 2104
-40.7113 -496.33 2101
-35.6871 -496.33 2101
-30.663 -496.33 2101
-25.6389 -496.33 2101
-20.6147 -496.33 2101
-15.5684 -495.622 2098
-10.5514 -495.622 2098
-5.52917 -495.149 2096
-0.517003 -495.149 2096
4.48873 -494.441 2093
9.49373 -494.441 2093
14.4987 -494.441 2093
19.5037 -494.441 2093
24.5087 -494.441 2093
29.5137 -494.441 2093
34.5187 -494.441 2093
39.5804 -495.149 2096
44.5925 -495.149 2096
49.652 -495.622 2098
54.669 -495.622 2098
59.686 -495.622 2098
64.7954 -496.33 2101
69.8196 -496.33 2101
74.8437 -496.33 2101
79.8678 -496.33 2101
84.6899 -495.149 2096
89.7021 -495.149 2096
94.7142 -495.149 2096
99.7264 -495.149 2096
104.839 -495.622 2098
109.855 -495.622 2098
114.872 -495.622 2098
119.889 -495.622 2098
125.085 -496.33 2101
130.109 -496.33 2101
135.133 -496.33 2101
140.157 -496.33 2101
145.181 -496.33 2101
150.206 -496.33 2101
155.23 -496.33 2101
160.254 -496.33 2101
165.278 -496.33 2101
170.302 -496.33 2101
175.326 -496.33 2101
180.093 -495.622 2098
185.11 -495.622 2098
190.399 -496.33 2101
195.702 -497.039 2104
200.733 -497.039 2104
205.764 -497.039 2104
211.297 -498.22 2109
216.34 -498.22 2109
221.383 -498.22 2109
226.426 -498.22 2109
232.018 -499.402 2114
237.074 -499.402 2114
242.129 -499.402 2114
247.184 -499.402 2114
252.597 -500.11 2117
258.025 -500.819 2120
263.343 -501.291 2122
268.417 -501.291 2122
273.491 -501.291 2122
278.959 -502 2125
284.041 -502 2125
289.122 -502 2125
294.204 -502 2125
299.285 -502 2125
304.797 -502.709 2128
309.885 -502.709 2128
314.974 -502.709 2128
320.514 -503.418 2131
325.915 -503.89 2133
331.016 -503.89 2133
336.117 -503.89 2133
341.217 -503.89 2133
346.318 -503.89 2133
351.419 -503.89 2133
356.519 -503.89 2133
362.129 -504.599 2136
367.236 -504.599 2136
372.344 -504.599 2136
733.558 -895.804 3792
742.626 -895.804 3792
756.848 -901.947 3818
771.194 -908.089 3844
784.04 -912.341 3862
793.276 -912.341 3862
809.992 -920.845 3898
828.982 -931.712 3944
844.365 -938.327 3972
853.863 -938.327 3972
867.491 -942.815 3991
881.21 -947.304 4010
893.021 -949.666 4020
902.634 -949.666 4020
912.247 -949.666 4020
921.86 -949.666 4020
935.876 -954.155 4039
945.534 -954.155 4039
955.193 -954.155 4039
962.701 -952.028 4030
972.338 -952.028 4030
981.975 -952.028 4030
986.691 -947.304 4010
994.044 -945.178 4001
1003.61 -945.178 4001
1003.56 -936.201 3963
1010.48 -933.838 3953
1010.38 -925.098 3916
994.228 -901.947 3818
1003.36 -901.947 3818
987.56 -879.74 3724
983.354 -868.165 3675
985.393 -862.259 3650
994.121 -862.259 3650
1000.65 -860.369 3642
1311.04 -875.724 3707
1319.91 -875.724 3707
1328.77 -875.724 3707
1355.68 -887.536 3757
1406.07 -914.467 3871
1415.33 -914.467 3871
1431.21 -918.719 3889
1440.51 -918.719 3889
1449.81 -918.719 3889
1455.73 -916.593 3880
1454.81 -910.215 3853
1437.43 -893.678 3783
1446.47 -893.678 3783
1452.06 -891.552 3774
1444.82 -881.63 3732
1450.63 -879.74 3724
1459.54 -879.74 3724
1468.44 -879.74 3724
1464.26 -871.945 3691
1469.89 -870.055 3683
1478.7 -870.055 3683
1490.73 -871.945 3691
1499.56 -871.945 3691
1511.66 -873.835 3699
1520.5 -873.835 3699
1529.35 -873.835 3699
1534.87 -871.945 3691
1533.65 -866.275 3667
1528.96 -858.715 3635
1537.66 -858.715 3635
1532.74 -851.156 3603
1541.35 -851.156 3603
-2961.42 -949.156 4059
-2951.72 -949.156 4059
-2942.01 -949.156 4059
-2911.35 -942.375 4030
-2901.72 -942.375 4030
-2864.09 -933.255 3991
-2854.55 -933.255 3991
-2845 -933.255 3991
-2835.46 -933.255 3991
-2819.54 -931.15 3982
-2816.37 -933.255 3991
-2827.22 -940.036 4020
-2817.61 -940.036 4020
-2808 -940.036 4020
-2798.39 -940.036 4020
-2755.47 -928.812 3972
-2745.98 -928.812 3972
-2691.7 -913.612 3907
-2670 -909.403 3889
-2654.54 -907.299 3880
-2645.26 -907.299 3880
-2635.98 -907.299 3880
-2626.7 -907.299 3880
-2605.28 -903.089 3862
-2596.05 -903.089 3862
-2586.81 -903.089 3862
-2571.57 -900.985 3853
-1364.58 -900.985 3853
-1355.36 -900.985 3853
-1346.15 -900.985 3853
-1333.81 -898.88 3844
-1324.62 -898.88 3844
-1318.51 -900.985 3853
-1315.41 -905.194 3871
-1306.15 -905.194 3871
-1302.93 -909.403 3889
-1302.61 -915.717 3916
-1296.22 -917.821 3925
-1286.83 -917.821 3925
-1280.7 -920.16 3935
-1274.2 -922.264 3944
-1264.77 -922.264 3944
-1255.34 -922.264 3944
-1245.9 -922.264 3944
-1239.29 -924.369 3953
-1229.84 -924.369 3953
-1220.39 -924.369 3953
-1205.42 -920.16 3935
-281.654 -518.657 2218
-277.472 -520.761 2227
-272.146 -520.761 2227
-266.821 -520.761 2227
-260.086 -517.955 2215
-254.79 -517.955 2215
-246.564 -511.875 2189
-240.448 -510.005 2181
-234.585 -508.602 2175
-229.384 -508.602 2175
-223.049 -506.029 2164
-217.572 -505.328 2161
-211.815 -503.925 2155
-206.662 -503.925 2155
-201.322 -503.457 2153
-196.173 -503.457 2153
-190.758 -502.756 2150
-185.617 -502.756 2150
-180.476 -502.756 2150
-175.335 -502.756 2150
-169.956 -502.054 2147
-164.438 -500.885 2142
-159.316 -500.885 2142
-154.193 -500.885 2142
-148.863 -500.183 2139
-143.748 -500.183 2139
-138.633 -500.183 2139
-133.143 -498.78 2133
-127.922 -498.313 2131
-122.654 -497.611 2128
-117.565 -497.611 2128
-112.476 -497.611 2128
-107.236 -496.91 2125
-102.01 -496.208 2122
-96.936 -496.208 2122
-91.8616 -496.208 2122
-86.7055 -495.74 2120
-81.5204 -495.039 2117
-76.458 -495.039 2117
-71.227 -493.87 2112
-66.0826 -493.168 2109
-60.9525 -492.467 2106
-55.9164 -492.467 2106
-50.832 -491.999 2104
-45.8007 -491.999 2104
-40.7113 -491.297 2101
-35.6871 -491.297 2101
-30.663 -491.297 2101
-25.6389 -491.297 2101
-20.6147 -491.297 2101
-15.5906 -491.297 2101
-10.5665 -491.297 2101
-5.52917 -490.128 2096
-0.517003 -490.128 2096
4.48873 -489.427 2093
9.49373 -489.427 2093
14.4987 -489.427 2093
19.5037 -489.427 2093
24.5087 -489.427 2093
29.5137 -489.427 2093
34.5187 -489.427 2093
39.5804 -490.128 2096
44.6351 -490.596 2098
49.652 -490.596 2098
54.669 -490.596 2098
59.7713 -491.297 2101
64.7954 -491.297 2101
69.8196 -491.297 2101
74.8437 -491.297 2101
79.8678 -491.297 2101
84.7707 -490.596 2098
89.7877 -490.596 2098
94.8046 -490.596 2098
99.8216 -490.596 2098
104.988 -491.297 2101
110.013 -491.297 2101
115.037 -491.297 2101
120.061 -491.297 2101
125.085 -491.297 2101
130.109 -491.297 2101
135.133 -491.297 2101
140.157 -491.297 2101
145.389 -491.999 2104
150.42 -491.999 2104
155.451 -491.999 2104
160.483 -491.999 2104
165.514 -491.999 2104
170.302 -491.297 2101
175.326 -491.297 2101
180.35 -491.297 2101
185.374 -491.297 2101
190.399 -491.297 2101
195.702 -491.999 2104
200.733 -491.999 2104
205.96 -492.467 2106
211.297 -493.168 2109
216.34 -493.168 2109
221.383 -493.168 2109
226.426 -493.168 2109
232.018 -494.337 2114
237.074 -494.337 2114
242.129 -494.337 2114
247.184 -494.337 2114
252.597 -495.039 2117
258.025 -495.74 2120
263.343 -496.208 2122
268.417 -496.208 2122
273.878 -496.91 2125
278.959 -496.91 2125
284.041 -496.91 2125
289.122 -496.91 2125
294.204 -496.91 2125
299.285 -496.91 2125
304.797 -497.611 2128
309.885 -497.611 2128
314.974 -497.611 2128
320.514 -498.313 2131
325.915 -498.78 2133
331.016 -498.78 2133
336.117 -498.78 2133
341.217 -498.78 2133
346.318 -498.78 2133
351.419 -498.78 2133
356.519 -498.78 2133
362.129 -499.482 2136
367.236 -499.482 2136
372.344 -499.482 2136
376.922 -498.78 2133
730.076 -882.512 3774
739.101 -882.512 3774
756.848 -892.8 3818
773 -900.985 3853
784.04 -903.089 3862
793.276 -903.089 3862
809.992 -911.508 3898
828.982 -922.264 3944
840.326 -924.369 3953
849.779 -924.369 3953
863.362 -928.812 3972
877.035 -933.255 3991
888.8 -935.593 4001
898.368 -935.593 4001
909.978 -937.698 4010
919.567 -937.698 4010
931.473 -940.036 4020
941.086 -940.036 4020
950.699 -940.036 4020
953.385 -933.255 3991
962.928 -933.255 3991
972.472 -933.255 3991
982.016 -933.255 3991
991.559 -933.255 3991
1001.1 -933.255 3991
1003.56 -926.707 3963
1005.88 -920.16 3935
1008.06 -913.612 3907
996.311 -894.671 3826
1005.46 -894.671 3826
991.803 -874.561 3740
987.635 -863.103 3691
994.302 -861.232 3683
1003.11 -861.232 3683
1009.72 -859.361 3675
1299.24 -870.82 3724
1308.15 -870.82 3724
1317.05 -870.82 3724
1325.96 -870.82 3724
1334.86 -870.82 3724
1368.31 -886.721 3792
1406.07 -905.194 3871
1415.33 -905.194 3871
1431.21 -909.403 3889
1440.51 -909.403 3889
1449.81 -909.403 3889
1459.11 -909.403 3889
1454.81 -900.985 3853
1434.01 -882.512 3774
1443.03 -882.512 3774
1448.98 -880.641 3766
1441.73 -870.82 3724
1450.63 -870.82 3724
1459.54 -870.82 3724
1468.44 -870.82 3724
1474.17 -868.949 3716
1473.08 -863.103 3691
1475.48 -859.361 3675
1490.73 -863.103 3691
1499.56 -863.103 3691
1508.39 -863.103 3691
1517.21 -863.103 3691
1526.04 -863.103 3691
1528.21 -859.361 3675
1523.2 -851.645 3642
1525.6 -848.137 3627
1534.27 -848.137 3627
1529.33 -840.654 3595
1531.51 -837.147 3580
-2976.01 -944.061 4079
-2966.26 -944.061 4079
-2956.51 -944.061 4079
-2911.35 -932.721 4030
-2901.72 -932.721 4030
-2892.08 -932.721 4030
-2882.44 -932.721 4030
-2872.81 -932.721 4030
-2863.17 -932.721 4030
-2833 -926.009 4001
-2823.43 -926.009 4001
-2813.86 -926.009 4001
-2804.29 -926.009 4001
-2794.73 -926.009 4001
-2785.16 -926.009 4001
-2742.29 -914.899 3953
-2732.84 -914.899 3953
-2685.5 -902.17 3898
-2645.28 -891.755 3853
-2629.91 -889.672 3844
-2626.85 -891.755 3853
-2617.64 -891.755 3853
-2608.42 -891.755 3853
-2575.6 -883.654 3818
-2566.47 -883.654 3818
-2551.31 -881.571 3809
-2524.85 -875.554 3783
-1364.58 -891.755 3853
-1355.36 -891.755 3853
-1346.15 -891.755 3853
-1336.94 -891.755 3853
-1324.62 -889.672 3844
-1318.51 -891.755 3853
-1315.41 -895.921 3871
-1306.15 -895.921 3871
-1302.93 -900.087 3889
-1302.61 -906.336 3916
-1296.22 -908.419 3925
-1299.29 -917.214 3963
-1289.81 -917.214 3963
-1280.34 -917.214 3963
-1270.86 -917.214 3963
-1261.38 -917.214 3963
-1251.91 -917.214 3963
-1242.43 -917.214 3963
-1232.95 -917.214 3963
-1223.48 -917.214 3963
-1214 -917.214 3963
-290.84 -520.287 2248
-285.464 -520.287 2248
-280.088 -520.287 2248
-274.346 -519.593 2245
-267.18 -516.121 2230
-260.439 -513.344 2218
-255.135 -513.344 2218
-247.24 -508.02 2195
-240.448 -504.78 2181
-234.585 -503.391 2175
-229.384 -503.391 2175
-224.183 -503.391 2175
-217.572 -500.151 2161
-212.11 -499.457 2158
-206.95 -499.457 2158
-201.509 -498.763 2155
-196.173 -498.3 2153
-190.758 -497.605 2150
-185.617 -497.605 2150
-180.476 -497.605 2150
-175.335 -497.605 2150
-169.956 -496.911 2147
-164.438 -495.754 2142
-159.316 -495.754 2142
-154.193 -495.754 2142
-148.863 -495.059 2139
-143.748 -495.059 2139
-138.633 -495.059 2139
-133.143 -493.671 2133
-127.922 -493.208 2131
-122.654 -492.514 2128
-117.565 -492.514 2128
-112.476 -492.514 2128
-107.236 -491.819 2125
-102.01 -491.125 2122
-96.936 -491.125 2122
-91.8616 -491.125 2122
-86.7055 -490.662 2120
-81.5204 -489.968 2117
-76.458 -489.968 2117
-71.227 -488.81 2112
-66.0826 -488.116 2109
-60.9525 -487.422 2106
-55.9164 -487.422 2106
-50.832 -486.959 2104
-45.8007 -486.959 2104
-40.7113 -486.265 2101
-35.6871 -486.265 2101
-30.663 -486.265 2101
-25.6389 -486.265 2101
-20.6147 -486.265 2101
-15.5906 -486.265 2101
-10.5665 -486.265 2101
-5.54236 -486.265 2101
-0.517003 -485.107 2096
4.49517 -485.107 2096
9.50734 -485.107 2096
14.5195 -485.107 2096
19.5317 -485.107 2096
24.5087 -484.413 2093
29.5137 -484.413 2093
34.5187 -484.413 2093
39.6748 -486.265 2101
44.6989 -486.265 2101
49.723 -486.265 2101
54.7472 -486.265 2101
59.8566 -486.959 2104
64.8879 -486.959 2104
69.9193 -486.959 2104
74.9505 -486.959 2104
79.9818 -486.959 2104
84.7707 -485.57 2098
89.7877 -485.57 2098
94.8046 -485.57 2098
99.8216 -485.57 2098
104.988 -486.265 2101
110.013 -486.265 2101
115.037 -486.265 2101
120.061 -486.265 2101
125.085 -486.265 2101
130.109 -486.265 2101
135.133 -486.265 2101
140.157 -486.265 2101
145.389 -486.959 2104
150.42 -486.959 2104
155.451 -486.959 2104
160.483 -486.959 2104
165.514 -486.959 2104
170.302 -486.265 2101
175.326 -486.265 2101
180.35 -486.265 2101
185.374 -486.265 2101
190.399 -486.265 2101
195.702 -486.959 2104
200.733 -486.959 2104
205.96 -487.422 2106
211.297 -488.116 2109
216.34 -488.116 2109
221.383 -488.116 2109
226.426 -488.116 2109
232.018 -489.273 2114
237.41 -489.968 2117
242.472 -489.968 2117
247.535 -489.968 2117
252.597 -489.968 2117
258.268 -491.125 2122
263.343 -491.125 2122
268.417 -491.125 2122
273.878 -491.819 2125
279.353 -492.514 2128
284.442 -492.514 2128
289.531 -492.514 2128
294.619 -492.514 2128
299.285 -491.819 2125
304.797 -492.514 2128
309.885 -492.514 2128
315.418 -493.208 2131
320.815 -493.671 2133
326.374 -494.365 2136
331.482 -494.365 2136
336.589 -494.365 2136
341.697 -494.365 2136
346.805 -494.365 2136
351.419 -493.671 2133
356.519 -493.671 2133
362.129 -494.365 2136
367.236 -494.365 2136
372.344 -494.365 2136
376.922 -493.671 2133
756.848 -883.654 3818
773 -891.755 3853
784.04 -893.838 3862
793.276 -893.838 3862
808.121 -900.087 3889
828.982 -912.816 3944
840.326 -914.899 3953
849.779 -914.899 3953
861.405 -917.214 3963
872.86 -919.297 3972
884.58 -921.611 3982
894.102 -921.611 3982
905.666 -923.694 3991
915.21 -923.694 3991
924.754 -923.694 3991
932.19 -921.611 3982
941.713 -921.611 3982
948.846 -919.297 3972
958.344 -919.297 3972
967.842 -919.297 3972
977.341 -919.297 3972
984.603 -917.214 3963
994.08 -917.214 3963
998.745 -912.816 3944
1005.88 -910.733 3935
1003.42 -900.087 3889
996.311 -885.506 3826
1005.46 -885.506 3826
994.19 -867.685 3749
996.465 -861.899 3724
996.461 -854.261 3691
1005.29 -854.261 3691
1014.11 -854.261 3691
1290.34 -861.899 3724
1299.24 -861.899 3724
1310.96 -863.75 3732
1319.88 -863.75 3732
1328.81 -863.75 3732
1340.6 -865.602 3740
1368.31 -877.637 3792
1406.07 -895.921 3871
1415.33 -895.921 3871
1431.21 -900.087 3889
1440.51 -900.087 3889
1449.81 -900.087 3889
1459.11 -900.087 3889
1454.81 -891.755 3853
1434.01 -873.471 3774
1443.03 -873.471 3774
1448.98 -871.619 3766
1444.82 -863.75 3732
1453.75 -863.75 3732
1462.67 -863.75 3732
1471.6 -863.75 3732
1480.52 -863.75 3732
1486.25 -861.899 3724
1495.16 -861.899 3724
1500.83 -860.047 3716
1509.72 -860.047 3716
1518.6 -860.047 3716
1527.49 -860.047 3716
1536.38 -860.047 3716
1541.52 -857.964 3707
1537 -850.558 3675
1525.6 -839.449 3627
1534.27 -839.449 3627
1529.33 -832.042 3595
1531.51 -828.571 3580
-2976.01 -934.29 4079
-2966.26 -934.29 4079
-2956.51 -934.29 4079
-2932.3 -929.709 4059
-2922.6 -929.709 4059
-2912.89 -929.709 4059
-2888.88 -925.128 4039
-2879.22 -925.128 4039
-2869.56 -925.128 4039
-2839.37 -918.486 4010
-2823.43 -916.424 4001
-2813.86 -916.424 4001
-2804.29 -916.424 4001
-2794.73 -916.424 4001
-2785.16 -916.424 4001
-2736.05 -903.369 3944
-2726.62 -903.369 3944
-2673.09 -888.709 3880
-2639.1 -880.464 3844
-2612.12 -874.508 3818
-2602.99 -874.508 3818
-2593.86 -874.508 3818
-2584.73 -874.508 3818
-2575.6 -874.508 3818
-2566.47 -874.508 3818
-2533.9 -866.492 3783
-2513.5 -862.598 3766
-1377 -884.587 3862
-1367.76 -884.587 3862
-1358.53 -884.587 3862
-1349.29 -884.587 3862
-1336.94 -882.525 3853
-1327.72 -882.525 3853
-1327.75 -888.709 3880
-1318.47 -888.709 3880
-1312.23 -890.771 3889
-1305.94 -892.832 3898
-1314.92 -905.43 3953
-1305.46 -905.43 3953
-1302.24 -909.782 3972
-1292.74 -909.782 3972
-1283.24 -909.782 3972
-1273.75 -909.782 3972
-1261.38 -907.72 3963
-1251.91 -907.72 3963
-1245.25 -909.782 3972
-1235.75 -909.782 3972
-1226.25 -909.782 3972
-1214 -907.72 3963
