ply
format ascii 1.0
comment File generated
element vertex 2143
property float x
property float y
property float z
end_header
-1367.76 -1337.91 3862
-1390.54 -1369.43 3953
-1381.09 -1369.43 3953
-1375.1 -1372.9 3963
-1365.63 -1372.9 3963
-1356.15 -1372.9 3963
-1346.67 -1372.9 3963
-1340.23 -1376.02 3972
-1340.45 -1386.06 4001
-1333.88 -1389.18 4010
-1324.29 -1389.18 4010
-1314.7 -1389.18 4010
-1302.18 -1386.06 4001
-1295.52 -1389.18 4010
-1285.93 -1389.18 4010
-1276.34 -1389.18 4010
-1273.07 -1396.11 4030
-1263.43 -1396.11 4030
-1253.8 -1396.11 4030
-1241.07 -1392.64 4020
-163.704 -762.49 2201
-158.441 -762.49 2201
-153.177 -762.49 2201
-147.914 -762.49 2201
-142.651 -762.49 2201
-137.2 -761.45 2198
-131.764 -760.411 2195
-126.342 -759.372 2192
-121.101 -759.372 2192
-115.277 -755.561 2181
-109.608 -752.443 2172
-104.174 -750.711 2167
-98.9916 -750.711 2167
-93.6798 -749.672 2164
-88.3823 -748.633 2161
-82.9837 -746.554 2155
-77.8304 -746.554 2155
-72.6772 -746.554 2155
-67.6179 -747.593 2158
-62.4575 -747.593 2158
-57.297 -747.593 2158
-52.1366 -747.593 2158
-46.9109 -746.554 2155
-41.6607 -744.822 2150
-36.5194 -744.822 2150
-31.2906 -742.743 2144
-26.1392 -742.05 2142
-21.017 -742.05 2142
-15.8503 -739.972 2136
-10.7425 -739.972 2136
-5.6215 -738.24 2131
-0.524896 -737.2 2128
4.55093 -735.122 2122
9.62527 -735.122 2122
14.665 -733.39 2117
19.6994 -732.35 2114
24.7546 -732.35 2114
29.8098 -732.35 2114
34.7826 -730.618 2109
39.7692 -729.579 2106
44.6989 -727.847 2101
49.723 -727.847 2101
54.4866 -724.383 2091
59.4015 -723.343 2088
64.3945 -723.343 2088
69.5537 -725.075 2093
74.5587 -725.075 2093
79.5637 -725.075 2093
84.5687 -725.075 2093
89.7877 -726.807 2098
94.9402 -727.847 2101
99.9643 -727.847 2101
104.988 -727.847 2101
110.013 -727.847 2101
115.201 -728.886 2104
120.232 -728.886 2104
125.383 -729.579 2106
130.419 -729.579 2106
135.841 -731.658 2112
140.891 -731.658 2112
146.08 -732.35 2114
151.564 -734.429 2120
156.781 -735.122 2122
161.856 -735.122 2122
167.402 -737.2 2128
172.491 -737.2 2128
177.83 -738.24 2131
182.926 -738.24 2131
188.198 -738.933 2133
193.842 -741.011 2139
200.259 -745.861 2153
205.408 -745.861 2153
211.045 -747.593 2158
216.506 -748.633 2161
221.674 -748.633 2161
226.842 -748.633 2161
1165.19 -1206.61 3483
1173.52 -1206.61 3483
1181.85 -1206.61 3483
1190.17 -1206.61 3483
1198.5 -1206.61 3483
1204.41 -1204.19 3476
1228.07 -1219.43 3520
1246.67 -1229.48 3549
1271.43 -1245.41 3595
1280.03 -1245.41 3595
1294.36 -1250.95 3611
1317.07 -1264.46 3650
1325.79 -1264.46 3650
1334.52 -1264.46 3650
1349.51 -1270.35 3667
1364.2 -1275.9 3683
1375.99 -1278.67 3691
1384.82 -1278.67 3691
1399.69 -1284.21 3707
1408.55 -1284.21 3707
1417.42 -1284.21 3707
1426.28 -1284.21 3707
1435.14 -1284.21 3707
1444.01 -1284.21 3707
1459.54 -1290.1 3724
1468.44 -1290.1 3724
1483.69 -1295.64 3740
1503.01 -1304.65 3766
1522.46 -1313.66 3792
1531.53 -1313.66 3792
1540.59 -1313.66 3792
1549.66 -1313.66 3792
1562.02 -1316.43 3800
1578.55 -1322.66 3818
1587.68 -1322.66 3818
1596.81 -1322.66 3818
1591.22 -1310.54 3783
1600.26 -1310.54 3783
1602.08 -1304.65 3766
1607.23 -1301.53 3757
-2822.94 -1322.46 3844
-2826.93 -1328.66 3862
-2817.69 -1328.66 3862
-2808.46 -1328.66 3862
-2786.18 -1322.46 3844
-2758.2 -1313.52 3818
-2749.07 -1313.52 3818
-2739.94 -1313.52 3818
-2730.81 -1313.52 3818
-2721.68 -1313.52 3818
-2712.55 -1313.52 3818
-2678.64 -1301.48 3783
-2681.59 -1307.33 3800
-2672.5 -1307.33 3800
-2663.41 -1307.33 3800
-2654.33 -1307.33 3800
-2639.67 -1304.57 3792
-2624.36 -1301.48 3783
-2621.54 -1304.57 3792
-2612.47 -1304.57 3792
-2603.4 -1304.57 3792
-2594.33 -1304.57 3792
-2585.26 -1304.57 3792
-2576.2 -1304.57 3792
-2567.13 -1304.57 3792
-2545.92 -1298.38 3774
-2536.89 -1298.38 3774
-2516.48 -1292.53 3757
-2502.16 -1289.78 3749
-2471.25 -1278.43 3716
-2489.53 -1292.53 3757
-2480.55 -1292.53 3757
-2482.74 -1298.38 3774
-2473.72 -1298.38 3774
-2464.7 -1298.38 3774
-2450.47 -1295.63 3766
-1440.67 -1353.77 3935
-1431.26 -1353.77 3935
-1421.85 -1353.77 3935
-1402.39 -1344.14 3907
-1370.58 -1322.46 3844
-1361.39 -1322.46 3844
-1390.54 -1359.96 3953
-1381.09 -1359.96 3953
-1375.1 -1363.4 3963
-1365.63 -1363.4 3963
-1356.15 -1363.4 3963
-1346.67 -1363.4 3963
-1340.23 -1366.5 3972
-1340.45 -1376.48 4001
-1333.88 -1379.57 4010
-1324.29 -1379.57 4010
-1314.7 -1379.57 4010
-1302.18 -1376.48 4001
-1295.52 -1379.57 4010
-1285.93 -1379.57 4010
-1276.34 -1379.57 4010
-1273.07 -1386.45 4030
-1263.43 -1386.45 4030
-1253.8 -1386.45 4030
-1241.07 -1383.01 4020
-170.963 -766.162 2227
-165.638 -766.162 2227
-160.312 -766.162 2227
-153.595 -759.281 2207
-148.317 -759.281 2207
-142.651 -757.217 2201
-137.2 -756.185 2198
-131.764 -755.153 2195
-125.881 -751.369 2184
-120.659 -751.369 2184
-114.802 -747.24 2172
-109.356 -745.52 2167
-104.029 -744.488 2164
-98.8546 -744.488 2164
-93.6798 -744.488 2164
-88.2596 -742.424 2158
-82.9837 -741.392 2155
-77.8304 -741.392 2155
-72.6772 -741.392 2155
-67.5239 -741.392 2155
-62.3707 -741.392 2155
-57.2174 -741.392 2155
-52.0641 -741.392 2155
-46.8673 -740.704 2153
-41.6607 -739.671 2150
-36.5194 -739.671 2150
-31.2906 -737.607 2144
-26.1392 -736.919 2142
-21.017 -736.919 2142
-15.8281 -733.823 2133
-10.7274 -733.823 2133
-5.61359 -732.103 2128
-0.523416 -730.039 2122
4.54021 -728.318 2117
9.6026 -728.318 2117
14.6442 -727.286 2114
19.6994 -727.286 2114
24.6961 -725.566 2109
29.7393 -725.566 2109
34.7826 -725.566 2109
39.6748 -722.814 2101
44.4862 -719.374 2091
49.4864 -719.374 2091
54.3302 -717.309 2085
59.2592 -716.621 2083
64.2403 -716.621 2083
69.2878 -717.309 2085
74.2737 -717.309 2085
79.2596 -717.309 2085
84.2454 -717.309 2085
89.3597 -718.341 2088
94.7142 -721.094 2096
99.7264 -721.094 2096
104.739 -721.094 2096
109.751 -721.094 2096
114.872 -721.782 2098
119.889 -721.782 2098
125.085 -722.814 2101
130.109 -722.814 2101
135.326 -723.846 2104
140.357 -723.846 2104
145.734 -725.566 2109
151.349 -728.318 2117
156.634 -729.35 2120
161.703 -729.35 2120
166.93 -730.039 2122
172.491 -732.103 2128
177.579 -732.103 2128
182.668 -732.103 2128
188.021 -733.135 2131
193.299 -733.823 2133
199.701 -738.639 2147
204.836 -738.639 2147
210.556 -740.704 2153
215.705 -740.704 2153
220.853 -740.704 2153
226.002 -740.704 2153
1157.83 -1190.7 3461
1166.1 -1190.7 3461
1174.38 -1190.7 3461
1182.66 -1190.7 3461
1190.93 -1190.7 3461
1199.21 -1190.7 3461
1228.07 -1211 3520
1246.67 -1220.97 3549
1271.43 -1236.8 3595
1280.03 -1236.8 3595
1291.49 -1239.55 3603
1311.65 -1250.56 3635
1325.79 -1255.72 3650
1334.52 -1255.72 3650
1343.25 -1255.72 3650
1358.28 -1261.57 3667
1373.01 -1267.07 3683
1381.82 -1267.07 3683
1396.67 -1272.58 3699
1405.51 -1272.58 3699
1417.42 -1275.33 3707
1426.28 -1275.33 3707
1435.14 -1275.33 3707
1444.01 -1275.33 3707
1459.54 -1281.18 3724
1468.44 -1281.18 3724
1477.35 -1281.18 3724
1499.42 -1292.53 3757
1518.85 -1301.48 3783
1527.89 -1301.48 3783
1536.94 -1301.48 3783
1549.66 -1304.57 3792
1562.02 -1307.33 3800
1578.55 -1313.52 3818
1587.68 -1313.52 3818
1596.81 -1313.52 3818
1591.22 -1301.48 3783
1600.26 -1301.48 3783
1602.08 -1295.63 3766
1607.23 -1292.53 3757
1605.46 -1283.93 3732
1614.39 -1283.93 3732
-2816.33 -1310.18 3835
-2807.16 -1310.18 3835
-2797.99 -1310.18 3835
-2788.82 -1310.18 3835
-2779.65 -1310.18 3835
-2758.2 -1304.37 3818
-2749.07 -1304.37 3818
-2739.94 -1304.37 3818
-2730.81 -1304.37 3818
-2721.68 -1304.37 3818
-2712.55 -1304.37 3818
-2678.64 -1292.42 3783
-2681.59 -1298.22 3800
-2672.5 -1298.22 3800
-2663.41 -1298.22 3800
-2654.33 -1298.22 3800
-2639.67 -1295.49 3792
-2624.36 -1292.42 3783
-2621.54 -1295.49 3792
-2612.47 -1295.49 3792
-2603.4 -1295.49 3792
-2594.33 -1295.49 3792
-2585.26 -1295.49 3792
-2576.2 -1295.49 3792
-2567.13 -1295.49 3792
-2545.92 -1289.34 3774
-2536.89 -1289.34 3774
-2516.48 -1283.53 3757
-2502.16 -1280.8 3749
-2471.25 -1269.53 3716
-2489.53 -1283.53 3757
-2480.55 -1283.53 3757
-2482.74 -1289.34 3774
-2473.72 -1289.34 3774
-2464.7 -1289.34 3774
-1473.21 -1356.99 3972
-1463.71 -1356.99 3972
-1454.21 -1356.99 3972
-1437.8 -1350.49 3953
-1428.35 -1350.49 3953
-1402.39 -1334.78 3907
-1370.58 -1313.26 3844
-1361.39 -1313.26 3844
-1390.54 -1350.49 3953
-1381.09 -1350.49 3953
-1375.1 -1353.91 3963
-1365.63 -1353.91 3963
-1356.15 -1353.91 3963
-1346.67 -1353.91 3963
-1340.23 -1356.99 3972
-1343.47 -1369.97 4010
-1333.88 -1369.97 4010
-1324.29 -1369.97 4010
-1314.7 -1369.97 4010
-1302.18 -1366.89 4001
-1295.52 -1369.97 4010
-1285.93 -1369.97 4010
-1276.34 -1369.97 4010
-1273.07 -1376.8 4030
-1263.43 -1376.8 4030
-1253.8 -1376.8 4030
-1241.07 -1373.38 4020
-170.963 -760.827 2227
-165.638 -760.827 2227
-160.312 -760.827 2227
-153.595 -753.995 2207
-148.317 -753.995 2207
-142.651 -751.945 2201
-137.2 -750.92 2198
-131.764 -749.895 2195
-125.881 -746.137 2184
-120.659 -746.137 2184
-114.802 -742.037 2172
-109.204 -739.304 2164
-104.029 -739.304 2164
-98.8546 -739.304 2164
-93.5499 -738.279 2161
-88.1369 -736.229 2155
-82.9837 -736.229 2155
-77.8304 -736.229 2155
-72.6772 -736.229 2155
-67.5239 -736.229 2155
-62.3707 -736.229 2155
-57.2174 -736.229 2155
-52.0158 -735.546 2153
-46.802 -734.521 2150
-41.5445 -732.471 2144
-36.4175 -732.471 2144
-31.2614 -731.788 2142
-26.1392 -731.788 2142
-20.9287 -728.713 2133
-15.8281 -728.713 2133
-10.7274 -728.713 2133
-5.60567 -725.98 2125
-0.523416 -724.955 2122
4.54021 -723.247 2117
9.6026 -723.247 2117
14.6442 -722.222 2114
19.6808 -721.539 2112
24.6961 -720.514 2109
29.7393 -720.514 2109
34.7001 -718.806 2104
39.6181 -716.756 2098
44.4862 -714.365 2091
49.4864 -714.365 2091
54.1478 -709.923 2078
59.117 -709.923 2078
64.0861 -709.923 2078
69.1217 -710.607 2080
74.0956 -710.607 2080
79.0695 -710.607 2080
84.0434 -710.607 2080
89.1457 -711.631 2083
94.3527 -713.34 2088
99.3458 -713.34 2088
104.489 -714.365 2091
109.489 -714.365 2091
114.599 -715.048 2093
119.604 -715.048 2093
124.787 -716.073 2096
129.799 -716.073 2096
135.133 -717.781 2101
140.157 -717.781 2101
145.527 -719.489 2106
150.992 -721.539 2112
156.412 -723.247 2117
161.474 -723.247 2117
166.93 -724.955 2122
172.004 -724.955 2122
177.329 -725.98 2125
182.411 -725.98 2125
187.757 -727.005 2128
193.117 -728.03 2131
198.957 -730.763 2139
204.072 -730.763 2139
209.97 -733.496 2147
215.705 -735.546 2153
220.853 -735.546 2153
226.002 -735.546 2153
1143.78 -1168.06 3419
1151.95 -1168.06 3419
1167.26 -1175.23 3440
1182.66 -1182.41 3461
1190.93 -1182.41 3461
1199.21 -1182.41 3461
1222.84 -1197.44 3505
1241.41 -1207.35 3534
1268.95 -1225.8 3588
1277.53 -1225.8 3588
1288.62 -1228.19 3595
1311.65 -1241.85 3635
1322.89 -1244.24 3642
1331.6 -1244.24 3642
1340.31 -1244.24 3642
1358.28 -1252.79 3667
1373.01 -1258.25 3683
1381.82 -1258.25 3683
1390.62 -1258.25 3683
1402.47 -1260.98 3691
1411.3 -1260.98 3691
1420.12 -1260.98 3691
1428.95 -1260.98 3691
1437.78 -1260.98 3691
1452.87 -1266.45 3707
1465.29 -1269.53 3716
1477.35 -1272.26 3724
1492.64 -1277.73 3740
1512.02 -1286.61 3766
1527.89 -1292.42 3783
1536.94 -1292.42 3783
1545.98 -1292.42 3783
1558.73 -1295.49 3792
1578.55 -1304.37 3818
1587.68 -1304.37 3818
1596.81 -1304.37 3818
1584.07 -1286.61 3766
1593.07 -1286.61 3766
1602.08 -1286.61 3766
1607.23 -1283.53 3757
1605.46 -1274.99 3732
1614.39 -1274.99 3732
-2784.76 -1286.41 3792
-2800.58 -1297.94 3826
-2791.43 -1297.94 3826
-2782.28 -1297.94 3826
-2773.13 -1297.94 3826
-2758.2 -1295.23 3818
-2754.83 -1297.94 3826
-2745.68 -1297.94 3826
-2736.53 -1297.94 3826
-2727.38 -1297.94 3826
-2718.23 -1297.94 3826
-2685.01 -1286.41 3792
-2699.94 -1297.94 3826
-2690.79 -1297.94 3826
-2681.64 -1297.94 3826
-2672.49 -1297.94 3826
-2645.24 -1289.12 3800
-2630.6 -1286.41 3792
-2621.54 -1286.41 3792
-2612.47 -1286.41 3792
-2603.4 -1286.41 3792
-2594.33 -1286.41 3792
-2585.26 -1286.41 3792
-2576.2 -1286.41 3792
-2567.13 -1286.41 3792
-2551.99 -1283.35 3783
-2542.94 -1283.35 3783
-2511.12 -1271.82 3749
-2485.47 -1263.34 3724
-2476.57 -1263.34 3724
-2467.66 -1263.34 3724
-2458.76 -1263.34 3724
-2460.38 -1268.77 3740
-2451.43 -1268.77 3740
-2442.49 -1268.77 3740
-1473.21 -1347.47 3972
-1463.71 -1347.47 3972
-1454.21 -1347.47 3972
-1437.8 -1341.02 3953
-1428.35 -1341.02 3953
-1402.39 -1325.42 3907
-1370.58 -1304.05 3844
-1361.39 -1304.05 3844
-1394.06 -1344.42 3963
-1384.58 -1344.42 3963
-1378.23 -1347.47 3972
-1368.73 -1347.47 3972
-1359.23 -1347.47 3972
-1346.67 -1344.42 3963
-1343.61 -1350.86 3982
-1346.82 -1363.75 4020
-1337.2 -1363.75 4020
-1327.59 -1363.75 4020
-1317.98 -1363.75 4020
-1305.11 -1360.36 4010
-1295.52 -1360.36 4010
-1285.93 -1360.36 4010
-1276.34 -1360.36 4010
-1269.91 -1363.75 4020
-1260.3 -1363.75 4020
-1250.69 -1363.75 4020
-1241.07 -1363.75 4020
-170.963 -755.492 2227
-165.638 -755.492 2227
-160.312 -755.492 2227
-153.595 -748.708 2207
-148.317 -748.708 2207
-142.651 -746.672 2201
-137.2 -745.654 2198
-131.764 -744.637 2195
-125.881 -740.905 2184
-120.659 -740.905 2184
-114.802 -736.834 2172
-109.204 -734.12 2164
-104.029 -734.12 2164
-98.8546 -734.12 2164
-93.5499 -733.102 2161
-88.1369 -731.067 2155
-82.9837 -731.067 2155
-77.8304 -731.067 2155
-72.6772 -731.067 2155
-67.5239 -731.067 2155
-62.3707 -731.067 2155
-57.2174 -731.067 2155
-52.0158 -730.388 2153
-46.802 -729.371 2150
-41.5445 -727.335 2144
-36.4175 -727.335 2144
-31.2614 -726.657 2142
-26.1392 -726.657 2142
-20.9287 -723.604 2133
-15.8281 -723.604 2133
-10.7274 -723.604 2133
-5.60567 -720.89 2125
-0.523416 -719.872 2122
4.54021 -718.176 2117
9.6026 -718.176 2117
14.6442 -717.158 2114
19.6808 -716.48 2112
24.6961 -715.462 2109
29.7393 -715.462 2109
34.7001 -713.766 2104
39.6181 -711.73 2098
44.4862 -709.355 2091
49.4864 -709.355 2091
54.1478 -704.945 2078
59.117 -704.945 2078
64.0861 -704.945 2078
69.1217 -705.624 2080
74.0956 -705.624 2080
79.0695 -705.624 2080
84.0434 -705.624 2080
89.1457 -706.642 2083
94.3527 -708.338 2088
99.3458 -708.338 2088
104.489 -709.355 2091
109.489 -709.355 2091
114.599 -710.034 2093
119.604 -710.034 2093
124.787 -711.052 2096
129.799 -711.052 2096
135.133 -712.748 2101
140.157 -712.748 2101
145.527 -714.444 2106
150.992 -716.48 2112
156.412 -718.176 2117
161.474 -718.176 2117
166.93 -719.872 2122
172.004 -719.872 2122
177.329 -720.89 2125
182.411 -720.89 2125
187.757 -721.907 2128
193.117 -722.925 2131
198.957 -725.639 2139
204.072 -725.639 2139
209.97 -728.353 2147
215.705 -730.388 2153
220.853 -730.388 2153
226.002 -730.388 2153
1143.78 -1159.87 3419
1151.95 -1159.87 3419
1167.26 -1166.99 3440
1182.66 -1174.12 3461
1190.93 -1174.12 3461
1199.21 -1174.12 3461
1222.84 -1189.04 3505
1241.41 -1198.88 3534
1268.95 -1217.2 3588
1277.53 -1217.2 3588
1288.62 -1219.58 3595
1311.65 -1233.15 3635
1322.89 -1235.52 3642
1331.6 -1235.52 3642
1340.31 -1235.52 3642
1358.28 -1244 3667
1373.01 -1249.43 3683
1381.82 -1249.43 3683
1393.64 -1252.14 3691
1402.47 -1252.14 3691
1411.3 -1252.14 3691
1420.12 -1252.14 3691
1428.95 -1252.14 3691
1437.78 -1252.14 3691
1452.87 -1257.57 3707
1465.29 -1260.62 3716
1477.35 -1263.34 3724
1492.64 -1268.77 3740
1512.02 -1277.59 3766
1527.89 -1283.35 3783
1536.94 -1283.35 3783
1545.98 -1283.35 3783
1558.73 -1286.41 3792
1578.55 -1295.23 3818
1587.68 -1295.23 3818
1596.81 -1295.23 3818
1584.07 -1277.59 3766
1593.07 -1277.59 3766
1602.08 -1277.59 3766
1607.23 -1274.53 3757
1605.46 -1266.05 3732
1614.39 -1266.05 3732
-2822.94 -1294.84 3844
-2840.1 -1306.97 3880
-2830.83 -1306.97 3880
-2821.55 -1306.97 3880
-2812.27 -1306.97 3880
-2783.49 -1297.87 3853
-2774.27 -1297.87 3853
-2765.06 -1297.87 3853
-2755.84 -1297.87 3853
-2727.38 -1288.78 3826
-2718.23 -1288.78 3826
-2690.68 -1280.02 3800
-2699.94 -1288.78 3826
-2690.79 -1288.78 3826
-2681.64 -1288.78 3826
-2672.49 -1288.78 3826
-2645.24 -1280.02 3800
-2630.6 -1277.32 3792
-2621.54 -1277.32 3792
-2612.47 -1277.32 3792
-2603.4 -1277.32 3792
-2594.33 -1277.32 3792
-2585.26 -1277.32 3792
-2576.2 -1277.32 3792
-2567.13 -1277.32 3792
-2551.99 -1274.29 3783
-2542.94 -1274.29 3783
-2511.12 -1262.84 3749
-2485.47 -1254.42 3724
-2476.57 -1254.42 3724
-2467.66 -1254.42 3724
-2458.76 -1254.42 3724
-2460.38 -1259.81 3740
-2451.43 -1259.81 3740
-2442.49 -1259.81 3740
-1473.21 -1337.96 3972
-1463.71 -1337.96 3972
-1454.21 -1337.96 3972
-1437.8 -1331.56 3953
-1428.35 -1331.56 3953
-1402.39 -1316.06 3907
-1370.58 -1294.84 3844
-1361.39 -1294.84 3844
-1394.06 -1334.92 3963
-1384.58 -1334.92 3963
-1378.23 -1337.96 3972
-1368.73 -1337.96 3972
-1359.23 -1337.96 3972
-1346.67 -1334.92 3963
-1343.61 -1341.32 3982
-1346.82 -1354.12 4020
-1337.2 -1354.12 4020
-1327.59 -1354.12 4020
-1317.98 -1354.12 4020
-1305.11 -1350.76 4010
-1295.52 -1350.76 4010
-1285.93 -1350.76 4010
-1276.34 -1350.76 4010
-1269.91 -1354.12 4020
-1260.3 -1354.12 4020
-1250.69 -1354.12 4020
-1241.07 -1354.12 4020
-1219.82 -1341.32 3982
-163.704 -741.4 2201
-158.441 -741.4 2201
-153.177 -741.4 2201
-147.914 -741.4 2201
-142.651 -741.4 2201
-137.2 -740.389 2198
-131.224 -736.347 2186
-125.881 -735.673 2184
-120.659 -735.673 2184
-114.643 -730.621 2169
-109.204 -728.936 2164
-103.885 -727.926 2161
-98.7176 -727.926 2161
-93.4201 -726.915 2158
-88.1369 -725.905 2155
-82.9067 -725.231 2153
-77.7582 -725.231 2153
-72.6097 -725.231 2153
-67.4612 -725.231 2153
-62.2259 -724.22 2150
-57.0846 -724.22 2150
-51.9433 -724.22 2150
-46.7367 -723.21 2147
-41.5057 -721.526 2142
-36.3835 -721.526 2142
-31.1738 -719.505 2136
-26.0294 -718.494 2133
-20.9287 -718.494 2133
-15.791 -716.81 2128
-10.7023 -716.81 2128
-5.60567 -715.799 2125
-0.522922 -714.115 2120
4.54021 -713.104 2117
9.6026 -713.104 2117
14.6303 -711.42 2112
19.6528 -710.41 2109
24.6961 -710.41 2109
29.7393 -710.41 2109
34.7001 -708.725 2104
39.6181 -706.704 2098
44.4862 -704.346 2091
49.4864 -704.346 2091
54.1478 -699.967 2078
59.117 -699.967 2078
64.0861 -699.967 2078
69.0552 -699.967 2078
73.9175 -698.957 2075
78.8794 -698.957 2075
83.8414 -698.957 2075
88.9317 -699.967 2078
94.1268 -701.652 2083
99.1079 -701.652 2083
104.189 -702.325 2085
109.332 -703.336 2088
114.489 -704.346 2091
119.489 -704.346 2091
124.609 -705.02 2093
129.614 -705.02 2093
134.619 -705.02 2093
139.624 -705.02 2093
145.389 -708.725 2104
150.778 -710.41 2109
156.412 -713.104 2117
161.474 -713.104 2117
166.537 -713.104 2117
171.842 -714.115 2120
176.912 -714.115 2120
181.981 -714.115 2120
187.227 -714.789 2122
192.574 -715.799 2125
197.934 -716.81 2128
203.023 -716.81 2128
209.187 -720.515 2139
214.302 -720.515 2139
219.417 -720.515 2139
224.532 -720.515 2139
1160.13 -1151.68 3419
1168.31 -1151.68 3419
1176.48 -1151.68 3419
1373.01 -1240.61 3683
1381.82 -1240.61 3683
1393.64 -1243.3 3691
1402.47 -1243.3 3691
1411.3 -1243.3 3691
1420.12 -1243.3 3691
1428.95 -1243.3 3691
1434.66 -1240.61 3683
1449.74 -1246 3699
1465.29 -1251.72 3716
1474.17 -1251.72 3716
1489.44 -1257.11 3732
1501.58 -1259.81 3740
1514.16 -1262.84 3749
1523.12 -1262.84 3749
1532.09 -1262.84 3749
1548.04 -1268.56 3766
1557.05 -1268.56 3766
1566.05 -1268.56 3766
1575.06 -1268.56 3766
1584.07 -1268.56 3766
1593.07 -1268.56 3766
1598.25 -1265.53 3757
1593.11 -1254.42 3724
1602.02 -1254.42 3724
1610.92 -1254.42 3724
-2849.38 -1297.67 3880
-2880.36 -1316.07 3935
-2870.95 -1316.07 3935
-2861.54 -1316.07 3935
-2844.89 -1312.72 3925
-2835.5 -1312.72 3925
-2826.11 -1312.72 3925
-2784.43 -1297.67 3880
-2775.16 -1297.67 3880
-2765.88 -1297.67 3880
-2756.6 -1297.67 3880
-2721.83 -1285.63 3844
-2712.64 -1285.63 3844
-2709.78 -1288.64 3853
-2700.56 -1288.64 3853
-2691.35 -1288.64 3853
-2663.34 -1279.61 3826
-2636.15 -1270.91 3800
-2627.07 -1270.91 3800
-2612.47 -1268.24 3792
-2603.4 -1268.24 3792
-2594.33 -1268.24 3792
-2585.26 -1268.24 3792
-2576.2 -1268.24 3792
-2567.13 -1268.24 3792
-2551.99 -1265.23 3783
-2542.94 -1265.23 3783
-2511.12 -1253.86 3749
-2485.47 -1245.5 3724
-2476.57 -1245.5 3724
-2489.53 -1256.53 3757
-2480.55 -1256.53 3757
-2505.77 -1273.92 3809
-2496.66 -1273.92 3809
-2487.55 -1273.92 3809
-1466.16 -1322.09 3953
-1456.71 -1322.09 3953
-1447.26 -1322.09 3953
-1437.8 -1322.09 3953
-1428.35 -1322.09 3953
-1402.39 -1306.7 3907
-1370.58 -1285.63 3844
-1361.39 -1285.63 3844
-1394.06 -1325.43 3963
-1384.58 -1325.43 3963
-1378.23 -1328.44 3972
-1368.73 -1328.44 3972
-1359.23 -1328.44 3972
-1346.67 -1325.43 3963
-1343.61 -1331.78 3982
-1346.82 -1344.49 4020
-1337.2 -1344.49 4020
-1327.59 -1344.49 4020
-1317.98 -1344.49 4020
-1305.11 -1341.15 4010
-1295.52 -1341.15 4010
-1285.93 -1341.15 4010
-1276.34 -1341.15 4010
-1269.91 -1344.49 4020
-1260.3 -1344.49 4020
-1250.69 -1344.49 4020
-1241.07 -1344.49 4020
-1219.82 -1331.78 3982
-162.216 -729.438 2181
-157.001 -729.438 2181
-152.133 -731.11 2186
-146.906 -731.11 2186
-141.679 -731.11 2186
-136.451 -731.11 2186
-131.224 -731.11 2186
-125.19 -726.428 2172
-119.996 -726.428 2172
-114.537 -724.756 2167
-109.053 -722.749 2161
-103.741 -721.746 2158
-98.5805 -721.746 2158
-93.2902 -720.742 2155
-88.0551 -720.073 2153
-82.9067 -720.073 2153
-77.7582 -720.073 2153
-72.6097 -720.073 2153
-67.3672 -719.07 2150
-62.2259 -719.07 2150
-57.0846 -719.07 2150
-51.8709 -718.067 2147
-46.6279 -716.394 2142
-41.3895 -714.388 2136
-36.2816 -714.388 2136
-31.1008 -712.716 2131
-26.005 -712.716 2131
-20.8797 -711.712 2128
-15.7687 -710.709 2125
-10.6872 -710.709 2125
-5.59776 -709.705 2122
-0.522922 -709.037 2120
4.52948 -706.361 2112
9.57992 -706.361 2112
14.6096 -705.358 2109
19.6249 -704.354 2106
24.6375 -703.685 2104
29.6688 -703.685 2104
34.6507 -702.682 2101
39.5804 -701.01 2096
44.4862 -699.337 2091
49.4864 -699.337 2091
54.1478 -694.99 2078
59.117 -694.99 2078
63.9936 -693.986 2075
68.9555 -693.986 2075
73.9175 -693.986 2075
78.7654 -692.983 2072
83.7202 -692.983 2072
88.675 -692.983 2072
93.9009 -694.99 2078
98.87 -694.99 2078
103.939 -695.659 2080
109.07 -696.662 2083
114.051 -696.662 2083
119.032 -696.662 2083
124.311 -698.334 2088
129.304 -698.334 2088
134.619 -700.006 2093
139.624 -700.006 2093
144.974 -701.679 2098
150.42 -703.685 2104
155.821 -705.358 2109
160.864 -705.358 2109
166.143 -706.361 2112
171.194 -706.361 2112
176.244 -706.361 2112
181.295 -706.361 2112
186.345 -706.361 2112
191.577 -707.03 2114
196.911 -708.033 2117
201.973 -708.033 2117
207.818 -710.709 2125
212.9 -710.709 2125
217.981 -710.709 2125
222.223 -708.033 2117
1403.08 -1242.82 3716
1411.97 -1242.82 3716
1420.86 -1242.82 3716
1423.2 -1237.14 3699
1428.95 -1234.46 3691
1434.66 -1231.78 3683
1446.6 -1234.46 3691
1465.29 -1242.82 3716
1474.17 -1242.82 3716
1489.44 -1248.17 3732
1501.58 -1250.85 3740
1514.16 -1253.86 3749
1523.12 -1253.86 3749
1532.09 -1253.86 3749
1544.34 -1256.53 3757
1557.05 -1259.54 3766
1566.05 -1259.54 3766
1575.06 -1259.54 3766
1584.07 -1259.54 3766
1593.07 -1259.54 3766
1587.61 -1248.17 3732
1593.11 -1245.5 3724
1602.02 -1245.5 3724
1610.92 -1245.5 3724
-2849.38 -1288.38 3880
-2880.36 -1306.64 3935
-2870.95 -1306.64 3935
-2861.54 -1306.64 3935
-2844.89 -1303.32 3925
-2835.5 -1303.32 3925
-2826.11 -1303.32 3925
-2784.43 -1288.38 3880
-2775.16 -1288.38 3880
-2765.88 -1288.38 3880
-2756.6 -1288.38 3880
-2721.83 -1276.42 3844
-2712.64 -1276.42 3844
-2709.78 -1279.41 3853
-2700.56 -1279.41 3853
-2691.35 -1279.41 3853
-2663.34 -1270.45 3826
-2636.15 -1261.81 3800
-2627.07 -1261.81 3800
-2612.47 -1259.16 3792
-2603.4 -1259.16 3792
-2594.33 -1259.16 3792
-2585.26 -1259.16 3792
-2576.2 -1259.16 3792
-2561.04 -1256.17 3783
-2551.99 -1256.17 3783
-2542.94 -1256.17 3783
-2511.12 -1244.88 3749
-2485.47 -1236.58 3724
-2476.57 -1236.58 3724
-2489.53 -1247.53 3757
-2480.55 -1247.53 3757
-2505.77 -1264.8 3809
-2496.66 -1264.8 3809
-2487.55 -1264.8 3809
-1421.07 -1297.34 3907
-1411.73 -1297.34 3907
-1402.39 -1297.34 3907
-1370.58 -1276.42 3844
-1361.39 -1276.42 3844
-1387.37 -1309.63 3944
-1377.94 -1309.63 3944
-1375.1 -1315.94 3963
-1365.63 -1315.94 3963
-1356.15 -1315.94 3963
-1343.28 -1312.62 3953
-1333.82 -1312.62 3953
-1334.09 -1322.25 3982
-1330.88 -1328.55 4001
-1321.32 -1328.55 4001
-1311.75 -1328.55 4001
-1302.18 -1328.55 4001
-1292.61 -1328.55 4001
-1279.84 -1325.23 3991
-1270.3 -1325.23 3991
-1263.91 -1328.55 4001
-1254.34 -1328.55 4001
-1244.78 -1328.55 4001
-1232.12 -1325.23 3991
-1219.82 -1322.25 3982
-161.547 -721.225 2172
-156.353 -721.225 2172
-151.368 -722.221 2175
-146.167 -722.221 2175
-140.966 -722.221 2175
-135.765 -722.221 2175
-130.384 -721.225 2172
-124.901 -719.565 2167
-119.719 -719.565 2167
-114.379 -718.569 2164
-108.901 -716.576 2158
-103.597 -715.58 2155
-98.4435 -715.58 2155
-93.2902 -715.58 2155
-88.0551 -714.916 2153
-82.9067 -714.916 2153
-77.7582 -714.916 2153
-72.6097 -714.916 2153
-67.3672 -713.92 2150
-62.1391 -712.924 2147
-57.005 -712.924 2147
-51.7501 -711.263 2142
-46.4973 -709.271 2136
-41.3313 -708.275 2133
-36.2307 -708.275 2133
-31.1008 -707.611 2131
-25.9684 -706.615 2128
-20.8502 -705.618 2125
-15.7465 -704.622 2122
-10.6721 -704.622 2122
-5.59248 -703.958 2120
-0.521442 -701.966 2114
4.52948 -701.302 2112
9.57992 -701.302 2112
14.6096 -700.305 2109
19.6249 -699.309 2106
24.6375 -698.645 2104
29.6688 -698.645 2104
34.6507 -697.649 2101
39.5237 -694.993 2093
44.4223 -693.332 2088
49.4154 -693.332 2088
54.1478 -690.012 2078
59.117 -690.012 2078
63.9936 -689.016 2075
68.9555 -689.016 2075
73.8106 -688.019 2072
78.7654 -688.019 2072
83.5182 -686.359 2067
88.461 -686.359 2067
93.6297 -688.019 2072
98.5845 -688.019 2072
103.539 -688.019 2072
108.808 -690.012 2078
113.887 -690.676 2080
118.861 -690.676 2080
124.013 -691.672 2083
128.994 -691.672 2083
134.104 -692.336 2085
139.09 -692.336 2085
144.283 -693.332 2088
149.991 -696.653 2098
155.451 -698.645 2104
160.483 -698.645 2104
165.514 -698.645 2104
170.545 -698.645 2104
175.577 -698.645 2104
180.608 -698.645 2104
185.639 -698.645 2104
190.67 -698.645 2104
196.167 -700.305 2109
201.21 -700.305 2109
206.253 -700.305 2109
211.297 -700.305 2109
216.34 -700.305 2109
221.383 -700.305 2109
225.568 -697.649 2101
1403.08 -1233.92 3716
1411.97 -1233.92 3716
1420.86 -1233.92 3716
1423.2 -1228.27 3699
1428.95 -1225.62 3691
1434.66 -1222.96 3683
1446.6 -1225.62 3691
1465.29 -1233.92 3716
1474.17 -1233.92 3716
1489.44 -1239.23 3732
1501.58 -1241.89 3740
1514.16 -1244.88 3749
1523.12 -1244.88 3749
1532.09 -1244.88 3749
1544.34 -1247.53 3757
1557.05 -1250.52 3766
1566.05 -1250.52 3766
1575.06 -1250.52 3766
1584.07 -1250.52 3766
1593.07 -1250.52 3766
1591.02 -1241.89 3740
1593.11 -1236.58 3724
1602.02 -1236.58 3724
1610.92 -1236.58 3724
-2849.38 -1279.08 3880
-2914.77 -1312.71 3982
-2905.24 -1312.71 3982
-2895.72 -1312.71 3982
-2886.2 -1312.71 3982
-2862.95 -1306.44 3963
-2853.47 -1306.44 3963
-2836.82 -1303.15 3953
-2807.34 -1293.92 3925
-2797.96 -1293.92 3925
-2788.57 -1293.92 3925
-2734.58 -1273.15 3862
-2725.34 -1273.15 3862
-2735.09 -1282.05 3889
-2725.79 -1282.05 3889
-2716.49 -1282.05 3889
-2694.66 -1276.11 3871
-2672.92 -1270.18 3853
-2663.71 -1270.18 3853
-2648.29 -1267.21 3844
-2657.64 -1276.11 3871
-2648.38 -1276.11 3871
-2639.12 -1276.11 3871
-2629.87 -1276.11 3871
-2614.52 -1273.15 3862
-2587.07 -1264.25 3835
-2577.9 -1264.25 3835
-2539.93 -1250.07 3792
-2518.84 -1244.14 3774
-2509.82 -1244.14 3774
-2523.99 -1255.68 3809
-2514.88 -1255.68 3809
-2516.95 -1261.28 3826
-2507.8 -1261.28 3826
-2498.66 -1261.28 3826
-1388.97 -1267.21 3844
-1379.77 -1267.21 3844
-1370.58 -1267.21 3844
-1361.39 -1267.21 3844
-1384.21 -1297.21 3935
-1374.8 -1297.21 3935
-1368.51 -1300.18 3944
-1359.08 -1300.18 3944
-1349.65 -1300.18 3944
-1337.16 -1297.21 3935
-1324.38 -1293.92 3925
-1321.35 -1300.18 3944
-1314.92 -1303.15 3953
-1305.46 -1303.15 3953
-1296.01 -1303.15 3953
-1292.74 -1309.41 3972
-1283.24 -1309.41 3972
-1273.75 -1309.41 3972
-1264.25 -1309.41 3972
-1254.75 -1309.41 3972
-1245.25 -1309.41 3972
-1238.86 -1312.71 3982
-1229.34 -1312.71 3982
-1219.82 -1312.71 3982
-161.547 -716.022 2172
-156.353 -716.022 2172
-151.159 -716.022 2172
-145.965 -716.022 2172
-140.771 -716.022 2172
-135.577 -716.022 2172
-130.083 -714.374 2167
-124.728 -713.385 2164
-119.554 -713.385 2164
-114.22 -712.396 2161
-108.901 -711.407 2158
-103.597 -710.418 2155
-98.4435 -710.418 2155
-93.2902 -710.418 2155
-88.0551 -709.758 2153
-82.7911 -708.769 2150
-77.6498 -708.769 2150
-72.5085 -708.769 2150
-67.3672 -708.769 2150
-62.1391 -707.78 2147
-57.005 -707.78 2147
-51.7501 -706.132 2142
-46.4973 -704.154 2136
-41.2926 -702.506 2131
-36.1967 -702.506 2131
-31.0571 -701.517 2128
-25.9318 -700.528 2125
-20.8502 -700.528 2125
-15.7465 -699.539 2122
-10.6721 -699.539 2122
-5.59248 -698.88 2120
-0.521442 -696.902 2114
4.52948 -696.242 2112
9.57992 -696.242 2112
14.6096 -695.253 2109
19.6249 -694.264 2106
24.6375 -693.605 2104
29.6688 -693.605 2104
34.6507 -692.616 2101
39.5237 -689.979 2093
44.4223 -688.331 2088
49.4154 -688.331 2088
54.1478 -685.034 2078
59.117 -685.034 2078
63.9936 -684.045 2075
68.9555 -684.045 2075
73.8106 -683.056 2072
78.7654 -683.056 2072
83.5182 -681.408 2067
88.461 -681.408 2067
93.6297 -683.056 2072
98.5845 -683.056 2072
103.539 -683.056 2072
108.808 -685.034 2078
113.887 -685.693 2080
118.861 -685.693 2080
124.013 -686.682 2083
128.994 -686.682 2083
134.104 -687.341 2085
139.09 -687.341 2085
144.283 -688.331 2088
149.991 -691.627 2098
155.451 -693.605 2104
160.483 -693.605 2104
165.514 -693.605 2104
170.545 -693.605 2104
175.577 -693.605 2104
180.608 -693.605 2104
185.639 -693.605 2104
190.67 -693.605 2104
196.167 -695.253 2109
201.21 -695.253 2109
206.253 -695.253 2109
211.297 -695.253 2109
216.34 -695.253 2109
221.383 -695.253 2109
225.568 -692.616 2101
230.592 -692.616 2101
1403.08 -1225.02 3716
1411.97 -1225.02 3716
1420.86 -1225.02 3716
1426.28 -1222.05 3707
1428.95 -1216.78 3691
1434.66 -1214.14 3683
1446.6 -1216.78 3691
1465.29 -1225.02 3716
1474.17 -1225.02 3716
1489.44 -1230.29 3732
1501.58 -1232.93 3740
1514.16 -1235.9 3749
1523.12 -1235.9 3749
1532.09 -1235.9 3749
1544.34 -1238.53 3757
1557.05 -1241.5 3766
1566.05 -1241.5 3766
1575.06 -1241.5 3766
1584.07 -1241.5 3766
1593.07 -1241.5 3766
1594.84 -1235.9 3749
1599.96 -1232.93 3740
1608.9 -1232.93 3740
1617.85 -1232.93 3740
-2914.77 -1303.17 3982
-2919.11 -1309.39 4001
-2909.54 -1309.39 4001
-2899.97 -1309.39 4001
-2876.68 -1303.17 3982
-2867.16 -1303.17 3982
-2850.46 -1299.9 3972
-2827.37 -1293.68 3953
-2817.92 -1293.68 3953
-2808.46 -1293.68 3953
-2786.26 -1287.79 3935
-2776.85 -1287.79 3935
-2741.42 -1275.68 3898
-2732.1 -1275.68 3898
-2722.78 -1275.68 3898
-2700.93 -1269.79 3880
-2691.65 -1269.79 3880
-2682.37 -1269.79 3880
-2666.89 -1266.84 3871
-2670 -1272.73 3889
-2666.85 -1275.68 3898
-2657.53 -1275.68 3898
-2648.21 -1275.68 3898
-2632.8 -1272.73 3889
-2611.35 -1266.84 3871
-2602.1 -1266.84 3871
-2586.81 -1263.9 3862
-2536.2 -1243.61 3800
-2533.1 -1246.55 3809
-2523.99 -1246.55 3809
-2514.88 -1246.55 3809
-2540.64 -1263.9 3862
-2531.4 -1263.9 3862
-2522.17 -1263.9 3862
-1388.97 -1258.01 3844
-1379.77 -1258.01 3844
-1370.58 -1258.01 3844
-1361.39 -1258.01 3844
-1384.21 -1287.79 3935
-1374.8 -1287.79 3935
-1368.51 -1290.73 3944
-1359.08 -1290.73 3944
-1349.65 -1290.73 3944
-1337.16 -1287.79 3935
-1324.38 -1284.51 3925
-1321.35 -1290.73 3944
-1314.92 -1293.68 3953
-1305.46 -1293.68 3953
-1296.01 -1293.68 3953
-1292.74 -1299.9 3972
-1283.24 -1299.9 3972
-1273.75 -1299.9 3972
-1264.25 -1299.9 3972
-1254.75 -1299.9 3972
-1245.25 -1299.9 3972
-1238.86 -1303.17 3982
-1229.34 -1303.17 3982
-1219.82 -1303.17 3982
-168.046 -716.382 2189
-162.811 -716.382 2189
-157.577 -716.382 2189
-151.577 -712.782 2178
-145.965 -710.819 2172
-140.771 -710.819 2172
-135.577 -710.819 2172
-130.083 -709.183 2167
-124.728 -708.201 2164
-119.554 -708.201 2164
-114.22 -707.219 2161
-108.901 -706.237 2158
-103.597 -705.255 2155
-98.4435 -705.255 2155
-93.2902 -705.255 2155
-88.0551 -704.601 2153
-82.7911 -703.619 2150
-77.6498 -703.619 2150
-72.5085 -703.619 2150
-67.3672 -703.619 2150
-62.1391 -702.637 2147
-57.005 -702.637 2147
-51.7501 -701.001 2142
-46.4973 -699.037 2136
-41.2926 -697.401 2131
-36.1967 -697.401 2131
-31.0571 -696.419 2128
-25.9318 -695.437 2125
-20.8502 -695.437 2125
-15.7465 -694.456 2122
-10.6721 -694.456 2122
-5.59248 -693.801 2120
-0.521442 -691.838 2114
4.52305 -690.201 2109
9.56631 -690.201 2109
14.5888 -689.219 2106
19.5783 -687.583 2101
24.6024 -687.583 2101
29.6265 -687.583 2101
34.5682 -685.947 2096
39.5237 -684.965 2093
44.4223 -683.329 2088
49.4154 -683.329 2088
54.1478 -680.056 2078
59.0316 -679.074 2075
63.9936 -679.074 2075
68.9555 -679.074 2075
73.8106 -678.092 2072
78.5753 -676.456 2067
83.4373 -675.802 2065
88.3754 -675.802 2065
93.3134 -675.802 2065
98.2515 -675.802 2065
103.189 -675.802 2065
108.232 -676.456 2067
113.449 -678.092 2072
118.404 -678.092 2072
123.358 -678.092 2072
128.313 -678.092 2072
133.268 -678.092 2072
138.223 -678.092 2072
143.592 -680.056 2078
149.062 -682.347 2085
154.639 -684.965 2093
159.644 -684.965 2093
164.649 -684.965 2093
169.897 -685.947 2096
174.909 -685.947 2096
179.921 -685.947 2096
184.933 -685.947 2096
189.946 -685.947 2096
195.702 -688.565 2104
200.733 -688.565 2104
205.764 -688.565 2104
210.796 -688.565 2104
215.827 -688.565 2104
220.858 -688.565 2104
225.568 -687.583 2101
230.592 -687.583 2101
1399.69 -1213.17 3707
1408.55 -1213.17 3707
1417.42 -1213.17 3707
1426.28 -1213.17 3707
1422.76 -1202.7 3675
1434.66 -1205.32 3683
1446.6 -1207.93 3691
1465.29 -1216.12 3716
1474.17 -1216.12 3716
1489.44 -1221.35 3732
1501.58 -1223.97 3740
1514.16 -1226.92 3749
1523.12 -1226.92 3749
1532.09 -1226.92 3749
1544.34 -1229.53 3757
1557.05 -1232.48 3766
1566.05 -1232.48 3766
1575.06 -1232.48 3766
1584.07 -1232.48 3766
1593.07 -1232.48 3766
1594.84 -1226.92 3749
1599.96 -1223.97 3740
1608.9 -1223.97 3740
1617.85 -1223.97 3740
-2914.77 -1293.63 3982
-2932.97 -1305.97 4020
-2923.36 -1305.97 4020
-2913.74 -1305.97 4020
-2890.4 -1299.8 4001
-2880.84 -1299.8 4001
-2864.09 -1296.55 3991
-2848.11 -1293.63 3982
-2831.46 -1290.38 3972
-2821.96 -1290.38 3972
-2792.64 -1281.28 3944
-2783.21 -1281.28 3944
-2747.75 -1269.26 3907
-2738.41 -1269.26 3907
-2729.07 -1269.26 3907
-2700.93 -1260.49 3880
-2691.65 -1260.49 3880
-2688.59 -1263.42 3889
-2679.3 -1263.42 3889
-2688.53 -1272.19 3916
-2679.17 -1272.19 3916
-2669.8 -1272.19 3916
-2660.44 -1272.19 3916
-2638.89 -1266.34 3898
-2611.35 -1257.57 3871
-2602.1 -1257.57 3871
-2586.81 -1254.64 3862
-2565.56 -1248.8 3844
-2544.4 -1242.95 3826
-2559.11 -1254.64 3862
-2549.87 -1254.64 3862
-2540.64 -1254.64 3862
-2531.4 -1254.64 3862
-2522.17 -1254.64 3862
-1385.71 -1245.87 3835
-1376.54 -1245.87 3835
-1367.37 -1245.87 3835
-1358.2 -1245.87 3835
-1374.36 -1269.26 3907
-1365.02 -1269.26 3907
-1355.67 -1269.26 3907
-1346.33 -1269.26 3907
-1336.99 -1269.26 3907
-1321.53 -1263.42 3889
-1318.3 -1269.26 3907
-1318.34 -1278.36 3935
-1314.92 -1284.21 3953
-1305.46 -1284.21 3953
-1296.01 -1284.21 3953
-1289.81 -1287.46 3963
-1283.24 -1290.38 3972
-1273.75 -1290.38 3972
-1264.25 -1290.38 3972
-1254.75 -1290.38 3972
-1242.43 -1287.46 3963
-1232.95 -1287.46 3963
-1223.48 -1287.46 3963
-1202.36 -1275.11 3925
-168.046 -711.139 2189
-162.811 -711.139 2189
-157.577 -711.139 2189
-151.577 -707.565 2178
-145.629 -703.992 2167
-140.447 -703.992 2167
-135.265 -703.992 2167
-129.903 -703.017 2164
-124.728 -703.017 2164
-119.554 -703.017 2164
-114.062 -701.068 2158
-108.901 -701.068 2158
-103.597 -700.093 2155
-98.4435 -700.093 2155
-93.2036 -699.443 2153
-87.9324 -698.469 2150
-82.7911 -698.469 2150
-77.6498 -698.469 2150
-72.5085 -698.469 2150
-67.2732 -697.494 2147
-62.0523 -696.52 2144
-56.9253 -696.52 2144
-51.6776 -694.895 2139
-46.432 -692.946 2133
-41.2344 -691.322 2128
-36.1457 -691.322 2128
-31.0133 -690.347 2125
-25.9318 -690.347 2125
-20.8208 -689.372 2122
-15.7316 -688.723 2120
-10.662 -688.723 2120
-5.58457 -687.748 2117
-0.520949 -686.124 2112
4.52305 -685.149 2109
9.56631 -685.149 2109
14.5749 -683.525 2104
19.5783 -682.55 2101
24.6024 -682.55 2101
29.6265 -682.55 2101
34.5682 -680.926 2096
39.486 -679.301 2091
44.3585 -677.352 2085
49.3444 -677.352 2085
54.1478 -675.078 2078
59.0316 -674.104 2075
63.9011 -673.129 2072
68.8558 -673.129 2072
73.7394 -672.479 2070
78.4993 -670.855 2065
83.3161 -669.88 2062
88.247 -669.88 2062
93.1779 -669.88 2062
98.1087 -669.88 2062
103.04 -669.88 2062
107.97 -669.88 2062
113.066 -670.855 2065
118.004 -670.855 2065
123.061 -671.505 2067
128.004 -671.505 2067
132.946 -671.505 2067
137.889 -671.505 2067
142.832 -671.505 2067
148.132 -673.129 2072
153.9 -676.703 2083
158.881 -676.703 2083
163.862 -676.703 2083
168.843 -676.703 2083
173.824 -676.703 2083
178.805 -676.703 2083
183.522 -675.728 2080
188.949 -677.352 2085
194.214 -678.327 2088
199.207 -678.327 2088
204.493 -679.301 2091
210.195 -681.576 2098
215.519 -682.55 2101
220.543 -682.55 2101
225.568 -682.55 2101
230.592 -682.55 2101
1399.69 -1204.29 3707
1408.55 -1204.29 3707
1417.42 -1204.29 3707
1426.28 -1204.29 3707
1422.76 -1193.89 3675
1434.66 -1196.49 3683
1446.6 -1199.09 3691
1461.74 -1204.29 3707
1470.6 -1204.29 3707
1486.25 -1209.81 3724
1498.37 -1212.41 3732
1510.52 -1215.01 3740
1519.47 -1215.01 3740
1532.09 -1217.93 3749
1548.04 -1223.46 3766
1560.36 -1226.06 3774
1569.38 -1226.06 3774
1578.41 -1226.06 3774
1587.43 -1226.06 3774
1596.45 -1226.06 3774
1598.25 -1220.53 3757
1607.23 -1220.53 3757
1616.22 -1220.53 3757
1625.2 -1220.53 3757
-2932.97 -1296.34 4020
-2923.36 -1296.34 4020
-2913.74 -1296.34 4020
-2890.4 -1290.22 4001
-2880.84 -1290.22 4001
-2864.09 -1286.99 3991
-2848.11 -1284.09 3982
-2831.46 -1280.87 3972
-2821.96 -1280.87 3972
-2792.64 -1271.84 3944
-2783.21 -1271.84 3944
-2747.75 -1259.9 3907
-2738.41 -1259.9 3907
-2729.07 -1259.9 3907
-2700.93 -1251.2 3880
-2691.65 -1251.2 3880
-2688.59 -1254.1 3889
-2679.3 -1254.1 3889
-2688.53 -1262.81 3916
-2679.17 -1262.81 3916
-2669.8 -1262.81 3916
-2660.44 -1262.81 3916
-2638.89 -1257 3898
-2611.35 -1248.3 3871
-2602.1 -1248.3 3871
-2586.81 -1245.39 3862
-2565.56 -1239.59 3844
-2544.4 -1233.78 3826
-2559.11 -1245.39 3862
-2549.87 -1245.39 3862
-2540.64 -1245.39 3862
-2531.4 -1245.39 3862
-2522.17 -1245.39 3862
-1385.71 -1236.69 3835
-1376.54 -1236.69 3835
-1367.37 -1236.69 3835
-1358.2 -1236.69 3835
-1358.53 -1245.39 3862
-1349.29 -1245.39 3862
-1346.3 -1251.2 3880
-1337.03 -1251.2 3880
-1327.75 -1251.2 3880
-1312.35 -1245.39 3862
-1318.3 -1259.9 3907
-1314.99 -1265.71 3925
-1314.92 -1274.74 3953
-1305.46 -1274.74 3953
-1296.01 -1274.74 3953
-1289.81 -1277.96 3963
-1283.24 -1280.87 3972
-1273.75 -1280.87 3972
-1264.25 -1280.87 3972
-1254.75 -1280.87 3972
-1242.43 -1277.96 3963
-1232.95 -1277.96 3963
-1223.48 -1277.96 3963
-1202.36 -1265.71 3925
-168.046 -705.895 2189
-162.811 -705.895 2189
-157.577 -705.895 2189
-151.577 -702.348 2178
-145.629 -698.8 2167
-140.447 -698.8 2167
-135.265 -698.8 2167
-129.903 -697.833 2164
-124.728 -697.833 2164
-119.554 -697.833 2164
-114.062 -695.898 2158
-108.901 -695.898 2158
-103.597 -694.931 2155
-98.4435 -694.931 2155
-93.2036 -694.286 2153
-87.9324 -693.318 2150
-82.7911 -693.318 2150
-77.6498 -693.318 2150
-72.4074 -692.351 2147
-67.2732 -692.351 2147
-61.9944 -690.739 2142
-56.8722 -690.739 2142
-51.5326 -687.836 2133
-46.3884 -687.191 2131
-41.1763 -685.257 2125
-36.0438 -684.289 2122
-30.9695 -684.289 2122
-25.8707 -683.644 2120
-20.8012 -683.644 2120
-15.7093 -682.677 2117
-10.647 -682.677 2117
-5.57666 -681.709 2114
-0.520949 -681.064 2112
4.52305 -680.097 2109
9.56631 -680.097 2109
14.5541 -677.517 2101
19.5503 -676.55 2098
24.5439 -675.905 2096
29.556 -675.905 2096
34.5187 -674.937 2093
39.486 -674.292 2091
44.3585 -672.358 2085
49.3444 -672.358 2085
54.0697 -669.133 2075
59.0316 -669.133 2075
63.9011 -668.165 2072
68.8558 -668.165 2072
73.7394 -667.521 2070
78.4993 -665.908 2065
83.2353 -664.296 2060
88.1614 -664.296 2060
93.0875 -664.296 2060
98.0136 -664.296 2060
102.94 -664.296 2060
107.97 -664.941 2062
113.066 -665.908 2065
118.004 -665.908 2065
122.942 -665.908 2065
127.88 -665.908 2065
132.818 -665.908 2065
137.756 -665.908 2065
142.832 -666.553 2067
147.989 -667.521 2070
153.087 -668.165 2072
158.042 -668.165 2072
163.469 -670.1 2078
168.438 -670.1 2078
173.407 -670.1 2078
178.376 -670.1 2078
183.345 -670.1 2078
188.767 -671.713 2083
193.935 -672.358 2085
198.92 -672.358 2085
204.2 -673.325 2088
209.493 -674.292 2091
215.212 -676.55 2098
220.543 -677.517 2101
225.568 -677.517 2101
230.592 -677.517 2101
232.7 -669.133 2075
237.662 -669.133 2075
817.68 -1268.93 3935
827.09 -1268.93 3935
836.5 -1268.93 3935
1399.69 -1195.41 3707
1408.55 -1195.41 3707
1417.42 -1195.41 3707
1426.28 -1195.41 3707
1425.85 -1187.67 3683
1437.78 -1190.25 3691
1446.6 -1190.25 3691
1458.58 -1192.83 3699
1467.43 -1192.83 3699
1483.06 -1198.31 3716
1498.37 -1203.47 3732
1507.29 -1203.47 3732
1516.22 -1203.47 3732
1532.09 -1208.95 3749
1548.04 -1214.44 3766
1560.36 -1217.02 3774
1569.38 -1217.02 3774
1578.41 -1217.02 3774
1587.43 -1217.02 3774
1596.45 -1217.02 3774
1598.25 -1211.53 3757
1607.23 -1211.53 3757
1616.22 -1211.53 3757
1625.2 -1211.53 3757
-2932.97 -1286.71 4020
-2923.36 -1286.71 4020
-2913.74 -1286.71 4020
-2904.13 -1286.71 4020
-2894.52 -1286.71 4020
-2864.09 -1277.43 3991
-2848.11 -1274.55 3982
-2831.46 -1271.35 3972
-2821.96 -1271.35 3972
-2806.09 -1268.47 3963
-2796.61 -1268.47 3963
-2754.08 -1253.43 3916
-2744.72 -1253.43 3916
-2729.07 -1250.55 3907
-2707.19 -1244.78 3889
-2691.65 -1241.9 3880
-2688.59 -1244.78 3889
-2679.3 -1244.78 3889
-2688.53 -1253.43 3916
-2679.17 -1253.43 3916
-2669.8 -1253.43 3916
-2660.44 -1253.43 3916
-2638.89 -1247.66 3898
-2611.35 -1239.02 3871
-2602.1 -1239.02 3871
-2586.81 -1236.14 3862
-2565.56 -1230.38 3844
-2544.4 -1224.62 3826
-2559.11 -1236.14 3862
-2549.87 -1236.14 3862
-2540.64 -1236.14 3862
-2531.4 -1236.14 3862
-2522.17 -1236.14 3862
-1398.16 -1230.38 3844
-1388.97 -1230.38 3844
-1379.77 -1230.38 3844
-1358.1 -1219.18 3809
-1342.97 -1213.74 3792
-1352.2 -1230.38 3844
-1343 -1230.38 3844
-1336.94 -1233.26 3853
-1327.72 -1233.26 3853
-1318.51 -1233.26 3853
-1303.18 -1227.5 3835
-1294.01 -1227.5 3835
-1308.96 -1250.55 3907
-1308.93 -1259.51 3935
-1305.46 -1265.27 3953
-1296.01 -1265.27 3953
-1289.81 -1268.47 3963
-1283.24 -1271.35 3972
-1273.75 -1271.35 3972
-1264.25 -1271.35 3972
-1251.91 -1268.47 3963
-1236.47 -1262.39 3944
-1227.04 -1262.39 3944
-1211.74 -1256.31 3925
-1202.36 -1256.31 3925
-167.662 -699.051 2184
-162.439 -699.051 2184
-157.217 -699.051 2184
-151.577 -697.13 2178
-145.629 -693.609 2167
-140.447 -693.609 2167
-135.265 -693.609 2167
-129.903 -692.649 2164
-124.728 -692.649 2164
-119.554 -692.649 2164
-114.062 -690.729 2158
-108.75 -689.768 2155
-103.597 -689.768 2155
-98.4435 -689.768 2155
-93.2036 -689.128 2153
-87.9324 -688.168 2150
-82.6756 -687.208 2147
-77.5415 -687.208 2147
-72.4074 -687.208 2147
-67.1166 -685.607 2142
-61.9944 -685.607 2142
-56.8722 -685.607 2142
-51.5326 -682.727 2133
-46.3884 -682.087 2131
-41.1182 -679.206 2122
-36.0438 -679.206 2122
-30.9695 -679.206 2122
-25.8707 -678.566 2120
-20.8012 -678.566 2120
-15.7093 -677.605 2117
-10.647 -677.605 2117
-5.57666 -676.645 2114
-0.520949 -676.005 2112
4.52305 -675.045 2109
9.56631 -675.045 2109
14.5541 -672.484 2101
19.5503 -671.524 2098
24.5439 -670.884 2096
29.556 -670.884 2096
34.5187 -669.924 2093
39.486 -669.283 2091
44.3585 -667.363 2085
49.3444 -667.363 2085
54.1478 -665.122 2078
59.0316 -664.162 2075
63.9011 -663.202 2072
68.8558 -663.202 2072
73.7394 -662.562 2070
78.4993 -660.961 2065
83.2353 -659.361 2060
88.1614 -659.361 2060
93.0875 -659.361 2060
98.0136 -659.361 2060
102.94 -659.361 2060
107.604 -657.761 2055
113.066 -660.961 2065
118.004 -660.961 2065
122.942 -660.961 2065
127.88 -660.961 2065
132.818 -660.961 2065
137.756 -660.961 2065
142.832 -661.602 2067
147.989 -662.562 2070
153.087 -663.202 2072
158.042 -663.202 2072
163.469 -665.122 2078
168.438 -665.122 2078
173.407 -665.122 2078
178.376 -665.122 2078
183.345 -665.122 2078
188.767 -666.723 2083
193.935 -667.363 2085
198.92 -667.363 2085
204.2 -668.323 2088
209.493 -669.283 2091
215.212 -671.524 2098
220.543 -672.484 2101
225.568 -672.484 2101
230.592 -672.484 2101
232.7 -664.162 2075
237.662 -664.162 2075
800.686 -1277.43 3991
810.229 -1277.43 3991
819.773 -1277.43 3991
823.498 -1268.47 3963
827.09 -1259.51 3935
836.5 -1259.51 3935
843.76 -1256.31 3925
853.146 -1256.31 3925
1399.69 -1186.53 3707
1408.55 -1186.53 3707
1417.42 -1186.53 3707
1426.28 -1186.53 3707
1425.85 -1178.85 3683
1437.78 -1181.41 3691
1446.6 -1181.41 3691
1458.58 -1183.97 3699
1467.43 -1183.97 3699
1483.06 -1189.41 3716
1498.37 -1194.53 3732
1507.29 -1194.53 3732
1516.22 -1194.53 3732
1532.09 -1199.97 3749
1548.04 -1205.41 3766
1560.36 -1207.97 3774
1569.38 -1207.97 3774
1578.41 -1207.97 3774
1587.43 -1207.97 3774
1596.45 -1207.97 3774
1598.25 -1202.53 3757
1607.23 -1202.53 3757
1616.22 -1202.53 3757
1625.2 -1202.53 3757
-2932.97 -1277.08 4020
-2923.36 -1277.08 4020
-2913.74 -1277.08 4020
-2904.13 -1277.08 4020
-2894.52 -1277.08 4020
-2864.09 -1267.87 3991
-2848.11 -1265.01 3982
-2831.46 -1261.84 3972
-2821.96 -1261.84 3972
-2806.09 -1258.98 3963
-2796.61 -1258.98 3963
-2760.41 -1246.9 3925
-2751.03 -1246.9 3925
-2735.35 -1244.05 3916
-2713.46 -1238.33 3898
-2697.89 -1235.47 3889
-2688.59 -1235.47 3889
-2679.3 -1235.47 3889
-2688.53 -1244.05 3916
-2679.17 -1244.05 3916
-2669.8 -1244.05 3916
-2660.44 -1244.05 3916
-2632.8 -1235.47 3889
-2611.35 -1229.75 3871
-2602.1 -1229.75 3871
-2580.78 -1224.03 3853
-2565.56 -1221.17 3844
-2544.4 -1215.45 3826
-2535.25 -1215.45 3826
-2526.1 -1215.45 3826
-2505.77 -1210.05 3809
-1398.16 -1221.17 3844
-1388.97 -1221.17 3844
-1379.77 -1221.17 3844
-1358.1 -1210.05 3809
-1342.97 -1204.65 3792
-1352.2 -1221.17 3844
-1343 -1221.17 3844
-1336.94 -1224.03 3853
-1327.72 -1224.03 3853
-1318.51 -1224.03 3853
-1303.18 -1218.31 3835
-1294.01 -1218.31 3835
-1308.96 -1241.19 3907
-1308.93 -1250.08 3935
-1305.46 -1255.8 3953
-1296.01 -1255.8 3953
-1289.81 -1258.98 3963
-1283.24 -1261.84 3972
-1273.75 -1261.84 3972
-1264.25 -1261.84 3972
-1251.91 -1258.98 3963
-1236.47 -1252.94 3944
-1227.04 -1252.94 3944
-1211.74 -1246.9 3925
-1202.36 -1246.9 3925
-167.662 -693.819 2184
-162.439 -693.819 2184
-157.217 -693.819 2184
-151.577 -691.913 2178
-145.764 -689.054 2169
-140.577 -689.054 2169
-135.265 -688.418 2167
-129.903 -687.465 2164
-124.728 -687.465 2164
-119.554 -687.465 2164
-114.062 -685.559 2158
-108.75 -684.606 2155
-103.597 -684.606 2155
-98.4435 -684.606 2155
-93.2036 -683.971 2153
-87.9324 -683.018 2150
-82.6756 -682.065 2147
-77.5415 -682.065 2147
-72.4074 -682.065 2147
-67.1166 -680.476 2142
-61.9944 -680.476 2142
-56.8722 -680.476 2142
-51.5326 -677.617 2133
-46.3884 -676.982 2131
-41.1182 -674.123 2122
-36.0438 -674.123 2122
-30.9695 -674.123 2122
-25.8707 -673.487 2120
-20.8012 -673.487 2120
-15.7093 -672.534 2117
-10.647 -672.534 2117
-5.57666 -671.581 2114
-0.520949 -670.946 2112
4.52305 -669.993 2109
9.56631 -669.993 2109
14.5749 -668.404 2104
19.5783 -667.451 2101
24.5439 -665.863 2096
29.556 -665.863 2096
34.5187 -664.91 2093
39.486 -664.274 2091
44.3585 -662.368 2085
49.3444 -662.368 2085
54.1478 -660.145 2078
59.0316 -659.191 2075
63.9011 -658.238 2072
68.8558 -658.238 2072
73.7394 -657.603 2070
78.4993 -656.015 2065
83.2353 -654.426 2060
88.1614 -654.426 2060
93.0875 -654.426 2060
98.0136 -654.426 2060
102.94 -654.426 2060
107.604 -652.838 2055
112.518 -652.838 2055
117.432 -652.838 2055
122.942 -656.015 2065
127.88 -656.015 2065
132.818 -656.015 2065
137.756 -656.015 2065
142.694 -656.015 2065
147.775 -656.65 2067
152.939 -657.603 2070
157.889 -657.603 2070
162.997 -658.238 2072
168.195 -659.191 2075
173.157 -659.191 2075
178.119 -659.191 2075
183.08 -659.191 2075
188.314 -660.145 2078
193.283 -660.145 2078
198.253 -660.145 2078
203.906 -662.368 2085
208.892 -662.368 2085
214.186 -663.321 2088
220.228 -666.498 2098
225.245 -666.498 2098
230.262 -666.498 2098
232.7 -659.191 2075
237.662 -659.191 2075
241.689 -656.65 2067
800.686 -1267.87 3991
810.229 -1267.87 3991
819.773 -1267.87 3991
823.498 -1258.98 3963
827.09 -1250.08 3935
836.5 -1250.08 3935
843.76 -1246.9 3925
853.146 -1246.9 3925
1399.69 -1177.65 3707
1408.55 -1177.65 3707
1417.42 -1177.65 3707
1426.28 -1177.65 3707
1425.85 -1170.03 3683
1437.78 -1172.57 3691
1446.6 -1172.57 3691
1458.58 -1175.11 3699
