ply
format ascii 1.0
comment File generated
element vertex 2258
property float x
property float y
property float z
end_header
-316.675 1044.52 2753
-310.543 1046.03 2757
-304.501 1047.93 2762
-297.896 1047.93 2762
-291.292 1047.93 2762
-284.687 1047.93 2762
-278.082 1047.93 2762
-271.477 1047.93 2762
-265.352 1049.83 2767
-258.735 1049.83 2767
-252.118 1049.83 2767
-245.502 1049.83 2767
-238.885 1049.83 2767
-232.268 1049.83 2767
-225.652 1049.83 2767
-219.035 1049.83 2767
-212.418 1049.83 2767
-205.429 1047.93 2762
-199.473 1051.35 2771
-192.846 1051.35 2771
-186.22 1051.35 2771
-179.594 1051.35 2771
-172.967 1051.35 2771
-166.341 1051.35 2771
-159.715 1051.35 2771
-152.591 1047.93 2762
-145.986 1047.93 2762
-139.382 1047.93 2762
-99.4807 871.885 2298
-93.9855 871.885 2298
-88.4903 871.885 2298
-82.995 871.885 2298
-76.8591 864.676 2279
-71.1273 861.262 2270
-65.699 861.262 2270
-59.9256 856.329 2257
-54.4559 855.191 2254
-48.9353 852.915 2248
-43.4434 850.638 2242
-38.0821 850.638 2242
-32.7208 850.638 2242
-27.3595 850.638 2242
-21.9099 847.223 2233
-16.5701 847.223 2233
-11.2153 846.085 2230
-5.89849 848.362 2236
-0.553015 850.638 2242
4.81472 851.776 2245
10.1832 851.776 2245
15.5725 852.915 2248
21.0692 857.847 2261
26.5111 858.985 2264
31.925 858.985 2264
37.4874 862.4 2273
42.9228 862.4 2273
48.4859 864.676 2279
53.9357 864.676 2279
59.7242 869.609 2292
65.5464 874.162 2304
71.1485 875.3 2307
76.6653 875.3 2307
82.4314 877.956 2314
88.307 881.37 2323
93.862 881.37 2323
99.417 881.37 2323
105.288 884.026 2330
110.86 884.026 2330
116.782 886.682 2337
122.37 886.682 2337
127.958 886.682 2337
132.404 879.094 2317
137.945 879.094 2317
143.485 879.094 2317
237.091 1047.93 2762
244.137 1049.83 2767
250.753 1049.83 2767
258.579 1054.76 2780
265.704 1056.66 2785
272.853 1058.56 2790
279.525 1058.56 2790
286.196 1058.56 2790
294.863 1065.76 2809
304.049 1074.49 2832
310.821 1074.49 2832
318.154 1076.39 2837
325.511 1078.28 2842
332.307 1078.28 2842
339.103 1078.28 2842
346.508 1080.18 2847
353.316 1080.18 2847
360.124 1080.18 2847
365.643 1076.39 2837
372.427 1076.39 2837
379.88 1078.28 2842
387.356 1080.18 2847
394.164 1080.18 2847
400.972 1080.18 2847
407.78 1080.18 2847
414.588 1080.18 2847
419.176 1074.49 2832
423.09 1067.28 2813
426.303 1058.56 2790
432.199 1056.66 2785
438.858 1056.66 2785
445.518 1056.66 2785
450.717 1053.24 2776
455.872 1049.83 2767
462.489 1049.83 2767
469.106 1049.83 2767
475.722 1049.83 2767
482.339 1049.83 2767
488.956 1049.83 2767
495.573 1049.83 2767
502.189 1049.83 2767
508.806 1049.83 2767
515.423 1049.83 2767
522.04 1049.83 2767
528.656 1049.83 2767
536.047 1051.35 2771
544.436 1054.76 2780
551.084 1054.76 2780
561.543 1061.97 2799
572.094 1069.18 2818
579.859 1071.08 2823
586.61 1071.08 2823
593.361 1071.08 2823
599.049 1069.18 2818
604.712 1067.28 2813
611.439 1067.28 2813
617.287 1065.76 2809
624.004 1065.76 2809
629.598 1063.87 2804
636.304 1063.87 2804
643.009 1063.87 2804
649.714 1063.87 2804
656.419 1063.87 2804
663.125 1063.87 2804
669.83 1063.87 2804
676.535 1063.87 2804
685.433 1067.28 2813
692.16 1067.28 2813
698.887 1067.28 2813
705.613 1067.28 2813
707.529 1060.07 2794
714.21 1060.07 2794
718.569 1056.66 2785
717.938 1046.03 2757
722.165 1042.62 2748
726.35 1039.21 2739
734.238 1041.1 2744
740.799 1041.1 2744
749.812 1044.52 2753
758.868 1047.93 2762
765.473 1047.93 2762
772.078 1047.93 2762
777.273 1046.03 2757
783.866 1046.03 2757
790.459 1046.03 2757
797.052 1046.03 2757
794.608 1034.27 2726
801.127 1034.27 2726
807.645 1034.27 2726
845.671 1065.76 2809
853.602 1067.28 2813
860.328 1067.28 2813
867.055 1067.28 2813
873.782 1067.28 2813
883.639 1071.08 2823
891.966 1072.97 2828
898.729 1072.97 2828
905.492 1072.97 2828
916.77 1078.28 2842
923.566 1078.28 2842
930.362 1078.28 2842
933.861 1074.49 2832
940.633 1074.49 2832
941.049 1067.28 2813
947.776 1067.28 2813
951.449 1063.87 2804
959.862 1065.76 2809
966.58 1065.76 2809
973.297 1065.76 2809
980.014 1065.76 2809
986.731 1065.76 2809
989.912 1061.97 2799
996.605 1061.97 2799
995.054 1053.24 2776
993.393 1044.52 2753
998.16 1042.62 2748
1004.73 1042.62 2748
1014.61 1046.03 2757
1021.21 1046.03 2757
1034.88 1053.24 2776
1041.52 1053.24 2776
1048.16 1053.24 2776
1054.8 1053.24 2776
1056.08 1047.93 2762
1062.69 1047.93 2762
1069.29 1047.93 2762
1075.9 1047.93 2762
1082.5 1047.93 2762
1085.56 1044.52 2753
1092.14 1044.52 2753
1095.13 1041.1 2744
1101.69 1041.1 2744
1104.62 1037.69 2735
1111.16 1037.69 2735
1125.06 1044.52 2753
1131.64 1044.52 2753
1145.67 1051.35 2771
1154.37 1053.24 2776
1162.68 1054.76 2780
1169.33 1054.76 2780
1175.98 1054.76 2780
1180.93 1053.24 2776
1187.56 1053.24 2776
1188.18 1047.93 2762
1190.89 1044.52 2753
1189.64 1037.69 2735
1196.18 1037.69 2735
1202.72 1037.69 2735
1209.27 1037.69 2735
1215.81 1037.69 2735
1222.35 1037.69 2735
1220.8 1030.86 2717
1225.49 1029.34 2713
1237.88 1034.27 2726
1250.33 1039.21 2739
1256.88 1039.21 2739
1263.43 1039.21 2739
1269.98 1039.21 2739
1276.53 1039.21 2739
1283.08 1039.21 2739
1289.63 1039.21 2739
1290.03 1034.27 2726
1294.17 1032.38 2721
1303.07 1034.27 2726
1309.58 1034.27 2726
1322.38 1039.21 2739
1340.09 1047.93 2762
1346.69 1047.93 2762
1353.3 1047.93 2762
1359.9 1047.93 2762
1366.51 1047.93 2762
1373.11 1047.93 2762
1375.22 1044.52 2753
1381.81 1044.52 2753
1385.87 1042.62 2748
1392.44 1042.62 2748
1394.43 1039.21 2739
1391.77 1032.38 2721
1398.28 1032.38 2721
1407.37 1034.27 2726
1415.96 1035.79 2730
1422.49 1035.79 2730
1436.34 1041.1 2744
1442.91 1041.1 2744
1449.47 1041.1 2744
1456.03 1041.1 2744
1462.59 1041.1 2744
1466.47 1039.21 2739
1473.02 1039.21 2739
1469.85 1032.38 2721
1476.36 1032.38 2721
1466.52 1020.99 2691
1487.18 1030.86 2717
1515.67 1046.03 2757
1522.26 1046.03 2757
1534.4 1049.83 2767
1556.05 1060.07 2794
1571.12 1065.76 2809
1577.84 1065.76 2809
1589.64 1069.18 2818
1609.97 1078.28 2842
1628.14 1085.87 2862
1634.99 1085.87 2862
1647 1089.29 2871
1653.86 1089.29 2871
1660.73 1089.29 2871
1667.59 1089.29 2871
1674.46 1089.29 2871
1681.32 1089.29 2871
1688.19 1089.29 2871
1692.1 1087.39 2866
1701.92 1089.29 2871
1714.74 1093.08 2881
1721.63 1093.08 2881
1728.51 1093.08 2881
1735.4 1093.08 2881
1760.44 1104.46 2911
1783.18 1114.33 2937
1790.21 1114.33 2937
1797.23 1114.33 2937
1804.25 1114.33 2937
1811.28 1114.33 2937
1771.87 1085.87 2862
1775.6 1083.98 2857
1769.96 1076.39 2837
-1584.36 980.096 2567
-1578.22 980.096 2567
-1574.53 981.623 2571
-1568.38 981.623 2571
-1564.06 982.768 2574
-1557.9 982.768 2574
-1554.16 984.296 2578
-1550.4 985.823 2582
-1544.22 985.823 2582
-1538.05 985.823 2582
-1529.5 984.296 2578
-1523.34 984.296 2578
-1519.53 985.823 2582
-1513.35 985.823 2582
-1509.51 987.35 2586
-1515.54 995.368 2607
-1525.51 1006.06 2635
-1519.21 1006.06 2635
-1518.08 1009.49 2644
-1511.75 1009.49 2644
-1505.43 1009.49 2644
-1499.11 1009.49 2644
-1487.71 1006.06 2635
-1472.41 999.95 2619
-1466.15 999.95 2619
-1459.88 999.95 2619
-1458.06 1003 2627
-1453.99 1004.53 2631
-1452.65 1007.97 2640
-1446.34 1007.97 2640
-1446.57 1012.55 2652
-1449.46 1019.04 2669
-1450.11 1024 2682
-1443.69 1024 2682
-1475.33 1051.11 2753
-1473.55 1054.55 2762
-1466.94 1054.55 2762
-1460.34 1054.55 2762
-1453.73 1054.55 2762
-1334.88 1044.24 2735
-1328.34 1044.24 2735
-1321.8 1044.24 2735
-1300.35 1032.4 2704
-1287.66 1027.44 2691
-1250.76 1003 2627
-1289 1038.89 2721
-1282.5 1038.89 2721
-1319.13 1074.02 2813
-1312.41 1074.02 2813
-1316.82 1083.18 2837
-1310.04 1083.18 2837
-1303.25 1083.18 2837
-1296.47 1083.18 2837
-1289.68 1083.18 2837
-1282.9 1083.18 2837
-1259.02 1068.67 2799
-1252.33 1068.67 2799
-1258.54 1079.75 2828
-1251.78 1079.75 2828
-1248.98 1083.18 2837
-1244.38 1085.09 2842
-1248.04 1094.26 2866
-1241.19 1094.26 2866
-1234.33 1094.26 2866
-1225.77 1092.73 2862
-1218.92 1092.73 2862
-1212.08 1092.73 2862
-1196.81 1085.09 2842
-1184.15 1079.75 2828
-1177.39 1079.75 2828
-1166.49 1075.93 2818
-1149.87 1066.77 2794
-1139.51 1063.33 2785
-1144.24 1074.02 2813
-1141.56 1077.84 2823
-1134.81 1077.84 2823
-1128.05 1077.84 2823
-1119.32 1075.93 2818
-1112.58 1075.93 2818
-1103.88 1074.02 2813
-1095.59 1072.49 2809
-1076.08 1059.89 2776
-1069.44 1059.89 2776
-1045.19 1042.33 2730
-1030.3 1033.93 2708
-1023.82 1033.93 2708
-1017.34 1033.93 2708
-1009.38 1032.4 2704
-931.794 1004.53 2631
-925.502 1004.53 2631
-919.211 1004.53 2631
-912.919 1004.53 2631
-906.628 1004.53 2631
-897.598 1001.48 2623
-892.685 1003 2627
-886.403 1003 2627
-880.121 1003 2627
-881.356 1033.93 2708
-874.881 1033.93 2708
-868.405 1033.93 2708
-861.929 1033.93 2708
-855.454 1033.93 2708
-848.978 1033.93 2708
-850.902 1044.24 2735
-848.376 1049.2 2748
-841.804 1049.2 2748
-835.233 1049.2 2748
-828.662 1049.2 2748
-819.398 1045.77 2739
-812.848 1045.77 2739
-792.168 1027.44 2691
-781.938 1022.48 2678
-779.298 1027.44 2691
-774.012 1028.97 2695
-767.568 1028.97 2695
-763.665 1032.4 2704
-757.199 1032.4 2704
-750.733 1032.4 2704
-744.267 1032.4 2704
-735.345 1028.97 2695
-726.466 1025.53 2686
-720.043 1025.53 2686
-713.62 1025.53 2686
-709.567 1028.97 2695
-703.122 1028.97 2695
-697.711 1030.49 2699
-691.257 1030.49 2699
-684.803 1030.49 2699
-678.349 1030.49 2699
-675.38 1035.84 2713
-668.893 1035.84 2713
-667.776 1044.24 2735
-663.412 1047.68 2744
-656.85 1047.68 2744
-650.289 1047.68 2744
-643.727 1047.68 2744
-637.165 1047.68 2744
-630.603 1047.68 2744
-622.905 1045.77 2739
-614.33 1042.33 2730
-605.798 1038.89 2721
-599.291 1038.89 2721
-593.873 1040.8 2726
-587.355 1040.8 2726
-580.836 1040.8 2726
-572.421 1037.37 2717
-565.924 1037.37 2717
-559.427 1037.37 2717
-554.761 1040.8 2726
-549.047 1042.33 2730
-542.519 1042.33 2730
-535.99 1042.33 2730
-526.941 1037.37 2717
-517.954 1032.4 2704
-511.488 1032.4 2704
-505.021 1032.4 2704
-498.555 1032.4 2704
-492.089 1032.4 2704
-485.623 1032.4 2704
-477.562 1028.97 2695
-471.118 1028.97 2695
-466.915 1033.93 2708
-460.439 1033.93 2708
-453.963 1033.93 2708
-447.488 1033.93 2708
-441.012 1033.93 2708
-434.536 1033.93 2708
-428.061 1033.93 2708
-421.585 1033.93 2708
-414.496 1032.4 2704
-408.03 1032.4 2704
-401.564 1032.4 2704
-394.367 1030.49 2699
-389.207 1033.93 2708
-384.569 1038.89 2721
-378.062 1038.89 2721
-371.555 1038.89 2721
-365.048 1038.89 2721
-358.015 1037.37 2717
-351.517 1037.37 2717
-345.02 1037.37 2717
-339.021 1038.89 2721
-333.615 1042.33 2730
-327.086 1042.33 2730
-320.558 1042.33 2730
-315.64 1047.68 2744
-310.092 1051.11 2753
-303.509 1051.11 2753
-296.926 1051.11 2753
-290.342 1051.11 2753
-283.759 1051.11 2753
-277.176 1051.11 2753
-270.101 1049.2 2748
-263.53 1049.2 2748
-256.959 1049.2 2748
-250.387 1049.2 2748
-243.816 1049.2 2748
-236.899 1047.68 2744
-230.338 1047.68 2744
-223.776 1047.68 2744
-217.214 1047.68 2744
-210.269 1045.77 2739
-203.719 1045.77 2739
-197.817 1049.2 2748
-191.246 1049.2 2748
-185.01 1051.11 2753
-178.427 1051.11 2753
-171.844 1051.11 2753
-165.26 1051.11 2753
-158.677 1051.11 2753
-151.818 1049.2 2748
-144.084 1040.8 2726
-137.565 1040.8 2726
-110.76 879.681 2304
-105.25 879.681 2304
-99.7404 879.681 2304
-94.1082 878.535 2301
-88.6058 878.535 2301
-82.995 877.39 2298
-76.9602 871.281 2282
-71.1273 866.699 2270
-65.699 866.699 2270
-59.9256 861.736 2257
-54.4559 860.591 2254
-48.9353 858.3 2248
-43.5016 857.154 2245
-38.1331 857.154 2245
-32.7208 856.009 2242
-27.3595 856.009 2242
-21.9099 852.573 2233
-16.5701 852.573 2233
-11.2304 852.573 2233
-5.91432 856.009 2242
-0.553755 857.154 2245
4.81472 857.154 2245
10.1832 857.154 2245
15.5725 858.3 2248
21.0692 863.263 2261
26.5111 864.409 2264
31.925 864.409 2264
37.3884 865.554 2267
42.9228 867.845 2273
48.4859 870.136 2279
53.9357 870.136 2279
59.4636 871.281 2282
65.2051 875.099 2292
71.056 879.681 2304
76.5656 879.681 2304
82.182 880.826 2307
87.9648 883.499 2314
93.6195 884.644 2317
99.1602 884.644 2317
104.836 885.79 2320
110.384 885.79 2320
115.932 885.79 2320
121.48 885.79 2320
127.028 885.79 2320
132.404 884.644 2317
137.945 884.644 2317
143.485 884.644 2317
148.383 880.826 2307
236.662 1052.64 2757
244.137 1056.46 2767
250.753 1056.46 2767
258.207 1059.89 2776
265.227 1061.42 2780
272.364 1063.33 2785
279.024 1063.33 2785
285.684 1063.33 2785
294.863 1072.49 2809
302.546 1075.93 2818
309.285 1075.93 2818
317.593 1081.27 2832
324.938 1083.18 2837
331.722 1083.18 2837
338.507 1083.18 2837
345.291 1083.18 2837
352.075 1083.18 2837
358.859 1083.18 2837
364.999 1081.27 2832
370.589 1077.84 2823
377.34 1077.84 2823
385.315 1081.27 2832
392.087 1081.27 2832
398.859 1081.27 2832
405.632 1081.27 2832
412.404 1081.27 2832
418.584 1079.75 2828
419.631 1065.24 2790
424.164 1059.89 2776
430.026 1057.98 2771
436.652 1057.98 2771
443.279 1057.98 2771
449.256 1056.46 2767
452.742 1049.2 2748
460.818 1052.64 2757
467.41 1052.64 2757
474.003 1052.64 2757
480.596 1052.64 2757
487.189 1052.64 2757
493.782 1052.64 2757
500.374 1052.64 2757
507.887 1054.55 2762
514.492 1054.55 2762
521.096 1054.55 2762
527.701 1054.55 2762
534.306 1054.55 2762
542.673 1057.98 2771
549.299 1057.98 2771
557.731 1061.42 2780
570.267 1072.49 2809
577.805 1074.02 2813
584.532 1074.02 2813
591.259 1074.02 2813
596.072 1070.58 2804
602.778 1070.58 2804
609.483 1070.58 2804
615.089 1068.67 2799
621.783 1068.67 2799
628.476 1068.67 2799
635.169 1068.67 2799
641.862 1068.67 2799
649.714 1070.58 2804
656.419 1070.58 2804
663.125 1070.58 2804
668.635 1068.67 2799
675.329 1068.67 2799
684.458 1072.49 2809
691.176 1072.49 2809
697.893 1072.49 2809
704.61 1072.49 2809
707.529 1066.77 2794
714.21 1066.77 2794
718.569 1063.33 2785
717.938 1052.64 2757
719.8 1045.77 2739
726.35 1045.77 2739
732.9 1045.77 2739
739.449 1045.77 2739
745.999 1045.77 2739
752.549 1045.77 2739
759.099 1045.77 2739
765.649 1045.77 2739
772.198 1045.77 2739
780.17 1047.68 2744
786.731 1047.68 2744
793.293 1047.68 2744
795.774 1042.33 2730
802.302 1042.33 2730
808.831 1042.33 2730
815.359 1042.33 2730
841.155 1066.77 2794
847.836 1066.77 2794
854.517 1066.77 2794
861.199 1066.77 2794
866.637 1065.24 2790
873.309 1065.24 2790
881.243 1066.77 2794
887.924 1066.77 2794
894.605 1066.77 2794
901.286 1066.77 2794
909.593 1068.67 2799
916.286 1068.67 2799
922.979 1068.67 2799
929.672 1068.67 2799
933.355 1065.24 2790
940.027 1065.24 2790
946.698 1065.24 2790
953.37 1065.24 2790
960.042 1065.24 2790
966.714 1065.24 2790
973.385 1065.24 2790
976.544 1061.42 2780
978.594 1056.46 2767
985.211 1056.46 2767
985.017 1049.2 2748
985.094 1042.33 2730
983.631 1033.93 2708
994.859 1038.89 2721
1003.21 1040.8 2726
1009.72 1040.8 2726
1024.45 1049.2 2748
1034.39 1052.64 2757
1040.99 1052.64 2757
1047.58 1052.64 2757
1052.64 1051.11 2753
1059.23 1051.11 2753
1065.81 1051.11 2753
1072.39 1051.11 2753
1071.92 1044.24 2735
1074.91 1040.8 2726
1081.43 1040.8 2726
1087.95 1040.8 2726
1094.47 1040.8 2726
1100.99 1040.8 2726
1107.51 1040.8 2726
1115.66 1042.33 2730
1122.19 1042.33 2730
1138.22 1051.11 2753
1148.55 1054.55 2762
1158.92 1057.98 2771
1165.55 1057.98 2771
1172.17 1057.98 2771
1177.1 1056.46 2767
1183.71 1056.46 2767
1184.31 1051.11 2753
1180.94 1042.33 2730
1187.47 1042.33 2730
1194 1042.33 2730
1200.53 1042.33 2730
1207.05 1042.33 2730
1211.8 1040.8 2726
1218.32 1040.8 2726
1216.75 1033.93 2708
1225.49 1035.84 2713
1235.61 1038.89 2721
1244.4 1040.8 2726
1252.75 1042.33 2730
1259.28 1042.33 2730
1265.81 1042.33 2730
1272.34 1042.33 2730
1278.87 1042.33 2730
1283.51 1040.8 2726
1287.66 1038.89 2721
1292.27 1037.37 2717
1298.76 1037.37 2717
1305.26 1037.37 2717
1316.1 1040.8 2726
1328.93 1045.77 2739
1342.31 1051.11 2753
1348.89 1051.11 2753
1355.47 1051.11 2753
1362.06 1051.11 2753
1368.64 1051.11 2753
1372.72 1049.2 2748
1379.3 1049.2 2748
1381.33 1045.77 2739
1387.88 1045.77 2739
1385.26 1038.89 2721
1389.72 1037.37 2717
1396.22 1037.37 2717
1404.78 1038.89 2721
1411.29 1038.89 2721
1417.8 1038.89 2721
1426.92 1040.8 2726
1440.28 1045.77 2739
1449.47 1047.68 2744
1456.03 1047.68 2744
1462.59 1047.68 2744
1466.47 1045.77 2739
1473.02 1045.77 2739
1469.85 1038.89 2721
1476.36 1038.89 2721
1461.61 1024 2682
1468.02 1024 2682
1493.68 1037.37 2717
1500.18 1037.37 2717
1528.85 1052.64 2757
1541.02 1056.46 2767
1562.74 1066.77 2794
1569.42 1066.77 2794
1584.56 1072.49 2809
1596.38 1075.93 2818
1625.3 1090.82 2857
1632.13 1090.82 2857
1647 1096.16 2871
1653.86 1096.16 2871
1660.73 1096.16 2871
1667.59 1096.16 2871
1671.54 1094.26 2866
1676.05 1092.73 2862
1682.9 1092.73 2862
1689.74 1092.73 2862
1701.92 1096.16 2871
1714.74 1099.98 2881
1721.63 1099.98 2881
1728.51 1099.98 2881
1735.4 1099.98 2881
1760.44 1111.44 2911
1783.18 1121.36 2937
1790.21 1121.36 2937
1797.23 1121.36 2937
1804.25 1121.36 2937
1811.28 1121.36 2937
1771.87 1092.73 2862
1763.17 1083.18 2837
-1584.36 986.245 2567
-1578.22 986.245 2567
-1574.53 987.782 2571
-1568.38 987.782 2571
-1562.24 987.782 2571
-1556.09 987.782 2571
-1554.16 990.471 2578
-1550.4 992.008 2582
-1544.22 992.008 2582
-1538.05 992.008 2582
-1529.5 990.471 2578
-1523.34 990.471 2578
-1517.17 990.471 2578
-1511.01 990.471 2578
-1509.51 993.545 2586
-1515.54 1001.61 2607
-1525.51 1012.37 2635
-1519.21 1012.37 2635
-1518.08 1015.83 2644
-1511.75 1015.83 2644
-1505.43 1015.83 2644
-1499.11 1015.83 2644
-1485.45 1010.83 2631
-1465.66 1001.61 2607
-1459.43 1001.61 2607
-1453.19 1001.61 2607
-1455.84 1007.76 2623
-1453.99 1010.83 2631
-1452.65 1014.29 2640
-1446.34 1014.29 2640
-1446.57 1018.9 2652
-1449.46 1025.43 2669
-1450.11 1030.43 2682
-1443.69 1030.43 2682
-1475.33 1057.71 2753
-1473.55 1061.16 2762
-1466.94 1061.16 2762
-1460.34 1061.16 2762
-1453.73 1061.16 2762
-1300.71 1023.9 2665
-1294.34 1023.9 2665
-1287.97 1023.9 2665
-1279.67 1022.36 2661
-1257.04 1009.3 2627
-1235.04 996.619 2594
-1280.95 1038.88 2704
-1274.49 1038.88 2704
-1275.99 1045.41 2721
-1292.81 1064.62 2771
-1301.5 1077.3 2804
-1294.8 1077.3 2804
-1288.09 1077.3 2804
-1294.18 1088.06 2832
-1287.41 1088.06 2832
-1280.64 1088.06 2832
-1220.34 1042.34 2713
-1239.8 1064.62 2771
-1233.18 1064.62 2771
-1226.55 1064.62 2771
-1228.29 1071.92 2790
-1231.69 1080.76 2813
-1227.14 1082.68 2818
-1220.4 1082.68 2818
-1213.66 1082.68 2818
-1211.2 1086.52 2828
-1204.44 1086.52 2828
-1197.68 1086.52 2828
-1190.92 1086.52 2828
-1179.97 1082.68 2818
-1173.23 1082.68 2818
-1156.55 1073.46 2794
-1142.46 1066.54 2776
-1139.51 1070 2785
-1138.54 1075.38 2799
-1141.56 1084.6 2823
-1134.81 1084.6 2823
-1128.05 1084.6 2823
-1119.32 1082.68 2818
-1112.58 1082.68 2818
-1102.31 1079.22 2809
-1088.18 1071.92 2790
-1072.59 1063.09 2767
-1065.98 1063.09 2767
-1045.19 1048.87 2730
-1028.77 1038.88 2704
-1022.31 1038.88 2704
-1015.84 1038.88 2704
-1006.02 1035.42 2695
-931.794 1010.83 2631
-925.502 1010.83 2631
-919.211 1010.83 2631
-912.919 1010.83 2631
-906.628 1010.83 2631
-897.598 1007.76 2623
-892.685 1009.3 2627
-886.403 1009.3 2627
-880.121 1009.3 2627
-881.356 1040.42 2708
-874.881 1040.42 2708
-868.405 1040.42 2708
-861.929 1040.42 2708
-855.454 1040.42 2708
-847.724 1038.88 2704
-850.902 1050.79 2735
-847.141 1054.25 2744
-840.579 1054.25 2744
-834.017 1054.25 2744
-827.456 1054.25 2744
-816.706 1048.87 2730
-810.177 1048.87 2730
-792.168 1033.89 2691
-781.938 1028.89 2678
-779.298 1033.89 2691
-772.863 1033.89 2691
-766.428 1033.89 2691
-761.123 1035.42 2695
-754.678 1035.42 2695
-748.234 1035.42 2695
-741.789 1035.42 2695
-732.889 1031.97 2686
-725.384 1030.43 2682
-718.971 1030.43 2682
-712.557 1030.43 2682
-706.144 1030.43 2682
-699.73 1030.43 2682
-695.643 1033.89 2691
-689.208 1033.89 2691
-682.773 1033.89 2691
-678.349 1036.96 2699
-675.38 1042.34 2713
-668.893 1042.34 2713
-667.776 1050.79 2735
-663.412 1054.25 2744
-656.85 1054.25 2744
-650.289 1054.25 2744
-643.727 1054.25 2744
-637.165 1054.25 2744
-630.603 1054.25 2744
-622.905 1052.33 2739
-614.33 1048.87 2730
-605.798 1045.41 2721
-599.291 1045.41 2721
-593.873 1047.33 2726
-587.355 1047.33 2726
-580.836 1047.33 2726
-572.421 1043.88 2717
-565.924 1043.88 2717
-559.427 1043.88 2717
-554.761 1047.33 2726
-549.047 1048.87 2730
-542.519 1048.87 2730
-535.99 1048.87 2730
-526.941 1043.88 2717
-517.954 1038.88 2704
-511.488 1038.88 2704
-505.021 1038.88 2704
-498.555 1038.88 2704
-492.089 1038.88 2704
-485.623 1038.88 2704
-477.562 1035.42 2695
-471.118 1035.42 2695
-466.915 1040.42 2708
-460.439 1040.42 2708
-453.963 1040.42 2708
-447.488 1040.42 2708
-441.012 1040.42 2708
-434.536 1040.42 2708
-428.061 1040.42 2708
-421.585 1040.42 2708
-414.496 1038.88 2704
-408.03 1038.88 2704
-401.564 1038.88 2704
-394.367 1036.96 2699
-389.207 1040.42 2708
-384.569 1045.41 2721
-378.062 1045.41 2721
-371.555 1045.41 2721
-365.048 1045.41 2721
-358.015 1043.88 2717
-351.517 1043.88 2717
-345.02 1043.88 2717
-339.021 1045.41 2721
-333.615 1048.87 2730
-327.086 1048.87 2730
-320.558 1048.87 2730
-315.64 1054.25 2744
-310.092 1057.71 2753
-303.509 1057.71 2753
-296.926 1057.71 2753
-290.342 1057.71 2753
-283.759 1057.71 2753
-277.176 1057.71 2753
-270.101 1055.79 2748
-263.53 1055.79 2748
-256.959 1055.79 2748
-250.387 1055.79 2748
-243.816 1055.79 2748
-236.899 1054.25 2744
-230.338 1054.25 2744
-223.776 1054.25 2744
-217.214 1054.25 2744
-210.269 1052.33 2739
-203.719 1052.33 2739
-197.817 1055.79 2748
-191.246 1055.79 2748
-185.01 1057.71 2753
-178.427 1057.71 2753
-171.844 1057.71 2753
-165.26 1057.71 2753
-158.677 1057.71 2753
-151.818 1055.79 2748
-144.084 1047.33 2726
-137.565 1047.33 2726
-110.76 885.2 2304
-105.25 885.2 2304
-99.7404 885.2 2304
-94.1082 884.047 2301
-88.6058 884.047 2301
-82.995 882.895 2298
-76.9602 876.748 2282
-71.1273 872.137 2270
-65.699 872.137 2270
-59.9256 867.143 2257
-54.4559 865.99 2254
-48.9353 863.685 2248
-43.5016 862.532 2245
-38.1331 862.532 2245
-32.7208 861.38 2242
-27.3595 861.38 2242
-21.9099 857.922 2233
-16.5701 857.922 2233
-11.2304 857.922 2233
-5.91432 861.38 2242
-0.553755 862.532 2245
4.81472 862.532 2245
10.1832 862.532 2245
15.5725 863.685 2248
21.0692 868.679 2261
26.5111 869.832 2264
31.925 869.832 2264
37.3884 870.985 2267
42.9228 873.29 2273
48.4859 875.595 2279
53.9357 875.595 2279
59.4636 876.748 2282
65.2051 880.59 2292
71.056 885.2 2304
76.5656 885.2 2304
82.182 886.353 2307
87.9648 889.042 2314
93.6195 890.195 2317
99.1602 890.195 2317
104.836 891.347 2320
110.384 891.347 2320
115.932 891.347 2320
121.48 891.347 2320
125.987 884.047 2301
131.661 885.2 2304
137.349 886.353 2307
142.866 886.353 2307
148.383 886.353 2307
153.699 885.2 2304
243.696 1061.16 2762
250.3 1061.16 2762
257.37 1063.09 2767
264.846 1066.54 2776
271.875 1068.08 2780
278.523 1068.08 2780
285.684 1070 2785
293.813 1075.38 2799
302.009 1080.76 2813
308.736 1080.76 2813
316.023 1082.68 2818
322.762 1082.68 2818
329.501 1082.68 2818
336.24 1082.68 2818
342.978 1082.68 2818
349.096 1080.76 2813
355.823 1080.76 2813
362.034 1079.22 2809
368.751 1079.22 2809
377.34 1084.6 2823
384.091 1084.6 2823
390.841 1084.6 2823
397.592 1084.6 2823
404.343 1084.6 2823
411.093 1084.6 2823
415.772 1079.22 2809
417.525 1066.54 2776
422.789 1063.09 2767
427.853 1059.24 2757
434.446 1059.24 2757
441.039 1059.24 2757
446.171 1055.79 2748
452.083 1054.25 2744
459.313 1055.79 2748
465.885 1055.79 2748
473.315 1057.71 2753
479.899 1057.71 2753
486.482 1057.71 2753
492.17 1055.79 2748
498.741 1055.79 2748
506.967 1059.24 2757
513.56 1059.24 2757
520.153 1059.24 2757
525.982 1057.71 2753
532.565 1057.71 2753
540.911 1061.16 2762
548.507 1063.09 2767
556.929 1066.54 2776
565.394 1070 2785
575.957 1077.3 2804
582.662 1077.3 2804
589.367 1077.3 2804
595.01 1075.38 2799
601.703 1075.38 2799
608.396 1075.38 2799
613.99 1073.46 2794
620.672 1073.46 2794
627.353 1073.46 2794
635.169 1075.38 2799
641.862 1075.38 2799
648.556 1075.38 2799
655.249 1075.38 2799
661.942 1075.38 2799
668.635 1075.38 2799
674.122 1073.46 2794
680.804 1073.46 2794
687.485 1073.46 2794
694.166 1073.46 2794
700.847 1073.46 2794
705.25 1070 2785
711.909 1070 2785
711.345 1059.24 2757
713.25 1052.33 2739
717.435 1048.87 2730
722.902 1047.33 2726
729.421 1047.33 2726
735.94 1047.33 2726
742.458 1047.33 2726
748.977 1047.33 2726
755.496 1047.33 2726
762.015 1047.33 2726
768.533 1047.33 2726
775.052 1047.33 2726
782.718 1048.87 2730
789.246 1048.87 2730
795.774 1048.87 2730
802.302 1048.87 2730
808.831 1048.87 2730
815.359 1048.87 2730
828.811 1057.71 2753
835.395 1057.71 2753
843.201 1059.24 2757
849.794 1059.24 2757
856.387 1059.24 2757
866.11 1063.09 2767
872.727 1063.09 2767
879.343 1063.09 2767
885.96 1063.09 2767
895.48 1066.54 2776
902.118 1066.54 2776
908.757 1066.54 2776
915.395 1066.54 2776
922.033 1066.54 2776
925.66 1063.09 2767
932.277 1063.09 2767
938.894 1063.09 2767
945.511 1063.09 2767
952.127 1063.09 2767
958.744 1063.09 2767
965.361 1063.09 2767
971.978 1063.09 2767
971.875 1055.79 2748
978.446 1055.79 2748
977.131 1047.33 2726
977.155 1040.42 2708
970.918 1026.97 2673
979.138 1028.89 2678
996.582 1040.42 2708
1003.06 1040.42 2708
1012.89 1043.88 2717
1019.39 1043.88 2717
1025.88 1043.88 2717
1032.38 1043.88 2717
1038.88 1043.88 2717
1046.91 1045.41 2721
1053.42 1045.41 2721
1059.93 1045.41 2721
1066.43 1045.41 2721
1071.36 1043.88 2717
1077.86 1043.88 2717
1079.17 1038.88 2704
1089.25 1042.34 2713
1095.74 1042.34 2713
1105.47 1045.41 2721
1111.98 1045.41 2721
1118.49 1045.41 2721
1134.5 1054.25 2744
1144.81 1057.71 2753
1155.16 1061.16 2762
1161.76 1061.16 2762
1168.36 1061.16 2762
1171.14 1057.71 2753
1177.72 1057.71 2753
1182.16 1055.79 2748
1180.94 1048.87 2730
1185.73 1047.33 2726
1192.25 1047.33 2726
1198.77 1047.33 2726
1205.29 1047.33 2726
1203.8 1040.42 2708
1210.28 1040.42 2708
1212.71 1036.96 2699
1219.16 1036.96 2699
1231.98 1042.34 2713
1242.12 1045.41 2721
1250.92 1047.33 2726
1257.44 1047.33 2726
1263.95 1047.33 2726
1270.47 1047.33 2726
1276.99 1047.33 2726
1281.16 1045.41 2721
1285.77 1043.88 2717
1292.27 1043.88 2717
1298.76 1043.88 2717
1299.02 1038.88 2704
1311.76 1043.88 2717
1326.99 1050.79 2735
1337.92 1054.25 2744
1344.48 1054.25 2744
1353.01 1055.79 2748
1359.58 1055.79 2748
1366.15 1055.79 2748
1368.23 1052.33 2739
1374.78 1052.33 2739
1379.31 1050.79 2735
1385.85 1050.79 2735
1383.23 1043.88 2717
1387.68 1042.34 2713
1394.17 1042.34 2713
1400.65 1042.34 2713
1407.14 1042.34 2713
1413.63 1042.34 2713
1426.92 1047.33 2726
1433.44 1047.33 2726
1439.96 1047.33 2726
1446.48 1047.33 2726
1453 1047.33 2726
1456.84 1045.41 2721
1463.34 1045.41 2721
1469.85 1045.41 2721
1474.19 1043.88 2717
1456.71 1026.97 2673
1468.02 1030.43 2682
1488.73 1040.42 2708
1495.21 1040.42 2708
1508.89 1045.41 2721
1535.45 1059.24 2757
1552.67 1066.54 2776
1559.31 1066.54 2776
1584.56 1079.22 2809
1596.38 1082.68 2818
1625.3 1097.66 2857
1632.13 1097.66 2857
1647 1103.04 2871
1653.86 1103.04 2871
1660.73 1103.04 2871
1667.59 1103.04 2871
1713.77 1110.73 2891
1720.69 1110.73 2891
1727.6 1110.73 2891
1728.51 1106.88 2881
1735.4 1106.88 2881
1760.44 1118.41 2911
1783.18 1128.4 2937
1790.21 1128.4 2937
1797.23 1128.4 2937
1804.25 1128.4 2937
1811.28 1128.4 2937
-1607.23 1002.83 2594
-1601.02 1002.83 2594
-1594.82 1002.83 2594
-1574.53 993.941 2571
-1568.38 993.941 2571
-1564.06 995.101 2574
-1557.9 995.101 2574
-1554.16 996.647 2578
-1550.4 998.193 2582
-1544.22 998.193 2582
-1538.05 998.193 2582
-1531.87 998.193 2582
-1525.7 998.193 2582
-1519.53 998.193 2582
-1513.35 998.193 2582
-1509.51 999.74 2586
-1520.19 1010.95 2615
-1530.72 1022.16 2644
-1524.4 1022.16 2644
-1522.67 1025.26 2652
-1516.33 1025.26 2652
-1509.99 1025.26 2652
-1501.38 1023.71 2648
-1492.79 1022.16 2644
-1472.41 1012.5 2619
-1466.15 1012.5 2619
-1457.65 1010.95 2615
-1455.84 1014.04 2623
-1453.99 1017.14 2631
-1457.05 1023.71 2648
-1450.72 1023.71 2648
-1446.57 1025.26 2652
-1449.46 1031.83 2669
-1450.11 1036.85 2682
-1443.69 1036.85 2682
-1475.33 1064.3 2753
-1473.55 1067.78 2762
-1466.94 1067.78 2762
-1460.34 1067.78 2762
-1453.73 1067.78 2762
-1300.71 1030.28 2665
-1294.34 1030.28 2665
-1287.97 1030.28 2665
-1271.5 1022.16 2644
-1239.33 1001.29 2590
-1225.52 995.101 2574
-1242.58 1014.04 2623
-1241.96 1018.68 2635
-1235.66 1018.68 2635
-1267.62 1050.38 2717
-1288.51 1073.19 2776
-1281.87 1073.19 2776
-1275.23 1073.19 2776
-1200.5 1015.59 2627
-1194.22 1015.59 2627
-1212.81 1036.85 2682
-1206.39 1036.85 2682
-1217.43 1051.93 2721
-1221.16 1060.82 2744
-1214.6 1060.82 2744
-1219.92 1071.26 2771
-1221.62 1078.61 2790
-1221.04 1084.02 2804
-1214.34 1084.02 2804
-1207.63 1084.02 2804
-1204.78 1087.5 2813
-1198.05 1087.5 2813
-1191.33 1087.5 2813
-1184.6 1087.5 2813
-1174.1 1084.02 2804
-1167.4 1084.02 2804
-1149.1 1073.19 2776
-1138.76 1069.71 2767
-1132.14 1069.71 2767
-1134.88 1078.61 2790
-1129.83 1080.15 2794
-1123.15 1080.15 2794
-1116.47 1080.15 2794
-1108.2 1078.61 2790
-1101.52 1078.61 2790
-1090.93 1074.74 2780
-1084.28 1074.74 2780
-1061.74 1058.89 2739
-1055.19 1058.89 2739
-1045.19 1055.41 2730
-1025.35 1041.88 2695
-1018.91 1041.88 2695
-1012.46 1041.88 2695
-1006.02 1041.88 2695
-928.96 1014.04 2623
-922.688 1014.04 2623
-916.416 1014.04 2623
-910.143 1014.04 2623
-903.871 1014.04 2623
-897.598 1014.04 2623
-892.685 1015.59 2627
-886.403 1015.59 2627
-880.121 1015.59 2627
-873.839 1015.59 2627
-880.054 1045.36 2704
-873.588 1045.36 2704
-867.122 1045.36 2704
-854.927 1038.4 2686
-848.504 1038.4 2686
-842.081 1038.4 2686
-845.302 1050.38 2717
-844.362 1057.34 2735
-837.822 1057.34 2735
-831.282 1057.34 2735
-824.742 1057.34 2735
-814.013 1051.93 2721
-807.506 1051.93 2721
-790.696 1038.4 2686
-781.938 1035.31 2678
-775.534 1035.31 2678
-771.427 1038.4 2686
-765.004 1038.4 2686
-759.993 1040.33 2691
-753.558 1040.33 2691
-747.123 1040.33 2691
-739.312 1038.4 2686
-730.706 1035.31 2678
-724.302 1035.31 2678
-717.898 1035.31 2678
-711.495 1035.31 2678
-705.091 1035.31 2678
-698.687 1035.31 2678
-692.283 1035.31 2678
-683.574 1031.83 2669
-677.191 1031.83 2669
-676.338 1040.33 2691
-673.14 1045.36 2704
-666.674 1045.36 2704
-662.405 1048.84 2713
-661.236 1057.34 2735
-654.696 1057.34 2735
-648.156 1057.34 2735
-642.554 1058.89 2739
-636.004 1058.89 2739
-629.454 1058.89 2739
-621.995 1057.34 2735
-612.304 1051.93 2721
-604.016 1048.84 2713
-597.529 1048.84 2713
-591.041 1048.84 2713
-584.554 1048.84 2713
-578.066 1048.84 2713
-571.578 1048.84 2713
-565.091 1048.84 2713
-557.574 1046.9 2708
-552.93 1050.38 2717
-546.432 1050.38 2717
-539.935 1050.38 2717
-533.438 1050.38 2717
-526.941 1050.38 2717
-516.996 1043.43 2699
-510.542 1043.43 2699
-504.088 1043.43 2699
-497.634 1043.43 2699
-490.451 1041.88 2695
-484.007 1041.88 2695
-477.562 1041.88 2695
-471.118 1041.88 2695
-465.363 1043.43 2699
-459.759 1045.36 2704
-453.293 1045.36 2704
-447.488 1046.9 2708
-441.012 1046.9 2708
-434.536 1046.9 2708
-428.061 1046.9 2708
-421.585 1046.9 2708
-414.496 1045.36 2704
-408.03 1045.36 2704
-400.822 1043.43 2699
-393.783 1041.88 2695
-388.632 1045.36 2704
-383.438 1048.84 2713
-377.506 1050.38 2717
-371.009 1050.38 2717
-364.512 1050.38 2717
-355.643 1043.43 2699
-349.189 1043.43 2699
-342.734 1043.43 2699
-337.402 1046.9 2708
-333.126 1053.86 2726
-326.607 1053.86 2726
-320.088 1053.86 2726
-314.03 1055.41 2730
-308.515 1058.89 2739
-301.965 1058.89 2739
-295.416 1058.89 2739
-288.866 1058.89 2739
-282.316 1058.89 2739
-276.27 1060.82 2744
-269.708 1060.82 2744
-263.146 1060.82 2744
-256.117 1058.89 2739
-249.567 1058.89 2739
-242.663 1057.34 2735
-234.223 1048.84 2713
-228.071 1050.38 2717
-221.574 1050.38 2717
-215.077 1050.38 2717
-208.58 1050.38 2717
-202.082 1050.38 2717
-195.585 1050.38 2717
-189.714 1053.86 2726
-183.196 1053.86 2726
-176.677 1053.86 2726
-169.347 1048.84 2713
-162.859 1048.84 2713
-155.853 1045.36 2704
-146.293 1023.71 2648
-116.118 889.56 2301
-110.76 890.719 2304
-105.25 890.719 2304
-99.7404 890.719 2304
-94.1082 889.56 2301
-88.6058 889.56 2301
-82.995 888.4 2298
-76.9602 882.214 2282
-71.1273 877.575 2270
-65.699 877.575 2270
-59.9256 872.549 2257
-54.4559 871.39 2254
-48.9353 869.07 2248
-43.5016 867.91 2245
-38.1331 867.91 2245
-32.7208 866.75 2242
-27.3595 866.75 2242
-21.9099 863.271 2233
-16.5701 863.271 2233
-11.2304 863.271 2233
-5.91432 866.75 2242
-0.553755 867.91 2245
4.81472 867.91 2245
10.1832 867.91 2245
15.5725 869.07 2248
21.032 872.549 2257
26.476 874.096 2261
31.8827 874.096 2261
37.3884 876.415 2267
42.8095 876.415 2267
48.3582 878.735 2273
53.7937 878.735 2273
59.3854 881.054 2279
65.0059 883.374 2285
70.871 888.4 2298
76.3662 888.4 2298
81.8614 888.4 2298
87.6987 891.879 2307
93.2155 891.879 2307
98.7322 891.879 2307
104.249 891.879 2307
109.766 891.879 2307
115.282 891.879 2307
120.642 890.719 2304
125.987 889.56 2301
131.661 890.719 2304
137.349 891.879 2307
142.866 891.879 2307
148.383 891.879 2307
153.9 891.879 2307
161.213 901.931 2333
166.792 901.931 2333
172.371 901.931 2333
243.696 1067.78 2762
250.3 1067.78 2762
257.37 1069.71 2767
264.846 1073.19 2776
271.875 1074.74 2780
278.523 1074.74 2780
285.684 1076.67 2785
293.813 1082.08 2799
302.009 1087.5 2813
308.736 1087.5 2813
316.023 1089.43 2818
322.762 1089.43 2818
329.501 1089.43 2818
336.24 1089.43 2818
342.978 1089.43 2818
349.096 1087.5 2813
355.823 1087.5 2813
362.034 1085.95 2809
368.751 1085.95 2809
377.34 1091.36 2823
384.091 1091.36 2823
390.841 1091.36 2823
397.592 1091.36 2823
404.343 1091.36 2823
411.093 1091.36 2823
415.772 1085.95 2809
417.525 1073.19 2776
422.789 1069.71 2767
427.853 1065.85 2757
434.446 1065.85 2757
441.039 1065.85 2757
446.171 1062.37 2748
452.083 1060.82 2744
459.313 1062.37 2748
465.885 1062.37 2748
473.315 1064.3 2753
479.899 1064.3 2753
486.482 1064.3 2753
492.17 1062.37 2748
498.741 1062.37 2748
506.967 1065.85 2757
513.56 1065.85 2757
520.153 1065.85 2757
525.982 1064.3 2753
532.565 1064.3 2753
540.911 1067.78 2762
548.507 1069.71 2767
556.929 1073.19 2776
565.394 1076.67 2785
575.957 1084.02 2804
582.662 1084.02 2804
589.367 1084.02 2804
595.01 1082.08 2799
601.703 1082.08 2799
608.396 1082.08 2799
613.99 1080.15 2794
620.672 1080.15 2794
627.353 1080.15 2794
635.169 1082.08 2799
641.862 1082.08 2799
648.556 1082.08 2799
655.249 1082.08 2799
661.942 1082.08 2799
668.635 1082.08 2799
674.122 1080.15 2794
680.804 1080.15 2794
687.485 1080.15 2794
694.166 1080.15 2794
700.847 1080.15 2794
705.25 1076.67 2785
711.909 1076.67 2785
711.345 1065.85 2757
713.25 1058.89 2739
717.435 1055.41 2730
722.902 1053.86 2726
729.421 1053.86 2726
735.94 1053.86 2726
742.458 1053.86 2726
748.977 1053.86 2726
755.496 1053.86 2726
762.015 1053.86 2726
768.533 1053.86 2726
775.052 1053.86 2726
782.718 1055.41 2730
789.246 1055.41 2730
795.774 1055.41 2730
802.302 1055.41 2730
808.831 1055.41 2730
815.359 1055.41 2730
828.811 1064.3 2753
835.395 1064.3 2753
843.201 1065.85 2757
849.794 1065.85 2757
856.387 1065.85 2757
866.11 1069.71 2767
872.727 1069.71 2767
879.343 1069.71 2767
885.96 1069.71 2767
895.48 1073.19 2776
902.118 1073.19 2776
908.757 1073.19 2776
915.395 1073.19 2776
922.033 1073.19 2776
925.66 1069.71 2767
932.277 1069.71 2767
938.894 1069.71 2767
945.511 1069.71 2767
948.686 1065.85 2757
955.279 1065.85 2757
961.872 1065.85 2757
967.06 1064.3 2753
964.094 1053.86 2726
970.613 1053.86 2726
964.586 1040.33 2691
964.526 1033.37 2673
963.29 1025.26 2652
966.706 1022.16 2644
985.542 1035.31 2678
991.945 1035.31 2678
999.841 1036.85 2682
1016.01 1046.9 2708
1022.48 1046.9 2708
1028.96 1046.9 2708
1033.91 1045.36 2704
1040.37 1045.36 2704
1046.84 1045.36 2704
1053.3 1045.36 2704
1059.77 1045.36 2704
1066.24 1045.36 2704
1072.7 1045.36 2704
1079.17 1045.36 2704
1083.63 1043.43 2699
1090.08 1043.43 2699
1102.22 1048.84 2713
1108.71 1048.84 2713
1115.2 1048.84 2713
1124.99 1051.93 2721
1141.07 1060.82 2744
1149.3 1062.37 2748
1155.87 1062.37 2748
1162.44 1062.37 2748
1167.31 1060.82 2744
1173.87 1060.82 2744
1174.41 1055.41 2730
1173.59 1048.84 2713
1177.9 1046.9 2708
1184.38 1046.9 2708
1190.85 1046.9 2708
1193.35 1043.43 2699
1192.24 1036.85 2682
1198.66 1036.85 2682
1199.23 1031.83 2669
1205.61 1031.83 2669
1216.08 1035.31 2678
1228.42 1040.33 2691
1236.69 1041.88 2695
1243.14 1041.88 2695
1253.75 1045.36 2704
1260.22 1045.36 2704
1266.69 1045.36 2704
1273.15 1045.36 2704
1273.47 1040.33 2691
1277.52 1038.4 2686
1283.95 1038.4 2686
1290.37 1038.4 2686
1301.14 1041.88 2695
1318.26 1050.38 2717
1329.14 1053.86 2726
1335.66 1053.86 2726
1342.18 1053.86 2726
1348.7 1053.86 2726
1357.2 1055.41 2730
1363.73 1055.41 2730
1370.26 1055.41 2730
1365.69 1046.9 2708
1372.17 1046.9 2708
1378.65 1046.9 2708
1376.43 1040.33 2691
1382.86 1040.33 2691
1377.94 1031.83 2669
1391.06 1036.85 2682
1397.48 1036.85 2682
1420.12 1048.84 2713
1426.6 1048.84 2713
1437.32 1051.93 2721
1443.82 1051.93 2721
1450.33 1051.93 2721
1456.84 1051.93 2721
1463.34 1051.93 2721
1469.85 1051.93 2721
1464.42 1043.43 2699
1456.71 1033.37 2673
1456.53 1028.73 2661
1474.44 1036.85 2682
1480.85 1036.85 2682
1499.46 1045.36 2704
1515.4 1051.93 2721
1531.97 1058.89 2739
1538.52 1058.89 2739
1573.84 1078.61 2790
1596.38 1089.43 2818
1603.11 1089.43 2818
1609.85 1089.43 2818
1616.59 1089.43 2818
1619.05 1073.19 2776
1650.28 1089.43 2818
1662.9 1093.3 2828
1669.67 1093.3 2828
1713.77 1117.65 2891
1720.69 1117.65 2891
1727.6 1117.65 2891
1728.51 1113.79 2881
1735.4 1113.79 2881
1760.44 1125.38 2911
1783.18 1135.44 2937
1790.21 1135.44 2937
1797.23 1135.44 2937
-1607.23 1009.05 2594
-1601.02 1009.05 2594
-1594.82 1009.05 2594
-1583.72 1005.93 2586
-1577.53 1005.93 2586
-1571.35 1005.93 2586
-1560.33 1002.82 2578
-1563.81 1009.05 2594
-1560.61 1010.99 2599
-1554.39 1010.99 2599
-1548.18 1010.99 2599
-1541.96 1010.99 2599
-1530.43 1007.49 2590
-1524.23 1007.49 2590
-1515.7 1005.93 2586
-1511.85 1007.49 2590
-1520.19 1017.22 2615
-1530.72 1028.5 2644
-1524.4 1028.5 2644
-1522.67 1031.61 2652
-1516.33 1031.61 2652
-1509.99 1031.61 2652
-1501.38 1030.05 2648
-1492.79 1028.5 2644
-1472.41 1018.77 2619
-1466.15 1018.77 2619
-1457.65 1017.22 2615
-1455.84 1020.33 2623
-1453.99 1023.44 2631
-1457.05 1030.05 2648
-1450.72 1030.05 2648
-1446.57 1031.61 2652
-1449.46 1038.22 2669
-1450.11 1043.28 2682
-1443.69 1043.28 2682
-1465.68 1063.89 2735
-1473.55 1074.4 2762
-1466.94 1074.4 2762
-1460.34 1074.4 2762
-1453.73 1074.4 2762
-1257.91 1007.49 2590
-1251.72 1007.49 2590
-1245.53 1007.49 2590
-1220.67 992.32 2551
-1203.62 983.373 2528
-1219.37 1001.27 2574
-1241.96 1025 2635
-1235.66 1025 2635
-1249.42 1041.72 2678
-1243.02 1041.72 2678
-1236.62 1041.72 2678
-1230.21 1041.72 2678
-1165.77 992.32 2551
-1173.76 1004.38 2582
-1184.32 1018.77 2619
-1178.06 1018.77 2619
-1207.59 1049.89 2699
-1210.92 1058.45 2721
-1206.63 1060.39 2726
-1208.04 1067.4 2744
-1221.62 1085.29 2790
-1221.04 1090.73 2804
-1214.34 1090.73 2804
-1207.63 1090.73 2804
-1204.78 1094.24 2813
-1198.05 1094.24 2813
-1191.33 1094.24 2813
-1184.6 1094.24 2813
-1174.1 1090.73 2804
-1167.4 1090.73 2804
-1152.83 1083.34 2785
-1136.7 1074.4 2762
-1128.05 1072.45 2757
-1134.88 1085.29 2790
-1128.21 1085.29 2790
-1121.54 1085.29 2790
-1114.87 1085.29 2790
-1104.22 1081.4 2780
-1097.58 1081.4 2780
-1090.93 1081.4 2780
-1079.21 1076.34 2767
-1061.74 1065.45 2739
-1055.19 1065.45 2739
-1040.22 1056.89 2717
-1025.35 1048.33 2695
-1018.91 1048.33 2695
-1012.46 1048.33 2695
-1006.02 1048.33 2695
-982.14 1030.05 2648
-924.893 1009.05 2594
-924.711 1015.66 2611
-918.467 1015.66 2611
-913.621 1017.22 2615
-907.367 1017.22 2615
-901.114 1017.22 2615
-894.861 1017.22 2615
-892.685 1021.88 2627
-886.403 1021.88 2627
-880.121 1021.88 2627
-873.839 1021.88 2627
-866.059 1035.11 2661
-859.696 1035.11 2661
-854.616 1036.66 2665
-848.243 1036.66 2665
-848.504 1044.83 2686
-842.081 1044.83 2686
-841.258 1051.84 2704
-841.584 1060.39 2726
-835.065 1060.39 2726
-828.546 1060.39 2726
-822.028 1060.39 2726
-811.62 1055.34 2713
-805.132 1055.34 2713
-790.696 1044.83 2686
-779.31 1038.22 2669
-772.927 1038.22 2669
-769.13 1041.72 2678
-762.726 1041.72 2678
-756.322 1041.72 2678
-749.918 1041.72 2678
-743.514 1041.72 2678
-737.11 1041.72 2678
-726.068 1035.11 2661
-718.352 1033.16 2656
-712.001 1033.16 2656
-704.587 1031.61 2652
-698.245 1031.61 2652
-691.903 1031.61 2652
-686.596 1033.16 2656
-680.244 1033.16 2656
-673.893 1033.16 2656
-667.542 1033.16 2656
-663.431 1036.66 2665
-657.058 1036.66 2665
-660.208 1051.84 2704
-653.741 1051.84 2704
-648.233 1053.39 2708
-643.89 1056.89 2717
-637.393 1056.89 2717
-630.896 1056.89 2717
-622.33 1053.39 2708
-615.855 1053.39 2708
-608.479 1051.84 2704
-600.9 1049.89 2699
-594.445 1049.89 2699
-589.952 1053.39 2708
-583.476 1053.39 2708
-577.001 1053.39 2708
-567.786 1048.33 2695
-564.049 1053.39 2708
-557.574 1053.39 2708
-552.93 1056.89 2717
-546.432 1056.89 2717
-539.935 1056.89 2717
-533.438 1056.89 2717
-526.941 1056.89 2717
-516.23 1048.33 2695
-509.785 1048.33 2695
-503.341 1048.33 2695
-496.896 1048.33 2695
-490.451 1048.33 2695
-484.007 1048.33 2695
-477.562 1048.33 2695
-470.419 1046.78 2691
-465.363 1049.89 2699
-459.759 1051.84 2704
-453.293 1051.84 2704
-447.488 1053.39 2708
-441.012 1053.39 2708
-434.536 1053.39 2708
-428.061 1053.39 2708
-421.585 1053.39 2708
-414.496 1051.84 2704
-408.03 1051.84 2704
-400.822 1049.89 2699
-393.783 1048.33 2695
-387.338 1048.33 2695
-381.459 1049.89 2699
-375.005 1049.89 2699
-368.551 1049.89 2699
-362.097 1049.89 2699
-355.116 1048.33 2695
-348.671 1048.33 2695
-341.084 1044.83 2686
-336.28 1049.89 2699
-330.437 1051.84 2704
-324.45 1053.39 2708
-317.975 1053.39 2708
-313.57 1060.39 2726
-307.051 1060.39 2726
-300.973 1061.95 2730
-294.445 1061.95 2730
-287.917 1061.95 2730
-280.976 1060.39 2726
-274.86 1061.95 2730
-268.332 1061.95 2730
-261.804 1061.95 2730
-254.06 1056.89 2717
-247.563 1056.89 2717
-239.912 1051.84 2704
-233.446 1051.84 2704
-226.98 1051.84 2704
-220.514 1051.84 2704
-214.048 1051.84 2704
-207.582 1051.84 2704
-200.744 1049.89 2699
-194.29 1049.89 2699
-188.462 1053.39 2708
-181.986 1053.39 2708
-175.51 1053.39 2708
-168.223 1048.33 2695
-161.779 1048.33 2695
-153.836 1038.22 2669
-146.072 1028.5 2644
-116.118 895.072 2301
-110.615 895.072 2301
-105.113 895.072 2301
-99.6106 895.072 2301
-93.9855 893.905 2298
-88.4903 893.905 2298
-82.7784 891.571 2292
-76.7579 885.347 2276
-71.0333 881.846 2267
-65.6122 881.846 2267
-59.8459 876.789 2254
-54.3835 875.622 2251
-48.87 873.288 2245
-43.5016 873.288 2245
-38.1331 873.288 2245
-32.7208 872.121 2242
-27.3595 872.121 2242
-21.9099 868.62 2233
-16.5701 868.62 2233
-11.2304 868.62 2233
-5.91432 872.121 2242
-0.553755 873.288 2245
4.81472 873.288 2245
10.1832 873.288 2245
15.5725 874.455 2248
21.032 877.956 2257
26.4291 877.956 2257
31.8263 877.956 2257
37.2895 879.512 2261
42.8095 881.846 2267
48.2306 881.846 2267
53.6517 881.846 2267
59.1509 883.013 2270
64.8352 886.514 2279
70.47 888.848 2285
75.9342 888.848 2285
81.6477 891.571 2292
87.3566 893.905 2298
92.8518 893.905 2298
98.347 893.905 2298
103.978 895.072 2301
109.48 895.072 2301
114.983 895.072 2301
120.171 892.738 2295
125.659 892.738 2295
131.318 893.905 2298
136.814 893.905 2298
142.68 896.239 2304
148.19 896.239 2304
153.9 897.406 2307
161.213 907.519 2333
166.792 907.519 2333
172.371 907.519 2333
242.107 1067.4 2744
248.669 1067.4 2744
256.44 1072.45 2757
263.51 1074.4 2762
270.604 1076.34 2767
277.22 1076.34 2767
284.247 1077.9 2771
292.343 1083.34 2785
300.506 1088.79 2799
307.199 1088.79 2799
314.453 1090.73 2804
321.159 1090.73 2804
327.864 1090.73 2804
334.569 1090.73 2804
341.883 1092.68 2809
348.6 1092.68 2809
355.317 1092.68 2809
360.745 1088.79 2799
367.439 1088.79 2799
374.132 1088.79 2799
382.186 1092.68 2809
388.903 1092.68 2809
395.62 1092.68 2809
402.337 1092.68 2809
409.055 1092.68 2809
414.292 1088.79 2799
416.172 1076.34 2767
421.261 1072.45 2757
427.233 1070.9 2753
433.816 1070.9 2753
438.959 1067.4 2744
444.06 1063.89 2735
450.6 1063.89 2735
458.645 1067.4 2744
465.206 1067.4 2744
472.456 1068.95 2748
479.027 1068.95 2748
485.598 1068.95 2748
492.17 1068.95 2748
498.015 1067.4 2744
505.312 1068.95 2748
511.884 1068.95 2748
518.455 1068.95 2748
525.026 1068.95 2748
532.565 1070.9 2753
539.931 1072.45 2757
548.507 1076.34 2767
555.123 1076.34 2767
563.567 1079.84 2776
571.027 1081.4 2780
577.675 1081.4 2780
584.323 1081.4 2780
590.12 1079.84 2776
595.684 1077.9 2771
602.31 1077.9 2771
608.057 1076.34 2767
612.452 1072.45 2757
617.024 1068.95 2748
623.596 1068.95 2748
630.167 1068.95 2748
636.738 1068.95 2748
643.31 1068.95 2748
649.881 1068.95 2748
656.452 1068.95 2748
663.024 1068.95 2748
671.788 1072.45 2757
678.381 1072.45 2757
684.974 1072.45 2757
691.566 1072.45 2757
693.601 1065.45 2739
700.151 1065.45 2739
706.701 1065.45 2739
708.563 1058.45 2721
708.237 1048.33 2695
719.455 1055.34 2713
727.013 1056.89 2717
733.51 1056.89 2717
742.458 1060.39 2726
748.977 1060.39 2726
755.496 1060.39 2726
762.015 1060.39 2726
767.124 1058.45 2721
773.63 1058.45 2721
782.718 1061.95 2730
789.246 1061.95 2730
795.774 1061.95 2730
802.302 1061.95 2730
808.831 1061.95 2730
815.359 1061.95 2730
823.392 1063.89 2735
835.395 1070.9 2753
841.978 1070.9 2753
849.794 1072.45 2757
856.387 1072.45 2757
864.545 1074.4 2762
872.727 1076.34 2767
879.343 1076.34 2767
885.96 1076.34 2767
892.577 1076.34 2767
899.194 1076.34 2767
905.81 1076.34 2767
912.427 1076.34 2767
919.044 1076.34 2767
923.988 1074.4 2762
932.277 1076.34 2767
938.894 1076.34 2767
945.511 1076.34 2767
948.686 1072.45 2757
955.279 1072.45 2757
961.872 1072.45 2757
967.06 1070.9 2753
964.094 1060.39 2726
970.613 1060.39 2726
964.586 1046.78 2691
964.526 1039.78 2673
963.29 1031.61 2652
966.706 1028.5 2644
985.542 1041.72 2678
991.945 1041.72 2678
999.841 1043.28 2682
1016.01 1053.39 2708
1022.48 1053.39 2708
1028.96 1053.39 2708
1033.91 1051.84 2704
1040.37 1051.84 2704
1046.84 1051.84 2704
1053.3 1051.84 2704
1059.77 1051.84 2704
1066.24 1051.84 2704
1072.7 1051.84 2704
1079.17 1051.84 2704
1083.63 1049.89 2699
1090.08 1049.89 2699
1102.22 1055.34 2713
1108.71 1055.34 2713
1115.2 1055.34 2713
1124.99 1058.45 2721
1141.07 1067.4 2744
1149.3 1068.95 2748
1155.87 1068.95 2748
1162.44 1068.95 2748
1167.31 1067.4 2744
1173.87 1067.4 2744
1174.41 1061.95 2730
1173.59 1055.34 2713
1177.9 1053.39 2708
1184.38 1053.39 2708
1190.85 1053.39 2708
1193.35 1049.89 2699
1192.24 1043.28 2682
1198.66 1043.28 2682
1199.23 1038.22 2669
1205.61 1038.22 2669
1216.08 1041.72 2678
1228.42 1046.78 2691
1236.69 1048.33 2695
1243.14 1048.33 2695
1253.75 1051.84 2704
1260.22 1051.84 2704
1266.69 1051.84 2704
1273.15 1051.84 2704
1273.47 1046.78 2691
1277.52 1044.83 2686
1283.95 1044.83 2686
1290.37 1044.83 2686
1301.14 1048.33 2695
1318.26 1056.89 2717
1329.14 1060.39 2726
1335.66 1060.39 2726
1342.18 1060.39 2726
1348.7 1060.39 2726
1357.2 1061.95 2730
1363.73 1061.95 2730
1370.26 1061.95 2730
1365.69 1053.39 2708
1372.17 1053.39 2708
1378.65 1053.39 2708
1376.43 1046.78 2691
1382.86 1046.78 2691
1377.94 1038.22 2669
1391.06 1043.28 2682
1397.48 1043.28 2682
1420.12 1055.34 2713
1426.6 1055.34 2713
1437.32 1058.45 2721
1443.82 1058.45 2721
1450.33 1058.45 2721
1456.84 1058.45 2721
1463.34 1058.45 2721
1469.85 1058.45 2721
1464.42 1049.89 2699
1456.71 1039.78 2673
1456.53 1035.11 2661
1474.44 1043.28 2682
1480.85 1043.28 2682
1499.46 1051.84 2704
1515.4 1058.45 2721
1531.97 1065.45 2739
1538.52 1065.45 2739
1573.84 1085.29 2790
1596.38 1096.18 2818
1603.11 1096.18 2818
1609.85 1096.18 2818
1616.59 1096.18 2818
1612.38 1088.79 2799
1619.08 1088.79 2799
1622.87 1086.84 2794
1627.22 1085.29 2790
1650.28 1096.18 2818
1662.9 1100.07 2828
1669.67 1100.07 2828
1713.77 1124.58 2891
1720.69 1124.58 2891
1727.6 1124.58 2891
1728.51 1120.69 2881
1735.4 1120.69 2881
1760.44 1132.36 2911
1783.18 1142.47 2937
1790.21 1142.47 2937
1797.23 1142.47 2937
1769.85 1120.69 2881
-1607.23 1015.26 2594
-1601.02 1015.26 2594
-1594.82 1015.26 2594
-1583.72 1012.13 2586
-1577.53 1012.13 2586
-1576.21 1015.26 2594
-1570.01 1015.26 2594
-1571.64 1020.35 2607
-1567.81 1021.91 2611
-1561.57 1021.91 2611
-1555.32 1021.91 2611
-1546.71 1020.35 2607
-1538.11 1018.78 2603
-1531.88 1018.78 2603
-1518.04 1013.69 2590
-1514.18 1015.26 2594
-1520.19 1023.48 2615
-1530.72 1034.83 2644
-1524.4 1034.83 2644
-1522.67 1037.96 2652
-1516.33 1037.96 2652
-1509.99 1037.96 2652
-1501.38 1036.4 2648
