ply
format ascii 1.0
comment File generated
element vertex 2156
property float x
property float y
property float z
end_header
784.04 -1162.13 3862
793.276 -1162.13 3862
1391.61 -1130.53 3757
1400.6 -1130.53 3757
1409.58 -1130.53 3757
1418.57 -1130.53 3757
1427.55 -1130.53 3757
1436.53 -1130.53 3757
1442.44 -1128.13 3749
1447.92 -1125.42 3740
1456.86 -1125.42 3740
1465.81 -1125.42 3740
1471.6 -1123.01 3732
1477.35 -1120.6 3724
1483.06 -1118.2 3716
1491.95 -1118.2 3716
1497.2 -1115.49 3707
1506.06 -1115.49 3707
1511.66 -1113.08 3699
1520.5 -1113.08 3699
1529.35 -1113.08 3699
1538.19 -1113.08 3699
1540.35 -1108.27 3683
1549.15 -1108.27 3683
1557.96 -1108.27 3683
1566.77 -1108.27 3683
-2760.05 -1129.3 3783
-2751.01 -1129.3 3783
-2799.22 -1152.88 3862
-2796.49 -1155.57 3871
-2787.23 -1155.57 3871
-2777.98 -1155.57 3871
-2781.59 -1160.94 3889
-2791.54 -1169 3916
-2782.18 -1169 3916
-2772.81 -1169 3916
-2750.74 -1163.63 3898
-2709.78 -1150.19 3853
-2700.56 -1150.19 3853
-2685.06 -1147.51 3844
-2669.6 -1144.82 3835
-2660.43 -1144.82 3835
-2651.26 -1144.82 3835
-2624.18 -1137.06 3809
-2615.07 -1137.06 3809
-2599.81 -1134.37 3800
-2590.72 -1134.37 3800
-2581.63 -1134.37 3800
-2572.54 -1134.37 3800
-2558.06 -1131.98 3792
-2548.99 -1131.98 3792
-2527.87 -1126.61 3774
-2513.5 -1124.22 3766
-2504.5 -1124.22 3766
-2495.49 -1124.22 3766
-2486.49 -1124.22 3766
-2444.59 -1109.3 3716
-2435.7 -1109.3 3716
-2426.82 -1109.3 3716
-1380.69 -1171.69 3925
-1371.3 -1171.69 3925
-1361.92 -1171.69 3925
-1352.53 -1171.69 3925
-1343.15 -1171.69 3925
-1327.64 -1166.31 3907
-1318.3 -1166.31 3907
-1311.97 -1169 3916
-1302.61 -1169 3916
-1293.25 -1169 3916
-1277.98 -1163.63 3898
-1265.73 -1160.94 3889
-1256.43 -1160.94 3889
-1247.13 -1160.94 3889
-1237.83 -1160.94 3889
-1228.53 -1160.94 3889
-1213.59 -1155.57 3871
-1204.33 -1155.57 3871
-1195.07 -1155.57 3871
-1177.55 -1147.51 3844
-120.327 -650.173 2178
-115.119 -650.173 2178
-110.062 -651.069 2181
-104.847 -651.069 2181
-99.6312 -651.069 2181
-94.156 -649.278 2175
-88.8322 -648.382 2172
-83.3303 -645.994 2164
-78.1555 -645.994 2164
-72.5085 -641.815 2150
-67.1792 -640.024 2144
-61.7339 -636.74 2133
-56.6333 -636.74 2133
-51.4118 -635.248 2128
-46.2578 -634.352 2125
-41.0794 -632.859 2120
-35.9079 -631.068 2114
-30.8527 -631.068 2114
-25.6999 -628.68 2106
-20.5853 -626.292 2098
-15.5535 -625.695 2096
-10.5413 -625.695 2096
-5.50807 -623.307 2088
-0.513056 -620.919 2080
4.45657 -620.322 2078
9.42569 -620.322 2078
14.3533 -618.531 2072
19.2614 -617.038 2067
24.1223 -614.948 2060
29.0484 -614.948 2060
33.892 -613.456 2055
38.6551 -611.068 2047
43.3799 -608.679 2039
48.2557 -608.679 2039
53.0013 -607.187 2034
57.7514 -605.993 2030
62.6058 -605.993 2030
67.294 -604.5 2025
72.1363 -604.5 2025
76.8647 -603.605 2022
81.6999 -603.605 2022
86.4495 -603.008 2020
91.28 -603.008 2020
95.9677 -602.112 2017
100.691 -601.515 2015
105.509 -601.515 2015
110.328 -601.515 2015
115.146 -601.515 2015
120.084 -602.112 2017
125.093 -603.008 2020
130.245 -604.5 2025
135.087 -604.5 2025
140.413 -606.59 2032
145.63 -608.082 2037
151.24 -611.068 2047
156.135 -611.068 2047
161.187 -611.665 2049
166.087 -611.665 2049
170.987 -611.665 2049
175.887 -611.665 2049
181.316 -613.456 2055
187.136 -616.441 2065
192.725 -618.531 2072
197.68 -618.531 2072
203.711 -621.814 2083
209.193 -623.307 2088
214.186 -623.307 2088
219.179 -623.307 2088
423.867 -1152.88 3862
433.102 -1152.88 3862
442.338 -1152.88 3862
451.573 -1152.88 3862
458.66 -1147.51 3844
467.852 -1147.51 3844
473.818 -1139.74 3818
485.098 -1144.82 3835
497.749 -1152.88 3862
509.347 -1158.25 3880
519.828 -1160.94 3889
529.128 -1160.94 3889
538.428 -1160.94 3889
547.728 -1160.94 3889
557.027 -1160.94 3889
562.395 -1152.88 3862
568.966 -1147.51 3844
572.894 -1137.06 3809
596.977 -1166.31 3907
606.32 -1166.31 3907
624.487 -1183.03 3963
633.964 -1183.03 3963
643.44 -1183.03 3963
652.917 -1183.03 3963
662.394 -1183.03 3963
675.092 -1188.7 3982
687.881 -1194.37 4001
697.448 -1194.37 4001
707.016 -1194.37 4001
716.583 -1194.37 4001
726.151 -1194.37 4001
726.892 -1180.04 3953
731.129 -1171.69 3925
730.327 -1155.57 3871
739.584 -1155.57 3871
738.588 -1139.74 3818
747.718 -1139.74 3818
767.354 -1155.57 3871
776.611 -1155.57 3871
785.868 -1155.57 3871
795.124 -1155.57 3871
1391.61 -1121.53 3757
1400.6 -1121.53 3757
1409.58 -1121.53 3757
1418.57 -1121.53 3757
1427.55 -1121.53 3757
1436.53 -1121.53 3757
1442.44 -1119.15 3749
1447.92 -1116.46 3740
1453.75 -1114.07 3732
1462.67 -1114.07 3732
1471.6 -1114.07 3732
1477.35 -1111.68 3724
1483.06 -1109.3 3716
1491.95 -1109.3 3716
1497.2 -1106.61 3707
1506.06 -1106.61 3707
1511.66 -1104.22 3699
1520.5 -1104.22 3699
1529.35 -1104.22 3699
1538.19 -1104.22 3699
1540.35 -1099.44 3683
1549.15 -1099.44 3683
1557.96 -1099.44 3683
1563.36 -1097.06 3675
-2925.67 -1187.45 4010
-2916.08 -1187.45 4010
-2906.49 -1187.45 4010
-2842.72 -1165.24 3935
-2833.31 -1165.24 3935
-2823.9 -1165.24 3935
-2827.37 -1170.57 3953
-2817.92 -1170.57 3953
-2808.46 -1170.57 3953
-2786.26 -1165.24 3935
-2776.85 -1165.24 3935
-2741.42 -1154.29 3898
-2732.1 -1154.29 3898
-2703.92 -1146.29 3871
-2682.13 -1140.96 3853
-2672.92 -1140.96 3853
-2663.71 -1140.96 3853
-2642.09 -1135.63 3835
-2626.74 -1132.97 3826
-2605.96 -1127.93 3809
-2596.85 -1127.93 3809
-2587.75 -1127.93 3809
-2578.64 -1127.93 3809
-2563.46 -1125.27 3800
-2554.37 -1125.27 3800
-2545.28 -1125.27 3800
-2524.85 -1120.23 3783
-2515.8 -1120.23 3783
-2506.76 -1120.23 3783
-2497.71 -1120.23 3783
-2466.3 -1110.17 3749
-2457.33 -1110.17 3749
-2448.37 -1110.17 3749
-1380.69 -1162.28 3925
-1371.3 -1162.28 3925
-1361.92 -1162.28 3925
-1352.53 -1162.28 3925
-1343.15 -1162.28 3925
-1330.7 -1159.62 3916
-1321.34 -1159.62 3916
-1311.97 -1159.62 3916
-1302.61 -1159.62 3916
-1293.25 -1159.62 3916
-1280.93 -1156.95 3907
-1265.73 -1151.62 3889
-1256.43 -1151.62 3889
-1247.13 -1151.62 3889
-1237.83 -1151.62 3889
-1228.53 -1151.62 3889
-1213.59 -1146.29 3871
-1204.33 -1146.29 3871
-1195.07 -1146.29 3871
-1180.3 -1140.96 3853
-120.327 -644.956 2178
-115.119 -644.956 2178
-110.062 -645.844 2181
-104.847 -645.844 2181
-99.6312 -645.844 2181
-94.156 -644.068 2175
-88.6277 -641.699 2167
-83.3303 -640.81 2164
-78.1555 -640.81 2164
-72.5085 -636.665 2150
-67.1166 -634.296 2142
-61.7339 -631.63 2133
-56.6333 -631.63 2133
-51.4118 -630.15 2128
-46.1925 -628.373 2122
-41.0213 -626.893 2117
-35.874 -625.412 2112
-30.8235 -625.412 2112
-25.6755 -623.043 2104
-20.5657 -620.674 2096
-15.5313 -619.786 2093
-10.5263 -619.786 2093
-5.50016 -617.417 2085
-0.512563 -615.344 2078
4.45013 -614.455 2075
9.41209 -614.455 2075
14.3186 -612.086 2067
19.2428 -611.494 2065
24.1223 -610.013 2060
29.0484 -610.013 2060
33.7601 -606.164 2047
38.5606 -604.683 2042
43.3373 -603.203 2037
48.2084 -603.203 2037
52.9492 -601.722 2032
57.7514 -601.13 2030
62.5132 -600.241 2027
67.294 -599.649 2025
72.1363 -599.649 2025
76.8647 -598.761 2022
81.6999 -598.761 2022
86.4495 -598.169 2020
91.28 -598.169 2020
95.9677 -597.28 2017
100.691 -596.688 2015
105.509 -596.688 2015
110.328 -596.688 2015
115.146 -596.688 2015
119.965 -596.688 2015
124.783 -596.688 2015
129.923 -598.169 2020
134.754 -598.169 2020
139.93 -599.649 2025
145.273 -601.722 2032
150.132 -601.722 2032
154.991 -601.722 2032
160.007 -602.314 2034
164.871 -602.314 2034
169.735 -602.314 2034
175.028 -603.795 2039
179.904 -603.795 2039
185.052 -604.683 2042
191.144 -608.533 2055
196.058 -608.533 2055
200.972 -608.533 2055
205.886 -608.533 2055
210.801 -608.533 2055
215.715 -608.533 2055
423.867 -1143.63 3862
433.102 -1143.63 3862
442.338 -1143.63 3862
451.573 -1143.63 3862
458.66 -1138.3 3844
467.852 -1138.3 3844
473.818 -1130.6 3818
485.098 -1135.63 3835
497.749 -1143.63 3862
509.347 -1148.96 3880
519.828 -1151.62 3889
529.128 -1151.62 3889
538.428 -1151.62 3889
547.728 -1151.62 3889
557.027 -1151.62 3889
562.395 -1143.63 3862
568.966 -1138.3 3844
572.894 -1127.93 3809
596.977 -1156.95 3907
606.32 -1156.95 3907
624.487 -1173.54 3963
633.964 -1173.54 3963
643.44 -1173.54 3963
652.917 -1173.54 3963
662.394 -1173.54 3963
675.092 -1179.16 3982
687.881 -1184.79 4001
697.448 -1184.79 4001
707.016 -1184.79 4001
716.583 -1184.79 4001
726.151 -1184.79 4001
726.892 -1170.57 3953
731.129 -1162.28 3925
730.327 -1146.29 3871
739.584 -1146.29 3871
738.588 -1130.6 3818
747.718 -1130.6 3818
767.354 -1146.29 3871
776.611 -1146.29 3871
785.868 -1146.29 3871
795.124 -1146.29 3871
1391.61 -1112.53 3757
1400.6 -1112.53 3757
1409.58 -1112.53 3757
1418.57 -1112.53 3757
1427.55 -1112.53 3757
1436.53 -1112.53 3757
1438.98 -1107.5 3740
1444.82 -1105.13 3732
1450.63 -1102.76 3724
1459.54 -1102.76 3724
1468.44 -1102.76 3724
1474.17 -1100.39 3716
1479.47 -1097.73 3707
1488.33 -1097.73 3707
1497.2 -1097.73 3707
1502.81 -1095.36 3699
1511.66 -1095.36 3699
1520.5 -1095.36 3699
1529.35 -1095.36 3699
1538.19 -1095.36 3699
1540.35 -1090.62 3683
1545.79 -1088.25 3675
1554.58 -1088.25 3675
1559.96 -1085.88 3667
-2925.67 -1177.85 4010
-2916.08 -1177.85 4010
-2906.49 -1177.85 4010
-2842.72 -1155.82 3935
-2833.31 -1155.82 3935
-2823.9 -1155.82 3935
-2827.37 -1161.1 3953
-2817.92 -1161.1 3953
-2808.46 -1161.1 3953
-2786.26 -1155.82 3935
-2776.85 -1155.82 3935
-2741.42 -1144.95 3898
-2732.1 -1144.95 3898
-2703.92 -1137.02 3871
-2682.13 -1131.73 3853
-2672.92 -1131.73 3853
-2663.71 -1131.73 3853
-2642.09 -1126.45 3835
-2626.74 -1123.8 3826
-2605.96 -1118.81 3809
-2596.85 -1118.81 3809
-2587.75 -1118.81 3809
-2578.64 -1118.81 3809
-2563.46 -1116.16 3800
-2554.37 -1116.16 3800
-2545.28 -1116.16 3800
-2524.85 -1111.17 3783
-2515.8 -1111.17 3783
-2506.76 -1111.17 3783
-2497.71 -1111.17 3783
-2466.3 -1101.18 3749
-2457.33 -1101.18 3749
-2448.37 -1101.18 3749
-1380.69 -1152.88 3925
-1371.3 -1152.88 3925
-1361.92 -1152.88 3925
-1352.53 -1152.88 3925
-1343.15 -1152.88 3925
-1330.7 -1150.24 3916
-1321.34 -1150.24 3916
-1311.97 -1150.24 3916
-1302.61 -1150.24 3916
-1293.25 -1150.24 3916
-1280.93 -1147.59 3907
-1265.73 -1142.31 3889
-1256.43 -1142.31 3889
-1247.13 -1142.31 3889
-1237.83 -1142.31 3889
-1228.53 -1142.31 3889
-1213.59 -1137.02 3871
-1204.33 -1137.02 3871
-1195.07 -1137.02 3871
-1180.3 -1131.73 3853
-109.759 -638.857 2175
-104.558 -638.857 2175
-99.3571 -638.857 2175
-93.8097 -636.508 2167
-88.505 -635.626 2164
-83.0992 -633.864 2158
-77.9388 -633.864 2158
-72.3062 -629.752 2144
-67.0226 -628.283 2139
-61.676 -625.933 2131
-56.5802 -625.933 2131
-51.3393 -624.171 2125
-46.149 -622.702 2120
-41.0213 -621.821 2117
-35.874 -620.353 2112
-30.8235 -620.353 2112
-25.6389 -617.122 2101
-20.5657 -615.653 2096
-15.5164 -614.184 2091
-10.5162 -614.184 2091
-5.49488 -611.835 2083
-0.512563 -610.366 2078
4.45013 -609.485 2075
9.41209 -609.485 2075
14.3186 -607.135 2067
19.2428 -606.547 2065
24.0872 -604.198 2057
29.0061 -604.198 2057
33.7601 -601.26 2047
38.5606 -599.792 2042
43.3373 -598.323 2037
48.2084 -598.323 2037
52.9492 -596.854 2032
57.7514 -596.267 2030
62.5132 -595.386 2027
67.3604 -595.386 2027
72.2076 -595.386 2027
76.8647 -593.917 2022
81.6999 -593.917 2022
86.4495 -593.33 2020
91.28 -593.33 2020
95.9677 -592.448 2017
100.791 -592.448 2017
105.509 -591.861 2015
110.328 -591.861 2015
115.146 -591.861 2015
119.965 -591.861 2015
124.783 -591.861 2015
129.923 -593.33 2020
134.754 -593.33 2020
139.93 -594.798 2025
144.915 -595.386 2027
149.984 -596.267 2030
154.838 -596.267 2030
159.693 -596.267 2030
164.547 -596.267 2030
169.568 -596.854 2032
174.599 -597.442 2034
179.463 -597.442 2034
185.052 -599.792 2042
190.121 -600.379 2044
195.772 -602.729 2052
200.679 -602.729 2052
205.586 -602.729 2052
423.867 -1134.38 3862
433.102 -1134.38 3862
442.338 -1134.38 3862
451.573 -1134.38 3862
458.66 -1129.09 3844
467.852 -1129.09 3844
471.584 -1116.16 3800
482.948 -1121.45 3818
497.749 -1134.38 3862
508.166 -1137.02 3871
519.828 -1142.31 3889
529.128 -1142.31 3889
538.428 -1142.31 3889
547.728 -1142.31 3889
557.027 -1142.31 3889
562.395 -1134.38 3862
563.786 -1118.81 3809
572.894 -1118.81 3809
585.975 -1126.45 3835
595.146 -1126.45 3835
615.662 -1147.59 3907
633.964 -1164.04 3963
643.44 -1164.04 3963
652.917 -1164.04 3963
662.394 -1164.04 3963
675.092 -1169.62 3982
687.881 -1175.2 4001
697.448 -1175.2 4001
707.016 -1175.2 4001
714.792 -1172.27 3991
724.336 -1172.27 3991
726.892 -1161.1 3953
731.129 -1152.88 3925
730.327 -1137.02 3871
739.584 -1137.02 3871
738.588 -1121.45 3818
747.718 -1121.45 3818
767.354 -1137.02 3871
776.611 -1137.02 3871
785.868 -1137.02 3871
795.124 -1137.02 3871
1391.61 -1103.53 3757
1400.6 -1103.53 3757
1409.58 -1103.53 3757
1418.57 -1103.53 3757
1424.51 -1101.18 3749
1433.47 -1101.18 3749
1438.98 -1098.54 3740
1441.73 -1093.84 3724
1447.51 -1091.49 3716
1456.4 -1091.49 3716
1461.74 -1088.85 3707
1470.6 -1088.85 3707
1479.47 -1088.85 3707
1485.12 -1086.5 3699
1493.97 -1086.5 3699
1502.81 -1086.5 3699
1511.66 -1086.5 3699
1520.5 -1086.5 3699
1529.35 -1086.5 3699
1538.19 -1086.5 3699
1540.35 -1081.8 3683
1545.79 -1079.45 3675
1554.58 -1079.45 3675
1559.96 -1077.1 3667
-2925.67 -1168.24 4010
-2916.08 -1168.24 4010
-2906.49 -1168.24 4010
-2876.68 -1160.08 3982
-2867.16 -1160.08 3982
-2836.82 -1151.64 3953
-2827.37 -1151.64 3953
-2817.92 -1151.64 3953
-2808.46 -1151.64 3953
-2786.26 -1146.39 3935
-2776.85 -1146.39 3935
-2741.42 -1135.61 3898
-2732.1 -1135.61 3898
-2716.49 -1132.99 3889
-2694.66 -1127.75 3871
-2685.41 -1127.75 3871
-2676.15 -1127.75 3871
-2654.49 -1122.5 3853
-2632.92 -1117.26 3835
-2605.96 -1109.68 3809
-2596.85 -1109.68 3809
-2587.75 -1109.68 3809
-2578.64 -1109.68 3809
-2569.53 -1109.68 3809
-2560.42 -1109.68 3809
-2545.28 -1107.06 3800
-2524.85 -1102.11 3783
-2515.8 -1102.11 3783
-2506.76 -1102.11 3783
-2497.71 -1102.11 3783
-2488.67 -1102.11 3783
-2462.58 -1094.53 3757
-2453.59 -1094.53 3757
-1386.89 -1140.86 3916
-1380.69 -1143.48 3925
-1371.3 -1143.48 3925
-1361.92 -1143.48 3925
-1352.53 -1143.48 3925
-1343.15 -1143.48 3925
-1330.7 -1140.86 3916
-1321.34 -1140.86 3916
-1311.97 -1140.86 3916
-1302.61 -1140.86 3916
-1293.25 -1140.86 3916
-1280.93 -1138.23 3907
-1265.73 -1132.99 3889
-1256.43 -1132.99 3889
-1247.13 -1132.99 3889
-1237.83 -1132.99 3889
-1228.53 -1132.99 3889
-1213.59 -1127.75 3871
-1204.33 -1127.75 3871
-1195.07 -1127.75 3871
-1180.3 -1122.5 3853
-125.708 -635.395 2181
-120.493 -635.395 2181
-115.277 -635.395 2181
-109.608 -632.773 2172
-104.174 -631.317 2167
-98.9916 -631.317 2167
-93.5499 -629.569 2161
-88.3823 -629.569 2161
-83.0992 -628.695 2158
-77.9388 -628.695 2158
-72.1376 -623.159 2139
-66.9286 -622.285 2136
-61.676 -620.829 2131
-56.5802 -620.829 2131
-51.3393 -619.081 2125
-46.0837 -616.75 2117
-40.9632 -615.876 2114
-35.823 -614.419 2109
-30.7798 -614.419 2109
-25.6023 -611.215 2098
-20.5363 -609.758 2093
-15.4719 -607.427 2085
-10.486 -607.427 2085
-5.49488 -606.845 2083
-0.511823 -604.514 2075
4.43941 -603.057 2070
9.38941 -603.057 2070
14.3048 -601.601 2065
19.1962 -600.144 2060
24.0872 -599.27 2057
29.0061 -599.27 2057
33.7106 -595.483 2044
38.504 -594.026 2039
43.3373 -593.443 2037
48.2084 -593.443 2037
52.9492 -591.987 2032
57.7514 -591.404 2030
62.5132 -590.53 2027
67.3604 -590.53 2027
72.2076 -590.53 2027
76.8647 -589.073 2022
81.6999 -589.073 2022
86.4495 -588.491 2020
91.28 -588.491 2020
95.9677 -587.617 2017
100.791 -587.617 2017
105.509 -587.034 2015
110.328 -587.034 2015
115.146 -587.034 2015
119.965 -587.034 2015
124.783 -587.034 2015
129.73 -587.617 2017
134.554 -587.617 2017
139.93 -589.947 2025
144.915 -590.53 2027
149.762 -590.53 2027
154.609 -590.53 2027
159.693 -591.404 2030
164.547 -591.404 2030
169.401 -591.404 2030
174.427 -591.987 2032
179.287 -591.987 2032
185.052 -594.9 2042
190.121 -595.483 2044
195.772 -597.813 2052
200.679 -597.813 2052
205.586 -597.813 2052
423.867 -1125.12 3862
433.102 -1125.12 3862
442.338 -1125.12 3862
451.573 -1125.12 3862
460.808 -1125.12 3862
470.043 -1125.12 3862
471.584 -1107.06 3800
480.671 -1107.06 3800
492.078 -1112.31 3818
501.208 -1112.31 3818
510.338 -1112.31 3818
519.468 -1112.31 3818
528.598 -1112.31 3818
537.728 -1112.31 3818
546.858 -1112.31 3818
554.677 -1109.68 3809
561.27 -1104.73 3792
568.984 -1102.11 3783
582.003 -1109.68 3809
591.111 -1109.68 3809
608.571 -1125.12 3862
622.126 -1132.99 3889
632.887 -1135.61 3898
642.208 -1135.61 3898
651.529 -1135.61 3898
670.175 -1151.64 3953
684.614 -1160.08 3982
694.136 -1160.08 3982
703.658 -1160.08 3982
709.778 -1154.55 3963
719.254 -1154.55 3963
721.743 -1143.48 3925
724.423 -1132.99 3889
725.233 -1119.88 3844
734.425 -1119.88 3844
738.588 -1112.31 3818
747.718 -1112.31 3818
767.354 -1127.75 3871
778.416 -1130.37 3880
789.522 -1132.99 3889
798.822 -1132.99 3889
808.121 -1132.99 3889
1391.61 -1094.53 3757
1413.64 -1104.73 3792
1422.71 -1104.73 3792
1431.78 -1104.73 3792
1437.43 -1102.11 3783
1446.47 -1102.11 3783
1445.52 -1094.53 3757
1451.4 -1092.2 3749
1460.37 -1092.2 3749
1469.33 -1092.2 3749
1474.75 -1089.58 3740
1483.69 -1089.58 3740
1492.64 -1089.58 3740
1501.58 -1089.58 3740
1514.16 -1092.2 3749
1523.12 -1092.2 3749
1532.09 -1092.2 3749
1541.05 -1092.2 3749
1550.02 -1092.2 3749
1548.59 -1084.92 3724
1554.15 -1082.59 3716
1559.25 -1079.97 3707
1568.11 -1079.97 3707
1573.57 -1077.64 3699
-2925.67 -1158.64 4010
-2916.08 -1158.64 4010
-2906.49 -1158.64 4010
-2876.68 -1150.55 3982
-2867.16 -1150.55 3982
-2836.82 -1142.17 3953
-2827.37 -1142.17 3953
-2817.92 -1142.17 3953
-2808.46 -1142.17 3953
-2786.26 -1136.97 3935
-2776.85 -1136.97 3935
-2747.75 -1128.88 3907
-2738.41 -1128.88 3907
-2716.49 -1123.67 3889
-2707.19 -1123.67 3889
-2691.65 -1121.07 3880
-2682.37 -1121.07 3880
-2654.49 -1113.27 3853
-2639.1 -1110.67 3844
-2605.96 -1100.56 3809
-2596.85 -1100.56 3809
-2587.75 -1100.56 3809
-2578.64 -1100.56 3809
-2569.53 -1100.56 3809
-2560.42 -1100.56 3809
-2545.28 -1097.96 3800
-2524.85 -1093.05 3783
-2515.8 -1093.05 3783
-2506.76 -1093.05 3783
-2497.71 -1093.05 3783
-2488.67 -1093.05 3783
-2462.58 -1085.53 3757
-2453.59 -1085.53 3757
-1393.62 -1136.97 3935
-1384.21 -1136.97 3935
-1374.8 -1136.97 3935
-1358.8 -1131.48 3916
-1349.43 -1131.48 3916
-1340.07 -1131.48 3916
-1330.7 -1131.48 3916
-1321.34 -1131.48 3916
-1311.97 -1131.48 3916
-1302.61 -1131.48 3916
-1293.25 -1131.48 3916
-1277.98 -1126.27 3898
-1262.8 -1121.07 3880
-1250.61 -1118.47 3871
-1241.36 -1118.47 3871
-1232.1 -1118.47 3871
-1217.16 -1113.27 3853
-1205.12 -1110.67 3844
-1195.93 -1110.67 3844
-1186.74 -1110.67 3844
-1174.79 -1108.07 3835
-125.708 -630.171 2181
-120.493 -630.171 2181
-115.277 -630.171 2181
-109.608 -627.57 2172
-104.27 -626.703 2169
-99.083 -626.703 2169
-93.6798 -625.259 2164
-88.3823 -624.392 2161
-83.0992 -623.525 2158
-77.9388 -623.525 2158
-72.1376 -618.035 2139
-66.9286 -617.168 2136
-61.676 -615.724 2131
-56.5802 -615.724 2131
-51.3393 -613.99 2125
-46.0837 -611.679 2117
-40.9632 -610.812 2114
-35.823 -609.367 2109
-30.7798 -609.367 2109
-25.6023 -606.189 2098
-20.5363 -604.744 2093
-15.4719 -602.433 2085
-10.486 -602.433 2085
-5.49488 -601.855 2083
-0.511823 -599.543 2075
4.43941 -598.099 2070
9.38941 -598.099 2070
14.3048 -596.654 2065
19.1962 -595.209 2060
24.0872 -594.342 2057
29.0061 -594.342 2057
33.7106 -590.586 2044
38.504 -589.142 2039
43.3373 -588.564 2037
48.2084 -588.564 2037
52.9492 -587.119 2032
57.7514 -586.541 2030
62.5132 -585.674 2027
67.3604 -585.674 2027
72.2076 -585.674 2027
76.8647 -584.23 2022
81.6999 -584.23 2022
86.4495 -583.652 2020
91.28 -583.652 2020
95.9677 -582.785 2017
100.791 -582.785 2017
105.509 -582.207 2015
110.328 -582.207 2015
115.146 -582.207 2015
119.965 -582.207 2015
124.783 -582.207 2015
129.73 -582.785 2017
134.554 -582.785 2017
139.93 -585.096 2025
144.915 -585.674 2027
149.762 -585.674 2027
154.609 -585.674 2027
159.693 -586.541 2030
164.547 -586.541 2030
169.401 -586.541 2030
174.427 -587.119 2032
179.287 -587.119 2032
185.052 -590.008 2042
190.121 -590.586 2044
195.772 -592.898 2052
200.679 -592.898 2052
205.586 -592.898 2052
427.818 -1126.27 3898
437.14 -1126.27 3898
446.461 -1126.27 3898
455.782 -1126.27 3898
460.808 -1115.87 3862
470.043 -1115.87 3862
471.584 -1097.96 3800
480.671 -1097.96 3800
492.078 -1103.16 3818
501.208 -1103.16 3818
510.338 -1103.16 3818
519.468 -1103.16 3818
528.598 -1103.16 3818
537.728 -1103.16 3818
546.858 -1103.16 3818
554.677 -1100.56 3809
561.27 -1095.65 3792
568.984 -1093.05 3783
582.003 -1100.56 3809
591.111 -1100.56 3809
608.571 -1115.87 3862
622.126 -1123.67 3889
632.887 -1126.27 3898
642.208 -1126.27 3898
651.529 -1126.27 3898
670.175 -1142.17 3953
684.614 -1150.55 3982
694.136 -1150.55 3982
703.658 -1150.55 3982
709.778 -1145.06 3963
719.254 -1145.06 3963
723.582 -1136.97 3935
724.423 -1123.67 3889
725.233 -1110.67 3844
734.425 -1110.67 3844
741.876 -1108.07 3835
751.047 -1108.07 3835
767.354 -1118.47 3871
778.416 -1121.07 3880
789.522 -1123.67 3889
798.822 -1123.67 3889
808.121 -1123.67 3889
811.746 -1115.87 3862
820.981 -1115.87 3862
1391.61 -1085.53 3757
1433.03 -1110.67 3844
1442.22 -1110.67 3844
1451.41 -1110.67 3844
1457.19 -1108.07 3835
1466.36 -1108.07 3835
1462.06 -1097.96 3800
1468.05 -1095.65 3792
1473.61 -1093.05 3783
1482.66 -1093.05 3783
1488.16 -1090.45 3774
1497.18 -1090.45 3774
1509.8 -1093.05 3783
1518.85 -1093.05 3783
1527.89 -1093.05 3783
1536.94 -1093.05 3783
1545.98 -1093.05 3783
1555.03 -1093.05 3783
1564.08 -1093.05 3783
1562.31 -1085.53 3757
1560.84 -1078.31 3732
1563.03 -1073.69 3716
1571.92 -1073.69 3716
1580.81 -1073.69 3716
1585.84 -1071.09 3707
-2925.67 -1149.03 4010
-2916.08 -1149.03 4010
-2906.49 -1149.03 4010
-2876.68 -1141.01 3982
-2867.16 -1141.01 3982
-2836.82 -1132.7 3953
-2827.37 -1132.7 3953
-2817.92 -1132.7 3953
-2808.46 -1132.7 3953
-2792.64 -1130.12 3944
-2776.85 -1127.54 3935
-2747.75 -1119.52 3907
-2738.41 -1119.52 3907
-2716.49 -1114.36 3889
-2707.19 -1114.36 3889
-2691.65 -1111.78 3880
-2682.37 -1111.78 3880
-2660.69 -1106.62 3862
-2645.28 -1104.04 3853
-2605.96 -1091.43 3809
-2596.85 -1091.43 3809
-2587.75 -1091.43 3809
-2578.64 -1091.43 3809
-2569.53 -1091.43 3809
-2560.42 -1091.43 3809
-2545.28 -1088.86 3800
-2524.85 -1083.98 3783
-2515.8 -1083.98 3783
-2506.76 -1083.98 3783
-2497.71 -1083.98 3783
-2488.67 -1083.98 3783
-2462.58 -1076.53 3757
-2453.59 -1076.53 3757
-1406.24 -1130.12 3944
-1396.81 -1130.12 3944
-1387.37 -1130.12 3944
-1374.8 -1127.54 3935
-1365.39 -1127.54 3935
-1352.53 -1124.67 3925
-1343.15 -1124.67 3925
-1333.76 -1124.67 3925
-1324.38 -1124.67 3925
-1314.99 -1124.67 3925
-1305.6 -1124.67 3925
-1296.22 -1124.67 3925
-1280.93 -1119.52 3907
-1265.73 -1114.36 3889
-1250.61 -1109.2 3871
-1241.36 -1109.2 3871
-1232.1 -1109.2 3871
-1222.84 -1109.2 3871
-1213.59 -1109.2 3871
-1204.33 -1109.2 3871
-1186.74 -1101.46 3844
-1174.79 -1098.88 3835
-125.708 -624.946 2181
-120.493 -624.946 2181
-115.277 -624.946 2181
-109.608 -622.367 2172
-104.27 -621.508 2169
-99.083 -621.508 2169
-93.6798 -620.075 2164
-88.3823 -619.215 2161
-83.0992 -618.356 2158
-77.9388 -618.356 2158
-72.1376 -612.911 2139
-66.9286 -612.052 2136
-61.5892 -609.759 2128
-56.5005 -609.759 2128
-51.2185 -607.467 2120
-46.0184 -605.748 2114
-40.8663 -604.315 2109
-35.7381 -602.882 2104
-30.7068 -602.882 2104
-25.5413 -599.73 2093
-20.4872 -598.298 2088
-15.457 -596.865 2083
-10.476 -596.865 2083
-5.48169 -595.432 2078
-0.511823 -594.573 2075
4.43297 -592.28 2067
9.3758 -592.28 2067
14.3048 -591.707 2065
19.1683 -589.415 2057
24.0286 -587.982 2052
28.9356 -587.982 2052
33.6776 -585.117 2042
38.4662 -583.684 2037
43.2735 -582.824 2034
48.1374 -582.824 2034
52.9492 -582.251 2032
57.7514 -581.678 2030
62.5132 -580.819 2027
67.294 -580.246 2025
72.1363 -580.246 2025
76.8647 -579.386 2022
81.6999 -579.386 2022
86.4495 -578.813 2020
91.28 -578.813 2020
95.9677 -577.953 2017
100.791 -577.953 2017
105.509 -577.38 2015
110.328 -577.38 2015
115.146 -577.38 2015
119.965 -577.38 2015
124.783 -577.38 2015
129.73 -577.953 2017
134.554 -577.953 2017
139.584 -578.813 2020
144.772 -580.246 2025
149.762 -580.819 2027
154.609 -580.819 2027
159.693 -581.678 2030
164.547 -581.678 2030
169.401 -581.678 2030
174.256 -581.678 2030
179.11 -581.678 2030
184.78 -584.257 2039
189.935 -585.117 2042
195.772 -587.982 2052
200.679 -587.982 2052
205.586 -587.982 2052
427.818 -1116.94 3898
437.14 -1116.94 3898
446.461 -1116.94 3898
455.782 -1116.94 3898
460.808 -1106.62 3862
470.043 -1106.62 3862
470.591 -1086.56 3792
479.659 -1086.56 3792
489.758 -1088.86 3800
501.208 -1094.01 3818
510.338 -1094.01 3818
519.468 -1094.01 3818
527.352 -1091.43 3809
536.46 -1091.43 3809
545.569 -1091.43 3809
549.581 -1081.41 3774
554.905 -1074.24 3749
562.516 -1071.66 3740
575.432 -1079.11 3766
584.438 -1079.11 3766
600.22 -1091.43 3809
613.487 -1098.88 3835
625.581 -1104.04 3853
634.794 -1104.04 3853
647.017 -1109.2 3871
660.851 -1116.94 3898
681.347 -1135.56 3963
690.824 -1135.56 3963
700.301 -1135.56 3963
709.778 -1135.56 3963
719.254 -1135.56 3963
723.582 -1127.54 3935
724.423 -1114.36 3889
725.233 -1101.46 3844
734.425 -1101.46 3844
741.876 -1098.88 3835
751.047 -1098.88 3835
767.354 -1109.2 3871
778.416 -1111.78 3880
789.522 -1114.36 3889
798.822 -1114.36 3889
808.121 -1114.36 3889
811.746 -1106.62 3862
820.981 -1106.62 3862
1433.03 -1101.46 3844
1442.22 -1101.46 3844
1451.41 -1101.46 3844
1457.19 -1098.88 3835
1466.36 -1098.88 3835
1462.06 -1088.86 3800
1468.05 -1086.56 3792
1473.61 -1083.98 3783
1482.66 -1083.98 3783
1488.16 -1081.41 3774
1497.18 -1081.41 3774
1509.8 -1083.98 3783
1518.85 -1083.98 3783
1527.89 -1083.98 3783
1536.94 -1083.98 3783
1545.98 -1083.98 3783
1555.03 -1083.98 3783
1564.08 -1083.98 3783
1562.31 -1076.53 3757
1560.84 -1069.37 3732
1563.03 -1064.79 3716
1571.92 -1064.79 3716
1580.81 -1064.79 3716
1585.84 -1062.21 3707
-2855.73 -1123.23 3953
-2846.27 -1123.23 3953
-2836.82 -1123.23 3953
-2827.37 -1123.23 3953
-2817.92 -1123.23 3953
-2808.46 -1123.23 3953
-2792.64 -1120.67 3944
-2776.85 -1118.11 3935
-2747.75 -1110.16 3907
-2738.41 -1110.16 3907
-2716.49 -1105.04 3889
-2707.19 -1105.04 3889
-2691.65 -1102.48 3880
-2682.37 -1102.48 3880
-2660.69 -1097.37 3862
-2645.28 -1094.81 3853
-2605.96 -1082.31 3809
-2596.85 -1082.31 3809
-2587.75 -1082.31 3809
-2578.64 -1082.31 3809
-2569.53 -1082.31 3809
-2560.42 -1082.31 3809
-2545.28 -1079.75 3800
-2524.85 -1074.92 3783
-2515.8 -1074.92 3783
-2506.76 -1074.92 3783
-2497.71 -1074.92 3783
-2482.74 -1072.37 3774
-1406.24 -1120.67 3944
-1396.81 -1120.67 3944
-1387.37 -1120.67 3944
-1374.8 -1118.11 3935
-1365.39 -1118.11 3935
-1352.53 -1115.27 3925
-1343.15 -1115.27 3925
-1333.76 -1115.27 3925
-1324.38 -1115.27 3925
-1314.99 -1115.27 3925
-1305.6 -1115.27 3925
-1296.22 -1115.27 3925
-1280.93 -1110.16 3907
-1265.73 -1105.04 3889
-1250.61 -1099.93 3871
-1241.36 -1099.93 3871
-1232.1 -1099.93 3871
-1222.84 -1099.93 3871
-1213.59 -1099.93 3871
-1204.33 -1099.93 3871
-1183.96 -1089.7 3835
-1174.79 -1089.7 3835
-125.881 -620.574 2184
-120.659 -620.574 2184
-115.436 -620.574 2184
-110.062 -619.721 2181
-104.27 -616.312 2169
-99.083 -616.312 2169
-93.8097 -615.743 2167
-88.3823 -614.038 2161
-83.0992 -613.186 2158
-77.9388 -613.186 2158
-72.1376 -607.787 2139
-66.9286 -606.935 2136
-61.5892 -604.662 2128
-56.5005 -604.662 2128
-51.1461 -601.536 2117
-46.0184 -600.684 2114
-40.8663 -599.263 2109
-35.7381 -597.842 2104
-30.7068 -597.842 2104
-25.5168 -594.148 2091
-20.4578 -592.443 2085
-15.457 -591.875 2083
-10.476 -591.875 2083
-5.48169 -590.454 2078
-0.510589 -588.181 2070
4.43297 -587.329 2067
9.3758 -587.329 2067
14.2701 -585.34 2060
19.1496 -583.919 2055
23.9935 -582.214 2049
28.8933 -582.214 2049
33.5951 -578.804 2037
38.4662 -578.804 2037
43.2735 -577.952 2034
48.1374 -577.952 2034
52.9492 -577.384 2032
57.7514 -576.815 2030
62.5132 -575.963 2027
67.294 -575.395 2025
72.1363 -575.395 2025
76.8647 -574.542 2022
81.6999 -574.542 2022
86.3211 -573.122 2017
91.1444 -573.122 2017
95.9677 -573.122 2017
100.791 -573.122 2017
105.509 -572.553 2015
110.328 -572.553 2015
115.146 -572.553 2015
119.965 -572.553 2015
124.783 -572.553 2015
129.602 -572.553 2015
134.42 -572.553 2015
139.239 -572.553 2015
144.415 -573.974 2020
149.245 -573.974 2020
154.076 -573.974 2020
158.906 -573.974 2020
163.736 -573.974 2020
168.567 -573.974 2020
173.827 -575.395 2025
178.669 -575.395 2025
184.146 -577.384 2032
189.47 -578.804 2037
194.818 -580.225 2042
199.701 -580.225 2042
204.584 -580.225 2042
427.818 -1107.6 3898
437.14 -1107.6 3898
446.461 -1107.6 3898
455.782 -1107.6 3898
460.808 -1097.37 3862
470.043 -1097.37 3862
469.474 -1074.92 3783
478.521 -1074.92 3783
487.567 -1074.92 3783
497.795 -1077.48 3792
506.863 -1077.48 3792
515.93 -1077.48 3792
523.752 -1074.92 3783
532.799 -1074.92 3783
541.845 -1074.92 3783
547.105 -1067.53 3757
553.573 -1062.7 3740
561.313 -1060.43 3732
571.46 -1062.7 3740
580.403 -1062.7 3740
596.123 -1074.92 3783
606.609 -1077.48 3792
616.975 -1079.75 3800
626.062 -1079.75 3800
640.999 -1089.7 3835
657.799 -1102.48 3880
681.347 -1126.07 3963
690.824 -1126.07 3963
700.301 -1126.07 3963
709.778 -1126.07 3963
719.254 -1126.07 3963
723.582 -1118.11 3935
722.747 -1102.48 3880
725.233 -1092.26 3844
734.425 -1092.26 3844
741.876 -1089.7 3835
751.047 -1089.7 3835
762.002 -1092.26 3844
774.805 -1097.37 3862
785.868 -1099.93 3871
795.124 -1099.93 3871
804.381 -1099.93 3871
811.746 -1097.37 3862
820.981 -1097.37 3862
816.888 -1079.75 3800
825.975 -1079.75 3800
825.613 -1067.53 3757
834.597 -1067.53 3757
843.581 -1067.53 3757
843.261 -1055.88 3716
1439.74 -1097.37 3862
1448.98 -1097.37 3862
1458.21 -1097.37 3862
1460.61 -1092.26 3844
1469.8 -1092.26 3844
1462.06 -1079.75 3800
1468.05 -1077.48 3792
1473.61 -1074.92 3783
1482.66 -1074.92 3783
1491.71 -1074.92 3783
1504.32 -1077.48 3792
1513.39 -1077.48 3792
1525.67 -1079.75 3800
1538.39 -1082.31 3809
1547.5 -1082.31 3809
1556.61 -1082.31 3809
1562.02 -1079.75 3800
1571.11 -1079.75 3800
1573.12 -1074.92 3783
1571.3 -1067.53 3757
1573.13 -1062.7 3740
1589.26 -1067.53 3757
1598.25 -1067.53 3757
1607.23 -1067.53 3757
-2873.64 -1124.46 3991
-2864.09 -1124.46 3991
-2861.7 -1127.28 4001
-2852.13 -1127.28 4001
-2842.57 -1127.28 4001
-2812.46 -1119.11 3972
-2783.21 -1111.22 3944
-2760.41 -1105.87 3925
-2751.03 -1105.87 3925
-2729.07 -1100.8 3907
-2719.72 -1100.8 3907
-2697.89 -1095.73 3889
-2688.59 -1095.73 3889
-2673.09 -1093.19 3880
-2651.46 -1088.12 3862
-2629.91 -1083.05 3844
-2620.72 -1083.05 3844
-2599.3 -1077.98 3826
-2584.73 -1075.72 3818
-2569.53 -1073.19 3809
-2560.42 -1073.19 3809
-2539.93 -1068.4 3792
-2524.85 -1065.86 3783
-2515.8 -1065.86 3783
-2506.76 -1065.86 3783
-2497.71 -1065.86 3783
-2482.74 -1063.32 3774
-1406.24 -1111.22 3944
-1396.81 -1111.22 3944
-1387.37 -1111.22 3944
-1374.8 -1108.69 3935
-1365.39 -1108.69 3935
-1352.53 -1105.87 3925
-1343.15 -1105.87 3925
-1333.76 -1105.87 3925
-1324.38 -1105.87 3925
-1314.99 -1105.87 3925
-1305.6 -1105.87 3925
-1296.22 -1105.87 3925
-1280.93 -1100.8 3907
-1265.73 -1095.73 3889
-1250.61 -1090.65 3871
-1241.36 -1090.65 3871
-1232.1 -1090.65 3871
-1222.84 -1090.65 3871
-1213.59 -1090.65 3871
-1204.33 -1090.65 3871
-1183.96 -1080.51 3835
-1172.03 -1077.98 3826
-125.881 -615.342 2184
-120.659 -615.342 2184
-115.436 -615.342 2184
-110.062 -614.497 2181
-104.414 -611.961 2172
-99.22 -611.961 2172
-93.8097 -610.552 2167
-88.3823 -608.862 2161
-83.0992 -608.017 2158
-77.9388 -608.017 2158
-72.1376 -602.663 2139
-66.9286 -601.818 2136
-61.5892 -599.564 2128
-56.5005 -599.564 2128
-51.1461 -596.465 2117
-46.0184 -595.62 2114
-40.8663 -594.211 2109
-35.6871 -591.957 2101
-30.663 -591.957 2101
-25.5168 -589.139 2091
-20.4578 -587.449 2085
-15.457 -586.885 2083
-10.476 -586.885 2083
-5.48169 -585.477 2078
-0.510589 -583.223 2070
4.43297 -582.377 2067
9.3758 -582.377 2067
14.2493 -579.56 2057
19.1496 -578.996 2055
23.9935 -577.306 2049
28.8933 -577.306 2049
33.5951 -573.925 2037
38.4662 -573.925 2037
43.2735 -573.08 2034
48.1374 -573.08 2034
52.9492 -572.516 2032
57.7514 -571.953 2030
62.4516 -570.544 2025
67.294 -570.544 2025
72.1363 -570.544 2025
76.8647 -569.699 2022
81.6999 -569.699 2022
86.3211 -568.29 2017
91.1444 -568.29 2017
95.9677 -568.29 2017
100.791 -568.29 2017
105.509 -567.726 2015
110.328 -567.726 2015
115.146 -567.726 2015
119.965 -567.726 2015
124.783 -567.726 2015
129.602 -567.726 2015
134.42 -567.726 2015
139.377 -568.29 2017
144.2 -568.29 2017
149.245 -569.135 2020
154.076 -569.135 2020
158.906 -569.135 2020
163.736 -569.135 2020
168.734 -569.699 2022
173.827 -570.544 2025
178.669 -570.544 2025
183.693 -571.107 2027
189.005 -572.516 2032
194.341 -573.925 2037
199.212 -573.925 2037
204.083 -573.925 2037
413.666 -1085.58 3853
426.831 -1095.73 3889
436.13 -1095.73 3889
445.43 -1095.73 3889
454.73 -1095.73 3889
459.734 -1085.58 3853
468.948 -1085.58 3853
468.358 -1063.32 3774
475.232 -1058.53 3757
485.376 -1061.07 3766
496.613 -1065.86 3783
505.66 -1065.86 3783
514.706 -1065.86 3783
523.752 -1065.86 3783
532.799 -1065.86 3783
541.845 -1065.86 3783
545.94 -1056.28 3749
551.205 -1049.24 3724
556.35 -1042.19 3699
569.015 -1049.24 3724
577.92 -1049.24 3724
590.765 -1056.28 3749
602.449 -1061.07 3766
614.215 -1065.86 3783
623.262 -1065.86 3783
635.149 -1070.65 3800
656.273 -1090.65 3871
681.347 -1116.58 3963
690.824 -1116.58 3963
700.301 -1116.58 3963
709.778 -1116.58 3963
719.254 -1116.58 3963
723.582 -1108.69 3935
722.747 -1093.19 3880
721.837 -1077.98 3826
730.986 -1077.98 3826
741.876 -1080.51 3835
751.047 -1080.51 3835
762.002 -1083.05 3844
774.805 -1088.12 3862
784.04 -1088.12 3862
793.276 -1088.12 3862
802.511 -1088.12 3862
806.071 -1080.51 3835
815.242 -1080.51 3835
816.888 -1070.65 3800
825.975 -1070.65 3800
825.613 -1058.53 3757
834.597 -1058.53 3757
843.581 -1058.53 3757
843.261 -1046.98 3716
852.147 -1046.98 3716
861.033 -1046.98 3716
1439.74 -1088.12 3862
1448.98 -1088.12 3862
1458.21 -1088.12 3862
1460.61 -1083.05 3844
1469.8 -1083.05 3844
1465.52 -1073.19 3809
1474.63 -1073.19 3809
1480.24 -1070.65 3800
1489.32 -1070.65 3800
1495.26 -1068.4 3792
1507.5 -1070.65 3800
1520.18 -1073.19 3809
1529.28 -1073.19 3809
1545.26 -1077.98 3826
1554.41 -1077.98 3826
1563.56 -1077.98 3826
1565.72 -1073.19 3809
1574.83 -1073.19 3809
1573.12 -1065.86 3783
1575.06 -1061.07 3766
1580.28 -1058.53 3757
1589.26 -1058.53 3757
1598.25 -1058.53 3757
1607.23 -1058.53 3757
1616.22 -1058.53 3757
1625.2 -1058.53 3757
-2873.64 -1114.9 3991
-2864.09 -1114.9 3991
-2875.29 -1123.01 4020
-2865.68 -1123.01 4020
-2856.06 -1123.01 4020
-2825.92 -1114.9 3991
-2802.97 -1109.6 3972
-2760.41 -1096.47 3925
-2751.03 -1096.47 3925
-2741.64 -1096.47 3925
-2732.25 -1096.47 3925
-2710.38 -1091.44 3907
-2701.04 -1091.44 3907
-2679.3 -1086.41 3889
-2657.64 -1081.38 3871
-2629.91 -1073.84 3844
-2620.72 -1073.84 3844
-2599.3 -1068.81 3826
-2584.73 -1066.58 3818
-2569.53 -1064.06 3809
-2560.42 -1064.06 3809
-2539.93 -1059.31 3792
-2524.85 -1056.8 3783
-2515.8 -1056.8 3783
-2506.76 -1056.8 3783
-2497.71 -1056.8 3783
-2482.74 -1054.28 3774
-1388.97 -1073.84 3844
-1379.77 -1073.84 3844
-1403.03 -1099.26 3935
-1393.62 -1099.26 3935
-1384.21 -1099.26 3935
-1374.8 -1099.26 3935
-1365.39 -1099.26 3935
-1352.53 -1096.47 3925
-1343.15 -1096.47 3925
-1333.76 -1096.47 3925
-1324.38 -1096.47 3925
-1314.99 -1096.47 3925
-1305.6 -1096.47 3925
-1290.27 -1091.44 3907
-1272.08 -1083.9 3880
-1262.8 -1083.9 3880
-1250.61 -1081.38 3871
-1241.36 -1081.38 3871
-1232.1 -1081.38 3871
-1222.84 -1081.38 3871
-1207.94 -1076.35 3853
-1198.73 -1076.35 3853
-1183.96 -1071.32 3835
-126.688 -614.021 2198
-121.432 -614.021 2198
-116.176 -614.021 2198
-110.213 -610.11 2184
-104.558 -607.596 2175
-99.3571 -607.596 2175
-93.8097 -605.361 2167
-88.505 -604.523 2164
-83.0992 -602.847 2158
-77.9388 -602.847 2158
-72.1376 -597.539 2139
-66.9286 -596.701 2136
-61.5892 -594.466 2128
-56.5005 -594.466 2128
-51.1461 -591.393 2117
-46.0184 -590.555 2114
-40.8663 -589.159 2109
-35.6871 -586.924 2101
-30.663 -586.924 2101
-25.5168 -584.13 2091
-20.4578 -582.454 2085
-15.457 -581.895 2083
-10.476 -581.895 2083
-5.48169 -580.499 2078
-0.510589 -578.264 2070
4.43297 -577.426 2067
9.3758 -577.426 2067
14.2493 -574.632 2057
19.1496 -574.073 2055
23.9935 -572.397 2049
28.8933 -572.397 2049
33.5951 -569.045 2037
38.4662 -569.045 2037
43.2735 -568.207 2034
48.1374 -568.207 2034
52.9492 -567.648 2032
57.7514 -567.09 2030
62.4516 -565.693 2025
67.294 -565.693 2025
72.1363 -565.693 2025
76.8647 -564.855 2022
81.6999 -564.855 2022
86.3211 -563.458 2017
91.1444 -563.458 2017
95.9677 -563.458 2017
100.791 -563.458 2017
105.509 -562.899 2015
110.328 -562.899 2015
115.146 -562.899 2015
119.965 -562.899 2015
124.783 -562.899 2015
129.73 -563.458 2017
134.554 -563.458 2017
139.377 -563.458 2017
144.415 -564.296 2020
149.393 -564.855 2022
154.228 -564.855 2022
159.299 -565.693 2025
164.142 -565.693 2025
169.151 -566.252 2027
173.998 -566.252 2027
178.845 -566.252 2027
184.146 -567.648 2032
189.656 -569.604 2039
194.818 -570.442 2042
199.701 -570.442 2042
204.584 -570.442 2042
413.666 -1076.35 3853
426.831 -1086.41 3889
436.13 -1086.41 3889
445.43 -1086.41 3889
454.73 -1086.41 3889
459.734 -1076.35 3853
468.948 -1076.35 3853
468.358 -1054.28 3774
476.37 -1052.05 3766
485.376 -1052.05 3766
496.613 -1056.8 3783
505.66 -1056.8 3783
514.706 -1056.8 3783
523.752 -1056.8 3783
532.799 -1056.8 3783
541.845 -1056.8 3783
550.891 -1056.8 3783
554.905 -1047.3 3749
560.11 -1040.32 3724
571.46 -1044.79 3740
580.403 -1044.79 3740
593.444 -1052.05 3766
602.449 -1052.05 3766
614.215 -1056.8 3783
623.262 -1056.8 3783
635.149 -1061.55 3800
656.273 -1081.38 3871
681.347 -1107.08 3963
690.824 -1107.08 3963
700.301 -1107.08 3963
709.778 -1107.08 3963
719.254 -1107.08 3963
723.582 -1099.26 3935
722.747 -1083.9 3880
721.837 -1068.81 3826
730.986 -1068.81 3826
741.876 -1071.32 3835
751.047 -1071.32 3835
762.002 -1073.84 3844
774.805 -1078.87 3862
784.04 -1078.87 3862
793.276 -1078.87 3862
802.511 -1078.87 3862
806.071 -1071.32 3835
815.242 -1071.32 3835
816.888 -1061.55 3800
825.975 -1061.55 3800
825.613 -1049.53 3757
834.597 -1049.53 3757
843.581 -1049.53 3757
848.707 -1044.79 3740
859.715 -1047.3 3749
868.68 -1047.3 3749
877.645 -1047.3 3749
1443.1 -1081.38 3871
1452.35 -1081.38 3871
1461.61 -1081.38 3871
1470.87 -1081.38 3871
1480.12 -1081.38 3871
1472.07 -1068.81 3826
1478.12 -1066.58 3818
1487.25 -1066.58 3818
1496.38 -1066.58 3818
1501.96 -1064.06 3809
1511.07 -1064.06 3809
1520.18 -1064.06 3809
1536.11 -1068.81 3826
1548.89 -1071.32 3835
1558.06 -1071.32 3835
1567.23 -1071.32 3835
1576.41 -1071.32 3835
1585.58 -1071.32 3835
1583.93 -1064.06 3809
1582.17 -1056.8 3783
1591.22 -1056.8 3783
1600.26 -1056.8 3783
1609.31 -1056.8 3783
1614.5 -1054.28 3774
1616.22 -1049.53 3757
1625.2 -1049.53 3757
-2873.64 -1105.34 3991
-2864.09 -1105.34 3991
-2875.29 -1113.38 4020
-2865.68 -1113.38 4020
-2856.06 -1113.38 4020
-2825.92 -1105.34 3991
-2802.97 -1100.08 3972
-2780.1 -1094.82 3953
-2770.65 -1094.82 3953
-2741.64 -1087.06 3925
-2732.25 -1087.06 3925
-2716.63 -1084.57 3916
-2707.26 -1084.57 3916
-2691.7 -1082.08 3907
-2657.64 -1072.11 3871
-2629.91 -1064.63 3844
-2620.72 -1064.63 3844
-2599.3 -1059.65 3826
-2584.73 -1057.43 3818
-2569.53 -1054.94 3809
-2560.42 -1054.94 3809
-2539.93 -1050.23 3792
-2524.85 -1047.74 3783
-2515.8 -1047.74 3783
-2506.76 -1047.74 3783
-2497.71 -1047.74 3783
-2482.74 -1045.24 3774
-2462.58 -1040.53 3757
-2453.59 -1040.53 3757
-1388.97 -1064.63 3844
-1379.77 -1064.63 3844
-1403.03 -1089.83 3935
-1393.62 -1089.83 3935
-1384.21 -1089.83 3935
-1374.8 -1089.83 3935
-1365.39 -1089.83 3935
-1352.53 -1087.06 3925
-1343.15 -1087.06 3925
-1333.76 -1087.06 3925
-1324.38 -1087.06 3925
-1314.99 -1087.06 3925
-1305.6 -1087.06 3925
-1290.27 -1082.08 3907
-1272.08 -1074.6 3880
-1262.8 -1074.6 3880
-1250.61 -1072.11 3871
-1241.36 -1072.11 3871
-1232.1 -1072.11 3871
-1222.84 -1072.11 3871
-1207.94 -1067.12 3853
-1198.73 -1067.12 3853
-1186.74 -1064.63 3844
-1166.82 -1054.94 3809
-126.688 -608.756 2198
-121.432 -608.756 2198
-116.176 -608.756 2198
-110.213 -604.878 2184
-104.558 -602.386 2175
-99.3571 -602.386 2175
-93.8097 -600.17 2167
-88.505 -599.339 2164
-83.0992 -597.677 2158
-77.9388 -597.677 2158
-72.1376 -592.415 2139
-66.8346 -590.754 2133
-61.5024 -588.538 2125
-56.4209 -588.538 2125
-51.1461 -586.322 2117
-46.0184 -585.491 2114
-40.8663 -584.107 2109
-35.6871 -581.891 2101
-30.663 -581.891 2101
-25.4802 -578.29 2088
-20.4578 -577.46 2085
-15.457 -576.906 2083
-10.476 -576.906 2083
-5.48169 -575.521 2078
-0.510589 -573.305 2070
4.42868 -571.92 2065
9.36673 -571.92 2065
14.2493 -569.705 2057
19.1496 -569.151 2055
23.9935 -567.489 2049
28.8933 -567.489 2049
33.5951 -564.165 2037
38.4662 -564.165 2037
43.2735 -563.335 2034
48.1374 -563.335 2034
52.9492 -562.781 2032
57.7514 -562.227 2030
62.4516 -560.842 2025
67.294 -560.842 2025
72.1363 -560.842 2025
76.8647 -560.011 2022
81.6191 -559.457 2020
86.2355 -558.072 2015
91.054 -558.072 2015
95.8725 -558.072 2015
100.691 -558.072 2015
105.352 -557.242 2012
110.164 -557.242 2012
114.975 -557.242 2012
119.965 -558.072 2015
124.783 -558.072 2015
129.73 -558.626 2017
134.554 -558.626 2017
139.377 -558.626 2017
144.415 -559.457 2020
149.393 -560.011 2022
154.228 -560.011 2022
159.299 -560.842 2025
164.142 -560.842 2025
169.151 -561.396 2027
173.998 -561.396 2027
178.845 -561.396 2027
184.146 -562.781 2032
189.656 -564.719 2039
194.818 -565.55 2042
199.701 -565.55 2042
204.584 -565.55 2042
413.666 -1067.12 3853
423.867 -1069.62 3862
433.102 -1069.62 3862
442.338 -1069.62 3862
450.52 -1067.12 3853
457.586 -1062.14 3835
466.757 -1062.14 3835
467.365 -1043.03 3766
476.37 -1043.03 3766
485.376 -1043.03 3766
496.613 -1047.74 3783
505.66 -1047.74 3783
514.706 -1047.74 3783
523.752 -1047.74 3783
532.799 -1047.74 3783
541.845 -1047.74 3783
550.891 -1047.74 3783
554.905 -1038.32 3749
560.11 -1031.4 3724
571.46 -1035.83 3740
580.403 -1035.83 3740
593.444 -1043.03 3766
602.449 -1043.03 3766
612.754 -1045.24 3774
621.779 -1045.24 3774
632.308 -1047.74 3783
648.644 -1059.65 3826
673.267 -1084.57 3916
682.631 -1084.57 3916
696.943 -1092.33 3944
706.375 -1092.33 3944
715.806 -1092.33 3944
716.779 -1079.59 3898
721.07 -1072.11 3871
718.63 -1054.94 3809
729.458 -1057.43 3818
741.876 -1062.14 3835
751.047 -1062.14 3835
762.002 -1064.63 3844
771.194 -1064.63 3844
780.386 -1064.63 3844
789.578 -1064.63 3844
796.9 -1062.14 3835
806.071 -1062.14 3835
815.242 -1062.14 3835
815.169 -1050.23 3792
824.236 -1050.23 3792
825.613 -1040.53 3757
834.597 -1040.53 3757
841.785 -1038.32 3749
848.707 -1035.83 3740
859.715 -1038.32 3749
868.68 -1038.32 3749
877.645 -1038.32 3749
1443.1 -1072.11 3871
1452.35 -1072.11 3871
1461.61 -1072.11 3871
1470.87 -1072.11 3871
1480.12 -1072.11 3871
1472.07 -1059.65 3826
1478.12 -1057.43 3818
1487.25 -1057.43 3818
1496.38 -1057.43 3818
1501.96 -1054.94 3809
1511.07 -1054.94 3809
1520.18 -1054.94 3809
1536.11 -1059.65 3826
1548.89 -1062.14 3835
1558.06 -1062.14 3835
1567.23 -1062.14 3835
1576.41 -1062.14 3835
1585.58 -1062.14 3835
1583.93 -1054.94 3809
1582.17 -1047.74 3783
1591.22 -1047.74 3783
1600.26 -1047.74 3783
1609.31 -1047.74 3783
1614.5 -1045.24 3774
1616.22 -1040.53 3757
1625.2 -1040.53 3757
-2873.64 -1095.78 3991
-2864.09 -1095.78 3991
-2875.29 -1103.75 4020
-2865.68 -1103.75 4020
-2856.06 -1103.75 4020
-2825.92 -1095.78 3991
-2802.97 -1090.57 3972
-2780.1 -1085.35 3953
-2770.65 -1085.35 3953
-2741.64 -1077.66 3925
-2732.25 -1077.66 3925
-2716.63 -1075.19 3916
-2707.26 -1075.19 3916
-2691.7 -1072.72 3907
-2657.64 -1062.84 3871
-2629.91 -1055.42 3844
-2620.72 -1055.42 3844
-2599.3 -1050.48 3826
-2578.64 -1045.81 3809
-2569.53 -1045.81 3809
-2560.42 -1045.81 3809
-2539.93 -1041.14 3792
-2518.84 -1036.2 3774
-2515.8 -1038.67 3783
-2506.76 -1038.67 3783
-2497.71 -1038.67 3783
-2477.48 -1034.01 3766
-2462.58 -1031.54 3757
-2453.59 -1031.54 3757
-1388.97 -1055.42 3844
-1379.77 -1055.42 3844
-1393.04 -1072.72 3907
-1383.7 -1072.72 3907
-1374.36 -1072.72 3907
-1365.02 -1072.72 3907
-1352.55 -1070.25 3898
-1343.23 -1070.25 3898
-1333.91 -1070.25 3898
-1321.53 -1067.78 3889
-1312.23 -1067.78 3889
-1302.93 -1067.78 3889
-1293.63 -1067.78 3889
-1284.33 -1067.78 3889
-1266.18 -1060.36 3862
-1259.87 -1062.84 3871
-1250.61 -1062.84 3871
-1241.36 -1062.84 3871
-1232.1 -1062.84 3871
-1220 -1060.36 3862
-1207.94 -1057.89 3853
-1198.73 -1057.89 3853
-1186.74 -1055.42 3844
-1166.82 -1045.81 3809
-131.104 -599.647 2184
-126.688 -603.491 2198
-121.432 -603.491 2198
-116.176 -603.491 2198
-110.213 -599.647 2184
-104.558 -597.176 2175
-99.3571 -597.176 2175
-93.8097 -594.979 2167
-88.505 -594.155 2164
-83.0992 -592.508 2158
-77.9388 -592.508 2158
-72.1376 -587.291 2139
-66.8346 -585.644 2133
-61.5024 -583.447 2125
-56.4209 -583.447 2125
-51.1461 -581.251 2117
-46.0184 -580.427 2114
-40.8081 -578.231 2106
-35.6362 -576.034 2098
-30.6192 -576.034 2098
-25.4436 -572.465 2085
-20.4578 -572.465 2085
-15.457 -571.916 2083
-10.476 -571.916 2083
-5.47378 -569.719 2075
-0.510589 -568.346 2070
4.42868 -566.974 2065
9.36673 -566.974 2065
14.2493 -564.777 2057
19.1496 -564.228 2055
23.9935 -562.581 2049
28.8933 -562.581 2049
33.5951 -559.286 2037
38.4662 -559.286 2037
43.2735 -558.462 2034
48.1374 -558.462 2034
52.8971 -557.364 2030
57.6661 -556.54 2027
62.4516 -555.991 2025
67.294 -555.991 2025
72.1363 -555.991 2025
76.8647 -555.167 2022
81.6191 -554.618 2020
86.2355 -553.245 2015
91.054 -553.245 2015
95.8725 -553.245 2015
100.691 -553.245 2015
105.352 -552.422 2012
110.164 -552.422 2012
114.975 -552.422 2012
119.965 -553.245 2015
124.907 -553.795 2017
129.73 -553.795 2017
134.554 -553.795 2017
139.584 -554.618 2020
144.558 -555.167 2022
149.615 -555.991 2025
154.457 -555.991 2025
159.299 -555.991 2025
164.142 -555.991 2025
169.151 -556.54 2027
174.427 -557.913 2032
179.287 -557.913 2032
184.146 -557.913 2032
189.935 -560.659 2042
195.486 -562.581 2049
200.386 -562.581 2049
205.285 -562.581 2049
413.666 -1057.89 3853
422.879 -1057.89 3853
432.093 -1057.89 3853
441.307 -1057.89 3853
450.52 -1057.89 3853
457.586 -1052.95 3835
466.757 -1052.95 3835
469.474 -1038.67 3783
478.521 -1038.67 3783
489.758 -1043.34 3800
504.621 -1055.42 3844
515.016 -1057.89 3853
524.23 -1057.89 3853
533.444 -1057.89 3853
541.39 -1055.42 3844
550.582 -1055.42 3844
559.774 -1055.42 3844
559.937 -1038.67 3783
563.87 -1029.34 3749
575.432 -1034.01 3766
584.438 -1034.01 3766
593.444 -1034.01 3766
602.449 -1034.01 3766
612.754 -1036.2 3774
621.779 -1036.2 3774
633.812 -1041.14 3792
648.644 -1050.48 3826
673.267 -1075.19 3916
682.631 -1075.19 3916
691.995 -1075.19 3916
701.36 -1075.19 3916
710.724 -1075.19 3916
715.124 -1067.78 3889
709.521 -1045.81 3809
712.027 -1036.2 3774
726.019 -1043.34 3800
738.588 -1048.28 3818
747.718 -1048.28 3818
758.434 -1050.48 3826
769.388 -1052.95 3835
778.559 -1052.95 3835
787.73 -1052.95 3835
793.368 -1048.28 3818
797.033 -1041.14 3792
806.101 -1041.14 3792
811.299 -1036.2 3774
816.629 -1031.54 3757
823.855 -1029.34 3749
832.82 -1029.34 3749
841.785 -1029.34 3749
852.565 -1031.54 3757
861.549 -1031.54 3757
870.534 -1031.54 3757
879.518 -1031.54 3757
1459.87 -1075.19 3916
1469.24 -1075.19 3916
1478.6 -1075.19 3916
1470.87 -1062.84 3871
1480.12 -1062.84 3871
1478.99 -1055.42 3844
1484.7 -1052.95 3835
1493.87 -1052.95 3835
1510.09 -1057.89 3853
1519.31 -1057.89 3853
1528.52 -1057.89 3853
1537.74 -1057.89 3853
1550.56 -1060.36 3862
1559.8 -1060.36 3862
1572.69 -1062.84 3871
1581.95 -1062.84 3871
1591.2 -1062.84 3871
1600.46 -1062.84 3871
1594.75 -1052.95 3835
1593.04 -1045.81 3809
1595 -1041.14 3792
1604.07 -1041.14 3792
1613.14 -1041.14 3792
1622.2 -1041.14 3792
1631.27 -1041.14 3792
1640.34 -1041.14 3792
-2873.64 -1086.22 3991
-2864.09 -1086.22 3991
-2854.55 -1086.22 3991
-2845 -1086.22 3991
-2835.46 -1086.22 3991
-2819.54 -1083.77 3982
-2802.97 -1081.05 3972
-2780.1 -1075.88 3953
-2770.65 -1075.88 3953
-2748.63 -1070.98 3935
-2739.22 -1070.98 3935
-2716.63 -1065.81 3916
-2707.26 -1065.81 3916
-2691.7 -1063.36 3907
-2657.64 -1053.56 3871
-2629.91 -1046.21 3844
-2620.72 -1046.21 3844
-2599.3 -1041.31 3826
-2578.64 -1036.69 3809
-2563.46 -1034.24 3800
-2554.37 -1034.24 3800
-2533.9 -1029.61 3783
-2518.84 -1027.16 3774
-2515.8 -1029.61 3783
-2506.76 -1029.61 3783
