ply
format ascii 1.0
comment File generated
element vertex 2155
property float x
property float y
property float z
end_header
95.6632 -829.744 2117
100.583 -828.568 2114
105.938 -830.92 2120
111.007 -830.92 2120
116.077 -830.92 2120
121.147 -830.92 2120
126.335 -831.704 2122
131.595 -832.88 2125
136.87 -834.056 2128
141.959 -834.056 2128
147.047 -834.056 2128
152.136 -834.056 2128
157.446 -835.231 2131
162.542 -835.231 2131
167.795 -836.015 2133
173.382 -838.367 2139
178.748 -839.543 2142
183.87 -839.543 2142
188.992 -839.543 2142
194.114 -839.543 2142
199.422 -840.327 2144
204.549 -840.327 2144
209.97 -841.503 2147
215.705 -843.854 2153
220.853 -843.854 2153
226.002 -843.854 2153
1386.89 -1430.59 3650
1395.62 -1430.59 3650
1404.35 -1430.59 3650
1409.98 -1427.46 3642
1418.69 -1427.46 3642
1427.4 -1427.46 3642
1430.19 -1421.58 3627
1435.69 -1418.44 3619
1447.54 -1421.58 3627
1462.23 -1427.46 3642
1481.04 -1437.26 3667
1489.81 -1437.26 3667
1498.58 -1437.26 3667
1507.35 -1437.26 3667
1516.12 -1437.26 3667
1524.89 -1437.26 3667
1526.54 -1430.59 3650
1535.27 -1430.59 3650
1544 -1430.59 3650
1539.54 -1418.44 3619
1534.93 -1406.29 3588
1526.74 -1391.01 3549
1535.22 -1391.01 3549
1534.14 -1382.38 3527
1529.45 -1370.63 3497
-2796.24 -1473.66 3783
-2787.19 -1473.66 3783
-2778.15 -1473.66 3783
-2788.13 -1483.79 3809
-2779.02 -1483.79 3809
-2769.92 -1483.79 3809
-2767.33 -1487.29 3818
-2789.99 -1504.43 3862
-2780.75 -1504.43 3862
-2771.52 -1504.43 3862
-2762.28 -1504.43 3862
-2753.05 -1504.43 3862
-2743.81 -1504.43 3862
-2728.2 -1500.93 3853
-2694.29 -1487.29 3818
-2685.16 -1487.29 3818
-2676.03 -1487.29 3818
-2666.9 -1487.29 3818
-2663.34 -1490.41 3826
-2654.19 -1490.41 3826
-2645.04 -1490.41 3826
-2635.89 -1490.41 3826
-2597.22 -1473.66 3783
-2582.02 -1470.15 3774
-2572.99 -1470.15 3774
-2563.97 -1470.15 3774
-2554.94 -1470.15 3774
-2534.45 -1463.53 3757
-2525.47 -1463.53 3757
-2516.48 -1463.53 3757
-2474.13 -1444.05 3707
-2422.04 -1418.73 3642
-103.356 -837.528 2150
-98.2151 -837.528 2150
-93.0738 -837.528 2150
-87.9324 -837.528 2150
-82.5601 -835.191 2144
-77.4332 -835.191 2144
-72.2387 -834.412 2142
-66.6779 -828.958 2128
-61.2708 -824.673 2117
-56.2085 -824.673 2117
-50.9528 -821.557 2109
-45.8442 -820.388 2106
-40.7694 -819.609 2104
-35.7381 -819.609 2104
-30.7068 -819.609 2104
-25.6755 -819.609 2104
-20.6442 -819.609 2104
-15.6129 -819.609 2104
-10.5816 -819.609 2104
-5.54236 -818.44 2101
-0.517496 -817.272 2098
4.49517 -816.492 2096
9.51641 -817.272 2098
14.5334 -817.272 2098
19.5503 -817.272 2098
24.6024 -818.44 2101
29.6265 -818.44 2101
34.6507 -818.44 2101
39.7314 -819.609 2104
44.8691 -821.557 2109
49.9834 -822.725 2112
55.0338 -822.725 2112
60.1411 -823.504 2114
65.1964 -823.504 2114
70.3513 -824.673 2117
75.4137 -824.673 2117
80.476 -824.673 2117
85.5384 -824.673 2117
90.6008 -824.673 2117
95.6632 -824.673 2117
100.583 -823.504 2114
105.938 -825.842 2120
111.112 -826.621 2122
116.187 -826.621 2122
121.261 -826.621 2122
126.514 -827.789 2125
131.781 -828.958 2128
136.87 -828.958 2128
141.959 -828.958 2128
147.255 -830.127 2131
152.35 -830.127 2131
157.594 -830.906 2133
162.695 -830.906 2133
167.795 -830.906 2133
173.382 -833.243 2139
178.748 -834.412 2142
183.87 -834.412 2142
188.992 -834.412 2142
194.114 -834.412 2142
199.422 -835.191 2144
204.549 -835.191 2144
209.97 -836.359 2147
215.705 -838.697 2153
220.853 -838.697 2153
226.002 -838.697 2153
1386.89 -1421.85 3650
1395.62 -1421.85 3650
1404.35 -1421.85 3650
1409.98 -1418.73 3642
1418.69 -1418.73 3642
1427.4 -1418.73 3642
1433.35 -1416.01 3635
1442.04 -1416.01 3635
1453.53 -1418.73 3642
1472.27 -1428.47 3667
1484.27 -1431.59 3675
1493.06 -1431.59 3675
1511.66 -1440.94 3699
1520.5 -1440.94 3699
1529.35 -1440.94 3699
1534.87 -1437.82 3691
1543.69 -1437.82 3691
1542.42 -1428.47 3667
1551.19 -1428.47 3667
1552.73 -1421.85 3650
1544.77 -1406.66 3611
1540.07 -1394.58 3580
1548.63 -1394.58 3580
1543.71 -1382.51 3549
1549.14 -1379.78 3542
-2796.24 -1464.6 3783
-2787.19 -1464.6 3783
-2778.15 -1464.6 3783
-2775.69 -1468.08 3792
-2766.62 -1468.08 3792
-2757.55 -1468.08 3792
-2760.81 -1474.66 3809
-2789.99 -1495.18 3862
-2787.23 -1498.67 3871
-2777.98 -1498.67 3871
-2768.72 -1498.67 3871
-2759.46 -1498.67 3871
-2750.2 -1498.67 3871
-2728.2 -1491.7 3853
-2694.29 -1478.15 3818
-2685.16 -1478.15 3818
-2676.03 -1478.15 3818
-2666.9 -1478.15 3818
-2663.34 -1481.25 3826
-2654.19 -1481.25 3826
-2645.04 -1481.25 3826
-2635.89 -1481.25 3826
-2597.22 -1464.6 3783
-2582.02 -1461.11 3774
-2572.99 -1461.11 3774
-2558.53 -1458.02 3766
-2549.53 -1458.02 3766
-2517.59 -1444.85 3732
-2508.66 -1444.85 3732
-2482.99 -1435.17 3707
-2463.45 -1428.98 3691
-2422.04 -1410.01 3642
-103.356 -832.378 2150
-98.2151 -832.378 2150
-93.0738 -832.378 2150
-87.9324 -832.378 2150
-82.5601 -830.055 2144
-77.4332 -830.055 2144
-72.2387 -829.28 2142
-66.6779 -823.86 2128
-61.3577 -820.763 2120
-56.2881 -820.763 2120
-51.0736 -818.44 2114
-45.9095 -816.504 2109
-40.8081 -815.343 2106
-35.7721 -815.343 2106
-30.736 -815.343 2106
-25.6999 -815.343 2106
-20.6638 -815.343 2106
-15.6129 -814.569 2104
-10.5816 -814.569 2104
-5.54236 -813.407 2101
-0.517496 -812.246 2098
4.49517 -811.471 2096
9.51641 -812.246 2098
14.5334 -812.246 2098
19.5503 -812.246 2098
24.6024 -813.407 2101
29.6265 -813.407 2101
34.6507 -813.407 2101
39.7314 -814.569 2104
44.8691 -816.504 2109
49.9834 -817.666 2112
55.0338 -817.666 2112
60.1411 -818.44 2114
65.1964 -818.44 2114
70.3513 -819.602 2117
75.4137 -819.602 2117
80.476 -819.602 2117
85.5384 -819.602 2117
90.6008 -819.602 2117
95.6632 -819.602 2117
100.726 -819.602 2117
105.938 -820.763 2120
111.112 -821.537 2122
116.187 -821.537 2122
121.261 -821.537 2122
126.514 -822.699 2125
131.781 -823.86 2128
136.87 -823.86 2128
141.959 -823.86 2128
147.255 -825.022 2131
152.35 -825.022 2131
157.594 -825.796 2133
162.695 -825.796 2133
167.795 -825.796 2133
173.382 -828.119 2139
178.748 -829.28 2142
183.87 -829.28 2142
188.992 -829.28 2142
194.114 -829.28 2142
199.422 -830.055 2144
204.549 -830.055 2144
209.97 -831.216 2147
215.705 -833.539 2153
220.853 -833.539 2153
226.002 -833.539 2153
1386.89 -1413.11 3650
1395.62 -1413.11 3650
1404.35 -1413.11 3650
1409.98 -1410.01 3642
1418.69 -1410.01 3642
1427.4 -1410.01 3642
1433.35 -1407.3 3635
1442.04 -1407.3 3635
1453.53 -1410.01 3642
1472.27 -1419.69 3667
1484.27 -1422.79 3675
1493.06 -1422.79 3675
1511.66 -1432.08 3699
1520.5 -1432.08 3699
1529.35 -1432.08 3699
1534.87 -1428.98 3691
1543.69 -1428.98 3691
1542.42 -1419.69 3667
1551.19 -1419.69 3667
1552.73 -1413.11 3650
1544.77 -1398.01 3611
1540.07 -1386.01 3580
1548.63 -1386.01 3580
1543.71 -1374 3549
1549.14 -1371.29 3542
-2796.24 -1455.54 3783
-2787.19 -1455.54 3783
-2784.76 -1459 3792
-2820.34 -1482.47 3853
-2811.13 -1482.47 3853
-2801.91 -1482.47 3853
-2792.7 -1482.47 3853
-2796.49 -1489.39 3871
-2793.71 -1492.86 3880
-2784.43 -1492.86 3880
-2781.59 -1496.32 3889
-2772.29 -1496.32 3889
-2762.99 -1496.32 3889
-2734.58 -1485.93 3862
-2694.29 -1469 3818
-2685.16 -1469 3818
-2676.03 -1469 3818
-2666.9 -1469 3818
-2663.34 -1472.08 3826
-2654.19 -1472.08 3826
-2645.04 -1472.08 3826
-2635.89 -1472.08 3826
-2597.22 -1455.54 3783
-2582.02 -1452.07 3774
-2572.99 -1452.07 3774
-2558.53 -1448.99 3766
-2549.53 -1448.99 3766
-2517.59 -1435.91 3732
-2508.66 -1435.91 3732
-2482.99 -1426.29 3707
-2463.45 -1420.14 3691
-2422.04 -1401.28 3642
-103.356 -827.227 2150
-98.2151 -827.227 2150
-93.0738 -827.227 2150
-87.9324 -827.227 2150
-82.5601 -824.919 2144
-77.4332 -824.919 2144
-72.2387 -824.149 2142
-66.6779 -818.763 2128
-61.3577 -815.685 2120
-56.2881 -815.685 2120
-51.0736 -813.376 2114
-45.9095 -811.452 2109
-40.8081 -810.298 2106
-35.7721 -810.298 2106
-30.736 -810.298 2106
-25.6999 -810.298 2106
-20.6638 -810.298 2106
-15.6129 -809.529 2104
-10.5816 -809.529 2104
-5.54236 -808.374 2101
-0.517003 -806.45 2096
4.48873 -805.296 2093
9.50734 -806.45 2096
14.5195 -806.45 2096
19.5317 -806.45 2096
24.5673 -807.22 2098
29.5842 -807.22 2098
34.6012 -807.22 2098
39.6748 -808.374 2101
44.8053 -810.298 2106
49.9124 -811.452 2109
54.9556 -811.452 2109
60.0842 -812.607 2112
65.1964 -813.376 2114
70.3513 -814.53 2117
75.4137 -814.53 2117
80.476 -814.53 2117
85.5384 -814.53 2117
90.6008 -814.53 2117
95.6632 -814.53 2117
100.726 -814.53 2117
105.938 -815.685 2120
111.112 -816.454 2122
116.187 -816.454 2122
121.261 -816.454 2122
126.514 -817.608 2125
131.781 -818.763 2128
136.87 -818.763 2128
141.959 -818.763 2128
147.255 -819.917 2131
152.35 -819.917 2131
157.594 -820.686 2133
162.695 -820.686 2133
167.795 -820.686 2133
173.382 -822.995 2139
178.748 -824.149 2142
183.87 -824.149 2142
188.992 -824.149 2142
194.114 -824.149 2142
199.422 -824.919 2144
204.549 -824.919 2144
209.97 -826.073 2147
215.705 -828.382 2153
220.853 -828.382 2153
226.002 -828.382 2153
1393.35 -1410.9 3667
1402.12 -1410.9 3667
1410.89 -1410.9 3667
1413.08 -1404.36 3650
1421.81 -1404.36 3650
1430.53 -1404.36 3650
1439.26 -1404.36 3650
1447.99 -1404.36 3650
1459.91 -1407.44 3658
1472.27 -1410.9 3667
1497.2 -1426.29 3707
1506.06 -1426.29 3707
1514.93 -1426.29 3707
1523.79 -1426.29 3707
1532.65 -1426.29 3707
1541.52 -1426.29 3707
1543.69 -1420.14 3691
1549.15 -1417.06 3683
1557.96 -1417.06 3683
1556.13 -1407.44 3658
1544.77 -1389.36 3611
1543.51 -1380.51 3588
1552.09 -1380.51 3588
1547.19 -1368.58 3557
1549.14 -1362.81 3542
-2784.76 -1449.91 3792
-2820.34 -1473.24 3853
-2811.13 -1473.24 3853
-2801.91 -1473.24 3853
-2792.7 -1473.24 3853
-2796.49 -1480.12 3871
-2793.71 -1483.56 3880
-2784.43 -1483.56 3880
-2781.59 -1487 3889
-2772.29 -1487 3889
-2762.99 -1487 3889
-2734.58 -1476.68 3862
-2694.29 -1459.86 3818
-2685.16 -1459.86 3818
-2676.03 -1459.86 3818
-2666.9 -1459.86 3818
-2663.34 -1462.91 3826
-2654.19 -1462.91 3826
-2645.04 -1462.91 3826
-2612.47 -1449.91 3792
-2597.22 -1446.47 3783
-2570.39 -1436.53 3757
-2561.4 -1436.53 3757
-2540.87 -1430.03 3740
-2531.93 -1430.03 3740
-2500.72 -1417.41 3707
-2491.86 -1417.41 3707
-2477.63 -1414.35 3699
-2430.74 -1392.56 3642
-2412.06 -1386.82 3627
-103.356 -822.077 2150
-98.2151 -822.077 2150
-93.0738 -822.077 2150
-87.9324 -822.077 2150
-82.5601 -819.783 2144
-77.4332 -819.783 2144
-72.2387 -819.018 2142
-66.8346 -815.577 2133
-61.5024 -812.518 2125
-56.4209 -812.518 2125
-51.2185 -810.606 2120
-46.0184 -808.312 2114
-40.8663 -806.4 2109
-35.823 -806.4 2109
-30.7798 -806.4 2109
-25.7365 -806.4 2109
-20.6932 -806.4 2109
-15.6277 -805.253 2106
-10.5916 -805.253 2106
-5.55028 -804.488 2104
-0.517496 -802.194 2098
4.49517 -801.429 2096
9.50734 -801.429 2096
14.5195 -801.429 2096
19.5317 -801.429 2096
24.5673 -802.194 2098
29.5842 -802.194 2098
34.6012 -802.194 2098
39.6748 -803.341 2101
44.8053 -805.253 2106
49.9124 -806.4 2109
54.9556 -806.4 2109
60.0842 -807.547 2112
65.1964 -808.312 2114
70.3513 -809.459 2117
75.4137 -809.459 2117
80.476 -809.459 2117
85.5384 -809.459 2117
90.6008 -809.459 2117
95.6632 -809.459 2117
100.726 -809.459 2117
105.938 -810.606 2120
111.007 -810.606 2120
116.187 -811.371 2122
121.261 -811.371 2122
126.514 -812.518 2125
131.781 -813.665 2128
136.87 -813.665 2128
141.959 -813.665 2128
147.255 -814.812 2131
152.35 -814.812 2131
157.594 -815.577 2133
162.695 -815.577 2133
167.795 -815.577 2133
173.382 -817.871 2139
178.748 -819.018 2142
183.87 -819.018 2142
188.992 -819.018 2142
194.114 -819.018 2142
199.236 -819.018 2142
204.359 -819.018 2142
209.481 -819.018 2142
215.104 -820.93 2147
220.238 -820.93 2147
225.372 -820.93 2147
1393.35 -1402.12 3667
1402.12 -1402.12 3667
1410.89 -1402.12 3667
1419.66 -1402.12 3667
1428.43 -1402.12 3667
1437.2 -1402.12 3667
1439.26 -1395.62 3650
1447.99 -1395.62 3650
1459.91 -1398.68 3658
1472.27 -1402.12 3667
1497.2 -1417.41 3707
1506.06 -1417.41 3707
1518.6 -1420.85 3716
1527.49 -1420.85 3716
1536.38 -1420.85 3716
1545.26 -1420.85 3716
1543.69 -1411.3 3691
1549.15 -1408.24 3683
1557.96 -1408.24 3683
1556.13 -1398.68 3658
1544.77 -1380.71 3611
1543.51 -1371.91 3588
1552.09 -1371.91 3588
1547.19 -1360.06 3557
1549.14 -1354.32 3542
-2784.76 -1440.83 3792
-2840.1 -1474.27 3880
-2830.83 -1474.27 3880
-2821.55 -1474.27 3880
-2812.27 -1474.27 3880
-2809.49 -1477.69 3889
-2813.15 -1484.53 3907
-2803.81 -1484.53 3907
-2794.47 -1484.53 3907
-2785.12 -1484.53 3907
-2775.78 -1484.53 3907
-2747.32 -1474.27 3880
-2699.94 -1453.75 3826
-2685.16 -1450.71 3818
-2676.03 -1450.71 3818
-2666.9 -1450.71 3818
-2669.6 -1457.17 3835
-2660.43 -1457.17 3835
-2651.26 -1457.17 3835
-2612.47 -1440.83 3792
-2597.22 -1437.41 3783
-2570.39 -1427.53 3757
-2561.4 -1427.53 3757
-2540.87 -1421.07 3740
-2526.51 -1418.03 3732
-2495.32 -1405.49 3699
-2486.48 -1405.49 3699
-2456.2 -1393.33 3667
-2420.73 -1378.14 3627
-2406.74 -1375.1 3619
-103.356 -816.927 2150
-98.2151 -816.927 2150
-93.0738 -816.927 2150
-87.9324 -816.927 2150
-82.7911 -816.927 2150
-77.6498 -816.927 2150
-72.2387 -813.887 2142
-67.0226 -812.747 2139
-61.5892 -808.567 2128
-56.5005 -808.567 2128
-51.4118 -808.567 2128
-46.3231 -808.567 2128
-41.1182 -806.288 2122
-36.0099 -805.528 2120
-30.9403 -805.528 2120
-25.8707 -805.528 2120
-20.7717 -804.388 2117
-15.6722 -802.488 2112
-10.6218 -802.488 2112
-5.56347 -801.348 2109
-0.519469 -800.208 2106
4.50589 -798.308 2101
9.53002 -798.308 2101
14.5334 -797.168 2098
19.5503 -797.168 2098
24.5673 -797.168 2098
29.6265 -798.308 2101
34.6507 -798.308 2101
39.6748 -798.308 2101
44.7627 -799.448 2104
49.9124 -801.348 2109
54.9556 -801.348 2109
60.0842 -802.488 2112
65.1964 -803.248 2114
70.3513 -804.388 2117
75.4137 -804.388 2117
80.5901 -805.528 2120
85.6596 -805.528 2120
90.7292 -805.528 2120
95.6632 -804.388 2117
100.726 -804.388 2117
105.788 -804.388 2117
111.007 -805.528 2120
116.187 -806.288 2122
121.261 -806.288 2122
126.514 -807.427 2125
131.781 -808.567 2128
136.87 -808.567 2128
141.959 -808.567 2128
147.255 -809.707 2131
152.35 -809.707 2131
157.446 -809.707 2131
162.542 -809.707 2131
167.638 -809.707 2131
173.139 -811.607 2136
178.497 -812.747 2139
183.612 -812.747 2139
188.992 -813.887 2142
194.114 -813.887 2142
199.236 -813.887 2142
204.359 -813.887 2142
209.481 -813.887 2142
214.302 -812.747 2139
219.417 -812.747 2139
1393.35 -1393.33 3667
1405.18 -1396.37 3675
1413.97 -1396.37 3675
1422.76 -1396.37 3675
1428.43 -1393.33 3667
1437.2 -1393.33 3667
1442.42 -1389.92 3658
1451.16 -1389.92 3658
1459.91 -1389.92 3658
1472.27 -1393.33 3667
1497.2 -1408.53 3707
1506.06 -1408.53 3707
1518.6 -1411.95 3716
1527.49 -1411.95 3716
1536.38 -1411.95 3716
1545.26 -1411.95 3716
1543.69 -1402.45 3691
1549.15 -1399.41 3683
1557.96 -1399.41 3683
1556.13 -1389.92 3658
1544.77 -1372.06 3611
1543.51 -1363.32 3588
1552.09 -1363.32 3588
1547.19 -1351.54 3557
1549.14 -1345.84 3542
1554.09 -1342.8 3534
-2866.45 -1478.57 3916
-2857.09 -1478.57 3916
-2847.73 -1478.57 3916
-2831.84 -1475.17 3907
-2822.5 -1475.17 3907
-2819.63 -1478.57 3916
-2810.27 -1478.57 3916
-2800.9 -1478.57 3916
-2791.54 -1478.57 3916
-2782.18 -1478.57 3916
-2766.44 -1475.17 3907
-2731.69 -1461.57 3871
-2716.1 -1458.18 3862
-2706.87 -1458.18 3862
-2697.63 -1458.18 3862
-2682.13 -1454.78 3853
-2666.68 -1451.38 3844
-2657.49 -1451.38 3844
-2635.89 -1444.58 3826
-2579.37 -1418.53 3757
-2558.76 -1412.11 3740
-2549.81 -1412.11 3740
-2535.43 -1409.09 3732
-2521.09 -1406.07 3724
-2479.13 -1387.57 3675
-2470.35 -1387.57 3675
-2444.81 -1378.13 3650
-2415.39 -1366.43 3619
-2401.42 -1363.41 3611
-103.501 -812.909 2153
-98.3521 -812.909 2153
-93.2036 -812.909 2153
-88.0551 -812.909 2153
-82.7911 -811.776 2150
-77.6498 -811.776 2150
-72.5085 -811.776 2150
-67.0226 -807.623 2139
-61.8208 -806.49 2136
-56.7129 -806.49 2136
-51.4118 -803.47 2128
-46.3231 -803.47 2128
-41.2344 -803.47 2128
-36.0948 -802.337 2125
-31.0133 -802.337 2125
-25.8951 -801.204 2122
-20.8012 -800.449 2120
-15.6871 -798.184 2114
-10.6319 -798.184 2114
-5.57138 -797.429 2112
-0.520209 -796.296 2109
4.51233 -794.408 2104
9.54363 -794.408 2104
14.5541 -793.275 2101
19.5503 -792.143 2098
24.5673 -792.143 2098
29.6265 -793.275 2101
34.6507 -793.275 2101
39.6748 -793.275 2101
44.7627 -794.408 2104
49.9124 -796.296 2109
54.9556 -796.296 2109
60.0842 -797.429 2112
65.1964 -798.184 2114
70.3513 -799.316 2117
75.4137 -799.316 2117
80.5901 -800.449 2120
85.6596 -800.449 2120
90.7292 -800.449 2120
95.6632 -799.316 2117
100.726 -799.316 2117
105.788 -799.316 2117
111.007 -800.449 2120
116.187 -801.204 2122
121.261 -801.204 2122
126.514 -802.337 2125
131.781 -803.47 2128
136.87 -803.47 2128
141.959 -803.47 2128
147.255 -804.602 2131
152.35 -804.602 2131
157.446 -804.602 2131
162.542 -804.602 2131
167.638 -804.602 2131
173.139 -806.49 2136
178.497 -807.623 2139
183.612 -807.623 2139
188.992 -808.756 2142
194.114 -808.756 2142
199.236 -808.756 2142
204.359 -808.756 2142
209.481 -808.756 2142
214.302 -807.623 2139
219.417 -807.623 2139
1405.18 -1387.57 3675
1413.97 -1387.57 3675
1422.76 -1387.57 3675
1428.43 -1384.55 3667
1437.2 -1384.55 3667
1442.42 -1381.15 3658
1451.16 -1381.15 3658
1459.91 -1381.15 3658
1468.66 -1381.15 3658
1497.2 -1399.65 3707
1506.06 -1399.65 3707
1518.6 -1403.05 3716
1527.49 -1403.05 3716
1536.38 -1403.05 3716
1545.26 -1403.05 3716
1540.35 -1390.59 3683
1549.15 -1390.59 3683
1557.96 -1390.59 3683
1552.73 -1378.13 3650
1544.77 -1363.41 3611
1540.07 -1351.7 3580
1548.63 -1351.7 3580
1547.19 -1343.02 3557
1545.64 -1334.33 3534
1554.09 -1334.33 3534
-2886.95 -1479.69 3944
-2877.52 -1479.69 3944
-2868.09 -1479.69 3944
-2844.89 -1472.56 3925
-2835.5 -1472.56 3925
-2826.11 -1472.56 3925
-2816.73 -1472.56 3925
-2807.34 -1472.56 3925
-2797.96 -1472.56 3925
-2788.57 -1472.56 3925
-2766.44 -1465.81 3907
-2731.69 -1452.3 3871
-2716.1 -1448.93 3862
-2706.87 -1448.93 3862
-2697.63 -1448.93 3862
-2682.13 -1445.55 3853
-2666.68 -1442.17 3844
-2657.49 -1442.17 3844
-2635.89 -1435.42 3826
-2579.37 -1409.53 3757
-2558.76 -1403.15 3740
-2549.81 -1403.15 3740
-2535.43 -1400.15 3732
-2521.09 -1397.15 3724
-2479.13 -1378.77 3675
-2470.35 -1378.77 3675
-2444.81 -1369.39 3650
-2415.39 -1357.76 3619
-2401.42 -1354.76 3611
-103.501 -807.751 2153
-98.3521 -807.751 2153
-93.2036 -807.751 2153
-88.0551 -807.751 2153
-82.7911 -806.626 2150
-77.6498 -806.626 2150
-72.5085 -806.626 2150
-67.0226 -802.499 2139
-61.8208 -801.373 2136
-56.7129 -801.373 2136
-51.4118 -798.372 2128
-46.3231 -798.372 2128
-41.2344 -798.372 2128
-36.0948 -797.247 2125
-31.0133 -797.247 2125
-25.8951 -796.121 2122
-20.8012 -795.371 2120
-15.6871 -793.12 2114
-10.6319 -793.12 2114
-5.57138 -792.369 2112
-0.520209 -791.244 2109
4.51233 -789.368 2104
9.54363 -789.368 2104
14.5541 -788.242 2101
19.5503 -787.117 2098
24.5673 -787.117 2098
29.6265 -788.242 2101
34.6507 -788.242 2101
39.6748 -788.242 2101
44.7627 -789.368 2104
49.9124 -791.244 2109
54.9556 -791.244 2109
60.0842 -792.369 2112
65.1964 -793.12 2114
70.3513 -794.245 2117
75.4137 -794.245 2117
80.5901 -795.371 2120
85.6596 -795.371 2120
90.7292 -795.371 2120
95.6632 -794.245 2117
100.583 -793.12 2114
105.638 -793.12 2114
110.85 -794.245 2117
116.077 -795.371 2120
121.147 -795.371 2120
126.514 -797.247 2125
131.595 -797.247 2125
136.677 -797.247 2125
141.758 -797.247 2125
147.047 -798.372 2128
152.136 -798.372 2128
157.225 -798.372 2128
162.313 -798.372 2128
167.402 -798.372 2128
172.734 -799.498 2131
178.247 -801.373 2136
183.355 -801.373 2136
188.727 -802.499 2139
194.114 -803.625 2142
199.236 -803.625 2142
204.359 -803.625 2142
209.481 -803.625 2142
214.002 -801.373 2136
219.11 -801.373 2136
1405.18 -1378.77 3675
1413.97 -1378.77 3675
1422.76 -1378.77 3675
1428.43 -1375.77 3667
1437.2 -1375.77 3667
1442.42 -1372.39 3658
1451.16 -1372.39 3658
1459.91 -1372.39 3658
1468.66 -1372.39 3658
1497.2 -1390.77 3707
1506.06 -1390.77 3707
1518.6 -1394.15 3716
1527.49 -1394.15 3716
1536.38 -1394.15 3716
1545.26 -1394.15 3716
1540.35 -1381.77 3683
1545.79 -1378.77 3675
1554.58 -1378.77 3675
1549.33 -1366.39 3642
1548.2 -1357.76 3619
1543.51 -1346.13 3588
1552.09 -1346.13 3588
1550.67 -1337.5 3565
1559.19 -1337.5 3565
1584.43 -1351.76 3603
1593.05 -1351.76 3603
1601.66 -1351.76 3603
-2900.86 -1477.32 3963
-2891.38 -1477.32 3963
-2881.9 -1477.32 3963
-2858.66 -1470.24 3944
-2835.5 -1463.16 3925
-2826.11 -1463.16 3925
-2816.73 -1463.16 3925
-2807.34 -1463.16 3925
-2797.96 -1463.16 3925
-2788.57 -1463.16 3925
-2766.44 -1456.45 3907
-2731.69 -1443.03 3871
-2716.1 -1439.67 3862
-2706.87 -1439.67 3862
-2697.63 -1439.67 3862
-2682.13 -1436.32 3853
-2666.68 -1432.96 3844
-2657.49 -1432.96 3844
-2635.89 -1426.25 3826
-2579.37 -1400.53 3757
-2558.76 -1394.19 3740
-2549.81 -1394.19 3740
-2530 -1388.23 3724
-2521.09 -1388.23 3724
-2473.74 -1366.98 3667
-2443.46 -1355.05 3635
-2434.76 -1355.05 3635
-2410.05 -1346.11 3611
-2396.1 -1343.12 3603
-103.501 -802.594 2153
-98.3521 -802.594 2153
-93.2036 -802.594 2153
-88.0551 -802.594 2153
-82.7911 -801.476 2150
-77.6498 -801.476 2150
-72.5085 -801.476 2150
-67.0226 -797.375 2139
-61.8208 -796.257 2136
-56.7129 -796.257 2136
-51.4118 -793.274 2128
-46.3231 -793.274 2128
-41.2344 -793.274 2128
-36.0948 -792.156 2125
-31.0133 -792.156 2125
-25.9318 -792.156 2125
-20.8012 -790.292 2120
-15.6871 -788.056 2114
-10.6319 -788.056 2114
-5.57666 -788.056 2114
-0.520949 -787.31 2112
4.52305 -786.192 2109
9.56631 -786.192 2109
14.5749 -784.328 2104
19.6062 -784.328 2104
24.6375 -784.328 2104
29.6688 -784.328 2104
34.6507 -783.209 2101
39.7314 -784.328 2104
44.8053 -785.073 2106
49.9124 -786.192 2109
54.9556 -786.192 2109
60.1411 -788.056 2114
65.2889 -789.174 2117
70.451 -790.292 2120
75.5205 -790.292 2120
80.5901 -790.292 2120
85.6596 -790.292 2120
90.7292 -790.292 2120
95.7988 -790.292 2120
100.726 -789.174 2117
105.638 -788.056 2114
110.85 -789.174 2117
116.077 -790.292 2120
121.147 -790.292 2120
126.335 -791.038 2122
131.595 -792.156 2125
136.677 -792.156 2125
141.758 -792.156 2125
146.84 -792.156 2125
152.136 -793.274 2128
157.225 -793.274 2128
162.313 -793.274 2128
167.402 -793.274 2128
172.491 -793.274 2128
177.83 -794.393 2131
182.926 -794.393 2131
188.198 -795.138 2133
193.57 -796.257 2136
198.957 -797.375 2139
204.072 -797.375 2139
209.187 -797.375 2139
214.002 -796.257 2136
219.11 -796.257 2136
1405.18 -1369.96 3675
1413.97 -1369.96 3675
1422.76 -1369.96 3675
1428.43 -1366.98 3667
1437.2 -1366.98 3667
1442.42 -1363.63 3658
1451.16 -1363.63 3658
1459.91 -1363.63 3658
1472.27 -1366.98 3667
1497.2 -1381.89 3707
1506.06 -1381.89 3707
1518.6 -1385.25 3716
1527.49 -1385.25 3716
1536.38 -1385.25 3716
1545.26 -1385.25 3716
1540.35 -1372.95 3683
1545.79 -1369.96 3675
1554.58 -1369.96 3675
1552.73 -1360.64 3650
1551.62 -1352.07 3627
1549.97 -1343.12 3603
1558.58 -1343.12 3603
1557.19 -1334.55 3580
1562.26 -1331.57 3572
1584.43 -1343.12 3603
1593.05 -1343.12 3603
1601.66 -1343.12 3603
-2900.86 -1467.83 3963
-2891.38 -1467.83 3963
-2881.9 -1467.83 3963
-2858.66 -1460.79 3944
-2835.5 -1453.76 3925
-2826.11 -1453.76 3925
-2816.73 -1453.76 3925
-2807.34 -1453.76 3925
-2797.96 -1453.76 3925
-2788.57 -1453.76 3925
-2766.44 -1447.09 3907
-2731.69 -1433.76 3871
-2716.1 -1430.42 3862
-2706.87 -1430.42 3862
-2697.63 -1430.42 3862
-2682.13 -1427.09 3853
-2672.92 -1427.09 3853
-2663.71 -1427.09 3853
-2642.09 -1420.42 3835
-2579.37 -1391.53 3757
-2558.76 -1385.24 3740
-2549.81 -1385.24 3740
-2530 -1379.31 3724
-2498.75 -1367.09 3691
-2479.13 -1361.16 3675
-2470.35 -1361.16 3675
-2439.45 -1348.94 3642
-2426.07 -1346.35 3635
-2401.42 -1337.46 3611
-103.068 -794.103 2144
-98.078 -795.214 2147
-92.9439 -795.214 2147
-87.9324 -796.325 2150
-82.7911 -796.325 2150
-77.6498 -796.325 2150
-72.4074 -795.214 2147
-67.1792 -794.103 2144
-61.8208 -791.14 2136
-56.7129 -791.14 2136
-51.5326 -790.029 2133
-46.3231 -788.177 2128
-41.2344 -788.177 2128
-36.1457 -788.177 2128
-31.0571 -788.177 2128
-25.9318 -787.066 2125
-20.8208 -785.955 2122
-15.7093 -784.103 2117
-10.647 -784.103 2117
-5.57666 -782.991 2114
-0.520949 -782.251 2112
4.52948 -782.251 2112
9.57992 -782.251 2112
14.6096 -781.14 2109
19.6249 -780.028 2106
24.6375 -779.288 2104
29.6688 -779.288 2104
34.7001 -779.288 2104
39.7692 -780.028 2106
44.8053 -780.028 2106
50.0307 -782.991 2114
55.0859 -782.991 2114
60.2265 -784.103 2117
65.2889 -784.103 2117
70.451 -785.214 2120
75.5205 -785.214 2120
80.5901 -785.214 2120
85.6596 -785.214 2120
90.7292 -785.214 2120
95.7988 -785.214 2120
100.868 -785.214 2120
105.788 -784.103 2117
111.007 -785.214 2120
116.077 -785.214 2120
121.147 -785.214 2120
126.335 -785.955 2122
131.595 -787.066 2125
136.677 -787.066 2125
141.758 -787.066 2125
146.84 -787.066 2125
151.921 -787.066 2125
157.003 -787.066 2125
162.084 -787.066 2125
167.166 -787.066 2125
172.247 -787.066 2125
177.329 -787.066 2125
182.411 -787.066 2125
188.021 -789.288 2131
193.117 -789.288 2131
198.213 -789.288 2131
203.309 -789.288 2131
208.6 -790.029 2133
213.701 -790.029 2133
218.802 -790.029 2133
1405.18 -1361.16 3675
1413.97 -1361.16 3675
1422.76 -1361.16 3675
1428.43 -1358.2 3667
1437.2 -1358.2 3667
1442.42 -1354.86 3658
1451.16 -1354.86 3658
1459.91 -1354.86 3658
1472.27 -1358.2 3667
1497.2 -1373.01 3707
1506.06 -1373.01 3707
1518.6 -1376.35 3716
1527.49 -1376.35 3716
1536.38 -1376.35 3716
1545.26 -1376.35 3716
1540.35 -1364.12 3683
1549.15 -1364.12 3683
1557.96 -1364.12 3683
1552.73 -1351.9 3650
1551.62 -1343.38 3627
1556.85 -1340.42 3619
1565.5 -1340.42 3619
1560.67 -1328.94 3588
1569.25 -1328.94 3588
1594.98 -1343.38 3627
1603.66 -1343.38 3627
1612.33 -1343.38 3627
-2907.45 -1461.65 3972
-2897.95 -1461.65 3972
-2888.45 -1461.65 3972
-2872.43 -1458.34 3963
-2835.5 -1444.35 3925
-2826.11 -1444.35 3925
-2816.73 -1444.35 3925
-2807.34 -1444.35 3925
-2797.96 -1444.35 3925
-2788.57 -1444.35 3925
-2772.81 -1441.04 3916
-2712.64 -1414.55 3844
-2709.78 -1417.86 3853
-2700.56 -1417.86 3853
-2691.35 -1417.86 3853
-2682.13 -1417.86 3853
-2672.92 -1417.86 3853
-2663.71 -1417.86 3853
-2642.09 -1411.24 3835
-2615.07 -1401.67 3809
-2582.02 -1388.79 3774
-2572.99 -1388.79 3774
-2540.87 -1376.28 3740
-2531.93 -1376.28 3740
-2489.93 -1358.24 3691
-2481.1 -1358.24 3691
-2461.56 -1352.36 3675
-2441.42 -1346.1 3658
-2432.68 -1346.1 3658
-2423.93 -1346.1 3658
-2415.18 -1346.1 3658
-108.094 -788.231 2142
-103.356 -791.175 2150
-98.2151 -791.175 2150
-93.0738 -791.175 2150
-88.0551 -792.279 2153
-82.9067 -792.279 2153
-77.7582 -792.279 2153
-72.4074 -790.071 2147
-67.1792 -788.967 2144
-61.9944 -788.231 2142
-56.8722 -788.231 2142
-51.7501 -788.231 2142
-46.6279 -788.231 2142
-41.5057 -788.231 2142
-36.3835 -788.231 2142
-31.1738 -786.023 2136
-26.005 -784.183 2131
-20.8208 -780.871 2122
-15.7316 -780.135 2120
-10.662 -780.135 2120
-5.58457 -779.031 2117
-0.521442 -777.927 2114
4.52948 -777.191 2112
9.57992 -777.191 2112
14.6096 -776.087 2109
19.6528 -776.087 2109
24.661 -774.983 2106
29.697 -774.983 2106
34.7331 -774.983 2106
39.7692 -774.983 2106
44.9755 -777.927 2114
50.0307 -777.927 2114
55.0859 -777.927 2114
60.2265 -779.031 2117
65.2889 -779.031 2117
70.451 -780.135 2120
75.5205 -780.135 2120
80.5901 -780.135 2120
85.6596 -780.135 2120
90.7292 -780.135 2120
95.7988 -780.135 2120
100.868 -780.135 2120
105.938 -780.135 2120
111.007 -780.135 2120
116.077 -780.135 2120
121.147 -780.135 2120
126.514 -781.975 2125
131.595 -781.975 2125
136.677 -781.975 2125
141.758 -781.975 2125
146.84 -781.975 2125
151.921 -781.975 2125
157.003 -781.975 2125
162.084 -781.975 2125
167.166 -781.975 2125
172.247 -781.975 2125
177.329 -781.975 2125
182.411 -781.975 2125
188.021 -784.183 2131
193.117 -784.183 2131
198.213 -784.183 2131
203.309 -784.183 2131
208.6 -784.919 2133
213.701 -784.919 2133
218.802 -784.919 2133
1402.12 -1349.41 3667
1410.89 -1349.41 3667
1419.66 -1349.41 3667
1424.92 -1346.1 3658
1433.67 -1346.1 3658
1439.26 -1343.16 3650
1447.99 -1343.16 3650
1459.91 -1346.1 3658
1472.27 -1349.41 3667
1497.2 -1364.13 3707
1506.06 -1364.13 3707
1514.93 -1364.13 3707
1523.79 -1364.13 3707
1532.65 -1364.13 3707
1541.52 -1364.13 3707
1540.35 -1355.3 3683
1549.15 -1355.3 3683
1557.96 -1355.3 3683
1552.73 -1343.16 3650
1551.62 -1334.69 3627
1556.85 -1331.75 3619
1565.5 -1331.75 3619
1560.67 -1320.34 3588
1569.25 -1320.34 3588
1594.98 -1334.69 3627
1603.66 -1334.69 3627
1612.33 -1334.69 3627
-2914.77 -1455.79 3982
-2905.24 -1455.79 3982
-2895.72 -1455.79 3982
-2878.95 -1452.13 3972
-2835.5 -1434.95 3925
-2826.11 -1434.95 3925
-2816.73 -1434.95 3925
-2820.93 -1441.9 3944
-2811.5 -1441.9 3944
-2802.07 -1441.9 3944
-2772.81 -1431.66 3916
-2706.29 -1402.05 3835
-2709.78 -1408.63 3853
-2700.56 -1408.63 3853
-2691.35 -1408.63 3853
-2682.13 -1408.63 3853
-2672.92 -1408.63 3853
-2663.71 -1408.63 3853
-2642.09 -1402.05 3835
-2626.74 -1398.76 3826
-2605.96 -1392.54 3809
-2596.85 -1392.54 3809
-2587.75 -1392.54 3809
-2572.54 -1389.25 3800
-2517.59 -1364.39 3732
-2508.66 -1364.39 3732
-2494.38 -1361.47 3724
-2485.47 -1361.47 3724
-2527.11 -1389.25 3800
-2518.02 -1389.25 3800
-2508.94 -1389.25 3800
-2499.85 -1389.25 3800
-108.094 -783.1 2142
-103.356 -786.025 2150
-98.2151 -786.025 2150
-93.0738 -786.025 2150
-88.0551 -787.121 2153
-82.9067 -787.121 2153
-77.7582 -787.121 2153
-72.4074 -784.928 2147
-67.1792 -783.831 2144
-61.9944 -783.1 2142
-56.8722 -783.1 2142
-51.7501 -783.1 2142
-46.6279 -783.1 2142
-41.5057 -783.1 2142
-36.3835 -783.1 2142
-31.1738 -780.906 2136
-26.005 -779.078 2131
-20.8208 -775.788 2122
-15.7316 -775.057 2120
-10.662 -775.057 2120
-5.58457 -773.96 2117
-0.521442 -772.863 2114
4.52948 -772.132 2112
9.57992 -772.132 2112
14.6096 -771.035 2109
19.6528 -771.035 2109
24.661 -769.938 2106
29.697 -769.938 2106
34.7331 -769.938 2106
39.7692 -769.938 2106
44.9755 -772.863 2114
50.0307 -772.863 2114
55.0859 -772.863 2114
60.2265 -773.96 2117
65.2889 -773.96 2117
70.451 -775.057 2120
75.5205 -775.057 2120
80.5901 -775.057 2120
85.6596 -775.057 2120
90.7292 -775.057 2120
95.7988 -775.057 2120
100.868 -775.057 2120
105.938 -775.057 2120
111.007 -775.057 2120
116.077 -775.057 2120
121.147 -775.057 2120
126.514 -776.885 2125
131.595 -776.885 2125
136.677 -776.885 2125
141.758 -776.885 2125
146.84 -776.885 2125
151.707 -775.788 2122
156.781 -775.788 2122
161.856 -775.788 2122
166.93 -775.788 2122
172.004 -775.788 2122
177.079 -775.788 2122
182.153 -775.788 2122
187.492 -776.885 2125
192.574 -776.885 2125
198.213 -779.078 2131
203.309 -779.078 2131
208.405 -779.078 2131
213.501 -779.078 2131
218.597 -779.078 2131
1408.24 -1346.48 3683
1417.05 -1346.48 3683
1425.85 -1346.48 3683
1434.66 -1346.48 3683
1443.47 -1346.48 3683
1442.42 -1337.34 3658
1451.16 -1337.34 3658
1463.5 -1340.63 3667
1478.7 -1346.48 3683
1500.83 -1358.54 3716
1509.72 -1358.54 3716
1521.87 -1361.47 3724
1530.78 -1361.47 3724
1539.68 -1361.47 3724
1541.52 -1355.25 3707
1547.04 -1352.33 3699
1549.15 -1346.48 3683
1557.96 -1346.48 3683
1552.73 -1334.41 3650
1551.62 -1326.01 3627
1556.85 -1323.08 3619
1565.5 -1323.08 3619
1567.2 -1317.23 3603
1569.25 -1311.75 3588
1594.98 -1326.01 3627
1603.66 -1326.01 3627
1612.33 -1326.01 3627
-2921.35 -1449.52 3991
-2911.81 -1449.52 3991
-2902.27 -1449.52 3991
-2886.2 -1446.25 3982
-2835.5 -1425.55 3925
-2853.47 -1439.35 3963
-2844 -1439.35 3963
-2834.52 -1439.35 3963
-2825.04 -1439.35 3963
-2815.57 -1439.35 3963
-2792.64 -1432.45 3944
-2712.64 -1396.13 3844
-2709.78 -1399.4 3853
-2700.56 -1399.4 3853
-2691.35 -1399.4 3853
-2682.13 -1399.4 3853
-2672.92 -1399.4 3853
-2663.71 -1399.4 3853
-2642.09 -1392.86 3835
-2626.74 -1389.59 3826
-2617.59 -1389.59 3826
-2608.44 -1389.59 3826
-2593.86 -1386.69 3818
-2584.73 -1386.69 3818
-2563.46 -1380.15 3800
-2554.37 -1380.15 3800
-2511.12 -1361.63 3749
-2536.2 -1380.15 3800
-2527.11 -1380.15 3800
-2518.02 -1380.15 3800
-2508.94 -1380.15 3800
-2499.85 -1380.15 3800
-108.346 -779.785 2147
-103.356 -780.874 2150
-98.3521 -781.964 2153
-93.2036 -781.964 2153
-88.0551 -781.964 2153
-82.9067 -781.964 2153
-77.7582 -781.964 2153
-72.6097 -781.964 2153
-67.2732 -779.785 2147
-61.9944 -777.969 2142
-56.8722 -777.969 2142
-51.7501 -777.969 2142
-46.6279 -777.969 2142
-41.5057 -777.969 2142
-36.3835 -777.969 2142
-31.2176 -776.879 2139
-26.0294 -774.7 2133
-20.8797 -772.884 2128
-15.7465 -770.705 2122
-10.6721 -770.705 2122
-5.58457 -768.889 2117
-0.521442 -767.799 2114
4.52948 -767.073 2112
9.57992 -767.073 2112
14.6096 -765.983 2109
19.6528 -765.983 2109
24.6961 -765.983 2109
29.7393 -765.983 2109
34.7331 -764.894 2106
39.7692 -764.894 2106
44.9755 -767.799 2114
50.0307 -767.799 2114
55.0859 -767.799 2114
60.2265 -768.889 2117
65.2889 -768.889 2117
70.451 -769.978 2120
75.5205 -769.978 2120
80.5901 -769.978 2120
85.6596 -769.978 2120
90.7292 -769.978 2120
95.7988 -769.978 2120
100.868 -769.978 2120
105.938 -769.978 2120
111.007 -769.978 2120
116.187 -770.705 2122
121.261 -770.705 2122
126.514 -771.794 2125
131.781 -772.884 2128
136.87 -772.884 2128
141.959 -772.884 2128
146.84 -771.794 2125
151.921 -771.794 2125
157.003 -771.794 2125
162.084 -771.794 2125
167.166 -771.794 2125
171.842 -769.978 2120
176.912 -769.978 2120
181.981 -769.978 2120
187.227 -770.705 2122
192.574 -771.794 2125
197.655 -771.794 2125
202.737 -771.794 2125
207.818 -771.794 2125
212.9 -771.794 2125
217.981 -771.794 2125
1426.97 -1355.45 3732
1435.9 -1355.45 3732
1444.82 -1355.45 3732
1450.63 -1352.55 3724
1459.54 -1352.55 3724
1452.27 -1337.66 3683
1461.08 -1337.66 3683
1473.08 -1340.56 3691
1488.33 -1346.37 3707
1507.29 -1355.45 3732
1516.22 -1355.45 3732
1525.14 -1355.45 3732
1534.07 -1355.45 3732
1542.99 -1355.45 3732
1551.92 -1355.45 3732
1554.15 -1349.64 3716
1552.52 -1340.56 3691
1561.34 -1340.56 3691
1559.96 -1331.84 3667
1558.04 -1322.76 3642
1560.29 -1317.32 3627
1568.96 -1317.32 3627
1567.2 -1308.6 3603
1575.81 -1308.6 3603
1584.43 -1308.6 3603
1586.41 -1303.15 3588
1594.99 -1303.15 3588
-2921.35 -1439.96 3991
-2911.81 -1439.96 3991
-2902.27 -1439.96 3991
-2886.2 -1436.71 3982
-2829 -1412.9 3916
-2853.47 -1429.86 3963
-2844 -1429.86 3963
-2834.52 -1429.86 3963
-2825.04 -1429.86 3963
-2815.57 -1429.86 3963
-2792.64 -1423 3944
-2712.64 -1386.92 3844
-2709.78 -1390.17 3853
-2700.56 -1390.17 3853
-2691.35 -1390.17 3853
-2682.13 -1390.17 3853
-2672.92 -1390.17 3853
-2663.71 -1390.17 3853
-2635.89 -1380.43 3826
-2626.74 -1380.43 3826
-2617.59 -1380.43 3826
-2608.44 -1380.43 3826
-2593.86 -1377.54 3818
-2584.73 -1377.54 3818
-2563.46 -1371.05 3800
-2554.37 -1371.05 3800
-2511.12 -1352.65 3749
-2536.2 -1371.05 3800
-2533.1 -1374.29 3809
-2529.95 -1377.54 3818
-2520.82 -1377.54 3818
-2516.95 -1380.43 3826
-2519.6 -1386.92 3844
-2510.41 -1386.92 3844
-2501.22 -1386.92 3844
-108.346 -774.641 2147
-103.356 -775.724 2150
-98.3521 -776.806 2153
-93.2036 -776.806 2153
-88.0551 -776.806 2153
-82.9067 -776.806 2153
-77.7582 -776.806 2153
-72.6097 -776.806 2153
-67.2732 -774.641 2147
-61.9944 -772.837 2142
-56.8722 -772.837 2142
-51.7501 -772.837 2142
-46.6279 -772.837 2142
-41.5057 -772.837 2142
-36.3835 -772.837 2142
-31.2176 -771.755 2139
-26.0294 -769.59 2133
-20.8797 -767.786 2128
-15.7465 -765.621 2122
-10.6721 -765.621 2122
-5.58457 -763.817 2117
-0.521442 -762.735 2114
4.52948 -762.013 2112
9.57992 -762.013 2112
14.6096 -760.931 2109
19.6528 -760.931 2109
24.6961 -760.931 2109
29.7393 -760.931 2109
34.7331 -759.849 2106
39.7692 -759.849 2106
44.9755 -762.735 2114
50.0307 -762.735 2114
55.0859 -762.735 2114
60.2265 -763.817 2117
65.2889 -763.817 2117
70.451 -764.9 2120
75.5205 -764.9 2120
80.5901 -764.9 2120
85.6596 -764.9 2120
90.7292 -764.9 2120
95.7988 -764.9 2120
100.868 -764.9 2120
105.938 -764.9 2120
111.007 -764.9 2120
116.187 -765.621 2122
121.261 -765.621 2122
126.514 -766.704 2125
131.781 -767.786 2128
136.87 -767.786 2128
141.959 -767.786 2128
146.84 -766.704 2125
151.921 -766.704 2125
157.003 -766.704 2125
162.084 -766.704 2125
167.166 -766.704 2125
171.842 -764.9 2120
176.912 -764.9 2120
181.981 -764.9 2120
187.051 -764.9 2120
192.12 -764.9 2120
197.19 -764.9 2120
202.26 -764.9 2120
207.329 -764.9 2120
212.399 -764.9 2120
217.468 -764.9 2120
1426.97 -1346.51 3732
1435.9 -1346.51 3732
1444.82 -1346.51 3732
1453.75 -1346.51 3732
1462.67 -1346.51 3732
1468.44 -1343.63 3724
1477.35 -1343.63 3724
1486.25 -1343.63 3724
1495.16 -1343.63 3724
1510.52 -1349.4 3740
1519.47 -1349.4 3740
1532.09 -1352.65 3749
1541.05 -1352.65 3749
1550.02 -1352.65 3749
1558.98 -1352.65 3749
1560.84 -1346.51 3732
1563.03 -1340.74 3716
1571.92 -1340.74 3716
1570.17 -1331.72 3691
1568.73 -1323.06 3667
1570.19 -1316.93 3650
1578.91 -1316.93 3650
1584.16 -1314.04 3642
1586.31 -1308.63 3627
1584.43 -1299.97 3603
1586.41 -1294.56 3588
1594.99 -1294.56 3588
-2928.67 -1433.98 4001
-2919.11 -1433.98 4001
-2909.54 -1433.98 4001
-2892.72 -1430.4 3991
-2829 -1403.52 3916
-2853.47 -1420.36 3963
-2844 -1420.36 3963
-2834.52 -1420.36 3963
-2825.04 -1420.36 3963
-2815.57 -1420.36 3963
-2792.64 -1413.55 3944
-2712.64 -1377.71 3844
-2709.78 -1380.94 3853
-2700.56 -1380.94 3853
-2691.35 -1380.94 3853
-2682.13 -1380.94 3853
-2666.68 -1377.71 3844
-2657.49 -1377.71 3844
-2635.89 -1371.26 3826
-2626.74 -1371.26 3826
-2617.59 -1371.26 3826
-2608.44 -1371.26 3826
-2593.86 -1368.4 3818
-2584.73 -1368.4 3818
-2563.46 -1361.94 3800
-2554.37 -1361.94 3800
-2516.48 -1346.53 3757
-2542.2 -1365.17 3809
-2539.08 -1368.4 3818
-2535.25 -1371.26 3826
-2526.1 -1371.26 3826
-2516.95 -1371.26 3826
-2519.6 -1377.71 3844
-2510.41 -1377.71 3844
-2501.22 -1377.71 3844
-108.346 -769.498 2147
-103.356 -770.574 2150
-98.3521 -771.649 2153
-93.2036 -771.649 2153
-88.0551 -771.649 2153
-82.9067 -771.649 2153
-77.7582 -771.649 2153
-72.6097 -771.649 2153
-67.2732 -769.498 2147
-61.9944 -767.706 2142
-56.8722 -767.706 2142
-51.7501 -767.706 2142
-46.6279 -767.706 2142
-41.5057 -767.706 2142
-36.3835 -767.706 2142
-31.2176 -766.631 2139
-26.0294 -764.481 2133
-20.8797 -762.689 2128
-15.7465 -760.538 2122
-10.6721 -760.538 2122
-5.58457 -758.746 2117
-0.521442 -757.671 2114
4.52948 -756.954 2112
9.57992 -756.954 2112
14.6096 -755.879 2109
19.6528 -755.879 2109
24.6961 -755.879 2109
29.7393 -755.879 2109
34.7331 -754.804 2106
39.7692 -754.804 2106
44.9755 -757.671 2114
50.0307 -757.671 2114
55.0859 -757.671 2114
60.2265 -758.746 2117
65.2889 -758.746 2117
70.451 -759.821 2120
75.5205 -759.821 2120
80.5901 -759.821 2120
85.6596 -759.821 2120
90.7292 -759.821 2120
95.7988 -759.821 2120
100.868 -759.821 2120
105.938 -759.821 2120
111.007 -759.821 2120
116.187 -760.538 2122
121.261 -760.538 2122
126.514 -761.613 2125
131.781 -762.689 2128
136.87 -762.689 2128
141.959 -762.689 2128
146.84 -761.613 2125
151.921 -761.613 2125
157.003 -761.613 2125
162.084 -761.613 2125
167.166 -761.613 2125
171.842 -759.821 2120
176.912 -759.821 2120
181.981 -759.821 2120
187.051 -759.821 2120
192.12 -759.821 2120
197.19 -759.821 2120
202.26 -759.821 2120
207.329 -759.821 2120
212.399 -759.821 2120
217.468 -759.821 2120
1426.97 -1337.57 3732
1435.9 -1337.57 3732
1444.82 -1337.57 3732
1453.75 -1337.57 3732
1462.67 -1337.57 3732
1468.44 -1334.71 3724
1477.35 -1334.71 3724
1486.25 -1334.71 3724
1495.16 -1334.71 3724
1510.52 -1340.44 3740
1519.47 -1340.44 3740
1532.09 -1343.67 3749
1541.05 -1343.67 3749
1550.02 -1343.67 3749
1558.98 -1343.67 3749
1560.84 -1337.57 3732
1563.03 -1331.84 3716
1571.92 -1331.84 3716
1570.17 -1322.88 3691
1568.73 -1314.28 3667
1570.19 -1308.18 3650
1578.91 -1308.18 3650
1584.16 -1305.32 3642
1586.31 -1299.94 3627
1584.43 -1291.34 3603
-2928.67 -1424.4 4001
-2919.11 -1424.4 4001
-2909.54 -1424.4 4001
-2892.72 -1420.84 3991
-2829 -1394.14 3916
-2846.27 -1407.31 3953
-2836.82 -1407.31 3953
-2827.37 -1407.31 3953
-2817.92 -1407.31 3953
-2808.46 -1407.31 3953
-2766.44 -1390.93 3907
-2712.64 -1368.51 3844
-2703.45 -1368.51 3844
-2694.25 -1368.51 3844
-2685.06 -1368.51 3844
-2669.6 -1365.3 3835
-2660.43 -1365.3 3835
-2651.26 -1365.3 3835
-2630.38 -1359.25 3818
-2626.74 -1362.1 3826
-2617.59 -1362.1 3826
-2608.44 -1362.1 3826
-2593.86 -1359.25 3818
-2584.73 -1359.25 3818
-2563.46 -1352.84 3800
-2554.37 -1352.84 3800
-2522.51 -1340.74 3766
-2548.21 -1359.25 3818
-2580.31 -1381.32 3880
-2571.03 -1381.32 3880
-2561.76 -1381.32 3880
-2528.79 -1368.51 3844
-2519.6 -1368.51 3844
-2510.41 -1368.51 3844
-2501.22 -1368.51 3844
-108.094 -762.575 2142
-103.212 -764.355 2147
-98.2151 -765.423 2150
-93.0738 -765.423 2150
-88.0551 -766.491 2153
-82.9067 -766.491 2153
-77.7582 -766.491 2153
-72.4074 -764.355 2147
-67.1166 -762.575 2142
-61.9076 -761.507 2139
-56.7926 -761.507 2139
-51.6776 -761.507 2139
-46.5626 -761.507 2139
-41.4476 -761.507 2139
-36.3326 -761.507 2139
-31.1738 -760.439 2136
-25.9684 -757.591 2128
-20.8208 -755.455 2122
-15.7093 -753.675 2117
-10.647 -753.675 2117
-5.57666 -752.607 2114
-0.520949 -751.895 2112
4.52305 -750.827 2109
9.56631 -750.827 2109
14.6096 -750.827 2109
19.6528 -750.827 2109
24.6375 -749.047 2104
29.6688 -749.047 2104
34.7001 -749.047 2104
39.7314 -749.047 2104
44.8053 -749.759 2106
50.0307 -752.607 2114
55.0859 -752.607 2114
60.1411 -752.607 2114
65.2889 -753.675 2117
70.3513 -753.675 2117
75.4137 -753.675 2117
80.5901 -754.743 2120
85.6596 -754.743 2120
90.7292 -754.743 2120
95.7988 -754.743 2120
100.868 -754.743 2120
105.938 -754.743 2120
111.007 -754.743 2120
116.187 -755.455 2122
121.261 -755.455 2122
126.514 -756.523 2125
131.781 -757.591 2128
136.87 -757.591 2128
141.959 -757.591 2128
146.84 -756.523 2125
151.921 -756.523 2125
157.003 -756.523 2125
162.084 -756.523 2125
167.166 -756.523 2125
171.842 -754.743 2120
176.912 -754.743 2120
181.981 -754.743 2120
187.051 -754.743 2120
192.12 -754.743 2120
197.19 -754.743 2120
202.26 -754.743 2120
207.329 -754.743 2120
212.399 -754.743 2120
217.468 -754.743 2120
1426.97 -1328.63 3732
1435.9 -1328.63 3732
1444.82 -1328.63 3732
1453.75 -1328.63 3732
1462.67 -1328.63 3732
1471.6 -1328.63 3732
1480.52 -1328.63 3732
1489.44 -1328.63 3732
1498.37 -1328.63 3732
1517.39 -1337.53 3757
1526.37 -1337.53 3757
1535.36 -1337.53 3757
1544.34 -1337.53 3757
1553.33 -1337.53 3757
1562.31 -1337.53 3757
1567.95 -1334.68 3749
1566.4 -1325.78 3724
1575.3 -1325.78 3724
1573.57 -1316.88 3699
1575.57 -1311.19 3683
1577.5 -1305.49 3667
1589.73 -1308.34 3675
1598.52 -1308.34 3675
1617.8 -1316.88 3699
1626.65 -1316.88 3699
1635.49 -1316.88 3699
-2928.67 -1414.81 4001
-2919.11 -1414.81 4001
-2909.54 -1414.81 4001
-2892.72 -1411.28 3991
-2829 -1384.76 3916
-2846.27 -1397.84 3953
-2836.82 -1397.84 3953
-2827.37 -1397.84 3953
-2817.92 -1397.84 3953
-2808.46 -1397.84 3953
-2766.44 -1381.57 3907
-2712.64 -1359.3 3844
-2703.45 -1359.3 3844
-2694.25 -1359.3 3844
-2685.06 -1359.3 3844
-2675.87 -1359.3 3844
-2660.43 -1356.11 3835
-2651.26 -1356.11 3835
-2630.38 -1350.1 3818
-2632.92 -1356.11 3835
-2623.75 -1356.11 3835
-2614.58 -1356.11 3835
-2605.41 -1356.11 3835
-2596.24 -1356.11 3835
-2563.46 -1343.74 3800
-2577.9 -1356.11 3835
-2568.73 -1356.11 3835
-2589.59 -1372.03 3880
-2604.25 -1384.76 3916
-2613.44 -1394.66 3944
-2604.01 -1394.66 3944
-2594.58 -1394.66 3944
-108.094 -757.444 2142
-103.068 -758.151 2144
-98.078 -759.212 2147
-92.9439 -759.212 2147
-87.8098 -759.212 2147
-82.6756 -759.212 2147
-77.5415 -759.212 2147
-72.2387 -757.444 2142
-67.0226 -756.383 2139
-61.8208 -755.322 2136
-56.7129 -755.322 2136
-51.6051 -755.322 2136
-46.4973 -755.322 2136
-41.3895 -755.322 2136
-36.2816 -755.322 2136
-31.13 -754.261 2133
-25.9684 -752.493 2128
-20.8012 -749.664 2120
-15.7093 -748.604 2117
-10.647 -748.604 2117
-5.57666 -747.543 2114
-0.520209 -745.775 2109
4.51662 -744.714 2106
9.5527 -744.714 2106
14.5888 -744.714 2106
19.6249 -744.714 2106
24.6375 -744.007 2104
29.6688 -744.007 2104
34.7001 -744.007 2104
39.7314 -744.007 2104
44.8053 -744.714 2106
49.9834 -746.835 2112
55.0338 -746.835 2112
60.0842 -746.835 2112
65.1964 -747.543 2114
70.3513 -748.604 2117
75.4137 -748.604 2117
80.5901 -749.664 2120
85.6596 -749.664 2120
90.7292 -749.664 2120
95.6632 -748.604 2117
100.726 -748.604 2117
105.788 -748.604 2117
110.85 -748.604 2117
116.187 -750.372 2122
121.261 -750.372 2122
126.335 -750.372 2122
131.595 -751.432 2125
136.677 -751.432 2125
141.758 -751.432 2125
146.84 -751.432 2125
151.921 -751.432 2125
157.003 -751.432 2125
162.084 -751.432 2125
167.166 -751.432 2125
171.842 -749.664 2120
176.912 -749.664 2120
181.981 -749.664 2120
186.786 -748.604 2117
192.12 -749.664 2120
197.19 -749.664 2120
202.26 -749.664 2120
207.329 -749.664 2120
212.399 -749.664 2120
217.468 -749.664 2120
222.538 -749.664 2120
1426.97 -1319.69 3732
1435.9 -1319.69 3732
1447.92 -1322.52 3740
1456.86 -1322.52 3740
1465.81 -1322.52 3740
1471.6 -1319.69 3732
1480.52 -1319.69 3732
1489.44 -1319.69 3732
1501.58 -1322.52 3740
1517.39 -1328.53 3757
1526.37 -1328.53 3757
1539.04 -1331.72 3766
1548.04 -1331.72 3766
1557.05 -1331.72 3766
1566.05 -1331.72 3766
1567.95 -1325.7 3749
1576.91 -1325.7 3749
1585.88 -1325.7 3749
1576.98 -1310.85 3707
1579 -1305.19 3691
1584.38 -1302.37 3683
1600.11 -1308.02 3699
1608.96 -1308.02 3699
1647.1 -1331.72 3766
1671.06 -1343.74 3800
1680.15 -1343.74 3800
1689.24 -1343.74 3800
-2921.35 -1401.72 3991
-2911.81 -1401.72 3991
-2902.27 -1401.72 3991
-2886.2 -1398.56 3982
-2829 -1375.38 3916
-2819.63 -1375.38 3916
-2810.27 -1375.38 3916
-2827.37 -1388.37 3953
-2817.92 -1388.37 3953
-2808.46 -1388.37 3953
-2766.44 -1372.22 3907
-2712.64 -1350.09 3844
-2703.45 -1350.09 3844
-2694.25 -1350.09 3844
-2685.06 -1350.09 3844
-2675.87 -1350.09 3844
-2660.43 -1346.93 3835
-2651.26 -1346.93 3835
-2630.38 -1340.96 3818
-2632.92 -1346.93 3835
-2623.75 -1346.93 3835
-2614.58 -1346.93 3835
-2605.41 -1346.93 3835
-2596.24 -1346.93 3835
-2563.46 -1334.64 3800
-2577.9 -1346.93 3835
-2568.73 -1346.93 3835
-2589.59 -1362.73 3880
-2604.25 -1375.38 3916
-2613.44 -1385.21 3944
-2604.01 -1385.21 3944
-2594.58 -1385.21 3944
-118.78 -755.122 2150
-113.639 -755.122 2150
-108.498 -755.122 2150
-103.068 -753.015 2144
-97.941 -753.015 2144
-92.814 -753.015 2144
-87.8098 -754.069 2147
-82.6756 -754.069 2147
-77.5415 -754.069 2147
-72.2387 -752.313 2142
-66.9286 -750.205 2136
-61.8208 -750.205 2136
-56.7129 -750.205 2136
-51.6051 -750.205 2136
-46.4973 -750.205 2136
-41.3895 -750.205 2136
-36.2816 -750.205 2136
-31.13 -749.152 2133
-25.9318 -746.342 2125
-20.8208 -745.288 2122
-15.7093 -743.532 2117
-10.647 -743.532 2117
-5.56347 -740.722 2109
-0.519469 -739.669 2106
4.51233 -738.966 2104
9.54363 -738.966 2104
14.5749 -738.966 2104
19.5783 -737.913 2101
24.6024 -737.913 2101
29.6265 -737.913 2101
34.6507 -737.913 2101
39.6748 -737.913 2101
44.7627 -738.966 2104
49.8414 -739.669 2106
54.8775 -739.669 2106
59.9989 -740.722 2109
65.1347 -741.776 2112
70.1851 -741.776 2112
75.2355 -741.776 2112
80.362 -742.479 2114
85.4172 -742.479 2114
90.4724 -742.479 2114
95.5276 -742.479 2114
100.583 -742.479 2114
105.638 -742.479 2114
110.693 -742.479 2114
115.913 -743.532 2117
120.975 -743.532 2117
126.335 -745.288 2122
131.595 -746.342 2125
136.677 -746.342 2125
141.758 -746.342 2125
146.84 -746.342 2125
151.921 -746.342 2125
157.003 -746.342 2125
162.084 -746.342 2125
167.166 -746.342 2125
171.842 -744.586 2120
176.912 -744.586 2120
181.724 -743.532 2117
186.521 -742.479 2114
191.849 -743.532 2117
197.19 -744.586 2120
202.26 -744.586 2120
207.525 -745.288 2122
212.599 -745.288 2122
217.673 -745.288 2122
222.538 -744.586 2120
1439.97 -1322.69 3766
1448.98 -1322.69 3766
1457.99 -1322.69 3766
1466.99 -1322.69 3766
1476 -1322.69 3766
1474.75 -1313.56 3740
1487.26 -1316.72 3749
1496.23 -1316.72 3749
1508.41 -1319.53 3757
1521.03 -1322.69 3766
1530.03 -1322.69 3766
1539.04 -1322.69 3766
1555.03 -1328.66 3783
1564.08 -1328.66 3783
1573.12 -1328.66 3783
1571.3 -1319.53 3757
1576.91 -1316.72 3749
1585.88 -1316.72 3749
1584.21 -1307.94 3724
1585.84 -1301.97 3707
1591.27 -1299.16 3699
1607.46 -1305.13 3716
1616.35 -1305.13 3716
1647.1 -1322.69 3766
1671.06 -1334.64 3800
1680.15 -1334.64 3800
1689.24 -1334.64 3800
-2921.35 -1392.16 3991
-2911.81 -1392.16 3991
-2902.27 -1392.16 3991
-2886.2 -1389.02 3982
-2829 -1366 3916
-2819.63 -1366 3916
-2810.27 -1366 3916
-2800.9 -1366 3916
-2791.54 -1366 3916
-2782.18 -1366 3916
-2766.44 -1362.86 3907
-2712.64 -1340.88 3844
-2703.45 -1340.88 3844
-2694.25 -1340.88 3844
-2685.06 -1340.88 3844
-2675.87 -1340.88 3844
-2660.43 -1337.74 3835
-2651.26 -1337.74 3835
-2630.38 -1331.81 3818
