ply
format ascii 1.0
comment File generated
element vertex 2246
property float x
property float y
property float z
end_header
1160.59 1116.78 2248
1169.07 1119.77 2254
1174.46 1119.77 2254
1179.85 1119.77 2254
1185.24 1119.77 2254
1192.22 1121.26 2257
1197.62 1121.26 2257
1203.01 1121.26 2257
1208.41 1121.26 2257
1207.35 1115.29 2245
1219.2 1121.26 2257
1224.6 1121.26 2257
1230 1121.26 2257
1235.4 1121.26 2257
1225.95 1107.84 2230
1231.28 1107.84 2230
1234.95 1106.35 2227
1243.62 1109.33 2233
1248.96 1109.33 2233
1254.3 1109.33 2233
1251.18 1101.88 2218
1254.78 1100.39 2215
1257.23 1097.91 2210
1262.52 1097.91 2210
1267.8 1097.91 2210
1273.09 1097.91 2210
1276.64 1096.42 2207
1278.43 1093.44 2201
1288.94 1097.91 2210
1294.23 1097.91 2210
1299.51 1097.91 2210
1314.83 1106.35 2227
1329.05 1113.8 2242
1334.41 1113.8 2242
1343.36 1116.78 2248
1365.53 1130.69 2276
1372.78 1132.19 2279
1378.23 1132.19 2279
1383.68 1132.19 2279
1389.13 1132.19 2279
1394.58 1132.19 2279
1400.03 1132.19 2279
1399.93 1127.71 2270
1405.36 1127.71 2270
1410.79 1127.71 2270
1416.22 1127.71 2270
1421.64 1127.71 2270
1427.07 1127.71 2270
1432.5 1127.71 2270
1437.93 1127.71 2270
1443.36 1127.71 2270
1448.78 1127.71 2270
1450.37 1124.73 2264
1461.57 1129.2 2273
1467.01 1129.2 2273
1472.44 1129.2 2273
1477.88 1129.2 2273
1483.31 1129.2 2273
1482.85 1124.73 2264
1479.72 1118.28 2251
1448.16 1090.45 2195
1453.41 1090.45 2195
1468.62 1097.91 2210
1473.91 1097.91 2210
1488.56 1104.86 2224
1493.88 1104.86 2224
1499.2 1104.86 2224
1504.52 1104.86 2224
1513.91 1107.84 2230
1533.55 1118.28 2251
1543.03 1121.26 2257
1548.43 1121.26 2257
1560.71 1126.22 2267
1568.21 1127.71 2270
1577.79 1130.69 2276
1583.24 1130.69 2276
1588.68 1130.69 2276
1594.12 1130.69 2276
1601.67 1132.19 2279
1609.24 1133.68 2282
1614.7 1133.68 2282
1624.41 1136.66 2288
1634.87 1140.13 2295
1642.5 1141.62 2298
1648 1141.62 2298
1653.49 1141.62 2298
1661.15 1143.11 2301
1668.83 1144.6 2304
1674.34 1144.6 2304
1679.85 1144.6 2304
1687.55 1146.1 2307
1693.07 1146.1 2307
1698.59 1146.1 2307
1701.89 1144.6 2304
1702.95 1141.62 2298
1708.44 1141.62 2298
1711.7 1140.13 2295
1711.95 1136.66 2288
1699.41 1124.73 2264
1704.82 1124.73 2264
1719.3 1130.69 2276
1724.74 1130.69 2276
1737.03 1135.17 2285
1744.78 1136.66 2288
1750.25 1136.66 2288
-1539.93 1074.75 2153
-1546.18 1082.73 2169
-1561.6 1097.21 2198
-1556.34 1097.21 2198
-1553.2 1098.71 2201
-1547.94 1098.71 2201
-1542.68 1098.71 2201
-1535.32 1097.21 2198
-1521.71 1091.22 2186
-1516.48 1091.22 2186
-1511.25 1091.22 2186
-1506.03 1091.22 2186
-1500.8 1091.22 2186
-1497.62 1092.72 2189
-1496.48 1095.71 2195
-1491.23 1095.71 2195
-1498.17 1104.7 2213
-1498.27 1108.69 2221
-1492.96 1108.69 2221
-1487.65 1108.69 2221
-1480.34 1107.19 2218
-1475.03 1107.19 2218
-1469.73 1107.19 2218
-1462.45 1105.7 2215
-1463.07 1110.19 2224
-1457.75 1110.19 2224
-1464.19 1119.17 2242
-1458.83 1119.17 2242
-1459.3 1123.67 2251
-1453.92 1123.67 2251
-1450.47 1125.16 2254
-1445.08 1125.16 2254
-1441.6 1126.66 2257
-1448.29 1136.15 2276
-1442.85 1136.15 2276
-1437.41 1136.15 2276
-1445.81 1147.13 2298
-1440.31 1147.13 2298
-1434.82 1147.13 2298
-1429.32 1147.13 2298
-1396.57 1125.16 2254
-1368.96 1107.19 2218
-1367.34 1110.19 2224
-1362.02 1110.19 2224
-1356.7 1110.19 2224
-1351.39 1110.19 2224
-1355.15 1117.68 2239
-1349.79 1117.68 2239
-1349.84 1122.17 2248
-1354.04 1130.16 2264
-1352.2 1133.15 2270
-1346.77 1133.15 2270
-1341.34 1133.15 2270
-1335.91 1133.15 2270
-1330.48 1133.15 2270
-1319.8 1128.66 2261
-1317.88 1131.65 2267
-1312.46 1131.65 2267
-1315.69 1139.14 2282
-1310.23 1139.14 2282
-1308.21 1142.14 2288
-1302.73 1142.14 2288
-1299.53 1144.13 2292
-1294.05 1144.13 2292
-1288.57 1144.13 2292
-1283.09 1144.13 2292
-1282.62 1148.63 2301
-1277.12 1148.63 2301
-1271.62 1148.63 2301
-1266.12 1148.63 2301
-1260.61 1148.63 2301
-1255.11 1148.63 2301
-1249.61 1148.63 2301
-1244.11 1148.63 2301
-1238.6 1148.63 2301
-1231.49 1147.13 2298
-1224.4 1145.63 2295
-1218.91 1145.63 2295
-1213.42 1145.63 2295
-1207.94 1145.63 2295
-1202.45 1145.63 2295
-1187.05 1136.15 2276
-1181.61 1136.15 2276
-1173.06 1133.15 2270
-1166.09 1131.65 2267
-1159.14 1130.16 2264
-1153.72 1130.16 2264
-1138.67 1120.67 2245
-1130.27 1117.68 2239
-1124.92 1117.68 2239
-1119.56 1117.68 2239
-1114.21 1117.68 2239
-1105.89 1114.68 2233
-1100.55 1114.68 2233
-1085.4 1104.7 2213
-1080.1 1104.7 2213
-1068.98 1098.71 2201
-1070.49 1105.7 2215
-1065.19 1105.7 2215
-1059.89 1105.7 2215
-1054.6 1105.7 2215
-1049.3 1105.7 2215
-1051.07 1113.18 2230
-1045.74 1113.18 2230
-1040.41 1113.18 2230
-1037.86 1116.18 2236
-1032.51 1116.18 2236
-1027.17 1116.18 2236
-1017.71 1111.69 2227
-1008.29 1107.19 2218
-998.012 1101.7 2207
-992.734 1101.7 2207
-987.457 1101.7 2207
-983.514 1103.2 2210
-978.229 1103.2 2210
-972.945 1103.2 2210
-962.406 1097.21 2198
-957.149 1097.21 2198
-950.594 1095.71 2195
-945.345 1095.71 2195
-940.096 1095.71 2195
-931.014 1091.22 2186
-928.328 1094.22 2192
-929.403 1101.7 2207
-924.125 1101.7 2207
-918.848 1101.7 2207
-913.57 1101.7 2207
-909.527 1103.2 2210
-904.242 1103.2 2210
-900.992 1105.7 2215
-902.974 1114.68 2233
-902.458 1120.67 2245
-897.089 1120.67 2245
-891.721 1120.67 2245
-886.352 1120.67 2245
-880.984 1120.67 2245
-875.615 1120.67 2245
-872.573 1123.67 2251
-871.042 1128.66 2261
-867.933 1131.65 2267
-862.512 1131.65 2267
-857.09 1131.65 2267
-856.178 1137.64 2279
-850.728 1137.64 2279
-845.278 1137.64 2279
-839.828 1137.64 2279
-835.477 1139.14 2282
-830.02 1139.14 2282
-824.563 1139.14 2282
-816.952 1136.15 2276
-811.51 1136.15 2276
-803.942 1133.15 2270
-798.514 1133.15 2270
-785.399 1122.17 2248
-780.024 1122.17 2248
-774.648 1122.17 2248
-769.272 1122.17 2248
-763.897 1122.17 2248
-758.521 1122.17 2248
-752.14 1120.67 2245
-746.772 1120.67 2245
-740.413 1119.17 2242
-731.117 1113.18 2230
-724.808 1111.69 2227
-719.483 1111.69 2227
-714.157 1111.69 2227
-706.922 1108.69 2221
-699.084 1104.7 2213
-693.792 1104.7 2213
-687.567 1103.2 2210
-682.282 1103.2 2210
-676.997 1103.2 2210
-671.712 1103.2 2210
-666.427 1103.2 2210
-661.143 1103.2 2210
-655.858 1103.2 2210
-650.573 1103.2 2210
-645.288 1103.2 2210
-639.135 1101.7 2207
-637.878 1108.69 2221
-637.693 1117.68 2239
-632.339 1117.68 2239
-626.985 1117.68 2239
-621.631 1117.68 2239
-616.277 1117.68 2239
-610.923 1117.68 2239
-601.512 1110.19 2224
-592.44 1103.2 2210
-587.156 1103.2 2210
-581.871 1103.2 2210
-575.803 1101.7 2207
-568.199 1097.21 2198
-562.943 1097.21 2198
-557.687 1097.21 2198
-552.431 1097.21 2198
-547.175 1097.21 2198
-541.179 1095.71 2195
-537.395 1098.71 2201
-532.132 1098.71 2201
-527.587 1100.21 2204
-523.027 1101.7 2207
-517.75 1101.7 2207
-512.472 1101.7 2207
-507.195 1101.7 2207
-501.235 1100.21 2204
-495.964 1100.21 2204
-490.026 1098.71 2201
-486.745 1103.2 2210
-485.164 1111.69 2227
-483.07 1119.17 2242
-477.709 1119.17 2242
-472.98 1120.67 2245
-470.111 1126.66 2257
-467.39 1133.15 2270
-461.962 1133.15 2270
-456.534 1133.15 2270
-449.913 1130.16 2264
-444.499 1130.16 2264
-438.503 1128.66 2261
-433.097 1128.66 2261
-427.69 1128.66 2261
-422.283 1128.66 2261
-416.876 1128.66 2261
-410.742 1126.66 2257
-404.806 1125.16 2254
-398.353 1122.17 2248
-392.977 1122.17 2248
-386.567 1119.17 2242
-381.205 1119.17 2242
-375.844 1119.17 2242
-370.483 1119.17 2242
-364.633 1117.68 2239
-356.39 1108.69 2221
-350.131 1105.7 2215
-344.834 1105.7 2215
-337.851 1100.21 2204
-332.128 1098.71 2201
-326.419 1097.21 2198
-321.163 1097.21 2198
-315.907 1097.21 2198
-310.651 1097.21 2198
-306.229 1100.21 2204
-301.368 1101.7 2207
-296.09 1101.7 2207
-291.867 1105.7 2215
-286.57 1105.7 2215
-281.273 1105.7 2215
-275.977 1105.7 2215
-270.68 1105.7 2215
-265.383 1105.7 2215
-261.848 1113.18 2230
-256.515 1113.18 2230
-252.196 1117.68 2239
-247.504 1120.67 2245
-242.135 1120.67 2245
-237.399 1123.67 2251
-232.017 1123.67 2251
-226.634 1123.67 2251
-221.546 1125.16 2254
-216.156 1125.16 2254
-210.766 1125.16 2254
-205.376 1125.16 2254
-199.986 1125.16 2254
-194.596 1125.16 2254
-188.954 1123.67 2251
-182.348 1116.18 2236
-175.814 1108.69 2221
-170.503 1108.69 2221
-164.373 1103.2 2210
-159.448 1105.7 2215
-154.569 1108.69 2221
-149.258 1108.69 2221
-143.947 1108.69 2221
-138.636 1108.69 2221
-132.485 1101.7 2207
-127.207 1101.7 2207
-121.432 1097.21 2198
-115.859 1094.22 2192
-110.617 1094.22 2192
-105.375 1094.22 2192
-100.134 1094.22 2192
-94.156 1085.73 2175
-88.3823 1078.74 2161
-82.9837 1075.75 2155
-77.8304 1075.75 2155
-72.6772 1075.75 2155
-67.5239 1075.75 2155
-62.6311 1080.24 2164
-57.536 1081.74 2167
-52.3541 1081.74 2167
-47.1721 1081.74 2167
-41.9901 1081.74 2167
-36.8082 1081.74 2167
-31.6262 1081.74 2167
109.236 1091.22 2186
114.935 1095.71 2195
120.184 1095.71 2195
125.432 1095.71 2195
132.765 1113.18 2230
138.098 1113.18 2230
143.43 1113.18 2230
147.429 1103.2 2210
168.339 1101.7 2207
174.246 1105.7 2215
179.543 1105.7 2215
184.839 1105.7 2215
191.166 1111.69 2227
197.55 1117.68 2239
203.992 1123.67 2251
209.375 1123.67 2251
214.758 1123.67 2251
220.141 1123.67 2251
225.523 1123.67 2251
230.906 1123.67 2251
235.974 1122.17 2248
241.028 1120.67 2245
246.396 1120.67 2245
251.765 1120.67 2245
257.133 1120.67 2245
262.852 1122.17 2248
268.228 1122.17 2248
273.604 1122.17 2248
278.979 1122.17 2248
284.734 1123.67 2251
290.504 1125.16 2254
295.894 1125.16 2254
301.284 1125.16 2254
307.082 1126.66 2257
312.479 1126.66 2257
317.876 1126.66 2257
322.414 1123.67 2251
327.797 1123.67 2251
331.848 1119.17 2242
337.66 1120.67 2245
343.029 1120.67 2245
349.328 1123.67 2251
356.287 1128.66 2261
362.653 1131.65 2267
368.075 1131.65 2267
373.496 1131.65 2267
380.922 1137.64 2279
386.881 1139.14 2282
392.338 1139.14 2282
397.795 1139.14 2282
403.252 1139.14 2282
408.171 1137.64 2279
413.621 1137.64 2279
419.071 1137.64 2279
424.521 1137.64 2279
432.423 1144.13 2292
438.477 1145.63 2295
443.965 1145.63 2295
450.041 1147.13 2298
455.536 1147.13 2298
461.031 1147.13 2298
466.526 1147.13 2298
469.968 1142.14 2288
475.439 1142.14 2288
480.91 1142.14 2288
484.468 1137.64 2279
490.563 1139.14 2282
496.02 1139.14 2282
501.477 1139.14 2282
506.934 1139.14 2282
508.349 1130.16 2264
513.082 1128.66 2261
515.508 1122.17 2248
520.883 1122.17 2248
525.557 1120.67 2245
530.925 1120.67 2245
534.144 1116.18 2236
539.491 1116.18 2236
542.645 1111.69 2227
547.232 1110.19 2224
554.041 1113.18 2230
559.374 1113.18 2230
564.706 1113.18 2230
571.573 1116.18 2236
578.468 1119.17 2242
583.829 1119.17 2242
589.19 1119.17 2242
594.551 1119.17 2242
599.913 1119.17 2242
605.274 1119.17 2242
609.818 1117.68 2239
615.172 1117.68 2239
620.527 1117.68 2239
628.396 1122.17 2248
635.464 1125.16 2254
640.854 1125.16 2254
648.251 1128.66 2261
657.127 1134.65 2273
662.562 1134.65 2273
667.997 1134.65 2273
675.211 1137.64 2279
681.556 1139.14 2282
687.916 1140.64 2285
693.381 1140.64 2285
699.762 1142.14 2288
705.234 1142.14 2288
712.879 1145.63 2295
718.367 1145.63 2295
723.855 1145.63 2295
729.343 1145.63 2295
734.831 1145.63 2295
740.319 1145.63 2295
745.807 1145.63 2295
751.295 1145.63 2295
756.784 1145.63 2295
762.272 1145.63 2295
762.407 1137.64 2279
766.846 1136.15 2276
772.289 1136.15 2276
775.681 1133.15 2270
779.045 1130.16 2264
785.498 1131.65 2267
790.919 1131.65 2267
796.34 1131.65 2267
801.761 1131.65 2267
806.114 1130.16 2264
805.793 1122.17 2248
811.169 1122.17 2248
816.544 1122.17 2248
820.823 1120.67 2245
826.191 1120.67 2245
831.56 1120.67 2245
836.928 1120.67 2245
842.297 1120.67 2245
844.267 1116.18 2236
850.754 1117.68 2239
859.549 1122.17 2248
864.925 1122.17 2248
871.462 1123.67 2251
879.182 1126.66 2257
890.85 1134.65 2273
896.286 1134.65 2273
901.721 1134.65 2273
907.156 1134.65 2273
912.592 1134.65 2273
915.604 1131.65 2267
922.244 1133.15 2270
928.898 1134.65 2273
934.334 1134.65 2273
939.769 1134.65 2273
943.957 1133.15 2270
949.385 1133.15 2270
954.813 1133.15 2270
956.435 1128.66 2261
965.67 1133.15 2270
972.382 1134.65 2273
977.817 1134.65 2273
983.253 1134.65 2273
987.383 1133.15 2270
991.499 1131.65 2267
995.601 1130.16 2264
1001.01 1130.16 2264
1006.43 1130.16 2264
1011.84 1130.16 2264
1011.42 1123.67 2251
1016.8 1123.67 2251
1020.82 1122.17 2248
1023.46 1119.17 2242
1028.82 1119.17 2242
1034.18 1119.17 2242
1039.54 1119.17 2242
1039.31 1113.18 2230
1041.83 1110.19 2224
1047.15 1110.19 2224
1052.47 1110.19 2224
1054.93 1107.19 2218
1060.23 1107.19 2218
1069.86 1111.69 2227
1075.19 1111.69 2227
1080.51 1111.69 2227
1087.3 1113.18 2230
1092.63 1113.18 2230
1097.97 1113.18 2230
1103.3 1113.18 2230
1108.63 1113.18 2230
1112.47 1111.69 2227
1117.79 1111.69 2227
1123.12 1111.69 2227
1133 1116.18 2236
1138.35 1116.18 2236
1149.83 1122.17 2248
1155.21 1122.17 2248
1160.59 1122.17 2248
1169.07 1125.16 2254
1174.46 1125.16 2254
1179.85 1125.16 2254
1185.24 1125.16 2254
1192.22 1126.66 2257
1197.62 1126.66 2257
1203.01 1126.66 2257
1208.41 1126.66 2257
1207.35 1120.67 2245
1219.2 1126.66 2257
1224.6 1126.66 2257
1230 1126.66 2257
1235.4 1126.66 2257
1225.95 1113.18 2230
1231.28 1113.18 2230
1234.95 1111.69 2227
1243.62 1114.68 2233
1248.96 1114.68 2233
1254.3 1114.68 2233
1251.18 1107.19 2218
1254.78 1105.7 2215
1257.23 1103.2 2210
1262.52 1103.2 2210
1267.8 1103.2 2210
1273.09 1103.2 2210
1276.64 1101.7 2207
1278.43 1098.71 2201
1288.94 1103.2 2210
1294.23 1103.2 2210
1299.51 1103.2 2210
1314.83 1111.69 2227
1329.05 1119.17 2242
1334.41 1119.17 2242
1343.36 1122.17 2248
1365.53 1136.15 2276
1372.78 1137.64 2279
1378.23 1137.64 2279
1383.68 1137.64 2279
1389.13 1137.64 2279
1394.58 1137.64 2279
1400.03 1137.64 2279
1399.93 1133.15 2270
1405.36 1133.15 2270
1410.79 1133.15 2270
1416.22 1133.15 2270
1421.64 1133.15 2270
1427.07 1133.15 2270
1432.5 1133.15 2270
1437.93 1133.15 2270
1443.36 1133.15 2270
1448.78 1133.15 2270
1445.89 1126.66 2257
1455.78 1130.16 2264
1461.2 1130.16 2264
1468.55 1131.65 2267
1473.98 1131.65 2267
1479.4 1131.65 2267
1474.34 1123.67 2251
1473.8 1119.17 2242
1448.16 1095.71 2195
1453.41 1095.71 2195
1468.62 1103.2 2210
1473.91 1103.2 2210
1482.54 1105.7 2215
1493.88 1110.19 2224
1499.2 1110.19 2224
1504.52 1110.19 2224
1511.87 1111.69 2227
1519.24 1113.18 2230
1538.93 1123.67 2251
1544.32 1123.67 2251
1551.76 1125.16 2254
1568.21 1133.15 2270
1575.71 1134.65 2273
1581.15 1134.65 2273
1586.59 1134.65 2273
1592.02 1134.65 2273
1597.46 1134.65 2273
1609.24 1139.14 2282
1614.7 1139.14 2282
1620.15 1139.14 2282
1629.88 1142.14 2288
1635.35 1142.14 2288
1640.83 1142.14 2288
1646.3 1142.14 2288
1651.77 1142.14 2288
1657.24 1142.14 2288
1658.35 1139.14 2282
1663.81 1139.14 2282
1673.65 1142.14 2288
1679.13 1142.14 2288
1684.6 1142.14 2288
1690.07 1142.14 2288
1691.09 1139.14 2282
1696.55 1139.14 2282
1688.58 1130.16 2264
1668.56 1113.18 2230
1640.86 1091.22 2186
1648.35 1092.72 2189
1675.49 1107.19 2218
1680.79 1107.19 2218
1713.46 1125.16 2254
1721.14 1126.66 2257
1726.54 1126.66 2257
-1550.22 1079.9 2153
-1545.07 1079.9 2153
-1545.65 1083.92 2161
-1550.46 1090.94 2175
-1547.39 1092.44 2178
-1542.18 1092.44 2178
-1536.97 1092.44 2178
-1531.77 1092.44 2178
-1530.76 1095.45 2184
-1525.54 1095.45 2184
-1520.32 1095.45 2184
-1515.09 1095.45 2184
-1509.87 1095.45 2184
-1504.65 1095.45 2184
-1499.43 1095.45 2184
-1492.15 1093.95 2181
-1490.34 1096.46 2186
-1485.12 1096.46 2186
-1494.11 1106.99 2207
-1498.27 1114.01 2221
-1492.96 1114.01 2221
-1487.65 1114.01 2221
-1480.34 1112.51 2218
-1473.04 1111 2215
-1467.74 1111 2215
-1462.45 1111 2215
-1457.15 1111 2215
-1457.75 1115.52 2224
-1464.19 1124.55 2242
-1458.83 1124.55 2242
-1455.41 1126.05 2245
-1453.92 1129.06 2251
-1448.53 1129.06 2251
-1443.15 1129.06 2251
-1439.69 1130.56 2254
-1436.2 1132.07 2257
-1442.85 1141.6 2276
-1437.41 1141.6 2276
-1445.81 1152.63 2298
-1440.31 1152.63 2298
-1434.82 1152.63 2298
-1429.32 1152.63 2298
-1396.57 1130.56 2254
-1368.96 1112.51 2218
-1367.34 1115.52 2224
-1362.02 1115.52 2224
-1356.7 1115.52 2224
-1351.39 1115.52 2224
-1355.15 1123.04 2239
-1349.79 1123.04 2239
-1349.84 1127.55 2248
-1354.04 1135.58 2264
-1352.2 1138.59 2270
-1346.77 1138.59 2270
-1341.34 1138.59 2270
-1335.91 1138.59 2270
-1330.48 1138.59 2270
-1312.21 1127.55 2248
-1314.39 1134.08 2261
-1312.46 1137.08 2267
-1308.77 1138.59 2270
-1303.34 1138.59 2270
-1304.77 1144.61 2282
-1302.73 1147.62 2288
-1299.53 1149.62 2292
-1294.05 1149.62 2292
-1288.57 1149.62 2292
-1280.85 1147.62 2288
-1275.38 1147.62 2288
-1269.91 1147.62 2288
-1269.96 1152.63 2298
-1266.12 1154.14 2301
-1260.61 1154.14 2301
-1255.11 1154.14 2301
-1249.61 1154.14 2301
-1242.49 1152.63 2298
-1236.99 1152.63 2298
-1224.53 1146.11 2285
-1219.06 1146.11 2285
-1213.6 1146.11 2285
-1208.14 1146.11 2285
-1197.93 1141.6 2276
-1192.49 1141.6 2276
-1183.92 1138.59 2270
-1178.49 1138.59 2270
-1173.06 1138.59 2270
-1166.09 1137.08 2267
-1152.48 1129.06 2251
-1147.1 1129.06 2251
-1135.63 1123.04 2239
-1130.27 1123.04 2239
-1120.4 1118.53 2230
-1109.06 1112.51 2218
-1103.76 1112.51 2218
-1098.46 1112.51 2218
-1090.69 1110 2213
-1080.98 1105.49 2204
-1075.71 1105.49 2204
-1067.53 1102.48 2198
-1063.72 1103.98 2201
-1058.46 1103.98 2201
-1056.07 1106.99 2207
-1050.79 1106.99 2207
-1045.51 1106.99 2207
-1040.23 1106.99 2207
-1036.36 1108.49 2210
-1031.08 1108.49 2210
-1025.79 1108.49 2210
-1020.51 1108.49 2210
-1015.22 1108.49 2210
-1005.83 1103.98 2201
-999.198 1102.48 2198
-989.872 1097.96 2189
-984.638 1097.96 2189
-979.403 1097.96 2189
-974.169 1097.96 2189
-968.934 1097.96 2189
-963.699 1097.96 2189
-956.276 1095.45 2184
-949.747 1093.95 2181
-943.232 1092.44 2178
-938.024 1092.44 2178
-932.815 1092.44 2178
-927.607 1092.44 2178
-923.669 1093.95 2181
-918.454 1093.95 2181
-913.239 1093.95 2181
-908.023 1093.95 2181
-901.566 1092.44 2178
-897.592 1093.95 2181
-898.105 1100.97 2195
-892.856 1100.97 2195
-890.034 1103.98 2201
-884.77 1103.98 2201
-879.507 1103.98 2201
-874.244 1103.98 2201
-871.349 1106.99 2207
-871.566 1114.01 2221
-873.275 1123.04 2239
-867.921 1123.04 2239
-862.567 1123.04 2239
-857.213 1123.04 2239
-851.859 1123.04 2239
-846.504 1123.04 2239
-842.277 1124.55 2242
-839.156 1127.55 2248
-833.78 1127.55 2248
-828.404 1127.55 2248
-828.887 1135.58 2264
-823.473 1135.58 2264
-818.059 1135.58 2264
-812.645 1135.58 2264
-807.231 1135.58 2264
-797.213 1129.06 2251
-791.83 1129.06 2251
-785.399 1127.55 2248
-780.024 1127.55 2248
-774.648 1127.55 2248
-769.272 1127.55 2248
-763.897 1127.55 2248
-758.521 1127.55 2248
-752.14 1126.05 2245
-746.772 1126.05 2245
-740.413 1124.55 2242
-731.117 1118.53 2230
-724.808 1117.02 2227
-719.483 1117.02 2227
-714.157 1117.02 2227
-706.922 1114.01 2221
-699.084 1110 2213
-693.792 1110 2213
-687.567 1108.49 2210
-682.282 1108.49 2210
-676.997 1108.49 2210
-671.712 1108.49 2210
-666.427 1108.49 2210
-661.143 1108.49 2210
-655.858 1108.49 2210
-650.573 1108.49 2210
-645.288 1108.49 2210
-639.135 1106.99 2207
-637.878 1114.01 2221
-637.693 1123.04 2239
-632.339 1123.04 2239
-626.985 1123.04 2239
-621.631 1123.04 2239
-616.277 1123.04 2239
-610.923 1123.04 2239
-601.512 1115.52 2224
-592.44 1108.49 2210
-587.156 1108.49 2210
-581.871 1108.49 2210
-575.803 1106.99 2207
-568.199 1102.48 2198
-562.943 1102.48 2198
-557.687 1102.48 2198
-552.431 1102.48 2198
-547.175 1102.48 2198
-541.179 1100.97 2195
-537.395 1103.98 2201
-532.132 1103.98 2201
-527.587 1105.49 2204
-523.027 1106.99 2207
-517.75 1106.99 2207
-512.472 1106.99 2207
-507.195 1106.99 2207
-501.235 1105.49 2204
-495.964 1105.49 2204
-490.026 1103.98 2201
-486.745 1108.49 2210
-485.164 1117.02 2227
-483.07 1124.55 2242
-477.709 1124.55 2242
-472.98 1126.05 2245
-470.111 1132.07 2257
-467.39 1138.59 2270
-461.962 1138.59 2270
-456.534 1138.59 2270
-449.913 1135.58 2264
-444.499 1135.58 2264
-438.503 1134.08 2261
-433.097 1134.08 2261
-427.69 1134.08 2261
-422.283 1134.08 2261
-416.876 1134.08 2261
-410.742 1132.07 2257
-404.806 1130.56 2254
-398.353 1127.55 2248
-392.977 1127.55 2248
-386.567 1124.55 2242
-381.205 1124.55 2242
-375.844 1124.55 2242
-370.483 1124.55 2242
-364.633 1123.04 2239
-356.39 1114.01 2221
-350.131 1111 2215
-344.834 1111 2215
-337.851 1105.49 2204
-332.128 1103.98 2201
-326.419 1102.48 2198
-321.163 1102.48 2198
-315.907 1102.48 2198
-310.651 1102.48 2198
-306.229 1105.49 2204
-301.368 1106.99 2207
-296.09 1106.99 2207
-291.867 1111 2215
-286.57 1111 2215
-281.273 1111 2215
-275.977 1111 2215
-270.68 1111 2215
-265.383 1111 2215
-260.086 1111 2215
-255.135 1112.51 2218
-249.831 1112.51 2218
-246.842 1123.04 2239
-241.488 1123.04 2239
-236.134 1123.04 2239
-230.471 1121.54 2236
-225.124 1121.54 2236
-220.072 1123.04 2239
-214.717 1123.04 2239
-209.363 1123.04 2239
-204.009 1123.04 2239
-198.655 1123.04 2239
-193.301 1123.04 2239
-187.695 1121.54 2236
-181.125 1114.01 2221
-174.705 1106.99 2207
-169.428 1106.99 2207
-163.704 1103.98 2201
-158.225 1102.48 2198
-153.386 1105.49 2204
-148.116 1105.49 2204
-142.845 1105.49 2204
-137.575 1105.49 2204
-132.304 1105.49 2204
-127.034 1105.49 2204
-121.266 1100.97 2195
-115.277 1093.95 2181
-109.759 1090.94 2175
-104.414 1089.43 2172
-99.22 1089.43 2172
-93.5499 1083.92 2161
-88.2596 1082.41 2158
-82.9837 1080.91 2155
-77.8304 1080.91 2155
-72.6772 1080.91 2155
-67.5239 1080.91 2155
-62.4575 1082.41 2158
-57.536 1086.93 2167
-52.3541 1086.93 2167
-47.1721 1086.93 2167
-41.9901 1086.93 2167
-36.8082 1086.93 2167
-31.6262 1086.93 2167
93.5538 1096.46 2186
98.7812 1096.46 2186
104.009 1096.46 2186
109.386 1097.96 2189
115.249 1103.98 2201
120.512 1103.98 2201
126.29 1108.49 2210
133.122 1121.54 2236
138.469 1121.54 2236
143.816 1121.54 2236
147.429 1108.49 2210
169.865 1117.02 2227
175.19 1117.02 2227
180.759 1118.53 2230
186.091 1118.53 2230
191.424 1118.53 2230
196.756 1118.53 2230
202.905 1123.04 2239
208.259 1123.04 2239
214.758 1129.06 2251
220.141 1129.06 2251
225.523 1129.06 2251
230.291 1126.05 2245
235.344 1124.55 2242
240.706 1124.55 2242
246.067 1124.55 2242
251.428 1124.55 2242
256.789 1124.55 2242
261.449 1121.54 2236
266.796 1121.54 2236
272.508 1123.04 2239
277.862 1123.04 2239
284.355 1127.55 2248
290.117 1129.06 2251
295.5 1129.06 2251
300.883 1129.06 2251
305.858 1127.55 2248
311.233 1127.55 2248
316.609 1127.55 2248
321.125 1124.55 2242
325.613 1121.54 2236
330.96 1121.54 2236
336.307 1121.54 2236
341.654 1121.54 2236
347.466 1123.04 2239
353.766 1126.05 2245
359.614 1127.55 2248
364.99 1127.55 2248
370.365 1127.55 2248
376.744 1130.56 2254
383.321 1134.08 2261
388.727 1134.08 2261
394.134 1134.08 2261
399.541 1134.08 2261
404.231 1132.07 2257
409.628 1132.07 2257
414.474 1130.56 2254
419.864 1130.56 2254
426.574 1134.08 2261
433.128 1137.08 2267
438.549 1137.08 2267
444.557 1138.59 2270
449.986 1138.59 2270
455.414 1138.59 2270
460.842 1138.59 2270
466.27 1138.59 2270
469.828 1134.08 2261
475.235 1134.08 2261
480.642 1134.08 2261
486.049 1134.08 2261
491.455 1134.08 2261
496.862 1134.08 2261
500.714 1130.56 2254
504.757 1127.55 2248
506.728 1120.03 2233
510.692 1117.02 2227
516.018 1117.02 2227
521.343 1117.02 2227
526.668 1117.02 2227
529.127 1111 2215
534.424 1111 2215
539.721 1111 2215
543.049 1106.99 2207
549.817 1110 2213
557.116 1114.01 2221
562.427 1114.01 2221
567.738 1114.01 2221
574.597 1117.02 2227
579.923 1117.02 2227
585.248 1117.02 2227
590.574 1117.02 2227
595.899 1117.02 2227
601.224 1117.02 2227
606.55 1117.02 2227
611.875 1117.02 2227
618.032 1118.53 2230
625.881 1123.04 2239
633.772 1127.55 2248
639.148 1127.55 2248
646.244 1130.56 2254
654.525 1135.58 2264
660.813 1137.08 2267
666.234 1137.08 2267
673.433 1140.09 2273
678.868 1140.09 2273
684.304 1140.09 2273
689.739 1140.09 2273
696.092 1141.6 2276
701.535 1141.6 2276
706.977 1141.6 2276
712.42 1141.6 2276
717.863 1141.6 2276
723.305 1141.6 2276
728.748 1141.6 2276
733.223 1140.09 2273
738.658 1140.09 2273
744.094 1140.09 2273
749.529 1140.09 2273
754.964 1140.09 2273
759.396 1138.59 2270
761.792 1134.08 2261
765.842 1132.07 2257
771.239 1132.07 2257
775.604 1130.56 2254
780.994 1130.56 2254
786.384 1130.56 2254
791.774 1130.56 2254
797.164 1130.56 2254
800.417 1127.55 2248
803.642 1124.55 2242
809.004 1124.55 2242
814.365 1124.55 2242
816.435 1120.03 2233
821.775 1120.03 2233
827.115 1120.03 2233
832.455 1120.03 2233
837.795 1120.03 2233
838.603 1114.01 2221
846.194 1117.02 2227
856.108 1123.04 2239
861.462 1123.04 2239
867.978 1124.55 2242
876.845 1129.06 2251
884.579 1132.07 2257
889.977 1132.07 2257
898.151 1135.58 2264
903.565 1135.58 2264
908.978 1135.58 2264
914.392 1135.58 2264
915.744 1130.56 2254
923.994 1134.08 2261
929.401 1134.08 2261
934.808 1134.08 2261
940.214 1134.08 2261
945.621 1134.08 2261
951.028 1134.08 2261
954.743 1132.07 2257
961.841 1134.08 2261
967.248 1134.08 2261
972.655 1134.08 2261
978.062 1134.08 2261
983.468 1134.08 2261
988.875 1134.08 2261
991.203 1130.56 2254
996.594 1130.56 2254
999.316 1127.55 2248
1000.67 1123.04 2239
1000.63 1117.02 2227
1005.96 1117.02 2227
1005.83 1111 2215
1010.22 1110 2213
1014.13 1108.49 2210
1019.42 1108.49 2210
1024.7 1108.49 2210
1023 1100.97 2195
1025.43 1097.96 2189
1033.49 1100.97 2195
1038.74 1100.97 2195
1043.99 1100.97 2195
1049.24 1100.97 2195
1054.49 1100.97 2195
1059.74 1100.97 2195
1064.99 1100.97 2195
1070.24 1100.97 2195
1075.49 1100.97 2195
1083.69 1103.98 2201
1088.95 1103.98 2201
1095.71 1105.49 2204
1103.97 1108.49 2210
1114.78 1114.01 2221
1120.09 1114.01 2221
1125.4 1114.01 2221
1132.24 1115.52 2224
1143.7 1121.54 2236
1149.04 1121.54 2236
1155.94 1123.04 2239
1164.41 1126.05 2245
1169.77 1126.05 2245
1176.71 1127.55 2248
1182.09 1127.55 2248
1187.46 1127.55 2248
1191.25 1126.05 2245
1196.62 1126.05 2245
1201.98 1126.05 2245
1204.13 1123.04 2239
1209.48 1123.04 2239
1214.83 1123.04 2239
1218.55 1121.54 2236
1223.9 1121.54 2236
1224.3 1117.02 2227
1229.63 1117.02 2227
1229.96 1112.51 2218
1235.26 1112.51 2218
1240.57 1112.51 2218
1245.87 1112.51 2218
1248.36 1110 2213
1250.25 1106.99 2207
1257.23 1108.49 2210
1262.52 1108.49 2210
1267.8 1108.49 2210
1271.36 1106.99 2207
1276.64 1106.99 2207
1276.69 1102.48 2198
1283.69 1103.98 2201
1288.96 1103.98 2201
1299.51 1108.49 2210
1314.83 1117.02 2227
1329.05 1124.55 2242
1334.41 1124.55 2242
1343.36 1127.55 2248
1365.53 1141.6 2276
1372.78 1143.1 2279
1378.23 1143.1 2279
1383.68 1143.1 2279
1389.13 1143.1 2279
1394.58 1143.1 2279
1400.03 1143.1 2279
1399.93 1138.59 2270
1405.36 1138.59 2270
1410.79 1138.59 2270
1416.22 1138.59 2270
1421.64 1138.59 2270
1427.07 1138.59 2270
1432.5 1138.59 2270
1437.93 1138.59 2270
1443.36 1138.59 2270
1448.78 1138.59 2270
1445.89 1132.07 2257
1455.78 1135.58 2264
1461.2 1135.58 2264
1468.55 1137.08 2267
1473.98 1137.08 2267
1479.4 1137.08 2267
1474.34 1129.06 2251
1473.8 1124.55 2242
1448.16 1100.97 2195
1453.41 1100.97 2195
1468.62 1108.49 2210
1473.91 1108.49 2210
1482.54 1111 2215
1493.88 1115.52 2224
1499.2 1115.52 2224
1504.52 1115.52 2224
1511.87 1117.02 2227
1519.24 1118.53 2230
1538.93 1129.06 2251
1544.32 1129.06 2251
1551.76 1130.56 2254
1568.21 1138.59 2270
1575.71 1140.09 2273
1581.15 1140.09 2273
1586.59 1140.09 2273
1592.02 1140.09 2273
1597.46 1140.09 2273
1609.24 1144.61 2282
1614.7 1144.61 2282
1620.15 1144.61 2282
1629.88 1147.62 2288
1635.35 1147.62 2288
1640.83 1147.62 2288
1646.3 1147.62 2288
1651.77 1147.62 2288
1657.24 1147.62 2288
1658.35 1144.61 2282
1663.81 1144.61 2282
1673.65 1147.62 2288
1679.13 1147.62 2288
1684.6 1147.62 2288
1690.07 1147.62 2288
1691.09 1144.61 2282
1696.55 1144.61 2282
1688.58 1135.58 2264
1668.56 1118.53 2230
1640.86 1096.46 2186
1648.35 1097.96 2189
1675.49 1112.51 2218
1680.79 1112.51 2218
1713.46 1130.56 2254
1721.14 1132.07 2257
1726.54 1132.07 2257
-1599.28 1076.49 2136
-1594.17 1076.49 2136
-1589.06 1076.49 2136
-1581.73 1074.98 2133
-1576.63 1074.98 2133
-1571.53 1074.98 2133
-1563.32 1090.61 2164
-1560.3 1092.12 2167
-1555.12 1092.12 2167
-1555.66 1096.15 2175
-1558.3 1101.69 2186
-1553.07 1101.69 2186
-1547.85 1101.69 2186
-1542.62 1101.69 2186
-1537.39 1101.69 2186
-1532.16 1101.69 2186
-1526.94 1101.69 2186
-1520.32 1100.69 2184
-1515.09 1100.69 2184
-1509.87 1100.69 2184
-1504.65 1100.69 2184
-1495.31 1097.66 2178
-1490.1 1097.66 2178
-1484.89 1097.66 2178
-1479.68 1097.66 2178
-1479.89 1101.69 2186
-1484.78 1109.25 2201
-1479.52 1109.25 2201
-1474.26 1109.25 2201
-1468.99 1109.25 2201
-1457.74 1104.72 2192
-1452.5 1104.72 2192
-1443.3 1101.69 2186
-1438.07 1101.69 2186
-1436.78 1104.72 2192
-1437.41 1109.25 2201
-1432.15 1109.25 2201
-1426.89 1109.25 2201
-1421.62 1109.25 2201
-1416.36 1109.25 2201
-1409.17 1107.74 2198
-1405.83 1109.25 2201
-1415.21 1120.84 2224
-1430.81 1137.48 2257
-1425.41 1137.48 2257
-1442.03 1155.11 2292
-1436.55 1155.11 2292
-1431.07 1155.11 2292
-1425.59 1155.11 2292
-1396.57 1135.96 2254
-1368.96 1117.82 2218
-1367.34 1120.84 2224
-1362.02 1120.84 2224
-1356.7 1120.84 2224
-1351.39 1120.84 2224
-1355.15 1128.4 2239
-1349.79 1128.4 2239
-1349.84 1132.94 2248
-1354.04 1141 2264
-1352.2 1144.03 2270
-1346.77 1144.03 2270
-1341.34 1144.03 2270
-1335.91 1144.03 2270
-1330.48 1144.03 2270
-1312.21 1132.94 2248
-1306.84 1132.94 2248
-1306.67 1137.48 2257
-1305.31 1141 2264
-1299.9 1141 2264
-1299.63 1145.54 2273
-1299.32 1150.08 2282
-1293.86 1150.08 2282
-1288.4 1150.08 2282
-1282.95 1150.08 2282
-1275.81 1148.56 2279
-1270.36 1148.56 2279
-1264.91 1148.56 2279
-1264.44 1153.1 2288
-1262.82 1156.63 2295
-1257.33 1156.63 2295
-1251.84 1156.63 2295
-1244.72 1155.11 2292
-1235.46 1151.59 2285
-1229.99 1151.59 2285
-1219.71 1147.05 2276
-1212.66 1145.54 2273
-1207.23 1145.54 2273
-1201.79 1145.54 2273
-1193.2 1142.52 2267
-1186.2 1141 2264
-1180.79 1141 2264
-1175.38 1141 2264
-1169.96 1141 2264
-1160.95 1137.48 2257
-1152.48 1134.45 2251
-1147.1 1134.45 2251
-1132.58 1125.38 2233
-1125.73 1123.87 2230
-1096.79 1110.77 2204
-1091.52 1110.77 2204
-1086.25 1110.77 2204
-1079.51 1109.25 2201
-1074.25 1109.25 2201
-1064.61 1104.72 2192
-1062.27 1107.74 2198
-1057.02 1107.74 2198
-1051.76 1107.74 2198
-1046.5 1107.74 2198
-1041.25 1107.74 2198
-1033.16 1104.72 2192
-1027.92 1104.72 2192
-1022.68 1104.72 2192
-1017.44 1104.72 2192
-1012.2 1104.72 2192
-1006.95 1104.72 2192
-1000.34 1103.21 2189
-987.379 1094.64 2172
-982.185 1094.64 2172
-976.991 1094.64 2172
-971.797 1094.64 2172
-966.603 1094.64 2172
-961.409 1094.64 2172
-956.215 1094.64 2172
-948.832 1092.12 2167
-942.344 1090.61 2164
-937.169 1090.61 2164
-931.994 1090.61 2164
-928.104 1092.12 2167
-922.922 1092.12 2167
-917.74 1092.12 2167
-910.032 1089.09 2161
-904.864 1089.09 2161
-899.696 1089.09 2161
-895.771 1090.61 2164
-892.654 1093.13 2169
-889.922 1096.15 2175
-884.721 1096.15 2175
-881.946 1099.17 2181
-879.946 1103.21 2189
-877.109 1106.23 2195
-871.861 1106.23 2195
-867.796 1107.74 2198
-866.072 1112.28 2207
-866.255 1119.33 2221
-860.943 1119.33 2221
-856.788 1120.84 2224
-854.916 1125.38 2233
-849.576 1125.38 2233
-844.236 1125.38 2233
-840.023 1126.89 2236
-835.796 1128.4 2239
-832.667 1131.43 2245
-827.299 1131.43 2245
-824.127 1134.45 2251
-818.744 1134.45 2251
-813.362 1134.45 2251
-807.979 1134.45 2251
-802.596 1134.45 2251
-796.151 1132.94 2248
-790.775 1132.94 2248
-785.399 1132.94 2248
-778.983 1131.43 2245
-773.614 1131.43 2245
-768.246 1131.43 2245
-762.877 1131.43 2245
-756.497 1129.92 2242
-749.125 1126.89 2236
-743.778 1126.89 2236
-735.459 1122.36 2227
-729.15 1120.84 2224
-722.855 1119.33 2221
-717.544 1119.33 2221
-709.668 1115.3 2213
-704.376 1115.3 2213
-697.188 1112.28 2207
-691.911 1112.28 2207
-686.633 1112.28 2207
-681.356 1112.28 2207
-676.078 1112.28 2207
-671.712 1113.79 2210
-666.427 1113.79 2210
-661.143 1113.79 2210
-654.968 1112.28 2207
-649.69 1112.28 2207
-644.412 1112.28 2207
-639.135 1112.28 2207
-633.857 1112.28 2207
-633.421 1120.84 2224
-628.95 1122.36 2227
-623.625 1122.36 2227
-618.299 1122.36 2227
-612.148 1120.84 2224
-606.83 1120.84 2224
-599.889 1117.82 2218
-592.44 1113.79 2210
-586.359 1112.28 2207
-581.081 1112.28 2207
-574.238 1109.25 2201
-566.648 1104.72 2192
-561.406 1104.72 2192
-556.165 1104.72 2192
-550.169 1103.21 2189
-544.934 1103.21 2189
-538.467 1100.69 2184
-533.245 1100.69 2184
-526.571 1097.66 2178
-521.363 1097.66 2178
-516.155 1097.66 2178
-512.354 1100.69 2184
-507.132 1100.69 2184
-501.909 1100.69 2184
-496.686 1100.69 2184
-491.464 1100.69 2184
-484.905 1097.66 2178
-481.459 1101.69 2186
-479.499 1109.25 2201
-474.883 1110.77 2204
-469.612 1110.77 2204
-469.187 1122.36 2227
-466.986 1129.92 2242
-461.625 1129.92 2242
-456.264 1129.92 2242
-450.902 1129.92 2242
-445.541 1129.92 2242
-441.947 1134.45 2251
-436.564 1134.45 2251
-431.181 1134.45 2251
-426.366 1135.96 2254
-420.976 1135.96 2254
-415.586 1135.96 2254
-409.65 1134.45 2251
-403.728 1132.94 2248
-395.694 1125.38 2233
-390.355 1125.38 2233
-383.98 1122.36 2227
-378.145 1120.84 2224
-372.827 1120.84 2224
-367.508 1120.84 2224
-361.213 1117.82 2218
-355.107 1115.3 2213
-348.392 1110.77 2204
-343.122 1110.77 2204
-336.472 1106.23 2195
-330.317 1103.21 2189
-325.083 1103.21 2189
-319.848 1103.21 2189
-314.614 1103.21 2189
-309.379 1103.21 2189
-304.561 1104.72 2192
-300.139 1107.74 2198
-294.883 1107.74 2198
-290.022 1109.25 2201
-285.535 1112.28 2207
-280.258 1112.28 2207
-274.98 1112.28 2207
-269.702 1112.28 2207
-264.425 1112.28 2207
-259.499 1113.79 2210
-255.135 1117.82 2218
-249.831 1117.82 2218
-246.842 1128.4 2239
-241.488 1128.4 2239
-236.134 1128.4 2239
-230.471 1126.89 2236
-225.124 1126.89 2236
-220.072 1128.4 2239
-214.717 1128.4 2239
-209.363 1128.4 2239
-204.009 1128.4 2239
-198.655 1128.4 2239
-193.301 1128.4 2239
-187.695 1126.89 2236
-181.125 1119.33 2221
-174.705 1112.28 2207
-169.428 1112.28 2207
-163.704 1109.25 2201
-158.441 1109.25 2201
-153.386 1110.77 2204
-148.116 1110.77 2204
-142.845 1110.77 2204
-137.575 1110.77 2204
-132.304 1110.77 2204
-127.034 1110.77 2204
-121.266 1106.23 2195
-115.277 1099.17 2181
-109.911 1097.66 2178
-104.414 1094.64 2172
-99.22 1094.64 2172
-93.8097 1092.12 2167
-88.3823 1089.09 2161
-83.2147 1089.09 2161
-78.0471 1089.09 2161
-72.8795 1089.09 2161
-67.7119 1089.09 2161
-62.5443 1089.09 2161
-57.5891 1093.13 2169
-52.4024 1093.13 2169
-47.2156 1093.13 2169
-41.9901 1092.12 2167
-36.8082 1092.12 2167
-31.6262 1092.12 2167
93.5538 1101.69 2186
98.7812 1101.69 2186
104.009 1101.69 2186
109.386 1103.21 2189
115.249 1109.25 2201
120.512 1109.25 2201
126.29 1113.79 2210
133.122 1126.89 2236
138.469 1126.89 2236
143.816 1126.89 2236
147.429 1113.79 2210
169.865 1122.36 2227
175.19 1122.36 2227
180.759 1123.87 2230
186.091 1123.87 2230
191.424 1123.87 2230
196.756 1123.87 2230
202.905 1128.4 2239
208.259 1128.4 2239
214.758 1134.45 2251
220.141 1134.45 2251
225.523 1134.45 2251
230.291 1131.43 2245
235.344 1129.92 2242
240.706 1129.92 2242
246.067 1129.92 2242
251.428 1129.92 2242
256.789 1129.92 2242
261.449 1126.89 2236
266.796 1126.89 2236
272.143 1126.89 2236
277.118 1125.38 2233
283.216 1128.4 2239
288.571 1128.4 2239
293.925 1128.4 2239
299.279 1128.4 2239
304.633 1128.4 2239
309.572 1126.89 2236
314.919 1126.89 2236
319.406 1123.87 2230
324.739 1123.87 2230
329.183 1120.84 2224
334.502 1120.84 2224
339.82 1120.84 2224
346.069 1123.87 2230
351.402 1123.87 2230
356.735 1123.87 2230
363.041 1126.89 2236
368.388 1126.89 2236
374.738 1129.92 2242
381.117 1132.94 2248
386.492 1132.94 2248
391.868 1132.94 2248
397.244 1132.94 2248
402.619 1132.94 2248
407.995 1132.94 2248
412.819 1131.43 2245
418.187 1131.43 2245
424.122 1132.94 2248
431.981 1139.49 2261
437.388 1139.49 2261
443.97 1142.52 2267
449.391 1142.52 2267
454.812 1142.52 2267
459.015 1139.49 2261
463.6 1137.48 2257
468.374 1135.96 2254
473.764 1135.96 2254
479.154 1135.96 2254
484.544 1135.96 2254
489.934 1135.96 2254
495.324 1135.96 2254
496.715 1126.89 2236
500.041 1122.36 2227
502.644 1116.31 2215
507.94 1116.31 2215
513.237 1116.31 2215
518.066 1115.3 2213
523.358 1115.3 2213
526.5 1110.77 2204
531.77 1110.77 2204
535.578 1107.74 2198
540.096 1106.23 2195
547.581 1110.77 2204
555.109 1115.3 2213
560.401 1115.3 2213
566.204 1116.31 2215
572.275 1117.82 2218
577.579 1117.82 2218
582.883 1117.82 2218
588.982 1119.33 2221
594.294 1119.33 2221
599.605 1119.33 2221
605.733 1120.84 2224
611.051 1120.84 2224
617.201 1122.36 2227
625.042 1126.89 2236
631.235 1128.4 2239
636.589 1128.4 2239
643.663 1131.43 2245
651.634 1135.96 2254
660.813 1142.52 2267
666.234 1142.52 2267
672.544 1144.03 2270
677.972 1144.03 2270
683.401 1144.03 2270
688.829 1144.03 2270
694.257 1144.03 2270
700.61 1145.54 2273
706.977 1147.05 2276
712.42 1147.05 2276
717.863 1147.05 2276
721.398 1144.03 2270
726.827 1144.03 2270
731.287 1142.52 2267
737.683 1144.03 2270
743.111 1144.03 2270
748.54 1144.03 2270
751.975 1141 2264
756.385 1139.49 2261
759.434 1135.96 2254
763.806 1134.45 2251
769.188 1134.45 2251
773.539 1132.94 2248
778.915 1132.94 2248
784.29 1132.94 2248
789.666 1132.94 2248
795.042 1132.94 2248
798.281 1129.92 2242
801.492 1126.89 2236
806.839 1126.89 2236
810.006 1123.87 2230
815.339 1123.87 2230
820.671 1123.87 2230
826.004 1123.87 2230
831.336 1123.87 2230
835.544 1122.36 2227
838.603 1119.33 2221
846.194 1122.36 2227
854.961 1126.89 2236
860.308 1126.89 2236
867.978 1129.92 2242
873.339 1129.92 2242
884.579 1137.48 2257
889.977 1137.48 2257
895.374 1137.48 2257
900.771 1137.48 2257
906.168 1137.48 2257
909.142 1134.45 2251
915.744 1135.96 2254
922.36 1137.48 2257
927.757 1137.48 2257
933.154 1137.48 2257
938.551 1137.48 2257
943.948 1137.48 2257
949.345 1137.48 2257
952.204 1134.45 2251
957.587 1134.45 2251
964.254 1135.96 2254
969.643 1135.96 2254
975.034 1135.96 2254
980.424 1135.96 2254
985.814 1135.96 2254
988.565 1132.94 2248
993.941 1132.94 2248
992.648 1125.38 2233
993.966 1120.84 2224
994.341 1115.3 2213
999.633 1115.3 2213
998.114 1107.74 2198
1003.37 1107.74 2198
1007.25 1106.23 2195
1012.5 1106.23 2195
1017.75 1106.23 2195
1020.2 1103.21 2189
1021.69 1099.17 2181
1028.31 1100.69 2184
1034.48 1101.69 2186
1039.71 1101.69 2186
1044.94 1101.69 2186
1053.05 1104.72 2192
1058.29 1104.72 2192
1063.53 1104.72 2192
1068.77 1104.72 2192
1072.55 1103.21 2189
1079.26 1104.72 2192
1084.5 1104.72 2192
1094.21 1109.25 2201
1100.98 1110.77 2204
1109.26 1113.79 2210
1114.54 1113.79 2210
1122.36 1116.31 2215
1129.19 1117.82 2218
1136.02 1119.33 2221
1141.34 1119.33 2221
1154.39 1126.89 2236
1161.29 1128.4 2239
1166.65 1128.4 2239
1173.57 1129.92 2242
1178.93 1129.92 2242
1184.29 1129.92 2242
1189.66 1129.92 2242
1195.02 1129.92 2242
1198.77 1128.4 2239
1202.51 1126.89 2236
1207.86 1126.89 2236
1213.21 1126.89 2236
1215.28 1123.87 2230
1218.97 1122.36 2227
1224.3 1122.36 2227
1229.63 1122.36 2227
1228.3 1116.31 2215
1227.47 1110.77 2204
1231.06 1109.25 2201
1236.32 1109.25 2201
1241.59 1109.25 2201
1246.85 1109.25 2201
1253.82 1110.77 2204
1259.09 1110.77 2204
1264.36 1110.77 2204
1269.63 1110.77 2204
1274.9 1110.77 2204
1271.46 1103.21 2189
1283.69 1109.25 2201
1288.96 1109.25 2201
1299.51 1113.79 2210
1314.83 1122.36 2227
1320.16 1122.36 2227
1325.48 1122.36 2227
1343.36 1132.94 2248
1358.33 1141 2264
1372.78 1148.56 2279
1378.23 1148.56 2279
1383.68 1148.56 2279
1389.13 1148.56 2279
1394.58 1148.56 2279
1394.5 1144.03 2270
1399.93 1144.03 2270
1405.36 1144.03 2270
1410.79 1144.03 2270
1416.22 1144.03 2270
1419.76 1142.52 2267
1417.01 1135.96 2254
1422.4 1135.96 2254
1427.79 1135.96 2254
1433.18 1135.96 2254
1438.57 1135.96 2254
1443.96 1135.96 2254
1449.35 1135.96 2254
1454.74 1135.96 2254
1460.13 1135.96 2254
1465.52 1135.96 2254
1470.91 1135.96 2254
1472.37 1132.94 2248
1467.89 1125.38 2233
1444.2 1103.21 2189
1449.43 1103.21 2189
1460.65 1107.74 2198
1465.91 1107.74 2198
1477.19 1112.28 2207
1486.49 1115.3 2213
1491.79 1115.3 2213
1497.08 1115.3 2213
1509.84 1120.84 2224
1519.24 1123.87 2230
1532.78 1129.92 2242
1538.14 1129.92 2242
1549.7 1134.45 2251
1559.23 1137.48 2257
1569.48 1141 2264
1574.89 1141 2264
1584.49 1144.03 2270
1589.92 1144.03 2270
1595.35 1144.03 2270
1598.66 1142.52 2267
1604.08 1142.52 2267
1613.76 1145.54 2273
1625.61 1150.08 2282
1631.07 1150.08 2282
1636.52 1150.08 2282
1637.66 1147.05 2276
1640.94 1145.54 2273
1646.38 1145.54 2273
1647.45 1142.52 2267
1650.68 1141 2264
1653.9 1139.49 2261
1659.31 1139.49 2261
1661.77 1137.48 2257
1667.17 1137.48 2257
1670.34 1135.96 2254
1653.43 1120.84 2224
1658.75 1120.84 2224
1635.63 1101.69 2186
1632.6 1096.15 2175
1637.81 1096.15 2175
1653.58 1103.21 2189
1658.82 1103.21 2189
1673.17 1109.25 2201
1695.98 1120.84 2224
1701.29 1120.84 2224
-1601.52 1083.13 2139
-1596.41 1083.13 2139
-1591.29 1083.13 2139
-1583.95 1081.61 2136
-1578.84 1081.61 2136
-1571.53 1080.09 2133
-1564.25 1085.66 2144
-1559.12 1085.66 2144
-1560.52 1090.22 2153
-1563.32 1095.79 2164
-1561.74 1098.32 2169
-1556.56 1098.32 2169
-1557.81 1102.88 2178
-1558.3 1106.93 2186
-1555.2 1108.45 2189
-1549.97 1108.45 2189
-1544.74 1108.45 2189
-1539.5 1108.45 2189
-1534.27 1108.45 2189
-1529.03 1108.45 2189
-1520.32 1105.92 2184
-1515.09 1105.92 2184
-1509.87 1105.92 2184
-1504.65 1105.92 2184
-1495.31 1102.88 2178
-1490.1 1102.88 2178
-1484.89 1102.88 2178
-1479.68 1102.88 2178
-1479.89 1106.93 2186
-1484.78 1114.53 2201
-1479.52 1114.53 2201
-1474.26 1114.53 2201
-1468.99 1114.53 2201
-1457.74 1109.97 2192
-1452.5 1109.97 2192
-1443.3 1106.93 2186
-1438.07 1106.93 2186
-1436.78 1109.97 2192
-1437.41 1114.53 2201
-1432.15 1114.53 2201
-1426.89 1114.53 2201
-1421.62 1114.53 2201
-1416.36 1114.53 2201
-1409.17 1113.01 2198
-1405.83 1114.53 2201
-1415.21 1126.17 2224
-1430.81 1142.88 2257
-1425.41 1142.88 2257
-1442.03 1160.61 2292
-1436.55 1160.61 2292
-1431.07 1160.61 2292
-1425.59 1160.61 2292
-1396.57 1141.36 2254
-1368.96 1123.13 2218
-1363.65 1123.13 2218
-1353.45 1119.08 2210
-1348.16 1119.08 2210
-1342.88 1119.08 2210
-1353.33 1132.25 2236
-1347.98 1132.25 2236
-1344.44 1133.77 2239
-1352.24 1144.91 2261
-1352.2 1149.47 2270
-1346.77 1149.47 2270
-1341.34 1149.47 2270
-1322.96 1138.33 2248
-1317.59 1138.33 2248
-1310.46 1136.81 2245
-1305.09 1136.81 2245
-1299.72 1136.81 2245
-1296.09 1138.33 2248
-1290.71 1138.33 2248
-1296.2 1147.95 2267
-1290.78 1147.95 2267
-1287.06 1149.47 2270
-1281.63 1149.47 2270
-1276.2 1149.47 2270
-1258.46 1138.33 2248
-1253.08 1138.33 2248
-1247.71 1138.33 2248
-1245.65 1141.36 2254
-1244.11 1144.91 2261
-1238.7 1144.91 2261
-1233.29 1144.91 2261
-1227.89 1144.91 2261
-1222.48 1144.91 2261
-1217.07 1144.91 2261
-1199.88 1133.77 2239
-1194.52 1133.77 2239
-1190.76 1135.29 2242
-1190.16 1139.84 2251
-1184.78 1139.84 2251
-1179.39 1139.84 2251
-1175.58 1141.36 2254
-1170.19 1141.36 2254
-1164.8 1141.36 2254
-1150.15 1132.25 2236
-1144.8 1132.25 2236
-1136.4 1129.21 2230
-1131.06 1129.21 2230
-1125.73 1129.21 2230
-1095.3 1114.53 2201
-1090.04 1114.53 2201
-1084.77 1114.53 2201
-1078.04 1113.01 2198
-1072.78 1113.01 2198
-1064.61 1109.97 2192
-1060.82 1111.49 2195
-1055.57 1111.49 2195
-1050.32 1111.49 2195
-1045.07 1111.49 2195
-1039.83 1111.49 2195
-1030.33 1106.93 2186
-1025.11 1106.93 2186
-1019.88 1106.93 2186
-1013.72 1105.92 2184
-1008.5 1105.92 2184
-1003.28 1105.92 2184
-992.573 1099.84 2172
-986.015 1098.32 2169
-980.828 1098.32 2169
-975.641 1098.32 2169
-970.455 1098.32 2169
-965.268 1098.32 2169
-960.081 1098.32 2169
-954.895 1098.32 2169
-948.832 1097.31 2167
-941.037 1094.27 2161
-934.57 1092.75 2158
-929.41 1092.75 2158
-924.25 1092.75 2158
-919.089 1092.75 2158
-913.929 1092.75 2158
-908.768 1092.75 2158
-903.608 1092.75 2158
-898.447 1092.75 2158
-893.287 1092.75 2158
-890.596 1095.79 2164
-887.467 1098.32 2169
-882.28 1098.32 2169
-879.52 1101.36 2175
-876.731 1104.4 2181
-872.714 1105.92 2184
-867.491 1105.92 2184
-864.243 1108.45 2189
-862.54 1113.01 2198
-860.794 1117.56 2207
-855.517 1117.56 2207
-854.477 1123.13 2218
-851.47 1126.17 2224
-846.152 1126.17 2224
-840.833 1126.17 2224
-838.896 1130.73 2233
-834.676 1132.25 2236
-832.667 1136.81 2245
-827.299 1136.81 2245
-823.029 1138.33 2248
-817.653 1138.33 2248
-812.278 1138.33 2248
-806.902 1138.33 2248
-801.526 1138.33 2248
-796.151 1138.33 2248
-790.775 1138.33 2248
-785.399 1138.33 2248
-778.983 1136.81 2245
-771.547 1133.77 2239
-766.193 1133.77 2239
-760.838 1133.77 2239
-754.472 1132.25 2236
-746.11 1127.69 2227
-740.784 1127.69 2227
-733.477 1124.65 2221
-725.544 1120.6 2213
-720.252 1120.6 2213
-714.96 1120.6 2213
-708.706 1119.08 2210
-700.556 1114.53 2201
-694.345 1113.01 2198
-689.089 1113.01 2198
-683.833 1113.01 2198
-676.725 1109.97 2192
-671.483 1109.97 2192
-670.8 1117.56 2207
-665.523 1117.56 2207
-660.245 1117.56 2207
-654.968 1117.56 2207
-649.69 1117.56 2207
-644.412 1117.56 2207
-639.135 1117.56 2207
-633.857 1117.56 2207
-631.712 1123.13 2218
-628.103 1126.17 2224
-622.785 1126.17 2224
-617.466 1126.17 2224
-610.497 1123.13 2218
-605.193 1123.13 2218
-597.725 1119.08 2210
-591.636 1117.56 2207
-585.562 1116.04 2204
-580.291 1116.04 2204
-571.89 1109.97 2192
-565.097 1106.93 2186
-559.87 1106.93 2186
-554.642 1106.93 2186
-548.912 1105.92 2184
-542.196 1102.88 2178
-535.508 1099.84 2172
-530.315 1099.84 2172
-525.121 1099.84 2172
-519.927 1099.84 2172
-514.733 1099.84 2172
-510.243 1101.36 2175
-505.042 1101.36 2175
-499.841 1101.36 2175
-494.639 1101.36 2175
-489.438 1101.36 2175
-483.569 1099.84 2172
-479.697 1102.88 2178
-475.796 1105.92 2184
-472.297 1109.97 2192
-467.055 1109.97 2192
-464.342 1116.04 2204
-460.946 1120.6 2213
-458.536 1127.69 2227
-453.211 1127.69 2227
-447.886 1127.69 2227
-442.56 1127.69 2227
-438.413 1130.73 2233
-434.237 1133.77 2239
-428.882 1133.77 2239
-424.096 1135.29 2242
-418.735 1135.29 2242
-413.373 1135.29 2242
-407.466 1133.77 2239
-401.034 1130.73 2233
-393.568 1124.65 2221
-388.257 1124.65 2221
-381.911 1121.61 2215
-376.615 1121.61 2215
-371.318 1121.61 2215
-366.021 1121.61 2215
-358.933 1116.04 2204
-352.7 1113.01 2198
-346.97 1111.49 2195
-341.721 1111.49 2195
-334.326 1104.4 2181
-329.11 1104.4 2181
-323.895 1104.4 2181
-318.679 1104.4 2181
-313.464 1104.4 2181
-308.248 1104.4 2181
-303.728 1106.93 2186
-298.5 1106.93 2186
-293.273 1106.93 2186
-288.046 1106.93 2186
-282.818 1106.93 2186
-277.591 1106.93 2186
-272.363 1106.93 2186
-267.136 1106.93 2186
-261.909 1106.93 2186
-257.034 1108.45 2189
-254.215 1119.08 2210
-248.93 1119.08 2210
-243.645 1119.08 2210
-238.36 1119.08 2210
-233.603 1121.61 2215
-228.306 1121.61 2215
-223.009 1121.61 2215
-218.007 1123.13 2218
-212.704 1123.13 2218
-207.4 1123.13 2218
-202.096 1123.13 2218
-196.792 1123.13 2218
-191.488 1123.13 2218
-185.764 1120.6 2213
-179.738 1116.04 2204
-174.23 1114.53 2201
-168.967 1114.53 2201
-163.258 1111.49 2195
-158.441 1114.53 2201
-153.386 1116.04 2204
-148.116 1116.04 2204
-142.845 1116.04 2204
-137.575 1116.04 2204
-132.124 1114.53 2201
-126.861 1114.53 2201
-120.769 1106.93 2186
-115.277 1104.4 2181
-109.911 1102.88 2178
-104.414 1099.84 2172
-99.22 1099.84 2172
-93.8097 1097.31 2167
-88.3823 1094.27 2161
-83.2147 1094.27 2161
-78.0471 1094.27 2161
-72.8795 1094.27 2161
-67.7119 1094.27 2161
-62.5443 1094.27 2161
-57.5891 1098.32 2169
-52.4024 1098.32 2169
-47.2156 1098.32 2169
-41.9901 1097.31 2167
-36.8082 1097.31 2167
-31.5825 1095.79 2164
93.5538 1106.93 2186
98.7812 1106.93 2186
104.009 1106.93 2186
109.386 1108.45 2189
115.249 1114.53 2201
120.512 1114.53 2201
126.29 1119.08 2210
133.122 1132.25 2236
138.469 1132.25 2236
143.816 1132.25 2236
147.429 1119.08 2210
169.865 1127.69 2227
175.19 1127.69 2227
180.759 1129.21 2230
186.091 1129.21 2230
191.424 1129.21 2230
196.756 1129.21 2230
202.633 1132.25 2236
207.98 1132.25 2236
213.613 1133.77 2239
218.967 1133.77 2239
224.321 1133.77 2239
229.675 1133.77 2239
234.714 1132.25 2236
239.739 1130.73 2233
245.079 1130.73 2233
250.419 1130.73 2233
255.759 1130.73 2233
260.748 1129.21 2230
266.08 1129.21 2230
271.778 1130.73 2233
277.118 1130.73 2233
283.216 1133.77 2239
288.571 1133.77 2239
293.925 1133.77 2239
299.279 1133.77 2239
304.633 1133.77 2239
309.572 1132.25 2236
314.919 1132.25 2236
319.406 1129.21 2230
324.739 1129.21 2230
329.183 1126.17 2224
334.502 1126.17 2224
339.82 1126.17 2224
346.069 1129.21 2230
351.402 1129.21 2230
356.735 1129.21 2230
363.041 1132.25 2236
368.388 1132.25 2236
