ply
format ascii 1.0
comment File generated
element vertex 2250
property float x
property float y
property float z
end_header
-1263.29 935.091 3017
-1262.74 940.05 3033
-1255.49 940.05 3033
-1257.29 946.869 3055
-1259.39 953.997 3078
-1252.03 953.997 3078
-1244.67 953.997 3078
-1237.31 953.997 3078
-1227.55 952.138 3072
-1220.21 952.138 3072
-1212.86 952.138 3072
-1214.54 959.266 3095
-1207.14 959.266 3095
-1199.74 959.266 3095
-1192.34 959.266 3095
-1180.73 955.857 3084
-1173.35 955.857 3084
-1167.87 957.407 3089
-1160.48 957.407 3089
-1166.16 968.255 3124
-1160.91 970.114 3130
-1153.43 970.114 3130
-1145.94 970.114 3130
-1131.91 964.535 3112
-1128.81 968.255 3124
-1123.49 970.114 3130
-1116 970.114 3130
-1108.52 970.114 3130
-1105.26 973.834 3142
-1099.84 975.693 3148
-1092.31 975.693 3148
-1084.78 975.693 3148
-1077.26 975.693 3148
-1069.73 975.693 3148
-1062.2 975.693 3148
-1054.67 975.693 3148
-1047.14 975.693 3148
-1039.62 975.693 3148
-1032.09 975.693 3148
-1024.56 975.693 3148
-1007.34 966.395 3118
-997.96 964.535 3112
-990.518 964.535 3112
-968.861 950.588 3067
-952.749 941.91 3039
-943.615 940.05 3033
-936.362 940.05 3033
-929.109 940.05 3033
-921.857 940.05 3033
-916.413 941.91 3039
-910.642 943.459 3044
-903.363 943.459 3044
-896.083 943.459 3044
-887.344 941.91 3039
-881.525 943.459 3044
-874.246 943.459 3044
-868.676 945.319 3050
-861.382 945.319 3050
-854.089 945.319 3050
-846.795 945.319 3050
-839.502 945.319 3050
-835.21 948.728 3061
-827.89 948.728 3061
-820.57 948.728 3061
-816.173 952.138 3072
-811.986 955.857 3084
-804.612 955.857 3084
-797.237 955.857 3084
-783.971 948.728 3061
-761.174 929.822 3000
-740.68 913.395 2947
-733.633 913.395 2947
-726.585 913.395 2947
-723.445 918.354 2963
-716.359 918.354 2963
-709.274 918.354 2963
-697.212 911.845 2942
-690.177 911.845 2942
-677.336 904.097 2917
-670.361 904.097 2917
-663.385 904.097 2917
-650.559 896.038 2891
-643.646 896.038 2891
-641.138 902.237 2911
-634.177 902.237 2911
-629.586 905.647 2922
-624.729 908.746 2932
-626.566 921.764 2974
-619.455 921.764 2974
-619.961 933.231 3011
-619.477 943.459 3044
-612.197 943.459 3044
-604.918 943.459 3044
-600.977 948.728 3061
-593.657 948.728 3061
-588.444 952.138 3072
-581.098 952.138 3072
-576.927 957.407 3089
-572.859 962.986 3107
-567.431 966.395 3118
-559.975 966.395 3118
-554.646 970.114 3130
-550.307 975.693 3148
-543.814 977.553 3154
-536.272 977.553 3154
-532.753 984.991 3178
-527.137 988.711 3190
-520.485 990.57 3196
-512.843 990.57 3196
-505.2 990.57 3196
-497.558 990.57 3196
-490.835 992.43 3202
-483.178 992.43 3202
-475.521 992.43 3202
-466.111 988.711 3190
-458.482 988.711 3190
-426.359 984.991 3178
-418.76 984.991 3178
-411.16 984.991 3178
-402.037 981.272 3166
-389.981 970.114 3130
-382.496 970.114 3130
-375.011 970.114 3130
-366.822 968.255 3124
-355.325 957.407 3089
-347.939 957.407 3089
-338.126 950.588 3067
-333.165 957.407 3089
-325.778 957.407 3089
-319.628 961.126 3101
-312.213 961.126 3101
-305.879 964.535 3112
-299.012 966.395 3118
-291.556 966.395 3118
-284.1 966.395 3118
-153.804 684.969 2210
-148.721 685.899 2213
-143.429 685.899 2213
-138.137 685.899 2213
-132.965 686.519 2215
-127.668 686.519 2215
-122.371 686.519 2215
-117.233 687.448 2218
-111.929 687.448 2218
-106.625 687.448 2218
-101.321 687.448 2218
-96.0175 687.448 2218
-90.7136 687.448 2218
-85.6407 689.308 2224
-80.3224 689.308 2224
-75.0042 689.308 2224
-69.5919 688.378 2221
-64.3677 689.308 2224
-59.368 693.027 2236
-54.0211 693.027 2236
-49.0006 697.676 2251
-43.7341 699.536 2257
-38.4558 701.706 2264
-33.0419 701.706 2264
-27.7012 703.565 2270
-22.3907 707.285 2282
-16.956 708.214 2285
-11.4919 708.214 2285
-6.04622 710.384 2292
-0.567568 713.173 2301
4.94125 714.103 2304
10.4508 714.103 2304
15.9604 714.103 2304
21.4979 715.033 2307
27.1669 719.062 2320
32.7147 719.062 2320
38.5429 724.331 2337
44.188 725.261 2340
49.8475 726.191 2343
55.4503 726.191 2343
61.0531 726.191 2343
66.7413 727.121 2346
72.4747 728.361 2350
78.0942 728.361 2350
83.7138 728.361 2350
89.3333 728.361 2350
94.9529 728.361 2350
256.142 979.413 3160
263.699 979.413 3160
271.255 979.413 3160
276.165 970.114 3130
283.65 970.114 3130
290.576 968.255 3124
298.047 968.255 3124
304.344 964.535 3112
311.284 962.986 3107
318.714 962.986 3107
326.144 962.986 3107
333.574 962.986 3107
338.479 955.857 3084
342.041 945.319 3050
349.334 945.319 3050
353.354 936.641 3022
357.359 928.272 2995
364.521 928.272 2995
371.683 928.272 2995
378.845 928.272 2995
383.945 923.313 2979
390.412 921.764 2974
396.053 918.354 2963
403.139 918.354 2963
410.224 918.354 2963
427.168 940.05 3033
440.007 952.138 3072
447.353 952.138 3072
454.699 952.138 3072
640.454 966.395 3118
647.91 966.395 3118
655.366 966.395 3118
657.933 959.266 3095
665.334 959.266 3095
672.735 959.266 3095
680.136 959.266 3095
687.537 959.266 3095
694.938 959.266 3095
697.12 952.138 3072
705.842 953.997 3078
718.532 961.126 3101
725.947 961.126 3101
733.363 961.126 3101
742.211 962.986 3107
749.641 962.986 3107
757.071 962.986 3107
763.024 961.126 3101
770.44 961.126 3101
777.855 961.126 3101
791.095 968.255 3124
798.566 968.255 3124
806.036 968.255 3124
813.506 968.255 3124
814.932 961.126 3101
822.348 961.126 3101
829.763 961.126 3101
841.768 966.395 3118
850.859 968.255 3124
864.923 975.693 3148
872.451 975.693 3148
885.01 981.272 3166
897.656 986.851 3184
905.27 986.851 3184
912.884 986.851 3184
922.232 988.711 3190
929.86 988.711 3190
937.489 988.711 3190
945.117 988.711 3190
959.913 996.149 3214
977.233 1006.07 3246
984.995 1006.07 3246
992.757 1006.07 3246
1002.37 1007.93 3252
1032.2 1029.93 3323
1040.15 1029.93 3323
1048.09 1029.93 3323
1039.51 1013.82 3271
1047.33 1013.82 3271
1055.16 1013.82 3271
1062.98 1013.82 3271
1070.8 1013.82 3271
1078.62 1013.82 3271
1082.13 1009.79 3258
1089.92 1009.79 3258
1091.31 1003.9 3239
1099.05 1003.9 3239
1106.8 1003.9 3239
1114.54 1003.9 3239
1120.21 1002.04 3233
1123.75 998.319 3221
1122.67 990.57 3196
1130.32 990.57 3196
1127.28 981.272 3166
1130.55 977.553 3154
1138.09 977.553 3154
1136.91 970.114 3130
1144.4 970.114 3130
1149.68 968.255 3124
1154.92 966.395 3118
1160.14 964.535 3112
1167.58 964.535 3112
1175.03 964.535 3112
1236.6 996.149 3214
1244.28 996.149 3214
1251.97 996.149 3214
1269.45 1003.9 3239
1282.32 1007.93 3252
1290.1 1007.93 3252
1323.82 1028.07 3317
1339.78 1034.27 3337
1361.09 1044.5 3370
1369.15 1044.5 3370
1377.2 1044.5 3370
1385.26 1044.5 3370
1393.32 1044.5 3370
1398.47 1042.33 3363
1387.27 1028.07 3317
1386.79 1021.87 3297
1394.68 1021.87 3297
1397.03 1017.85 3284
1399.32 1013.82 3271
1401.55 1009.79 3258
1401.12 1003.9 3239
1408.87 1003.9 3239
1413.99 1002.04 3233
1421.72 1002.04 3233
1429.45 1002.04 3233
1437.18 1002.04 3233
1442.23 1000.18 3227
1447.25 998.319 3221
1449.08 994.29 3208
1456.76 994.29 3208
1461.69 992.43 3202
1466.59 990.57 3196
1474.23 990.57 3196
1481.88 990.57 3196
1495.11 994.29 3208
1502.78 994.29 3208
1513.28 996.149 3214
1529.96 1002.04 3233
1537.69 1002.04 3233
1545.42 1002.04 3233
1553.15 1002.04 3233
1560.88 1002.04 3233
1571.52 1003.9 3239
1579.27 1003.9 3239
1587.01 1003.9 3239
1594.76 1003.9 3239
1602.51 1003.9 3239
1604.28 1000.18 3227
1615 1002.04 3233
1622.73 1002.04 3233
1640.04 1007.93 3252
1647.82 1007.93 3252
1662.21 1011.96 3265
1670.02 1011.96 3265
1677.83 1011.96 3265
1685.64 1011.96 3265
1693.44 1011.96 3265
1701.25 1011.96 3265
1689.17 1000.18 3227
1696.89 1000.18 3227
1685.06 988.711 3190
1683.14 983.132 3172
1681.13 977.553 3154
1688.67 977.553 3154
1696.21 977.553 3154
1703.75 977.553 3154
1711.29 977.553 3154
1718.84 977.553 3154
1726.38 977.553 3154
1733.92 977.553 3154
1741.46 977.553 3154
1749.01 977.553 3154
1756.55 977.553 3154
1764.09 977.553 3154
1771.63 977.553 3154
1779.17 977.553 3154
1786.72 977.553 3154
1794.26 977.553 3154
1794.95 973.834 3142
1802.46 973.834 3142
1809.97 973.834 3142
2214.72 970.114 3130
2222.21 970.114 3130
2229.69 970.114 3130
2237.18 970.114 3130
2244.66 970.114 3130
2247.83 968.255 3124
2255.3 968.255 3124
2267.12 970.114 3130
2274.6 970.114 3130
2286.46 971.974 3136
2293.96 971.974 3136
2319.07 979.413 3160
2353.13 990.57 3196
2365.21 992.43 3202
2372.87 992.43 3202
2394.65 998.319 3221
2415.78 1003.9 3239
2428.76 1006.07 3246
2436.52 1006.07 3246
2477.42 1019.7 3290
2515.5 1032.1 3330
2523.46 1032.1 3330
2531.43 1032.1 3330
-1806.31 883.287 2828
-1799.55 883.287 2828
-1792.79 883.287 2828
-1786.03 883.287 2828
-1779.26 883.287 2828
-1801.27 904.526 2896
-1800.54 907.649 2906
-1793.59 907.649 2906
-1838.29 933.885 2990
-1850.73 943.88 3022
-1847.17 945.754 3028
-1839.93 945.754 3028
-1842.37 950.751 3044
-1845.34 956.061 3061
-1851.83 963.245 3084
-1844.46 963.245 3084
-1843.63 966.68 3095
-1836.23 966.68 3095
-1828.83 966.68 3095
-1821.43 966.68 3095
-1800.55 959.497 3072
-1803.13 964.806 3089
-1795.74 964.806 3089
-1788.35 964.806 3089
-1780.97 964.806 3089
-1777.02 966.68 3095
-1769.62 966.68 3095
-1762.22 966.68 3095
-1754.82 966.68 3095
-1744.03 964.806 3089
-1736.64 964.806 3089
-1729.26 964.806 3089
-1731.9 970.429 3107
-1730.58 973.864 3118
-1723.12 973.864 3118
-1715.67 973.864 3118
-1702.19 970.429 3107
-1619.49 992.604 3178
-1611.89 992.604 3178
-1604.29 992.604 3178
-1593.68 990.73 3172
-1586.09 990.73 3172
-1566.56 983.234 3148
-1559.04 983.234 3148
-1525.39 966.68 3095
-1512.59 963.245 3084
-1502.29 961.371 3078
-1494.93 961.371 3078
-1482.25 957.935 3067
-1472.03 956.061 3061
-1456.58 950.751 3044
-1449.3 950.751 3044
-1439.65 949.19 3039
-1432.38 949.19 3039
-1422.3 947.316 3033
-1392.19 932.011 2984
-1385.05 932.011 2984
-1363.6 922.329 2953
-1349.19 917.331 2937
-1333.03 911.085 2917
-1326.05 911.085 2917
-1319.08 911.085 2917
-1314.35 912.646 2922
-1307.36 912.646 2922
-1300.37 912.646 2922
-1293.39 912.646 2922
-1284.2 911.085 2917
-1281.6 914.208 2927
-1283.31 920.455 2947
-1276.26 920.455 2947
-1280.85 928.888 2974
-1280.59 933.885 2990
-1280.25 938.883 3006
-1273.06 938.883 3006
-1267.98 940.444 3011
-1263.29 942.318 3017
-1262.74 947.316 3033
-1255.49 947.316 3033
-1257.29 954.187 3055
-1259.39 961.371 3078
-1252.03 961.371 3078
-1244.67 961.371 3078
-1237.31 961.371 3078
-1227.55 959.497 3072
-1220.21 959.497 3072
-1212.86 959.497 3072
-1214.54 966.68 3095
-1207.14 966.68 3095
-1199.74 966.68 3095
-1192.34 966.68 3095
-1180.73 963.245 3084
-1175.25 964.806 3089
-1170.13 966.68 3095
-1162.73 966.68 3095
-1172.88 981.36 3142
-1165.36 981.36 3142
-1157.85 981.36 3142
-1150.34 981.36 3142
-1134.09 973.864 3118
-1128.81 975.738 3124
-1123.49 977.612 3130
-1116 977.612 3130
-1108.52 977.612 3130
-1107.37 983.234 3148
-1101.93 985.108 3154
-1094.39 985.108 3154
-1086.85 985.108 3154
-1079.31 985.108 3154
-1071.77 985.108 3154
-1064.22 985.108 3154
-1054.67 983.234 3148
-1047.14 983.234 3148
-1039.62 983.234 3148
-1032.09 983.234 3148
-1024.56 983.234 3148
-1007.34 973.864 3118
-997.96 971.99 3112
-990.518 971.99 3112
-972.336 961.371 3078
-959.646 956.061 3061
-952.326 956.061 3061
-945.006 956.061 3061
-934.317 952.625 3050
-927.024 952.625 3050
-919.73 952.625 3050
-915.727 956.061 3061
-908.408 956.061 3061
-901.088 956.061 3061
-890.556 952.625 3050
-883.263 952.625 3050
-875.969 952.625 3050
-871.809 956.061 3061
-864.489 956.061 3061
-857.169 956.061 3061
-849.849 956.061 3061
-842.53 956.061 3061
-835.21 956.061 3061
-827.89 956.061 3061
-820.57 956.061 3061
-816.173 959.497 3072
-808.827 959.497 3072
-801.481 959.497 3072
-794.135 959.497 3072
-783.971 956.061 3061
-761.174 937.009 3000
-740.68 920.455 2947
-733.633 920.455 2947
-726.585 920.455 2947
-717.097 917.331 2937
-710.073 917.331 2937
-704.247 918.893 2942
-697.212 918.893 2942
-690.177 918.893 2942
-677.336 911.085 2917
-670.361 911.085 2917
-663.385 911.085 2917
-650.559 902.964 2891
-643.646 902.964 2891
-637.834 904.526 2896
-630.909 904.526 2896
-626.138 907.649 2906
-621.533 911.085 2917
-617.718 915.77 2932
-610.706 915.77 2932
-613.372 930.449 2979
-610.522 937.009 3000
-608.98 945.754 3028
-601.739 945.754 3028
-594.498 945.754 3028
-589.39 949.19 3039
-584.23 952.625 3050
-576.937 952.625 3050
-570.577 954.187 3055
-568.619 963.245 3084
-563.246 966.68 3095
-555.845 966.68 3095
-552.519 973.864 3118
-547.161 977.612 3130
-542.78 983.234 3148
-535.252 983.234 3148
-529.736 986.982 3160
-525.154 992.604 3178
-518.531 994.478 3184
-510.917 994.478 3184
-503.303 994.478 3184
-496.624 996.352 3190
-489.915 998.226 3196
-482.272 998.226 3196
-474.63 998.226 3196
-466.111 996.352 3190
-458.482 996.352 3190
-426.359 992.604 3178
-418.76 992.604 3178
-411.16 992.604 3178
-399.751 983.234 3148
-389.981 977.612 3130
-382.496 977.612 3130
-373.573 973.864 3118
-365.413 971.99 3112
-355.325 964.806 3089
-347.939 964.806 3089
-338.126 957.935 3067
-333.165 964.806 3089
-325.778 964.806 3089
-319.628 968.555 3101
-312.213 968.555 3101
-305.879 971.99 3112
-299.012 973.864 3118
-291.556 973.864 3118
-284.1 973.864 3118
-276.112 971.99 3112
-268.238 970.429 3107
-260.809 970.429 3107
-250.525 959.497 3072
-243.178 959.497 3072
-235.832 959.497 3072
-153.804 690.263 2210
-148.721 691.2 2213
-143.429 691.2 2213
-138.137 691.2 2213
-132.845 691.2 2213
-127.668 691.825 2215
-122.371 691.825 2215
-117.233 692.762 2218
-111.929 692.762 2218
-106.625 692.762 2218
-101.458 693.699 2221
-96.1474 693.699 2221
-90.959 694.636 2224
-85.6407 694.636 2224
-80.3224 694.636 2224
-75.0042 694.636 2224
-69.6859 694.636 2224
-64.4545 695.573 2227
-59.5273 700.258 2242
-54.166 700.258 2242
-49.0006 703.069 2251
-43.7341 704.943 2257
-38.4558 707.129 2264
-33.0419 707.129 2264
-27.7012 709.003 2270
-22.3907 712.751 2282
-16.956 713.688 2285
-11.4919 713.688 2285
-6.04622 715.875 2292
-0.567568 718.686 2301
4.94125 719.623 2304
10.4508 719.623 2304
15.9604 719.623 2304
21.4979 720.56 2307
27.1669 724.62 2320
32.7147 724.62 2320
38.5429 729.93 2337
44.2447 731.804 2343
49.8475 731.804 2343
55.4503 731.804 2343
61.2355 733.99 2350
66.9404 734.927 2353
72.5672 734.927 2353
78.1939 734.927 2353
83.8206 734.927 2353
89.3333 733.99 2350
94.9529 733.99 2350
206.467 966.68 3095
213.868 966.68 3095
221.269 966.68 3095
228.67 966.68 3095
236.071 966.68 3095
242.607 963.245 3084
256.142 986.982 3160
263.699 986.982 3160
271.255 986.982 3160
276.165 977.612 3130
283.65 977.612 3130
290.018 973.864 3118
297.474 973.864 3118
302.094 964.806 3089
307.778 959.497 3072
315.124 959.497 3072
322.47 959.497 3072
329.816 959.497 3072
335.955 956.061 3061
340.135 947.316 3033
347.387 947.316 3033
353.354 943.88 3022
356.046 932.011 2984
363.182 932.011 2984
369.697 930.449 2979
376.821 930.449 2979
383.3 928.888 2974
390.412 928.888 2974
395.385 923.89 2958
412.663 947.316 3033
419.916 947.316 3033
432.661 959.497 3072
444.161 968.555 3101
451.576 968.555 3101
458.992 968.555 3101
632.998 973.864 3118
640.454 973.864 3118
647.91 973.864 3118
655.366 973.864 3118
657.933 966.68 3095
665.334 966.68 3095
672.735 966.68 3095
680.136 966.68 3095
687.537 966.68 3095
694.938 966.68 3095
697.12 959.497 3072
707.218 963.245 3084
718.532 968.555 3101
725.947 968.555 3101
733.363 968.555 3101
740.778 968.555 3101
748.194 968.555 3101
755.609 968.555 3101
761.548 966.68 3095
767.459 964.806 3089
776.35 966.68 3095
786.79 970.429 3107
794.22 970.429 3107
801.65 970.429 3107
809.08 970.429 3107
813.356 966.68 3095
820.757 966.68 3095
828.158 966.68 3095
835.559 966.68 3095
847.59 971.99 3112
856.68 973.864 3118
864.137 973.864 3118
881.656 985.108 3154
892.581 988.856 3166
903.564 992.604 3178
911.163 992.604 3178
918.763 992.604 3178
924.614 990.73 3172
935.725 994.478 3184
943.339 994.478 3184
959.913 1003.85 3214
975.125 1011.66 3239
984.995 1013.84 3246
992.757 1013.84 3246
1012.23 1025.71 3284
1032.2 1037.89 3323
1040.15 1037.89 3323
1048.09 1037.89 3323
1047.78 1029.77 3297
1049.58 1023.84 3278
1057.41 1023.84 3278
1065.25 1023.84 3278
1073.09 1023.84 3278
1078.62 1021.65 3271
1082.13 1017.59 3258
1089.92 1017.59 3258
1089.29 1009.78 3233
1092.94 1006.03 3221
1100.65 1006.03 3221
1108.35 1006.03 3221
1109.47 1000.1 3202
1115.03 998.226 3196
1118.46 994.478 3184
1126.07 994.478 3184
1120.87 983.234 3148
1124.1 979.486 3136
1127.26 975.738 3124
1130.38 971.99 3112
1137.82 971.99 3112
1143.42 970.429 3107
1144.18 964.806 3089
1147.47 961.371 3078
1154.83 961.371 3078
1162.19 961.371 3078
1163.09 956.061 3061
1196.79 977.612 3130
1218.13 988.856 3166
1225.7 988.856 3166
1235.61 990.73 3172
1257.3 1001.97 3208
1279.96 1013.84 3246
1287.72 1013.84 3246
1321.02 1033.83 3310
1334.16 1037.89 3323
1347.76 1042.27 3337
1355.74 1042.27 3337
1374.34 1050.39 3363
1382.39 1050.39 3363
1390.43 1050.39 3363
1387.66 1042.27 3337
1381.42 1031.65 3303
1378.8 1023.84 3278
1386.64 1023.84 3278
1391.5 1021.65 3271
1393.76 1017.59 3258
1398.97 1015.72 3252
1398.53 1009.78 3233
1406.26 1009.78 3233
1408.74 1006.03 3221
1419.08 1007.91 3227
1426.8 1007.91 3227
1434.52 1007.91 3227
1442.23 1007.91 3227
1444.11 1003.85 3214
1449.08 1001.97 3208
1456.76 1001.97 3208
1458.95 998.226 3196
1466.59 998.226 3196
1471.47 996.352 3190
1479.09 996.352 3190
1492.32 1000.1 3202
1499.97 1000.1 3202
1513.28 1003.85 3214
1529.96 1009.78 3233
1537.69 1009.78 3233
1545.42 1009.78 3233
1553.15 1009.78 3233
1560.88 1009.78 3233
1571.52 1011.66 3239
1579.27 1011.66 3239
1587.01 1011.66 3239
1594.76 1011.66 3239
1602.51 1011.66 3239
1604.28 1007.91 3227
1615 1009.78 3233
1622.73 1009.78 3233
1640.04 1015.72 3252
1647.82 1015.72 3252
1662.21 1019.78 3265
1670.02 1019.78 3265
1677.83 1019.78 3265
1685.64 1019.78 3265
1693.44 1019.78 3265
1701.25 1019.78 3265
1689.17 1007.91 3227
1696.89 1007.91 3227
1685.06 996.352 3190
1683.14 990.73 3172
1681.13 985.108 3154
1688.67 985.108 3154
1696.21 985.108 3154
1703.75 985.108 3154
1711.29 985.108 3154
1718.84 985.108 3154
1726.38 985.108 3154
1733.92 985.108 3154
1741.46 985.108 3154
1749.01 985.108 3154
1756.55 985.108 3154
1764.09 985.108 3154
1771.63 985.108 3154
1779.17 985.108 3154
1786.72 985.108 3154
1794.26 985.108 3154
1794.95 981.36 3142
1802.46 981.36 3142
1809.97 981.36 3142
2204.3 963.245 3084
2223.86 968.555 3101
2239.19 971.99 3112
2246.64 971.99 3112
2262.77 975.738 3124
2274.6 977.612 3130
2286.46 979.486 3136
2293.96 979.486 3136
2319.07 986.982 3160
2353.13 998.226 3196
2365.21 1000.1 3202
2372.87 1000.1 3202
2394.65 1006.03 3221
2402.35 1006.03 3221
2428.76 1013.84 3246
2436.52 1013.84 3246
2477.42 1027.59 3290
2515.5 1040.08 3330
2523.46 1040.08 3330
2531.43 1040.08 3330
-1806.31 890.061 2828
-1799.55 890.061 2828
-1792.79 890.061 2828
-1786.03 890.061 2828
-1779.26 890.061 2828
-1801.27 911.463 2896
-1800.54 914.61 2906
-1793.59 914.61 2906
-1821.69 932.55 2963
-1814.6 932.55 2963
-1836.8 947.657 3011
-1829.6 947.657 3011
-1832.69 953.008 3028
-1825.45 953.008 3028
-1838.02 963.394 3061
-1830.7 963.394 3061
-1823.38 963.394 3061
-1816.06 963.394 3061
-1808.74 963.394 3061
-1801.42 963.394 3061
-1781.21 956.47 3039
-1780.36 959.932 3050
-1773.07 959.932 3050
-1765.77 959.932 3050
-1758.48 959.932 3050
-1770.71 970.633 3084
-1766.19 972.206 3089
-1758.8 972.206 3089
-1751.42 972.206 3089
-1724.84 961.505 3055
-1733.83 970.633 3084
-1726.46 970.633 3084
-1719.08 970.633 3084
-1711.71 970.633 3084
-1717.05 977.871 3107
-1709.62 977.871 3107
-1702.19 977.871 3107
-1608.85 998.329 3172
-1601.26 998.329 3172
-1593.68 998.329 3172
-1586.09 998.329 3172
-1566.56 990.775 3148
-1559.04 990.775 3148
-1525.39 974.095 3095
-1512.59 970.633 3084
-1502.29 968.744 3078
-1494.93 968.744 3078
-1482.25 965.282 3067
-1472.03 963.394 3061
-1456.58 958.043 3044
-1449.3 958.043 3044
-1439.65 956.47 3039
-1432.38 956.47 3039
-1422.3 954.581 3033
-1392.19 939.159 2984
-1385.05 939.159 2984
-1363.6 929.403 2953
-1349.19 924.367 2937
-1333.03 918.072 2917
-1326.05 918.072 2917
-1319.08 918.072 2917
-1312.1 918.072 2917
-1305.13 918.072 2917
-1298.15 918.072 2917
-1291.17 918.072 2917
-1277.15 913.037 2901
-1279.41 919.646 2922
-1283.31 927.514 2947
-1276.26 927.514 2947
-1273.96 930.976 2958
-1266.88 930.976 2958
-1264.07 934.124 2968
-1256.97 934.124 2968
-1252.4 936.012 2974
-1260.78 947.657 3011
-1260.66 953.008 3028
-1253.42 953.008 3028
-1257.29 961.505 3055
-1259.39 968.744 3078
-1252.03 968.744 3078
-1244.67 968.744 3078
-1237.31 968.744 3078
-1227.55 966.856 3072
-1220.21 966.856 3072
-1212.86 966.856 3072
-1214.54 974.095 3095
-1207.14 974.095 3095
-1199.74 974.095 3095
-1192.34 974.095 3095
-1180.73 970.633 3084
-1175.25 972.206 3089
-1170.13 974.095 3095
-1162.73 974.095 3095
-1172.88 988.887 3142
-1165.36 988.887 3142
-1157.85 988.887 3142
-1150.34 988.887 3142
-1134.09 981.333 3118
-1128.81 983.222 3124
-1123.49 985.11 3130
-1116 985.11 3130
-1108.52 985.11 3130
-1109.48 992.664 3154
-1101.93 992.664 3154
-1094.39 992.664 3154
-1086.85 992.664 3154
-1079.31 992.664 3154
-1071.77 992.664 3154
-1064.22 992.664 3154
-1054.67 990.775 3148
-1047.14 990.775 3148
-1039.62 990.775 3148
-1032.09 990.775 3148
-1024.56 990.775 3148
-1007.34 981.333 3118
-997.96 979.445 3112
-990.518 979.445 3112
-972.336 968.744 3078
-963.095 966.856 3072
-954.193 965.282 3067
-946.859 965.282 3067
-939.525 965.282 3067
-932.191 965.282 3067
-924.856 965.282 3067
-917.522 965.282 3067
-908.408 963.394 3061
-901.088 963.394 3061
-893.768 963.394 3061
-886.448 963.394 3061
-879.128 963.394 3061
-873.518 965.282 3067
-866.183 965.282 3067
-858.849 965.282 3067
-851.515 965.282 3067
-844.181 965.282 3067
-835.21 963.394 3061
-827.89 963.394 3061
-820.57 963.394 3061
-816.173 966.856 3072
-808.827 966.856 3072
-801.481 966.856 3072
-794.135 966.856 3072
-783.971 963.394 3061
-761.174 944.195 3000
-740.68 927.514 2947
-733.633 927.514 2947
-726.585 927.514 2947
-717.097 924.367 2937
-710.073 924.367 2937
-704.247 925.941 2942
-697.212 925.941 2942
-690.177 925.941 2942
-677.336 918.072 2917
-670.361 918.072 2917
-663.385 918.072 2917
-650.559 909.889 2891
-643.646 909.889 2891
-637.834 911.463 2896
-630.909 911.463 2896
-626.138 914.61 2906
-621.533 918.072 2917
-617.718 922.793 2932
-610.706 922.793 2932
-613.372 937.586 2979
-610.522 944.195 3000
-608.98 953.008 3028
-601.739 953.008 3028
-594.498 953.008 3028
-589.39 956.47 3039
-584.23 959.932 3050
-576.937 959.932 3050
-570.577 961.505 3055
-568.619 970.633 3084
-563.246 974.095 3095
-555.845 974.095 3095
-552.519 981.333 3118
-547.161 985.11 3130
-542.78 990.775 3148
-535.252 990.775 3148
-529.736 994.552 3160
-525.154 1000.22 3178
-518.531 1002.11 3184
-510.917 1002.11 3184
-503.303 1002.11 3184
-496.624 1003.99 3190
-489.915 1005.88 3196
-482.272 1005.88 3196
-474.63 1005.88 3196
-466.111 1003.99 3190
-458.482 1003.99 3190
-426.359 1000.22 3178
-418.76 1000.22 3178
-411.16 1000.22 3178
-399.751 990.775 3148
-389.981 985.11 3130
-382.496 985.11 3130
-373.573 981.333 3118
-365.413 979.445 3112
-355.325 972.206 3089
-347.939 972.206 3089
-338.126 965.282 3067
-333.165 972.206 3089
-325.778 972.206 3089
-319.628 975.983 3101
-312.213 975.983 3101
-305.879 979.445 3112
-299.012 981.333 3118
-291.556 981.333 3118
-284.1 981.333 3118
-276.112 979.445 3112
-268.238 977.871 3107
-260.809 977.871 3107
-250.525 966.856 3072
-243.178 966.856 3072
-237.137 972.206 3089
-229.751 972.206 3089
-222.364 972.206 3089
-153.804 695.557 2210
-148.721 696.501 2213
-143.429 696.501 2213
-138.137 696.501 2213
-132.965 697.131 2215
-127.841 698.075 2218
-122.537 698.075 2218
-117.233 698.075 2218
-111.929 698.075 2218
-106.77 699.019 2221
-101.733 700.907 2227
-96.4071 700.907 2227
-91.0817 700.907 2227
-85.7562 700.907 2227
-80.4308 700.907 2227
-75.1054 700.907 2227
-69.7799 700.907 2227
-64.4545 700.907 2227
-59.5273 705.628 2242
-54.166 705.628 2242
-49.0006 708.461 2251
-43.7341 710.349 2257
-38.4558 712.553 2264
-33.0419 712.553 2264
-27.7012 714.441 2270
-22.3907 718.218 2282
-16.9783 720.106 2288
-11.507 720.106 2288
-6.04622 721.365 2292
-0.567568 724.198 2301
4.94125 725.142 2304
10.4508 725.142 2304
15.9604 725.142 2304
21.4979 726.086 2307
27.1669 730.177 2320
32.7147 730.177 2320
38.6418 737.416 2343
44.3013 738.361 2346
49.9964 739.619 2350
55.616 739.619 2350
61.3137 740.564 2353
66.9404 740.564 2353
72.6597 741.508 2356
78.2936 741.508 2356
83.9275 741.508 2356
89.3333 739.619 2350
94.9529 739.619 2350
168.859 970.633 3084
176.234 970.633 3084
183.609 970.633 3084
190.984 970.633 3084
198.358 970.633 3084
206.467 974.095 3095
213.868 974.095 3095
221.269 974.095 3095
228.67 974.095 3095
236.071 974.095 3095
242.607 970.633 3084
249.009 966.856 3072
261.195 985.11 3130
268.68 985.11 3130
276.165 985.11 3130
282.562 981.333 3118
286.298 968.744 3078
293.658 968.744 3078
299.943 965.282 3067
304.472 956.47 3039
312.252 958.043 3044
319.531 958.043 3044
326.81 958.043 3044
333.54 956.47 3039
337.667 947.657 3011
344.868 947.657 3011
348.326 937.586 2979
355.45 937.586 2979
361.235 934.124 2968
368.332 934.124 2968
375.429 934.124 2968
382.527 934.124 2968
389.624 934.124 2968
412.663 954.581 3033
419.916 954.581 3033
432.661 966.856 3072
444.161 975.983 3101
451.576 975.983 3101
458.992 975.983 3101
632.998 981.333 3118
640.454 981.333 3118
647.91 981.333 3118
651.793 975.983 3101
656.657 972.206 3089
665.334 974.095 3095
672.735 974.095 3095
680.136 974.095 3095
687.537 974.095 3095
694.938 974.095 3095
697.12 966.856 3072
707.218 970.633 3084
715.751 972.206 3089
725.947 975.983 3101
733.363 975.983 3101
740.778 975.983 3101
746.746 974.095 3095
754.147 974.095 3095
758.841 970.633 3084
763.235 966.856 3072
770.581 966.856 3072
786.79 977.871 3107
794.22 977.871 3107
801.65 977.871 3107
809.08 977.871 3107
810.465 970.633 3084
817.84 970.633 3084
825.215 970.633 3084
833.939 972.206 3089
842.96 974.095 3095
855.032 979.445 3112
862.474 979.445 3112
879.979 990.775 3148
892.581 996.44 3166
901.858 998.329 3172
909.443 998.329 3172
918.763 1000.22 3178
926.363 1000.22 3178
935.725 1002.11 3184
943.339 1002.11 3184
959.913 1011.55 3214
975.125 1019.42 3239
984.995 1021.62 3246
992.757 1021.62 3246
1012.23 1033.58 3284
1032.2 1045.85 3323
1040.15 1045.85 3323
1048.09 1045.85 3323
1047.78 1037.67 3297
1049.58 1031.69 3278
1057.41 1031.69 3278
1065.25 1031.69 3278
1073.09 1031.69 3278
1078.62 1029.49 3271
1082.13 1025.4 3258
1089.92 1025.4 3258
1085.24 1013.75 3221
1088.53 1009.66 3208
1092.1 1005.88 3196
1099.75 1005.88 3196
1107.39 1005.88 3196
1108.75 1000.22 3178
1105.81 990.775 3148
1113.34 990.775 3148
1116.6 986.999 3136
1119.79 983.222 3124
1122.93 979.445 3112
1128.56 977.871 3107
1135.99 977.871 3107
1132.75 968.744 3078
1131.59 961.505 3055
1137.03 959.932 3050
1148.45 963.394 3061
1155.77 963.394 3061
1163.09 963.394 3061
1196.79 985.11 3130
1204.28 985.11 3130
1211.76 985.11 3130
1219.25 985.11 3130
1243.19 998.329 3172
1250.78 998.329 3172
1258.36 998.329 3172
1374.34 1058.44 3363
1382.39 1058.44 3363
1390.43 1058.44 3363
1373.52 1039.56 3303
1370.96 1031.69 3278
1373.33 1027.6 3265
1375.64 1023.51 3252
1383.42 1023.51 3252
1391.19 1023.51 3252
1393.38 1019.42 3239
1393.34 1013.75 3221
1401.04 1013.75 3221
1403.06 1009.66 3208
1410.73 1009.66 3208
1418.4 1009.66 3208
1426.07 1009.66 3208
1433.74 1009.66 3208
1438.72 1007.77 3202
1443.66 1005.88 3196
1451.31 1005.88 3196
1456.21 1003.99 3190
1461.09 1002.11 3184
1465.93 1000.22 3178
1473.53 1000.22 3178
1483.93 1002.11 3184
1491.54 1002.11 3184
1507.63 1007.77 3202
1518.13 1009.66 3208
1531.98 1013.75 3221
1539.68 1013.75 3221
1547.39 1013.75 3221
1557.98 1015.64 3227
1565.7 1015.64 3227
1573.42 1015.64 3227
1581.13 1015.64 3227
1588.85 1015.64 3227
1596.57 1015.64 3227
1604.28 1015.64 3227
1612 1015.64 3227
1619.72 1015.64 3227
1627.44 1015.64 3227
1635.15 1015.64 3227
1655.6 1023.51 3252
1670.02 1027.6 3265
1677.83 1027.6 3265
1685.64 1027.6 3265
1693.44 1027.6 3265
1701.25 1027.6 3265
1689.17 1015.64 3227
1696.89 1015.64 3227
1691.4 1007.77 3202
1683.14 998.329 3172
1681.13 992.664 3154
1688.67 992.664 3154
1696.21 992.664 3154
1703.75 992.664 3154
1711.29 992.664 3154
1718.84 992.664 3154
1736.23 998.329 3172
1743.82 998.329 3172
1751.4 998.329 3172
1758.99 998.329 3172
1766.57 998.329 3172
1774.16 998.329 3172
1781.74 998.329 3172
1789.33 998.329 3172
1796.91 998.329 3172
1804.5 998.329 3172
1812.08 998.329 3172
1809.34 992.664 3154
1816.89 992.664 3154
2231.28 975.983 3101
2238.7 975.983 3101
2254.08 979.445 3112
2261.52 979.445 3112
2286.46 986.999 3136
2293.96 986.999 3136
2319.07 994.552 3160
2353.13 1005.88 3196
2360.78 1005.88 3196
2368.42 1005.88 3196
2349.3 994.552 3160
2477.42 1035.47 3290
2485.28 1035.47 3290
2493.15 1035.47 3290
2501.02 1035.47 3290
-1808.87 898.104 2832
-1802.1 898.104 2832
-1795.32 898.104 2832
-1804.34 906.032 2857
-1797.51 906.032 2857
-1790.68 906.032 2857
-1786.97 907.618 2862
-1801.27 918.4 2896
-1800.54 921.572 2906
-1793.59 921.572 2906
-1808.78 932.988 2942
-1811.54 938.062 2958
-1804.47 938.062 2958
-1797.39 938.062 2958
-1803.03 944.722 2979
-1802.54 948.21 2990
-1798.39 949.796 2995
-1791.23 949.796 2995
-1784.06 949.796 2995
-1776.9 949.796 2995
-1769.74 949.796 2995
-1756.11 946.308 2984
-1730.8 936.477 2953
-1723.74 936.477 2953
-1716.68 936.477 2953
-1709.62 936.477 2953
-1714.66 943.136 2974
-1719.61 949.796 2995
-1718.73 953.284 3006
-1711.55 953.284 3006
-1704.36 953.284 3006
-1712.41 961.847 3033
-1717.53 968.824 3055
-1710.22 968.824 3055
-1719.08 978.02 3084
-1711.71 978.02 3084
-1729.76 992.608 3130
-1722.27 992.608 3130
-1721.36 996.414 3142
-1713.85 996.414 3142
-1706.33 996.414 3142
-1614.93 1009.73 3184
-1607.32 1009.73 3184
-1599.71 1009.73 3184
-1586.09 1005.93 3172
-1566.56 998.316 3148
-1559.04 998.316 3148
-1525.39 981.509 3095
-1512.59 978.02 3084
-1505.22 978.02 3084
-1497.84 978.02 3084
-1490.47 978.02 3084
-1474.92 972.629 3067
-1456.58 965.335 3044
-1449.3 965.335 3044
-1439.65 963.75 3039
-1432.38 963.75 3039
-1425.11 963.75 3039
-1384.72 941.234 2968
-1377.63 941.234 2968
-1363.6 936.477 2953
-1349.19 931.403 2937
-1335.31 926.646 2922
-1328.32 926.646 2922
-1319.08 925.06 2917
-1312.1 925.06 2917
-1305.13 925.06 2917
-1298.15 925.06 2917
-1288.52 923.157 2911
-1277.15 919.986 2901
-1279.41 926.646 2922
-1283.31 934.574 2947
-1276.26 934.574 2947
-1273.96 938.062 2958
-1266.88 938.062 2958
-1264.07 941.234 2968
-1256.97 941.234 2968
-1252.4 943.136 2974
-1258.69 953.284 3006
-1260.66 960.261 3028
-1253.42 960.261 3028
-1255.23 967.238 3050
-1259.39 976.117 3078
-1252.03 976.117 3078
-1244.67 976.117 3078
-1237.31 976.117 3078
-1227.55 974.215 3072
-1220.21 974.215 3072
-1206.15 968.824 3055
-1214.54 981.509 3095
-1207.14 981.509 3095
-1199.74 981.509 3095
-1192.34 981.509 3095
-1184.94 981.509 3095
-1177.54 981.509 3095
-1172.4 983.411 3101
-1164.99 983.411 3101
-1172.88 996.414 3142
-1174.27 1004.02 3166
-1166.69 1004.02 3166
-1159.12 1004.02 3166
-1140.64 994.511 3136
-1130.97 992.608 3130
-1123.49 992.608 3130
-1116 992.608 3130
-1112.77 996.414 3142
-1109.48 1000.22 3154
-1101.93 1000.22 3154
-1094.39 1000.22 3154
-1086.85 1000.22 3154
-1079.31 1000.22 3154
-1071.77 1000.22 3154
-1064.22 1000.22 3154
-1054.67 998.316 3148
-1047.14 998.316 3148
-1039.62 998.316 3148
-1028.15 994.511 3136
-1020.65 994.511 3136
-1007.34 988.803 3118
-997.96 986.9 3112
-990.518 986.9 3112
-972.336 976.117 3078
-963.095 974.215 3072
-954.193 972.629 3067
-946.859 972.629 3067
-939.525 972.629 3067
-932.191 972.629 3067
-924.856 972.629 3067
-917.522 972.629 3067
-908.408 970.726 3061
-901.088 970.726 3061
-893.768 970.726 3061
-886.448 970.726 3061
-879.128 970.726 3061
-873.518 972.629 3067
-866.183 972.629 3067
-858.849 972.629 3067
-851.515 972.629 3067
-844.181 972.629 3067
-835.21 970.726 3061
-827.89 970.726 3061
-820.57 970.726 3061
-814.845 972.629 3067
-808.827 974.215 3072
-801.481 974.215 3072
-794.135 974.215 3072
-779.617 965.335 3044
-761.174 951.382 3000
-738.166 931.403 2937
-731.143 931.403 2937
-724.12 931.403 2937
-717.097 931.403 2937
-710.073 931.403 2937
-704.247 932.988 2942
-697.212 932.988 2942
-690.177 932.988 2942
-677.336 925.06 2917
-670.361 925.06 2917
-659.747 919.986 2901
-650.559 916.815 2891
-643.646 916.815 2891
-636.733 916.815 2891
-629.82 916.815 2891
-623.984 918.4 2896
-618.124 919.986 2901
-614.557 925.06 2917
-607.582 925.06 2917
-609.048 938.062 2958
-606.249 944.722 2979
-603.348 951.382 3000
-596.174 951.382 3000
-589.001 951.382 3000
-587.257 960.261 3028
-580.016 960.261 3028
-572.775 960.261 3028
-567.589 963.75 3039
-562.35 967.238 3050
-557.058 970.726 3061
-549.738 970.726 3061
-545.431 976.117 3078
-539.994 979.606 3089
-536.573 986.9 3112
-529.131 986.9 3112
-527.724 998.316 3148
-520.196 998.316 3148
-512.668 998.316 3148
-505.141 998.316 3148
-496.664 996.414 3142
-489.151 996.414 3142
-484.397 1002.12 3160
-476.84 1002.12 3160
-473.739 1011.64 3190
-466.111 1011.64 3190
-458.482 1011.64 3190
-416.029 983.411 3101
-408.614 983.411 3101
-401.198 983.411 3101
-393.783 983.411 3101
-386.367 983.411 3101
-378.952 983.411 3101
-370.099 979.606 3089
-360.716 974.215 3072
-352.104 970.726 3061
-345.46 972.629 3067
-338.126 972.629 3067
-332.626 978.02 3084
-325.778 979.606 3089
-319.628 983.411 3101
-312.213 983.411 3101
-305.387 985.314 3107
-299.012 988.803 3118
-291.556 988.803 3118
-284.1 988.803 3118
-276.112 986.9 3112
-268.238 985.314 3107
-260.809 985.314 3107
-250.525 974.215 3072
-243.178 974.215 3072
-237.137 979.606 3089
-229.751 979.606 3089
-222.364 979.606 3089
-153.804 700.851 2210
-148.721 701.802 2213
-143.429 701.802 2213
-138.137 701.802 2213
-132.965 702.437 2215
-127.841 703.388 2218
-122.537 703.388 2218
-117.233 703.388 2218
-111.929 703.388 2218
-106.77 704.339 2221
-101.733 706.242 2227
-96.4071 706.242 2227
-91.0817 706.242 2227
-85.7562 706.242 2227
-80.4308 706.242 2227
-75.1054 706.242 2227
-69.7799 706.242 2227
-64.4545 706.242 2227
-59.5273 710.999 2242
-54.166 710.999 2242
-49.0006 713.853 2251
-43.7341 715.756 2257
-38.4558 717.976 2264
-33.0419 717.976 2264
-27.6646 718.927 2267
-22.3613 722.733 2279
-16.9783 725.587 2288
-11.507 725.587 2288
-6.04622 726.856 2292
-0.568308 730.661 2304
4.94125 730.661 2304
10.4508 730.661 2304
15.9604 730.661 2304
21.4979 731.612 2307
27.202 736.686 2323
32.757 736.686 2323
38.6418 743.029 2343
44.3013 743.98 2346
50.0602 746.2 2353
55.687 746.2 2353
61.3919 747.152 2356
67.1396 748.42 2360
72.7831 748.42 2360
78.4265 748.42 2360
84.07 748.42 2360
158.238 958.358 3022
168.859 978.02 3084
176.234 978.02 3084
183.609 978.02 3084
190.984 978.02 3084
198.358 978.02 3084
206.467 981.509 3095
213.868 981.509 3095
221.269 981.509 3095
228.67 981.509 3095
236.071 981.509 3095
242.607 978.02 3084
249.009 974.215 3072
261.195 992.608 3130
268.68 992.608 3130
276.165 992.608 3130
282.562 988.803 3118
286.298 976.117 3078
293.658 976.117 3078
299.943 972.629 3067
304.472 963.75 3039
312.252 965.335 3044
319.531 965.335 3044
326.81 965.335 3044
333.54 963.75 3039
337.667 954.87 3011
344.868 954.87 3011
348.326 944.722 2979
355.45 944.722 2979
361.235 941.234 2968
368.332 941.234 2968
375.429 941.234 2968
382.527 941.234 2968
389.624 941.234 2968
412.663 961.847 3033
419.916 961.847 3033
432.661 974.215 3072
444.161 983.411 3101
451.576 983.411 3101
458.992 983.411 3101
632.998 988.803 3118
640.454 988.803 3118
647.91 988.803 3118
651.793 983.411 3101
656.657 979.606 3089
665.334 981.509 3095
672.735 981.509 3095
680.136 981.509 3095
687.537 981.509 3095
694.938 981.509 3095
697.12 974.215 3072
707.218 978.02 3084
715.751 979.606 3089
725.947 983.411 3101
733.363 983.411 3101
740.778 983.411 3101
746.746 981.509 3095
754.147 981.509 3095
758.841 978.02 3084
763.235 974.215 3072
770.581 974.215 3072
786.79 985.314 3107
794.22 985.314 3107
801.65 985.314 3107
809.08 985.314 3107
810.465 978.02 3084
817.84 978.02 3084
825.215 978.02 3084
833.939 979.606 3089
842.96 981.509 3095
855.032 986.9 3112
862.474 986.9 3112
879.979 998.316 3148
892.581 1004.02 3166
903.564 1007.83 3178
911.163 1007.83 3178
920.498 1009.73 3184
928.112 1009.73 3184
939.252 1013.54 3196
946.895 1013.54 3196
959.913 1019.25 3214
975.125 1027.17 3239
984.995 1029.39 3246
992.757 1029.39 3246
1012.23 1041.45 3284
1032.2 1053.81 3323
1040.15 1053.81 3323
1048.09 1053.81 3323
1047.78 1045.57 3297
1049.58 1039.54 3278
1057.41 1039.54 3278
1065.25 1039.54 3278
1073.09 1039.54 3278
1078.62 1037.32 3271
1082.13 1033.2 3258
1089.92 1033.2 3258
1085.24 1021.47 3221
1088.53 1017.34 3208
1092.1 1013.54 3196
1099.75 1013.54 3196
1107.39 1013.54 3196
1108.75 1007.83 3178
1105.81 998.316 3148
1113.34 998.316 3148
1116.6 994.511 3136
1119.79 990.705 3124
1122.93 986.9 3112
1128.56 985.314 3107
1135.99 985.314 3107
1132.75 976.117 3078
1131.59 968.824 3055
1137.03 967.238 3050
1148.45 970.726 3061
1155.77 970.726 3061
1163.09 970.726 3061
1196.79 992.608 3130
1204.28 992.608 3130
1211.76 992.608 3130
1219.25 992.608 3130
1226.73 992.608 3130
1234.22 992.608 3130
1241.7 992.608 3130
1331.42 1027.17 3239
1344.54 1031.3 3252
1352.31 1031.3 3252
1360.09 1031.3 3252
1362.4 1027.17 3239
1367.6 1025.27 3233
1375.34 1025.27 3233
1380.5 1023.37 3227
1382.62 1019.25 3214
1385.12 1015.44 3202
1392.78 1015.44 3202
1392.56 1009.73 3184
1400.17 1009.73 3184
1407.79 1009.73 3184
1415.4 1009.73 3184
1423.02 1009.73 3184
1430.63 1009.73 3184
1430.11 1004.02 3166
1437.68 1004.02 3166
1439.78 1000.22 3154
1447.32 1000.22 3154
1454.86 1000.22 3154
1462.4 1000.22 3154
1472.74 1002.12 3160
1480.3 1002.12 3160
1496.33 1007.83 3178
1518.13 1017.34 3208
1525.8 1017.34 3208
1533.47 1017.34 3208
1547.39 1021.47 3221
1557.98 1023.37 3227
1565.7 1023.37 3227
1573.42 1023.37 3227
1581.13 1023.37 3227
1582.45 1019.25 3214
1596.57 1023.37 3227
1604.28 1023.37 3227
1612 1023.37 3227
1681.45 1023.37 3227
1689.17 1023.37 3227
1696.89 1023.37 3227
1691.4 1015.44 3202
1683.14 1005.93 3172
1681.13 1000.22 3154
1688.67 1000.22 3154
1696.21 1000.22 3154
1703.75 1000.22 3154
1711.29 1000.22 3154
1718.84 1000.22 3154
1736.23 1005.93 3172
1747.12 1007.83 3178
1758.03 1009.73 3184
1765.64 1009.73 3184
1773.26 1009.73 3184
1777.51 1007.83 3178
1781.74 1005.93 3172
1789.33 1005.93 3172
1796.91 1005.93 3172
1804.5 1005.93 3172
1812.08 1005.93 3172
1809.34 1000.22 3154
1816.89 1000.22 3154
2268.96 986.9 3112
2276.4 986.9 3112
2297.05 992.608 3130
2353.13 1013.54 3196
2360.78 1013.54 3196
2368.42 1013.54 3196
-1815.64 904.888 2832
-1808.87 904.888 2832
-1802.1 904.888 2832
-1795.32 904.888 2832
-1804.34 912.876 2857
-1797.51 912.876 2857
-1790.68 912.876 2857
-1786.97 914.474 2862
-1791.94 920.545 2881
-1800.54 928.533 2906
-1793.59 928.533 2906
-1793.41 932.048 2917
-1804.8 941.633 2947
-1804.47 945.148 2958
-1797.39 945.148 2958
-1796.37 948.343 2968
-1795.91 951.858 2979
-1798.39 956.971 2995
-1791.23 956.971 2995
-1784.06 956.971 2995
-1776.9 956.971 2995
-1769.74 956.971 2995
-1759.64 955.373 2990
-1733.73 945.148 2958
-1726.66 945.148 2958
-1719.58 945.148 2958
-1712.51 945.148 2958
-1705.44 945.148 2958
-1716.74 955.373 2990
-1718.73 960.485 3006
-1711.55 960.485 3006
-1704.36 960.485 3006
-1706.2 965.598 3022
-1717.53 976.142 3055
-1710.22 976.142 3055
-1709.61 979.976 3067
-1711.71 985.408 3084
-1729.76 1000.11 3130
-1722.27 1000.11 3130
-1721.36 1003.94 3142
-1713.85 1003.94 3142
-1706.33 1003.94 3142
-1685.84 996.272 3118
-1614.93 1017.36 3184
-1607.32 1017.36 3184
-1599.71 1017.36 3184
-1586.09 1013.53 3172
-1554.62 998.189 3124
-1547.15 998.189 3124
-1519.97 985.408 3084
-1512.59 985.408 3084
-1505.22 985.408 3084
-1497.84 985.408 3084
-1490.47 985.408 3084
-1474.92 979.976 3067
-1456.58 972.627 3044
-1449.3 972.627 3044
-1439.65 971.029 3039
-1432.38 971.029 3039
-1425.11 971.029 3039
-1384.72 948.343 2968
-1377.63 948.343 2968
-1360.83 941.633 2947
-1346.89 936.841 2932
-1337.6 935.243 2927
-1330.6 935.243 2927
-1321.34 933.645 2922
-1314.35 933.645 2922
-1307.36 933.645 2922
-1300.37 933.645 2922
-1288.52 930.131 2911
-1277.15 926.935 2901
-1277.22 932.048 2917
-1278.96 938.438 2937
-1271.93 938.438 2937
-1273.96 945.148 2958
-1266.88 945.148 2958
-1264.07 948.343 2968
-1256.97 948.343 2968
-1252.4 950.26 2974
-1258.69 960.485 3006
-1258.16 965.598 3022
-1250.93 965.598 3022
-1250.7 971.029 3039
-1256.94 981.574 3072
-1249.59 981.574 3072
-1242.25 981.574 3072
-1234.9 981.574 3072
-1223.16 978.059 3061
-1215.84 978.059 3061
-1204.18 974.544 3050
-1196.88 974.544 3050
-1189.59 974.544 3050
-1199.74 988.923 3095
-1192.34 988.923 3095
-1184.94 988.923 3095
-1177.54 988.923 3095
-1172.4 990.84 3101
-1164.99 990.84 3101
-1184.08 1013.53 3172
-1178.72 1015.44 3178
-1171.12 1015.44 3178
-1163.52 1015.44 3178
-1151.55 1011.61 3166
-1130.97 1000.11 3130
-1123.49 1000.11 3130
-1116 1000.11 3130
-1117.02 1007.77 3154
-1109.48 1007.77 3154
-1101.93 1007.77 3154
-1094.39 1007.77 3154
-1086.85 1007.77 3154
-1079.31 1007.77 3154
-1071.77 1007.77 3154
-1064.22 1007.77 3154
-1054.67 1005.86 3148
-1047.14 1005.86 3148
-1039.62 1005.86 3148
-1024.22 998.189 3124
-1016.75 998.189 3124
-1007.34 996.272 3118
-997.96 994.355 3112
-990.518 994.355 3112
-972.336 983.491 3078
-964.976 983.491 3078
-957.615 983.491 3078
-950.255 983.491 3078
-939.525 979.976 3067
-932.191 979.976 3067
-924.856 979.976 3067
-917.522 979.976 3067
-910.188 979.976 3067
-902.854 979.976 3067
-893.768 978.059 3061
-886.448 978.059 3061
-879.128 978.059 3061
-873.518 979.976 3067
-867.596 981.574 3072
-860.249 981.574 3072
-852.903 981.574 3072
-845.557 981.574 3072
-836.847 979.976 3067
-829.513 979.976 3067
-820.57 978.059 3061
-813.25 978.059 3061
-805.931 978.059 3061
-798.611 978.059 3061
-789.74 976.142 3055
-778.337 971.029 3039
-758.637 955.373 2990
-739.423 940.036 2942
-732.388 940.036 2942
-722.887 936.841 2932
-713.434 933.645 2922
-706.447 933.645 2922
-699.46 933.645 2922
-692.472 933.645 2922
-685.485 933.645 2922
-672.46 925.338 2896
-665.535 925.338 2896
-656.335 922.143 2886
-647.184 918.947 2876
-640.306 918.947 2876
-635.632 922.143 2886
-628.73 922.143 2886
-622.906 923.74 2891
-617.058 925.338 2896
-612.24 928.533 2906
-605.291 928.533 2906
-604.725 938.438 2937
-599.736 941.633 2947
-594.901 945.148 2958
-587.828 945.148 2958
-580.755 945.148 2958
-579.887 955.373 2990
-572.737 955.373 2990
-565.587 955.373 2990
-559.371 956.971 2995
-552.209 956.971 2995
-551.963 969.112 3033
-544.71 969.112 3033
-537.457 969.112 3033
-533.176 974.544 3050
-529.676 981.574 3072
-522.33 981.574 3072
-516.995 985.408 3084
-509.62 985.408 3084
-502.246 985.408 3084
-494.871 985.408 3084
-482.912 976.142 3055
-487.283 1000.11 3130
-479.798 1000.11 3130
-472.313 1000.11 3130
-464.828 1000.11 3130
-457.344 1000.11 3130
-443.966 987.006 3089
-439.123 992.757 3107
-431.694 992.757 3107
-424.264 992.757 3107
-416.834 992.757 3107
-409.404 992.757 3107
-401.198 990.84 3101
-392.259 987.006 3089
-381.384 978.059 3061
-374.064 978.059 3061
-365.426 974.544 3050
-358.133 974.544 3050
-351.414 976.142 3055
-345.46 979.976 3067
-338.126 979.976 3067
-332.626 985.408 3084
-325.778 987.006 3089
-319.628 990.84 3101
-312.213 990.84 3101
-304.798 990.84 3101
-298.437 994.355 3112
-290.995 994.355 3112
-283.554 994.355 3112
-275.668 992.757 3107
-268.238 992.757 3107
-260.809 992.757 3107
-250.525 981.574 3072
-243.178 981.574 3072
-237.137 987.006 3089
-229.751 987.006 3089
-222.364 987.006 3089
-153.386 704.228 2204
-148.721 707.104 2213
-143.429 707.104 2213
-138.137 707.104 2213
-132.965 707.743 2215
-127.841 708.701 2218
-122.537 708.701 2218
-117.233 708.701 2218
-111.929 708.701 2218
-106.77 709.66 2221
-101.733 711.577 2227
-96.4071 711.577 2227
-91.0817 711.577 2227
-85.8717 712.536 2230
-80.5391 712.536 2230
-75.2065 712.536 2230
-69.7799 711.577 2227
-64.4545 711.577 2227
-59.607 717.328 2245
-54.2385 717.328 2245
-49.1313 721.163 2257
-43.8116 722.441 2261
-38.5068 724.358 2267
-33.0857 724.358 2267
-27.7378 726.275 2273
-22.4201 730.109 2285
-16.9783 731.068 2288
-11.507 731.068 2288
-6.06204 734.263 2298
-0.568308 736.18 2304
4.94125 736.18 2304
10.4508 736.18 2304
15.9604 736.18 2304
21.4979 737.139 2307
27.202 742.251 2323
32.757 742.251 2323
38.6418 748.642 2343
44.3013 749.6 2346
50.0602 751.837 2353
55.687 751.837 2353
61.3919 752.795 2356
67.1396 754.074 2360
72.7831 754.074 2360
78.4265 754.074 2360
84.07 754.074 2360
158.238 965.598 3022
168.859 985.408 3084
176.234 985.408 3084
183.609 985.408 3084
190.984 985.408 3084
198.358 985.408 3084
205.733 985.408 3084
213.108 985.408 3084
220.483 985.408 3084
226.971 981.574 3072
234.317 981.574 3072
241.663 981.574 3072
246.334 971.029 3039
253.101 969.112 3033
260.353 969.112 3033
267.606 969.112 3033
274.859 969.112 3033
281.647 967.515 3028
288.888 967.515 3028
295.542 965.598 3022
302.267 964 3017
309.482 964 3017
317.221 965.598 3022
324.448 965.598 3022
331.674 965.598 3022
337.107 960.485 3006
344.295 960.485 3006
347.04 948.343 2968
352.944 945.148 2958
360.018 945.148 2958
367.091 945.148 2958
374.165 945.148 2958
379.82 941.633 2947
432.661 981.574 3072
444.161 990.84 3101
451.576 990.84 3101
458.992 990.84 3101
629.547 990.84 3101
636.962 990.84 3101
644.378 990.84 3101
649.271 987.006 3089
654.319 983.491 3078
662.969 985.408 3084
670.344 985.408 3084
677.719 985.408 3084
683.761 983.491 3078
691.121 983.491 3078
695.986 979.976 3067
703.32 979.976 3067
714.593 985.408 3084
723.138 987.006 3089
730.525 987.006 3089
737.912 987.006 3089
744.092 985.408 3084
751.467 985.408 3084
754.659 979.976 3067
756.278 972.627 3044
765.062 974.544 3050
779.446 983.491 3078
786.807 983.491 3078
794.167 983.491 3078
801.528 983.491 3078
805.997 979.976 3067
813.332 979.976 3067
820.666 979.976 3067
828 979.976 3067
838.33 983.491 3078
847.339 985.408 3084
854.714 985.408 3084
874.947 1000.11 3130
892.581 1011.61 3166
903.564 1015.44 3178
911.163 1015.44 3178
920.498 1017.36 3184
928.112 1017.36 3184
939.252 1021.19 3196
946.895 1021.19 3196
959.913 1026.95 3214
973.319 1033.02 3233
984.995 1037.17 3246
992.757 1037.17 3246
1002.37 1039.09 3252
1020.09 1049.31 3284
1027.94 1049.31 3284
1035.79 1049.31 3284
1041.74 1047.4 3278
1049.58 1047.4 3278
1057.41 1047.4 3278
1065.25 1047.4 3278
1073.09 1047.4 3278
1078.62 1045.16 3271
1082.13 1041.01 3258
1089.92 1041.01 3258
1085.24 1029.18 3221
1084.46 1021.19 3196
1090.05 1019.28 3190
1097.68 1019.28 3190
1101.15 1015.44 3178
1104.57 1011.61 3166
1105.81 1005.86 3148
1113.34 1005.86 3148
1114.46 1000.11 3130
1117.64 996.272 3118
1122.93 994.355 3112
1126.38 990.84 3101
1133.8 990.84 3101
1126.49 978.059 3061
1129.74 974.544 3050
1132.93 971.029 3039
1140.2 971.029 3039
1141.04 965.598 3022
1163.09 978.059 3061
1179.2 985.408 3084
1204.28 1000.11 3130
1211.76 1000.11 3130
1219.25 1000.11 3130
1226.73 1000.11 3130
1234.22 1000.11 3130
1241.7 1000.11 3130
1331.42 1034.93 3239
1344.54 1039.09 3252
1352.31 1039.09 3252
1360.09 1039.09 3252
1362.4 1034.93 3239
1367.6 1033.02 3233
1375.34 1033.02 3233
1380.5 1031.1 3227
1382.62 1026.95 3214
1385.12 1023.11 3202
1392.78 1023.11 3202
1392.56 1017.36 3184
1400.17 1017.36 3184
1407.79 1017.36 3184
1415.4 1017.36 3184
1423.02 1017.36 3184
1430.63 1017.36 3184
1430.11 1011.61 3166
1437.68 1011.61 3166
1439.78 1007.77 3154
1447.32 1007.77 3154
1454.86 1007.77 3154
1462.4 1007.77 3154
1472.74 1009.69 3160
1480.3 1009.69 3160
1496.33 1015.44 3178
1518.13 1025.03 3208
1525.8 1025.03 3208
1533.47 1025.03 3208
1547.39 1029.18 3221
1557.98 1031.1 3227
1565.7 1031.1 3227
1573.42 1031.1 3227
1581.13 1031.1 3227
1582.45 1026.95 3214
1596.57 1031.1 3227
1604.28 1031.1 3227
1612 1031.1 3227
1586 981.574 3072
1593.34 981.574 3072
1681.45 1031.1 3227
1689.17 1031.1 3227
1696.89 1031.1 3227
1691.4 1023.11 3202
1683.14 1013.53 3172
1681.13 1007.77 3154
1688.67 1007.77 3154
1696.21 1007.77 3154
1703.75 1007.77 3154
1711.29 1007.77 3154
1718.84 1007.77 3154
1736.23 1013.53 3172
1750.41 1017.36 3184
1761.34 1019.28 3190
1768.97 1019.28 3190
1776.6 1019.28 3190
1784.23 1019.28 3190
1791.85 1019.28 3190
1796.1 1017.36 3184
1803.71 1017.36 3184
1807.91 1015.44 3178
1815.51 1015.44 3178
1809.34 1007.77 3154
1816.89 1007.77 3154
-1855.74 918.111 2852
-1848.92 918.111 2852
-1842.1 918.111 2852
-1832.06 916.501 2847
-1825.26 916.501 2847
-1818.45 916.501 2847
