ply
format ascii 1.0
comment File generated
element vertex 2257
property float x
property float y
property float z
end_header
1487.39 216.596 2881
1489.09 215.844 2871
1493.35 215.468 2866
1500.2 215.468 2866
1504.95 215.167 2862
1511.8 215.167 2862
1515.99 214.792 2857
1520.16 214.416 2852
1524.3 214.04 2847
1531.11 214.04 2847
1537.91 214.04 2847
1542.01 213.664 2842
1548.81 213.664 2842
1555.6 213.664 2842
1562.4 213.664 2842
1569.19 213.664 2842
1578.76 214.04 2847
1588.36 214.416 2852
1595.18 214.416 2852
1602 214.416 2852
1608.82 214.416 2852
1615.64 214.416 2852
1622.46 214.416 2852
1629.28 214.416 2852
1636.1 214.416 2852
1642.92 214.416 2852
1649.74 214.416 2852
1656.56 214.416 2852
1663.38 214.416 2852
1670.2 214.416 2852
1677.02 214.416 2852
1683.84 214.416 2852
1690.66 214.416 2852
1694.5 214.04 2847
1701.31 214.04 2847
1705.12 213.664 2842
1711.91 213.664 2842
1712.66 212.912 2832
1717 212.611 2828
1723.77 212.611 2828
1724.41 211.859 2818
1731.15 211.859 2818
1734.8 211.484 2813
1741.53 211.484 2813
1745.77 211.183 2809
1749.37 210.807 2804
1756.07 210.807 2804
1762.78 210.807 2804
1763.17 210.055 2794
1769.86 210.055 2794
1773.99 209.754 2790
1780.67 209.754 2790
1784.13 209.379 2785
1787.58 209.003 2780
1791.64 208.702 2776
1798.28 208.702 2776
1804.92 208.702 2776
1811.56 208.702 2776
1818.2 208.702 2776
1824.84 208.702 2776
1831.47 208.702 2776
1838.11 208.702 2776
1841.43 208.326 2771
1848.05 208.326 2771
1854.68 208.326 2771
1861.31 208.326 2771
1867.93 208.326 2771
1874.56 208.326 2771
1881.19 208.326 2771
1885.09 208.025 2767
1891.7 208.025 2767
1901.06 208.326 2771
1907.69 208.326 2771
1914.32 208.326 2771
1920.94 208.326 2771
1927.57 208.326 2771
1934.2 208.326 2771
1940.82 208.326 2771
1947.45 208.326 2771
1947.73 207.649 2762
1950.8 207.273 2757
1957.39 207.273 2757
1963.98 207.273 2757
1970.57 207.273 2757
1974.3 206.973 2753
1980.88 206.973 2753
1983.86 206.597 2748
1987.53 206.296 2744
1994.09 206.296 2744
1997.01 205.92 2739
2007.21 206.296 2744
2013.78 206.296 2744
2020.34 206.296 2744
2026.9 206.296 2744
2033.46 206.296 2744
2033.33 205.619 2735
2033.16 204.943 2726
2035.94 204.567 2721
2042.44 204.567 2721
2039.16 203.59 2708
2045.64 203.59 2708
2055.9 203.966 2713
2062.39 203.966 2713
2068.88 203.966 2713
2068.48 203.289 2704
-2103.17 217.912 2809
-2096.45 217.912 2809
-2092.71 218.222 2813
-2085.98 218.222 2813
-2079.26 218.222 2813
-2076.21 218.61 2818
-2069.47 218.61 2818
-2062.73 218.61 2818
-2059.64 218.998 2823
-2052.89 218.998 2823
-2046.14 218.998 2823
-2035.78 218.61 2818
-2011.76 216.748 2794
-2012.26 217.524 2804
-2009.13 217.912 2809
-2002.41 217.912 2809
-1995.69 217.912 2809
-1988.98 217.912 2809
-1982.26 217.912 2809
-1972.02 217.524 2804
-1968.82 217.912 2809
-1978.17 219.696 2832
-1988.8 221.636 2857
-1981.97 221.636 2857
-1984.82 222.722 2871
-1977.95 222.722 2871
-1971.09 222.722 2871
-1964.22 222.722 2871
-1947.81 221.636 2857
-1940.98 221.636 2857
-1995.08 228.617 2947
-1988.03 228.617 2947
-1995.1 230.246 2968
-1992.02 230.712 2974
-2009.6 233.582 3011
-2002.4 233.582 3011
-2013.76 235.754 3039
-2006.49 235.754 3039
-1999.22 235.754 3039
-2200.42 283.154 3650
-2191.69 283.154 3650
-2182.96 283.154 3650
-2165.3 281.99 3635
-2156.61 281.99 3635
-2143.19 281.369 3627
-2134.52 281.369 3627
-2125.84 281.369 3627
-2117.17 281.369 3627
-2103.85 280.749 3619
-2090.56 280.128 3611
-2081.92 280.128 3611
-2073.29 280.128 3611
-2060.08 279.507 3603
-2051.46 279.507 3603
-2038.31 278.887 3595
-2029.72 278.887 3595
-2017.18 278.344 3588
-2021.48 280.128 3611
-2012.84 280.128 3611
-2004.21 280.128 3611
-1995.57 280.128 3611
-1982.54 279.507 3603
-1973.92 279.507 3603
-1965.31 279.507 3603
-1956.69 279.507 3603
-1948.07 279.507 3603
-1939.46 279.507 3603
-1930.84 279.507 3603
-1917.96 278.887 3595
-1909.36 278.887 3595
-1900.77 278.887 3595
-1892.17 278.887 3595
-1875.71 277.723 3580
-1867.15 277.723 3580
-1858.59 277.723 3580
-1861.92 279.507 3603
-1853.3 279.507 3603
-1848.78 280.128 3611
-1840.14 280.128 3611
-1831.51 280.128 3611
-1822.87 280.128 3611
-1822.28 281.369 3627
-1829.11 283.774 3658
-1824.84 284.472 3667
-1816.07 284.472 3667
-1819.13 286.334 3691
-1818.15 287.575 3707
-1838.08 292.152 3766
-1829.08 292.152 3766
-1820.07 292.152 3766
-1811.06 292.152 3766
-1802.06 292.152 3766
-1793.05 292.152 3766
-1612.62 285.714 3683
-1603.81 285.714 3683
-1595.01 285.714 3683
-1541.84 277.723 3580
-1533.28 277.723 3580
-1495.76 272.448 3512
-1481.01 271.284 3497
-1433.9 264.147 3405
-1425.76 264.147 3405
-1391.8 259.338 3343
-1375.53 257.786 3323
-1365.11 257.321 3317
-1354.32 256.778 3310
-1349.25 257.321 3317
-1341.32 257.321 3317
-1343.84 259.338 3343
-1335.84 259.338 3343
-1327.85 259.338 3343
-1319.86 259.338 3343
-1301.66 257.321 3317
-1285.93 255.769 3297
-1278.04 255.769 3297
-1260.14 253.752 3271
-1250.02 253.287 3265
-1222.81 249.33 3214
-1215.13 249.33 3214
-1193.92 246.538 3178
-1181.84 245.607 3166
-1172.04 245.141 3160
-1164.48 245.141 3160
-1075.03 232.341 2995
-1081.42 235.289 3033
-1074.17 235.289 3033
-1070.78 236.142 3044
-1063.5 236.142 3044
-1056.22 236.142 3044
-1048.95 236.142 3044
-1039.95 235.754 3039
-1028.95 234.901 3028
-1021.71 234.901 3028
-1010.78 234.048 3017
-997.913 232.729 3000
-990.739 232.729 3000
-983.566 232.729 3000
-961.095 229.083 2953
-954.033 229.083 2953
-945.048 228.617 2947
-938.001 228.617 2947
-930.953 228.617 2947
-925.787 229.083 2953
-918.726 229.083 2953
-919.691 231.1 2979
-912.567 231.1 2979
-905.444 231.1 2979
-898.32 231.1 2979
-891.196 231.1 2979
-880.808 230.246 2968
-870.767 229.471 2958
-863.694 229.471 2958
-856.62 229.471 2958
-844.951 228.23 2942
-837.916 228.23 2942
-829.469 227.842 2937
-821.045 227.454 2932
-814.034 227.454 2932
-804.27 226.678 2922
-798.647 227.066 2927
-791.648 227.066 2927
-784.648 227.066 2927
-777.649 227.066 2927
-771.966 227.454 2932
-764.955 227.454 2932
-757.944 227.454 2932
-750.932 227.454 2932
-743.921 227.454 2932
-735.653 227.066 2927
-728.654 227.066 2927
-721.654 227.066 2927
-712.214 226.29 2917
-702.579 225.437 2906
-696.826 225.825 2911
-689.865 225.825 2911
-682.904 225.825 2911
-675.943 225.825 2911
-668.982 225.825 2911
-660.884 225.437 2906
-655.06 225.825 2911
-649.435 226.29 2917
-642.459 226.29 2917
-635.484 226.29 2917
-630.663 227.066 2927
-623.664 227.066 2927
-616.664 227.066 2927
-609.665 227.066 2927
-585.713 305.961 3944
-576.282 305.961 3944
-566.851 305.961 3944
-556.148 305.263 3935
-547.988 305.961 3944
-541.151 307.435 3963
-531.675 307.435 3963
-522.198 307.435 3963
-512.721 307.435 3963
-503.244 307.435 3963
-491.4 305.961 3944
-476.348 302.392 3898
-465.948 301.694 3889
-457.705 302.392 3898
-450.454 303.789 3916
-441.09 303.789 3916
-439.994 309.607 3991
-430.451 309.607 3991
-420.907 309.607 3991
-411.363 309.607 3991
-401.819 309.607 3991
-389.524 307.435 3963
-380.047 307.435 3963
-207.961 172.53 2224
-200.82 170.978 2204
-194.485 170.047 2192
-189.243 170.047 2192
-184.001 170.047 2192
-177.618 168.961 2178
-171.935 168.496 2172
-166.741 168.496 2172
-160.952 167.875 2164
-155.561 167.642 2161
-149.837 167.022 2153
-144.487 166.789 2150
-139.345 166.789 2150
-134.017 166.556 2147
-128.703 166.324 2144
-123.288 165.936 2139
-118.173 165.936 2139
-112.899 165.703 2136
-107.539 165.315 2131
-102.299 165.082 2128
-97.2101 165.082 2128
-91.8616 164.617 2122
-86.5828 164.229 2117
-81.4049 163.996 2114
-76.3497 163.996 2114
-71.227 163.841 2112
-66.0826 163.608 2109
-60.8946 163.221 2104
-55.8633 163.221 2104
-50.832 163.221 2104
-45.8007 163.221 2104
-40.7113 162.988 2101
-35.6871 162.988 2101
-30.663 162.988 2101
-25.6023 162.755 2098
-20.5853 162.755 2098
-15.5535 162.6 2096
-10.5413 162.6 2096
-5.52917 162.6 2096
-0.517003 162.6 2096
4.49946 162.755 2098
9.53002 162.988 2101
14.5541 162.988 2101
19.5783 162.988 2101
24.6375 163.221 2104
29.697 163.376 2106
34.7331 163.376 2106
39.8825 163.841 2112
45.0393 164.229 2117
50.1727 164.462 2120
55.2423 164.462 2120
60.4541 164.85 2125
65.7823 165.47 2133
71.2485 166.324 2144
76.3755 166.324 2144
81.7305 166.789 2150
87.0738 167.177 2155
92.7407 168.108 2167
97.9226 168.108 2167
103.342 168.496 2172
108.686 168.728 2175
114.044 168.961 2178
119.253 168.961 2178
124.918 169.582 2186
130.324 169.815 2189
135.93 170.28 2195
141.179 170.28 2195
147.229 171.211 2207
152.506 171.211 2207
157.784 171.211 2207
163.061 171.211 2207
168.568 171.444 2210
174.089 171.676 2213
179.786 172.064 2218
185.09 172.064 2218
190.394 172.064 2218
195.698 172.064 2218
201.001 172.064 2218
206.863 172.53 2224
212.182 172.53 2224
217.5 172.53 2224
223.419 172.995 2230
229.367 173.461 2236
234.714 173.461 2236
240.383 173.693 2239
245.738 173.693 2239
251.092 173.693 2239
256.446 173.693 2239
261.098 173.228 2233
266.08 172.995 2230
271.413 172.995 2230
276.745 172.995 2230
281.319 172.53 2224
286.251 172.297 2221
291.562 172.297 2221
296.071 171.832 2215
301.368 171.832 2215
451.752 244.676 3154
459.294 244.676 3154
466.837 244.676 3154
473.476 244.21 3148
473.823 240.564 3101
481.238 240.564 3101
483.296 237.927 3067
487.91 236.608 3050
491.632 234.901 3028
498.873 234.901 3028
505.111 234.436 3022
505.895 231.488 2984
512.171 231.1 2979
517.377 230.246 2968
524.475 230.246 2968
530.676 229.859 2963
536.854 229.471 2958
543.928 229.471 2958
551.001 229.471 2958
558.075 229.471 2958
564.193 229.083 2953
568.159 227.842 2937
575.183 227.842 2937
581.215 227.454 2932
587.223 227.066 2927
594.222 227.066 2927
601.222 227.066 2927
607.182 226.678 2922
614.169 226.678 2922
621.157 226.678 2922
628.144 226.678 2922
635.132 226.678 2922
642.119 226.678 2922
647.996 226.29 2917
654.971 226.29 2917
661.946 226.29 2917
668.922 226.29 2917
675.897 226.29 2917
682.873 226.29 2917
689.848 226.29 2917
696.824 226.29 2917
703.799 226.29 2917
711.993 226.678 2922
718.98 226.678 2922
725.968 226.678 2922
732.955 226.678 2922
739.942 226.678 2922
746.93 226.678 2922
753.917 226.678 2922
760.904 226.678 2922
767.892 226.678 2922
774.879 226.678 2922
781.867 226.678 2922
788.854 226.678 2922
795.841 226.678 2922
802.829 226.678 2922
809.816 226.678 2922
816.804 226.678 2922
823.791 226.678 2922
830.778 226.678 2922
837.766 226.678 2922
844.753 226.678 2922
851.741 226.678 2922
857.259 226.29 2917
864.234 226.29 2917
871.209 226.29 2917
876.378 225.825 2911
881.822 225.437 2906
888.771 225.437 2906
894.179 225.049 2901
901.117 225.049 2901
906.489 224.661 2896
913.414 224.661 2896
920.339 224.661 2896
927.264 224.661 2896
934.19 224.661 2896
941.115 224.661 2896
948.04 224.661 2896
954.965 224.661 2896
961.89 224.661 2896
1387.56 300.298 3871
1400.06 300.996 3880
1409.34 300.996 3880
1418.62 300.996 3880
1427.89 300.996 3880
1427.17 298.902 3853
1436.39 298.902 3853
1429.09 295.488 3809
1424.98 292.773 3774
1421.09 290.135 3740
1430.03 290.135 3740
1432.82 288.894 3724
1428.95 286.334 3691
1434.66 285.714 3683
1443.47 285.714 3683
1449.12 285.093 3675
1457.91 285.093 3675
1450.73 281.99 3635
1440.55 278.344 3588
1449.13 278.344 3588
1432.93 273.612 3527
1417.25 269.035 3468
1411.16 266.319 3433
1419.37 266.319 3433
1404.29 261.975 3377
1392.71 258.329 3330
1378.8 254.295 3278
1367.6 250.804 3233
1375.34 250.804 3233
1383.07 250.804 3233
1418.33 255.769 3297
1434.87 257.321 3317
1457.15 259.881 3350
1465.16 259.881 3350
1494.28 263.604 3398
1502.41 263.604 3398
1510.53 263.604 3398
1518.66 263.604 3398
1514.2 261.432 3370
1495.16 256.778 3310
1503.07 256.778 3310
1427.16 238.78 3078
1437.32 239.245 3084
1444.7 239.245 3084
1452.07 239.245 3084
1456.61 238.78 3078
1463.97 238.78 3078
1449.82 235.289 3033
1449.38 234.048 3017
1435.84 230.712 2974
1442.95 230.712 2974
1434.46 228.23 2942
1436.59 227.454 2932
1443.6 227.454 2932
1448.14 227.066 2927
1455.14 227.066 2927
1459.64 226.678 2922
1461.11 225.825 2911
1457.98 224.273 2891
1464.9 224.273 2891
1469.27 223.885 2886
1476.17 223.885 2886
1480.5 223.497 2881
1487.39 223.497 2881
1486.5 222.334 2866
1491.27 222.023 2862
1498.11 222.023 2862
1502.32 221.636 2857
1509.16 221.636 2857
1513.34 221.248 2852
1520.16 221.248 2852
1524.3 220.86 2847
1531.11 220.86 2847
1535.21 220.472 2842
1542.01 220.472 2842
1546.08 220.084 2837
1552.87 220.084 2837
1559.65 220.084 2837
1566.43 220.084 2837
1578.76 220.86 2847
1588.36 221.248 2852
1595.18 221.248 2852
1602 221.248 2852
1608.82 221.248 2852
1615.64 221.248 2852
1622.46 221.248 2852
1629.28 221.248 2852
1636.1 221.248 2852
1642.92 221.248 2852
1649.74 221.248 2852
1656.56 221.248 2852
1663.38 221.248 2852
1670.2 221.248 2852
1677.02 221.248 2852
1683.84 221.248 2852
1690.66 221.248 2852
1694.5 220.86 2847
1701.31 220.86 2847
1705.12 220.472 2842
1711.91 220.472 2842
1715.68 220.084 2837
1722.47 220.084 2837
1723.77 219.386 2828
1724.41 218.61 2818
1731.15 218.61 2818
1734.8 218.222 2813
1741.53 218.222 2813
1745.77 217.912 2809
1752.49 217.912 2809
1756.07 217.524 2804
1762.78 217.524 2804
1763.17 216.748 2794
1769.86 216.748 2794
1773.99 216.438 2790
1780.67 216.438 2790
1784.13 216.05 2785
1790.79 216.05 2785
1791.64 215.352 2776
1798.28 215.352 2776
1804.92 215.352 2776
1811.56 215.352 2776
1818.2 215.352 2776
1824.84 215.352 2776
1831.47 215.352 2776
1834.8 214.964 2771
1841.43 214.964 2771
1848.05 214.964 2771
1854.68 214.964 2771
1861.31 214.964 2771
1867.93 214.964 2771
1874.56 214.964 2771
1881.19 214.964 2771
1887.81 214.964 2771
1894.44 214.964 2771
1901.06 214.964 2771
1907.69 214.964 2771
1914.32 214.964 2771
1920.94 214.964 2771
1927.57 214.964 2771
1934.2 214.964 2771
1940.82 214.964 2771
1947.45 214.964 2771
1947.73 214.266 2762
1954.33 214.266 2762
1960.94 214.266 2762
1963.98 213.878 2757
1970.57 213.878 2757
1977.17 213.878 2757
1983.76 213.878 2757
1987.46 213.568 2753
1990.43 213.18 2748
1994.09 212.869 2744
2000.65 212.869 2744
2010.14 213.18 2748
2016.71 213.18 2748
2023.28 213.18 2748
2029.85 213.18 2748
2036.43 213.18 2748
2040.02 212.869 2744
2039.87 212.171 2735
2039.68 211.473 2726
2046.2 211.473 2726
2045.94 210.775 2717
2052.44 210.775 2717
2058.93 210.775 2717
2065.43 210.775 2717
2071.93 210.775 2717
2075.36 210.465 2713
-2106.16 224.961 2813
-2099.44 224.961 2813
-2092.71 224.961 2813
-2085.98 224.961 2813
-2082.95 225.361 2818
-2076.21 225.361 2818
-2076.82 226.16 2828
-2070.05 226.16 2828
-2063.29 226.16 2828
-2056.53 226.16 2828
-2049.77 226.16 2828
-2039.39 225.76 2823
-2015.36 223.841 2799
-2015.84 224.641 2809
-2009.13 224.641 2809
-2002.41 224.641 2809
-1998.53 224.961 2813
-1991.81 224.961 2813
-1985.08 224.961 2813
-1975.54 224.641 2809
-1968.82 224.641 2809
-1995.64 228.479 2857
-1998.55 229.599 2871
-1991.68 229.599 2871
-1995.19 230.799 2886
-1988.29 230.799 2886
-1981.39 230.799 2886
-1967.64 229.999 2876
-1953.95 229.199 2866
-1944.38 228.879 2862
-1995.08 235.677 2947
-1988.03 235.677 2947
-1995.1 237.356 2968
-1992.02 237.836 2974
-2009.6 240.795 3011
-2002.4 240.795 3011
-2013.76 243.034 3039
-2006.49 243.034 3039
-1999.22 243.034 3039
-1991.95 243.034 3039
-2200.42 291.897 3650
-2191.69 291.897 3650
-2182.96 291.897 3650
-2165.3 290.698 3635
-2156.61 290.698 3635
-2143.19 290.058 3627
-2129.81 289.418 3619
-2121.15 289.418 3619
-2112.5 289.418 3619
-2103.85 289.418 3619
-2090.56 288.778 3611
-2077.31 288.138 3603
-2068.7 288.138 3603
-2060.08 288.138 3603
-2051.46 288.138 3603
-2038.31 287.499 3595
-2029.72 287.499 3595
-2012.69 286.299 3580
-2008.6 286.939 3588
-2008.39 288.138 3603
-1999.77 288.138 3603
-1991.15 288.138 3603
-1974.28 286.939 3588
-1969.54 287.499 3595
-1965.31 288.138 3603
-1956.69 288.138 3603
-1948.07 288.138 3603
-1935.15 287.499 3595
-1926.56 287.499 3595
-1917.96 287.499 3595
-1905.64 286.939 3588
-1897.06 286.939 3588
-1888.48 286.939 3588
-1875.71 286.299 3580
-1867.15 286.299 3580
-1858.59 286.299 3580
-1861.92 288.138 3603
-1853.3 288.138 3603
-1848.78 288.778 3611
-1840.14 288.778 3611
-1831.51 288.778 3611
-1822.87 288.778 3611
-1822.28 290.058 3627
-1829.11 292.537 3658
-1824.84 293.257 3667
-1816.07 293.257 3667
-1819.13 295.176 3691
-1818.15 296.456 3707
-1838.08 301.174 3766
-1829.08 301.174 3766
-1820.07 301.174 3766
-1811.06 301.174 3766
-1802.06 301.174 3766
-1793.05 301.174 3766
-1612.62 294.536 3683
-1603.81 294.536 3683
-1595.01 294.536 3683
-1541.84 286.299 3580
-1533.28 286.299 3580
-1495.76 280.861 3512
-1481.01 279.661 3497
-1433.9 272.304 3405
-1425.76 272.304 3405
-1391.8 267.346 3343
-1375.53 265.746 3323
-1365.11 265.267 3317
-1354.32 264.707 3310
-1349.25 265.267 3317
-1341.32 265.267 3317
-1343.84 267.346 3343
-1335.84 267.346 3343
-1327.85 267.346 3343
-1319.86 267.346 3343
-1301.66 265.267 3317
-1285.93 263.667 3297
-1278.04 263.667 3297
-1260.14 261.588 3271
-1250.02 261.108 3265
-1222.81 257.029 3214
-1215.13 257.029 3214
-1193.92 254.15 3178
-1181.84 253.191 3166
-1172.04 252.711 3160
-1164.48 252.711 3160
-1075.03 239.516 2995
-1081.42 242.555 3033
-1074.17 242.555 3033
-1070.78 243.434 3044
-1063.5 243.434 3044
-1056.22 243.434 3044
-1048.95 243.434 3044
-1039.95 243.034 3039
-1028.95 242.155 3028
-1021.71 242.155 3028
-1010.78 241.275 3017
-997.913 239.915 3000
-990.739 239.915 3000
-983.566 239.915 3000
-961.095 236.157 2953
-952.095 235.677 2947
-945.048 235.677 2947
-938.001 235.677 2947
-930.953 235.677 2947
-925.787 236.157 2953
-918.726 236.157 2953
-919.691 238.236 2979
-912.567 238.236 2979
-905.444 238.236 2979
-898.32 238.236 2979
-891.196 238.236 2979
-880.808 237.356 2968
-870.767 236.557 2958
-863.694 236.557 2958
-856.62 236.557 2958
-844.951 235.277 2942
-837.916 235.277 2942
-829.469 234.877 2937
-821.045 234.477 2932
-814.034 234.477 2932
-804.27 233.678 2922
-798.647 234.078 2927
-791.648 234.078 2927
-784.648 234.078 2927
-777.649 234.078 2927
-771.966 234.477 2932
-764.955 234.477 2932
-757.944 234.477 2932
-750.932 234.477 2932
-743.921 234.477 2932
-735.653 234.078 2927
-728.654 234.078 2927
-721.654 234.078 2927
-712.214 233.278 2917
-702.579 232.398 2906
-695.629 232.398 2906
-688.68 232.398 2906
-681.731 232.398 2906
-674.782 232.398 2906
-667.833 232.398 2906
-659.747 231.998 2901
-655.06 232.798 2911
-649.435 233.278 2917
-642.459 233.278 2917
-635.484 233.278 2917
-630.663 234.078 2927
-623.664 234.078 2927
-616.664 234.078 2927
-609.665 234.078 2927
-547.988 315.409 3944
-541.151 316.928 3963
-531.675 316.928 3963
-522.198 316.928 3963
-512.721 316.928 3963
-503.244 316.928 3963
-491.4 315.409 3944
-476.348 311.73 3898
-465.948 311.01 3889
-457.705 311.73 3898
-450.454 313.17 3916
-441.09 313.17 3916
-439.994 319.168 3991
-430.451 319.168 3991
-420.907 319.168 3991
-411.363 319.168 3991
-401.819 319.168 3991
-389.524 316.928 3963
-380.047 316.928 3963
-207.961 177.857 2224
-200.82 176.258 2204
-194.485 175.298 2192
-189.243 175.298 2192
-184.001 175.298 2192
-177.618 174.179 2178
-171.935 173.699 2172
-166.741 173.699 2172
-160.952 173.059 2164
-155.561 172.819 2161
-149.837 172.179 2153
-144.487 171.939 2150
-139.345 171.939 2150
-134.017 171.699 2147
-128.403 171.06 2139
-123.288 171.06 2139
-118.173 171.06 2139
-112.899 170.82 2136
-107.539 170.42 2131
-102.155 169.94 2125
-97.073 169.94 2125
-91.8616 169.7 2122
-86.4601 169.06 2114
-81.3279 168.9 2112
-76.2774 168.9 2112
-71.1258 168.661 2109
-65.9886 168.421 2106
-60.8946 168.261 2104
-55.8633 168.261 2104
-50.832 168.261 2104
-45.7354 168.021 2101
-40.7113 168.021 2101
-35.6871 168.021 2101
-30.6192 167.781 2098
-25.6023 167.781 2098
-20.5657 167.621 2096
-15.5535 167.621 2096
-10.5413 167.621 2096
-5.52917 167.621 2096
-0.517003 167.621 2096
4.49946 167.781 2098
9.53002 168.021 2101
14.5541 168.021 2101
19.5783 168.021 2101
24.6375 168.261 2104
29.697 168.421 2106
34.7331 168.421 2106
39.8825 168.9 2112
45.0393 169.3 2117
50.1727 169.54 2120
55.2423 169.54 2120
60.4541 169.94 2125
65.7823 170.58 2133
71.2485 171.46 2144
76.3755 171.46 2144
81.7305 171.939 2150
87.0738 172.339 2155
92.7407 173.299 2167
97.9226 173.299 2167
103.342 173.699 2172
108.686 173.939 2175
114.044 174.179 2178
119.253 174.179 2178
124.918 174.818 2186
130.324 175.058 2189
135.93 175.538 2195
141.179 175.538 2195
147.229 176.498 2207
152.506 176.498 2207
157.784 176.498 2207
163.061 176.498 2207
168.568 176.738 2210
174.089 176.978 2213
179.786 177.378 2218
185.09 177.378 2218
190.394 177.378 2218
195.698 177.378 2218
201.001 177.378 2218
206.863 177.857 2224
212.182 177.857 2224
217.5 177.857 2224
223.419 178.337 2230
229.367 178.817 2236
234.714 178.817 2236
240.383 179.057 2239
245.738 179.057 2239
251.092 179.057 2239
256.446 179.057 2239
261.098 178.577 2233
266.08 178.337 2230
271.413 178.337 2230
276.745 178.337 2230
281.319 177.857 2224
286.251 177.617 2221
291.562 177.617 2221
296.071 177.138 2215
301.368 177.138 2215
451.752 252.231 3154
459.294 252.231 3154
466.837 252.231 3154
473.476 251.751 3148
471.989 247.033 3089
479.376 247.033 3089
483.296 245.274 3067
487.91 243.914 3050
491.632 242.155 3028
498.873 242.155 3028
505.111 241.675 3022
505.895 238.636 2984
512.171 238.236 2979
517.377 237.356 2968
524.475 237.356 2968
530.676 236.956 2963
536.854 236.557 2958
543.928 236.557 2958
551.001 236.557 2958
558.075 236.557 2958
564.193 236.157 2953
568.159 234.877 2937
575.183 234.877 2937
581.215 234.477 2932
587.223 234.078 2927
594.222 234.078 2927
601.222 234.078 2927
607.182 233.678 2922
614.169 233.678 2922
621.157 233.678 2922
628.144 233.678 2922
635.132 233.678 2922
642.119 233.678 2922
647.996 233.278 2917
654.971 233.278 2917
661.946 233.278 2917
668.922 233.278 2917
675.897 233.278 2917
682.873 233.278 2917
689.848 233.278 2917
696.824 233.278 2917
703.799 233.278 2917
710.774 233.278 2917
718.98 233.678 2922
725.968 233.678 2922
732.955 233.678 2922
739.942 233.678 2922
746.93 233.678 2922
753.917 233.678 2922
760.904 233.678 2922
767.892 233.678 2922
774.879 233.678 2922
781.867 233.678 2922
788.854 233.678 2922
795.841 233.678 2922
802.829 233.678 2922
809.816 233.678 2922
816.804 233.678 2922
823.791 233.678 2922
830.778 233.678 2922
837.766 233.678 2922
844.753 233.678 2922
851.741 233.678 2922
857.259 233.278 2917
864.234 233.278 2917
871.209 233.278 2917
874.873 232.398 2906
881.822 232.398 2906
888.771 232.398 2906
894.179 231.998 2901
901.117 231.998 2901
908.054 231.998 2901
914.991 231.998 2901
921.928 231.998 2901
928.865 231.998 2901
940.964 233.278 2917
947.939 233.278 2917
954.915 233.278 2917
954.965 231.598 2896
961.89 231.598 2896
1343.98 305.972 3826
1353.13 305.972 3826
1362.28 305.972 3826
1387.56 309.571 3871
1400.06 310.291 3880
1409.34 310.291 3880
1418.62 310.291 3880
1424.58 309.571 3871
1420.5 306.692 3835
1429.68 306.692 3835
1425.71 303.893 3800
1418.57 300.454 3757
1421.09 299.095 3740
1430.03 299.095 3740
1432.82 297.815 3724
1428.95 295.176 3691
1434.66 294.536 3683
1443.47 294.536 3683
1449.12 293.896 3675
1457.91 293.896 3675
1450.73 290.698 3635
1440.55 286.939 3588
1449.13 286.939 3588
1432.93 282.061 3527
1417.25 277.342 3468
1411.16 274.543 3433
1419.37 274.543 3433
1404.29 270.065 3377
1392.71 266.306 3330
1378.8 262.148 3278
1367.6 258.549 3233
1375.34 258.549 3233
1383.07 258.549 3233
1418.33 263.667 3297
1434.87 265.267 3317
1457.15 267.906 3350
1465.16 267.906 3350
1494.28 271.744 3398
1502.41 271.744 3398
1510.53 271.744 3398
1518.66 271.744 3398
1514.2 269.505 3370
1495.16 264.707 3310
1503.07 264.707 3310
1419.8 246.153 3078
1427.16 246.153 3078
1437.32 246.633 3084
1444.7 246.633 3084
1452.07 246.633 3084
1456.61 246.153 3078
1463.97 246.153 3078
1449.82 242.555 3033
1449.38 241.275 3017
1435.84 237.836 2974
1442.95 237.836 2974
1434.46 235.277 2942
1436.59 234.477 2932
1443.6 234.477 2932
1448.14 234.078 2927
1455.14 234.078 2927
1459.64 233.678 2922
1461.11 232.798 2911
1457.98 231.199 2891
1464.9 231.199 2891
1469.27 230.799 2886
1476.17 230.799 2886
1480.5 230.399 2881
1487.39 230.399 2881
1486.5 229.199 2866
1491.27 228.879 2862
1498.11 228.879 2862
1502.32 228.479 2857
1509.16 228.479 2857
1513.34 228.08 2852
1520.16 228.08 2852
1524.3 227.68 2847
1531.11 227.68 2847
1535.21 227.28 2842
1542.01 227.28 2842
1546.08 226.88 2837
1552.87 226.88 2837
1559.65 226.88 2837
1566.43 226.88 2837
1578.76 227.68 2847
1588.36 228.08 2852
1595.18 228.08 2852
1602 228.08 2852
1608.82 228.08 2852
1615.64 228.08 2852
1622.46 228.08 2852
1629.28 228.08 2852
1636.1 228.08 2852
1642.92 228.08 2852
1649.74 228.08 2852
1656.56 228.08 2852
1663.38 228.08 2852
1670.2 228.08 2852
1677.02 228.08 2852
1683.84 228.08 2852
1690.66 228.08 2852
1694.5 227.68 2847
1701.31 227.68 2847
1705.12 227.28 2842
1711.91 227.28 2842
1715.68 226.88 2837
1722.47 226.88 2837
1726.2 226.48 2832
1727.47 225.76 2823
1731.15 225.361 2818
1737.89 225.361 2818
1744.63 225.361 2818
1745.77 224.641 2809
1752.49 224.641 2809
1756.07 224.241 2804
1762.78 224.241 2804
1763.17 223.441 2794
1769.86 223.441 2794
1773.99 223.121 2790
1780.67 223.121 2790
1784.13 222.722 2785
1790.79 222.722 2785
1791.64 222.002 2776
1798.28 222.002 2776
1804.92 222.002 2776
1811.56 222.002 2776
1818.2 222.002 2776
1824.84 222.002 2776
1831.47 222.002 2776
1834.8 221.602 2771
1841.43 221.602 2771
1848.05 221.602 2771
1854.68 221.602 2771
1861.31 221.602 2771
1867.93 221.602 2771
1874.56 221.602 2771
1881.19 221.602 2771
1887.81 221.602 2771
1894.44 221.602 2771
1901.06 221.602 2771
1907.69 221.602 2771
1914.32 221.602 2771
1920.94 221.602 2771
1927.57 221.602 2771
1934.2 221.602 2771
1940.82 221.602 2771
1947.45 221.602 2771
1954.08 221.602 2771
1954.33 220.882 2762
1964.49 221.282 2767
1971.1 221.282 2767
1977.72 221.282 2767
1984.34 221.282 2767
1990.95 221.282 2767
1990.35 220.482 2757
1994.05 220.162 2753
2000.63 220.162 2753
2003.57 219.763 2748
2010.14 219.763 2748
2016.71 219.763 2748
2026.96 220.162 2753
2033.55 220.162 2753
2040.13 220.162 2753
2043 219.763 2748
2039.87 218.723 2735
2042.67 218.323 2730
2049.2 218.323 2730
2048.95 217.603 2721
2052.44 217.283 2717
2058.93 217.283 2717
2065.43 217.283 2717
2071.93 217.283 2717
2075.36 216.964 2713
-2106.16 231.699 2813
-2099.44 231.699 2813
-2092.71 231.699 2813
-2085.98 231.699 2813
-2082.95 232.111 2818
-2083.58 232.935 2828
-2076.82 232.935 2828
-2070.05 232.935 2828
-2063.29 232.935 2828
-2056.53 232.935 2828
-2049.77 232.935 2828
-2043 232.935 2828
-2018.96 230.958 2804
-2015.84 231.37 2809
-2011.99 231.699 2813
-2005.26 231.699 2813
-2002.09 232.111 2818
-1995.35 232.111 2818
-1988.61 232.111 2818
-1978.35 231.699 2813
-1971.63 231.699 2813
-1999.13 235.735 2862
-2005.51 237.3 2881
-1998.62 237.3 2881
-1995.19 237.712 2886
-1988.29 237.712 2886
-1981.39 237.712 2886
-1971.06 237.3 2881
-1953.95 236.065 2866
-1944.38 235.735 2862
-1991.69 242.325 2942
-1984.66 242.325 2942
-1995.1 244.466 2968
-1992.02 244.96 2974
-2009.6 248.008 3011
-2002.4 248.008 3011
-2013.76 250.314 3039
-2006.49 250.314 3039
-1999.22 250.314 3039
-1991.95 250.314 3039
-2220.32 303.359 3683
-2211.51 303.359 3683
-2202.7 303.359 3683
-2174.24 300.641 3650
-2165.51 300.641 3650
-2143.19 298.746 3627
-2129.81 298.087 3619
-2121.15 298.087 3619
-2112.5 298.087 3619
-2099.19 297.428 3611
-2081.3 296.111 3595
-2072.7 296.111 3595
-2064.1 296.111 3595
-2055.51 296.111 3595
-2046.91 296.111 3595
-2034.34 295.534 3588
-2025.76 295.534 3588
-1999.76 292.981 3557
-1999.65 294.216 3572
-1995.56 294.875 3580
-1987 294.875 3580
-1978.44 294.875 3580
-1965.48 294.216 3572
-1961.32 294.875 3580
-1960.94 296.111 3595
-1952.35 296.111 3595
-1943.75 296.111 3595
-1931.38 295.534 3588
-1926.56 296.111 3595
-1917.96 296.111 3595
-1909.36 296.111 3595
-1900.77 296.111 3595
-1892.17 296.111 3595
-1879.9 295.534 3588
-1867.15 294.875 3580
-1874.68 297.428 3611
-1866.05 297.428 3611
-1857.41 297.428 3611
-1856.97 298.746 3627
-1852.38 299.405 3635
-1843.68 299.405 3635
-1834.99 299.405 3635
-1837.85 301.3 3658
-1845.61 304.018 3691
-1853.2 306.736 3724
-1844.3 306.736 3724
-1847.71 308.795 3749
-1842.67 309.454 3757
-1863.46 314.478 3818
-1854.33 314.478 3818
-1862.12 317.361 3853
-1870.21 320.327 3889
-1860.91 320.327 3889
-1851.61 320.327 3889
-1612.62 303.359 3683
-1603.81 303.359 3683
-1595.01 303.359 3683
-1541.84 294.875 3580
-1533.28 294.875 3580
-1499.16 289.933 3520
-1484.39 288.697 3505
-1439.8 281.614 3419
-1431.62 281.614 3419
-1391.8 275.354 3343
-1375.53 273.707 3323
-1365.11 273.212 3317
-1357.18 273.212 3317
-1354.54 274.283 3330
-1346.58 274.283 3330
-1343.84 275.354 3343
-1335.84 275.354 3343
-1327.85 275.354 3343
-1319.86 275.354 3343
-1301.66 273.212 3317
-1285.93 271.565 3297
-1278.04 271.565 3297
-1260.14 269.424 3271
-1250.02 268.929 3265
-1222.81 264.729 3214
-1215.13 264.729 3214
-1193.92 261.763 3178
-1181.84 260.775 3166
-1165.36 258.798 3142
-1157.85 258.798 3142
-1145.94 257.81 3130
-1085.34 250.726 3044
-1078.06 250.726 3044
-1074.65 251.632 3055
-1067.35 251.632 3055
-1060.04 251.632 3055
-1048.95 250.726 3044
-1041.67 250.726 3044
-1030.65 249.82 3033
-1023.4 249.82 3033
-1016.14 249.82 3033
-1003.57 248.502 3017
-996.354 248.502 3017
-989.139 248.502 3017
-961.095 243.231 2953
-952.095 242.737 2947
-945.048 242.737 2947
-938.001 242.737 2947
-930.953 242.737 2947
-925.787 243.231 2953
-920.281 243.643 2958
-921.235 245.784 2984
-914.099 245.784 2984
-906.963 245.784 2984
-899.828 245.784 2984
-892.692 245.784 2984
-885.556 245.784 2984
-873.711 244.466 2968
-866.613 244.466 2968
-859.516 244.466 2968
-849.547 243.643 2958
-839.34 242.737 2947
-832.293 242.737 2947
-822.446 241.913 2937
-815.422 241.913 2937
-807.023 241.501 2932
-801.376 241.913 2937
-794.352 241.913 2937
-788.67 242.325 2942
-781.634 242.325 2942
-775.916 242.737 2947
-768.868 242.737 2947
-761.821 242.737 2947
-754.774 242.737 2947
-746.458 242.325 2942
-736.91 241.501 2932
-729.898 241.501 2932
-721.654 241.089 2927
-714.655 241.089 2927
-702.579 239.359 2906
-695.629 239.359 2906
-688.68 239.359 2906
-681.731 239.359 2906
-674.782 239.359 2906
-667.833 239.359 2906
-659.747 238.948 2901
-655.06 239.771 2911
-649.435 240.266 2917
-642.459 240.266 2917
-635.484 240.266 2917
-630.663 241.089 2927
-623.664 241.089 2927
-616.664 241.089 2927
-609.665 241.089 2927
-544.975 328.728 3991
-535.431 328.728 3991
-525.887 328.728 3991
-515.179 327.987 3982
-505.657 327.987 3982
-493.768 326.422 3963
-478.547 322.55 3916
-469.183 322.55 3916
-459.819 322.55 3916
-450.454 322.55 3916
-441.09 322.55 3916
-439.994 328.728 3991
-430.451 328.728 3991
-420.907 328.728 3991
-411.363 328.728 3991
-401.819 328.728 3991
-389.524 326.422 3963
-380.047 326.422 3963
-370.57 326.422 3963
-201.64 182.279 2213
-194.751 180.796 2195
-189.502 180.796 2195
-184.253 180.796 2195
-178.76 180.549 2192
-171.935 178.902 2172
-166.741 178.902 2172
-161.324 178.655 2169
-155.561 177.996 2161
-149.837 177.337 2153
-144.487 177.09 2150
-139.345 177.09 2150
-134.017 176.843 2147
-128.403 176.184 2139
-123.115 175.937 2136
-118.007 175.937 2136
-112.74 175.69 2133
-107.387 175.278 2128
-102.155 175.031 2125
-97.073 175.031 2125
-91.775 174.619 2120
-86.3783 173.96 2112
-81.2123 173.713 2109
-76.1691 173.713 2109
-71.1258 173.713 2109
-65.9886 173.466 2106
-60.8078 173.054 2101
-55.7836 173.054 2101
-50.687 172.807 2098
-45.6701 172.807 2098
-40.6531 172.807 2098
-35.6362 172.807 2098
-30.6192 172.807 2098
-25.5779 172.642 2096
-20.5657 172.642 2096
-15.5535 172.642 2096
-10.5413 172.642 2096
-5.52917 172.642 2096
-0.517003 172.642 2096
4.49946 172.807 2098
9.53002 173.054 2101
14.5541 173.054 2101
19.6062 173.301 2104
24.661 173.466 2106
29.697 173.466 2106
34.7331 173.466 2106
39.9203 174.125 2114
45.0393 174.372 2117
50.22 174.783 2122
55.2944 174.783 2122
60.5394 175.278 2128
65.8748 175.937 2136
71.2485 176.596 2144
76.3755 176.596 2144
81.8445 177.337 2153
87.1951 177.749 2158
92.8262 178.655 2169
98.013 178.655 2169
103.342 178.902 2172
108.686 179.149 2175
114.044 179.396 2178
119.253 179.396 2178
124.918 180.055 2186
130.324 180.302 2189
135.93 180.796 2195
141.179 180.796 2195
147.229 181.785 2207
152.714 182.032 2210
157.998 182.032 2210
163.283 182.032 2210
168.568 182.032 2210
174.089 182.279 2213
179.786 182.691 2218
185.09 182.691 2218
190.394 182.691 2218
195.698 182.691 2218
201.001 182.691 2218
206.584 182.938 2221
211.896 182.938 2221
217.5 183.185 2224
223.72 183.926 2233
229.367 184.173 2236
234.714 184.173 2236
240.383 184.42 2239
245.738 184.42 2239
251.092 184.42 2239
256.446 184.42 2239
261.098 183.926 2233
266.08 183.679 2230
271.413 183.679 2230
276.745 183.679 2230
281.319 183.185 2224
286.251 182.938 2221
291.562 182.938 2221
296.071 182.444 2215
301.368 182.444 2215
306.387 182.279 2213
311.679 182.279 2213
451.576 255.421 3101
458.992 255.421 3101
466.407 255.421 3101
472.906 254.927 3095
480.307 254.927 3095
482.35 252.126 3061
487.91 251.22 3050
491.632 249.408 3028
498.873 249.408 3028
505.111 248.914 3022
505.895 245.784 2984
512.171 245.372 2979
517.377 244.466 2968
524.475 244.466 2968
530.676 244.054 2963
536.854 243.643 2958
543.928 243.643 2958
551.001 243.643 2958
558.075 243.643 2958
564.193 243.231 2953
568.159 241.913 2937
575.183 241.913 2937
582.206 241.913 2937
587.223 241.089 2927
594.222 241.089 2927
601.222 241.089 2927
607.182 240.677 2922
614.169 240.677 2922
621.157 240.677 2922
628.144 240.677 2922
635.132 240.677 2922
642.119 240.677 2922
647.996 240.266 2917
654.971 240.266 2917
661.946 240.266 2917
668.922 240.266 2917
674.507 239.771 2911
681.468 239.771 2911
689.848 240.266 2917
696.824 240.266 2917
703.799 240.266 2917
710.774 240.266 2917
717.75 240.266 2917
724.725 240.266 2917
732.955 240.677 2922
739.942 240.677 2922
746.93 240.677 2922
753.917 240.677 2922
760.904 240.677 2922
767.892 240.677 2922
774.879 240.677 2922
781.867 240.677 2922
788.854 240.677 2922
795.841 240.677 2922
802.829 240.677 2922
809.816 240.677 2922
816.804 240.677 2922
823.791 240.677 2922
830.778 240.677 2922
837.766 240.677 2922
844.753 240.677 2922
851.741 240.677 2922
857.259 240.266 2917
864.234 240.266 2917
869.417 239.771 2911
874.873 239.359 2906
881.822 239.359 2906
888.771 239.359 2906
894.179 238.948 2901
901.117 238.948 2901
908.054 238.948 2901
914.991 238.948 2901
921.928 238.948 2901
928.865 238.948 2901
940.964 240.266 2917
947.939 240.266 2917
954.915 240.266 2917
954.965 238.536 2896
956.908 237.3 2881
1343.98 315.137 3826
1353.13 315.137 3826
1362.28 315.137 3826
1387.56 318.844 3871
1396.81 318.844 3871
1406.07 318.844 3871
1415.33 318.844 3871
1411.33 315.879 3835
1407.54 312.996 3800
1416.63 312.996 3800
1419.34 311.596 3783
1415.54 308.795 3749
1418.05 307.395 3732
1426.97 307.395 3732
1429.74 306.077 3716
1425.85 303.359 3683
1434.66 303.359 3683
1443.47 303.359 3683
1449.12 302.7 3675
1454.73 302.041 3667
1447.54 298.746 3627
1440.55 295.534 3588
1449.13 295.534 3588
1430.09 289.933 3520
1411.53 284.497 3454
1405.41 281.614 3419
1413.58 281.614 3419
1395.98 276.507 3357
1384.35 272.636 3310
1370.39 268.353 3258
1359.57 264.729 3214
1375.34 266.294 3233
1383.07 266.294 3233
1418.33 271.565 3297
1434.87 273.212 3317
1457.15 275.931 3350
1465.16 275.931 3350
1485.05 278.154 3377
1493.12 278.154 3377
1501.2 278.154 3377
1509.27 278.154 3377
1487.24 272.636 3310
1486.12 270.988 3290
1493.99 270.988 3290
1419.8 253.527 3078
1427.16 253.527 3078
1434.52 253.527 3078
1441.89 253.527 3078
1449.25 253.527 3078
1438.15 250.314 3039
1445.42 250.314 3039
1444.56 248.914 3022
1431.13 245.372 2979
1432.94 244.466 2968
1440.04 244.466 2968
1429.58 241.501 2932
1436.59 241.501 2932
1441.14 241.089 2927
1445.67 240.677 2922
1452.66 240.677 2922
1454.15 239.771 2911
1458.6 239.359 2906
1457.98 238.124 2891
1464.9 238.124 2891
1469.27 237.712 2886
1473.61 237.3 2881
1475.36 236.477 2871
1482.22 236.477 2871
1484.42 235.735 2862
1488.66 235.323 2857
1495.49 235.323 2857
1502.32 235.323 2857
1509.16 235.323 2857
1513.34 234.912 2852
1517.49 234.5 2847
1521.62 234.088 2842
1528.42 234.088 2842
1532.51 233.676 2837
1539.3 233.676 2837
1546.08 233.676 2837
1552.87 233.676 2837
1556.9 233.264 2832
1566.43 233.676 2837
1578.76 234.5 2847
1585.57 234.5 2847
1592.38 234.5 2847
1599.19 234.5 2847
1608.82 234.912 2852
1615.64 234.912 2852
1622.46 234.912 2852
1629.28 234.912 2852
1636.1 234.912 2852
1642.92 234.912 2852
1649.74 234.912 2852
1656.56 234.912 2852
1663.38 234.912 2852
1670.2 234.912 2852
1677.02 234.912 2852
1683.84 234.912 2852
1687.69 234.5 2847
1694.5 234.5 2847
1701.31 234.5 2847
1705.12 234.088 2842
1711.91 234.088 2842
1715.68 233.676 2837
1722.47 233.676 2837
1726.2 233.264 2832
1727.47 232.523 2823
1731.15 232.111 2818
1737.89 232.111 2818
1744.63 232.111 2818
1745.77 231.37 2809
1752.49 231.37 2809
1756.07 230.958 2804
1762.78 230.958 2804
1763.17 230.134 2794
1769.86 230.134 2794
1773.99 229.805 2790
1780.67 229.805 2790
1784.13 229.393 2785
1790.79 229.393 2785
1791.64 228.652 2776
1798.28 228.652 2776
1804.92 228.652 2776
1811.56 228.652 2776
1818.2 228.652 2776
1824.84 228.652 2776
1831.47 228.652 2776
1834.8 228.24 2771
1841.43 228.24 2771
1848.05 228.24 2771
1854.68 228.24 2771
1861.31 228.24 2771
1867.93 228.24 2771
1874.56 228.24 2771
1881.19 228.24 2771
1887.81 228.24 2771
1894.44 228.24 2771
1901.06 228.24 2771
1907.69 228.24 2771
1914.32 228.24 2771
1920.94 228.24 2771
1927.57 228.24 2771
1934.2 228.24 2771
1940.82 228.24 2771
1947.45 228.24 2771
1954.08 228.24 2771
1954.33 227.499 2762
1964.49 227.91 2767
1971.1 227.91 2767
1977.72 227.91 2767
1984.34 227.91 2767
1990.95 227.91 2767
1990.35 227.087 2757
1994.05 226.757 2753
2000.63 226.757 2753
2003.57 226.345 2748
2010.14 226.345 2748
2016.71 226.345 2748
2026.96 226.757 2753
2033.55 226.757 2753
2040.13 226.757 2753
2043 226.345 2748
2039.87 225.275 2735
2042.67 224.863 2730
2049.2 224.863 2730
2048.95 224.122 2721
2052.44 223.792 2717
2058.93 223.792 2717
2065.43 223.792 2717
2071.93 223.792 2717
2075.36 223.463 2713
-2109.91 238.862 2818
-2103.17 238.862 2818
-2096.43 238.862 2818
-2085.98 238.438 2813
-2082.95 238.862 2818
-2083.58 239.709 2828
-2076.82 239.709 2828
-2070.05 239.709 2828
-2063.29 239.709 2828
-2056.53 239.709 2828
-2049.77 239.709 2828
-2043 239.709 2828
-2022.56 238.099 2809
-2018.71 238.438 2813
-2011.99 238.438 2813
-2005.26 238.438 2813
-2002.09 238.862 2818
-1995.35 238.862 2818
-1988.61 238.862 2818
-1978.35 238.438 2813
-1971.63 238.438 2813
-1999.13 242.591 2862
-2005.51 244.202 2881
-1998.62 244.202 2881
-1995.19 244.626 2886
-1991.73 245.049 2891
-1984.82 245.049 2891
-1977.9 245.049 2891
-1957.36 243.354 2871
-1950.49 243.354 2871
-1991.69 249.372 2942
-1984.66 249.372 2942
-1995.1 251.576 2968
-1992.02 252.085 2974
-2009.6 255.221 3011
-2002.4 255.221 3011
-2013.76 257.594 3039
-2006.49 257.594 3039
-1999.22 257.594 3039
-2013.58 260.391 3072
-2006.24 260.391 3072
-1998.89 260.391 3072
-2220.32 312.182 3683
-2211.51 312.182 3683
-2202.7 312.182 3683
-2189.13 311.503 3675
-2180.34 311.503 3675
-2143.19 307.435 3627
-2129.81 306.757 3619
-2121.15 306.757 3619
-2112.5 306.757 3619
-2094.54 305.401 3603
-2077.24 304.129 3588
-2068.66 304.129 3588
-2060.08 304.129 3588
-2051.5 304.129 3588
-2042.92 304.129 3588
-2029.81 303.451 3580
-2021.25 303.451 3580
-2004.25 302.18 3565
-1999.65 302.773 3572
-1991.11 302.773 3572
-1982.56 302.773 3572
-1974.02 302.773 3572
-1961.63 302.18 3565
-1956.94 302.773 3572
-1952.76 303.451 3580
-1944.2 303.451 3580
-1939.96 304.129 3588
-1931.38 304.129 3588
-1926.56 304.722 3595
-1917.96 304.722 3595
-1909.36 304.722 3595
-1900.77 304.722 3595
-1892.17 304.722 3595
-1879.9 304.129 3588
-1871.32 304.129 3588
-1874.68 306.079 3611
-1874.32 307.435 3627
-1865.64 307.435 3627
-1861.07 308.113 3635
-1860.02 309.384 3650
-1855.35 310.062 3658
-1846.6 310.062 3658
-1842.38 310.825 3667
-1862.11 315.657 3724
-1869.62 318.454 3757
-1860.64 318.454 3757
-1856.09 319.217 3766
-1868.18 322.862 3809
-1880.54 326.591 3853
-1871.33 326.591 3853
-1879.51 329.643 3889
-1887.53 332.694 3925
-1878.14 332.694 3925
-1868.76 332.694 3925
-1612.62 312.182 3683
-1603.81 312.182 3683
-1595.01 312.182 3683
-1541.84 303.451 3580
-1533.28 303.451 3580
-1502.14 298.959 3527
-1487.36 297.687 3512
-1442.74 290.397 3426
-1434.55 290.397 3426
-1394.72 283.956 3350
-1378.43 282.26 3330
-1362.23 280.565 3310
-1357.18 281.158 3317
-1354.54 282.26 3330
-1346.58 282.26 3330
-1346.65 283.956 3350
-1338.64 283.956 3350
-1330.63 283.956 3350
-1322.62 283.956 3350
-1301.66 281.158 3317
-1283.2 278.87 3290
-1275.33 278.87 3290
-1260.14 277.259 3271
-1247.34 276.157 3258
-1220.53 271.919 3208
-1212.86 271.919 3208
-1191.66 268.868 3172
-1181.84 268.359 3166
-1165.36 266.325 3142
-1157.85 266.325 3142
-1145.94 265.308 3130
-1089.26 258.95 3055
-1081.96 258.95 3055
-1076.76 259.459 3061
-1069.44 259.459 3061
-1062.12 259.459 3061
-1052.74 258.95 3055
-1045.43 258.95 3055
-1032.69 257.594 3039
-1025.42 257.594 3039
-1018.15 257.594 3039
-1008.89 257.086 3033
-1001.64 257.086 3033
-994.385 257.086 3033
-961.095 250.305 2953
-952.095 249.796 2947
-945.048 249.796 2947
-938.001 249.796 2947
-930.953 249.796 2947
-925.787 250.305 2953
-926.815 252.508 2979
-923.087 253.441 2990
-915.937 253.441 2990
-915.17 255.221 3011
-909.779 255.729 3017
-902.564 255.729 3017
-895.35 255.729 3017
-884.897 254.797 3006
-873.037 253.441 2990
-865.887 253.441 2990
-857.014 252.932 2984
-845.321 251.576 2968
-838.224 251.576 2968
-831.126 251.576 2968
-818.199 249.796 2947
-808.399 248.948 2937
-802.74 249.372 2942
-797.057 249.796 2947
-790.01 249.796 2947
-782.963 249.796 2947
-778.812 250.728 2958
-771.738 250.728 2958
-764.665 250.728 2958
-754.774 249.796 2947
-746.458 249.372 2942
-736.91 248.525 2932
-729.898 248.525 2932
-721.654 248.101 2927
-714.655 248.101 2927
-702.579 246.321 2906
-695.629 246.321 2906
-688.68 246.321 2906
-681.731 246.321 2906
-674.782 246.321 2906
-667.833 246.321 2906
-659.747 245.897 2901
-655.06 246.745 2911
-649.435 247.253 2917
-644.662 248.101 2927
-637.662 248.101 2927
-630.663 248.101 2927
-624.729 248.525 2932
-617.718 248.525 2932
-610.706 248.525 2932
-580.219 331.168 3907
-570.876 331.168 3907
-561.533 331.168 3907
-551.879 336.678 3972
-544.975 338.288 3991
-535.431 338.288 3991
-525.887 338.288 3991
-516.344 338.288 3991
-506.8 338.288 3991
-496.135 337.526 3982
-484.291 335.915 3963
-471.46 333.542 3935
-459.819 331.931 3916
-450.454 331.931 3916
-441.09 331.931 3916
-439.994 338.288 3991
-430.451 338.288 3991
-420.907 338.288 3991
-411.363 338.288 3991
-401.819 338.288 3991
-389.524 335.915 3963
-380.047 335.915 3963
-370.57 335.915 3963
-203.189 189.021 2230
-196.348 187.58 2213
-191.056 187.58 2213
-184.253 186.054 2195
-179.004 186.054 2195
-172.885 185.122 2184
-167.662 185.122 2184
-161.547 184.105 2172
-155.561 183.172 2161
-150.185 182.918 2158
-144.487 182.24 2150
-139.345 182.24 2150
-134.017 181.986 2147
-128.583 181.562 2142
-123.115 181.053 2136
-118.007 181.053 2136
-112.74 180.799 2133
-107.387 180.375 2128
-102.155 180.121 2125
-97.073 180.121 2125
-91.775 179.697 2120
-86.4601 179.189 2114
-81.3279 179.019 2112
-76.2774 179.019 2112
-71.1258 178.765 2109
-65.9886 178.511 2106
-60.8078 178.087 2101
-55.7836 178.087 2101
-50.7595 178.087 2101
-45.7354 178.087 2101
-40.7113 178.087 2101
-35.6871 178.087 2101
-30.663 178.087 2101
-25.6023 177.832 2098
-20.5657 177.663 2096
-15.5535 177.663 2096
-10.5514 177.832 2098
-5.53445 177.832 2098
-0.517496 177.832 2098
4.49946 177.832 2098
9.54363 178.341 2104
14.5749 178.341 2104
19.6062 178.341 2104
24.661 178.511 2106
29.7393 178.765 2109
34.7826 178.765 2109
39.9203 179.189 2114
45.1031 179.697 2120
50.22 179.867 2122
55.2944 179.867 2122
60.5394 180.375 2128
65.8748 181.053 2136
71.2485 181.732 2144
76.3755 181.732 2144
81.8445 182.494 2153
87.1951 182.918 2158
92.8262 183.851 2169
98.013 183.851 2169
103.485 184.359 2175
108.836 184.613 2178
114.359 185.122 2184
119.581 185.122 2184
124.918 185.292 2186
130.503 185.8 2192
136.116 186.309 2198
141.372 186.309 2198
147.429 187.326 2210
152.714 187.326 2210
158.213 187.58 2213
163.505 187.58 2213
168.797 187.58 2213
174.246 187.75 2215
179.786 188.004 2218
185.09 188.004 2218
190.394 188.004 2218
195.698 188.004 2218
201.001 188.004 2218
206.584 188.258 2221
211.896 188.258 2221
217.5 188.513 2224
223.72 189.275 2233
229.367 189.53 2236
234.714 189.53 2236
240.061 189.53 2236
245.408 189.53 2236
250.755 189.53 2236
256.102 189.53 2236
260.748 189.021 2230
265.722 188.767 2227
271.048 188.767 2227
276.373 188.767 2227
280.94 188.258 2221
285.864 188.004 2218
291.168 188.004 2218
296.071 187.75 2215
301.368 187.75 2215
306.387 187.58 2213
311.679 187.58 2213
313.104 185.292 2186
450.703 262.341 3095
458.104 262.341 3095
465.505 262.341 3095
472.906 262.341 3095
480.307 262.341 3095
482.35 259.459 3061
486.951 258.018 3044
491.632 256.662 3028
498.873 256.662 3028
503.272 255.221 3011
505.895 252.932 2984
511.311 252.085 2974
517.377 251.576 2968
524.475 251.576 2968
530.676 251.152 2963
536.854 250.728 2958
543.928 250.728 2958
551.001 250.728 2958
558.075 250.728 2958
564.193 250.305 2953
568.159 248.948 2937
575.183 248.948 2937
582.206 248.948 2937
587.223 248.101 2927
593.207 247.677 2922
600.195 247.677 2922
607.182 247.677 2922
614.169 247.677 2922
621.157 247.677 2922
628.144 247.677 2922
635.132 247.677 2922
641.02 247.253 2917
647.996 247.253 2917
654.971 247.253 2917
661.946 247.253 2917
668.922 247.253 2917
674.507 246.745 2911
681.468 246.745 2911
688.429 246.745 2911
695.39 246.745 2911
702.351 246.745 2911
710.774 247.253 2917
717.75 247.253 2917
724.725 247.253 2917
732.955 247.677 2922
739.942 247.677 2922
746.93 247.677 2922
753.917 247.677 2922
760.904 247.677 2922
767.892 247.677 2922
774.879 247.677 2922
781.867 247.677 2922
788.854 247.677 2922
795.841 247.677 2922
802.829 247.677 2922
809.816 247.677 2922
816.804 247.677 2922
823.791 247.677 2922
830.778 247.677 2922
837.766 247.677 2922
844.753 247.677 2922
851.741 247.677 2922
857.259 247.253 2917
864.234 247.253 2917
869.417 246.745 2911
874.873 246.321 2906
881.822 246.321 2906
888.771 246.321 2906
894.179 245.897 2901
901.117 245.897 2901
908.054 245.897 2901
914.991 245.897 2901
921.928 245.897 2901
933.988 247.253 2917
940.964 247.253 2917
947.939 247.253 2917
954.915 247.253 2917
954.965 245.473 2896
1343.98 324.303 3826
1353.13 324.303 3826
1362.28 324.303 3826
1371.43 324.303 3826
1380.57 324.303 3826
1380.28 322.099 3800
1389.37 322.099 3800
1398.45 322.099 3800
1401.24 320.658 3783
1410.29 320.658 3783
1406.58 317.776 3749
1412.15 317.013 3740
1415.01 315.657 3724
1423.92 315.657 3724
1420.12 312.86 3691
1422.76 311.503 3675
1428.43 310.825 3667
1437.2 310.825 3667
1442.42 310.062 3658
1442.04 308.113 3635
1441.15 306.079 3611
1424.9 300.823 3549
1433.38 300.823 3549
1417.9 295.822 3490
1402.95 290.991 3433
1396.77 288.024 3398
1404.9 288.024 3398
1401.38 285.651 3370
1387.27 281.158 3317
1373.33 276.751 3265
1362.53 273.021 3221
1372.78 273.53 3227
1380.5 273.53 3227
1418.33 279.463 3297
1431.84 280.565 3310
1442.8 281.158 3317
1450.73 281.158 3317
1473.17 283.956 3350
1481.18 283.956 3350
1489.19 283.956 3350
1497.21 283.956 3350
1481.4 279.463 3297
1474.83 276.751 3265
1482.64 276.751 3265
1467.17 272.428 3214
1455.58 268.868 3172
1463.16 268.868 3172
1427.16 260.9 3078
1434.52 260.9 3078
1431.11 258.95 3055
1422.88 256.153 3022
1427.74 255.729 3017
1434.95 255.729 3017
1424 252.508 2979
1428.73 252.085 2974
1417.97 248.948 2937
1420.14 248.101 2927
1427.14 248.101 2927
1429.24 247.253 2917
1436.22 247.253 2917
1440.23 246.745 2911
1447.19 246.745 2911
1451.65 246.321 2906
1453.58 245.473 2896
1455.46 244.626 2886
1462.36 244.626 2886
1464.17 243.778 2876
1468.49 243.354 2871
1470.73 242.591 2862
1477.58 242.591 2862
1481.83 242.167 2857
1488.66 242.167 2857
1492.88 241.744 2852
1499.7 241.744 2852
1506.52 241.744 2852
1510.68 241.32 2847
1514.83 240.896 2842
1518.94 240.472 2837
1525.73 240.472 2837
1532.51 240.472 2837
1536.58 240.048 2832
1543.36 240.048 2832
1550.13 240.048 2832
1556.9 240.048 2832
1566.43 240.472 2837
1573.22 240.472 2837
1585.57 241.32 2847
1592.38 241.32 2847
1599.19 241.32 2847
1606 241.32 2847
1612.8 241.32 2847
1622.46 241.744 2852
1629.28 241.744 2852
1636.1 241.744 2852
1642.92 241.744 2852
