ply
format ascii 1.0
comment File generated
element vertex 2149
property float x
property float y
property float z
end_header
1599.52 -53.2986 3363
1607.56 -53.2986 3363
1629.05 -53.7424 3391
1637.16 -53.7424 3391
1645.27 -53.7424 3391
1633.39 -53.0926 3350
1644.83 -53.2035 3357
1659.26 -53.4096 3370
1667.32 -53.4096 3370
1675.38 -53.4096 3370
1676.94 -53.2035 3357
1681.46 -53.0926 3350
1689.47 -53.0926 3350
1690.89 -52.8866 3337
1705.49 -53.0926 3350
1713.5 -53.0926 3350
1721.51 -53.0926 3350
1725.91 -52.9816 3343
1727.16 -52.7756 3330
1724.7 -52.4586 3310
1719.01 -52.0466 3284
1726.86 -52.0466 3284
1731.54 -51.9515 3278
1739.38 -51.9515 3278
1747.22 -51.9515 3278
1755.06 -51.9515 3278
1755.91 -51.7455 3265
1753.45 -51.4443 3246
1757.41 -51.3334 3239
1765.16 -51.3334 3239
1749.37 -50.6519 3196
1740.52 -50.1765 3166
1728.21 -49.6059 3130
1716.29 -49.0512 3095
1723.69 -49.0512 3095
1712.07 -48.5124 3061
1697.49 -47.8943 3022
1689.48 -47.4664 2995
1696.64 -47.4664 2995
1662.28 -46.3094 2922
1640.13 -45.5011 2871
1641.83 -45.3585 2862
1640.04 -45.1208 2847
1646.84 -45.1208 2847
1642.62 -44.8197 2828
1640.63 -44.5819 2813
1639.16 -44.36 2799
1645.85 -44.36 2799
1647.23 -44.2174 2790
1647.97 -44.0589 2780
1649.27 -43.9163 2771
1655.89 -43.9163 2771
1657.12 -43.7737 2762
1658.3 -43.631 2753
1661.86 -43.5518 2748
1666 -43.4884 2744
1672.57 -43.4884 2744
1676.07 -43.4091 2739
1682.62 -43.4091 2739
1683.62 -43.2665 2730
1690.15 -43.2665 2730
1696.67 -43.2665 2730
1700.71 -43.2031 2726
1704.09 -43.1239 2721
1710.6 -43.1239 2721
1717.11 -43.1239 2721
1723.61 -43.1239 2721
1727.58 -43.0605 2717
1734.07 -43.0605 2717
1740.57 -43.0605 2717
1747.07 -43.0605 2717
1750.98 -42.9971 2713
1754.23 -42.9178 2708
1760.71 -42.9178 2708
1764.57 -42.8544 2704
1767.77 -42.7752 2699
1771.59 -42.7118 2695
1778.03 -42.7118 2695
1775.87 -42.5058 2682
1782.28 -42.5058 2682
1782.7 -42.3631 2673
1789.09 -42.3631 2673
1790.11 -42.2363 2665
1796.48 -42.2363 2665
1802.85 -42.2363 2665
1809.22 -42.2363 2665
1815.6 -42.2363 2665
1819.24 -42.1729 2661
1825.6 -42.1729 2661
1828.52 -42.0937 2656
1834.87 -42.0937 2656
1841.22 -42.0937 2656
1847.57 -42.0937 2656
1853.92 -42.0937 2656
1860.28 -42.0937 2656
1863.82 -42.0303 2652
1870.16 -42.0303 2652
1879.33 -42.0937 2656
1885.68 -42.0937 2656
1892.03 -42.0937 2656
1892.67 -41.9669 2648
1899 -41.9669 2648
1902.45 -41.9035 2644
1908.77 -41.9035 2644
1915.1 -41.9035 2644
1921.42 -41.9035 2644
1927.74 -41.9035 2644
1934.07 -41.9035 2644
1940.39 -41.9035 2644
1943.77 -41.8401 2640
1946.38 -41.7609 2635
1952.69 -41.7609 2635
1958.99 -41.7609 2635
1962.3 -41.6975 2631
1968.6 -41.6975 2631
1971.89 -41.6341 2627
1978.17 -41.6341 2627
1984.45 -41.6341 2627
1990.73 -41.6341 2627
1990.93 -41.5073 2619
1997.19 -41.5073 2619
1994.28 -41.3171 2607
-2064.23 -37.09 2757
-2057.64 -37.09 2757
-2051.05 -37.09 2757
-2041.49 -37.0362 2753
-2034.91 -37.0362 2753
-2024.64 -36.9689 2748
-2018.07 -36.9689 2748
-2011.5 -36.9689 2748
-2002.01 -36.9151 2744
-1991.81 -36.8478 2739
-1985.26 -36.8478 2739
-1972.21 -36.7268 2730
-1959.2 -36.6057 2721
-1956.28 -36.6729 2726
-1949.76 -36.6729 2726
-1943.24 -36.6729 2726
-1936.72 -36.6729 2726
-1959.24 -37.2245 2767
-1971.67 -37.5878 2794
-1964.99 -37.5878 2794
-1991.95 -38.2335 2842
-1999.13 -38.5026 2862
-2034.05 -39.3097 2922
-2027.06 -39.3097 2922
-2020.08 -39.3097 2922
-2227.35 -43.4936 3233
-2219.62 -43.4936 3233
-2237.89 -44.0048 3271
-2243.02 -44.2605 3290
-2239.91 -44.3546 3297
-2232.02 -44.3546 3297
-2224.14 -44.3546 3297
-2326.49 -46.5609 3461
-2337.64 -46.9511 3490
-2329.3 -46.9511 3490
-2330.93 -47.1529 3505
-2332.48 -47.3546 3520
-2324.07 -47.3546 3520
-2315.65 -47.3546 3520
-2316.41 -47.543 3534
-2307.96 -47.543 3534
-2299.51 -47.543 3534
-2281.98 -47.3546 3520
-2268.4 -47.247 3512
-2269.65 -47.4488 3527
-2265.7 -47.543 3534
-2257.25 -47.543 3534
-2253.89 -47.6506 3542
-2245.42 -47.6506 3542
-2241.37 -47.7448 3549
-2232.89 -47.7448 3549
-2234.43 -47.96 3565
-2230.27 -48.0542 3572
-2221.73 -48.0542 3572
-2213.19 -48.0542 3572
-2200.33 -47.96 3565
-2186.88 -47.8524 3557
-2178.38 -47.8524 3557
-2169.87 -47.8524 3557
-2170.48 -48.0542 3572
-2175.86 -48.3636 3595
-2172.09 -48.4712 3603
-2163.47 -48.4712 3603
-2154.85 -48.4712 3603
-2155.77 -48.6865 3619
-2165.51 -49.1035 3650
-2156.78 -49.1035 3650
-2162.76 -49.4399 3675
-2153.98 -49.4399 3675
-2145.19 -49.4399 3675
-2121.87 -49.1035 3650
-2113.14 -49.1035 3650
-2095.76 -48.9017 3635
-2087.07 -48.9017 3635
-2073.8 -48.7941 3627
-2056.02 -48.5789 3611
-2038.31 -48.3636 3595
-2038.75 -48.5789 3611
-2030.11 -48.5789 3611
-2021.48 -48.5789 3611
-2012.84 -48.5789 3611
-2004.21 -48.5789 3611
-1986.73 -48.3636 3595
-1969.88 -48.1618 3580
-1961.32 -48.1618 3580
-1952.76 -48.1618 3580
-1944.2 -48.1618 3580
-1935.64 -48.1618 3580
-1922.77 -48.0542 3572
-1914.23 -48.0542 3572
-1905.69 -48.0542 3572
-1897.15 -48.0542 3572
-1888.6 -48.0542 3572
-1880.06 -48.0542 3572
-1871.52 -48.0542 3572
-1859.33 -47.96 3565
-1850.8 -47.96 3565
-1845.9 -48.0542 3572
-1837.35 -48.0542 3572
-1828.81 -48.0542 3572
-1820.27 -48.0542 3572
-1811.73 -48.0542 3572
-1795.61 -47.8524 3557
-1787.11 -47.8524 3557
-1782.6 -47.96 3565
-1777.56 -48.0542 3572
-1769.02 -48.0542 3572
-1760.48 -48.0542 3572
-1748.5 -47.96 3565
-1736.07 -47.8524 3557
-1727.57 -47.8524 3557
-1719.06 -47.8524 3557
-1706.71 -47.7448 3549
-1698.22 -47.7448 3549
-1689.74 -47.7448 3549
-1681.25 -47.7448 3549
-1676.53 -47.8524 3557
-1675.06 -48.0542 3572
-1666.52 -48.0542 3572
-1657.98 -48.0542 3572
-1649.44 -48.0542 3572
-1640.89 -48.0542 3572
-1632.35 -48.0542 3572
-1616.99 -47.8524 3557
-1615.27 -48.0542 3572
-1606.73 -48.0542 3572
-1598.19 -48.0542 3572
-1589.64 -48.0542 3572
-1581.1 -48.0542 3572
-1565.96 -47.8524 3557
-1557.45 -47.8524 3557
-1545.46 -47.7448 3549
-1533.94 -47.6506 3542
-1522.03 -47.543 3534
-1513.58 -47.543 3534
-1499.16 -47.3546 3520
-1484.39 -47.1529 3505
-1463.8 -46.7627 3476
-1455.49 -46.7627 3476
-1440.93 -46.5609 3461
-1421.06 -46.1842 3433
-1395.57 -45.6192 3391
-1387.46 -45.6192 3391
-1370.81 -45.3367 3370
-1343.74 -44.7044 3323
-1314.89 -44.0048 3271
-1284.3 -43.238 3214
-1276.61 -43.238 3214
-1249.97 -42.5923 3166
-1230.63 -42.1887 3136
-1211.82 -41.7985 3107
-1204.39 -41.7985 3107
-1185.79 -41.4084 3078
-1167.71 -41.0317 3050
-1145.58 -40.5071 3011
-1138.38 -40.5071 3011
-1121.03 -40.1438 2984
-1107.92 -39.9286 2968
-1097.12 -39.794 2958
-1097.78 -40.0766 2979
-1092.49 -40.1438 2984
-1085.35 -40.1438 2984
-1078.22 -40.1438 2984
-1071.08 -40.1438 2984
-1063.95 -40.1438 2984
-1053.27 -40.0093 2974
-1046.16 -40.0093 2974
-1035.2 -39.8613 2963
-1028.12 -39.8613 2963
-1019.31 -39.794 2958
-1006.76 -39.5788 2942
-998.027 -39.5115 2937
-991.004 -39.5115 2937
-983.98 -39.5115 2937
-973.631 -39.377 2927
-966.631 -39.377 2927
-959.632 -39.377 2927
-952.633 -39.377 2927
-945.633 -39.377 2927
-938.634 -39.377 2927
-931.635 -39.377 2927
-924.635 -39.377 2927
-917.636 -39.377 2927
-909.081 -39.3097 2922
-902.094 -39.3097 2922
-891.737 -39.1618 2911
-884.776 -39.1618 2911
-879.624 -39.2425 2917
-872.648 -39.2425 2917
-865.673 -39.2425 2917
-858.698 -39.2425 2917
-851.722 -39.2425 2917
-844.747 -39.2425 2917
-837.771 -39.2425 2917
-830.796 -39.2425 2917
-823.82 -39.2425 2917
-815.165 -39.1618 2911
-808.204 -39.1618 2911
-801.243 -39.1618 2911
-794.282 -39.1618 2911
-787.32 -39.1618 2911
-780.359 -39.1618 2911
-773.398 -39.1618 2911
-766.437 -39.1618 2911
-758.172 -39.0945 2906
-751.222 -39.0945 2906
-744.273 -39.0945 2906
-737.324 -39.0945 2906
-729.118 -39.0272 2901
-722.181 -39.0272 2901
-714.011 -38.96 2896
-705.865 -38.8927 2891
-697.743 -38.8254 2886
-690.842 -38.8254 2886
-681.571 -38.6909 2876
-673.52 -38.6236 2871
-665.494 -38.5564 2866
-658.641 -38.5564 2866
-651.787 -38.5564 2866
-644.934 -38.5564 2866
-637.19 -38.5026 2862
-630.346 -38.5026 2862
-623.502 -38.5026 2862
-616.658 -38.5026 2862
-611.732 -38.6236 2871
-605.919 -38.6909 2876
-602.167 -38.8927 2891
-595.253 -38.8927 2891
-591.393 -39.0945 2906
-604.555 -40.4398 3006
-597.367 -40.4398 3006
-590.179 -40.4398 3006
-621.003 -43.0766 3202
-627.904 -44.099 3278
-620.065 -44.099 3278
-619.51 -44.6237 3317
-615.266 -44.8927 3337
-608.378 -44.9735 3343
-600.384 -44.9735 3343
-592.39 -44.9735 3343
-586.843 -45.1618 3357
-582.264 -45.4309 3377
-574.189 -45.4309 3377
-566.113 -45.4309 3377
-560.351 -45.6192 3391
-554.522 -45.8075 3405
-546.38 -45.8075 3405
-540.45 -45.9959 3419
-534.454 -46.1842 3433
-527.318 -46.2784 3440
-519.092 -46.2784 3440
-510.866 -46.2784 3440
-504.685 -46.4667 3454
-497.432 -46.5609 3461
-489.155 -46.5609 3461
-480.879 -46.5609 3461
-471.647 -46.4667 3454
-463.387 -46.4667 3454
-455.128 -46.4667 3454
-446.868 -46.4667 3454
-440.387 -46.6551 3468
-432.093 -46.6551 3468
-423.8 -46.6551 3468
-416.466 -46.7627 3476
-408.154 -46.7627 3476
-399.842 -46.7627 3476
-391.529 -46.7627 3476
-226.226 -27.6056 2052
-222.182 -27.7132 2060
-217.256 -27.7132 2060
-212.33 -27.7132 2060
-206.598 -27.6056 2052
-200.905 -27.498 2044
-195.825 -27.4711 2042
-191.41 -27.5383 2047
-186.515 -27.5383 2047
-182.507 -27.6729 2057
-178.02 -27.7401 2062
-173.76 -27.8478 2070
-168.811 -27.8478 2070
-164.89 -28.0227 2083
-160.062 -28.0496 2085
-155.671 -28.1572 2093
-150.666 -28.1572 2093
-146.009 -28.2244 2098
-141.194 -28.2648 2101
-136.688 -28.3724 2109
-131.645 -28.3724 2109
-127.082 -28.4801 2117
-122.308 -28.5473 2122
-117.233 -28.5473 2122
-112.159 -28.5473 2122
-107.387 -28.628 2128
-102.539 -28.6953 2133
-97.4385 -28.6953 2133
-92.3378 -28.6953 2133
-87.2372 -28.6953 2133
-82.0595 -28.6684 2131
-76.9636 -28.6684 2131
-71.7666 -28.628 2128
-66.5839 -28.5877 2125
-61.4156 -28.5473 2122
-56.3412 -28.5473 2122
-51.1461 -28.4801 2117
-46.0184 -28.4397 2114
-40.9632 -28.4397 2114
-35.9079 -28.4397 2114
-30.8235 -28.4128 2112
-25.7365 -28.3724 2109
-20.6932 -28.3724 2109
-15.65 -28.3724 2109
-10.6218 -28.4128 2112
-5.57138 -28.4128 2112
-0.520949 -28.4128 2112
4.52948 -28.4128 2112
9.57992 -28.4128 2112
14.6303 -28.4128 2112
19.6994 -28.4397 2114
24.7898 -28.4801 2117
29.8521 -28.4801 2117
34.9145 -28.4801 2117
39.9769 -28.4801 2117
45.1457 -28.5473 2122
50.291 -28.5877 2125
55.3726 -28.5877 2125
60.4541 -28.5877 2125
65.5356 -28.5877 2125
70.6171 -28.5877 2125
75.6986 -28.5877 2125
81.0082 -28.6684 2131
86.1041 -28.6684 2131
91.2856 -28.6953 2133
96.3862 -28.6953 2133
101.487 -28.6953 2133
106.588 -28.6953 2133
111.845 -28.7357 2136
116.953 -28.7357 2136
122.404 -28.8164 2142
127.824 -28.8836 2147
132.958 -28.8836 2147
138.478 -28.9644 2153
143.626 -28.9644 2153
148.913 -28.9913 2155
154.281 -29.0316 2158
159.663 -29.072 2161
164.83 -29.072 2161
170.627 -29.1796 2169
176.057 -29.22 2172
181.752 -29.3007 2178
186.96 -29.3007 2178
193.139 -29.4487 2189
198.917 -29.5294 2195
205.282 -29.6908 2207
210.56 -29.6908 2207
217.793 -29.9599 2227
224.021 -30.081 2236
231.932 -30.4173 2261
237.339 -30.4173 2261
244.034 -30.5787 2273
250.786 -30.7402 2285
257.035 -30.8343 2292
262.516 -30.8343 2292
269.4 -30.9958 2304
276.103 -31.1303 2314
282.367 -31.211 2320
287.915 -31.211 2320
294.348 -31.3052 2327
299.912 -31.3052 2327
307.184 -31.4801 2340
312.779 -31.4801 2340
319.735 -31.6146 2350
325.355 -31.6146 2350
331.397 -31.655 2353
337.024 -31.655 2353
342.651 -31.655 2353
348.277 -31.655 2353
353.904 -31.655 2353
453.459 -39.3097 2922
460.447 -39.3097 2922
467.434 -39.3097 2922
475.233 -39.377 2927
483.057 -39.4443 2932
490.068 -39.4443 2932
497.079 -39.4443 2932
504.09 -39.4443 2932
510.23 -39.377 2927
517.229 -39.377 2927
523.333 -39.3097 2922
528.324 -39.1618 2911
534.366 -39.0945 2906
541.315 -39.0945 2906
547.321 -39.0272 2901
553.303 -38.96 2896
560.228 -38.96 2896
567.153 -38.96 2896
573.087 -38.8927 2891
580 -38.8927 2891
585.899 -38.8254 2886
592.8 -38.8254 2886
599.701 -38.8254 2886
606.603 -38.8254 2886
612.441 -38.7582 2881
619.33 -38.7582 2881
626.22 -38.7582 2881
633.109 -38.7582 2881
639.998 -38.7582 2881
646.888 -38.7582 2881
653.777 -38.7582 2881
660.666 -38.7582 2881
667.556 -38.7582 2881
674.445 -38.7582 2881
681.334 -38.7582 2881
688.224 -38.7582 2881
695.113 -38.7582 2881
702.003 -38.7582 2881
708.892 -38.7582 2881
715.781 -38.7582 2881
723.925 -38.8254 2886
730.826 -38.8254 2886
737.727 -38.8254 2886
744.629 -38.8254 2886
751.53 -38.8254 2886
757.117 -38.7582 2881
764.007 -38.7582 2881
769.558 -38.6909 2876
776.435 -38.6909 2876
783.313 -38.6909 2876
790.19 -38.6909 2876
797.068 -38.6909 2876
803.945 -38.6909 2876
810.822 -38.6909 2876
817.7 -38.6909 2876
824.577 -38.6909 2876
831.455 -38.6909 2876
838.332 -38.6909 2876
845.209 -38.6909 2876
852.087 -38.6909 2876
858.964 -38.6909 2876
865.841 -38.6909 2876
872.719 -38.6909 2876
881.125 -38.7582 2881
888.015 -38.7582 2881
898.01 -38.8927 2891
913.062 -39.2425 2917
929.5 -39.6461 2947
936.547 -39.6461 2947
950.318 -39.9286 2968
964.512 -40.2245 2990
984.011 -40.7358 3028
991.252 -40.7358 3028
1003.77 -40.951 3044
1018.69 -41.2604 3067
1031.71 -41.4891 3084
1039.08 -41.4891 3084
1060.03 -42.0272 3124
1090.05 -42.9151 3190
1108.35 -43.3322 3221
1116.05 -43.3322 3221
1136.66 -43.83 3258
1160.26 -44.4353 3303
1180.18 -44.8927 3337
1188.16 -44.8927 3337
1203.31 -45.1618 3357
1213.51 -45.2425 3363
1221.55 -45.2425 3363
1229.59 -45.2425 3363
1232.85 -45.0676 3350
1233.45 -44.7986 3330
1253.72 -45.2425 3363
1269.64 -45.525 3384
1277.73 -45.525 3384
1291.14 -45.7134 3398
1299.27 -45.7134 3398
1307.39 -45.7134 3398
1315.52 -45.7134 3398
1320.92 -45.6192 3391
1323.54 -45.4309 3377
1331.61 -45.4309 3377
1336.91 -45.3367 3370
1334.19 -44.9735 3343
1336.97 -44.7986 3330
1344.93 -44.7986 3330
1350.05 -44.7044 3323
1358 -44.7044 3323
1365.94 -44.7044 3323
1373.89 -44.7044 3323
1379.34 -44.6237 3317
1384.35 -44.5295 3310
1389.32 -44.4353 3303
1397.22 -44.4353 3303
1405.11 -44.4353 3303
1404.88 -44.1797 3284
1410.16 -44.099 3278
1417.99 -44.099 3278
1425.83 -44.099 3278
1433.67 -44.099 3278
1441.51 -44.099 3278
1446.25 -44.0048 3271
1454.08 -44.0048 3271
1459.22 -43.9241 3265
1463.88 -43.83 3258
1471.67 -43.83 3258
1479.46 -43.83 3258
1487.25 -43.83 3258
1492.29 -43.7492 3252
1500.07 -43.7492 3252
1516.65 -44.0048 3271
1533.33 -44.2605 3290
1541.2 -44.2605 3290
1549.06 -44.2605 3290
1569.71 -44.6237 3317
1587.15 -44.8927 3337
1595.13 -44.8927 3337
1605.99 -44.9735 3343
1613.99 -44.9735 3343
1621.98 -44.9735 3343
1627.05 -44.8927 3337
1635.03 -44.8927 3337
1645.97 -44.9735 3343
1653.96 -44.9735 3343
1661.95 -44.9735 3343
1663.45 -44.7986 3330
1667.9 -44.7044 3323
1675.85 -44.7044 3323
1683.8 -44.7044 3323
1695.31 -44.7986 3330
1703.27 -44.7986 3330
1711.23 -44.7986 3330
1719.2 -44.7986 3330
1716.78 -44.5295 3310
1717.93 -44.3546 3297
1719.01 -44.1797 3284
1726.86 -44.1797 3284
1734.71 -44.1797 3284
1742.56 -44.1797 3284
1747.22 -44.099 3278
1755.06 -44.099 3278
1759.13 -44.0048 3271
1759.93 -43.83 3258
1757.41 -43.5743 3239
1765.16 -43.5743 3239
1752.65 -43.0766 3202
1740.52 -42.5923 3166
1738.15 -42.3501 3148
1732.37 -42.0272 3124
1739.84 -42.0272 3124
1731.09 -41.6371 3095
1719.39 -41.1797 3061
1704.71 -40.655 3022
1711.94 -40.655 3022
1670.81 -39.5115 2937
1645.84 -38.7582 2881
1647 -38.6236 2871
1648.68 -38.5026 2862
1655.52 -38.5026 2862
1647.84 -38.1662 2837
1643.55 -37.9106 2818
1642.09 -37.7223 2804
1648.79 -37.7223 2804
1647.23 -37.5339 2790
1650.94 -37.4667 2785
1649.27 -37.2783 2771
1655.89 -37.2783 2771
1660.12 -37.2245 2767
1660.71 -37.09 2757
1664.89 -37.0362 2753
1666 -36.9151 2744
1672.57 -36.9151 2744
1676.07 -36.8478 2739
1682.62 -36.8478 2739
1686.7 -36.794 2735
1693.24 -36.794 2735
1696.67 -36.7268 2730
1700.71 -36.6729 2726
1707.22 -36.6729 2726
1713.74 -36.6729 2726
1717.11 -36.6057 2721
1723.61 -36.6057 2721
1730.12 -36.6057 2721
1736.63 -36.6057 2721
1743.13 -36.6057 2721
1749.64 -36.6057 2721
1753.57 -36.5519 2717
1757.47 -36.4981 2713
1763.96 -36.4981 2713
1767.18 -36.4308 2708
1771.04 -36.377 2704
1774.22 -36.3097 2699
1780.67 -36.3097 2699
1778.52 -36.1348 2686
1784.94 -36.1348 2686
1788.7 -36.081 2682
1795.11 -36.081 2682
1792.79 -35.9061 2669
1796.48 -35.8523 2665
1802.85 -35.8523 2665
1809.22 -35.8523 2665
1815.6 -35.8523 2665
1821.97 -35.8523 2665
1828.34 -35.8523 2665
1831.96 -35.7985 2661
1838.33 -35.7985 2661
1844.69 -35.7985 2661
1851.05 -35.7985 2661
1857.41 -35.7985 2661
1863.78 -35.7985 2661
1866.63 -35.7312 2656
1872.98 -35.7312 2656
1879.33 -35.7312 2656
1885.68 -35.7312 2656
1892.03 -35.7312 2656
1898.38 -35.7312 2656
1899 -35.6236 2648
1905.33 -35.6236 2648
1911.66 -35.6236 2648
1917.99 -35.6236 2648
1924.33 -35.6236 2648
1930.66 -35.6236 2648
1936.99 -35.6236 2648
1943.32 -35.6236 2648
1946.71 -35.5698 2644
1953.03 -35.5698 2644
1959.36 -35.5698 2644
1965.68 -35.5698 2644
1965.29 -35.4487 2635
1971.59 -35.4487 2635
1974.89 -35.3949 2631
1981.18 -35.3949 2631
1987.47 -35.3949 2631
1993.76 -35.3949 2631
1993.97 -35.2873 2623
2000.24 -35.2873 2623
2000.4 -35.1797 2615
-2064.23 -30.4856 2757
-2057.64 -30.4856 2757
-2051.05 -30.4856 2757
-2044.46 -30.4856 2757
-2037.86 -30.4856 2757
-2028.32 -30.4413 2753
-2021.74 -30.4413 2753
-2015.16 -30.4413 2753
-2002.01 -30.3418 2744
-1995.44 -30.3418 2744
-1988.88 -30.3418 2744
-1975.82 -30.2423 2735
-1965.68 -30.187 2730
-1965.61 -30.2865 2739
-1959.06 -30.2865 2739
-1952.51 -30.2865 2739
-1939.57 -30.187 2730
-1959.24 -30.5961 2767
-1971.67 -30.8947 2794
-1964.99 -30.8947 2794
-1991.95 -31.4255 2842
-1999.13 -31.6466 2862
-2034.05 -32.3101 2922
-2027.06 -32.3101 2922
-2020.08 -32.3101 2922
-2227.35 -35.749 3233
-2219.62 -35.749 3233
-2237.89 -36.1691 3271
-2243.02 -36.3792 3290
-2239.91 -36.4566 3297
-2232.02 -36.4566 3297
-2224.14 -36.4566 3297
-2336.58 -38.4359 3476
-2342.33 -38.6681 3497
-2333.97 -38.6681 3497
-2340.9 -38.9225 3520
-2357 -39.3316 3557
-2353.78 -39.42 3565
-2345.25 -39.42 3565
-2336.73 -39.42 3565
-2317.75 -39.2431 3549
-2309.27 -39.2431 3549
-2300.78 -39.2431 3549
-2282.61 -39.0773 3534
-2279.3 -39.1657 3542
-2275.32 -39.2431 3549
-2266.83 -39.2431 3549
-2258.35 -39.2431 3549
-2249.86 -39.2431 3549
-2246.43 -39.3316 3557
-2237.92 -39.3316 3557
-2238.82 -39.4974 3572
-2235.27 -39.5859 3580
-2226.71 -39.5859 3580
-2218.15 -39.5859 3580
-2204.65 -39.4974 3572
-2186.88 -39.3316 3557
-2178.38 -39.3316 3557
-2169.87 -39.3316 3557
-2170.48 -39.4974 3572
-2175.86 -39.7518 3595
-2172.09 -39.8402 3603
-2163.47 -39.8402 3603
-2154.85 -39.8402 3603
-2165.3 -40.1941 3635
-2175.59 -40.5479 3667
-2166.82 -40.5479 3667
-2162.76 -40.6364 3675
-2153.98 -40.6364 3675
-2149.86 -40.7248 3683
-2141.05 -40.7248 3683
-2132.24 -40.7248 3683
-2109.02 -40.4484 3658
-2100.28 -40.4484 3658
-2086.95 -40.3599 3650
-2069.68 -40.1941 3635
-2060.99 -40.1941 3635
-2056.25 -40.2715 3642
-2047.54 -40.2715 3642
-2038.83 -40.2715 3642
-2030.12 -40.2715 3642
-2021.42 -40.2715 3642
-2004.42 -40.1056 3627
-1978.14 -39.7518 3595
-1969.54 -39.7518 3595
-1960.94 -39.7518 3595
-1948.54 -39.6744 3588
-1939.96 -39.6744 3588
-1931.38 -39.6744 3588
-1922.8 -39.6744 3588
-1909.96 -39.5859 3580
-1901.4 -39.5859 3580
-1892.83 -39.5859 3580
-1884.27 -39.5859 3580
-1871.52 -39.4974 3572
-1862.98 -39.4974 3572
-1854.44 -39.4974 3572
-1850.03 -39.5859 3580
-1841.47 -39.5859 3580
-1832.91 -39.5859 3580
-1824.35 -39.5859 3580
-1815.79 -39.5859 3580
-1807.23 -39.5859 3580
-1791.13 -39.42 3565
-1786.1 -39.4974 3572
-1785.52 -39.6744 3588
-1776.94 -39.6744 3588
-1768.36 -39.6744 3588
-1763.22 -39.7518 3595
-1754.62 -39.7518 3595
-1746.02 -39.7518 3595
-1734.04 -39.6744 3588
-1725.46 -39.6744 3588
-1713.06 -39.5859 3580
-1704.5 -39.5859 3580
-1695.93 -39.5859 3580
-1691.14 -39.6744 3588
-1689.6 -39.8402 3603
-1680.98 -39.8402 3603
-1672.37 -39.8402 3603
-1663.75 -39.8402 3603
-1651.46 -39.7518 3595
-1642.86 -39.7518 3595
-1634.27 -39.7518 3595
-1625.67 -39.7518 3595
-1617.07 -39.7518 3595
-1608.48 -39.7518 3595
-1596.76 -39.6744 3588
-1588.18 -39.6744 3588
-1569.48 -39.42 3565
-1560.95 -39.42 3565
-1548.94 -39.3316 3557
-1536.97 -39.2431 3549
-1525.47 -39.1657 3542
-1517 -39.1657 3542
-1499.16 -38.9225 3520
-1484.39 -38.7566 3505
-1463.8 -38.4359 3476
-1455.49 -38.4359 3476
-1440.93 -38.2701 3461
-1421.06 -37.9605 3433
-1398.45 -37.5734 3398
-1390.32 -37.5734 3398
-1373.66 -37.3412 3377
-1351.83 -36.9653 3343
-1320.12 -36.3129 3284
-1287.09 -35.6163 3221
-1279.39 -35.6163 3221
-1254.71 -35.1408 3178
-1230.63 -34.6764 3136
-1213.77 -34.411 3112
-1206.33 -34.411 3112
-1185.79 -34.035 3078
-1176.13 -33.9687 3072
-1152.04 -33.4822 3028
-1144.8 -33.4822 3028
-1123.29 -33.062 2990
-1112.03 -32.9403 2979
-1104.91 -32.9403 2979
-1097.78 -32.9403 2979
-1092.49 -32.9956 2984
-1085.35 -32.9956 2984
-1078.22 -32.9956 2984
-1071.08 -32.9956 2984
-1063.95 -32.9956 2984
-1056.81 -32.9956 2984
-1046.16 -32.8851 2974
-1039.05 -32.8851 2974
-1031.94 -32.8851 2974
-1021.03 -32.7634 2963
-1010.53 -32.6528 2953
-1001.43 -32.5865 2947
-994.378 -32.5865 2947
-985.656 -32.5312 2942
-976.957 -32.4759 2937
-968.283 -32.4206 2932
-962.911 -32.4759 2937
-955.887 -32.4759 2937
-948.864 -32.4759 2937
-940.237 -32.4206 2932
-933.226 -32.4206 2932
-926.215 -32.4206 2932
-919.204 -32.4206 2932
-910.637 -32.3653 2927
-903.637 -32.3653 2927
-895.106 -32.3101 2922
-886.599 -32.2548 2917
-879.624 -32.2548 2917
-874.144 -32.3101 2922
-868.641 -32.3653 2927
-861.641 -32.3653 2927
-854.642 -32.3653 2927
-846.195 -32.3101 2922
-839.207 -32.3101 2922
-830.796 -32.2548 2917
-825.232 -32.3101 2922
-818.245 -32.3101 2922
-811.258 -32.3101 2922
-804.27 -32.3101 2922
-797.283 -32.3101 2922
-790.296 -32.3101 2922
-783.308 -32.3101 2922
-774.992 -32.2548 2917
-766.437 -32.1884 2911
-759.476 -32.1884 2911
-752.515 -32.1884 2911
-745.554 -32.1884 2911
-737.324 -32.1331 2906
-730.375 -32.1331 2906
-723.426 -32.1331 2906
-715.244 -32.0779 2901
-705.865 -31.9673 2891
-698.952 -31.9673 2891
-692.039 -31.9673 2891
-682.756 -31.8567 2881
-674.693 -31.8014 2876
-665.494 -31.6908 2866
-658.641 -31.6908 2866
-651.787 -31.6908 2866
-644.934 -31.6908 2866
-637.19 -31.6466 2862
-630.346 -31.6466 2862
-623.502 -31.6466 2862
-616.658 -31.6466 2862
-611.732 -31.7461 2871
-605.919 -31.8014 2876
-602.167 -31.9673 2891
-595.253 -31.9673 2891
-591.393 -32.1331 2906
-604.555 -33.2389 3006
-597.367 -33.2389 3006
-590.179 -33.2389 3006
-622.167 -35.4725 3208
-631.543 -36.4566 3297
-623.659 -36.4566 3297
-623.246 -36.8989 3337
-618.954 -37.1201 3357
-617.114 -37.496 3391
-609.005 -37.496 3391
-602.136 -37.5734 3398
-594.01 -37.5734 3398
-589.506 -37.8056 3419
-581.33 -37.8056 3419
-573.154 -37.8056 3419
-567.292 -37.9605 3433
-559.082 -37.9605 3433
-550.873 -37.9605 3433
-544.876 -38.1153 3447
-537.723 -38.1927 3454
-530.537 -38.2701 3461
-522.261 -38.2701 3461
-513.984 -38.2701 3461
-507.9 -38.4359 3476
-501.6 -38.5907 3490
-493.254 -38.5907 3490
-484.908 -38.5907 3490
-475.607 -38.5133 3483
-467.278 -38.5133 3483
-458.949 -38.5133 3483
-449.715 -38.4359 3476
-441.402 -38.4359 3476
-433.09 -38.4359 3476
-424.778 -38.4359 3476
-417.305 -38.5133 3483
-408.976 -38.5133 3483
-400.647 -38.5133 3483
-392.318 -38.5133 3483
-226.226 -22.69 2052
-222.182 -22.7785 2060
-217.256 -22.7785 2060
-212.33 -22.7785 2060
-206.598 -22.69 2052
-200.905 -22.6016 2044
-195.825 -22.5794 2042
-191.41 -22.6347 2047
-186.515 -22.6347 2047
-182.507 -22.7453 2057
-178.02 -22.8006 2062
-173.76 -22.8891 2070
-168.811 -22.8891 2070
-164.89 -23.0328 2083
-160.062 -23.0549 2085
-155.671 -23.1434 2093
-150.666 -23.1434 2093
-146.009 -23.1987 2098
-141.194 -23.2318 2101
-136.688 -23.3203 2109
-131.645 -23.3203 2109
-127.082 -23.4088 2117
-122.308 -23.464 2122
-117.233 -23.464 2122
-112.159 -23.464 2122
-107.387 -23.5304 2128
-102.539 -23.5857 2133
-97.4385 -23.5857 2133
-92.3378 -23.5857 2133
-87.2372 -23.5857 2133
-82.0595 -23.5636 2131
-76.9636 -23.5636 2131
-71.7666 -23.5304 2128
-66.5839 -23.4972 2125
-61.4156 -23.464 2122
-56.3412 -23.464 2122
-51.1461 -23.4088 2117
-46.0184 -23.3756 2114
-40.9632 -23.3756 2114
-35.9079 -23.3756 2114
-30.8235 -23.3535 2112
-25.7365 -23.3203 2109
-20.6932 -23.3203 2109
-15.65 -23.3203 2109
-10.6218 -23.3535 2112
-5.57138 -23.3535 2112
-0.520949 -23.3535 2112
4.52948 -23.3535 2112
9.57992 -23.3535 2112
14.6303 -23.3535 2112
19.6994 -23.3756 2114
24.7898 -23.4088 2117
29.8521 -23.4088 2117
34.9145 -23.4088 2117
40.0336 -23.4419 2120
45.2095 -23.4972 2125
50.291 -23.4972 2125
55.3726 -23.4972 2125
60.4541 -23.4972 2125
65.5356 -23.4972 2125
70.7168 -23.5304 2128
75.8055 -23.5304 2128
81.0082 -23.5636 2131
86.1041 -23.5636 2131
91.2856 -23.5857 2133
96.3862 -23.5857 2133
101.487 -23.5857 2133
106.588 -23.5857 2133
111.845 -23.6189 2136
116.953 -23.6189 2136
122.404 -23.6852 2142
127.824 -23.7405 2147
133.144 -23.7737 2150
138.478 -23.8068 2153
143.626 -23.8068 2153
148.913 -23.8289 2155
154.281 -23.8621 2158
159.663 -23.8953 2161
164.83 -23.8953 2161
170.863 -24.0169 2172
176.544 -24.0833 2178
182.002 -24.1164 2181
187.218 -24.1164 2181
193.139 -24.2049 2189
199.189 -24.3044 2198
205.84 -24.4703 2213
211.132 -24.4703 2213
217.793 -24.6251 2227
224.021 -24.7246 2236
231.932 -25.001 2261
237.339 -25.001 2261
244.034 -25.1337 2273
250.786 -25.2664 2285
257.035 -25.3438 2292
262.516 -25.3438 2292
269.4 -25.4765 2304
276.103 -25.5871 2314
282.367 -25.6534 2320
287.915 -25.6534 2320
294.348 -25.7308 2327
300.686 -25.7972 2333
307.184 -25.8746 2340
312.779 -25.8746 2340
319.735 -25.9852 2350
325.355 -25.9852 2350
331.397 -26.0183 2353
337.024 -26.0183 2353
342.651 -26.0183 2353
348.277 -26.0183 2353
353.904 -26.0183 2353
453.459 -32.3101 2922
461.235 -32.3653 2927
468.234 -32.3653 2927
476.045 -32.4206 2932
483.057 -32.4206 2932
490.068 -32.4206 2932
497.079 -32.4206 2932
504.09 -32.4206 2932
511.102 -32.4206 2932
518.113 -32.4206 2932
524.229 -32.3653 2927
530.321 -32.3101 2922
535.285 -32.1884 2911
542.246 -32.1884 2911
548.264 -32.1331 2906
554.258 -32.0779 2901
560.228 -32.0226 2896
567.153 -32.0226 2896
574.078 -32.0226 2896
580 -31.9673 2891
586.914 -31.9673 2891
593.827 -31.9673 2891
600.74 -31.9673 2891
606.603 -31.912 2886
613.504 -31.912 2886
620.405 -31.912 2886
627.307 -31.912 2886
634.208 -31.912 2886
641.109 -31.912 2886
648.01 -31.912 2886
654.912 -31.912 2886
661.813 -31.912 2886
668.714 -31.912 2886
675.616 -31.912 2886
682.517 -31.912 2886
689.418 -31.912 2886
696.32 -31.912 2886
702.003 -31.8567 2881
708.892 -31.8567 2881
715.781 -31.8567 2881
723.925 -31.912 2886
730.826 -31.912 2886
737.727 -31.912 2886
744.629 -31.912 2886
751.53 -31.912 2886
757.117 -31.8567 2881
764.007 -31.8567 2881
770.896 -31.8567 2881
777.785 -31.8567 2881
784.675 -31.8567 2881
791.564 -31.8567 2881
798.453 -31.8567 2881
805.343 -31.8567 2881
812.232 -31.8567 2881
819.121 -31.8567 2881
826.011 -31.8567 2881
832.9 -31.8567 2881
839.789 -31.8567 2881
846.679 -31.8567 2881
855.049 -31.912 2886
861.951 -31.912 2886
868.852 -31.912 2886
874.236 -31.8567 2881
882.655 -31.912 2886
889.556 -31.912 2886
901.117 -32.0779 2901
914.627 -32.3101 2922
932.969 -32.7081 2958
940.042 -32.7081 2958
950.318 -32.8187 2968
966.125 -33.1173 2995
985.636 -33.5374 3033
992.889 -33.5374 3033
1005.75 -33.7254 3050
1018.69 -33.9134 3067
1033.38 -34.1567 3089
1040.77 -34.1567 3089
1066.14 -34.7427 3142
1092.1 -35.3398 3196
1108.35 -35.6163 3221
1116.05 -35.6163 3221
1136.66 -36.0254 3258
1160.26 -36.523 3303
1180.18 -36.8989 3337
1188.16 -36.8989 3337
1203.31 -37.1201 3357
1213.51 -37.1864 3363
1221.55 -37.1864 3363
1229.59 -37.1864 3363
1232.85 -37.0427 3350
1233.45 -36.8215 3330
1253.72 -37.1864 3363
1269.64 -37.4186 3384
1277.73 -37.4186 3384
1291.14 -37.5734 3398
1299.27 -37.5734 3398
1307.39 -37.5734 3398
1315.52 -37.5734 3398
1320.92 -37.496 3391
1323.54 -37.3412 3377
1331.61 -37.3412 3377
1336.91 -37.2638 3370
1334.19 -36.9653 3343
1339.78 -36.8989 3337
1347.76 -36.8989 3337
1355.74 -36.8989 3337
1363.72 -36.8989 3337
1371.7 -36.8989 3337
1379.68 -36.8989 3337
1379.34 -36.6778 3317
1387.27 -36.6778 3317
1392.26 -36.6004 3310
1400.18 -36.6004 3310
1408.09 -36.6004 3310
1407.45 -36.3792 3290
1412.74 -36.3129 3284
1417.99 -36.2465 3278
1425.83 -36.2465 3278
1433.67 -36.2465 3278
1441.51 -36.2465 3278
1446.25 -36.1691 3271
1454.08 -36.1691 3271
1459.22 -36.1028 3265
1463.88 -36.0254 3258
1474.83 -36.1028 3265
1482.64 -36.1028 3265
1490.45 -36.1028 3265
1498.25 -36.1028 3265
1506.06 -36.1028 3265
1519.9 -36.2465 3278
1533.33 -36.3792 3290
1541.2 -36.3792 3290
1549.06 -36.3792 3290
1569.71 -36.6778 3317
1587.15 -36.8989 3337
1595.13 -36.8989 3337
1605.99 -36.9653 3343
1613.99 -36.9653 3343
1621.98 -36.9653 3343
1627.05 -36.8989 3337
1635.03 -36.8989 3337
1645.97 -36.9653 3343
1653.96 -36.9653 3343
1661.95 -36.9653 3343
1663.45 -36.8215 3330
1667.9 -36.7441 3323
1675.85 -36.7441 3323
1683.8 -36.7441 3323
1695.31 -36.8215 3330
1703.27 -36.8215 3330
1711.23 -36.8215 3330
1719.2 -36.8215 3330
1716.78 -36.6004 3310
1717.93 -36.4566 3297
1719.01 -36.3129 3284
1730.01 -36.3792 3290
1737.88 -36.3792 3290
1745.75 -36.3792 3290
1753.62 -36.3792 3290
1761.48 -36.3792 3290
1762.9 -36.2465 3278
1763.71 -36.1028 3265
1764.47 -35.959 3252
1772.24 -35.959 3252
1766.34 -35.6826 3227
1750.41 -35.2071 3184
1748.09 -35.0081 3166
1745.68 -34.8091 3148
1753.21 -34.8091 3148
1747.31 -34.5437 3124
1735.12 -34.1567 3089
1723.33 -33.7807 3055
1730.63 -33.7807 3055
1685.6 -32.7634 2963
1657.27 -32.0779 2901
1652.73 -31.8567 2881
1653.86 -31.7461 2871
1660.73 -31.7461 2871
1653.65 -31.4807 2847
1649.38 -31.2707 2828
1647.36 -31.1048 2813
1654.08 -31.1048 2813
1649.59 -30.8947 2794
1653.9 -30.8505 2790
1649.27 -30.6404 2771
1655.89 -30.6404 2771
1660.12 -30.5961 2767
1660.71 -30.4856 2757
1664.89 -30.4413 2753
1668.43 -30.3861 2748
1675 -30.3861 2748
1676.07 -30.2865 2739
1682.62 -30.2865 2739
1686.7 -30.2423 2735
1693.24 -30.2423 2735
1696.67 -30.187 2730
1700.71 -30.1428 2726
1707.22 -30.1428 2726
1713.74 -30.1428 2726
1720.26 -30.1428 2726
1726.78 -30.1428 2726
1733.3 -30.1428 2726
1739.82 -30.1428 2726
1746.34 -30.1428 2726
1752.86 -30.1428 2726
1756.15 -30.0875 2721
1760.06 -30.0433 2717
1766.56 -30.0433 2717
1767.18 -29.9438 2708
1773.66 -29.9438 2708
1777.51 -29.8995 2704
1783.97 -29.8995 2704
1781.83 -29.7558 2691
1788.27 -29.7558 2691
1791.37 -29.7005 2686
1797.79 -29.7005 2686
1795.48 -29.5567 2673
1799.18 -29.5125 2669
1805.56 -29.5125 2669
1811.94 -29.5125 2669
1818.32 -29.5125 2669
1824.7 -29.5125 2669
1831.09 -29.5125 2669
1834.72 -29.4683 2665
1841.09 -29.4683 2665
1847.46 -29.4683 2665
1853.83 -29.4683 2665
1860.21 -29.4683 2665
1866.58 -29.4683 2665
1872.95 -29.4683 2665
1876.5 -29.4241 2661
1882.87 -29.4241 2661
1889.23 -29.4241 2661
1895.59 -29.4241 2661
1898.38 -29.3688 2656
1904.74 -29.3688 2656
1908.21 -29.3245 2652
1914.55 -29.3245 2652
1920.89 -29.3245 2652
1930.14 -29.3688 2656
1936.49 -29.3688 2656
1942.84 -29.3688 2656
1949.19 -29.3688 2656
1949.66 -29.2803 2648
1955.99 -29.2803 2648
1962.32 -29.2803 2648
1965.68 -29.2361 2644
1972 -29.2361 2644
1971.59 -29.1366 2635
1977.89 -29.1366 2635
1984.19 -29.1366 2635
1990.49 -29.1366 2635
1993.76 -29.0923 2631
2000.05 -29.0923 2631
2006.35 -29.0923 2631
2009.58 -29.0481 2627
-2064.23 -23.8812 2757
-2057.64 -23.8812 2757
-2051.05 -23.8812 2757
-2044.46 -23.8812 2757
-2037.86 -23.8812 2757
-2028.32 -23.8465 2753
-2021.74 -23.8465 2753
-2015.16 -23.8465 2753
-2002.01 -23.7685 2744
-1995.44 -23.7685 2744
-1988.88 -23.7685 2744
-1975.82 -23.6906 2735
-1965.68 -23.6473 2730
-1965.61 -23.7252 2739
-1959.06 -23.7252 2739
-1952.51 -23.7252 2739
-1939.57 -23.6473 2730
-1930.21 -23.6126 2726
-1923.69 -23.6126 2726
-1908.03 -23.5 2713
-2227.35 -28.0043 3233
-2219.62 -28.0043 3233
-2237.89 -28.3334 3271
-2243.02 -28.498 3290
-2239.91 -28.5586 3297
-2232.02 -28.5586 3297
-2224.14 -28.5586 3297
-2336.58 -30.1091 3476
-2342.33 -30.291 3497
-2333.97 -30.291 3497
-2340.9 -30.4903 3520
-2357 -30.8108 3557
-2353.78 -30.8801 3565
-2345.25 -30.8801 3565
-2336.73 -30.8801 3565
-2317.75 -30.7415 3549
-2309.27 -30.7415 3549
-2300.78 -30.7415 3549
-2282.61 -30.6115 3534
-2279.3 -30.6808 3542
-2275.32 -30.7415 3549
-2266.83 -30.7415 3549
-2258.35 -30.7415 3549
-2249.86 -30.7415 3549
-2246.43 -30.8108 3557
-2237.92 -30.8108 3557
-2238.82 -30.9407 3572
-2235.27 -31.01 3580
-2226.71 -31.01 3580
-2218.15 -31.01 3580
-2204.65 -30.9407 3572
-2186.88 -30.8108 3557
-2178.38 -30.8108 3557
-2169.87 -30.8108 3557
-2170.48 -30.9407 3572
-2171.62 -31.0793 3588
-2172.09 -31.2092 3603
-2163.47 -31.2092 3603
-2154.85 -31.2092 3603
-2165.3 -31.4864 3635
-2175.59 -31.7636 3667
-2166.82 -31.7636 3667
-2162.76 -31.8329 3675
-2153.98 -31.8329 3675
-2149.86 -31.9022 3683
-2141.05 -31.9022 3683
-2132.24 -31.9022 3683
-2109.02 -31.6856 3658
-2100.28 -31.6856 3658
-2086.95 -31.6163 3650
-2069.68 -31.4864 3635
-2060.99 -31.4864 3635
-2056.25 -31.547 3642
-2047.54 -31.547 3642
-2038.83 -31.547 3642
-2030.12 -31.547 3642
-2021.42 -31.547 3642
-2004.42 -31.4171 3627
-1978.14 -31.1399 3595
-1969.54 -31.1399 3595
-1960.94 -31.1399 3595
-1948.54 -31.0793 3588
-1939.96 -31.0793 3588
-1931.38 -31.0793 3588
-1922.8 -31.0793 3588
-1909.96 -31.01 3580
-1901.4 -31.01 3580
-1892.83 -31.01 3580
-1884.27 -31.01 3580
-1871.52 -30.9407 3572
-1862.98 -30.9407 3572
-1854.44 -30.9407 3572
-1850.03 -31.01 3580
-1841.47 -31.01 3580
-1832.91 -31.01 3580
-1824.35 -31.01 3580
-1815.79 -31.01 3580
-1807.23 -31.01 3580
-1791.13 -30.8801 3565
-1786.1 -30.9407 3572
-1785.52 -31.0793 3588
-1776.94 -31.0793 3588
-1768.36 -31.0793 3588
-1763.22 -31.1399 3595
-1754.62 -31.1399 3595
-1746.02 -31.1399 3595
-1734.04 -31.0793 3588
-1725.46 -31.0793 3588
-1713.06 -31.01 3580
-1704.5 -31.01 3580
-1695.93 -31.01 3580
-1691.14 -31.0793 3588
-1689.6 -31.2092 3603
-1680.98 -31.2092 3603
-1672.37 -31.2092 3603
-1663.75 -31.2092 3603
-1651.46 -31.1399 3595
-1642.86 -31.1399 3595
-1634.27 -31.1399 3595
-1625.67 -31.1399 3595
-1617.07 -31.1399 3595
-1608.48 -31.1399 3595
-1596.76 -31.0793 3588
-1588.18 -31.0793 3588
-1569.48 -30.8801 3565
-1560.95 -30.8801 3565
-1548.94 -30.8108 3557
-1536.97 -30.7415 3549
-1525.47 -30.6808 3542
-1517 -30.6808 3542
-1499.16 -30.4903 3520
-1484.39 -30.3603 3505
-1463.8 -30.1091 3476
-1455.49 -30.1091 3476
-1440.93 -29.9792 3461
-1421.06 -29.7367 3433
-1398.45 -29.4335 3398
-1390.32 -29.4335 3398
-1373.66 -29.2516 3377
-1351.83 -28.9571 3343
-1320.12 -28.446 3284
-1287.09 -27.9003 3221
-1279.39 -27.9003 3221
-1254.71 -27.5279 3178
-1230.63 -27.1641 3136
-1213.77 -26.9562 3112
-1206.33 -26.9562 3112
-1185.79 -26.6617 3078
-1176.13 -26.6097 3072
-1152.04 -26.2286 3028
-1144.8 -26.2286 3028
-1123.29 -25.8994 2990
-1112.03 -25.8041 2979
-1104.91 -25.8041 2979
-1097.78 -25.8041 2979
-1092.49 -25.8474 2984
-1085.35 -25.8474 2984
-1078.22 -25.8474 2984
-1071.08 -25.8474 2984
-1063.95 -25.8474 2984
-1056.81 -25.8474 2984
-1046.16 -25.7608 2974
-1039.05 -25.7608 2974
-1031.94 -25.7608 2974
-1021.03 -25.6655 2963
-1010.53 -25.5789 2953
-1001.43 -25.5269 2947
-994.378 -25.5269 2947
-985.656 -25.4836 2942
-976.957 -25.4403 2937
-968.283 -25.397 2932
-962.911 -25.4403 2937
-955.887 -25.4403 2937
-948.864 -25.4403 2937
-940.237 -25.397 2932
-933.226 -25.397 2932
-926.215 -25.397 2932
-919.204 -25.397 2932
-910.637 -25.3537 2927
-903.637 -25.3537 2927
-895.106 -25.3104 2922
-886.599 -25.2671 2917
-879.624 -25.2671 2917
-874.144 -25.3104 2922
-868.641 -25.3537 2927
-861.641 -25.3537 2927
-854.642 -25.3537 2927
-846.195 -25.3104 2922
-839.207 -25.3104 2922
-830.796 -25.2671 2917
-825.232 -25.3104 2922
-818.245 -25.3104 2922
-811.258 -25.3104 2922
-804.27 -25.3104 2922
-797.283 -25.3104 2922
-790.296 -25.3104 2922
-783.308 -25.3104 2922
-774.992 -25.2671 2917
-766.437 -25.2151 2911
-759.476 -25.2151 2911
-752.515 -25.2151 2911
-745.554 -25.2151 2911
-737.324 -25.1718 2906
-730.375 -25.1718 2906
-723.426 -25.1718 2906
-715.244 -25.1285 2901
-705.865 -25.0419 2891
-698.952 -25.0419 2891
-692.039 -25.0419 2891
-682.756 -24.9552 2881
-674.693 -24.9119 2876
-665.494 -24.8253 2866
-658.641 -24.8253 2866
-651.787 -24.8253 2866
-644.033 -24.7907 2862
-637.19 -24.7907 2862
-630.346 -24.7907 2862
-623.502 -24.7907 2862
-616.658 -24.7907 2862
-610.666 -24.8253 2866
-604.866 -24.8686 2871
-600.084 -24.9552 2881
-593.194 -24.9552 2881
-591.393 -25.1718 2906
-604.555 -26.038 3006
-597.367 -26.038 3006
-590.179 -26.038 3006
-622.167 -27.7877 3208
-631.543 -28.5586 3297
-623.659 -28.5586 3297
-623.246 -28.9051 3337
-618.954 -29.0784 3357
-617.114 -29.3729 3391
-609.005 -29.3729 3391
-602.136 -29.4335 3398
-594.01 -29.4335 3398
-589.506 -29.6154 3419
-581.33 -29.6154 3419
-573.154 -29.6154 3419
-567.292 -29.7367 3433
-559.082 -29.7367 3433
-550.873 -29.7367 3433
-544.876 -29.8579 3447
-537.723 -29.9186 3454
-530.537 -29.9792 3461
-522.261 -29.9792 3461
-513.984 -29.9792 3461
-507.9 -30.1091 3476
-501.6 -30.2304 3490
-493.254 -30.2304 3490
-484.908 -30.2304 3490
-475.607 -30.1698 3483
-467.278 -30.1698 3483
-458.949 -30.1698 3483
-449.715 -30.1091 3476
-441.402 -30.1091 3476
-433.09 -30.1091 3476
-424.778 -30.1091 3476
-417.305 -30.1698 3483
-408.976 -30.1698 3483
-400.647 -30.1698 3483
-392.318 -30.1698 3483
-226.226 -17.7744 2052
-221.643 -17.8004 2055
-216.729 -17.8004 2055
-211.814 -17.8004 2055
-206.095 -17.7311 2047
-200.708 -17.6878 2042
-195.058 -17.6185 2034
-191.41 -17.7311 2047
-186.515 -17.7311 2047
-181.797 -17.7485 2049
-177.588 -17.8177 2057
-173.089 -17.8611 2062
-168.158 -17.8611 2062
-163.861 -17.9304 2070
-159.908 -18.043 2083
-155.522 -18.1123 2091
-150.522 -18.1123 2091
-145.661 -18.1296 2093
-140.992 -18.1729 2098
-136.494 -18.2422 2106
-131.458 -18.2422 2106
-126.902 -18.3115 2114
-122.02 -18.3375 2117
-117.123 -18.3635 2120
-112.053 -18.3635 2120
-107.085 -18.3808 2122
-102.443 -18.4587 2131
-97.3471 -18.4587 2131
-92.2512 -18.4587 2131
-87.1554 -18.4587 2131
-81.944 -18.4328 2128
-76.8553 -18.4328 2128
-71.7666 -18.4328 2128
-66.4899 -18.3808 2122
-61.3577 -18.3635 2120
-56.2881 -18.3635 2120
-51.1461 -18.3375 2117
-46.0184 -18.3115 2114
-40.9632 -18.3115 2114
-35.9079 -18.3115 2114
-30.8235 -18.2942 2112
-25.7365 -18.2682 2109
-20.6932 -18.2682 2109
-15.65 -18.2682 2109
-10.6218 -18.2942 2112
-5.57138 -18.2942 2112
-0.520949 -18.2942 2112
4.52948 -18.2942 2112
9.57992 -18.2942 2112
14.6303 -18.2942 2112
19.6994 -18.3115 2114
24.7898 -18.3375 2117
29.8521 -18.3375 2117
34.9145 -18.3375 2117
40.0336 -18.3635 2120
45.2095 -18.4068 2125
50.291 -18.4068 2125
55.3726 -18.4068 2125
60.4541 -18.4068 2125
65.5356 -18.4068 2125
70.7168 -18.4328 2128
75.8055 -18.4328 2128
81.0082 -18.4587 2131
86.1041 -18.4587 2131
91.2856 -18.4761 2133
96.3862 -18.4761 2133
101.487 -18.4761 2133
106.588 -18.4761 2133
111.845 -18.502 2136
116.953 -18.502 2136
122.404 -18.554 2142
127.824 -18.5973 2147
133.144 -18.6233 2150
138.478 -18.6493 2153
143.626 -18.6493 2153
148.913 -18.6666 2155
154.281 -18.6926 2158
159.663 -18.7186 2161
164.83 -18.7186 2161
170.863 -18.8139 2172
176.544 -18.8659 2178
182.002 -18.8918 2181
187.218 -18.8918 2181
193.139 -18.9611 2189
199.189 -19.0391 2198
205.84 -19.169 2213
211.132 -19.169 2213
217.793 -19.2903 2227
224.021 -19.3682 2236
231.932 -19.5848 2261
237.339 -19.5848 2261
244.034 -19.6887 2273
250.786 -19.7927 2285
257.035 -19.8533 2292
262.516 -19.8533 2292
269.4 -19.9573 2304
276.103 -20.0439 2314
282.367 -20.0959 2320
287.915 -20.0959 2320
294.348 -20.1565 2327
300.686 -20.2085 2333
307.184 -20.2691 2340
312.779 -20.2691 2340
319.735 -20.3557 2350
325.355 -20.3557 2350
331.397 -20.3817 2353
337.024 -20.3817 2353
342.651 -20.3817 2353
348.277 -20.3817 2353
353.904 -20.3817 2353
453.459 -25.3104 2922
461.235 -25.3537 2927
468.234 -25.3537 2927
476.045 -25.397 2932
483.057 -25.397 2932
490.068 -25.397 2932
497.079 -25.397 2932
504.09 -25.397 2932
511.102 -25.397 2932
518.113 -25.397 2932
524.229 -25.3537 2927
530.321 -25.3104 2922
535.285 -25.2151 2911
542.246 -25.2151 2911
548.264 -25.1718 2906
554.258 -25.1285 2901
560.228 -25.0852 2896
567.153 -25.0852 2896
574.078 -25.0852 2896
580 -25.0419 2891
586.914 -25.0419 2891
593.827 -25.0419 2891
600.74 -25.0419 2891
606.603 -24.9986 2886
613.504 -24.9986 2886
620.405 -24.9986 2886
627.307 -24.9986 2886
634.208 -24.9986 2886
641.109 -24.9986 2886
648.01 -24.9986 2886
654.912 -24.9986 2886
661.813 -24.9986 2886
668.714 -24.9986 2886
675.616 -24.9986 2886
682.517 -24.9986 2886
689.418 -24.9986 2886
696.32 -24.9986 2886
702.003 -24.9552 2881
708.892 -24.9552 2881
715.781 -24.9552 2881
723.925 -24.9986 2886
730.826 -24.9986 2886
737.727 -24.9986 2886
744.629 -24.9986 2886
751.53 -24.9986 2886
757.117 -24.9552 2881
764.007 -24.9552 2881
770.896 -24.9552 2881
777.785 -24.9552 2881
784.675 -24.9552 2881
791.564 -24.9552 2881
798.453 -24.9552 2881
805.343 -24.9552 2881
812.232 -24.9552 2881
819.121 -24.9552 2881
826.011 -24.9552 2881
832.9 -24.9552 2881
839.789 -24.9552 2881
846.679 -24.9552 2881
855.049 -24.9986 2886
861.951 -24.9986 2886
868.852 -24.9986 2886
874.236 -24.9552 2881
882.655 -24.9986 2886
889.556 -24.9986 2886
901.117 -25.1285 2901
914.627 -25.3104 2922
932.969 -25.6222 2958
940.042 -25.6222 2958
950.318 -25.7088 2968
966.125 -25.9427 2995
985.636 -26.2719 3033
992.889 -26.2719 3033
1005.75 -26.4191 3050
1018.69 -26.5664 3067
1033.38 -26.7569 3089
1040.77 -26.7569 3089
1066.14 -27.216 3142
1092.1 -27.6838 3196
1105.94 -27.8397 3214
1113.63 -27.8397 3214
1134.57 -28.1688 3252
1158.15 -28.5586 3297
1173.11 -28.7319 3317
1181.04 -28.7319 3317
1196.14 -28.9051 3337
1208.81 -29.0177 3350
1216.83 -29.0177 3350
1224.84 -29.0177 3350
1228.06 -28.9051 3337
1230.86 -28.7838 3323
1251.48 -29.0784 3357
1267.01 -29.2516 3377
1275.09 -29.2516 3377
1285.82 -29.3122 3384
1296.59 -29.3729 3391
1304.7 -29.3729 3391
1312.81 -29.3729 3391
1320.92 -29.3729 3391
1320.79 -29.191 3370
1328.85 -29.191 3370
1331.75 -29.0784 3357
1334.19 -28.9571 3343
1339.78 -28.9051 3337
1347.76 -28.9051 3337
1355.74 -28.9051 3337
1363.72 -28.9051 3337
1371.7 -28.9051 3337
1379.68 -28.9051 3337
1379.34 -28.7319 3317
1387.27 -28.7319 3317
1392.26 -28.6712 3310
1400.18 -28.6712 3310
1408.09 -28.6712 3310
1407.45 -28.498 3290
1412.74 -28.446 3284
1417.99 -28.3941 3278
1425.83 -28.3941 3278
1430.61 -28.3334 3271
1438.43 -28.3334 3271
1443.6 -28.2815 3265
1451.41 -28.2815 3265
1456.09 -28.2208 3258
1463.88 -28.2208 3258
1474.83 -28.2815 3265
1482.64 -28.2815 3265
1490.45 -28.2815 3265
1498.25 -28.2815 3265
1506.06 -28.2815 3265
1519.9 -28.3941 3278
1527.74 -28.3941 3278
1535.57 -28.3941 3278
1543.41 -28.3941 3278
1563.08 -28.6106 3303
1577.64 -28.7319 3317
1585.57 -28.7319 3317
1593.5 -28.7319 3317
1601.44 -28.7319 3317
1612.28 -28.7838 3323
1620.23 -28.7838 3323
1631.6 -28.8445 3330
1639.56 -28.8445 3330
1647.53 -28.8445 3330
1655.49 -28.8445 3330
1663.45 -28.8445 3330
1654.85 -28.5586 3297
1662.74 -28.5586 3297
1670.62 -28.5586 3297
1685.12 -28.6712 3310
1693.04 -28.6712 3310
1700.95 -28.6712 3310
1708.87 -28.6712 3310
1716.78 -28.6712 3310
1717.93 -28.5586 3297
1719.01 -28.446 3284
1730.01 -28.498 3290
1737.88 -28.498 3290
1745.75 -28.498 3290
1753.62 -28.498 3290
1761.48 -28.498 3290
1762.9 -28.3941 3278
1763.71 -28.2815 3265
1764.47 -28.1688 3252
1772.24 -28.1688 3252
1766.34 -27.9523 3227
1750.41 -27.5798 3184
1748.09 -27.4239 3166
1745.68 -27.268 3148
1753.21 -27.268 3148
1747.31 -27.0601 3124
1735.12 -26.7569 3089
1723.33 -26.4624 3055
1730.63 -26.4624 3055
1685.6 -25.6655 2963
1657.27 -25.1285 2901
1652.73 -24.9552 2881
1653.86 -24.8686 2871
1660.73 -24.8686 2871
1653.65 -24.6607 2847
1649.38 -24.4962 2828
1647.36 -24.3662 2813
1654.08 -24.3662 2813
1649.59 -24.2016 2794
1653.9 -24.167 2790
1649.27 -24.0024 2771
1655.89 -24.0024 2771
1660.12 -23.9678 2767
1660.71 -23.8812 2757
1664.89 -23.8465 2753
1668.43 -23.8032 2748
1675 -23.8032 2748
1676.07 -23.7252 2739
1682.62 -23.7252 2739
1686.7 -23.6906 2735
1693.24 -23.6906 2735
1696.67 -23.6473 2730
1700.71 -23.6126 2726
1707.22 -23.6126 2726
1713.74 -23.6126 2726
1720.26 -23.6126 2726
1726.78 -23.6126 2726
1733.3 -23.6126 2726
1739.82 -23.6126 2726
1746.34 -23.6126 2726
1752.86 -23.6126 2726
1756.15 -23.5693 2721
1760.06 -23.5347 2717
1766.56 -23.5347 2717
1767.18 -23.4567 2708
1773.66 -23.4567 2708
1777.51 -23.4221 2704
1783.97 -23.4221 2704
1781.83 -23.3095 2691
1788.27 -23.3095 2691
1791.37 -23.2662 2686
1797.79 -23.2662 2686
1795.48 -23.1535 2673
1799.18 -23.1189 2669
1805.56 -23.1189 2669
1811.94 -23.1189 2669
1818.32 -23.1189 2669
1824.7 -23.1189 2669
1831.09 -23.1189 2669
1834.72 -23.0842 2665
1841.09 -23.0842 2665
1847.46 -23.0842 2665
1853.83 -23.0842 2665
1860.21 -23.0842 2665
1866.58 -23.0842 2665
1872.95 -23.0842 2665
1876.5 -23.0496 2661
1882.87 -23.0496 2661
1889.23 -23.0496 2661
1895.59 -23.0496 2661
1898.38 -23.0063 2656
1904.74 -23.0063 2656
1908.21 -22.9716 2652
1914.55 -22.9716 2652
1920.89 -22.9716 2652
1930.14 -23.0063 2656
1936.49 -23.0063 2656
1942.84 -23.0063 2656
1949.19 -23.0063 2656
1949.66 -22.937 2648
1955.99 -22.937 2648
1962.32 -22.937 2648
1965.68 -22.9023 2644
1972 -22.9023 2644
1971.59 -22.8244 2635
1977.89 -22.8244 2635
1984.19 -22.8244 2635
1990.49 -22.8244 2635
1993.76 -22.7897 2631
2000.05 -22.7897 2631
2006.35 -22.7897 2631
2009.58 -22.7551 2627
-2071.72 -17.3394 2767
-2065.1 -17.3394 2767
-2058.49 -17.3394 2767
-2051.87 -17.3394 2767
-2045.25 -17.3394 2767
-2034.95 -17.3081 2762
-2028.35 -17.3081 2762
-2021.74 -17.3081 2762
-2008.57 -17.2517 2753
-1995.44 -17.1953 2744
-1988.88 -17.1953 2744
-1982.32 -17.1953 2744
-1972.16 -17.1639 2739
-1969.2 -17.1953 2744
-1962.64 -17.1953 2744
-1956.07 -17.1953 2744
-1949.51 -17.1953 2744
-1921 -17.001 2713
-1914.51 -17.001 2713
-2278.25 -20.8674 3330
-2275.06 -20.9113 3337
-2294.26 -21.162 3377
-2286.18 -21.162 3377
-2339.49 -21.7322 3468
-2356.07 -21.9641 3505
-2377.16 -22.2398 3549
-2368.67 -22.2398 3549
-2375.48 -22.3839 3572
-2372.24 -22.4341 3580
-2363.68 -22.4341 3580
-2355.12 -22.4341 3580
-2346.56 -22.4341 3580
-2332.77 -22.3839 3572
-2324.23 -22.3839 3572
-2311.15 -22.3401 3565
-2292.29 -22.2398 3549
-2283.81 -22.2398 3549
-2275.32 -22.2398 3549
-2266.83 -22.2398 3549
-2258.35 -22.2398 3549
-2249.86 -22.2398 3549
-2246.43 -22.2899 3557
-2237.92 -22.2899 3557
-2238.82 -22.3839 3572
-2235.27 -22.4341 3580
-2226.71 -22.4341 3580
-2218.15 -22.4341 3580
-2204.65 -22.3839 3572
-2186.88 -22.2899 3557
-2178.38 -22.2899 3557
-2169.87 -22.2899 3557
-2166.23 -22.3401 3565
-2171.62 -22.4842 3588
-2172.09 -22.5782 3603
-2163.47 -22.5782 3603
-2154.85 -22.5782 3603
-2165.3 -22.7787 3635
-2175.59 -22.9792 3667
-2166.82 -22.9792 3667
-2162.76 -23.0294 3675
-2158.67 -23.0795 3683
-2149.86 -23.0795 3683
-2141.05 -23.0795 3683
-2132.24 -23.0795 3683
-2123.44 -23.0795 3683
-2114.63 -23.0795 3683
-2091.53 -22.9229 3658
-2087.9 -22.9792 3667
-2083.67 -23.0294 3675
-2074.88 -23.0294 3675
-2066.1 -23.0294 3675
-2057.31 -23.0294 3675
-2044.06 -22.9792 3667
-2035.29 -22.9792 3667
-2021.55 -22.9229 3658
-1995.74 -22.7286 3627
-1978.3 -22.6283 3611
-1969.67 -22.6283 3611
-1961.03 -22.6283 3611
-1952.4 -22.6283 3611
-1931.38 -22.4842 3588
-1922.8 -22.4842 3588
-1914.22 -22.4842 3588
-1905.64 -22.4842 3588
-1897.06 -22.4842 3588
-1888.48 -22.4842 3588
-1875.71 -22.4341 3580
-1862.98 -22.3839 3572
-1858.59 -22.4341 3580
-1850.03 -22.4341 3580
-1841.47 -22.4341 3580
-1832.91 -22.4341 3580
-1824.35 -22.4341 3580
-1815.79 -22.4341 3580
-1807.23 -22.4341 3580
-1791.13 -22.3401 3565
-1794.1 -22.4842 3588
-1789.01 -22.5281 3595
-1780.41 -22.5281 3595
-1775.76 -22.5782 3603
-1771.06 -22.6283 3611
-1762.43 -22.6283 3611
-1753.79 -22.6283 3611
-1745.16 -22.6283 3611
-1736.52 -22.6283 3611
-1724.06 -22.5782 3603
-1715.45 -22.5782 3603
-1706.83 -22.5782 3603
-1701.98 -22.6283 3611
-1700.85 -22.7286 3627
-1692.18 -22.7286 3627
-1683.51 -22.7286 3627
-1674.83 -22.7286 3627
-1658.81 -22.6283 3611
-1650.17 -22.6283 3611
-1641.54 -22.6283 3611
-1629.29 -22.5782 3603
-1620.67 -22.5782 3603
-1612.06 -22.5782 3603
-1599.88 -22.5281 3595
-1591.28 -22.5281 3595
-1579.6 -22.4842 3588
-1571.02 -22.4842 3588
-1548.94 -22.2899 3557
-1536.97 -22.2398 3549
-1525.47 -22.1959 3542
-1517 -22.1959 3542
-1499.16 -22.0581 3520
-1484.39 -21.9641 3505
-1463.8 -21.7823 3476
-1455.49 -21.7823 3476
-1440.93 -21.6884 3461
-1421.06 -21.5129 3433
