ply
format ascii 1.0
comment File generated
element vertex 2260
property float x
property float y
property float z
end_header
-95.1517 602.27 2198
-89.7729 601.448 2195
-84.4085 600.626 2192
-79.1667 600.626 2192
-73.925 600.626 2192
-68.5893 599.804 2189
-63.3547 599.804 2189
-58.1201 599.804 2189
-52.8856 599.804 2189
-47.651 599.804 2189
-42.4164 599.804 2189
-37.3857 603.092 2201
-32.1225 603.092 2201
-26.9324 604.736 2207
-21.851 610.216 2227
-16.5701 611.86 2233
-11.2304 611.86 2233
-5.93806 616.792 2251
-0.557702 619.532 2261
4.86834 621.998 2270
10.2966 621.998 2270
15.7456 622.82 2273
21.209 623.642 2276
26.7921 626.93 2288
32.2634 626.93 2288
37.8997 629.67 2298
43.4515 630.492 2301
49.2943 634.877 2317
54.835 634.877 2317
60.4538 635.699 2320
66.0016 635.699 2320
71.5494 635.699 2320
77.0973 635.699 2320
82.4314 634.055 2314
87.8508 633.233 2311
93.3771 633.233 2311
98.9034 633.233 2311
103.978 630.492 2301
109.48 630.492 2301
114.833 629.67 2298
120.328 629.67 2298
263.113 889.43 3246
270.875 889.43 3246
278.637 889.43 3246
286.4 889.43 3246
294.162 889.43 3246
300.157 884.224 3227
307.873 884.224 3227
315.59 884.224 3227
323.307 884.224 3227
499.748 856.001 3124
508.193 857.645 3130
515.678 857.645 3130
523.162 857.645 3130
533.699 862.577 3148
543.29 865.865 3160
556.076 874.086 3190
563.704 874.086 3190
571.332 874.086 3190
578.961 874.086 3190
586.589 874.086 3190
706.839 862.577 3148
714.367 862.577 3148
721.894 862.577 3148
729.422 862.577 3148
736.95 862.577 3148
741.64 859.289 3136
753.439 864.221 3154
760.981 864.221 3154
769.985 865.865 3160
777.542 865.865 3160
785.098 865.865 3160
794.16 867.509 3166
804.77 870.798 3178
812.369 870.798 3178
819.969 870.798 3178
827.568 870.798 3178
836.745 872.442 3184
845.95 874.086 3190
853.578 874.086 3190
864.446 877.374 3202
872.103 877.374 3202
884.98 882.58 3221
892.682 882.58 3221
903.739 885.868 3233
918.518 892.718 3258
937.398 903.404 3297
945.282 903.404 3297
958.948 908.885 3317
970.669 912.447 3330
982.453 916.009 3343
990.447 916.009 3343
1012.78 929.161 3391
1022.99 931.079 3398
1031.12 931.079 3398
1039.24 931.079 3398
1047.37 931.079 3398
1057.67 932.997 3405
1068 934.915 3412
1076.16 934.915 3412
1086.55 936.833 3419
1096.96 938.752 3426
1109.67 942.588 3440
1117.9 942.588 3440
1130.71 946.424 3454
1141.28 948.342 3461
1151.88 950.26 3468
1160.17 950.26 3468
1168.46 950.26 3468
1179.47 952.452 3476
1187.78 952.452 3476
1196.09 952.452 3476
1204.41 952.452 3476
1215.16 954.37 3483
1223.49 954.37 3483
1236.77 958.206 3497
1245.13 958.206 3497
1253.5 958.206 3497
1261.86 958.206 3497
1270.22 958.206 3497
1278.58 958.206 3497
1279.22 952.452 3476
1287.53 952.452 3476
1298.45 954.37 3483
1306.78 954.37 3483
1320.39 958.206 3497
1328.76 958.206 3497
1337.12 958.206 3497
1345.48 958.206 3497
1351.13 956.288 3490
1342.73 944.506 3447
1320.79 923.407 3370
1328.85 923.407 3370
1334.13 921.489 3363
1334.19 916.009 3343
1342.19 916.009 3343
1350.18 916.009 3343
1347.61 908.885 3317
1349.82 905.049 3303
1357.72 905.049 3303
1365.62 905.049 3303
1373.52 905.049 3303
1389.78 910.529 3323
1400.67 912.447 3330
1408.64 912.447 3330
1416.6 912.447 3330
1421.57 910.529 3323
1426.93 908.885 3317
1426.21 903.404 3297
1434.1 903.404 3297
1438.92 901.486 3290
1441.51 898.198 3278
1449.35 898.198 3278
1457.19 898.198 3278
1465.03 898.198 3278
1472.87 898.198 3278
1477.54 896.28 3271
1485.36 896.28 3271
1490.45 894.636 3265
1498.25 894.636 3265
1506.06 894.636 3265
1513.87 894.636 3265
1518.42 892.718 3258
1526.21 892.718 3258
1534 892.718 3258
1536.11 889.43 3246
1543.87 889.43 3246
1551.63 889.43 3246
1553.15 885.868 3233
1560.88 885.868 3233
1568.61 885.868 3233
1573.42 884.224 3227
1578.19 882.58 3221
1582.45 880.662 3214
1590.14 880.662 3214
1588.87 875.73 3196
1587.52 870.798 3178
1589.1 867.509 3166
1596.67 867.509 3166
1589.04 859.289 3136
1590.43 856.001 3124
1591.76 852.713 3112
1581.73 843.397 3078
1589.09 843.397 3078
1567.41 828.052 3022
1538.68 809.146 2953
1532.13 802.022 2927
1539.13 802.022 2927
1529.76 793.527 2896
1520.76 785.307 2866
1520.16 781.471 2852
1516.27 775.991 2832
1523.04 775.991 2832
1522.25 772.155 2818
1526.28 770.785 2813
1530.82 769.689 2809
1537.54 769.689 2809
1541.51 768.319 2804
1548.21 768.319 2804
1552.15 766.948 2799
1558.84 766.948 2799
1568.33 768.319 2804
1575.03 768.319 2804
1584.56 769.689 2809
1593.54 770.785 2813
1600.27 770.785 2813
1607 770.785 2813
1611.43 769.689 2809
1618.15 769.689 2809
1624.86 769.689 2809
2043.82 956.288 3490
2052.17 956.288 3490
2073.5 962.316 3512
2090.79 966.426 3527
2099.23 966.426 3527
2107.66 966.426 3527
2111.9 964.508 3520
2120.31 964.508 3520
2128.73 964.508 3520
2123.18 958.206 3497
2131.55 958.206 3497
2139.91 958.206 3497
2148.27 958.206 3497
2152.32 956.288 3490
2142.71 948.342 3461
2146.63 946.424 3454
2154.89 946.424 3454
2163.15 946.424 3454
2171.41 946.424 3454
2179.67 946.424 3454
2170.2 938.752 3426
2178.39 938.752 3426
2186.58 938.752 3426
2176.84 931.079 3398
2180.46 929.161 3391
2188.57 929.161 3391
2192.14 927.243 3384
2182.68 919.845 3357
2173.09 912.447 3330
2181.05 912.447 3330
2189.01 912.447 3330
2179.16 905.049 3303
2183.09 903.404 3297
2204.26 908.885 3317
2229.54 916.009 3343
2237.53 916.009 3343
2258.96 921.489 3363
2267 921.489 3363
2275.04 921.489 3363
2283.08 921.489 3363
2273.41 914.365 3337
2271.82 910.529 3323
2279.77 910.529 3323
2265 901.486 3290
2272.86 901.486 3290
2267.56 896.28 3271
2262.16 891.074 3252
2269.94 891.074 3252
2273.52 889.43 3246
2276.36 887.512 3239
2275.64 884.224 3227
2283.36 884.224 3227
2281.84 880.662 3214
2289.53 880.662 3214
2292.93 879.018 3208
2300.6 879.018 3208
2308.27 879.018 3208
2311.61 877.374 3202
2306.23 872.442 3184
2305.12 869.154 3172
2321.46 872.442 3184
2329.07 872.442 3184
2341.09 874.086 3190
2353.13 875.73 3196
2365.21 877.374 3202
2372.87 877.374 3202
2380.52 877.374 3202
2392.65 879.018 3208
2410.05 882.58 3221
2417.76 882.58 3221
2434.49 885.868 3233
2461.11 892.718 3258
2468.9 892.718 3258
2476.69 892.718 3258
2484.48 892.718 3258
2463.97 882.58 3221
-2570.37 948.893 3433
-2562.16 948.893 3433
-2559.16 950.828 3440
-2550.93 950.828 3440
-2542.71 950.828 3440
-2519.01 945.024 3419
-2510.83 945.024 3419
-2512.91 948.893 3433
-2509.8 950.828 3440
-2501.58 950.828 3440
-2493.35 950.828 3440
-2485.13 950.828 3440
-2476.9 950.828 3440
-2468.67 950.828 3440
-2450.43 946.959 3426
-2407.31 933.415 3377
-2399.24 933.415 3377
-2367.09 924.017 3343
-2349.92 920.424 3330
-2346.88 922.359 3337
-2338.9 922.359 3337
-2330.92 922.359 3337
-2322.94 922.359 3337
-2310.1 920.424 3330
-2270.34 907.709 3284
-2262.49 907.709 3284
-2254.63 907.709 3284
-2242.67 906.051 3278
-2238.93 907.709 3284
-2267.08 922.359 3337
-2259.1 922.359 3337
-2268.66 929.545 3363
-2288.85 941.154 3405
-2299.46 948.893 3433
-2291.25 948.893 3433
-2287.7 950.828 3440
-2279.47 950.828 3440
-2271.25 950.828 3440
-2258.35 980.956 3549
-2264.44 987.313 3572
-2255.9 987.313 3572
-2247.36 987.313 3572
-2243.83 989.525 3580
-2235.27 989.525 3580
-2226.71 989.525 3580
-2213.19 987.313 3572
-2204.65 987.313 3572
-2196.11 987.313 3572
-2187.57 987.313 3572
-2155.84 976.81 3534
-2134.02 970.729 3512
-2125.63 970.729 3512
-2117.23 970.729 3512
-2108.83 970.729 3512
-2105.22 972.94 3520
-2096.8 972.94 3520
-2088.38 972.94 3520
-2079.96 972.94 3520
-2045.65 960.779 3476
-2032.65 958.568 3468
-2024.36 958.568 3468
-1991.65 946.959 3426
-1920.35 916.831 3317
-1927.41 924.017 3343
-1930.9 929.545 3363
-1922.86 929.545 3363
-1914.81 929.545 3363
-1906.77 929.545 3363
-1898.73 929.545 3363
-1860.89 914.896 3310
-1841.78 909.368 3290
-1819.98 902.458 3265
-1812.17 902.458 3265
-1804.36 902.458 3265
-1782.25 895.271 3239
-1774.5 895.271 3239
-1777.12 900.523 3258
-1769.33 900.523 3258
-1761.54 900.523 3258
-1760.75 904.116 3271
-1752.92 904.116 3271
-1745.1 904.116 3271
-1730.38 900.523 3258
-1722.58 900.523 3258
-1714.79 900.523 3258
-1707 900.523 3258
-1699.21 900.523 3258
-1688.31 898.864 3252
-1673.81 895.271 3239
-1666.07 895.271 3239
-1658.32 895.271 3239
-1650.58 895.271 3239
-1642.83 895.271 3239
-1635.08 895.271 3239
-1627.34 895.271 3239
-1632.59 902.458 3265
-1624.79 902.458 3265
-1616.98 902.458 3265
-1609.17 902.458 3265
-1368.84 888.361 3214
-1361.15 888.361 3214
-1358.94 891.954 3227
-1351.22 891.954 3227
-1351.42 897.206 3246
-1343.66 897.206 3246
-1338.36 898.864 3252
-1333.04 900.523 3258
-1328.1 902.458 3265
-1320.29 902.458 3265
-1314.89 904.116 3271
-1312.27 907.709 3284
-1314.74 914.896 3310
-1306.83 914.896 3310
-1298.91 914.896 3310
-1298.8 920.424 3330
-1290.83 920.424 3330
-1282.87 920.424 3330
-1267.25 914.896 3310
-1256.67 912.961 3303
-1254.07 916.831 3317
-1246.13 916.831 3317
-1243.06 920.424 3330
-1235.09 920.424 3330
-1227.13 920.424 3330
-1204.52 909.368 3290
-1099.26 881.727 3190
-1091.63 881.727 3190
-1084 881.727 3190
-1076.37 881.727 3190
-1072.76 885.044 3202
-1075.42 893.613 3233
-1086.51 909.368 3290
-1078.64 909.368 3290
-1070.78 909.368 3290
-1062.91 909.368 3290
-1063.7 916.831 3317
-1055.77 916.831 3317
-1047.84 916.831 3317
-1022.23 922.359 3337
-1024.29 931.48 3370
-1016.23 931.48 3370
-1008.17 931.48 3370
-1002.19 933.415 3377
-996.172 935.35 3384
-1016.99 962.714 3483
-1008.66 962.714 3483
-1019.28 980.956 3549
-1023.9 993.671 3595
-1022.08 1000.3 3619
-1013.43 1000.3 3619
-1004.77 1000.3 3619
-1002.45 1006.66 3642
-993.739 1006.66 3642
-985.03 1006.66 3642
-771.183 937.284 3391
-763.074 937.284 3391
-754.965 937.284 3391
-742.231 931.48 3370
-729.815 925.952 3350
-717.495 920.424 3330
-709.532 920.424 3330
-694.616 911.302 3297
-685.274 909.368 3290
-677.407 909.368 3290
-669.539 909.368 3290
-661.672 909.368 3290
-653.805 909.368 3290
-648.49 912.961 3303
-647.185 922.359 3337
-652.231 941.154 3405
-644.088 941.154 3405
-639.868 946.959 3426
-638.129 956.633 3461
-633.856 962.714 3483
-625.527 962.714 3483
-618.439 964.648 3490
-612.715 968.794 3505
-605.541 970.729 3512
-597.142 970.729 3512
-588.744 970.729 3512
-580.346 970.729 3512
-571.948 970.729 3512
-556.489 958.568 3468
-548.196 958.568 3468
-539.903 958.568 3468
-531.61 958.568 3468
-521.204 954.698 3454
-509.826 948.893 3433
-499.571 945.024 3419
-491.395 945.024 3419
-483.219 945.024 3419
-475.044 945.024 3419
-466.868 945.024 3419
-458.692 945.024 3419
-149.661 615.551 2227
-144.336 615.551 2227
-139.011 615.551 2227
-133.325 613.892 2221
-128.014 613.892 2221
-122.261 611.681 2213
-116.493 609.193 2204
-111.071 608.364 2201
-105.808 608.364 2201
-100.545 608.364 2201
-95.2815 608.364 2201
-89.8956 607.535 2198
-84.524 606.706 2195
-79.2751 606.706 2195
-73.925 605.877 2192
-68.6833 605.877 2192
-63.4415 605.877 2192
-58.1998 605.877 2192
-52.8856 605.047 2189
-47.651 605.047 2189
-42.4746 605.877 2192
-37.3857 608.364 2201
-32.1225 608.364 2201
-26.9324 610.023 2207
-21.851 615.551 2227
-16.5701 617.209 2233
-11.2304 617.209 2233
-5.93806 622.184 2251
-0.558442 625.778 2264
4.86834 627.436 2270
10.2966 627.436 2270
15.7456 628.265 2273
21.209 629.094 2276
26.7921 632.411 2288
32.2634 632.411 2288
37.8997 635.175 2298
43.4515 636.005 2301
49.2943 640.427 2317
54.835 640.427 2317
60.4538 641.256 2320
66.0016 641.256 2320
71.5494 641.256 2320
77.0973 641.256 2320
82.4314 639.598 2314
87.8508 638.769 2311
93.3771 638.769 2311
98.9034 638.769 2311
103.978 636.005 2301
109.48 636.005 2301
114.833 635.175 2298
120.328 635.175 2298
263.113 897.206 3246
270.875 897.206 3246
278.637 897.206 3246
286.4 897.206 3246
294.162 897.206 3246
300.157 891.954 3227
307.873 891.954 3227
315.59 891.954 3227
323.307 891.954 3227
499.748 863.485 3124
508.193 865.143 3130
515.678 865.143 3130
523.162 865.143 3130
533.699 870.118 3148
543.29 873.435 3160
556.076 881.727 3190
563.704 881.727 3190
571.332 881.727 3190
578.961 881.727 3190
586.589 881.727 3190
581.923 863.485 3124
706.839 870.118 3148
714.367 870.118 3148
721.894 870.118 3148
729.422 870.118 3148
736.95 870.118 3148
743.059 868.46 3142
754.872 873.435 3160
762.429 873.435 3160
769.985 873.435 3160
777.542 873.435 3160
786.589 875.094 3166
795.665 876.752 3172
804.77 878.41 3178
812.369 878.41 3178
819.969 878.41 3178
829.131 880.069 3184
838.321 881.727 3190
847.541 883.386 3196
855.183 883.386 3196
864.446 885.044 3202
872.103 885.044 3202
883.057 888.361 3214
890.742 888.361 3214
900.385 890.296 3221
916.827 898.864 3252
935.408 909.368 3290
943.275 909.368 3290
951.142 909.368 3290
966.88 916.831 3317
978.632 920.424 3330
986.596 920.424 3330
1010.69 935.35 3384
1020.89 937.284 3391
1031.12 939.219 3398
1039.24 939.219 3398
1047.37 939.219 3398
1057.67 941.154 3405
1068 943.089 3412
1076.16 943.089 3412
1084.32 943.089 3412
1092.48 943.089 3412
1105.16 946.959 3426
1113.35 946.959 3426
1126.12 950.828 3440
1136.66 952.763 3447
1149.55 956.633 3461
1157.83 956.633 3461
1166.1 956.633 3461
1174.38 956.633 3461
1182.66 956.633 3461
1190.93 956.633 3461
1199.21 956.633 3461
1207.49 956.633 3461
1215.76 956.633 3461
1226.51 958.568 3468
1234.81 958.568 3468
1243.1 958.568 3468
1251.39 958.568 3468
1259.69 958.568 3468
1265.42 956.633 3461
1273.7 956.633 3461
1269.01 946.959 3426
1282.42 950.828 3440
1290.65 950.828 3440
1298.87 950.828 3440
1326.1 964.648 3490
1334.44 964.648 3490
1342.79 964.648 3490
1334.49 952.763 3447
1329.1 943.089 3412
1318.05 929.545 3363
1326.09 929.545 3363
1326.2 924.017 3343
1334.19 924.017 3343
1336.97 920.424 3330
1344.93 920.424 3330
1344.77 914.896 3310
1349.82 912.961 3303
1355.26 911.302 3297
1368.52 914.896 3310
1376.43 914.896 3310
1395.64 922.359 3337
1403.62 922.359 3337
1411.6 922.359 3337
1419.58 922.359 3337
1421.57 918.489 3323
1429.51 918.489 3323
1426.21 911.302 3297
1434.1 911.302 3297
1438.92 909.368 3290
1441.51 906.051 3278
1449.35 906.051 3278
1457.19 906.051 3278
1465.03 906.051 3278
1472.87 906.051 3278
1477.54 904.116 3271
1485.36 904.116 3271
1490.45 902.458 3265
1498.25 902.458 3265
1506.06 902.458 3265
1513.87 902.458 3265
1518.42 900.523 3258
1526.21 900.523 3258
1534 900.523 3258
1536.11 897.206 3246
1543.87 897.206 3246
1551.63 897.206 3246
1553.15 893.613 3233
1560.88 893.613 3233
1568.61 893.613 3233
1573.42 891.954 3227
1578.19 890.296 3221
1585.9 890.296 3221
1593.6 890.296 3221
1588.87 883.386 3196
1587.52 878.41 3178
1592.11 876.752 3172
1599.7 876.752 3172
1592.08 868.46 3142
1593.49 865.143 3130
1594.83 861.826 3118
1581.73 850.77 3078
1589.09 850.77 3078
1567.41 835.292 3022
1541.29 817.602 2958
1537.37 811.797 2937
1544.39 811.797 2937
1535.04 803.229 2906
1528.72 796.319 2881
1522.82 789.685 2857
1521.62 785.539 2842
1528.42 785.539 2842
1527.65 781.669 2828
1531.7 780.287 2823
1538.45 780.287 2823
1545.2 780.287 2823
1549.2 778.905 2818
1553.18 777.523 2813
1557.69 776.418 2809
1564.41 776.418 2809
1573.36 777.523 2813
1580.09 777.523 2813
1589.64 778.905 2818
1602.04 781.669 2828
1608.8 781.669 2828
1615.57 781.669 2828
1622.33 781.669 2828
1629.09 781.669 2828
1635.85 781.669 2828
2022.74 954.698 3454
2031 954.698 3454
2039.26 954.698 3454
2068.86 964.648 3490
2077.21 964.648 3490
2085.55 964.648 3490
2093.9 964.648 3490
2102.24 964.648 3490
2110.59 964.648 3490
2110.43 960.779 3476
2113.87 958.568 3468
2117.88 956.633 3461
2126.16 956.633 3461
2130.11 954.698 3454
2129.71 950.828 3440
2124.88 945.024 3419
2133.06 945.024 3419
2141.23 945.024 3419
2140.61 941.154 3405
2148.75 941.154 3405
2143.59 935.35 3384
2151.68 935.35 3384
2159.77 935.35 3384
2158.9 931.48 3370
2166.96 931.48 3370
2175.02 931.48 3370
2174.65 927.887 3357
2165.13 920.424 3330
2160.04 914.896 3310
2154.85 909.368 3290
2162.72 909.368 3290
2166.63 907.709 3284
2165.87 904.116 3271
2190.97 911.302 3297
2225.54 922.359 3337
2233.51 922.359 3337
2250.23 925.952 3350
2258.24 925.952 3350
2266.25 925.952 3350
2274.26 925.952 3350
2273.41 922.359 3337
2271.82 918.489 3323
2279.77 918.489 3323
2265 909.368 3290
2259.74 904.116 3271
2263.4 902.458 3265
2257.99 897.206 3246
2265.75 897.206 3246
2268.61 895.271 3239
2267.92 891.954 3227
2271.41 890.296 3221
2279.11 890.296 3221
2277.58 886.703 3208
2285.26 886.703 3208
2292.93 886.703 3208
2300.6 886.703 3208
2308.27 886.703 3208
2311.61 885.044 3202
2306.23 880.069 3184
2305.12 876.752 3172
2312.71 876.752 3172
2320.29 876.752 3172
2336.68 880.069 3184
2348.72 881.727 3190
2356.34 881.727 3190
2363.97 881.727 3190
2380.52 885.044 3202
2388.18 885.044 3202
2404.82 888.361 3214
2412.5 888.361 3214
2434.49 893.613 3233
2461.11 900.523 3258
2474.21 902.458 3265
2482.01 902.458 3265
2489.82 902.458 3265
2497.63 902.458 3265
-2580.85 961.02 3447
-2572.61 961.02 3447
-2579.99 966.875 3468
-2571.7 966.875 3468
-2563.4 966.875 3468
-2544.8 962.972 3454
-2531.4 961.02 3447
-2471.91 941.504 3377
-2463.84 941.504 3377
-2436.13 933.977 3350
-2423.04 932.025 3343
-2429.5 937.601 3363
-2421.46 937.601 3363
-2413.42 937.601 3363
-2405.37 937.601 3363
-2388.06 933.977 3350
-2370.82 930.352 3337
-2362.84 930.352 3337
-2335.8 922.825 3310
-2346.88 930.352 3337
-2338.9 930.352 3337
-2330.92 930.352 3337
-2318.07 928.401 3330
-2278.19 915.576 3284
-2261.35 911.952 3271
-2253.53 911.952 3271
-2228.54 904.982 3246
-2228.99 908.327 3258
-2247.79 919.201 3297
-2284.74 937.601 3363
-2276.7 937.601 3363
-2296.99 949.311 3405
-2312.38 959.069 3440
-2304.15 959.069 3440
-2295.93 959.069 3440
-2287.7 959.069 3440
-2279.47 959.069 3440
-2271.25 959.069 3440
-2258.35 989.458 3549
-2249.86 989.458 3549
-2255.9 995.87 3572
-2247.36 995.87 3572
-2238.82 995.87 3572
-2230.27 995.87 3572
-2221.73 995.87 3572
-2213.19 995.87 3572
-2204.65 995.87 3572
-2196.11 995.87 3572
-2187.57 995.87 3572
-2155.84 985.276 3534
-2134.02 979.142 3512
-2125.63 979.142 3512
-2122.05 981.373 3520
-2113.63 981.373 3520
-2105.22 981.373 3520
-2096.8 981.373 3520
-2088.38 981.373 3520
-2079.96 981.373 3520
-2045.65 969.106 3476
-2012.14 957.117 3433
-2003.93 957.117 3433
-1991.65 955.166 3426
-1920.35 924.776 3317
-1912.42 924.776 3317
-1923.43 933.977 3350
-1915.42 933.977 3350
-1907.41 933.977 3350
-1876.72 922.825 3310
-1868.81 922.825 3310
-1856.96 920.873 3303
-1827.78 910.279 3265
-1812.73 906.655 3252
-1797.74 903.03 3239
-1789.99 903.03 3239
-1778.95 901.357 3233
-1771.22 901.357 3233
-1763.48 901.357 3233
-1755.75 901.357 3233
-1748.02 901.357 3233
-1747.29 904.982 3246
-1739.53 904.982 3246
-1731.76 904.982 3246
-1724 904.982 3246
-1719.41 906.655 3252
-1711.64 906.655 3252
-1703.86 906.655 3252
-1683.04 899.685 3227
-1675.33 899.685 3227
-1664.51 898.012 3221
-1656.81 898.012 3221
-1649.11 898.012 3221
-1644.46 899.685 3227
-1636.74 899.685 3227
-1629.03 899.685 3227
-1342.86 869.295 3118
-1343.12 874.314 3136
-1350.95 884.351 3172
-1343.37 884.351 3172
-1350.94 894.387 3208
-1345.78 896.06 3214
-1341.01 898.012 3221
-1333.31 898.012 3221
-1328.07 899.685 3227
-1330.59 906.655 3252
-1328.1 910.279 3265
-1320.29 910.279 3265
-1312.48 910.279 3265
-1309.87 913.903 3278
-1306.8 917.249 3290
-1298.93 917.249 3290
-1293.81 919.201 3297
-1291 922.825 3310
-1283.08 922.825 3310
-1275.17 922.825 3310
-1267.25 922.825 3310
-1254.39 919.201 3297
-1246.51 919.201 3297
-1238.62 919.201 3297
-1230.74 919.201 3297
-1222.85 919.201 3297
-1214.97 919.201 3297
-1207.08 919.201 3297
-1189.74 911.952 3271
-1181.92 911.952 3271
-1183.43 919.201 3297
-1175.55 919.201 3297
-1167.66 919.201 3297
-1099.26 889.369 3190
-1091.63 889.369 3190
-1084 889.369 3190
-1074.35 887.696 3184
-1066.73 887.696 3184
-1065.11 892.715 3202
-1086.51 917.249 3290
-1078.64 917.249 3290
-1070.78 917.249 3290
-1062.91 917.249 3290
-1063.7 924.776 3317
-1055.77 924.776 3317
-1047.84 924.776 3317
-1013.96 922.825 3310
-1012.13 928.401 3330
-1004.16 928.401 3330
-998.295 930.352 3337
-990.316 930.352 3337
-996.172 943.456 3384
-1016.99 971.057 3483
-1008.66 971.057 3483
-1017.27 987.506 3542
-1023.9 1002.28 3595
-1022.08 1008.97 3619
-1013.43 1008.97 3619
-1004.77 1008.97 3619
-996.117 1008.97 3619
-987.463 1008.97 3619
-978.809 1008.97 3619
-771.183 945.408 3391
-763.074 945.408 3391
-754.965 945.408 3391
-742.231 939.553 3370
-728.29 932.025 3343
-715.987 926.449 3323
-708.04 926.449 3323
-694.616 919.201 3297
-682.775 913.903 3278
-674.936 913.903 3278
-665.673 911.952 3271
-657.851 911.952 3271
-648.837 910.279 3265
-645.937 917.249 3290
-639.427 919.201 3297
-631.543 919.201 3297
-623.659 919.201 3297
-635.946 949.311 3405
-631.676 955.166 3426
-624.757 957.117 3433
-616.548 957.117 3433
-610.819 961.02 3447
-605.024 964.924 3461
-596.747 964.924 3461
-588.471 964.924 3461
-580.195 964.924 3461
-539.344 951.262 3412
-531.185 951.262 3412
-523.026 951.262 3412
-514.867 951.262 3412
-506.707 951.262 3412
-495.48 945.408 3391
-487.371 945.408 3391
-477.283 941.504 3377
-469.208 941.504 3377
-149.661 620.885 2227
-144.336 620.885 2227
-139.011 620.885 2227
-133.325 619.213 2221
-128.014 619.213 2221
-122.261 616.982 2213
-116.493 614.473 2204
-111.071 613.637 2201
-105.808 613.637 2201
-100.545 613.637 2201
-95.2815 613.637 2201
-89.8956 612.8 2198
-84.524 611.964 2195
-79.2751 611.964 2195
-73.925 611.128 2192
-68.6833 611.128 2192
-63.4415 611.128 2192
-58.1998 611.128 2192
-52.8856 610.291 2189
-47.651 610.291 2189
-42.4746 611.128 2192
-37.3857 613.637 2201
-32.1225 613.637 2201
-26.9324 615.31 2207
-21.851 620.885 2227
-16.5701 622.558 2233
-11.2304 622.558 2233
-5.93806 627.577 2251
-0.558442 631.201 2264
4.86834 632.874 2270
10.2966 632.874 2270
15.7456 633.71 2273
21.209 634.547 2276
26.7921 637.892 2288
32.2634 637.892 2288
37.8997 640.68 2298
43.4515 641.517 2301
49.2943 645.977 2317
54.835 645.977 2317
60.4538 646.814 2320
66.0016 646.814 2320
71.5494 646.814 2320
77.0973 646.814 2320
82.4314 645.141 2314
87.8508 644.305 2311
93.3771 644.305 2311
98.9034 644.305 2311
103.978 641.517 2301
109.48 641.517 2301
114.833 640.68 2298
120.328 640.68 2298
263.113 904.982 3246
270.875 904.982 3246
278.637 904.982 3246
286.4 904.982 3246
294.162 904.982 3246
300.157 899.685 3227
307.873 899.685 3227
315.59 899.685 3227
323.307 899.685 3227
499.748 870.968 3124
508.193 872.641 3130
515.678 872.641 3130
523.162 872.641 3130
533.699 877.659 3148
543.29 881.005 3160
553.984 886.023 3178
561.584 886.023 3178
569.183 886.023 3178
576.783 886.023 3178
584.382 886.023 3178
581.923 870.968 3124
706.839 877.659 3148
714.367 877.659 3148
721.894 877.659 3148
729.422 877.659 3148
736.95 877.659 3148
744.478 877.659 3148
754.872 881.005 3160
762.429 881.005 3160
769.985 881.005 3160
777.542 881.005 3160
786.589 882.678 3166
795.665 884.351 3172
804.77 886.023 3178
813.903 887.696 3184
821.517 887.696 3184
830.693 889.369 3190
839.898 891.042 3196
847.541 891.042 3196
855.183 891.042 3196
864.446 892.715 3202
872.103 892.715 3202
883.057 896.06 3214
890.742 896.06 3214
900.385 898.012 3221
916.827 906.655 3252
935.408 917.249 3290
943.275 917.249 3290
951.142 917.249 3290
966.88 924.776 3317
978.632 928.401 3330
986.596 928.401 3330
1010.69 943.456 3384
1020.89 945.408 3391
1031.12 947.359 3398
1039.24 947.359 3398
1047.37 947.359 3398
1057.67 949.311 3405
1068 951.262 3412
1076.16 951.262 3412
1084.32 951.262 3412
1092.48 951.262 3412
1105.16 955.166 3426
1113.35 955.166 3426
1126.12 959.069 3440
1138.97 962.972 3454
1149.55 964.924 3461
1157.83 964.924 3461
1166.1 964.924 3461
1174.38 964.924 3461
1182.66 964.924 3461
1190.93 964.924 3461
1199.21 964.924 3461
1207.49 964.924 3461
1215.76 964.924 3461
1226.51 966.875 3468
1234.81 966.875 3468
1243.1 966.875 3468
1251.39 966.875 3468
1259.69 966.875 3468
1265.42 964.924 3461
1273.7 964.924 3461
1269.01 955.166 3426
1282.42 959.069 3440
1290.65 959.069 3440
1298.87 959.069 3440
1326.1 973.009 3490
1334.44 973.009 3490
1342.79 973.009 3490
1334.49 961.02 3447
1329.1 951.262 3412
1318.05 937.601 3363
1326.09 937.601 3363
1326.2 932.025 3343
1334.19 932.025 3343
1339.78 930.352 3337
1347.76 930.352 3337
1344.77 922.825 3310
1349.82 920.873 3303
1360.6 922.825 3310
1368.52 922.825 3310
1376.43 922.825 3310
1395.64 930.352 3337
1403.62 930.352 3337
1411.6 930.352 3337
1419.58 930.352 3337
1424.56 928.401 3330
1429.51 926.449 3323
1426.21 919.201 3297
1434.1 919.201 3297
1438.92 917.249 3290
1441.51 913.903 3278
1449.35 913.903 3278
1457.19 913.903 3278
1465.03 913.903 3278
1472.87 913.903 3278
1477.54 911.952 3271
1485.36 911.952 3271
1490.45 910.279 3265
1498.25 910.279 3265
1506.06 910.279 3265
1513.87 910.279 3265
1518.42 908.327 3258
1526.21 908.327 3258
1534 908.327 3258
1536.11 904.982 3246
1543.87 904.982 3246
1551.63 904.982 3246
1553.15 901.357 3233
1560.88 901.357 3233
1568.61 901.357 3233
1573.42 899.685 3227
1578.19 898.012 3221
1585.9 898.012 3221
1593.6 898.012 3221
1588.87 891.042 3196
1587.52 886.023 3178
1592.11 884.351 3172
1599.7 884.351 3172
1592.08 875.987 3142
1593.49 872.641 3130
1594.83 869.295 3118
1587.39 861.21 3089
1594.77 861.21 3089
1576.23 847.27 3039
1563.17 836.397 3000
1548.36 824.688 2958
1555.43 824.688 2958
1543.49 814.651 2922
1534.03 806.008 2891
1527.62 799.038 2866
1524.3 793.741 2847
1531.11 793.741 2847
1535.21 792.347 2842
1536.58 789.559 2832
1543.36 789.559 2832
1550.13 789.559 2832
1554.7 788.444 2828
1558.7 787.05 2823
1559.91 784.262 2813
1566.64 784.262 2813
1576.16 785.656 2818
1582.9 785.656 2818
1595.28 788.444 2828
1609.97 792.347 2842
1616.77 792.347 2842
1623.56 792.347 2842
1630.36 792.347 2842
1629.09 788.444 2828
1635.85 788.444 2828
2022.74 962.972 3454
2031 962.972 3454
2039.26 962.972 3454
2068.86 973.009 3490
2077.21 973.009 3490
2085.55 973.009 3490
2093.9 973.009 3490
2102.24 973.009 3490
2110.59 973.009 3490
2110.43 969.106 3476
2113.87 966.875 3468
2117.88 964.924 3461
2126.16 964.924 3461
2130.11 962.972 3454
2129.71 959.069 3440
2124.88 953.214 3419
2133.06 953.214 3419
2141.23 953.214 3419
2140.61 949.311 3405
2148.75 949.311 3405
2143.59 943.456 3384
2151.68 943.456 3384
2159.77 943.456 3384
2158.9 939.553 3370
2166.96 939.553 3370
2175.02 939.553 3370
2157.16 928.401 3330
2139.12 917.249 3290
2146.99 917.249 3290
2142.41 911.952 3271
2150.23 911.952 3271
2141.56 904.982 3246
2149.32 904.982 3246
2169.71 910.279 3265
2194.19 917.249 3290
2202.06 917.249 3290
2241.49 930.352 3337
2249.47 930.352 3337
2257.45 930.352 3337
2265.43 930.352 3337
2263.88 926.449 3323
2262.93 922.825 3310
2270.85 922.825 3310
2251.92 911.952 3271
2255.59 910.279 3265
2245.38 903.03 3239
2244.77 899.685 3227
2252.49 899.685 3227
2256 898.012 3221
2254.57 894.387 3208
2262.24 894.387 3208
2269.91 894.387 3208
2273.33 892.715 3202
2280.98 892.715 3202
2288.64 892.715 3202
2296.3 892.715 3202
2303.95 892.715 3202
2302.95 889.369 3190
2301.88 886.023 3178
2296.4 881.005 3160
2303.96 881.005 3160
2311.51 881.005 3160
2323.47 882.678 3166
2339.88 886.023 3178
2347.48 886.023 3178
2355.08 886.023 3178
2362.68 886.023 3178
2361.33 882.678 3166
2404.82 896.06 3214
2412.5 896.06 3214
2434.49 901.357 3233
2461.11 908.327 3258
2474.21 910.279 3265
2482.01 910.279 3265
2489.82 910.279 3265
2497.63 910.279 3265
-2607.81 979.401 3483
-2599.48 979.401 3483
-2591.15 979.401 3483
-2582.82 979.401 3483
-2574.49 979.401 3483
-2549.95 973.214 3461
-2531.4 969.278 3447
-2502.66 961.404 3419
-2494.48 961.404 3419
-2436.13 942.002 3350
-2423.04 940.033 3343
-2429.5 945.657 3363
-2421.46 945.657 3363
-2413.42 945.657 3363
-2405.37 945.657 3363
-2388.06 942.002 3350
-2370.82 938.346 3337
-2362.84 938.346 3337
-2335.8 930.754 3310
-2346.88 938.346 3337
-2338.9 938.346 3337
-2330.92 938.346 3337
-2318.07 936.378 3330
-2278.19 923.443 3284
-2261.35 919.787 3271
-2253.53 919.787 3271
-2228.54 912.758 3246
-2242.67 921.756 3278
-2247.79 927.098 3297
-2284.74 945.657 3363
-2338.31 971.246 3454
-2330.05 971.246 3454
-2321.79 971.246 3454
-2313.53 971.246 3454
-2305.27 971.246 3454
-2287.7 967.309 3440
-2279.47 967.309 3440
-2271.25 967.309 3440
-2258.35 997.959 3549
-2249.86 997.959 3549
-2255.9 1004.43 3572
-2247.36 1004.43 3572
-2238.82 1004.43 3572
-2230.27 1004.43 3572
-2221.73 1004.43 3572
-2213.19 1004.43 3572
-2204.65 1004.43 3572
-2196.11 1004.43 3572
-2187.57 1004.43 3572
-2155.84 993.742 3534
-2134.02 987.555 3512
-2125.63 987.555 3512
-2122.05 989.805 3520
-2113.63 989.805 3520
-2105.22 989.805 3520
-2096.8 989.805 3520
-2088.38 989.805 3520
-2079.96 989.805 3520
-2045.65 977.432 3476
-2012.14 965.341 3433
-2003.93 965.341 3433
-1991.65 963.373 3426
-1920.35 932.722 3317
-1912.42 932.722 3317
-1923.43 942.002 3350
-1915.42 942.002 3350
-1907.41 942.002 3350
-1876.72 930.754 3310
-1868.81 930.754 3310
-1846.27 923.443 3284
-1820.51 914.445 3252
-1812.73 914.445 3252
-1797.74 910.789 3239
-1789.99 910.789 3239
-1761.89 900.385 3202
-1757.52 902.072 3208
-1756.94 905.728 3221
-1755.75 909.102 3233
-1748.02 909.102 3233
-1740.29 909.102 3233
-1732.56 909.102 3233
-1731.76 912.758 3246
-1724 912.758 3246
-1716.24 912.758 3246
-1668.58 903.759 3214
-1660.89 903.759 3214
-1653.21 903.759 3214
-1645.52 903.759 3214
-1634.78 902.072 3208
-1323.37 854.55 3039
-1316.11 854.55 3039
-1342.86 876.765 3118
-1343.12 881.826 3136
-1345.84 888.575 3160
-1338.28 888.575 3160
-1335.78 891.949 3172
-1328.19 891.949 3172
-1338.1 903.759 3214
-1330.41 903.759 3214
-1322.72 903.759 3214
-1320.36 907.415 3227
-1320.37 912.758 3246
-1312.61 912.758 3246
-1312.48 918.1 3265
-1304.68 918.1 3265
-1299.25 919.787 3271
-1291.43 919.787 3271
-1288.71 923.443 3284
-1291 930.754 3310
-1283.08 930.754 3310
-1275.17 930.754 3310
-1267.25 930.754 3310
-1254.39 927.098 3297
-1246.51 927.098 3297
-1238.62 927.098 3297
-1235.59 930.754 3310
-1227.67 930.754 3310
-1219.76 930.754 3310
-1211.84 930.754 3310
-1203.93 930.754 3310
-1196.01 930.754 3310
-1188.1 930.754 3310
-1180.18 930.754 3310
-1167.66 927.098 3297
-1106.13 890.262 3166
-1098.56 890.262 3166
-1099.26 897.011 3190
-1091.63 897.011 3190
-1084 897.011 3190
-1074.35 895.323 3184
-1066.73 895.323 3184
-1063.11 898.698 3196
-1078.25 918.1 3265
-1070.45 918.1 3265
-1066.87 921.756 3278
-1060.97 923.443 3284
-1053.12 923.443 3284
-1045.26 923.443 3284
-1037.41 923.443 3284
-1027.68 921.756 3278
-1019.84 921.756 3278
-1032.34 947.626 3370
-1024.29 947.626 3370
-1016.23 947.626 3370
-1008.17 947.626 3370
-988.238 936.378 3330
-982.336 938.346 3337
-1010.56 973.214 3461
-1002.29 973.214 3461
-1017.27 995.991 3542
-1023.9 1010.89 3595
-1022.08 1017.64 3619
-1013.43 1017.64 3619
-1004.77 1017.64 3619
-996.117 1017.64 3619
-987.463 1017.64 3619
-978.809 1017.64 3619
-736.07 919.787 3271
-728.248 919.787 3271
-720.426 919.787 3271
-712.604 919.787 3271
-700.689 914.445 3252
-688.864 909.102 3233
-681.133 909.102 3233
-669.444 903.759 3214
-661.758 903.759 3214
-655.497 905.728 3221
-649.002 907.415 3227
-641.285 907.415 3227
-635.924 910.789 3239
-635.743 921.756 3278
-631.543 927.098 3297
-623.659 927.098 3297
-625.674 942.002 3350
-626.513 955.499 3398
-620.935 959.436 3412
-612.776 959.436 3412
-607.098 963.373 3426
-600.129 965.341 3433
-591.919 965.341 3433
-583.71 965.341 3433
-570.807 957.467 3405
-537.131 955.499 3398
-529.005 955.499 3398
-520.88 955.499 3398
-512.754 955.499 3398
-500.47 947.626 3370
-492.411 947.626 3370
-484.353 947.626 3370
-473.467 942.002 3350
-150.266 628.751 2236
-144.919 628.751 2236
-139.572 628.751 2236
-134.045 627.907 2233
-128.706 627.907 2233
-122.371 622.846 2215
-116.81 621.44 2210
-111.223 619.753 2204
-105.808 618.909 2201
-100.545 618.909 2201
-95.2815 618.909 2201
-89.8956 618.066 2198
-84.524 617.222 2195
-79.2751 617.222 2195
-73.925 616.378 2192
-68.6833 616.378 2192
-63.4415 616.378 2192
-58.1998 616.378 2192
-52.8856 615.535 2189
-47.651 615.535 2189
-42.4746 616.378 2192
-37.4367 619.753 2204
-32.1662 619.753 2204
-26.9324 620.596 2207
-21.8805 627.064 2230
-16.5924 628.751 2236
-11.2454 628.751 2236
-5.93806 632.969 2251
-0.559182 637.468 2267
4.86834 638.312 2270
10.2966 638.312 2270
15.7456 639.155 2273
21.209 639.999 2276
26.757 642.53 2285
32.2211 642.53 2285
37.8502 645.341 2295
43.4515 647.029 2301
49.2305 650.684 2314
54.764 650.684 2314
60.3756 651.528 2317
65.9163 651.528 2317
71.4569 651.528 2317
76.8979 650.684 2314
82.4314 650.684 2314
87.6987 648.716 2307
93.2155 648.716 2307
98.6038 647.872 2304
103.842 646.185 2298
109.337 646.185 2298
114.833 646.185 2298
120.328 646.185 2298
254.8 910.789 3239
262.546 910.789 3239
270.875 912.758 3246
278.637 912.758 3246
286.4 912.758 3246
294.162 912.758 3246
300.157 907.415 3227
307.873 907.415 3227
315.59 907.415 3227
323.307 907.415 3227
329.69 903.759 3214
337.376 903.759 3214
497.829 875.077 3112
508.193 880.139 3130
515.678 880.139 3130
523.162 880.139 3130
533.699 885.201 3148
543.29 888.575 3160
552.938 891.949 3172
560.523 891.949 3172
568.109 891.949 3172
575.694 891.949 3172
583.279 891.949 3172
581.923 878.452 3124
719.143 881.826 3136
729.422 885.201 3148
736.95 885.201 3148
744.478 885.201 3148
754.872 888.575 3160
762.429 888.575 3160
769.985 888.575 3160
777.542 888.575 3160
786.589 890.262 3166
795.665 891.949 3172
804.77 893.636 3178
813.903 895.323 3184
821.517 895.323 3184
830.693 897.011 3190
839.898 898.698 3196
847.541 898.698 3196
855.183 898.698 3196
864.446 900.385 3202
872.103 900.385 3202
879.76 900.385 3202
887.417 900.385 3202
898.428 903.759 3214
913.162 910.789 3239
928.3 918.1 3265
936.107 918.1 3265
951.142 925.13 3290
959.01 925.13 3290
978.632 936.378 3330
986.596 936.378 3330
1000.53 942.002 3350
1018.78 951.562 3384
1028.99 953.531 3391
1037.1 953.531 3391
1045.21 953.531 3391
1053.32 953.531 3391
1063.62 955.499 3398
1071.75 955.499 3398
1079.87 955.499 3398
1090.24 957.467 3405
1105.16 963.373 3426
1113.35 963.373 3426
1126.12 967.309 3440
1138.97 971.246 3454
1147.23 971.246 3454
1155.49 971.246 3454
1163.75 971.246 3454
1169.63 969.278 3447
1177.87 969.278 3447
1186.12 969.278 3447
1194.36 969.278 3447
1202.6 969.278 3447
1210.84 969.278 3447
1224.04 973.214 3461
1232.32 973.214 3461
1243.1 975.183 3468
1251.39 975.183 3468
1259.69 975.183 3468
1265.42 973.214 3461
1258.24 961.404 3419
1266.42 961.404 3419
1282.42 967.309 3440
1290.65 967.309 3440
1298.87 967.309 3440
1307.1 967.309 3440
1315.32 967.309 3440
1323.55 967.309 3440
1323.65 961.404 3419
1329.1 959.436 3412
1307.86 938.346 3337
1315.84 938.346 3337
1323.82 938.346 3337
1331.8 938.346 3337
1339.78 938.346 3337
1347.76 938.346 3337
1344.77 930.754 3310
1349.82 928.786 3303
1360.6 930.754 3310
1368.52 930.754 3310
1376.43 930.754 3310
1395.64 938.346 3337
1403.62 938.346 3337
1411.6 938.346 3337
1419.58 938.346 3337
1424.56 936.378 3330
1429.51 934.41 3323
1426.21 927.098 3297
1434.1 927.098 3297
1438.92 925.13 3290
1441.51 921.756 3278
1449.35 921.756 3278
1457.19 921.756 3278
1465.03 921.756 3278
1472.87 921.756 3278
1477.54 919.787 3271
1485.36 919.787 3271
1490.45 918.1 3265
1498.25 918.1 3265
1502.83 916.132 3258
1510.62 916.132 3258
1518.42 916.132 3258
1526.21 916.132 3258
1534 916.132 3258
1536.11 912.758 3246
1543.87 912.758 3246
1551.63 912.758 3246
1553.15 909.102 3233
1560.88 909.102 3233
1568.61 909.102 3233
1573.42 907.415 3227
1578.19 905.728 3221
1585.9 905.728 3221
1593.6 905.728 3221
1588.87 898.698 3196
1587.52 893.636 3178
1592.11 891.949 3172
1599.7 891.949 3172
1592.08 883.513 3142
1593.49 880.139 3130
1594.83 876.765 3118
1587.39 868.61 3089
1594.77 868.61 3089
1576.23 854.55 3039
1563.17 843.584 3000
1548.36 831.773 2958
1555.43 831.773 2958
1543.49 821.651 2922
1534.03 812.933 2891
1527.62 805.904 2866
1524.3 800.561 2847
1531.11 800.561 2847
1535.21 799.155 2842
1536.58 796.343 2832
1543.36 796.343 2832
1550.13 796.343 2832
1554.7 795.218 2828
1558.7 793.812 2823
1559.91 791 2813
1566.64 791 2813
1576.16 792.406 2818
1582.9 792.406 2818
1595.28 795.218 2828
1609.97 799.155 2842
1616.77 799.155 2842
1623.56 799.155 2842
1630.36 799.155 2842
1629.09 795.218 2828
1635.85 795.218 2828
1989.95 955.499 3398
1998.07 955.499 3398
2022.73 963.373 3426
2030.92 963.373 3426
2059.95 973.214 3461
2068.22 973.214 3461
2076.5 973.214 3461
2084.77 973.214 3461
2093.05 973.214 3461
2092.83 969.278 3447
2096.8 967.309 3440
2105.03 967.309 3440
2113.25 967.309 3440
2104.21 959.436 3412
2095.04 951.562 3384
2103.13 951.562 3384
2106.85 949.594 3377
2114.93 949.594 3377
2123.01 949.594 3377
2131.08 949.594 3377
2126.49 943.97 3357
2134.51 943.97 3357
2142.54 943.97 3357
2150.57 943.97 3357
2149.6 940.033 3343
2157.59 940.033 3343
2157.16 936.378 3330
2139.12 925.13 3290
2146.99 925.13 3290
2142.41 919.787 3271
2150.23 919.787 3271
2141.56 912.758 3246
2149.32 912.758 3246
2169.71 918.1 3265
2194.19 925.13 3290
2202.06 925.13 3290
2241.49 938.346 3337
2249.47 938.346 3337
2257.45 938.346 3337
2265.43 938.346 3337
2263.88 934.41 3323
2262.93 930.754 3310
2270.85 930.754 3310
2251.92 919.787 3271
2255.59 918.1 3265
2245.38 910.789 3239
2244.77 907.415 3227
2252.49 907.415 3227
2256 905.728 3221
2254.57 902.072 3208
2262.24 902.072 3208
2269.91 902.072 3208
2273.33 900.385 3202
2280.98 900.385 3202
2288.64 900.385 3202
2296.3 900.385 3202
2303.95 900.385 3202
2302.95 897.011 3190
2301.88 893.636 3178
2296.4 888.575 3160
2303.96 888.575 3160
2311.51 888.575 3160
2323.47 890.262 3166
2339.88 893.636 3178
2347.48 893.636 3178
2355.08 893.636 3178
2362.68 893.636 3178
2361.33 890.262 3166
2404.82 903.759 3214
2412.5 903.759 3214
2434.49 909.102 3233
2461.11 916.132 3258
2474.21 918.1 3265
2482.01 918.1 3265
2489.82 918.1 3265
2497.63 918.1 3265
-2607.81 987.744 3483
-2599.48 987.744 3483
-2591.15 987.744 3483
-2582.82 987.744 3483
-2574.49 987.744 3483
-2549.95 981.505 3461
-2531.4 977.535 3447
-2502.66 969.594 3419
-2494.48 969.594 3419
-2431.04 948.042 3343
-2418.7 946.34 3337
-2415.05 948.042 3343
-2407.06 948.042 3343
-2404.09 950.027 3350
-2396.07 950.027 3350
-2388.06 950.027 3350
-2360.87 942.37 3323
-2352.92 942.37 3323
-2326.63 934.996 3297
-2346.88 946.34 3337
-2338.9 946.34 3337
-2330.92 946.34 3337
-2318.07 944.355 3330
-2231.48 918.548 3239
-2223.74 918.548 3239
-2242.67 929.608 3278
-2247.79 934.996 3297
-2284.74 953.713 3363
-2338.31 979.52 3454
-2330.05 979.52 3454
-2321.79 979.52 3454
-2313.53 979.52 3454
-2305.27 979.52 3454
-2287.7 975.55 3440
-2164.14 998.237 3520
-2155.72 998.237 3520
-2147.3 998.237 3520
-2134.02 995.968 3512
-2125.63 995.968 3512
-2122.05 998.237 3520
-2113.63 998.237 3520
-2105.22 998.237 3520
-2096.8 998.237 3520
-2088.38 998.237 3520
-2079.96 998.237 3520
-2045.65 985.759 3476
-2012.14 973.565 3433
-2003.93 973.565 3433
-1890.5 922.235 3252
-1890.25 925.922 3265
-1900.89 934.996 3297
-1900.47 938.683 3310
-1892.55 938.683 3310
-1884.64 938.683 3310
-1872.75 936.698 3303
-1864.85 936.698 3303
-1846.27 931.31 3284
-1820.51 922.235 3252
-1812.73 922.235 3252
-1797.74 918.548 3239
-1789.99 918.548 3239
-1761.89 908.055 3202
-1757.52 909.757 3208
-1756.94 913.444 3221
-1755.75 916.847 3233
-1748.02 916.847 3233
-1740.29 916.847 3233
-1732.56 916.847 3233
-1731.76 920.533 3246
-1724 920.533 3246
-1716.24 920.533 3246
-1668.58 911.458 3214
-1660.89 911.458 3214
-1653.21 911.458 3214
-1645.52 911.458 3214
-1634.78 909.757 3208
-1328.01 860.129 3033
-1323.37 861.83 3039
-1316.11 861.83 3039
-1342.86 884.234 3118
-1343.12 889.338 3136
-1345.84 896.145 3160
-1338.28 896.145 3160
-1335.78 899.548 3172
-1328.19 899.548 3172
-1338.1 911.458 3214
-1330.41 911.458 3214
-1322.72 911.458 3214
-1320.36 915.145 3227
-1320.37 920.533 3246
-1312.61 920.533 3246
-1312.48 925.922 3265
-1304.68 925.922 3265
-1299.25 927.623 3271
-1291.43 927.623 3271
-1288.71 931.31 3284
-1291 938.683 3310
-1283.08 938.683 3310
-1275.17 938.683 3310
-1267.25 938.683 3310
-1254.39 934.996 3297
-1248.77 936.698 3303
-1240.88 936.698 3303
-1235.59 938.683 3310
-1227.67 938.683 3310
-1219.76 938.683 3310
-1211.84 938.683 3310
-1218.48 950.027 3350
-1210.47 950.027 3350
-1202.46 950.027 3350
-1180.18 938.683 3310
-1167.66 934.996 3297
-1106.13 897.846 3166
-1098.56 897.846 3166
-1099.26 904.652 3190
-1091.63 904.652 3190
-1084 904.652 3190
-1074.35 902.951 3184
-1066.73 902.951 3184
-1063.11 906.354 3196
-1078.25 925.922 3265
-1070.45 925.922 3265
-1066.87 929.608 3278
-1060.97 931.31 3284
-1053.12 931.31 3284
-1045.26 931.31 3284
-1037.41 931.31 3284
-1027.68 929.608 3278
-1019.84 929.608 3278
-1032.34 955.699 3370
-1024.29 955.699 3370
-1016.23 955.699 3370
-1008.17 955.699 3370
-994.174 950.027 3350
-982.336 946.34 3337
-1010.56 981.505 3461
-1002.29 981.505 3461
-1017.27 1004.48 3542
-1023.9 1019.51 3595
-1022.08 1026.31 3619
-1013.43 1026.31 3619
-1004.77 1026.31 3619
-996.117 1026.31 3619
-987.463 1026.31 3619
-978.809 1026.31 3619
-914.45 993.983 3505
-906.068 993.983 3505
-897.687 993.983 3505
-889.305 993.983 3505
-880.924 993.983 3505
-736.07 927.623 3271
-728.248 927.623 3271
-720.426 927.623 3271
-712.604 927.623 3271
-700.689 922.235 3252
-688.864 916.847 3233
-681.133 916.847 3233
-669.444 911.458 3214
-661.758 911.458 3214
-655.497 913.444 3221
-649.002 915.145 3227
-641.285 915.145 3227
-635.924 918.548 3239
-635.743 929.608 3278
-631.543 934.996 3297
-623.659 934.996 3297
-625.674 950.027 3350
-626.513 963.639 3398
-618.387 963.639 3398
-610.262 963.639 3398
-603.377 965.624 3405
-595.234 965.624 3405
-587.092 965.624 3405
-578.949 965.624 3405
-563.766 953.713 3363
-522.622 952.012 3357
-514.595 952.012 3357
-506.567 952.012 3357
-494.53 944.355 3330
-483.644 938.683 3310
-475.729 938.683 3310
-467.814 938.683 3310
-150.266 634.107 2236
-144.919 634.107 2236
-139.572 634.107 2236
-134.045 633.257 2233
-128.706 633.257 2233
-122.371 628.152 2215
-116.81 626.734 2210
-111.223 625.033 2204
-105.808 624.182 2201
-100.545 624.182 2201
-95.2815 624.182 2201
-89.8956 623.331 2198
-84.6395 623.331 2198
-79.3834 623.331 2198
-74.0262 622.48 2195
-68.6833 621.629 2192
-63.4415 621.629 2192
-58.1998 621.629 2192
-52.8856 620.779 2189
-47.7163 621.629 2192
-42.5327 622.48 2195
-37.4367 625.033 2204
-32.1662 625.033 2204
-26.969 626.734 2210
-21.8805 632.406 2230
-16.5924 634.107 2236
-11.2454 634.107 2236
-5.93806 638.361 2251
-0.559182 642.899 2267
4.87477 644.6 2273
10.3102 644.6 2273
15.7456 644.6 2273
21.237 646.302 2279
26.757 648.003 2285
32.2211 648.003 2285
37.8502 650.839 2295
43.3949 651.69 2298
49.2305 656.227 2314
54.764 656.227 2314
60.3756 657.078 2317
65.9163 657.078 2317
71.4569 657.078 2317
76.8979 656.227 2314
82.182 654.242 2307
87.3566 651.69 2298
92.8518 651.69 2298
98.347 651.69 2298
103.571 649.988 2292
108.576 647.153 2282
113.733 645.451 2276
119.176 645.451 2276
239.309 918.548 3239
247.055 918.548 3239
254.8 918.548 3239
262.546 918.548 3239
270.291 918.548 3239
278.037 918.548 3239
285.782 918.548 3239
291.896 913.444 3221
299.599 913.444 3221
307.873 915.145 3227
315.59 915.145 3227
323.307 915.145 3227
329.69 911.458 3214
337.376 911.458 3214
497.829 882.532 3112
506.245 884.234 3118
514.689 885.935 3124
522.16 885.935 3124
531.664 889.338 3136
543.29 896.145 3160
550.846 896.145 3160
558.403 896.145 3160
565.959 896.145 3160
568.071 887.637 3130
575.556 887.637 3130
720.519 891.04 3142
729.422 892.742 3148
736.95 892.742 3148
744.478 892.742 3148
754.872 896.145 3160
762.429 896.145 3160
769.985 896.145 3160
777.542 896.145 3160
785.098 896.145 3160
795.665 899.548 3172
806.289 902.951 3184
813.903 902.951 3184
821.517 902.951 3184
830.693 904.652 3190
839.898 906.354 3196
847.541 906.354 3196
855.183 906.354 3196
862.826 906.354 3196
870.469 906.354 3196
878.111 906.354 3196
884.091 904.652 3190
893.396 906.354 3196
908.087 913.444 3221
922.898 920.533 3246
930.66 920.533 3246
943.915 925.922 3265
959.01 933.011 3290
972.755 938.683 3310
980.67 938.683 3310
998.441 948.042 3343
1008.54 950.027 3350
1016.55 950.027 3350
1024.56 950.027 3350
1032.58 950.027 3350
1053.32 961.654 3391
1061.43 961.654 3391
1069.54 961.654 3391
1077.65 961.654 3391
1090.24 965.624 3405
1105.16 971.58 3426
1113.35 971.58 3426
1126.12 975.55 3440
1138.97 979.52 3454
1147.23 979.52 3454
1155.49 979.52 3454
1163.75 979.52 3454
1169.63 977.535 3447
1177.87 977.535 3447
1186.12 977.535 3447
1194.36 977.535 3447
1202.6 977.535 3447
1210.84 977.535 3447
1219.09 977.535 3447
1227.33 977.535 3447
1240.59 981.505 3461
1248.87 981.505 3461
1257.14 981.505 3461
1265.42 981.505 3461
1255.66 967.609 3412
1261.23 965.624 3405
1269.37 965.624 3405
1277.51 965.624 3405
1296.59 961.654 3391
1304.7 961.654 3391
1312.81 961.654 3391
1320.92 961.654 3391
1305.12 944.355 3330
1315.84 946.34 3337
1323.82 946.34 3337
1331.8 946.34 3337
1339.78 946.34 3337
1347.76 946.34 3337
1344.77 938.683 3310
1352.69 938.683 3310
1363.48 940.668 3317
1371.41 940.668 3317
1379.34 940.668 3317
1395.64 946.34 3337
1406.14 948.042 3343
1414.14 948.042 3343
1422.13 948.042 3343
1427.56 946.34 3337
1429.51 942.37 3323
1426.21 934.996 3297
1434.1 934.996 3297
1438.92 933.011 3290
1441.51 929.608 3278
1449.35 929.608 3278
1457.19 929.608 3278
1465.03 929.608 3278
1472.87 929.608 3278
1477.54 927.623 3271
1485.36 927.623 3271
1490.45 925.922 3265
1495.04 923.936 3258
1502.83 923.936 3258
1510.62 923.936 3258
1518.42 923.936 3258
1523.4 922.235 3252
1528.35 920.533 3246
1536.11 920.533 3246
1543.87 920.533 3246
1548.29 918.548 3239
1553.15 916.847 3233
1557.98 915.145 3227
1565.7 915.145 3227
1573.42 915.145 3227
1578.19 913.444 3221
1585.9 913.444 3221
1593.6 913.444 3221
1588.87 906.354 3196
1590.52 902.951 3184
1592.11 899.548 3172
1599.7 899.548 3172
1601.2 896.145 3160
1596.54 889.338 3136
1600.97 887.637 3130
1596.64 881.114 3107
1604.07 881.114 3107
1602.16 876.01 3089
1583.49 861.83 3039
1570.35 850.77 3000
1577.52 850.77 3000
1562.51 838.859 2958
1550.48 828.65 2922
1538.28 818.441 2886
1532.33 811.635 2862
1539.17 811.635 2862
1537.91 807.381 2847
1542.01 805.963 2842
1548.81 805.963 2842
1555.6 805.963 2842
1559.65 804.545 2837
1563.67 803.127 2832
1568.23 801.993 2828
1574.99 801.993 2828
1581.75 801.993 2828
1588.51 801.993 2828
1603.17 805.963 2842
1615.64 808.799 2852
1622.46 808.799 2852
1629.28 808.799 2852
1636.1 808.799 2852
1989.95 963.639 3398
1998.07 963.639 3398
2006.2 963.639 3398
2014.32 963.639 3398
2022.45 963.639 3398
2030.57 963.639 3398
2038.7 963.639 3398
2046.83 963.639 3398
2054.95 963.639 3398
2063.08 963.639 3398
2066.94 961.654 3391
2075.04 961.654 3391
2083.15 961.654 3391
2078.31 955.699 3370
2053.56 940.668 3317
2057.14 938.683 3310
2060.69 936.698 3303
2068.59 936.698 3303
2076.48 936.698 3303
2076.18 933.011 3290
2084.05 933.011 3290
2096.36 934.996 3297
2104.25 934.996 3297
2112.13 934.996 3297
2120.02 934.996 3297
2127.9 934.996 3297
2131.25 933.011 3290
2122.86 925.922 3265
2118.27 920.533 3246
2126.03 920.533 3246
2133.8 920.533 3246
2136.94 918.548 3239
2132.77 913.444 3221
2169.71 925.922 3265
2186.19 929.608 3278
2194.03 929.608 3278
2223.36 938.683 3310
2231.27 938.683 3310
2239.19 938.683 3310
2247.1 938.683 3310
2255.02 938.683 3310
2236.27 927.623 3271
2244.09 927.623 3271
2238.83 922.235 3252
2233.49 916.847 3233
2232.9 913.444 3221
2231.56 909.757 3208
2239.23 909.757 3208
2238.49 906.354 3196
2246.14 906.354 3196
2253.78 906.354 3196
2261.42 906.354 3196
2269.07 906.354 3196
2276.71 906.354 3196
2284.35 906.354 3196
2291.99 906.354 3196
2295.32 904.652 3190
2294.28 901.249 3178
2288.85 896.145 3160
2292.04 894.443 3154
2299.58 894.443 3154
2307.13 894.443 3154
2319.07 896.145 3160
2331.05 897.846 3166
2338.62 897.846 3166
2346.19 897.846 3166
2353.76 897.846 3166
2356.85 896.145 3160
2377.88 901.249 3178
2385.48 901.249 3178
2434.49 916.847 3233
2461.11 923.936 3258
2474.21 925.922 3265
2482.01 925.922 3265
2489.82 925.922 3265
2497.63 925.922 3265
-2607.81 996.088 3483
-2599.48 996.088 3483
-2591.15 996.088 3483
-2582.82 996.088 3483
-2574.49 996.088 3483
-2549.95 989.796 3461
-2531.4 985.792 3447
-2502.66 977.785 3419
-2494.48 977.785 3419
-2436.13 958.052 3350
-2418.7 954.334 3337
-2396.27 948.614 3317
-2242.67 937.461 3278
-2234.84 937.461 3278
-2227 937.461 3278
-2343.05 989.796 3461
-2334.77 989.796 3461
-2326.49 989.796 3461
-2318.22 989.796 3461
-2305.27 987.794 3454
-2287.7 983.79 3440
-2141.63 1000.09 3497
-2133.27 1000.09 3497
-2134.02 1004.38 3512
-2125.63 1004.38 3512
-2122.05 1006.67 3520
-2113.63 1006.67 3520
-2105.22 1006.67 3520
-2096.8 1006.67 3520
-2088.38 1006.67 3520
