ply
format ascii 1.0
comment File generated
element vertex 2255
property float x
property float y
property float z
end_header
-358.223 1132.09 2301
-352.72 1132.09 2301
-346.765 1130.61 2298
-340.379 1127.66 2292
-334.898 1127.66 2292
-329.417 1127.66 2292
-323.371 1125.69 2288
-318.456 1127.66 2292
-313.384 1129.14 2295
-307.896 1129.14 2295
-302.804 1130.61 2298
-297.308 1130.61 2298
-291.813 1130.61 2298
-285.944 1129.14 2295
-279.234 1124.22 2285
-273.77 1124.22 2285
-268.306 1124.22 2285
-262.497 1122.74 2282
-256.026 1118.31 2273
-250.591 1118.31 2273
-245.155 1118.31 2273
-239.403 1116.84 2270
-233.047 1112.41 2261
-227.641 1112.41 2261
-222.234 1112.41 2261
-216.827 1112.41 2261
-211.42 1112.41 2261
-205.649 1110.44 2257
-200.252 1110.44 2257
-194.855 1110.44 2257
-189.458 1110.44 2257
-182.837 1103.06 2242
-176.289 1095.68 2227
-170.963 1095.68 2227
-165.638 1095.68 2227
-159.664 1091.25 2218
-153.595 1085.84 2207
-148.317 1085.84 2207
-142.262 1079.94 2195
-136.826 1078.46 2192
-131.584 1078.46 2192
-126.342 1078.46 2192
-121.101 1078.46 2192
-116.652 1085.84 2207
-111.525 1087.32 2210
-106.385 1088.79 2213
-101.093 1088.79 2213
-95.801 1088.79 2213
-16.6147 1101.59 2239
-11.2605 1101.59 2239
-5.9064 1101.59 2239
-0.550795 1098.63 2233
4.78898 1098.63 2233
9.91558 1075.51 2186
15.046 1068.62 2172
146.828 1082.89 2201
152.921 1088.79 2213
158.213 1088.79 2213
163.505 1088.79 2213
169.178 1091.25 2218
174.954 1094.21 2224
180.272 1094.21 2224
185.59 1094.21 2224
190.909 1094.21 2224
195.698 1091.25 2218
203.176 1103.06 2242
208.538 1103.06 2242
214.758 1107.49 2251
220.141 1107.49 2251
225.523 1107.49 2251
231.214 1108.97 2254
236.604 1108.97 2254
241.994 1108.97 2254
248.152 1112.41 2261
253.895 1113.89 2264
259.309 1113.89 2264
265.425 1116.84 2270
271.211 1118.31 2273
276.646 1118.31 2273
282.082 1118.31 2273
287.517 1118.31 2273
292.953 1118.31 2273
299.57 1122.74 2282
305.027 1122.74 2282
310.483 1122.74 2282
316.771 1125.69 2288
322.806 1127.66 2292
328.287 1127.66 2292
333.768 1127.66 2292
339.248 1127.66 2292
345.18 1129.14 2295
350.669 1129.14 2295
356.157 1129.14 2295
361.645 1129.14 2295
368.092 1132.09 2301
373.595 1132.09 2301
379.591 1133.57 2304
385.101 1133.57 2304
390.611 1133.57 2304
396.12 1133.57 2304
401.107 1132.09 2301
406.609 1132.09 2301
411.574 1130.61 2298
417.069 1130.61 2298
422.013 1129.14 2295
427.501 1129.14 2295
433.555 1130.61 2298
439.05 1130.61 2298
444.546 1130.61 2298
450.041 1130.61 2298
455.536 1130.61 2298
461.031 1130.61 2298
465.308 1127.66 2292
469.351 1124.22 2285
475.439 1125.69 2288
480.91 1125.69 2288
486.381 1125.69 2288
491.853 1125.69 2288
498.194 1127.66 2292
504.993 1130.61 2298
510.488 1130.61 2298
518.004 1135.04 2307
523.521 1135.04 2307
529.038 1135.04 2307
534.554 1135.04 2307
539.369 1133.57 2304
544.878 1133.57 2304
550.388 1133.57 2304
555.897 1133.57 2304
559.214 1129.14 2295
562.98 1125.69 2288
569.445 1127.66 2292
574.926 1127.66 2292
580.406 1127.66 2292
585.887 1127.66 2292
591.368 1127.66 2292
596.849 1127.66 2292
601.279 1125.69 2288
608.606 1129.14 2295
614.094 1129.14 2295
619.583 1129.14 2295
625.071 1129.14 2295
627.811 1124.22 2285
632.444 1122.74 2282
637.901 1122.74 2282
644.203 1124.22 2285
649.668 1124.22 2285
655.992 1125.69 2288
663.487 1129.14 2295
672.473 1135.04 2307
677.99 1135.04 2307
685.58 1138.49 2314
691.114 1138.49 2314
698.453 1141.44 2320
704.001 1141.44 2320
710.467 1142.91 2323
716.022 1142.91 2323
722.819 1144.88 2327
728.384 1144.88 2327
733.948 1144.88 2327
737.288 1141.44 2320
742.836 1141.44 2320
748.384 1141.44 2320
751.007 1137.01 2311
756.533 1137.01 2311
762.06 1137.01 2311
767.586 1137.01 2311
771.774 1135.04 2307
775.269 1132.09 2301
780.772 1132.09 2301
785.249 1130.61 2298
787.303 1125.69 2288
791.735 1124.22 2285
798.246 1125.69 2288
805.122 1127.66 2292
810.603 1127.66 2292
817.152 1129.14 2295
823.715 1130.61 2298
830.293 1132.09 2301
835.795 1132.09 2301
844.954 1137.01 2311
851.584 1138.49 2314
857.118 1138.49 2314
862.651 1138.49 2314
865.559 1135.04 2307
869.943 1133.57 2304
878.112 1137.01 2311
883.638 1137.01 2311
891.473 1139.96 2317
897.014 1139.96 2317
904.892 1142.91 2323
910.447 1142.91 2323
918.762 1146.36 2330
927.11 1149.8 2337
935.094 1152.75 2343
940.696 1152.75 2343
946.299 1152.75 2343
951.902 1152.75 2343
957.505 1152.75 2343
963.108 1152.75 2343
967.47 1151.28 2340
973.066 1151.28 2340
973.224 1144.88 2327
978.789 1144.88 2327
982.661 1142.91 2323
989.918 1144.88 2327
1001.04 1151.28 2340
1006.64 1151.28 2340
1012.24 1151.28 2340
1013.48 1146.36 2330
1014.68 1141.44 2320
1020.23 1141.44 2320
1025.78 1141.44 2320
1031.32 1141.44 2320
1036.87 1141.44 2320
1041.07 1139.96 2317
1046.61 1139.96 2317
1049.43 1137.01 2311
1054.95 1137.01 2311
1060.48 1137.01 2311
1066.01 1137.01 2311
1068.29 1133.57 2304
1069.6 1129.14 2295
1071.81 1125.69 2288
1077.28 1125.69 2288
1081.33 1124.22 2285
1086.8 1124.22 2285
1090.83 1122.74 2282
1096.28 1122.74 2282
1097.4 1118.31 2273
1102.83 1118.31 2273
1109.73 1119.79 2276
1115.17 1119.79 2276
1120.62 1119.79 2276
1126.06 1119.79 2276
1131.5 1119.79 2276
1133.95 1116.84 2270
1139.37 1116.84 2270
1143.29 1115.36 2267
1142.12 1108.97 2254
1145.99 1107.49 2251
1154.44 1110.44 2257
1159.84 1110.44 2257
1167.3 1112.41 2261
1172.7 1112.41 2261
1181.24 1115.36 2267
1186.66 1115.36 2267
1195.23 1118.31 2273
1202.25 1119.79 2276
1210.88 1122.74 2282
1216.34 1122.74 2282
1221.79 1122.74 2282
1227.25 1122.74 2282
1232.71 1122.74 2282
1238.17 1122.74 2282
1243.62 1122.74 2282
1247.44 1121.27 2279
1252.89 1121.27 2279
1258.34 1121.27 2279
1263.79 1121.27 2279
1270.91 1122.74 2282
1278.04 1124.22 2285
1283.51 1124.22 2285
1288.97 1124.22 2285
1294.43 1124.22 2285
1303.88 1127.66 2292
1311.08 1129.14 2295
1316.56 1129.14 2295
1322.05 1129.14 2295
1331.01 1132.09 2301
1342.32 1137.01 2311
1353.1 1141.44 2320
1358.64 1141.44 2320
1365.96 1142.91 2323
1371.51 1142.91 2323
1377.07 1142.91 2323
1382.62 1142.91 2323
1388.18 1142.91 2323
1396.13 1144.88 2327
1403.5 1146.36 2330
1409.07 1146.36 2330
1414.65 1146.36 2330
1420.22 1146.36 2330
1425.79 1146.36 2330
1431.36 1146.36 2330
1436.93 1146.36 2330
1442.51 1146.36 2330
1452.43 1149.8 2337
1458.02 1149.8 2337
1463.6 1149.8 2337
1471.08 1151.28 2340
1476.67 1151.28 2340
1482.27 1151.28 2340
1487.87 1151.28 2340
1491.55 1149.8 2337
1497.13 1149.8 2337
1502.72 1149.8 2337
1501.86 1144.88 2327
1507.42 1144.88 2327
1508.44 1141.44 2320
1513.98 1141.44 2320
1519.53 1141.44 2320
1525.08 1141.44 2320
1528.65 1139.96 2317
1534.19 1139.96 2317
1539.73 1139.96 2317
1545.27 1139.96 2317
1557.5 1144.88 2327
1563.07 1144.88 2327
1568.63 1144.88 2327
1574.2 1144.88 2327
1579.76 1144.88 2327
1582.6 1142.91 2323
1590.89 1144.88 2327
1596.46 1144.88 2327
1606.15 1147.83 2333
1614.49 1149.8 2337
1629.09 1156.2 2350
1634.71 1156.2 2350
1640.33 1156.2 2350
1650.15 1159.15 2356
1658.6 1161.12 2360
1664.24 1161.12 2360
1672.01 1162.59 2363
1679.79 1164.07 2366
1692.57 1168.99 2376
1698.25 1168.99 2376
1703.93 1168.99 2376
1709.62 1168.99 2376
1715.3 1168.99 2376
1720.98 1168.99 2376
1722.3 1166.04 2370
1725.05 1164.07 2366
1723.4 1159.15 2356
1729.03 1159.15 2356
1732.45 1157.67 2353
1732.91 1154.23 2346
1728.89 1147.83 2333
1734.47 1147.83 2333
1735.57 1144.88 2327
1729.16 1137.01 2311
1734.69 1137.01 2311
1740.21 1137.01 2311
1745.74 1137.01 2311
1748.24 1135.04 2307
1753.75 1135.04 2307
1759.27 1135.04 2307
1764.79 1135.04 2307
-1586.83 1054.54 2133
-1581.73 1054.54 2133
-1576.63 1054.54 2133
-1571.53 1054.54 2133
-1551.65 1133.15 2292
-1546.17 1133.15 2292
-1540.69 1133.15 2292
-1532.53 1131.18 2288
-1521.05 1126.73 2279
-1515.6 1126.73 2279
-1502.2 1120.79 2267
-1496.78 1120.79 2267
-1495.3 1123.76 2273
-1489.87 1123.76 2273
-1484.43 1123.76 2273
-1479 1123.76 2273
-1473.56 1123.76 2273
-1466.19 1122.28 2270
-1460.76 1122.28 2270
-1451.49 1119.31 2264
-1446.07 1119.31 2264
-1440.66 1119.31 2264
-1435.24 1119.31 2264
-1427.94 1117.83 2261
-1418.13 1114.37 2254
-1405.21 1108.43 2242
-1399.85 1108.43 2242
-1379.56 1096.57 2218
-1374.26 1096.57 2218
-1365.87 1094.1 2213
-1360.58 1094.1 2213
-1355.29 1094.1 2213
-1348.16 1092.61 2210
-1331.94 1083.71 2192
-1326.7 1083.71 2192
-1313.02 1076.79 2178
-1306.01 1075.31 2175
-1299.01 1073.83 2172
-1293.82 1073.83 2172
-1272.01 1059.98 2144
-1265.7 1058.99 2142
-1260.58 1058.99 2142
-1255.46 1058.99 2142
-1250.34 1058.99 2142
-1256.26 1068.39 2161
-1255.73 1072.34 2169
-1250.54 1072.34 2169
-1245.35 1072.34 2169
-1245.31 1076.79 2178
-1240.1 1076.79 2178
-1236.6 1078.28 2181
-1231.38 1078.28 2181
-1226.16 1078.28 2181
-1220.95 1078.28 2181
-1217.41 1079.76 2184
-1212.18 1079.76 2184
-1206.96 1079.76 2184
-1200.09 1078.28 2181
-1196.52 1079.76 2184
-1194.02 1082.23 2189
-1188.79 1082.23 2189
-1193.28 1091.13 2207
-1188.01 1091.13 2207
-1182.73 1091.13 2207
-1177.45 1091.13 2207
-1172.17 1091.13 2207
-1163.72 1088.16 2201
-1158.46 1088.16 2201
-1144.29 1079.76 2184
-1135.94 1076.79 2178
-1130.73 1076.79 2178
-1125.52 1076.79 2178
-1118.77 1075.31 2175
-1113.57 1075.31 2175
-1112.95 1079.76 2184
-1110.27 1082.23 2189
-1105.03 1082.23 2189
-1099.8 1082.23 2189
-1094.56 1082.23 2189
-1089.33 1082.23 2189
-1084.09 1082.23 2189
-1077.38 1080.75 2186
-1073.63 1082.23 2189
-1068.39 1082.23 2189
-1063.16 1082.23 2189
-1057.92 1082.23 2189
-1055.57 1085.2 2195
-1056.07 1091.13 2207
-1050.79 1091.13 2207
-1045.51 1091.13 2207
-1044 1095.08 2215
-1047.15 1103.98 2233
-1041.81 1103.98 2233
-1042.04 1109.92 2245
-1038.05 1111.4 2248
-1032.68 1111.4 2248
-1027.3 1111.4 2248
-1021.93 1111.4 2248
-1015.2 1109.92 2245
-1009.83 1109.92 2245
-1001.77 1106.95 2239
-991.08 1101.02 2227
-985.754 1101.02 2227
-984.391 1105.47 2236
-979.044 1105.47 2236
-977.616 1109.92 2245
-972.248 1109.92 2245
-966.879 1109.92 2245
-961.511 1109.92 2245
-954.865 1108.43 2242
-949.503 1108.43 2242
-945.405 1109.92 2245
-940.037 1109.92 2245
-934.668 1109.92 2245
-929.3 1109.92 2245
-923.932 1109.92 2245
-918.563 1109.92 2245
-915.635 1112.88 2251
-910.252 1112.88 2251
-904.87 1112.88 2251
-899.487 1112.88 2251
-894.104 1112.88 2251
-889.906 1114.37 2254
-885.693 1115.85 2257
-880.296 1115.85 2257
-876.449 1117.83 2261
-871.042 1117.83 2261
-865.635 1117.83 2261
-858.707 1115.85 2257
-853.31 1115.85 2257
-849.415 1117.83 2261
-844.009 1117.83 2261
-840.827 1120.79 2267
-835.406 1120.79 2267
-831.083 1122.28 2270
-825.655 1122.28 2270
-820.227 1122.28 2270
-813.722 1120.79 2267
-807.231 1119.31 2264
-799.338 1115.85 2257
-793.941 1115.85 2257
-786.447 1112.88 2251
-777.942 1108.43 2242
-773.614 1109.92 2245
-769.272 1111.4 2248
-763.897 1111.4 2248
-759.533 1112.88 2251
-754.151 1112.88 2251
-749.766 1114.37 2254
-744.376 1114.37 2254
-739.969 1115.85 2257
-735.874 1117.83 2261
-730.467 1117.83 2261
-725.06 1117.83 2261
-720.609 1119.31 2264
-715.195 1119.31 2264
-709.781 1119.31 2264
-704.367 1119.31 2264
-696.792 1115.85 2257
-690.476 1114.37 2254
-685.086 1114.37 2254
-679.696 1114.37 2254
-675.203 1115.85 2257
-670.993 1117.83 2261
-665.586 1117.83 2261
-660.18 1117.83 2261
-654.773 1117.83 2261
-646.494 1112.88 2251
-641.111 1112.88 2251
-635.728 1112.88 2251
-630.346 1112.88 2251
-624.13 1111.4 2248
-616.277 1106.95 2239
-610.923 1106.95 2239
-604.757 1105.47 2236
-597.802 1102.5 2230
-594.063 1105.47 2236
-590.296 1108.43 2242
-584.935 1108.43 2242
-581.125 1111.4 2248
-577.286 1114.37 2254
-571.896 1114.37 2254
-566.506 1114.37 2254
-561.116 1114.37 2254
-554.246 1111.4 2248
-548.871 1111.4 2248
-543.495 1111.4 2248
-539.556 1114.37 2254
-535.825 1117.83 2261
-531.825 1120.79 2267
-526.404 1120.79 2267
-521.673 1122.28 2270
-516.927 1123.76 2273
-511.491 1123.76 2273
-506.056 1123.76 2273
-502.603 1128.21 2282
-497.146 1128.21 2282
-491.689 1128.21 2282
-486.232 1128.21 2282
-478.879 1123.76 2273
-472.818 1122.28 2270
-467.39 1122.28 2270
-461.962 1122.28 2270
-456.534 1122.28 2270
-451.105 1122.28 2270
-446.266 1123.76 2273
-440.831 1123.76 2273
-435.395 1123.76 2273
-429.96 1123.76 2273
-424.524 1123.76 2273
-418.536 1122.28 2270
-413.108 1122.28 2270
-408.218 1123.76 2273
-403.846 1126.73 2279
-398.921 1128.21 2282
-393.464 1128.21 2282
-388.517 1129.69 2285
-383.053 1129.69 2285
-377.588 1129.69 2285
-372.124 1129.69 2285
-366.66 1129.69 2285
-361.196 1129.69 2285
-355.732 1129.69 2285
-350.268 1129.69 2285
-344.804 1129.69 2285
-338.894 1128.21 2282
-333.437 1128.21 2282
-327.98 1128.21 2282
-321.675 1125.24 2276
-316.233 1125.24 2276
-311.609 1128.21 2282
-306.152 1128.21 2282
-301.486 1131.18 2288
-296.015 1131.18 2288
-290.543 1131.18 2288
-283.951 1126.73 2279
-278.501 1126.73 2279
-273.051 1126.73 2279
-267.601 1126.73 2279
-261.461 1123.76 2273
-255.35 1120.79 2267
-249.598 1119.31 2264
-244.184 1119.31 2264
-238.454 1117.83 2261
-232.326 1114.37 2254
-226.936 1114.37 2254
-221.546 1114.37 2254
-216.156 1114.37 2254
-210.205 1111.4 2248
-204.282 1108.43 2242
-198.921 1108.43 2242
-193.56 1108.43 2242
-188.199 1108.43 2242
-182.837 1108.43 2242
-176.289 1101.02 2227
-170.963 1101.02 2227
-165.638 1101.02 2227
-159.664 1096.57 2218
-153.595 1091.13 2207
-148.317 1091.13 2207
-142.262 1085.2 2195
-136.826 1083.71 2192
-131.584 1083.71 2192
-126.342 1083.71 2192
-121.101 1083.71 2192
-116.652 1091.13 2207
-111.525 1092.61 2210
-106.385 1094.1 2213
-101.093 1094.1 2213
-95.801 1094.1 2213
-90.141 1089.65 2204
-16.6147 1106.95 2239
-11.2605 1106.95 2239
-5.9064 1106.95 2239
-0.550795 1103.98 2233
4.78898 1103.98 2233
9.91558 1080.75 2186
15.046 1073.83 2172
135.249 1079.76 2184
140.472 1079.76 2184
146.828 1088.16 2201
152.921 1094.1 2213
158.213 1094.1 2213
163.505 1094.1 2213
169.178 1096.57 2218
174.954 1099.53 2224
180.272 1099.53 2224
185.59 1099.53 2224
190.909 1099.53 2224
195.698 1096.57 2218
203.176 1108.43 2242
208.538 1108.43 2242
214.758 1112.88 2251
220.141 1112.88 2251
225.523 1112.88 2251
231.214 1114.37 2254
236.604 1114.37 2254
241.994 1114.37 2254
248.152 1117.83 2261
253.895 1119.31 2264
259.309 1119.31 2264
265.425 1122.28 2270
271.211 1123.76 2273
276.646 1123.76 2273
282.082 1123.76 2273
287.517 1123.76 2273
292.953 1123.76 2273
299.57 1128.21 2282
305.027 1128.21 2282
310.483 1128.21 2282
316.771 1131.18 2288
322.806 1133.15 2292
328.287 1133.15 2292
333.768 1133.15 2292
339.248 1133.15 2292
345.18 1134.64 2295
350.669 1134.64 2295
356.157 1134.64 2295
360.542 1131.18 2288
367.133 1134.64 2295
372.621 1134.64 2295
378.109 1134.64 2295
384.6 1137.6 2301
390.102 1137.6 2301
395.604 1137.6 2301
401.107 1137.6 2301
405.549 1134.64 2295
411.037 1134.64 2295
416.525 1134.64 2295
421.461 1133.15 2292
426.942 1133.15 2292
433.555 1136.12 2298
439.05 1136.12 2298
444.546 1136.12 2298
450.041 1136.12 2298
454.347 1133.15 2292
459.827 1133.15 2292
463.887 1129.69 2285
468.119 1126.73 2279
473.569 1126.73 2279
479.018 1126.73 2279
484.468 1126.73 2279
491.208 1129.69 2285
497.324 1131.18 2288
502.795 1131.18 2288
508.267 1131.18 2288
513.738 1131.18 2288
520.117 1133.15 2292
525.598 1133.15 2292
531.079 1133.15 2292
536.56 1133.15 2292
542.04 1133.15 2292
547.521 1133.15 2292
553.002 1133.15 2292
556.046 1128.21 2282
560.765 1126.73 2279
566.215 1126.73 2279
571.665 1126.73 2279
577.115 1126.73 2279
582.564 1126.73 2279
588.014 1126.73 2279
594.245 1128.21 2282
599.702 1128.21 2282
605.955 1129.69 2285
611.419 1129.69 2285
616.883 1129.69 2285
622.347 1129.69 2285
626.163 1126.73 2279
631.612 1126.73 2279
637.062 1126.73 2279
642.512 1126.73 2279
647.962 1126.73 2279
655.132 1129.69 2285
661.463 1131.18 2288
669.849 1136.12 2298
675.345 1136.12 2298
683.506 1140.57 2307
689.023 1140.57 2307
695.744 1142.55 2311
701.27 1142.55 2311
707.714 1144.03 2314
714.172 1145.51 2317
720.645 1147 2320
726.193 1147 2320
731.74 1147 2320
736.335 1145.51 2317
741.875 1145.51 2317
745.481 1142.55 2311
751.007 1142.55 2311
756.533 1142.55 2311
762.06 1142.55 2311
766.257 1140.57 2307
766.756 1133.15 2292
769.878 1129.69 2285
775.342 1129.69 2285
780.807 1129.69 2285
784.206 1126.73 2279
789.656 1126.73 2279
796.152 1128.21 2282
801.609 1128.21 2282
807.066 1128.21 2282
813.591 1129.69 2285
821.565 1133.15 2292
829.211 1136.12 2298
834.706 1136.12 2298
841.298 1137.6 2301
849.008 1140.57 2307
854.525 1140.57 2307
860.042 1140.57 2307
864.433 1139.09 2304
866.544 1134.64 2295
874.312 1137.6 2301
879.815 1137.6 2301
889.164 1142.55 2311
895.852 1144.03 2314
902.554 1145.51 2317
909.271 1147 2320
914.819 1147 2320
923.143 1150.46 2327
928.708 1150.46 2327
934.272 1150.46 2327
939.837 1150.46 2327
942.558 1147 2320
948.106 1147 2320
953.653 1147 2320
959.201 1147 2320
964.749 1147 2320
964.86 1140.57 2307
970.377 1140.57 2307
972.086 1136.12 2298
985.664 1145.51 2317
991.205 1145.51 2317
996.745 1145.51 2317
1002.29 1145.51 2317
1007.83 1145.51 2317
1010.74 1142.55 2311
1016.27 1142.55 2311
1018.7 1139.09 2304
1024.21 1139.09 2304
1029.72 1139.09 2304
1035.23 1139.09 2304
1040.74 1139.09 2304
1046.25 1139.09 2304
1051.76 1139.09 2304
1055.89 1137.6 2301
1061.39 1137.6 2301
1062.72 1133.15 2292
1066.34 1131.18 2288
1067.59 1126.73 2279
1073.04 1126.73 2279
1078.49 1126.73 2279
1082.52 1125.24 2276
1086.53 1123.76 2273
1091.96 1123.76 2273
1094.5 1120.79 2267
1099.92 1120.79 2267
1105.34 1120.79 2267
1110.76 1120.79 2267
1116.18 1120.79 2267
1121.61 1120.79 2267
1127.03 1120.79 2267
1130.95 1119.31 2264
1136.36 1119.31 2264
1140.26 1117.83 2261
1139.08 1111.4 2248
1141.4 1108.43 2242
1152.9 1114.37 2254
1158.29 1114.37 2254
1163.68 1114.37 2254
1169.07 1114.37 2254
1174.46 1114.37 2254
1178.28 1112.88 2251
1192.08 1120.79 2267
1199.09 1122.28 2270
1207.7 1125.24 2276
1216.34 1128.21 2282
1221.79 1128.21 2282
1227.25 1128.21 2282
1232.71 1128.21 2282
1238.17 1128.21 2282
1240.35 1125.24 2276
1242.51 1122.28 2270
1247.94 1122.28 2270
1253.37 1122.28 2270
1258.8 1122.28 2270
1265.9 1123.76 2273
1271.33 1123.76 2273
1278.45 1125.24 2276
1283.89 1125.24 2276
1289.34 1125.24 2276
1298.19 1128.21 2282
1311.08 1134.64 2295
1316.56 1134.64 2295
1322.05 1134.64 2295
1331.01 1137.6 2301
1336.51 1137.6 2301
1345.51 1140.57 2307
1351.03 1140.57 2307
1356.55 1140.57 2307
1362.06 1140.57 2307
1369.95 1142.55 2311
1375.48 1142.55 2311
1381.01 1142.55 2311
1386.53 1142.55 2311
1395.67 1145.51 2317
1401.21 1145.51 2317
1410.4 1148.48 2323
1415.95 1148.48 2323
1421.51 1148.48 2323
1425.22 1147 2320
1427.07 1144.03 2314
1432.6 1144.03 2314
1438.13 1144.03 2314
1443.67 1144.03 2314
1449.2 1144.03 2314
1454.73 1144.03 2314
1460.27 1144.03 2314
1465.8 1144.03 2314
1471.33 1144.03 2314
1476.87 1144.03 2314
1482.4 1144.03 2314
1487.93 1144.03 2314
1493.47 1144.03 2314
1499 1144.03 2314
1508.44 1147 2320
1513.98 1147 2320
1519.53 1147 2320
1521.14 1144.03 2314
1524.69 1142.55 2311
1530.22 1142.55 2311
1535.74 1142.55 2311
1541.27 1142.55 2311
1546.79 1142.55 2311
1552.32 1142.55 2311
1557.85 1142.55 2311
1560.67 1140.57 2307
1566.18 1140.57 2307
1574.43 1142.55 2311
1584.05 1145.51 2317
1589.59 1145.51 2317
1602.02 1150.46 2327
1611.73 1153.42 2333
1620.08 1155.4 2337
1625.67 1155.4 2337
1633.35 1156.88 2340
1638.95 1156.88 2340
1644.54 1156.88 2340
1650.14 1156.88 2340
1664.93 1163.31 2353
1675.53 1166.77 2360
1683.31 1168.26 2363
1688.96 1168.26 2363
1694.61 1168.26 2363
1700.26 1168.26 2363
1705.91 1168.26 2363
1711.56 1168.26 2363
1717.21 1168.26 2363
1717.76 1164.79 2356
1723.4 1164.79 2356
1729.03 1164.79 2356
1732.45 1163.31 2353
1728.48 1156.88 2340
1718.11 1142.55 2311
1723.64 1142.55 2311
1729.16 1142.55 2311
1734.69 1142.55 2311
1737.2 1140.57 2307
1742.72 1140.57 2307
1748.24 1140.57 2307
1753.75 1140.57 2307
1759.27 1140.57 2307
1764.79 1140.57 2307
-1582.8 1050.21 2114
-1577.75 1050.21 2114
-1586.83 1059.65 2133
-1581.73 1059.65 2133
-1576.63 1059.65 2133
-1571.53 1059.65 2133
-1551.65 1138.64 2292
-1546.17 1138.64 2292
-1540.69 1138.64 2292
-1532.53 1136.66 2288
-1521.05 1132.19 2279
-1515.6 1132.19 2279
-1502.2 1126.22 2267
-1496.78 1126.22 2267
-1495.3 1129.2 2273
-1489.87 1129.2 2273
-1484.43 1129.2 2273
-1479 1129.2 2273
-1473.56 1129.2 2273
-1466.19 1127.71 2270
-1460.76 1127.71 2270
-1451.49 1124.73 2264
-1446.07 1124.73 2264
-1440.66 1124.73 2264
-1435.24 1124.73 2264
-1427.94 1123.24 2261
-1418.13 1119.77 2254
-1405.21 1113.8 2242
-1399.85 1113.8 2242
-1379.56 1101.88 2218
-1374.26 1101.88 2218
-1365.87 1099.4 2213
-1360.58 1099.4 2213
-1355.29 1099.4 2213
-1348.16 1097.91 2210
-1331.94 1088.96 2192
-1326.7 1088.96 2192
-1314.83 1083.5 2181
-1306.01 1080.52 2175
-1299.01 1079.03 2172
-1293.82 1079.03 2172
-1272.01 1065.12 2144
-1265.7 1064.12 2142
-1260.58 1064.12 2142
-1260.15 1068.1 2150
-1255.01 1068.1 2150
-1256.26 1073.56 2161
-1257.46 1079.03 2172
-1252.27 1079.03 2172
-1247.07 1079.03 2172
-1241.88 1079.03 2172
-1236.69 1079.03 2172
-1234.89 1082.01 2178
-1229.69 1082.01 2178
-1224.48 1082.01 2178
-1220.95 1083.5 2181
-1217.41 1084.99 2184
-1212.18 1084.99 2184
-1206.96 1084.99 2184
-1198.44 1082.01 2178
-1191.58 1080.52 2175
-1189.66 1083.5 2181
-1184.44 1083.5 2181
-1183.55 1087.47 2189
-1179.93 1088.96 2192
-1179.51 1093.44 2201
-1174.25 1093.44 2201
-1168.99 1093.44 2201
-1158.96 1088.96 2192
-1153.72 1088.96 2192
-1141.15 1082.01 2178
-1135.94 1082.01 2178
-1130.73 1082.01 2178
-1125.52 1082.01 2178
-1114.65 1076.54 2167
-1109.47 1076.54 2167
-1111.43 1083.5 2181
-1107.73 1084.99 2184
-1102.51 1084.99 2184
-1099.8 1087.47 2189
-1094.56 1087.47 2189
-1089.33 1087.47 2189
-1082.61 1085.98 2186
-1077.38 1085.98 2186
-1073.63 1087.47 2189
-1068.39 1087.47 2189
-1063.16 1087.47 2189
-1055.51 1084.99 2184
-1050.28 1084.99 2184
-1050.32 1090.45 2195
-1045.07 1090.45 2195
-1039.83 1090.45 2195
-1040.23 1096.42 2207
-1036.36 1097.91 2210
-1031.08 1097.91 2210
-1042.04 1115.29 2245
-1038.05 1116.78 2248
-1032.68 1116.78 2248
-1027.3 1116.78 2248
-1021.93 1116.78 2248
-1015.2 1115.29 2245
-1009.83 1115.29 2245
-1003.12 1113.8 2242
-989.745 1104.86 2224
-981.771 1101.88 2218
-976.467 1101.88 2218
-971.163 1101.88 2218
-969.778 1106.35 2227
-965.752 1107.84 2230
-960.419 1107.84 2230
-955.086 1107.84 2230
-949.754 1107.84 2230
-944.421 1107.84 2230
-939.089 1107.84 2230
-933.756 1107.84 2230
-928.423 1107.84 2230
-920.607 1104.86 2224
-915.289 1104.86 2224
-909.971 1104.86 2224
-907.093 1107.84 2230
-904.187 1110.82 2236
-898.84 1110.82 2236
-893.493 1110.82 2236
-890.529 1113.8 2242
-886.352 1115.29 2245
-880.984 1115.29 2245
-875.615 1115.29 2245
-870.247 1115.29 2245
-864.878 1115.29 2245
-859.51 1115.29 2245
-854.141 1115.29 2245
-848.773 1115.29 2245
-845.659 1118.28 2251
-841.396 1119.77 2254
-836.006 1119.77 2254
-830.616 1119.77 2254
-827.788 1123.24 2261
-823.473 1124.73 2264
-818.059 1124.73 2264
-812.645 1124.73 2264
-801.526 1116.78 2248
-795.088 1115.29 2245
-789.72 1115.29 2245
-781.207 1110.82 2236
-771.696 1104.86 2224
-768.445 1107.84 2230
-763.113 1107.84 2230
-757.78 1107.84 2230
-752.448 1107.84 2230
-747.115 1107.84 2230
-741.782 1107.84 2230
-735.459 1106.35 2227
-732.101 1109.33 2233
-726.761 1109.33 2233
-721.421 1109.33 2233
-716.081 1109.33 2233
-711.696 1110.82 2236
-706.349 1110.82 2236
-701.003 1110.82 2236
-695.656 1110.82 2236
-687.53 1106.35 2227
-683.124 1107.84 2230
-679.615 1110.82 2236
-674.268 1110.82 2236
-668.921 1110.82 2236
-665.354 1113.8 2242
-659.993 1113.8 2242
-654.632 1113.8 2242
-649.271 1113.8 2242
-639.601 1106.35 2227
-636.839 1110.82 2236
-632.339 1112.31 2239
-626.985 1112.31 2239
-621.631 1112.31 2239
-615.451 1110.82 2236
-610.104 1110.82 2236
-602.323 1106.35 2227
-594.585 1101.88 2218
-589.281 1101.88 2218
-588.716 1110.82 2236
-583.37 1110.82 2236
-578.023 1110.82 2236
-574.212 1113.8 2242
-570.373 1116.78 2248
-564.998 1116.78 2248
-559.622 1116.78 2248
-552.767 1113.8 2242
-547.406 1113.8 2242
-542.044 1113.8 2242
-538.119 1116.78 2248
-533.455 1118.28 2251
-529.479 1121.26 2257
-524.082 1121.26 2257
-520.294 1124.73 2264
-514.88 1124.73 2264
-509.466 1124.73 2264
-504.052 1124.73 2264
-500.62 1129.2 2273
-495.185 1129.2 2273
-489.75 1129.2 2273
-484.314 1129.2 2273
-477.615 1126.22 2267
-470.111 1121.26 2257
-465.537 1123.24 2261
-460.13 1123.24 2261
-454.724 1123.24 2261
-449.913 1124.73 2264
-445.088 1126.22 2267
-439.667 1126.22 2267
-434.246 1126.22 2267
-428.825 1126.22 2267
-423.404 1126.22 2267
-417.43 1124.73 2264
-412.016 1124.73 2264
-407.141 1126.22 2267
-401.719 1126.22 2267
-397.347 1129.2 2273
-391.912 1129.2 2273
-386.986 1130.69 2276
-381.544 1130.69 2276
-376.597 1132.19 2279
-371.147 1132.19 2279
-365.697 1132.19 2279
-360.248 1132.19 2279
-354.798 1132.19 2279
-348.888 1130.69 2276
-342.993 1129.2 2273
-336.221 1124.73 2264
-330.807 1124.73 2264
-325.393 1124.73 2264
-319.555 1123.24 2261
-314.148 1123.24 2261
-310.38 1129.2 2273
-304.945 1129.2 2273
-299.509 1129.2 2273
-294.074 1129.2 2273
-288.639 1129.2 2273
-282.829 1127.71 2270
-277.034 1126.22 2267
-271.613 1126.22 2267
-266.192 1126.22 2267
-260.426 1124.73 2264
-254.674 1123.24 2261
-248.827 1121.26 2257
-243.429 1121.26 2257
-237.716 1119.77 2254
-231.707 1116.78 2248
-226.332 1116.78 2248
-220.366 1113.8 2242
-215.005 1113.8 2242
-209.644 1113.8 2242
-204.009 1112.31 2239
-198.921 1113.8 2242
-193.56 1113.8 2242
-188.199 1113.8 2242
-181.614 1106.35 2227
-175.814 1103.37 2221
-170.503 1103.37 2221
-164.968 1101.88 2218
-158.873 1096.42 2207
-153.386 1094.93 2204
-148.116 1094.93 2204
-142.068 1088.96 2192
-136.451 1085.98 2186
-131.224 1085.98 2186
-126.342 1088.96 2192
-121.101 1088.96 2192
-116.652 1096.42 2207
-111.525 1097.91 2210
-106.385 1099.4 2213
-101.093 1099.4 2213
-95.801 1099.4 2213
-90.141 1094.93 2204
135.249 1084.99 2184
140.472 1084.99 2184
146.828 1093.44 2201
152.921 1099.4 2213
158.213 1099.4 2213
163.505 1099.4 2213
169.178 1101.88 2218
174.482 1101.88 2218
179.786 1101.88 2218
185.09 1101.88 2218
190.394 1101.88 2218
194.727 1096.42 2207
203.176 1113.8 2242
208.538 1113.8 2242
214.185 1115.29 2245
220.141 1118.28 2251
225.523 1118.28 2251
231.214 1119.77 2254
236.604 1119.77 2254
241.994 1119.77 2254
248.152 1123.24 2261
253.895 1124.73 2264
259.309 1124.73 2264
265.074 1126.22 2267
270.495 1126.22 2267
275.916 1126.22 2267
281.337 1126.22 2267
286.758 1126.22 2267
292.566 1127.71 2270
298.388 1129.2 2273
303.824 1129.2 2273
310.075 1132.19 2279
315.94 1133.68 2282
321.397 1133.68 2282
326.854 1133.68 2282
332.311 1133.68 2282
338.656 1136.66 2288
344.128 1136.66 2288
349.599 1136.66 2288
355.07 1136.66 2288
360.542 1136.66 2288
367.133 1140.13 2295
372.621 1140.13 2295
378.109 1140.13 2295
384.6 1143.11 2301
390.102 1143.11 2301
395.604 1143.11 2301
401.107 1143.11 2301
405.549 1140.13 2295
411.037 1140.13 2295
416.525 1140.13 2295
421.461 1138.64 2292
426.942 1138.64 2292
433.555 1141.62 2298
439.05 1141.62 2298
444.546 1141.62 2298
450.041 1141.62 2298
454.347 1138.64 2292
459.827 1138.64 2292
463.887 1135.17 2285
468.119 1132.19 2279
473.569 1132.19 2279
479.018 1132.19 2279
484.468 1132.19 2279
491.208 1135.17 2285
497.324 1136.66 2288
502.795 1136.66 2288
508.267 1136.66 2288
513.738 1136.66 2288
520.117 1138.64 2292
525.598 1138.64 2292
531.079 1138.64 2292
536.56 1138.64 2292
542.04 1138.64 2292
547.521 1138.64 2292
553.002 1138.64 2292
556.046 1133.68 2282
560.765 1132.19 2279
566.215 1132.19 2279
571.665 1132.19 2279
577.115 1132.19 2279
582.564 1132.19 2279
588.014 1132.19 2279
594.245 1133.68 2282
599.702 1133.68 2282
605.955 1135.17 2285
611.419 1135.17 2285
616.883 1135.17 2285
622.347 1135.17 2285
626.163 1132.19 2279
631.612 1132.19 2279
637.062 1132.19 2279
642.512 1132.19 2279
647.962 1132.19 2279
655.132 1135.17 2285
661.463 1136.66 2288
669.849 1141.62 2298
675.345 1141.62 2298
683.506 1146.1 2307
689.023 1146.1 2307
695.744 1148.08 2311
701.27 1148.08 2311
707.714 1149.57 2314
714.172 1151.06 2317
720.645 1152.55 2320
726.193 1152.55 2320
731.74 1152.55 2320
736.335 1151.06 2317
741.875 1151.06 2317
745.481 1148.08 2311
751.007 1148.08 2311
756.533 1148.08 2311
762.06 1148.08 2311
766.257 1146.1 2307
766.756 1138.64 2292
769.878 1135.17 2285
775.342 1135.17 2285
780.807 1135.17 2285
784.206 1132.19 2279
789.656 1132.19 2279
796.152 1133.68 2282
801.609 1133.68 2282
807.066 1133.68 2282
813.591 1135.17 2285
821.565 1138.64 2292
829.211 1141.62 2298
834.706 1141.62 2298
841.298 1143.11 2301
849.008 1146.1 2307
854.525 1146.1 2307
860.042 1146.1 2307
864.433 1144.6 2304
866.544 1140.13 2295
874.312 1143.11 2301
879.815 1143.11 2301
889.164 1148.08 2311
895.852 1149.57 2314
901.386 1149.57 2314
906.919 1149.57 2314
908.509 1144.6 2304
916.796 1148.08 2311
922.322 1148.08 2311
927.849 1148.08 2311
933.375 1148.08 2311
937.276 1146.1 2307
942.793 1146.1 2307
948.31 1146.1 2307
953.826 1146.1 2307
958.096 1144.6 2304
961.096 1141.62 2298
966.591 1141.62 2298
967.856 1136.66 2288
976.305 1140.13 2295
981.793 1140.13 2295
987.281 1140.13 2295
992.769 1140.13 2295
998.257 1140.13 2295
1000.68 1136.66 2288
1006.16 1136.66 2288
1010.3 1135.17 2285
1015.76 1135.17 2285
1021.23 1135.17 2285
1026.69 1135.17 2285
1032.16 1135.17 2285
1037.62 1135.17 2285
1043.08 1135.17 2285
1048.55 1135.17 2285
1054.01 1135.17 2285
1058.09 1133.68 2282
1062.14 1132.19 2279
1060.57 1124.73 2264
1065.98 1124.73 2264
1069.98 1123.24 2261
1075.38 1123.24 2261
1080.79 1123.24 2261
1087.64 1124.73 2264
1093.05 1124.73 2264
1098.47 1124.73 2264
1103.88 1124.73 2264
1109.29 1124.73 2264
1114.71 1124.73 2264
1120.12 1124.73 2264
1125.53 1124.73 2264
1127.45 1121.26 2257
1132.85 1121.26 2257
1136.73 1119.77 2254
1137.56 1115.29 2245
1142.93 1115.29 2245
1149.83 1116.78 2248
1155.21 1116.78 2248
1163.68 1119.77 2254
1169.07 1119.77 2254
1174.46 1119.77 2254
1179.85 1119.77 2254
1195.23 1129.2 2273
1200.67 1129.2 2273
1207.7 1130.69 2276
1216.34 1133.68 2282
1221.79 1133.68 2282
1228.87 1135.17 2285
1234.33 1135.17 2285
1239.79 1135.17 2285
1243.62 1133.68 2282
1247.44 1132.19 2279
1252.89 1132.19 2279
1258.34 1132.19 2279
1263.79 1132.19 2279
1264.22 1127.71 2270
1271.33 1129.2 2273
1278.45 1130.69 2276
1283.89 1130.69 2276
1292.74 1133.68 2282
1298.19 1133.68 2282
1311.08 1140.13 2295
1316.56 1140.13 2295
1322.05 1140.13 2295
1331.01 1143.11 2301
1336.51 1143.11 2301
1342.02 1143.11 2301
1347.52 1143.11 2301
1353.02 1143.11 2301
1358.52 1143.11 2301
1364.02 1143.11 2301
1365.96 1140.13 2295
1371.44 1140.13 2295
1378.73 1141.62 2298
1389.65 1146.1 2307
1395.17 1146.1 2307
1404.93 1149.57 2314
1410.47 1149.57 2314
1416 1149.57 2314
1421.53 1149.57 2314
1425.22 1148.08 2311
1430.74 1148.08 2311
1436.27 1148.08 2311
1443.67 1149.57 2314
1449.2 1149.57 2314
1456.62 1151.06 2317
1462.16 1151.06 2317
1467.7 1151.06 2317
1473.24 1151.06 2317
1472.4 1146.1 2307
1480.48 1148.08 2311
1486.01 1148.08 2311
1491.53 1148.08 2311
1497.06 1148.08 2311
1504.53 1149.57 2314
1510.07 1149.57 2314
1515.6 1149.57 2314
1519.16 1148.08 2311
1518.09 1143.11 2301
1523.59 1143.11 2301
1531.09 1144.6 2304
1536.6 1144.6 2304
1544.12 1146.1 2307
1549.63 1146.1 2307
1555.15 1146.1 2307
1560.67 1146.1 2307
1566.18 1146.1 2307
1571.7 1146.1 2307
1577.22 1146.1 2307
1582.73 1146.1 2307
1593.07 1149.57 2314
1602.75 1152.55 2320
1617.31 1159.01 2333
1622.89 1159.01 2333
1628.47 1159.01 2333
1634.05 1159.01 2333
1639.62 1159.01 2333
1645.2 1159.01 2333
1655.73 1162.49 2340
1663.46 1163.98 2343
1676.19 1168.95 2353
1681.81 1168.95 2353
1687.44 1168.95 2353
1695.23 1170.44 2356
1700.86 1170.44 2356
1706.49 1170.44 2356
1712.13 1170.44 2356
1717.76 1170.44 2356
1721.2 1168.95 2353
1726.83 1168.95 2353
1718.42 1144.6 2304
1723.92 1144.6 2304
1731.69 1146.1 2307
1737.2 1146.1 2307
1742.72 1146.1 2307
1748.24 1146.1 2307
1753.75 1146.1 2307
1759.27 1146.1 2307
1764.79 1146.1 2307
-1582.8 1055.28 2114
-1577.75 1055.28 2114
-1586.83 1064.76 2133
-1581.73 1064.76 2133
-1576.63 1064.76 2133
-1571.53 1064.76 2133
-1551.65 1144.13 2292
-1546.17 1144.13 2292
-1540.69 1144.13 2292
-1532.53 1142.14 2288
-1511.04 1130.16 2264
-1503.63 1128.66 2261
-1498.22 1128.66 2261
-1492.82 1128.66 2261
-1495.3 1134.65 2273
-1489.87 1134.65 2273
-1484.43 1134.65 2273
-1479 1134.65 2273
-1471.62 1133.15 2270
-1464.25 1131.65 2267
-1458.83 1131.65 2267
-1447 1126.66 2257
-1439.69 1125.16 2254
-1432.39 1123.67 2251
-1427 1123.67 2251
-1421.62 1123.67 2251
-1414.35 1122.17 2248
-1405.21 1119.17 2242
-1399.85 1119.17 2242
-1379.56 1107.19 2218
-1374.26 1107.19 2218
-1365.87 1104.7 2213
-1360.58 1104.7 2213
-1355.29 1104.7 2213
-1348.16 1103.2 2210
-1331.94 1094.22 2192
-1326.7 1094.22 2192
-1314.83 1088.72 2181
-1306.01 1085.73 2175
-1299.01 1084.23 2172
-1293.82 1084.23 2172
-1272.01 1070.25 2144
-1263.93 1067.76 2139
-1260.58 1069.26 2142
-1260.15 1073.25 2150
-1255.01 1073.25 2150
-1259.75 1081.74 2167
-1257.46 1084.23 2172
-1252.27 1084.23 2172
-1247.07 1084.23 2172
-1241.88 1084.23 2172
-1236.69 1084.23 2172
-1234.89 1087.23 2178
-1229.69 1087.23 2178
-1226.16 1088.72 2181
-1220.95 1088.72 2181
-1217.41 1090.22 2184
-1212.18 1090.22 2184
-1206.96 1090.22 2184
-1198.44 1087.23 2178
-1191.58 1085.73 2175
-1189.66 1088.72 2181
-1184.44 1088.72 2181
-1183.55 1092.72 2189
-1179.93 1094.22 2192
-1179.51 1098.71 2201
-1174.25 1098.71 2201
-1168.99 1098.71 2201
-1158.96 1094.22 2192
-1153.72 1094.22 2192
-1141.15 1087.23 2178
-1135.94 1087.23 2178
-1130.73 1087.23 2178
-1125.52 1087.23 2178
-1114.65 1081.74 2167
-1109.47 1081.74 2167
-1111.43 1088.72 2181
-1107.73 1090.22 2184
-1102.51 1090.22 2184
-1099.8 1092.72 2189
-1094.56 1092.72 2189
-1089.33 1092.72 2189
-1082.61 1091.22 2186
-1077.38 1091.22 2186
-1073.63 1092.72 2189
-1068.39 1092.72 2189
-1063.16 1092.72 2189
-1055.51 1090.22 2184
-1050.28 1090.22 2184
-1050.32 1095.71 2195
-1045.07 1095.71 2195
-1039.83 1095.71 2195
-1040.23 1101.7 2207
-1036.36 1103.2 2210
-1031.08 1103.2 2210
-1042.04 1120.67 2245
-1039.44 1123.67 2251
-1034.06 1123.67 2251
-1028.67 1123.67 2251
-1023.29 1123.67 2251
-1017.91 1123.67 2251
-1012.53 1123.67 2251
-1003.12 1119.17 2242
-992.415 1113.18 2230
-981.771 1107.19 2218
-976.467 1107.19 2218
-971.163 1107.19 2218
-969.778 1111.69 2227
-965.752 1113.18 2230
-960.419 1113.18 2230
-955.086 1113.18 2230
-949.754 1113.18 2230
-944.421 1113.18 2230
-939.089 1113.18 2230
-933.756 1113.18 2230
-928.423 1113.18 2230
-920.607 1110.19 2224
-915.289 1110.19 2224
-909.971 1110.19 2224
-907.093 1113.18 2230
-904.187 1116.18 2236
-898.84 1116.18 2236
-893.493 1116.18 2236
-890.529 1119.17 2242
-886.352 1120.67 2245
-880.984 1120.67 2245
-875.615 1120.67 2245
-870.247 1120.67 2245
-864.878 1120.67 2245
-859.51 1120.67 2245
-854.141 1120.67 2245
-848.773 1120.67 2245
-845.659 1123.67 2251
-841.396 1125.16 2254
-836.006 1125.16 2254
-830.616 1125.16 2254
-827.788 1128.66 2261
-823.473 1130.16 2264
-818.059 1130.16 2264
-812.645 1130.16 2264
-801.526 1122.17 2248
-795.088 1120.67 2245
-789.72 1120.67 2245
-773.87 1105.7 2215
-767.879 1104.7 2213
-764.31 1107.19 2218
-760.033 1108.69 2221
-754.722 1108.69 2221
-749.411 1108.69 2221
-744.1 1108.69 2221
-738.789 1108.69 2221
-732.487 1107.19 2218
-726.199 1105.7 2215
-720.903 1105.7 2215
-715.606 1105.7 2215
-710.309 1105.7 2215
-705.012 1105.7 2215
-699.716 1105.7 2215
-694.419 1105.7 2215
-689.122 1105.7 2215
-683.208 1104.7 2213
-676.078 1101.7 2207
-671.712 1103.2 2210
-666.427 1103.2 2210
-661.143 1103.2 2210
-656.748 1104.7 2213
-651.456 1104.7 2213
-646.164 1104.7 2213
-640.872 1104.7 2213
-631.272 1097.21 2198
-626.016 1097.21 2198
-621.607 1098.71 2201
-616.344 1098.71 2201
-611.081 1098.71 2201
-605.818 1098.71 2201
-600.554 1098.71 2201
-595.291 1098.71 2201
-592.44 1103.2 2210
-587.156 1103.2 2210
-583.187 1105.7 2215
-577.891 1105.7 2215
-573.369 1107.19 2218
-570.371 1111.69 2227
-565.045 1111.69 2227
-559.72 1111.69 2227
-554.394 1111.69 2227
-545.617 1104.7 2213
-540.325 1104.7 2213
-535.033 1104.7 2213
-530.22 1105.7 2215
-527.056 1110.19 2224
-525.961 1119.17 2242
-520.599 1119.17 2242
-515.238 1119.17 2242
-509.877 1119.17 2242
-504.515 1119.17 2242
-499.154 1119.17 2242
-494.453 1120.67 2245
-489.085 1120.67 2245
-483.717 1120.67 2245
-478.348 1120.67 2245
-472.98 1120.67 2245
-464.487 1113.18 2230
-459.772 1114.68 2233
-454.432 1114.68 2233
-449.696 1116.18 2236
-446.137 1120.67 2245
-441.358 1122.17 2248
-435.982 1122.17 2248
-430.606 1122.17 2248
-425.231 1122.17 2248
-418.735 1119.17 2242
-413.373 1119.17 2242
-408.012 1119.17 2242
-402.651 1119.17 2242
-396.226 1116.18 2236
-391.404 1117.68 2239
-386.049 1117.68 2239
-381.716 1120.67 2245
-376.347 1120.67 2245
-370.979 1120.67 2245
-365.122 1119.17 2242
-359.76 1119.17 2242
-354.399 1119.17 2242
-349.038 1119.17 2242
-343.676 1119.17 2242
-337.862 1117.68 2239
-331.172 1113.18 2230
-325.839 1113.18 2230
-320.506 1113.18 2230
-315.174 1113.18 2230
-311.509 1119.17 2242
-307.786 1125.16 2254
-302.396 1125.16 2254
-297.928 1128.66 2261
-292.91 1130.16 2264
-287.496 1130.16 2264
-282.082 1130.16 2264
-276.301 1128.66 2261
-270.056 1125.16 2254
-264.666 1125.16 2254
-259.276 1125.16 2254
-253.548 1123.67 2251
-247.173 1119.17 2242
-241.812 1119.17 2242
-236.45 1119.17 2242
-230.161 1114.68 2233
-224.822 1114.68 2233
-219.482 1114.68 2233
-214.142 1114.68 2233
-208.802 1114.68 2233
-202.916 1111.69 2227
-197.324 1110.19 2224
-192.006 1110.19 2224
-186.688 1110.19 2224
-180.88 1107.19 2218
-175.339 1105.7 2215
-170.042 1105.7 2215
-164.373 1103.2 2210
-158.657 1100.21 2204
-152.969 1097.21 2198
-147.713 1097.21 2198
-141.873 1092.72 2189
-136.451 1091.22 2186
-131.224 1091.22 2186
-125.997 1091.22 2186
-120.769 1091.22 2186
-116.335 1098.71 2201
-111.071 1098.71 2201
-105.952 1100.21 2204
-100.682 1100.21 2204
-95.4114 1100.21 2204
-90.141 1100.21 2204
-84.755 1098.71 2201
-79.4918 1098.71 2201
-74.2285 1098.71 2201
135.249 1090.22 2184
140.472 1090.22 2184
146.428 1095.71 2195
152.092 1098.71 2201
157.355 1098.71 2201
162.618 1098.71 2201
168.949 1105.7 2215
174.482 1107.19 2218
179.786 1107.19 2218
185.09 1107.19 2218
189.192 1100.21 2204
194.462 1100.21 2204
202.905 1117.68 2239
208.259 1117.68 2239
214.185 1120.67 2245
220.141 1123.67 2251
225.523 1123.67 2251
230.906 1123.67 2251
236.289 1123.67 2251
241.672 1123.67 2251
248.152 1128.66 2261
253.559 1128.66 2261
258.966 1128.66 2261
265.074 1131.65 2267
270.495 1131.65 2267
275.916 1131.65 2267
281.337 1131.65 2267
286.758 1131.65 2267
291.793 1130.16 2264
297.207 1130.16 2264
302.621 1130.16 2264
309.259 1134.65 2273
314.694 1134.65 2273
320.975 1137.64 2279
326.425 1137.64 2279
331.874 1137.64 2279
337.324 1137.64 2279
342.774 1137.64 2279
348.224 1137.64 2279
353.674 1137.64 2279
359.123 1137.64 2279
365.053 1139.14 2282
370.51 1139.14 2282
376.461 1140.64 2285
383.095 1144.13 2292
388.576 1144.13 2292
394.057 1144.13 2292
399.538 1144.13 2292
405.019 1144.13 2292
409.246 1140.64 2285
414.71 1140.64 2285
420.174 1140.64 2285
425.638 1140.64 2285
431.102 1140.64 2285
437.904 1144.13 2292
443.385 1144.13 2292
448.866 1144.13 2292
452.364 1139.14 2282
457.821 1139.14 2282
461.451 1134.65 2273
467.503 1136.15 2276
472.945 1136.15 2276
478.388 1136.15 2276
483.831 1136.15 2276
489.918 1137.64 2279
495.368 1137.64 2279
501.477 1139.14 2282
506.934 1139.14 2282
512.391 1139.14 2282
517.167 1137.64 2279
522.617 1137.64 2279
528.066 1137.64 2279
533.516 1137.64 2279
538.966 1137.64 2279
544.416 1137.64 2279
549.866 1137.64 2279
552.391 1131.65 2267
557.074 1130.16 2264
562.488 1130.16 2264
568.655 1131.65 2267
574.076 1131.65 2267
579.497 1131.65 2267
584.918 1131.65 2267
590.339 1131.65 2267
595.76 1131.65 2267
601.181 1131.65 2267
606.602 1131.65 2267
612.023 1131.65 2267
616.627 1130.16 2264
621.217 1128.66 2261
625.515 1126.66 2257
630.912 1126.66 2257
637.437 1128.66 2261
642.844 1128.66 2261
648.251 1128.66 2261
655.392 1131.65 2267
661.688 1133.15 2270
667.116 1133.15 2270
674.322 1136.15 2276
679.764 1136.15 2276
685.207 1136.15 2276
690.65 1136.15 2276
697.01 1137.64 2279
702.459 1137.64 2279
707.909 1137.64 2279
713.359 1137.64 2279
718.809 1137.64 2279
724.259 1137.64 2279
729.708 1137.64 2279
733.223 1134.65 2273
737.683 1133.15 2270
743.111 1133.15 2270
748.54 1133.15 2270
752.971 1131.65 2267
753.04 1123.67 2251
758.423 1123.67 2251
762.788 1122.17 2248
768.163 1122.17 2248
773.539 1122.17 2248
782.033 1126.66 2257
787.43 1126.66 2257
792.827 1126.66 2257
798.225 1126.66 2257
802.554 1125.16 2254
811.528 1130.16 2264
820.19 1134.65 2273
825.625 1134.65 2273
834.351 1139.14 2282
839.808 1139.14 2282
845.265 1139.14 2282
850.722 1139.14 2282
852.802 1134.65 2273
859.37 1136.15 2276
868.233 1140.64 2285
873.697 1140.64 2285
881.854 1144.13 2292
888.496 1145.63 2295
895.153 1147.13 2298
903 1150.12 2304
908.509 1150.12 2304
916.796 1153.62 2311
922.322 1153.62 2311
927.849 1153.62 2311
933.375 1153.62 2311
937.276 1151.62 2307
942.793 1151.62 2307
948.31 1151.62 2307
953.826 1151.62 2307
958.096 1150.12 2304
961.096 1147.13 2298
966.591 1147.13 2298
967.856 1142.14 2288
976.305 1145.63 2295
981.793 1145.63 2295
987.281 1145.63 2295
992.769 1145.63 2295
998.257 1145.63 2295
1000.68 1142.14 2288
1006.16 1142.14 2288
1010.3 1140.64 2285
1015.76 1140.64 2285
1021.23 1140.64 2285
1026.69 1140.64 2285
1032.16 1140.64 2285
1037.62 1140.64 2285
1043.08 1140.64 2285
1048.55 1140.64 2285
1054.01 1140.64 2285
1058.09 1139.14 2282
1062.14 1137.64 2279
1060.57 1130.16 2264
1065.98 1130.16 2264
1069.98 1128.66 2261
1075.38 1128.66 2261
1080.79 1128.66 2261
1087.64 1130.16 2264
1093.05 1130.16 2264
1098.47 1130.16 2264
1103.88 1130.16 2264
1109.29 1130.16 2264
1114.71 1130.16 2264
1120.12 1130.16 2264
1125.53 1130.16 2264
1127.45 1126.66 2257
1132.85 1126.66 2257
1136.73 1125.16 2254
1137.56 1120.67 2245
1142.93 1120.67 2245
1149.83 1122.17 2248
1155.21 1122.17 2248
1163.68 1125.16 2254
1169.07 1125.16 2254
1174.46 1125.16 2254
1179.85 1125.16 2254
1195.23 1134.65 2273
1200.67 1134.65 2273
1207.7 1136.15 2276
1216.34 1139.14 2282
1221.79 1139.14 2282
1228.87 1140.64 2285
1234.33 1140.64 2285
1239.79 1140.64 2285
1245.26 1140.64 2285
1247.44 1137.64 2279
1252.89 1137.64 2279
1258.34 1137.64 2279
1263.79 1137.64 2279
1264.22 1133.15 2270
1271.33 1134.65 2273
1278.45 1136.15 2276
1283.89 1136.15 2276
1292.74 1139.14 2282
1298.19 1139.14 2282
1311.08 1145.63 2295
1316.56 1145.63 2295
1322.05 1145.63 2295
1331.01 1148.63 2301
1336.51 1148.63 2301
1342.02 1148.63 2301
1347.52 1148.63 2301
1353.02 1148.63 2301
1358.52 1148.63 2301
1364.02 1148.63 2301
1365.96 1145.63 2295
1371.44 1145.63 2295
1378.73 1147.13 2298
1389.65 1151.62 2307
1395.17 1151.62 2307
1404.93 1155.12 2314
1410.47 1155.12 2314
1416 1155.12 2314
1421.53 1155.12 2314
1425.22 1153.62 2311
1430.74 1153.62 2311
1436.27 1153.62 2311
1443.67 1155.12 2314
1449.2 1155.12 2314
1456.62 1156.61 2317
1462.16 1156.61 2317
1467.7 1156.61 2317
1473.24 1156.61 2317
1472.4 1151.62 2307
1477.92 1151.62 2307
1483.43 1151.62 2307
1488.95 1151.62 2307
1494.47 1151.62 2307
1498.03 1150.12 2304
1503.54 1150.12 2304
1509.05 1150.12 2304
1512.59 1148.63 2301
1512.15 1144.13 2292
1517.63 1144.13 2292
1518.46 1140.64 2285
1523.93 1140.64 2285
1529.39 1140.64 2285
1534.86 1140.64 2285
1540.32 1140.64 2285
1545.78 1140.64 2285
1549.21 1139.14 2282
1552.63 1137.64 2279
1558.07 1137.64 2279
1557.35 1133.15 2270
1571.04 1139.14 2282
1583.41 1144.13 2292
1593.05 1147.13 2298
1598.54 1147.13 2298
1604.04 1147.13 2298
1613.73 1150.12 2304
1621.35 1151.62 2307
1626.87 1151.62 2307
1643.71 1159.61 2323
1654.23 1163.1 2330
1666.93 1168.09 2340
1672.52 1168.09 2340
1678.12 1168.09 2340
1685.87 1169.59 2343
1693.64 1171.09 2346
1699.25 1171.09 2346
1704.86 1171.09 2346
1710.47 1171.09 2346
1716.08 1171.09 2346
1721.69 1171.09 2346
1696.55 1139.14 2282
1706.48 1142.14 2288
1711.95 1142.14 2288
1720.43 1144.13 2292
1728.17 1145.63 2295
1733.65 1145.63 2295
1739.14 1145.63 2295
1744.63 1145.63 2295
1742.49 1140.64 2285
1747.96 1140.64 2285
-1582.8 1060.34 2114
-1577.75 1060.34 2114
-1586.83 1069.87 2133
-1581.73 1069.87 2133
-1576.63 1069.87 2133
-1571.53 1069.87 2133
-1551.65 1149.62 2292
-1546.17 1149.62 2292
-1540.69 1149.62 2292
-1530.52 1146.11 2285
-1511.04 1135.58 2264
-1503.63 1134.08 2261
-1498.22 1134.08 2261
-1492.82 1134.08 2261
-1495.3 1140.09 2273
-1489.87 1140.09 2273
-1484.43 1140.09 2273
-1479 1140.09 2273
-1469.67 1137.08 2267
-1462.31 1135.58 2264
-1456.9 1135.58 2264
-1445.08 1130.56 2254
-1437.77 1129.06 2251
-1432.39 1129.06 2251
-1427 1129.06 2251
-1419.73 1127.55 2248
-1408.69 1123.04 2239
-1403.33 1123.04 2239
-1397.98 1123.04 2239
-1365.26 1100.97 2195
-1365.59 1105.49 2204
-1365.87 1110 2213
-1360.58 1110 2213
-1355.29 1110 2213
-1344.5 1105.49 2204
-1330.12 1097.96 2189
-1324.88 1097.96 2189
-1314.83 1093.95 2181
-1306.01 1090.94 2175
-1299.01 1089.43 2172
-1293.82 1089.43 2172
-1269.05 1072.88 2139
-1263.93 1072.88 2139
-1260.58 1074.39 2142
-1260.15 1078.4 2150
-1255.01 1078.4 2150
-1259.75 1086.93 2167
-1257.46 1089.43 2172
-1252.27 1089.43 2172
-1247.07 1089.43 2172
-1241.88 1089.43 2172
-1236.69 1089.43 2172
-1234.89 1092.44 2178
-1229.69 1092.44 2178
-1226.16 1093.95 2181
-1220.95 1093.95 2181
-1217.41 1095.45 2184
-1212.18 1095.45 2184
-1206.96 1095.45 2184
-1198.44 1092.44 2178
-1188.3 1087.93 2169
-1186.38 1090.94 2175
-1181.18 1090.94 2175
-1180.85 1095.45 2184
-1178.32 1097.96 2189
-1174.69 1099.47 2192
-1169.45 1099.47 2192
-1164.21 1099.47 2192
-1157.38 1097.96 2189
-1152.14 1097.96 2189
-1141.15 1092.44 2178
-1130.2 1086.93 2167
-1125.02 1086.93 2167
-1119.84 1086.93 2167
-1113.11 1085.42 2164
-1107.94 1085.42 2164
-1102.76 1085.42 2164
-1099.11 1086.93 2167
-1093.93 1086.93 2167
-1088.74 1086.93 2167
-1083.56 1086.93 2167
-1078.38 1086.93 2167
-1073.2 1086.93 2167
-1068.02 1086.93 2167
-1062.84 1086.93 2167
-1057.65 1086.93 2167
-1052.47 1086.93 2167
-1052.61 1092.44 2178
-1047.4 1092.44 2178
-1045.06 1095.45 2184
-1039.84 1095.45 2184
-1038.4 1099.47 2192
-1038.82 1105.49 2204
-1036.36 1108.49 2210
-1031.08 1108.49 2210
-1042.04 1126.05 2245
-1039.44 1129.06 2251
-1034.06 1129.06 2251
-1028.67 1129.06 2251
-1023.29 1129.06 2251
-1017.91 1129.06 2251
-1012.53 1129.06 2251
-1003.12 1124.55 2242
-992.415 1118.53 2230
-981.771 1112.51 2218
-976.467 1112.51 2218
-971.163 1112.51 2218
-965.859 1112.51 2218
-959.256 1111 2215
-953.959 1111 2215
-947.806 1110 2213
-942.514 1110 2213
-937.222 1110 2213
-931.93 1110 2213
-922.869 1105.49 2204
-917.599 1105.49 2204
-909.845 1102.48 2198
-904.589 1102.48 2198
-899.333 1102.48 2198
-892.856 1100.97 2195
-887.607 1100.97 2195
-883.564 1102.48 2198
-879.507 1103.98 2201
-874.244 1103.98 2201
-872.534 1108.49 2210
-868.426 1110 2213
-863.914 1111 2215
-858.618 1111 2215
-853.321 1111 2215
-848.024 1111 2215
-842.727 1111 2215
-836.675 1110 2213
-833.261 1112.51 2218
-830.197 1115.52 2224
-827.104 1118.53 2230
-821.771 1118.53 2230
-821.93 1126.05 2245
-816.562 1126.05 2245
-811.194 1126.05 2245
-805.825 1126.05 2245
-795.108 1118.53 2230
-786.588 1114.01 2221
-781.277 1114.01 2221
-773.87 1111 2215
-767.879 1110 2213
-764.31 1112.51 2218
-760.033 1114.01 2221
-754.722 1114.01 2221
-749.411 1114.01 2221
-744.1 1114.01 2221
-738.789 1114.01 2221
-732.487 1112.51 2218
-726.199 1111 2215
-720.903 1111 2215
-715.606 1111 2215
-710.309 1111 2215
-705.012 1111 2215
-699.716 1111 2215
-694.419 1111 2215
-689.122 1111 2215
-683.208 1110 2213
-676.078 1106.99 2207
-671.712 1108.49 2210
-666.427 1108.49 2210
-661.143 1108.49 2210
-656.748 1110 2213
-651.456 1110 2213
-646.164 1110 2213
-640.872 1110 2213
-631.272 1102.48 2198
-626.016 1102.48 2198
-621.607 1103.98 2201
-616.344 1103.98 2201
-611.081 1103.98 2201
-605.818 1103.98 2201
-600.554 1103.98 2201
-595.291 1103.98 2201
-592.44 1108.49 2210
-587.156 1108.49 2210
-583.187 1111 2215
-577.891 1111 2215
-573.369 1112.51 2218
-570.371 1117.02 2227
-565.045 1117.02 2227
-559.72 1117.02 2227
-554.394 1117.02 2227
-545.617 1110 2213
-540.325 1110 2213
-535.033 1110 2213
-530.22 1111 2215
-527.056 1115.52 2224
-525.961 1124.55 2242
-520.599 1124.55 2242
-515.238 1124.55 2242
-509.877 1124.55 2242
-504.515 1124.55 2242
-499.154 1124.55 2242
-494.453 1126.05 2245
-489.085 1126.05 2245
-483.717 1126.05 2245
-478.348 1126.05 2245
-472.98 1126.05 2245
-464.487 1118.53 2230
