ply
format ascii 1.0
comment File generated
element vertex 2246
property float x
property float y
property float z
end_header
1445.36 1084.27 2390
1451.07 1084.27 2390
1456.79 1084.27 2390
1462.51 1084.27 2390
1457.78 1076.56 2373
1457.28 1072.03 2363
1470.98 1077.92 2376
1487.23 1085.64 2393
1492.95 1085.64 2393
1503.06 1088.81 2400
1508.8 1088.81 2400
1514.54 1088.81 2400
1520.28 1088.81 2400
1526.02 1088.81 2400
1540.69 1095.16 2414
1571.45 1112.86 2453
1577.31 1112.86 2453
1583.18 1112.86 2453
1589.04 1112.86 2453
1592.96 1111.49 2450
1598.82 1111.49 2450
1604.68 1111.49 2450
1610.54 1111.49 2450
1613.76 1109.68 2446
1619.6 1109.68 2446
1625.45 1109.68 2446
1614.63 1098.34 2421
1627.78 1103.33 2432
1633.6 1103.33 2432
1639.41 1103.33 2432
1645.23 1103.33 2432
1651.04 1103.33 2432
1656.86 1103.33 2432
1662.68 1103.33 2432
1665.75 1101.51 2428
1683.95 1109.68 2446
1694.63 1112.86 2453
1700.5 1112.86 2453
1706.36 1112.86 2453
1712.23 1112.86 2453
1708.29 1106.5 2439
1714.12 1106.5 2439
1710.08 1100.15 2425
1715.88 1100.15 2425
1736.59 1109.68 2446
1765.94 1124.65 2479
1771.87 1124.65 2479
1780.67 1126.47 2483
1786.61 1126.47 2483
1792.54 1126.47 2483
1798.48 1126.47 2483
1804.42 1126.47 2483
1794.32 1116.48 2461
1800.2 1116.48 2461
1795.08 1109.68 2446
1800.93 1109.68 2446
1820.07 1117.85 2464
1825.97 1117.85 2464
1837.06 1121.02 2471
1842.97 1121.02 2471
1854.87 1124.65 2479
1866.05 1127.83 2486
1878.02 1131.46 2494
1883.98 1131.46 2494
1892.22 1132.82 2497
1898.19 1132.82 2497
1904.16 1132.82 2497
1907.84 1131.46 2494
-1706.34 1039.38 2279
-1753.88 1071.76 2350
-1750.5 1073.12 2353
-1744.87 1073.12 2353
-1739.24 1073.12 2353
-1733.62 1073.12 2353
-1757.36 1091.37 2393
-1751.64 1091.37 2393
-1745.92 1091.37 2393
-1683.58 1069.93 2346
-1680.83 1071.76 2350
-1675.21 1071.76 2350
-1669.59 1071.76 2350
-1659.01 1068.56 2343
-1653.41 1068.56 2343
-1647.81 1068.56 2343
-1638 1065.83 2337
-1629.62 1064 2333
-1621.95 1062.64 2330
-1616.38 1062.64 2330
-1605.97 1059.44 2323
-1600.41 1059.44 2323
-1594.86 1059.44 2323
-1589.3 1059.44 2323
-1583.75 1059.44 2323
-1574.12 1056.71 2317
-1566.54 1055.34 2314
-1561.01 1055.34 2314
-1555.48 1055.34 2314
-1537.22 1046.67 2295
-1537.74 1050.78 2304
-1536.88 1053.97 2311
-1531.36 1053.97 2311
-1525.83 1053.97 2311
-1515.7 1050.78 2304
-1510.19 1050.78 2304
-1500.76 1048.04 2298
-1493.31 1046.67 2295
-1498.2 1053.97 2311
-1492.67 1053.97 2311
-1487.15 1053.97 2311
-1469.44 1045.3 2292
-1437.77 1026.61 2251
-1426.66 1022.5 2242
-1433.34 1031.17 2261
-1427.94 1031.17 2261
-1449.58 1050.78 2304
-1444.07 1050.78 2304
-1444.81 1055.34 2314
-1439.27 1055.34 2314
-1500.04 1104.14 2421
-1494.25 1104.14 2421
-1488.46 1104.14 2421
-1482.67 1104.14 2421
-1456.14 1088.63 2387
-1450.43 1088.63 2387
-1436.25 1082.25 2373
-1430.58 1082.25 2373
-1424.9 1082.25 2373
-1419.23 1082.25 2373
-1389.72 1064 2333
-1384.15 1064 2333
-1384.48 1068.56 2343
-1396.53 1082.25 2373
-1390.85 1082.25 2373
-1385.18 1082.25 2373
-1379.5 1082.25 2373
-1372.09 1080.88 2370
-1366.43 1080.88 2370
-1343.53 1067.2 2340
-1333.93 1064 2333
-1339.74 1073.12 2353
-1334.12 1073.12 2353
-1328.49 1073.12 2353
-1322.86 1073.12 2353
-1317.24 1073.12 2353
-1311.61 1073.12 2353
-1272.13 1045.3 2292
-1266.65 1045.3 2292
-1266.12 1049.41 2301
-1272.67 1059.44 2323
-1267.11 1059.44 2323
-1270.79 1067.2 2340
-1270.6 1071.76 2350
-1312.89 1112.35 2439
-1307.06 1112.35 2439
-1301.22 1112.35 2439
-1295.39 1112.35 2439
-1289.56 1112.35 2439
-1196.95 1061.27 2327
-1199.58 1068.56 2343
-1197.55 1071.76 2350
-1191.93 1071.76 2350
-1196.4 1080.88 2370
-1193.75 1083.61 2376
-1188.07 1083.61 2376
-1182.39 1083.61 2376
-1178.69 1085.44 2380
-1173 1085.44 2380
-1167.3 1085.44 2380
-1159.66 1083.61 2376
-1153.98 1083.61 2376
-1153.61 1088.63 2387
-1150.79 1091.37 2393
-1145.07 1091.37 2393
-1144.58 1096.38 2404
-1155.41 1112.35 2439
-1156.18 1118.73 2453
-1150.31 1118.73 2453
-1144.45 1118.73 2453
-1138.58 1118.73 2453
-1132.72 1118.73 2453
-1123.64 1115.54 2446
-1124.64 1122.38 2461
-1120.12 1123.75 2464
-1114.23 1123.75 2464
-1108.34 1123.75 2464
-1104.23 1125.57 2468
-1101.45 1128.77 2475
-1099.07 1132.41 2483
-1093.13 1132.41 2483
-1087.19 1132.41 2483
-1081.26 1132.41 2483
-1078.35 1135.61 2490
-1072.4 1135.61 2490
-1066.44 1135.61 2490
-1060.49 1135.61 2490
-1054.53 1135.61 2490
-1048.58 1135.61 2490
-1039.69 1132.41 2483
-1028.76 1126.94 2471
-1022.85 1126.94 2471
-1002.13 1110.52 2435
-996.303 1110.52 2435
-984.786 1104.14 2421
-977.783 1102.77 2418
-972.001 1102.77 2418
-945.44 1079.05 2366
-938.591 1077.69 2363
-930.176 1074.49 2356
-924.542 1074.49 2356
-918.909 1074.49 2356
-913.275 1074.49 2356
-909.182 1076.32 2360
-903.538 1076.32 2360
-897.895 1076.32 2360
-892.251 1076.32 2360
-885.105 1074.49 2356
-879.471 1074.49 2356
-870.128 1069.93 2346
-864.518 1069.93 2346
-864.034 1076.32 2360
-860.573 1079.05 2366
-854.915 1079.05 2366
-851.77 1082.25 2373
-846.095 1082.25 2373
-840.421 1082.25 2373
-834.746 1082.25 2373
-830.12 1083.61 2376
-829.296 1090 2390
-823.58 1090 2390
-817.865 1090 2390
-814.529 1093.19 2397
-808.797 1093.19 2397
-803.065 1093.19 2397
-797.333 1093.19 2397
-790.28 1091.37 2393
-783.574 1090 2390
-777.859 1090 2390
-772.143 1090 2390
-765.466 1088.63 2387
-757.53 1085.44 2380
-751.839 1085.44 2380
-746.148 1085.44 2380
-740.456 1085.44 2380
-734.765 1085.44 2380
-729.993 1086.81 2383
-727.334 1091.37 2393
-721.611 1091.37 2393
-715.889 1091.37 2393
-710.166 1091.37 2393
-704.444 1091.37 2393
-697.846 1090 2390
-692.13 1090 2390
-686.415 1090 2390
-681.554 1091.37 2393
-675.832 1091.37 2393
-675.15 1099.58 2411
-672.161 1104.14 2421
-667.473 1105.96 2425
-661.674 1105.96 2425
-660.743 1114.17 2443
-654.901 1114.17 2443
-649.059 1114.17 2443
-643.217 1114.17 2443
-637.376 1114.17 2443
-629.466 1110.52 2435
-623.643 1110.52 2435
-617.82 1110.52 2435
-614.008 1114.17 2443
-610.655 1118.73 2453
-605.776 1120.56 2457
-599.9 1120.56 2457
-594.025 1120.56 2457
-588.149 1120.56 2457
-582.274 1120.56 2457
-576.398 1120.56 2457
-567.969 1115.54 2446
-559.592 1110.52 2435
-553.769 1110.52 2435
-544.796 1104.14 2421
-536.78 1099.58 2411
-529.473 1096.38 2404
-524.378 1097.75 2407
-520.992 1102.77 2418
-515.21 1102.77 2418
-510.902 1105.96 2425
-505.103 1105.96 2425
-499.304 1105.96 2425
-493.505 1105.96 2425
-486.902 1104.14 2421
-479.722 1100.95 2414
-473.949 1100.95 2414
-466.819 1097.75 2407
-459.722 1094.56 2400
-453.416 1093.19 2397
-447.684 1093.19 2397
-441.952 1093.19 2397
-436.22 1093.19 2397
-430.488 1093.19 2397
-424.756 1093.19 2397
-419.024 1093.19 2397
-413.292 1093.19 2397
-407.56 1093.19 2397
-401.828 1093.19 2397
-396.096 1093.19 2397
-389.713 1091.37 2393
-383.99 1091.37 2393
-378.268 1091.37 2393
-372.078 1090 2390
-365.29 1086.81 2383
-361.704 1093.19 2397
-355.972 1093.19 2397
-350.679 1094.56 2400
-344.94 1094.56 2400
-339.201 1094.56 2400
-334.017 1096.38 2404
-328.268 1096.38 2404
-322.52 1096.38 2404
-316.771 1096.38 2404
-310.505 1094.56 2400
-304.766 1094.56 2400
-297.781 1090 2390
-292.065 1090 2390
-285.991 1088.63 2387
-280.283 1088.63 2387
-274.575 1088.63 2387
-268.867 1088.63 2387
-263.159 1088.63 2387
-258.098 1091.37 2393
-252.375 1091.37 2393
-247.065 1093.19 2397
-242.34 1097.75 2407
-236.584 1097.75 2407
-230.828 1097.75 2407
-225.073 1097.75 2407
-219.317 1097.75 2407
-214.182 1100.95 2414
-208.409 1100.95 2414
-203.812 1107.33 2428
-198.332 1109.15 2432
-193.625 1115.54 2446
-187.775 1115.54 2446
-181.926 1115.54 2446
-176.077 1115.54 2446
-170.228 1115.54 2446
-87.0655 1031.17 2261
-81.6587 1031.17 2261
-76.9602 1040.74 2282
-71.5033 1040.74 2282
-66.0463 1040.74 2282
-60.4301 1038.01 2276
-54.9875 1038.01 2276
-49.2836 1032.54 2264
-43.676 1027.97 2254
-38.286 1027.97 2254
-32.677 1021.13 2239
-27.3229 1021.13 2239
-21.9688 1021.13 2239
-16.6147 1021.13 2239
-11.2605 1021.13 2239
-5.87475 1015.66 2227
-0.548575 1014.29 2224
4.76968 1014.29 2224
10.0607 1011.56 2218
15.3439 1010.19 2215
20.622 1009.28 2213
25.9139 1009.28 2213
31.079 1005.17 2204
36.2504 1002.43 2198
41.4499 1001.07 2195
46.6988 1001.07 2195
52.0187 1002.43 2198
57.2748 1002.43 2198
62.6162 1003.8 2201
67.8795 1003.8 2201
73.1427 1003.8 2201
78.2991 1002.43 2198
83.4411 1001.07 2195
88.6901 1001.07 2195
93.939 1001.07 2195
99.1879 1001.07 2195
104.009 996.962 2186
109.236 996.962 2186
114.463 996.962 2186
119.691 996.962 2186
125.09 998.33 2189
130.324 998.33 2189
135.559 998.33 2189
140.793 998.33 2189
146.428 1001.07 2195
151.677 1001.07 2195
156.926 1001.07 2195
162.175 1001.07 2195
167.424 1001.07 2195
172.201 998.33 2189
178.651 1005.17 2204
183.921 1005.17 2204
190.909 1014.29 2224
197.286 1019.77 2236
203.448 1023.87 2245
208.817 1023.87 2245
216.284 1033.9 2267
226.595 1056.71 2317
234.741 1068.56 2343
240.343 1068.56 2343
247.731 1076.32 2360
254.018 1079.05 2366
260.115 1080.88 2370
265.783 1080.88 2370
272.137 1083.61 2376
279.105 1088.63 2387
285.529 1091.37 2393
291.252 1091.37 2393
298.711 1097.75 2407
304.467 1097.75 2407
310.223 1097.75 2407
315.979 1097.75 2407
321.334 1096.38 2404
326.538 1094.56 2400
332.277 1094.56 2400
337.594 1093.19 2397
342.323 1090 2390
350.077 1096.38 2404
358.934 1105.96 2425
364.733 1105.96 2425
370.532 1105.96 2425
376.331 1105.96 2425
379.924 1099.58 2411
385.689 1099.58 2411
390.318 1096.38 2404
396.067 1096.38 2404
401.147 1094.56 2400
406.886 1094.56 2400
411.422 1091.37 2393
416.098 1088.63 2387
420.569 1085.44 2380
426.261 1085.44 2380
431.952 1085.44 2380
437.643 1085.44 2380
443.334 1085.44 2380
449.592 1086.81 2383
456.054 1088.63 2387
461.763 1088.63 2387
468.646 1091.37 2393
474.368 1091.37 2393
480.09 1091.37 2393
485.813 1091.37 2393
490.919 1090 2390
498.712 1094.56 2400
505.923 1097.75 2407
511.678 1097.75 2407
518.939 1100.95 2414
525.581 1102.77 2418
532.023 1104.14 2421
537.812 1104.14 2421
546.745 1110.52 2435
555.971 1117.36 2450
561.83 1117.36 2450
567.689 1117.36 2450
573.548 1117.36 2450
579.406 1117.36 2450
585.265 1117.36 2450
589.435 1114.17 2443
593.327 1110.52 2435
596.69 1105.96 2425
602.488 1105.96 2425
606.531 1102.77 2418
610.541 1099.58 2411
616.307 1099.58 2411
624.652 1104.14 2421
631.483 1105.96 2425
637.282 1105.96 2425
643.081 1105.96 2425
649.682 1107.33 2428
655.489 1107.33 2428
661.295 1107.33 2428
667.101 1107.33 2428
672.907 1107.33 2428
678.713 1107.33 2428
679.726 1099.58 2411
686.345 1100.95 2414
696.131 1107.33 2428
707.141 1115.54 2446
712.99 1115.54 2446
718.839 1115.54 2446
726.762 1118.73 2453
732.628 1118.73 2453
738.494 1118.73 2453
745.574 1120.56 2457
751.449 1120.56 2457
757.325 1120.56 2457
756.366 1110.52 2435
759.998 1107.33 2428
764.858 1105.96 2425
770.657 1105.96 2425
776.456 1105.96 2425
776.448 1097.75 2407
781.229 1096.38 2404
785.668 1094.56 2400
792.727 1096.38 2404
798.475 1096.38 2404
804.224 1096.38 2404
809.973 1096.38 2404
815.721 1096.38 2404
816.686 1090 2390
816.552 1082.25 2373
821.187 1080.88 2370
831.39 1086.81 2383
837.088 1086.81 2383
845.262 1090 2390
850.977 1090 2390
856.693 1090 2390
869.985 1099.58 2411
875.751 1099.58 2411
881.516 1099.58 2411
888.386 1100.95 2414
895.64 1102.77 2418
901.422 1102.77 2418
921.837 1120.56 2457
930.355 1123.75 2464
936.247 1123.75 2464
942.14 1123.75 2464
948.032 1123.75 2464
953.924 1123.75 2464
965.659 1130.59 2479
971.587 1130.59 2479
977.515 1130.59 2479
983.443 1130.59 2479
989.371 1130.59 2479
993.693 1128.77 2475
999.612 1128.77 2475
1007.16 1130.59 2479
1013.08 1130.59 2479
1019.01 1130.59 2479
1026.59 1132.41 2483
1033.78 1133.78 2486
1039.72 1133.78 2486
1045.67 1133.78 2486
1051.61 1133.78 2486
1057.56 1133.78 2486
1065.21 1135.61 2490
1071.17 1135.61 2490
1077.12 1135.61 2490
1083.08 1135.61 2490
1087.28 1133.78 2486
1093.23 1133.78 2486
1092.54 1126.94 2471
1095.34 1123.75 2464
1101.23 1123.75 2464
1110.27 1126.94 2471
1116.17 1126.94 2471
1132.53 1137.43 2494
1138.49 1137.43 2494
1147.67 1140.62 2501
1153.65 1140.62 2501
1159.63 1140.62 2501
1163.75 1138.8 2497
1169.72 1138.8 2497
1172.39 1135.61 2490
1178.35 1135.61 2490
1182.4 1133.78 2486
1188.34 1133.78 2486
1194.29 1133.78 2486
1196.85 1130.59 2479
1202.78 1130.59 2479
1208.71 1130.59 2479
1214.64 1130.59 2479
1211.7 1122.38 2461
1206.7 1112.35 2439
1212.54 1112.35 2439
1218.37 1112.35 2439
1224.2 1112.35 2439
1230.03 1112.35 2439
1230.29 1107.33 2428
1236.1 1107.33 2428
1238.32 1104.14 2421
1240.51 1100.95 2414
1255.58 1109.15 2432
1261.4 1109.15 2432
1267.21 1109.15 2432
1273.03 1109.15 2432
1276.74 1107.33 2428
1282.55 1107.33 2428
1290.47 1109.15 2432
1296.29 1109.15 2432
1303.71 1110.52 2435
1313.84 1114.17 2443
1319.68 1114.17 2443
1325.52 1114.17 2443
1331.36 1114.17 2443
1335.02 1112.35 2439
1340.85 1112.35 2439
1346.68 1112.35 2439
1346.41 1107.33 2428
1352.22 1107.33 2428
1361.94 1110.52 2435
1367.76 1110.52 2435
1373.59 1110.52 2435
1379.41 1110.52 2435
1385.23 1110.52 2435
1391.05 1110.52 2435
1383.11 1099.58 2411
1388.87 1099.58 2411
1394.64 1099.58 2411
1400.41 1099.58 2411
1406.17 1099.58 2411
1411.94 1099.58 2411
1417.7 1099.58 2411
1423.47 1099.58 2411
1420.93 1093.19 2397
1418.33 1086.81 2383
1418.06 1082.25 2373
1421.93 1080.88 2370
1429.4 1082.25 2373
1435.08 1082.25 2373
1440.75 1082.25 2373
1442.16 1079.05 2366
1447.82 1079.05 2366
1451.63 1077.69 2363
1455.43 1076.32 2360
1461.08 1076.32 2360
1468.59 1077.69 2363
1474.24 1077.69 2363
1484.27 1080.88 2370
1489.94 1080.88 2370
1495.61 1080.88 2370
1501.27 1080.88 2370
1506.94 1080.88 2370
1527.29 1091.37 2393
1544.54 1099.58 2411
1550.31 1099.58 2411
1556.07 1099.58 2411
1561.84 1099.58 2411
1567.6 1099.58 2411
1573.37 1099.58 2411
1579.13 1099.58 2411
1582.27 1097.75 2407
1588.03 1097.75 2407
1593.78 1097.75 2407
1592.89 1093.19 2397
1598.62 1093.19 2397
1611.05 1097.75 2407
1624.19 1102.77 2418
1629.98 1102.77 2418
1645.23 1109.15 2432
1651.04 1109.15 2432
1656.86 1109.15 2432
1650.37 1100.95 2414
1649.28 1096.38 2404
1664.67 1102.77 2418
1682.2 1110.52 2435
1688.02 1110.52 2435
1693.84 1110.52 2435
1682.91 1099.58 2411
1688.68 1099.58 2411
1704.28 1105.96 2425
1710.08 1105.96 2425
1715.88 1105.96 2425
1716.71 1102.77 2418
1722.49 1102.77 2418
1728.27 1102.77 2418
1754.13 1115.54 2446
1762.86 1117.36 2450
1768.72 1117.36 2450
1774.58 1117.36 2450
1780.44 1117.36 2450
1757.86 1099.58 2411
1763.63 1099.58 2411
1779.67 1105.96 2425
1785.47 1105.96 2425
1791.27 1105.96 2425
1812.63 1115.54 2446
1818.48 1115.54 2446
1824.32 1115.54 2446
1830.17 1115.54 2446
1854.79 1126.94 2471
1860.7 1126.94 2471
1866.61 1126.94 2471
1883.88 1133.78 2486
1889.83 1133.78 2486
1895.77 1133.78 2486
1899.42 1132.41 2483
-1706.34 1044.84 2279
-1753.88 1077.39 2350
-1750.5 1078.76 2353
-1744.87 1078.76 2353
-1739.24 1078.76 2353
-1733.62 1078.76 2353
-1757.36 1097.1 2393
-1751.64 1097.1 2393
-1745.92 1097.1 2393
-1683.58 1075.55 2346
-1680.83 1077.39 2350
-1675.21 1077.39 2350
-1669.59 1077.39 2350
-1659.01 1074.18 2343
-1653.41 1074.18 2343
-1647.81 1074.18 2343
-1638 1071.43 2337
-1629.62 1069.59 2333
-1621.95 1068.22 2330
-1616.38 1068.22 2330
-1605.97 1065.01 2323
-1600.41 1065.01 2323
-1594.86 1065.01 2323
-1589.3 1065.01 2323
-1583.75 1065.01 2323
-1574.12 1062.26 2317
-1566.54 1060.88 2314
-1561.01 1060.88 2314
-1555.48 1060.88 2314
-1537.22 1052.17 2295
-1537.74 1056.3 2304
-1536.88 1059.51 2311
-1531.36 1059.51 2311
-1525.83 1059.51 2311
-1515.7 1056.3 2304
-1510.19 1056.3 2304
-1500.76 1053.55 2298
-1493.31 1052.17 2295
-1498.2 1059.51 2311
-1492.67 1059.51 2311
-1487.15 1059.51 2311
-1469.44 1050.8 2292
-1437.77 1032 2251
-1426.66 1027.87 2242
-1433.34 1036.58 2261
-1427.94 1036.58 2261
-1449.58 1056.3 2304
-1444.07 1056.3 2304
-1444.81 1060.88 2314
-1439.27 1060.88 2314
-1500.04 1109.94 2421
-1494.25 1109.94 2421
-1488.46 1109.94 2421
-1482.67 1109.94 2421
-1456.14 1094.35 2387
-1450.43 1094.35 2387
-1436.25 1087.93 2373
-1430.58 1087.93 2373
-1429.1 1091.14 2380
-1423.41 1091.14 2380
-1417.72 1091.14 2380
-1384.15 1069.59 2333
-1384.48 1074.18 2343
-1398.29 1089.31 2376
-1392.61 1089.31 2376
-1386.93 1089.31 2376
-1381.25 1089.31 2376
-1373.83 1087.93 2373
-1368.15 1087.93 2373
-1360.76 1086.56 2370
-1333.93 1069.59 2333
-1339.74 1078.76 2353
-1334.12 1078.76 2353
-1328.49 1078.76 2353
-1322.86 1078.76 2353
-1317.24 1078.76 2353
-1311.61 1078.76 2353
-1272.13 1050.8 2292
-1266.65 1050.8 2292
-1266.12 1054.92 2301
-1272.67 1065.01 2323
-1267.11 1065.01 2323
-1270.79 1072.8 2340
-1270.6 1077.39 2350
-1312.89 1118.19 2439
-1307.06 1118.19 2439
-1301.22 1118.19 2439
-1295.39 1118.19 2439
-1289.56 1118.19 2439
-1219.51 1062.26 2317
-1212.4 1060.88 2314
-1206.87 1060.88 2314
-1202.89 1062.26 2317
-1197.35 1062.26 2317
-1196.95 1066.84 2327
-1199.58 1074.18 2343
-1197.55 1077.39 2350
-1191.93 1077.39 2350
-1196.4 1086.56 2370
-1193.75 1089.31 2376
-1188.07 1089.31 2376
-1182.39 1089.31 2376
-1176.71 1089.31 2376
-1171.02 1089.31 2376
-1165.34 1089.31 2376
-1159.66 1089.31 2376
-1152.52 1087.93 2373
-1145.4 1086.56 2370
-1147.9 1094.35 2387
-1142.2 1094.35 2387
-1141.25 1098.93 2397
-1138.83 1102.14 2404
-1154.77 1123.23 2450
-1148.91 1123.23 2450
-1143.05 1123.23 2450
-1137.19 1123.23 2450
-1131.33 1123.23 2450
-1117.2 1114.98 2432
-1116.42 1120.02 2443
-1118.76 1128.28 2461
-1112.87 1128.28 2461
-1106.99 1128.28 2461
-1102.44 1129.65 2464
-1098.33 1131.48 2468
-1095.53 1134.69 2475
-1089.61 1134.69 2475
-1085.44 1136.53 2479
-1079.51 1136.53 2479
-1073.59 1136.53 2479
-1067.66 1136.53 2479
-1066.44 1141.57 2490
-1060.49 1141.57 2490
-1054.53 1141.57 2490
-1048.58 1141.57 2490
-1038.02 1136.53 2479
-1018.35 1121.4 2446
-1002.15 1109.94 2421
-996.365 1109.94 2421
-990.575 1109.94 2421
-983.565 1108.56 2418
-958.373 1086.56 2370
-952.706 1086.56 2370
-944.241 1083.35 2363
-934.619 1078.76 2353
-926.228 1075.55 2346
-920.618 1075.55 2346
-915.008 1075.55 2346
-909.398 1075.55 2346
-907.641 1080.14 2356
-902.007 1080.14 2356
-896.373 1080.14 2356
-890.739 1080.14 2356
-881.348 1075.55 2346
-875.738 1075.55 2346
-870.128 1075.55 2346
-858.622 1068.22 2330
-855.613 1071.43 2337
-856.935 1080.14 2356
-851.302 1080.14 2356
-847.103 1081.97 2360
-841.46 1081.97 2360
-836.879 1083.35 2363
-831.228 1083.35 2363
-828.023 1086.56 2370
-822.356 1086.56 2370
-816.689 1086.56 2370
-811.021 1086.56 2370
-809.771 1092.52 2383
-804.073 1092.52 2383
-798.374 1092.52 2383
-792.676 1092.52 2383
-783.675 1087.93 2373
-775.705 1084.72 2366
-770.048 1084.72 2366
-764.39 1084.72 2366
-757.77 1083.35 2363
-752.119 1083.35 2363
-747.416 1084.72 2366
-741.758 1084.72 2366
-736.101 1084.72 2366
-730.443 1084.72 2366
-723.866 1083.35 2363
-718.215 1083.35 2363
-712.565 1083.35 2363
-709.906 1087.93 2373
-704.231 1087.93 2373
-698.556 1087.93 2373
-692.882 1087.93 2373
-687.207 1087.93 2373
-682.394 1089.31 2376
-679.846 1094.35 2387
-674.138 1094.35 2387
-670.11 1097.1 2393
-669.385 1105.35 2411
-664.445 1106.73 2414
-658.672 1106.73 2414
-654.793 1109.94 2421
-650.076 1111.77 2425
-645.074 1113.15 2428
-639.268 1113.15 2428
-633.462 1113.15 2428
-625.846 1109.94 2421
-621.082 1111.77 2425
-615.283 1111.77 2425
-611.997 1116.36 2435
-608.166 1120.02 2443
-604.05 1123.23 2450
-598.191 1123.23 2450
-593.058 1124.61 2453
-587.192 1124.61 2453
-581.326 1124.61 2453
-572.176 1118.19 2439
-565.414 1116.36 2435
-556.374 1109.94 2421
-550.585 1109.94 2421
-542.545 1105.35 2411
-534.331 1100.31 2400
-527.931 1098.93 2397
-522.199 1098.93 2397
-517.113 1100.31 2400
-511.374 1100.31 2400
-507.953 1105.35 2411
-504.27 1109.94 2421
-498.481 1109.94 2421
-492.691 1109.94 2421
-484.087 1103.52 2407
-478.331 1103.52 2407
-472.575 1103.52 2407
-463.522 1095.72 2390
-457.807 1095.72 2390
-452.091 1095.72 2390
-446.376 1095.72 2390
-440.661 1095.72 2390
-434.946 1095.72 2390
-429.231 1095.72 2390
-424.047 1097.1 2393
-418.325 1097.1 2393
-412.602 1097.1 2393
-406.88 1097.1 2393
-401.157 1097.1 2393
-395.435 1097.1 2393
-389.224 1095.72 2390
-383.509 1095.72 2390
-377.794 1095.72 2390
-369.899 1089.31 2376
-364.217 1089.31 2376
-359.592 1092.52 2383
-355.972 1098.93 2397
-350.24 1098.93 2397
-344.508 1098.93 2397
-338.777 1098.93 2397
-333.461 1100.31 2400
-327.722 1100.31 2400
-321.983 1100.31 2400
-316.244 1100.31 2400
-309.211 1095.72 2390
-303.496 1095.72 2390
-297.407 1094.35 2387
-291.21 1092.52 2383
-285.512 1092.52 2383
-279.813 1092.52 2383
-274.115 1092.52 2383
-268.867 1094.35 2387
-263.159 1094.35 2387
-257.451 1094.35 2387
-251.743 1094.35 2387
-247.065 1098.93 2397
-241.635 1100.31 2400
-235.896 1100.31 2400
-230.157 1100.31 2400
-224.137 1098.93 2397
-218.405 1098.93 2397
-212.674 1098.93 2397
-206.942 1098.93 2397
-201.21 1098.93 2397
-195.478 1098.93 2397
-190.537 1103.52 2407
-184.781 1103.52 2407
-179.026 1103.52 2407
-173.27 1103.52 2407
-167.514 1103.52 2407
-86.5649 1030.62 2248
-81.1892 1030.62 2248
-76.9602 1046.21 2282
-71.5033 1046.21 2282
-66.0463 1046.21 2282
-60.5894 1046.21 2282
-55.1324 1046.21 2282
-49.2836 1037.96 2264
-43.676 1033.37 2254
-38.286 1033.37 2254
-32.6333 1025.12 2236
-27.2863 1025.12 2236
-22.0571 1030.62 2248
-16.6814 1030.62 2248
-11.3058 1030.62 2248
-5.89057 1023.75 2233
-0.547835 1018.24 2221
4.76325 1018.24 2221
10.0607 1016.87 2218
15.3439 1015.49 2215
20.594 1013.2 2210
25.8788 1013.2 2210
30.9943 1007.7 2198
36.201 1006.32 2195
41.4499 1006.32 2195
46.6988 1006.32 2195
52.0187 1007.7 2198
57.2748 1007.7 2198
62.5308 1007.7 2198
67.7869 1007.7 2198
73.043 1007.7 2198
78.2991 1007.7 2198
83.4411 1006.32 2195
88.6901 1006.32 2195
93.939 1006.32 2195
99.1879 1006.32 2195
104.009 1002.2 2186
109.236 1002.2 2186
114.463 1002.2 2186
119.691 1002.2 2186
124.918 1002.2 2186
130.324 1003.57 2189
135.559 1003.57 2189
140.793 1003.57 2189
146.428 1006.32 2195
151.677 1006.32 2195
156.926 1006.32 2195
162.175 1006.32 2195
167.424 1006.32 2195
172.201 1003.57 2189
178.651 1010.45 2204
183.921 1010.45 2204
190.909 1019.62 2224
197.286 1025.12 2236
203.448 1029.25 2245
208.817 1029.25 2245
216.284 1039.33 2267
226.595 1062.26 2317
234.741 1074.18 2343
240.343 1074.18 2343
247.731 1081.97 2360
254.018 1084.72 2366
260.115 1086.56 2370
265.783 1086.56 2370
272.137 1089.31 2376
278.287 1091.14 2380
284.813 1094.35 2387
290.521 1094.35 2387
296.974 1097.1 2393
303.582 1100.31 2400
309.321 1100.31 2400
315.06 1100.31 2400
320.799 1100.31 2400
326.538 1100.31 2400
332.277 1100.31 2400
337.594 1098.93 2397
342.323 1095.72 2390
349.495 1100.31 2400
357.898 1108.56 2418
363.68 1108.56 2418
369.462 1108.56 2418
375.245 1108.56 2418
378.821 1102.14 2404
384.569 1102.14 2404
388.532 1097.1 2393
394.255 1097.1 2393
398.974 1094.35 2387
404.682 1094.35 2387
410.39 1094.35 2387
414.878 1091.14 2380
419.862 1089.31 2376
425.544 1089.31 2376
431.226 1089.31 2376
436.908 1089.31 2376
442.589 1089.31 2376
449.026 1091.14 2380
455.29 1092.52 2383
460.989 1092.52 2383
468.058 1095.72 2390
473.773 1095.72 2390
479.488 1095.72 2390
485.204 1095.72 2390
490.303 1094.35 2387
496.634 1095.72 2390
504.451 1100.31 2400
510.19 1100.31 2400
515.93 1100.31 2400
524.712 1106.73 2414
530.484 1106.73 2414
536.257 1106.73 2414
543.601 1109.94 2421
549.391 1109.94 2421
555.18 1109.94 2421
560.969 1109.94 2421
567.695 1111.77 2425
573.494 1111.77 2425
579.293 1111.77 2425
585.092 1111.77 2425
590.891 1111.77 2425
594.967 1108.56 2418
600.749 1108.56 2418
603.772 1103.52 2407
608.768 1102.14 2404
611.705 1097.1 2393
617.428 1097.1 2393
624.192 1098.93 2397
629.924 1098.93 2397
635.656 1098.93 2397
644.063 1103.52 2407
649.819 1103.52 2407
655.575 1103.52 2407
660.507 1102.14 2404
666.255 1102.14 2404
672.004 1102.14 2404
673.806 1095.72 2390
682.364 1100.31 2400
692.117 1106.73 2414
699.914 1109.94 2421
705.703 1109.94 2421
712.668 1111.77 2425
718.467 1111.77 2425
725.162 1113.15 2428
730.968 1113.15 2428
738.898 1116.36 2435
744.721 1116.36 2435
750.544 1116.36 2435
756.366 1116.36 2435
759.998 1113.15 2428
764.858 1111.77 2425
770.657 1111.77 2425
776.456 1111.77 2425
776.448 1103.52 2407
781.229 1102.14 2404
785.668 1100.31 2400
792.727 1102.14 2404
798.475 1102.14 2404
804.224 1102.14 2404
809.973 1102.14 2404
815.721 1102.14 2404
816.686 1095.72 2390
816.552 1087.93 2373
821.187 1086.56 2370
831.39 1092.52 2383
837.088 1092.52 2383
845.262 1095.72 2390
850.977 1095.72 2390
856.693 1095.72 2390
869.985 1105.35 2411
875.751 1105.35 2411
881.516 1105.35 2411
888.386 1106.73 2414
895.64 1108.56 2418
901.422 1108.56 2418
921.837 1126.44 2457
930.355 1129.65 2464
936.247 1129.65 2464
942.14 1129.65 2464
948.032 1129.65 2464
953.924 1129.65 2464
965.659 1136.53 2479
971.587 1136.53 2479
977.515 1136.53 2479
983.443 1136.53 2479
989.371 1136.53 2479
993.693 1134.69 2475
999.612 1134.69 2475
1007.16 1136.53 2479
1013.08 1136.53 2479
1019.01 1136.53 2479
1026.59 1138.36 2483
1033.78 1139.74 2486
1039.72 1139.74 2486
1045.67 1139.74 2486
1051.61 1139.74 2486
1057.56 1139.74 2486
1065.21 1141.57 2490
1071.17 1141.57 2490
1077.12 1141.57 2490
1083.08 1141.57 2490
1087.28 1139.74 2486
1093.23 1139.74 2486
1092.54 1132.86 2471
1095.34 1129.65 2464
1101.23 1129.65 2464
1110.27 1132.86 2471
1116.17 1132.86 2471
1132.53 1143.4 2494
1138.49 1143.4 2494
1147.67 1146.61 2501
1153.65 1146.61 2501
1159.63 1146.61 2501
1163.75 1144.78 2497
1169.72 1144.78 2497
1172.39 1141.57 2490
1178.35 1141.57 2490
1182.4 1139.74 2486
1188.34 1139.74 2486
1194.29 1139.74 2486
1196.85 1136.53 2479
1202.78 1136.53 2479
1208.71 1136.53 2479
1214.64 1136.53 2479
1211.7 1128.28 2461
1208.68 1120.02 2443
1212.54 1118.19 2439
1218.37 1118.19 2439
1224.2 1118.19 2439
1230.03 1118.19 2439
1230.29 1113.15 2428
1236.1 1113.15 2428
1238.32 1109.94 2421
1240.51 1106.73 2414
1255.58 1114.98 2432
1261.4 1114.98 2432
1267.21 1114.98 2432
1273.03 1114.98 2432
1276.74 1113.15 2428
1282.55 1113.15 2428
1290.47 1114.98 2432
1296.29 1114.98 2432
1303.71 1116.36 2435
1313.84 1120.02 2443
1319.68 1120.02 2443
1325.52 1120.02 2443
1331.36 1120.02 2443
1335.02 1118.19 2439
1340.85 1118.19 2439
1346.68 1118.19 2439
1346.41 1113.15 2428
1352.22 1113.15 2428
1358.02 1113.15 2428
1363.83 1113.15 2428
1353.84 1100.31 2400
1359.58 1100.31 2400
1363.61 1098.93 2397
1369.35 1098.93 2397
1371.06 1095.72 2390
1365.26 1086.56 2370
1374.39 1089.31 2376
1386.47 1094.35 2387
1392.17 1094.35 2387
1397.88 1094.35 2387
1401.24 1092.52 2383
1406.94 1092.52 2383
1410.86 1091.14 2380
1410.6 1086.56 2370
1416.26 1086.56 2370
1413.53 1080.14 2356
1421.57 1081.97 2360
1427.22 1081.97 2360
1432.86 1081.97 2360
1438.5 1081.97 2360
1444.15 1081.97 2360
1445.49 1078.76 2353
1449.27 1077.39 2350
1454.89 1077.39 2350
1464.24 1080.14 2356
1469.87 1080.14 2356
1479.89 1083.35 2363
1487.42 1084.72 2366
1493.08 1084.72 2366
1498.74 1084.72 2366
1504.4 1084.72 2366
1512.61 1086.56 2370
1537.49 1100.31 2400
1545.81 1102.14 2404
1551.55 1102.14 2404
1557.3 1102.14 2404
1563.05 1102.14 2404
1568.8 1102.14 2404
1574.55 1102.14 2404
1575.7 1098.93 2397
1570.21 1091.14 2380
1575.9 1091.14 2380
1581.59 1091.14 2380
1591.95 1094.35 2387
1597.66 1094.35 2387
1605.39 1095.72 2390
1611.1 1095.72 2390
1635.76 1108.56 2418
1641.54 1108.56 2418
1647.32 1108.56 2418
1636.01 1097.1 2393
1634.87 1092.52 2383
1652.28 1100.31 2400
1658.02 1100.31 2400
1663.76 1100.31 2400
1669.49 1100.31 2400
1673.14 1098.93 2397
1683.77 1102.14 2404
1689.52 1102.14 2404
1695.27 1102.14 2404
1701.02 1102.14 2404
1706.77 1102.14 2404
1714.65 1103.52 2407
1720.41 1103.52 2407
1734.05 1108.56 2418
1744.87 1111.77 2425
1750.67 1111.77 2425
1756.47 1111.77 2425
1754.28 1106.73 2414
1742.55 1095.72 2390
1748.27 1095.72 2390
1769.39 1105.35 2411
1775.16 1105.35 2411
1783.14 1106.73 2414
1788.91 1106.73 2414
1794.68 1106.73 2414
1798.22 1105.35 2411
1800.99 1103.52 2407
1804.5 1102.14 2404
1810.25 1102.14 2404
1815.99 1102.14 2404
1818.71 1100.31 2400
1843.46 1111.77 2425
1849.25 1111.77 2425
1855.05 1111.77 2425
-1706.34 1050.29 2279
-1729.25 1067.81 2317
-1738.59 1077.02 2337
-1735.23 1078.41 2340
-1729.63 1078.41 2340
-1724.04 1078.41 2340
-1718.44 1078.41 2340
-1712.85 1078.41 2340
-1707.25 1078.41 2340
-1675.82 1079.79 2343
-1670.22 1079.79 2343
-1664.62 1079.79 2343
-1651.93 1075.18 2333
-1646.35 1075.18 2333
-1640.78 1075.18 2333
-1633.09 1073.8 2330
-1627.52 1073.8 2330
-1617.08 1070.57 2323
-1611.52 1070.57 2323
-1603.89 1069.19 2320
-1596.28 1067.81 2317
-1590.74 1067.81 2317
-1585.2 1067.81 2317
-1579.66 1067.81 2317
-1570.04 1065.04 2311
-1561.81 1063.2 2307
-1556.29 1063.2 2307
-1546.74 1060.43 2301
-1535.21 1056.29 2292
-1529.73 1056.29 2292
-1534.22 1063.2 2307
-1528.7 1063.2 2307
-1523.19 1063.2 2307
-1511.75 1059.05 2298
-1506.26 1059.05 2298
-1492.27 1053.06 2285
-1486.81 1053.06 2285
-1481.34 1053.06 2285
-1475.88 1053.06 2285
-1470.41 1053.06 2285
-1447 1040.16 2257
-1437.77 1037.39 2251
-1426.66 1033.24 2242
-1421.3 1033.24 2242
-1412.15 1030.48 2236
-1420.01 1040.16 2257
-1419 1043.38 2264
-1434.82 1059.05 2298
-1429.32 1059.05 2298
-1500.04 1115.74 2421
-1494.25 1115.74 2421
-1488.46 1115.74 2421
-1482.67 1115.74 2421
-1456.14 1100.07 2387
-1450.43 1100.07 2387
-1436.25 1093.62 2373
-1430.58 1093.62 2373
-1429.1 1096.84 2380
-1423.41 1096.84 2380
-1417.72 1096.84 2380
-1384.48 1079.79 2343
-1398.29 1095 2376
-1392.61 1095 2376
-1386.93 1095 2376
-1381.25 1095 2376
-1373.83 1093.62 2373
-1368.15 1093.62 2373
-1360.76 1092.23 2370
-1324.79 1067.81 2317
-1315.83 1065.04 2311
-1310.3 1065.04 2311
-1304.78 1065.04 2311
-1286.32 1054.44 2288
-1279.17 1053.06 2285
-1273.71 1053.06 2285
-1268.24 1053.06 2285
-1266.65 1056.29 2292
-1266.12 1060.43 2301
-1266.09 1065.04 2311
-1260.57 1065.04 2311
-1259.93 1069.19 2320
-1256 1070.57 2323
-1250.45 1070.57 2323
-1244.89 1070.57 2323
-1239.34 1070.57 2323
-1233.78 1070.57 2323
-1228.23 1070.57 2323
-1219.51 1067.81 2317
-1212.4 1066.42 2314
-1208.43 1067.81 2317
-1204.45 1069.19 2320
-1198.9 1069.19 2320
-1196.95 1072.42 2327
-1199.58 1079.79 2343
-1197.55 1083.02 2350
-1191.93 1083.02 2350
-1191.36 1087.62 2360
-1187.22 1089.01 2363
-1181.57 1089.01 2363
-1175.92 1089.01 2363
-1176.71 1095 2376
-1171.02 1095 2376
-1165.34 1095 2376
-1159.66 1095 2376
-1152.52 1093.62 2373
-1145.4 1092.23 2370
-1147.9 1100.07 2387
-1142.2 1100.07 2387
-1141.25 1104.68 2397
-1138.83 1107.9 2404
-1154.77 1129.1 2450
-1148.91 1129.1 2450
-1143.05 1129.1 2450
-1137.19 1129.1 2450
-1131.33 1129.1 2450
-1117.2 1120.81 2432
-1116.42 1125.88 2443
-1118.76 1134.17 2461
-1112.87 1134.17 2461
-1106.99 1134.17 2461
-1102.44 1135.55 2464
-1098.33 1137.4 2468
-1095.53 1140.62 2475
-1089.61 1140.62 2475
-1085.44 1142.47 2479
-1079.51 1142.47 2479
-1073.59 1142.47 2479
-1067.66 1142.47 2479
-1066.44 1147.54 2490
-1060.49 1147.54 2490
-1054.53 1147.54 2490
-1048.58 1147.54 2490
-1038.02 1142.47 2479
-1018.35 1127.26 2446
-1002.15 1115.74 2421
-996.365 1115.74 2421
-990.575 1115.74 2421
-983.565 1114.35 2418
-958.373 1092.23 2370
-952.706 1092.23 2370
-944.241 1089.01 2363
-934.619 1084.4 2353
-926.228 1081.17 2346
-920.618 1081.17 2346
-915.008 1081.17 2346
-909.398 1081.17 2346
-907.641 1085.78 2356
-902.007 1085.78 2356
-896.373 1085.78 2356
-890.739 1085.78 2356
-881.348 1081.17 2346
-875.738 1081.17 2346
-870.128 1081.17 2346
-858.622 1073.8 2330
-855.613 1077.02 2337
-856.935 1085.78 2356
-851.302 1085.78 2356
-847.103 1087.62 2360
-841.46 1087.62 2360
-836.879 1089.01 2363
-831.228 1089.01 2363
-828.023 1092.23 2370
-822.356 1092.23 2370
-816.689 1092.23 2370
-811.021 1092.23 2370
-809.771 1098.22 2383
-804.073 1098.22 2383
-798.374 1098.22 2383
-792.676 1098.22 2383
-783.675 1093.62 2373
-775.705 1090.39 2366
-770.048 1090.39 2366
-764.39 1090.39 2366
-757.77 1089.01 2363
-752.119 1089.01 2363
-747.416 1090.39 2366
-741.758 1090.39 2366
-736.101 1090.39 2366
-730.443 1090.39 2366
-723.866 1089.01 2363
-718.215 1089.01 2363
-712.565 1089.01 2363
-709.906 1093.62 2373
-704.231 1093.62 2373
-698.556 1093.62 2373
-692.882 1093.62 2373
-687.207 1093.62 2373
-682.394 1095 2376
-679.846 1100.07 2387
-674.138 1100.07 2387
-670.11 1102.83 2393
-669.385 1111.13 2411
-664.445 1112.51 2414
-658.672 1112.51 2414
-654.793 1115.74 2421
-650.076 1117.58 2425
-645.074 1118.96 2428
-639.268 1118.96 2428
-633.462 1118.96 2428
-625.846 1115.74 2421
-621.082 1117.58 2425
-615.283 1117.58 2425
-611.997 1122.19 2435
-608.166 1125.88 2443
-604.05 1129.1 2450
-598.191 1129.1 2450
-593.058 1130.48 2453
-587.192 1130.48 2453
-581.326 1130.48 2453
-571.237 1122.19 2435
-563.092 1117.58 2425
-554.076 1111.13 2411
-548.311 1111.13 2411
-539.395 1104.68 2397
-532.104 1101.45 2390
-524.187 1096.84 2380
-517.624 1095 2376
-513.451 1098.22 2383
-507.752 1098.22 2383
-505.635 1106.06 2400
-499.896 1106.06 2400
-494.157 1106.06 2400
-488.418 1106.06 2400
-481.271 1102.83 2393
-474.356 1100.07 2387
-468.648 1100.07 2387
-462.164 1098.22 2383
-455.125 1095 2376
-448.876 1093.62 2373
-443.201 1093.62 2373
-437.527 1093.62 2373
-431.306 1092.23 2370
-426.177 1093.62 2373
-421.035 1095 2376
-415.353 1095 2376
-409.671 1095 2376
-403.989 1095 2376
-398.308 1095 2376
-391.634 1092.23 2370
-385.967 1092.23 2370
-380.3 1092.23 2370
-374.632 1092.23 2370
-368.342 1090.39 2366
-361.765 1087.62 2360
-358.535 1095 2376
-353.448 1096.84 2380
-348.195 1098.22 2383
-342.496 1098.22 2383
-336.798 1098.22 2383
-331.099 1098.22 2383
-325.947 1100.07 2387
-320.239 1100.07 2387
-314.531 1100.07 2387
-308.823 1100.07 2387
-303.115 1100.07 2387
-296.535 1096.84 2380
-290.843 1096.84 2380
-285.152 1096.84 2380
-279.461 1096.84 2380
-273.77 1096.84 2380
-268.078 1096.84 2380
-262.387 1096.84 2380
-256.696 1096.84 2380
-251.004 1096.84 2380
-245.313 1096.84 2380
-241.333 1104.68 2397
-235.601 1104.68 2397
-229.869 1104.68 2397
-223.763 1102.83 2393
-217.494 1100.07 2387
-211.786 1100.07 2387
-206.078 1100.07 2387
-200.37 1100.07 2387
-194.662 1100.07 2387
-189.192 1101.45 2390
-183.476 1101.45 2390
-178.282 1104.68 2397
-172.55 1104.68 2397
-166.818 1104.68 2397
-81.1892 1036.01 2248
-75.8136 1036.01 2248
-71.3153 1048.91 2276
-66.0463 1051.68 2282
-60.5894 1051.68 2282
-55.1324 1051.68 2282
-49.2836 1043.38 2264
-43.3272 1030.48 2236
-37.9802 1030.48 2236
-32.6333 1030.48 2236
-27.2863 1030.48 2236
-22.1454 1040.16 2257
-16.7482 1040.16 2257
-11.3511 1040.16 2257
-5.93806 1037.39 2251
-0.552275 1031.86 2239
4.80185 1031.86 2239
10.1015 1026.33 2227
15.3854 1023.57 2221
20.6406 1020.8 2215
25.9373 1020.8 2215
31.1213 1017.11 2207
36.201 1011.58 2195
41.4499 1011.58 2195
46.6988 1011.58 2195
52.0187 1012.97 2198
57.2748 1012.97 2198
62.6162 1014.35 2201
67.8795 1014.35 2201
73.1427 1014.35 2201
78.406 1014.35 2201
83.6692 1014.35 2201
88.9325 1014.35 2201
94.1957 1014.35 2201
99.1879 1011.58 2195
104.009 1007.43 2186
109.236 1007.43 2186
114.463 1007.43 2186
119.691 1007.43 2186
124.918 1007.43 2186
130.324 1008.82 2189
135.559 1008.82 2189
140.793 1008.82 2189
146.428 1011.58 2195
151.677 1011.58 2195
156.926 1011.58 2195
162.175 1011.58 2195
167.424 1011.58 2195
172.201 1008.82 2189
178.651 1015.73 2204
183.921 1015.73 2204
189.707 1018.5 2210
197.286 1030.48 2236
202.905 1031.86 2239
208.259 1031.86 2239
216.284 1044.76 2267
226.595 1067.81 2317
234.741 1079.79 2343
240.343 1079.79 2343
246.996 1084.4 2353
253.374 1087.62 2360
259.018 1087.62 2360
264.661 1087.62 2360
271.794 1093.62 2373
277.468 1093.62 2373
283.978 1096.84 2380
289.669 1096.84 2380
295.733 1098.22 2383
302.696 1102.83 2393
308.419 1102.83 2393
314.141 1102.83 2393
319.863 1102.83 2393
325.178 1101.45 2390
330.893 1101.45 2390
336.608 1101.45 2390
341.894 1100.07 2387
348.039 1101.45 2390
357.898 1114.35 2418
363.68 1114.35 2418
369.462 1114.35 2418
375.245 1114.35 2418
377.087 1102.83 2393
382.81 1102.83 2393
387.558 1100.07 2387
393.266 1100.07 2387
398.974 1100.07 2387
404.682 1100.07 2387
409.187 1096.84 2380
414.181 1095 2376
419.332 1093.62 2373
425.007 1093.62 2373
430.681 1093.62 2373
436.356 1093.62 2373
442.031 1093.62 2373
448.271 1095 2376
454.717 1096.84 2380
460.408 1096.84 2380
467.471 1100.07 2387
473.179 1100.07 2387
478.887 1100.07 2387
483.783 1098.22 2383
488.865 1096.84 2380
496.011 1100.07 2387
502.349 1101.45 2390
508.065 1101.45 2390
515.93 1106.06 2400
521.669 1106.06 2400
528.946 1109.28 2407
534.702 1109.28 2407
542.029 1112.51 2414
547.802 1112.51 2414
553.575 1112.51 2414
559.347 1112.51 2414
566.056 1114.35 2418
572.548 1115.74 2421
578.337 1115.74 2421
584.127 1115.74 2421
589.185 1114.35 2418
592.261 1109.28 2407
598.016 1109.28 2407
602.016 1106.06 2400
605.983 1102.83 2393
610.938 1101.45 2390
615.88 1100.07 2387
621.588 1100.07 2387
626.245 1098.22 2383
633.799 1101.45 2390
640.317 1102.83 2393
646.04 1102.83 2393
651.762 1102.83 2393
656.66 1101.45 2390
661.544 1100.07 2387
667.252 1100.07 2387
669.859 1095 2376
679.521 1101.45 2390
685.236 1101.45 2390
690.951 1101.45 2390
696.667 1101.45 2390
702.382 1101.45 2390
708.097 1101.45 2390
713.812 1101.45 2390
719.527 1101.45 2390
726.153 1102.83 2393
731.875 1102.83 2393
739.755 1106.06 2400
745.495 1106.06 2400
751.234 1106.06 2400
756.027 1104.68 2397
761.759 1104.68 2397
767.491 1104.68 2397
771.932 1102.83 2393
773.43 1096.84 2380
779.121 1096.84 2380
784.813 1096.84 2380
790.504 1096.84 2380
796.195 1096.84 2380
801.886 1096.84 2380
807.578 1096.84 2380
808.485 1090.39 2366
809.67 1084.4 2353
814.257 1083.02 2350
823.365 1087.62 2360
832.521 1092.23 2370
838.189 1092.23 2370
843.856 1092.23 2370
850.599 1093.62 2373
856.274 1093.62 2373
861.948 1093.62 2373
868.72 1095 2376
874.401 1095 2376
886.38 1102.83 2393
892.102 1102.83 2393
903.077 1109.28 2407
912.987 1114.35 2418
918.769 1114.35 2418
924.551 1114.35 2418
931.487 1115.74 2421
944.245 1124.03 2439
951.636 1125.88 2443
957.478 1125.88 2443
963.32 1125.88 2443
969.162 1125.88 2443
975.004 1125.88 2443
977.634 1122.19 2435
983.456 1122.19 2435
986.435 1118.96 2428
992.241 1118.96 2428
998.048 1118.96 2428
1006.75 1122.19 2435
1017.14 1127.26 2446
1025.92 1130.48 2453
1033.47 1132.33 2457
1039.35 1132.33 2457
1045.22 1132.33 2457
1051.1 1132.33 2457
1056.97 1132.33 2457
1050.3 1118.96 2428
1053.06 1115.74 2421
1058.85 1115.74 2421
1064.64 1115.74 2421
1069.11 1114.35 2418
1073.11 1112.51 2414
1085.14 1118.96 2428
1099.03 1127.26 2446
1104.88 1127.26 2446
1115.73 1132.33 2457
1127.99 1138.78 2471
1135.74 1140.62 2475
1141.66 1140.62 2475
1147.57 1140.62 2475
1153.49 1140.62 2475
1159.41 1140.62 2475
1165.33 1140.62 2475
1171.25 1140.62 2475
1177.17 1140.62 2475
1179.74 1137.4 2468
1185.64 1137.4 2468
1191.54 1137.4 2468
1194.05 1134.17 2461
1196.03 1130.48 2453
1201.9 1130.48 2453
1202.84 1125.88 2443
1208.68 1125.88 2443
1212.54 1124.03 2439
1218.37 1124.03 2439
1222.19 1122.19 2435
1215.91 1111.13 2411
1221.68 1111.13 2411
1227.44 1111.13 2411
1233.21 1111.13 2411
1235.38 1107.9 2404
1249.9 1115.74 2421
1255.69 1115.74 2421
1261.48 1115.74 2421
1267.27 1115.74 2421
1273.06 1115.74 2421
1275.15 1112.51 2414
1280.92 1112.51 2414
1286.7 1112.51 2414
1287.11 1107.9 2404
1292.86 1107.9 2404
1298.61 1107.9 2404
1304.36 1107.9 2404
1310.11 1107.9 2404
1313.67 1106.06 2400
1319.41 1106.06 2400
1325.15 1106.06 2400
1329.22 1104.68 2397
1334.95 1104.68 2397
1340.69 1104.68 2397
1348.1 1106.06 2400
1353.84 1106.06 2400
1359.58 1106.06 2400
1363.61 1104.68 2397
1369.35 1104.68 2397
1371.06 1101.45 2390
1365.26 1092.23 2370
1374.39 1095 2376
1386.47 1100.07 2387
1392.17 1100.07 2387
1397.88 1100.07 2387
1401.24 1098.22 2383
1406.94 1098.22 2383
1410.86 1096.84 2380
1410.6 1092.23 2370
1416.26 1092.23 2370
1413.53 1085.78 2356
1421.57 1087.62 2360
1427.22 1087.62 2360
1432.86 1087.62 2360
1438.5 1087.62 2360
1444.15 1087.62 2360
1445.49 1084.4 2353
1449.27 1083.02 2350
1454.89 1083.02 2350
1464.24 1085.78 2356
1469.87 1085.78 2356
1479.89 1089.01 2363
1487.42 1090.39 2366
1493.08 1090.39 2366
1498.74 1090.39 2366
1504.4 1090.39 2366
1512.61 1092.23 2370
1537.49 1106.06 2400
1545.81 1107.9 2404
1551.55 1107.9 2404
1557.3 1107.9 2404
1563.05 1107.9 2404
1568.8 1107.9 2404
1574.55 1107.9 2404
1575.7 1104.68 2397
1570.21 1096.84 2380
1575.9 1096.84 2380
1581.59 1096.84 2380
1591.95 1100.07 2387
1597.66 1100.07 2387
1605.39 1101.45 2390
1611.1 1101.45 2390
1635.76 1114.35 2418
1641.54 1114.35 2418
1647.32 1114.35 2418
1636.01 1102.83 2393
1634.87 1098.22 2383
1652.28 1106.06 2400
1658.02 1106.06 2400
1663.76 1106.06 2400
1669.49 1106.06 2400
1673.14 1104.68 2397
1683.77 1107.9 2404
1689.52 1107.9 2404
1695.27 1107.9 2404
1701.02 1107.9 2404
1706.77 1107.9 2404
1714.65 1109.28 2407
1720.41 1109.28 2407
1734.05 1114.35 2418
1744.87 1117.58 2425
1750.67 1117.58 2425
1756.47 1117.58 2425
1754.28 1112.51 2414
1742.55 1101.45 2390
1748.27 1101.45 2390
1769.39 1111.13 2411
1775.16 1111.13 2411
1783.14 1112.51 2414
1788.91 1112.51 2414
1794.68 1112.51 2414
1798.22 1111.13 2411
1800.99 1109.28 2407
1804.5 1107.9 2404
1810.25 1107.9 2404
1815.99 1107.9 2404
1818.71 1106.06 2400
1843.46 1117.58 2425
1849.25 1117.58 2425
1855.05 1117.58 2425
-1706.34 1055.75 2279
-1727.02 1071.97 2314
-1728.18 1076.14 2323
-1730.04 1080.77 2333
-1724.46 1080.77 2333
-1718.88 1080.77 2333
-1718.44 1084.01 2340
-1712.85 1084.01 2340
-1707.25 1084.01 2340
-1658.81 1077.99 2327
-1653.25 1077.99 2327
-1647.68 1077.99 2327
-1642.12 1077.99 2327
-1638.67 1079.38 2330
-1633.09 1079.38 2330
-1627.52 1079.38 2330
-1617.08 1076.14 2323
-1611.52 1076.14 2323
-1603.89 1074.75 2320
-1594.21 1071.97 2314
-1588.68 1071.97 2314
-1583.14 1071.97 2314
-1575.57 1070.58 2311
-1567.32 1068.73 2307
-1559.77 1067.34 2304
-1554.26 1067.34 2304
-1546.74 1065.95 2301
-1528.51 1057.14 2282
-1523.05 1057.14 2282
-1521.59 1059.92 2288
-1516.11 1059.92 2288
-1510.64 1059.92 2288
-1503.2 1058.53 2285
-1497.73 1058.53 2285
-1482.47 1051.58 2270
-1473.14 1048.81 2264
-1457.36 1041.39 2248
-1451.98 1041.39 2248
-1446.6 1041.39 2248
-1441.23 1041.39 2248
-1435.85 1041.39 2248
-1426.66 1038.61 2242
-1421.3 1038.61 2242
-1415.94 1038.61 2242
-1414.35 1041.39 2248
-1419 1048.81 2264
-1413.59 1048.81 2264
-1408.18 1048.81 2264
-1493.84 1116.9 2411
-1488.08 1116.9 2411
-1482.31 1116.9 2411
-1476.55 1116.9 2411
-1456.14 1105.79 2387
-1450.43 1105.79 2387
-1436.25 1099.3 2373
-1430.58 1099.3 2373
-1429.1 1102.54 2380
-1423.41 1102.54 2380
-1417.72 1102.54 2380
-1375.02 1077.99 2327
-1398.29 1100.69 2376
-1392.61 1100.69 2376
-1386.93 1100.69 2376
-1381.25 1100.69 2376
-1373.83 1099.3 2373
-1368.15 1099.3 2373
-1360.76 1097.91 2370
-1324.79 1073.36 2317
-1315.83 1070.58 2311
-1310.3 1070.58 2311
-1300.83 1067.34 2304
-1286.32 1059.92 2288
-1279.17 1058.53 2285
-1273.71 1058.53 2285
-1266.58 1057.14 2282
-1266.65 1061.78 2292
-1262.82 1063.17 2295
-1266.09 1070.58 2311
-1260.57 1070.58 2311
-1258.3 1073.36 2317
-1252.76 1073.36 2317
-1247.22 1073.36 2317
-1241.68 1073.36 2317
-1236.14 1073.36 2317
-1230.6 1073.36 2317
-1225.06 1073.36 2317
-1219.51 1073.36 2317
-1213.97 1073.36 2317
-1208.43 1073.36 2317
-1204.45 1074.75 2320
-1198.9 1074.75 2320
-1196.95 1077.99 2327
-1196.51 1082.62 2337
-1195.51 1086.79 2346
-1189.9 1086.79 2346
-1184.29 1086.79 2346
-1185.71 1093.28 2360
-1180.07 1093.28 2360
-1174.42 1093.28 2360
-1168.78 1093.28 2360
-1163.14 1093.28 2360
-1157.49 1093.28 2360
-1145.02 1086.79 2346
-1142.81 1090.03 2353
-1137.18 1090.03 2353
-1136.36 1094.67 2363
-1130.71 1094.67 2363
-1129.82 1099.3 2373
-1133.62 1108.56 2393
-1129.79 1110.42 2397
-1124.05 1110.42 2397
-1118.32 1110.42 2397
-1113.98 1111.81 2400
-1108.24 1111.81 2400
-1102.5 1111.81 2400
-1104.99 1120.15 2418
-1100.57 1121.54 2421
-1096.59 1123.39 2425
-1090.79 1123.39 2425
-1088.13 1126.63 2432
-1090.32 1134.97 2450
-1084.46 1134.97 2450
-1078.6 1134.97 2450
-1072.75 1134.97 2450
-1066.89 1134.97 2450
-1061.03 1134.97 2450
-1055.17 1134.97 2450
-1049.31 1134.97 2450
-1043.45 1134.97 2450
-1037.59 1134.97 2450
-1028.79 1131.73 2443
-1019.59 1128.02 2435
-1007.94 1121.54 2421
-983.526 1100.69 2376
-977.845 1100.69 2376
-966.844 1094.67 2363
-959.973 1093.28 2360
-950.286 1088.65 2350
-944.666 1088.65 2350
-932.253 1080.77 2333
-920.319 1073.36 2317
-908.462 1065.95 2301
-904.137 1067.34 2304
-898.627 1067.34 2304
-893.117 1067.34 2304
-887.608 1067.34 2304
-884.778 1070.58 2311
-879.252 1070.58 2311
-873.726 1070.58 2311
-868.199 1070.58 2311
-862.673 1070.58 2311
-857.147 1070.58 2311
-851.62 1070.58 2311
-849.389 1074.75 2320
-846.387 1077.99 2327
-840.823 1077.99 2327
-837.412 1080.77 2333
-831.833 1080.77 2333
-827.671 1082.62 2337
-822.082 1082.62 2337
-819.638 1086.79 2346
-814.028 1086.79 2346
-809.797 1088.65 2350
-804.177 1088.65 2350
-798.557 1088.65 2350
-791.588 1086.79 2346
-785.978 1086.79 2346
-781.699 1088.65 2350
-776.079 1088.65 2350
-770.46 1088.65 2350
-764.84 1088.65 2350
-759.221 1088.65 2350
-751.356 1085.4 2343
-744.799 1084.01 2340
-738.255 1082.62 2337
-732.667 1082.62 2337
-727.078 1082.62 2337
-720.255 1080.77 2333
-714.676 1080.77 2333
-709.097 1080.77 2333
-703.518 1080.77 2333
-701.828 1086.79 2346
-696.218 1086.79 2346
-690.608 1086.79 2346
-684.998 1086.79 2346
-680.547 1088.65 2350
-677.799 1093.28 2360
-676.713 1100.69 2376
-671.031 1100.69 2376
-666.469 1102.54 2380
-661.611 1103.93 2383
-660.592 1111.81 2400
-654.853 1111.81 2400
-650.195 1113.66 2404
-644.447 1113.66 2404
-638.698 1113.66 2404
-632.949 1113.66 2404
-627.201 1113.66 2404
-621.452 1113.66 2404
-617.496 1116.9 2411
-611.73 1116.9 2411
-608.478 1121.54 2421
-605.427 1126.63 2432
-600.351 1128.02 2435
-594.529 1128.02 2435
-588.706 1128.02 2435
-582.883 1128.02 2435
-577.06 1128.02 2435
-571.237 1128.02 2435
-563.092 1123.39 2425
-554.076 1116.9 2411
-548.311 1116.9 2411
-539.395 1110.42 2397
-532.104 1107.18 2390
-524.187 1102.54 2380
-517.624 1100.69 2376
-513.451 1103.93 2383
-507.752 1103.93 2383
-505.635 1111.81 2400
-499.896 1111.81 2400
-494.157 1111.81 2400
-488.418 1111.81 2400
-481.271 1108.56 2393
-474.356 1105.79 2387
-468.648 1105.79 2387
-462.164 1103.93 2383
-455.125 1100.69 2376
-448.876 1099.3 2373
-443.201 1099.3 2373
-437.527 1099.3 2373
-431.306 1097.91 2370
-426.177 1099.3 2373
-421.035 1100.69 2376
-415.353 1100.69 2376
-409.671 1100.69 2376
-403.989 1100.69 2376
-398.308 1100.69 2376
-391.634 1097.91 2370
-385.967 1097.91 2370
-380.3 1097.91 2370
-374.632 1097.91 2370
-368.342 1096.06 2366
-361.765 1093.28 2360
-358.535 1100.69 2376
-353.448 1102.54 2380
-348.195 1103.93 2383
-342.496 1103.93 2383
-336.798 1103.93 2383
-331.099 1103.93 2383
-325.947 1105.79 2387
-320.239 1105.79 2387
-314.531 1105.79 2387
-308.823 1105.79 2387
-303.115 1105.79 2387
-296.535 1102.54 2380
-290.843 1102.54 2380
-285.152 1102.54 2380
-279.461 1102.54 2380
-273.77 1102.54 2380
-268.078 1102.54 2380
-262.387 1102.54 2380
-256.696 1102.54 2380
-251.004 1102.54 2380
-245.313 1102.54 2380
-241.333 1110.42 2397
-235.601 1110.42 2397
-229.869 1110.42 2397
-223.763 1108.56 2393
-217.494 1105.79 2387
-211.786 1105.79 2387
-206.078 1105.79 2387
-200.37 1105.79 2387
-194.662 1105.79 2387
-189.192 1107.18 2390
-183.476 1107.18 2390
-178.282 1110.42 2397
-172.55 1110.42 2397
-166.818 1110.42 2397
-81.1892 1041.39 2248
-75.8136 1041.39 2248
-71.3153 1054.36 2276
-66.0463 1057.14 2282
-60.5894 1057.14 2282
-55.1324 1057.14 2282
-49.2836 1048.81 2264
-43.3272 1035.83 2236
-37.9802 1035.83 2236
-32.6333 1035.83 2236
-27.2863 1035.83 2236
-22.1454 1045.56 2257
-16.7482 1045.56 2257
-11.3511 1045.56 2257
-5.95389 1045.56 2257
-0.556715 1045.56 2257
4.84046 1045.56 2257
10.1832 1040 2245
15.5517 1040 2245
20.7524 1031.66 2227
26.0778 1031.66 2227
31.1636 1023.79 2210
36.3494 1021.01 2204
41.6198 1021.01 2204
46.8902 1021.01 2204
52.1607 1021.01 2204
57.4311 1021.01 2204
62.7869 1022.4 2207
68.0645 1022.4 2207
73.3421 1022.4 2207
78.5128 1021.01 2204
83.7833 1021.01 2204
89.0537 1021.01 2204
94.3241 1021.01 2204
99.3234 1018.23 2198
104.294 1015.45 2192
109.536 1015.45 2192
114.778 1015.45 2192
120.019 1015.45 2192
125.261 1015.45 2192
130.681 1016.84 2195
135.93 1016.84 2195
141.179 1016.84 2195
146.228 1015.45 2192
151.47 1015.45 2192
156.711 1015.45 2192
161.953 1015.45 2192
167.195 1015.45 2192
172.201 1014.06 2189
177.922 1016.84 2195
183.17 1016.84 2195
189.707 1023.79 2210
197.286 1035.83 2236
202.633 1035.83 2236
