ply
format ascii 1.0
comment File generated
element vertex 2148
property float x
property float y
property float z
end_header
156.781 -826.621 2122
161.856 -826.621 2122
167.166 -827.789 2125
172.734 -830.127 2131
177.83 -830.127 2131
182.926 -830.127 2131
188.198 -830.906 2133
193.299 -830.906 2133
198.678 -832.074 2136
203.786 -832.074 2136
209.481 -834.412 2142
214.603 -834.412 2142
219.725 -834.412 2142
224.847 -834.412 2142
229.647 -833.243 2139
667.124 -1532.87 3935
676.533 -1532.87 3935
685.943 -1532.87 3935
693.586 -1528.98 3925
1425.85 -1434.7 3683
1434.66 -1434.7 3683
1443.47 -1434.7 3683
1452.27 -1434.7 3683
1444.82 -1418.73 3642
1479.47 -1444.05 3707
1488.33 -1444.05 3707
1497.2 -1444.05 3707
1506.06 -1444.05 3707
1514.93 -1444.05 3707
1523.79 -1444.05 3707
1532.65 -1444.05 3707
1541.52 -1444.05 3707
1547.04 -1440.94 3699
1555.88 -1440.94 3699
1564.73 -1440.94 3699
1566.77 -1434.7 3683
1568.73 -1428.47 3667
1560.29 -1412.89 3627
1568.96 -1412.89 3627
1567.2 -1403.54 3603
1562.26 -1391.47 3572
1544.41 -1368.09 3512
-2737.06 -1428.98 3691
-2740.06 -1435.17 3707
-2731.2 -1435.17 3707
-2740.69 -1444.85 3732
-2737.63 -1447.95 3740
-2728.68 -1447.95 3740
-2719.74 -1447.95 3740
-2705 -1444.85 3732
-2701.85 -1447.95 3740
-2705.15 -1454.53 3757
-2696.16 -1454.53 3757
-2687.18 -1454.53 3757
-2678.2 -1454.53 3757
-2669.21 -1454.53 3757
-2654.56 -1451.43 3749
-2633.6 -1444.85 3732
-2624.68 -1444.85 3732
-2627.67 -1451.43 3749
-2618.7 -1451.43 3749
-2609.74 -1451.43 3749
-2600.77 -1451.43 3749
-2591.81 -1451.43 3749
-2571.13 -1444.85 3732
-2556.71 -1441.76 3724
-2542.34 -1438.66 3716
-2533.45 -1438.66 3716
-2518.45 -1435.17 3707
-2498.75 -1428.98 3691
-2489.93 -1428.98 3691
-2481.1 -1428.98 3691
-2466.92 -1425.88 3683
-2436.08 -1413.11 3650
-2406.74 -1401.1 3619
-1343.05 -1478.15 3818
-1333.92 -1478.15 3818
-1324.79 -1478.15 3818
-1303.6 -1464.6 3783
-1288.74 -1458.02 3766
-1279.73 -1458.02 3766
-1264.99 -1451.43 3749
-1253.01 -1447.95 3740
-1241.4 -1444.85 3732
-1232.48 -1444.85 3732
-1218.31 -1438.66 3716
-1206.49 -1435.17 3707
-1197.63 -1435.17 3707
-1191.65 -1438.66 3716
-1182.77 -1438.66 3716
-1173.88 -1438.66 3716
-1164.99 -1438.66 3716
-1156.11 -1438.66 3716
-1147.22 -1438.66 3716
-1133.13 -1432.08 3699
-1124.28 -1432.08 3699
-1115.44 -1432.08 3699
-77.2526 -828.119 2139
-72.1376 -828.119 2139
-67.0226 -828.119 2139
-61.9076 -828.119 2139
-56.7926 -828.119 2139
-51.6776 -828.119 2139
-46.6279 -829.28 2142
-41.5445 -830.055 2144
-36.4175 -830.055 2144
-31.2906 -830.055 2144
-26.1636 -830.055 2144
-21.017 -829.28 2142
-15.8281 -825.796 2133
-10.7274 -825.796 2133
-5.62678 -825.796 2133
-0.525636 -825.022 2131
4.57023 -825.022 2131
9.6661 -825.022 2131
14.762 -825.022 2131
19.8578 -825.022 2131
24.9186 -823.86 2128
30.0073 -823.86 2128
35.096 -823.86 2128
40.128 -822.699 2125
45.2095 -822.699 2125
50.362 -823.86 2128
55.4507 -823.86 2128
60.5394 -823.86 2128
65.5356 -822.699 2125
70.6171 -822.699 2125
75.6986 -822.699 2125
80.7802 -822.699 2125
85.8617 -822.699 2125
90.9432 -822.699 2125
95.8891 -821.537 2122
100.963 -821.537 2122
106.038 -821.537 2122
111.112 -821.537 2122
116.187 -821.537 2122
121.147 -820.763 2120
126.216 -820.763 2120
131.286 -820.763 2120
136.355 -820.763 2120
141.425 -820.763 2120
146.633 -821.537 2122
151.921 -822.699 2125
157.003 -822.699 2125
162.084 -822.699 2125
167.166 -822.699 2125
172.734 -825.022 2131
177.83 -825.022 2131
182.926 -825.022 2131
188.198 -825.796 2133
193.299 -825.796 2133
198.678 -826.958 2136
203.786 -826.958 2136
209.481 -829.28 2142
214.603 -829.28 2142
219.725 -829.28 2142
224.847 -829.28 2142
667.124 -1523.44 3935
676.533 -1523.44 3935
685.943 -1523.44 3935
693.586 -1519.57 3925
1425.85 -1425.88 3683
1434.66 -1425.88 3683
1443.47 -1425.88 3683
1452.27 -1425.88 3683
1479.47 -1435.17 3707
1488.33 -1435.17 3707
1497.2 -1435.17 3707
1506.06 -1435.17 3707
1514.93 -1435.17 3707
1523.79 -1435.17 3707
1532.65 -1435.17 3707
1541.52 -1435.17 3707
1547.04 -1432.08 3699
1555.88 -1432.08 3699
1564.73 -1432.08 3699
1566.77 -1425.88 3683
1568.73 -1419.69 3667
1560.29 -1404.2 3627
1568.96 -1404.2 3627
1567.2 -1394.91 3603
1562.26 -1382.91 3572
1544.41 -1359.68 3512
-2737.06 -1420.14 3691
-2740.06 -1426.29 3707
-2731.2 -1426.29 3707
-2746.57 -1438.99 3740
-2750.07 -1445.53 3757
-2741.08 -1445.53 3757
-2732.1 -1445.53 3757
-2710.79 -1438.99 3740
-2701.85 -1438.99 3740
-2711.63 -1448.99 3766
-2702.62 -1448.99 3766
-2693.62 -1448.99 3766
-2684.61 -1448.99 3766
-2675.61 -1448.99 3766
-2666.6 -1448.99 3766
-2645.6 -1442.45 3749
-2636.63 -1442.45 3749
-2639.58 -1448.99 3766
-2630.58 -1448.99 3766
-2621.57 -1448.99 3766
-2612.57 -1448.99 3766
-2603.56 -1448.99 3766
-2594.56 -1448.99 3766
-2562.21 -1435.91 3732
-2547.81 -1432.83 3724
-2538.9 -1432.83 3724
-2518.45 -1426.29 3707
-2504.17 -1423.22 3699
-2489.93 -1420.14 3691
-2481.1 -1420.14 3691
-2466.92 -1417.06 3683
-2436.08 -1404.36 3650
-2406.74 -1392.44 3619
-1345.81 -1462.08 3800
-1343.05 -1469 3818
-1333.92 -1469 3818
-1324.79 -1469 3818
-1303.6 -1455.54 3783
-1288.74 -1448.99 3766
-1279.73 -1448.99 3766
-1264.99 -1442.45 3749
-1250.33 -1435.91 3732
-1241.4 -1435.91 3732
-1232.48 -1435.91 3732
-1218.31 -1429.76 3716
-1206.49 -1426.29 3707
-1197.63 -1426.29 3707
-1191.65 -1429.76 3716
-1182.77 -1429.76 3716
-1173.88 -1429.76 3716
-1164.99 -1429.76 3716
-1156.11 -1429.76 3716
-1147.22 -1429.76 3716
-1133.13 -1423.22 3699
-1124.28 -1423.22 3699
-1115.44 -1423.22 3699
-77.2526 -822.995 2139
-72.1376 -822.995 2139
-67.0226 -822.995 2139
-61.9076 -822.995 2139
-56.7926 -822.995 2139
-51.6776 -822.995 2139
-46.6279 -824.149 2142
-41.5445 -824.919 2144
-36.4175 -824.919 2144
-31.2906 -824.919 2144
-26.1636 -824.919 2144
-21.017 -824.149 2142
-15.8281 -820.686 2133
-10.7274 -820.686 2133
-5.62678 -820.686 2133
-0.525636 -819.917 2131
4.57023 -819.917 2131
9.6661 -819.917 2131
14.762 -819.917 2131
19.8578 -819.917 2131
24.9186 -818.763 2128
30.0073 -818.763 2128
35.096 -818.763 2128
40.128 -817.608 2125
45.2095 -817.608 2125
50.362 -818.763 2128
55.4507 -818.763 2128
60.5394 -818.763 2128
65.5356 -817.608 2125
70.6171 -817.608 2125
75.6986 -817.608 2125
80.7802 -817.608 2125
85.8617 -817.608 2125
90.9432 -817.608 2125
95.8891 -816.454 2122
100.963 -816.454 2122
106.038 -816.454 2122
111.112 -816.454 2122
116.187 -816.454 2122
121.147 -815.685 2120
126.216 -815.685 2120
131.286 -815.685 2120
136.355 -815.685 2120
141.425 -815.685 2120
146.633 -816.454 2122
151.921 -817.608 2125
157.003 -817.608 2125
162.084 -817.608 2125
167.166 -817.608 2125
172.734 -819.917 2131
177.83 -819.917 2131
182.926 -819.917 2131
188.198 -820.686 2133
193.299 -820.686 2133
198.678 -821.841 2136
203.786 -821.841 2136
209.481 -824.149 2142
214.603 -824.149 2142
219.725 -824.149 2142
224.847 -824.149 2142
648.521 -1492.86 3880
667.124 -1514.02 3935
676.533 -1514.02 3935
685.943 -1514.02 3935
693.586 -1510.17 3925
686.853 -1475.54 3835
696.023 -1475.54 3835
1432.05 -1423.22 3699
1440.89 -1423.22 3699
1452.87 -1426.29 3707
1461.74 -1426.29 3707
1470.6 -1426.29 3707
1483.06 -1429.76 3716
1491.95 -1429.76 3716
1510.52 -1438.99 3740
1519.47 -1438.99 3740
1528.41 -1438.99 3740
1527.49 -1429.76 3716
1536.38 -1429.76 3716
1545.26 -1429.76 3716
1547.04 -1423.22 3699
1555.88 -1423.22 3699
1564.73 -1423.22 3699
1570.17 -1420.14 3691
1568.73 -1410.9 3667
1563.73 -1398.59 3635
1572.43 -1398.59 3635
1574.16 -1392.44 3619
1575.81 -1386.28 3603
1544.41 -1351.27 3512
-2737.06 -1411.3 3691
-2740.06 -1417.41 3707
-2731.2 -1417.41 3707
-2746.57 -1430.03 3740
-2750.07 -1436.53 3757
-2741.08 -1436.53 3757
-2732.1 -1436.53 3757
-2710.79 -1430.03 3740
-2701.85 -1430.03 3740
-2711.63 -1439.97 3766
-2702.62 -1439.97 3766
-2693.62 -1439.97 3766
-2684.61 -1439.97 3766
-2675.61 -1439.97 3766
-2666.6 -1439.97 3766
-2645.6 -1433.47 3749
-2636.63 -1433.47 3749
-2639.58 -1439.97 3766
-2630.58 -1439.97 3766
-2621.57 -1439.97 3766
-2612.57 -1439.97 3766
-2603.56 -1439.97 3766
-2594.56 -1439.97 3766
-2562.21 -1426.97 3732
-2547.81 -1423.91 3724
-2538.9 -1423.91 3724
-2518.45 -1417.41 3707
-2504.17 -1414.35 3699
-2489.93 -1411.3 3691
-2481.1 -1411.3 3691
-2466.92 -1408.24 3683
-2430.74 -1392.56 3642
-2401.42 -1380.71 3611
-1345.81 -1452.97 3800
-1336.72 -1452.97 3800
-1327.63 -1452.97 3800
-1318.55 -1452.97 3800
-1303.6 -1446.47 3783
-1288.74 -1439.97 3766
-1279.73 -1439.97 3766
-1264.99 -1433.47 3749
-1250.33 -1426.97 3732
-1238.74 -1423.91 3724
-1229.84 -1423.91 3724
-1218.31 -1420.85 3716
-1206.49 -1417.41 3707
-1197.63 -1417.41 3707
-1188.77 -1417.41 3707
-1179.9 -1417.41 3707
-1173.88 -1420.85 3716
-1164.99 -1420.85 3716
-1156.11 -1420.85 3716
-1144.44 -1417.41 3707
-1133.13 -1414.35 3699
-1121.85 -1411.3 3691
-1113.02 -1411.3 3691
-77.2526 -817.871 2139
-72.1376 -817.871 2139
-67.0226 -817.871 2139
-61.9076 -817.871 2139
-56.7926 -817.871 2139
-51.6776 -817.871 2139
-46.6279 -819.018 2142
-41.5445 -819.783 2144
-36.4685 -820.93 2147
-31.3343 -820.93 2147
-26.2002 -820.93 2147
-21.017 -819.018 2142
-15.8281 -815.577 2133
-10.7274 -815.577 2133
-5.62678 -815.577 2133
-0.525636 -814.812 2131
4.57023 -814.812 2131
9.6661 -814.812 2131
14.762 -814.812 2131
19.8578 -814.812 2131
24.9186 -813.665 2128
30.0073 -813.665 2128
35.096 -813.665 2128
40.128 -812.518 2125
45.2095 -812.518 2125
50.362 -813.665 2128
55.4507 -813.665 2128
60.5394 -813.665 2128
65.5356 -812.518 2125
70.6171 -812.518 2125
75.6986 -812.518 2125
80.7802 -812.518 2125
85.8617 -812.518 2125
90.9432 -812.518 2125
95.8891 -811.371 2122
100.963 -811.371 2122
106.038 -811.371 2122
111.112 -811.371 2122
116.187 -811.371 2122
121.147 -810.606 2120
126.216 -810.606 2120
131.286 -810.606 2120
136.484 -811.371 2122
141.558 -811.371 2122
146.84 -812.518 2125
151.921 -812.518 2125
157.003 -812.518 2125
162.084 -812.518 2125
167.166 -812.518 2125
172.734 -814.812 2131
177.83 -814.812 2131
182.926 -814.812 2131
188.198 -815.577 2133
193.57 -816.724 2136
198.957 -817.871 2139
204.072 -817.871 2139
209.97 -820.93 2147
215.104 -820.93 2147
220.238 -820.93 2147
224.847 -819.018 2142
619.898 -1459.86 3818
629.028 -1459.86 3818
648.521 -1483.56 3880
665.428 -1500.77 3925
674.814 -1500.77 3925
684.2 -1500.77 3925
685.634 -1483.56 3880
686.853 -1466.36 3835
696.023 -1466.36 3835
1438.63 -1420.85 3716
1447.51 -1420.85 3716
1459.54 -1423.91 3724
1468.44 -1423.91 3724
1477.35 -1423.91 3724
1489.44 -1426.97 3732
1501.58 -1430.03 3740
1514.16 -1433.47 3749
1523.12 -1433.47 3749
1532.09 -1433.47 3749
1541.05 -1433.47 3749
1550.02 -1433.47 3749
1545.26 -1420.85 3716
1547.04 -1414.35 3699
1555.88 -1414.35 3699
1564.73 -1414.35 3699
1570.17 -1411.3 3691
1568.73 -1402.12 3667
1563.73 -1389.88 3635
1572.43 -1389.88 3635
1574.16 -1383.77 3619
1575.81 -1377.65 3603
1570.8 -1365.79 3572
-2731.13 -1399.41 3683
-2734.15 -1405.49 3699
-2725.3 -1405.49 3699
-2759.05 -1427.53 3757
-2756.66 -1430.95 3766
-2747.65 -1430.95 3766
-2738.65 -1430.95 3766
-2729.64 -1430.95 3766
-2720.63 -1430.95 3766
-2723.87 -1437.41 3783
-2714.82 -1437.41 3783
-2724.37 -1447.29 3809
-2715.26 -1447.29 3809
-2706.16 -1447.29 3809
-2685.01 -1440.83 3792
-2675.94 -1440.83 3792
-2666.87 -1440.83 3792
-2663.41 -1443.87 3800
-2654.33 -1443.87 3800
-2645.24 -1443.87 3800
-2618.12 -1433.99 3774
-2609.09 -1433.99 3774
-2594.56 -1430.95 3766
-2567.7 -1421.07 3740
-2553.28 -1418.03 3732
-2544.36 -1418.03 3732
-2530 -1414.99 3724
-2509.58 -1408.53 3707
-2489.93 -1402.45 3691
-2481.1 -1402.45 3691
-2466.92 -1399.41 3683
-2426.07 -1381.18 3635
-2401.42 -1372.06 3611
-2372.24 -1360.28 3580
-2363.68 -1360.28 3580
-1345.81 -1443.87 3800
-1336.72 -1443.87 3800
-1327.63 -1443.87 3800
-1312.65 -1437.41 3783
-1297.74 -1430.95 3766
-1285.66 -1427.53 3757
-1276.67 -1427.53 3757
-1264.99 -1424.49 3749
-1247.65 -1414.99 3724
-1236.08 -1411.95 3716
-1227.2 -1411.95 3716
-1215.36 -1408.53 3707
-1203.89 -1405.49 3699
-1192.46 -1402.45 3691
-1183.63 -1402.45 3691
-1174.81 -1402.45 3691
-1165.98 -1402.45 3691
-1157.16 -1402.45 3691
-1148.33 -1402.45 3691
-1139.5 -1402.45 3691
-1130.68 -1402.45 3691
-1119.42 -1399.41 3683
-1110.61 -1399.41 3683
-77.2526 -812.747 2139
-72.1376 -812.747 2139
-67.0226 -812.747 2139
-61.9076 -812.747 2139
-56.7926 -812.747 2139
-51.6776 -812.747 2139
-46.6714 -814.647 2144
-41.5445 -814.647 2144
-36.4685 -815.787 2147
-31.3343 -815.787 2147
-26.2002 -815.787 2147
-21.017 -813.887 2142
-15.8281 -810.467 2133
-10.7274 -810.467 2133
-5.6215 -809.707 2131
-0.524896 -808.567 2128
4.5638 -808.567 2128
9.65249 -808.567 2128
14.7412 -808.567 2128
19.8299 -808.567 2128
24.8834 -807.427 2125
29.965 -807.427 2125
35.0465 -807.427 2125
40.128 -807.427 2125
45.2095 -807.427 2125
50.291 -807.427 2125
55.3726 -807.427 2125
60.4541 -807.427 2125
65.5356 -807.427 2125
70.6171 -807.427 2125
75.6986 -807.427 2125
80.7802 -807.427 2125
85.7405 -806.288 2122
90.8148 -806.288 2122
95.7988 -805.528 2120
100.868 -805.528 2120
106.038 -806.288 2122
111.112 -806.288 2122
116.187 -806.288 2122
121.147 -805.528 2120
126.216 -805.528 2120
131.286 -805.528 2120
136.484 -806.288 2122
141.558 -806.288 2122
146.84 -807.427 2125
151.921 -807.427 2125
157.003 -807.427 2125
162.084 -807.427 2125
167.166 -807.427 2125
172.734 -809.707 2131
177.83 -809.707 2131
182.926 -809.707 2131
188.198 -810.467 2133
193.57 -811.607 2136
198.957 -812.747 2139
204.072 -812.747 2139
209.97 -815.787 2147
215.104 -815.787 2147
220.238 -815.787 2147
224.847 -813.887 2142
610.768 -1450.71 3818
619.898 -1450.71 3818
629.028 -1450.71 3818
648.521 -1474.27 3880
665.428 -1491.37 3925
674.814 -1491.37 3925
684.2 -1491.37 3925
685.634 -1474.27 3880
686.853 -1457.17 3835
696.023 -1457.17 3835
1438.63 -1411.95 3716
1447.51 -1411.95 3716
1459.54 -1414.99 3724
1468.44 -1414.99 3724
1477.35 -1414.99 3724
1489.44 -1418.03 3732
1501.58 -1421.07 3740
1514.16 -1424.49 3749
1523.12 -1424.49 3749
1532.09 -1424.49 3749
1541.05 -1424.49 3749
1550.02 -1424.49 3749
1545.26 -1411.95 3716
1547.04 -1405.49 3699
1555.88 -1405.49 3699
1564.73 -1405.49 3699
1570.17 -1402.45 3691
1568.73 -1393.33 3667
1563.73 -1381.18 3635
1572.43 -1381.18 3635
1574.16 -1375.1 3619
1575.81 -1369.02 3603
1570.8 -1357.24 3572
1562.54 -1342.8 3534
1570.99 -1342.8 3534
-2731.13 -1390.59 3683
-2728.24 -1393.61 3691
-2719.41 -1393.61 3691
-2759.05 -1418.53 3757
-2769.1 -1428.35 3783
-2760.05 -1428.35 3783
-2751.01 -1428.35 3783
-2729.64 -1421.93 3766
-2732.92 -1428.35 3783
-2749.07 -1441.56 3818
-2739.94 -1441.56 3818
-2730.81 -1441.56 3818
-2721.68 -1441.56 3818
-2712.55 -1441.56 3818
-2697.05 -1438.17 3809
-2675.94 -1431.75 3792
-2672.5 -1434.77 3800
-2676.03 -1441.56 3818
-2666.9 -1441.56 3818
-2657.77 -1441.56 3818
-2648.64 -1441.56 3818
-2639.51 -1441.56 3818
-2600.07 -1424.95 3774
-2585.55 -1421.93 3766
-2558.76 -1412.11 3740
-2549.81 -1412.11 3740
-2535.43 -1409.09 3732
-2509.58 -1399.65 3707
-2489.93 -1393.61 3691
-2481.1 -1393.61 3691
-2461.56 -1387.57 3675
-2426.07 -1372.47 3635
-2401.42 -1363.41 3611
-2372.24 -1351.7 3580
-2363.68 -1351.7 3580
-2320.25 -1331.69 3527
-2297.4 -1323.38 3505
-2279.22 -1317.72 3490
-2270.88 -1317.72 3490
-1318.78 -1415.51 3749
-1309.81 -1415.51 3749
-1300.85 -1415.51 3749
-1291.88 -1415.51 3749
-1282.92 -1415.51 3749
-1273.95 -1415.51 3749
-1256.55 -1406.07 3724
-1244.97 -1403.05 3716
-1236.08 -1403.05 3716
-1227.2 -1403.05 3716
-1212.74 -1396.63 3699
-1198.68 -1390.59 3683
-1189.88 -1390.59 3683
-1181.07 -1390.59 3683
-1172.26 -1390.59 3683
-1165.98 -1393.61 3691
-1157.16 -1393.61 3691
-1148.33 -1393.61 3691
-1139.5 -1393.61 3691
-1128.23 -1390.59 3683
-1114.56 -1384.55 3667
-1105.79 -1384.55 3667
-77.2526 -807.623 2139
-72.1376 -807.623 2139
-67.0226 -807.623 2139
-61.9076 -807.623 2139
-56.8722 -808.756 2142
-51.7501 -808.756 2142
-46.6714 -809.511 2144
-41.5445 -809.511 2144
-36.4685 -810.644 2147
-31.3343 -810.644 2147
-26.2002 -810.644 2147
-21.017 -808.756 2142
-15.8281 -805.358 2133
-10.7274 -805.358 2133
-5.6215 -804.602 2131
-0.524896 -803.47 2128
4.5638 -803.47 2128
9.65249 -803.47 2128
14.7412 -803.47 2128
19.8299 -803.47 2128
24.8834 -802.337 2125
29.965 -802.337 2125
35.0465 -802.337 2125
40.128 -802.337 2125
45.2095 -802.337 2125
50.291 -802.337 2125
55.3726 -802.337 2125
60.4541 -802.337 2125
65.5356 -802.337 2125
70.6171 -802.337 2125
75.6986 -802.337 2125
80.7802 -802.337 2125
85.7405 -801.204 2122
90.8148 -801.204 2122
95.7988 -800.449 2120
100.868 -800.449 2120
106.038 -801.204 2122
111.112 -801.204 2122
116.187 -801.204 2122
121.147 -800.449 2120
126.216 -800.449 2120
131.286 -800.449 2120
136.484 -801.204 2122
141.558 -801.204 2122
146.84 -802.337 2125
151.921 -802.337 2125
157.003 -802.337 2125
162.084 -802.337 2125
167.166 -802.337 2125
172.734 -804.602 2131
177.83 -804.602 2131
182.926 -804.602 2131
188.198 -805.358 2133
193.57 -806.49 2136
198.957 -807.623 2139
204.072 -807.623 2139
209.97 -810.644 2147
215.104 -810.644 2147
220.238 -810.644 2147
224.847 -808.756 2142
610.768 -1441.56 3818
619.898 -1441.56 3818
629.028 -1441.56 3818
639.495 -1444.58 3826
653.222 -1454.78 3853
662.435 -1454.78 3853
671.649 -1454.78 3853
680.863 -1454.78 3853
682.196 -1438.17 3809
691.304 -1438.17 3809
690.851 -1418.53 3757
1438.63 -1403.05 3716
1447.51 -1403.05 3716
1459.54 -1406.07 3724
1468.44 -1406.07 3724
1477.35 -1406.07 3724
1489.44 -1409.09 3732
1501.58 -1412.11 3740
1514.16 -1415.51 3749
1523.12 -1415.51 3749
1532.09 -1415.51 3749
1541.05 -1415.51 3749
1550.02 -1415.51 3749
1538.19 -1396.63 3699
1543.69 -1393.61 3691
1552.52 -1393.61 3691
1561.34 -1393.61 3691
1566.77 -1390.59 3683
1564.88 -1381.15 3658
1560.29 -1369.45 3627
1568.96 -1369.45 3627
1570.68 -1363.41 3611
1572.32 -1357.37 3595
1570.8 -1348.68 3572
1562.54 -1334.33 3534
1570.99 -1334.33 3534
-2731.13 -1381.77 3683
-2728.24 -1384.77 3691
-2719.41 -1384.77 3691
-2809.73 -1435.42 3826
-2800.58 -1435.42 3826
-2791.43 -1435.42 3826
-2763.37 -1425.66 3800
-2741.96 -1419.29 3783
-2732.92 -1419.29 3783
-2749.07 -1432.42 3818
-2739.94 -1432.42 3818
-2736.53 -1435.42 3826
-2727.38 -1435.42 3826
-2718.23 -1435.42 3826
-2709.08 -1435.42 3826
-2687.94 -1429.04 3809
-2678.83 -1429.04 3809
-2681.64 -1435.42 3826
-2672.49 -1435.42 3826
-2663.34 -1435.42 3826
-2654.19 -1435.42 3826
-2645.04 -1435.42 3826
-2612.47 -1422.66 3792
-2585.55 -1412.91 3766
-2570.39 -1409.53 3757
-2561.4 -1409.53 3757
-2535.43 -1400.15 3732
-2509.58 -1390.77 3707
-2489.93 -1384.77 3691
-2481.1 -1384.77 3691
-2461.56 -1378.77 3675
-2426.07 -1363.76 3635
-2401.42 -1354.76 3611
-2372.24 -1343.13 3580
-2363.68 -1343.13 3580
-2330.12 -1328.87 3542
-2301.99 -1317.61 3512
-2289.02 -1314.99 3505
-2280.64 -1314.99 3505
-1318.78 -1406.53 3749
-1309.81 -1406.53 3749
-1300.85 -1406.53 3749
-1291.88 -1406.53 3749
-1282.92 -1406.53 3749
-1273.95 -1406.53 3749
-1256.55 -1397.15 3724
-1244.97 -1394.15 3716
-1236.08 -1394.15 3716
-1227.2 -1394.15 3716
-1212.74 -1387.77 3699
-1198.68 -1381.77 3683
-1189.88 -1381.77 3683
-1183.63 -1384.77 3691
-1174.81 -1384.77 3691
-1165.98 -1384.77 3691
-1157.16 -1384.77 3691
-1148.33 -1384.77 3691
-1139.5 -1384.77 3691
-1128.23 -1381.77 3683
-1114.56 -1375.77 3667
-1105.79 -1375.77 3667
-77.2526 -802.499 2139
-72.1376 -802.499 2139
-67.0226 -802.499 2139
-61.9076 -802.499 2139
-56.8722 -803.625 2142
-51.7501 -803.625 2142
-46.6714 -804.375 2144
-41.5445 -804.375 2144
-36.4175 -804.375 2144
-31.2906 -804.375 2144
-26.1636 -804.375 2144
-21.017 -803.625 2142
-15.8132 -799.498 2131
-10.7174 -799.498 2131
-5.59776 -796.121 2122
-0.523416 -796.121 2122
4.55093 -796.121 2122
9.62527 -796.121 2122
14.6996 -796.121 2122
19.774 -796.121 2122
24.8249 -795.371 2120
29.8945 -795.371 2120
34.964 -795.371 2120
40.128 -797.247 2125
45.2095 -797.247 2125
50.291 -797.247 2125
55.3726 -797.247 2125
60.4541 -797.247 2125
65.3814 -795.371 2120
70.451 -795.371 2120
75.5205 -795.371 2120
80.5901 -795.371 2120
85.6596 -795.371 2120
90.7292 -795.371 2120
95.6632 -794.245 2117
100.726 -794.245 2117
105.788 -794.245 2117
110.85 -794.245 2117
115.913 -794.245 2117
120.975 -794.245 2117
126.038 -794.245 2117
131.1 -794.245 2117
136.162 -794.245 2117
141.225 -794.245 2117
146.633 -796.121 2122
151.921 -797.247 2125
157.003 -797.247 2125
162.084 -797.247 2125
167.166 -797.247 2125
172.491 -798.372 2128
177.83 -799.498 2131
182.926 -799.498 2131
188.198 -800.248 2133
193.57 -801.373 2136
198.678 -801.373 2136
203.786 -801.373 2136
209.481 -803.625 2142
214.603 -803.625 2142
219.725 -803.625 2142
224.532 -802.499 2139
610.768 -1432.42 3818
619.898 -1432.42 3818
629.028 -1432.42 3818
638.158 -1432.42 3818
648.644 -1435.42 3826
657.793 -1435.42 3826
666.942 -1435.42 3826
674.678 -1432.42 3818
682.196 -1429.04 3809
691.304 -1429.04 3809
690.851 -1409.53 3757
1438.63 -1394.15 3716
1447.51 -1394.15 3716
1456.4 -1394.15 3716
1465.29 -1394.15 3716
1474.17 -1394.15 3716
1486.25 -1397.15 3724
1501.58 -1403.15 3740
1510.52 -1403.15 3740
1519.47 -1403.15 3740
1528.41 -1403.15 3740
1510.64 -1378.77 3675
1519.42 -1378.77 3675
1528.21 -1378.77 3675
1540.35 -1381.77 3683
1549.15 -1381.77 3683
1557.96 -1381.77 3683
1563.36 -1378.77 3675
1564.88 -1372.39 3658
1563.73 -1363.76 3635
1572.43 -1363.76 3635
1570.68 -1354.76 3611
1565.76 -1343.13 3580
1567.72 -1337.5 3565
1566.08 -1328.87 3542
1574.55 -1328.87 3542
-2722.32 -1372.95 3683
-2713.52 -1372.95 3683
-2875.82 -1459.8 3916
-2866.45 -1459.8 3916
-2857.09 -1459.8 3916
-2847.73 -1459.8 3916
-2773.13 -1426.25 3826
-2758.2 -1423.27 3818
-2767.79 -1432.96 3844
-2758.6 -1432.96 3844
-2749.41 -1432.96 3844
-2740.21 -1432.96 3844
-2731.02 -1432.96 3844
-2715.46 -1429.61 3835
-2699.94 -1426.25 3826
-2678.83 -1419.92 3809
-2681.64 -1426.25 3826
-2672.49 -1426.25 3826
-2663.34 -1426.25 3826
-2654.19 -1426.25 3826
-2645.04 -1426.25 3826
-2612.47 -1413.58 3792
-2585.55 -1403.89 3766
-2570.39 -1400.53 3757
-2561.4 -1400.53 3757
-2535.43 -1391.21 3732
-2509.58 -1381.89 3707
-2489.93 -1375.93 3691
-2481.1 -1375.93 3691
-2461.56 -1369.96 3675
-2426.07 -1355.05 3635
-2396.1 -1343.12 3603
-2372.24 -1334.55 3580
-2363.68 -1334.55 3580
-2330.12 -1320.38 3542
-2301.99 -1309.2 3512
-2289.02 -1306.59 3505
-2280.64 -1306.59 3505
-1312.8 -1391.21 3732
-1303.87 -1391.21 3732
-1294.95 -1391.21 3732
-1286.03 -1391.21 3732
-1274.36 -1388.23 3724
-1265.46 -1388.23 3724
-1256.55 -1388.23 3724
-1244.97 -1385.25 3716
-1230.43 -1378.91 3699
-1221.58 -1378.91 3699
-1207.49 -1372.95 3683
-1198.68 -1372.95 3683
-1187.29 -1369.96 3675
-1183.63 -1375.93 3691
-1174.81 -1375.93 3691
-1165.98 -1375.93 3691
-1157.16 -1375.93 3691
-1148.33 -1375.93 3691
-1139.5 -1375.93 3691
-1128.23 -1372.95 3683
-67.0226 -797.375 2139
-61.9944 -798.493 2142
-56.9253 -799.239 2144
-51.7984 -799.239 2144
-46.6714 -799.239 2144
-41.5445 -799.239 2144
-36.4175 -799.239 2144
-31.2906 -799.239 2144
-26.1636 -799.239 2144
-21.017 -798.493 2142
-15.8132 -794.393 2131
-10.7174 -794.393 2131
-5.59248 -790.292 2120
-0.522922 -790.292 2120
4.54664 -790.292 2120
9.6162 -790.292 2120
14.665 -789.174 2117
19.7274 -789.174 2117
24.7898 -789.174 2117
29.8945 -790.292 2120
34.964 -790.292 2120
40.0336 -790.292 2120
45.1031 -790.292 2120
50.1727 -790.292 2120
55.2423 -790.292 2120
60.3118 -790.292 2120
65.2889 -789.174 2117
70.3513 -789.174 2117
75.4137 -789.174 2117
80.476 -789.174 2117
85.5384 -789.174 2117
90.6008 -789.174 2117
95.6632 -789.174 2117
100.726 -789.174 2117
105.788 -789.174 2117
110.85 -789.174 2117
115.913 -789.174 2117
120.975 -789.174 2117
125.859 -788.056 2114
131.1 -789.174 2117
136.355 -790.292 2120
141.425 -790.292 2120
146.633 -791.038 2122
151.707 -791.038 2122
156.781 -791.038 2122
161.856 -791.038 2122
167.166 -792.156 2125
172.247 -792.156 2125
177.83 -794.393 2131
182.926 -794.393 2131
188.021 -794.393 2131
193.57 -796.257 2136
198.957 -797.375 2139
204.072 -797.375 2139
209.676 -799.239 2144
214.803 -799.239 2144
219.93 -799.239 2144
224.532 -797.375 2139
605.169 -1410.22 3783
615.677 -1413.58 3792
624.744 -1413.58 3792
635.149 -1416.56 3800
647.288 -1423.27 3818
656.418 -1423.27 3818
665.548 -1423.27 3818
674.678 -1423.27 3818
677.539 -1410.22 3783
686.586 -1410.22 3783
692.506 -1403.89 3766
699.835 -1400.53 3757
1435.14 -1381.89 3707
1444.01 -1381.89 3707
1456.4 -1385.25 3716
1465.29 -1385.25 3716
1474.17 -1385.25 3716
1479.47 -1381.89 3707
1475.48 -1369.96 3675
1484.27 -1369.96 3675
1493.06 -1369.96 3675
1501.85 -1369.96 3675
1507.35 -1366.98 3667
1516.12 -1366.98 3667
1524.89 -1366.98 3667
1537 -1369.96 3675
1545.79 -1369.96 3675
1554.58 -1369.96 3675
1563.36 -1369.96 3675
1568.73 -1366.98 3667
1566.74 -1357.66 3642
1575.45 -1357.66 3642
1577.64 -1352.07 3627
1565.76 -1334.55 3580
1574.32 -1334.55 3580
1576.24 -1328.96 3565
1584.77 -1328.96 3565
-2875.82 -1450.42 3916
-2866.45 -1450.42 3916
-2857.09 -1450.42 3916
-2847.73 -1450.42 3916
-2773.13 -1417.09 3826
-2758.2 -1414.13 3818
-2767.79 -1423.76 3844
-2758.6 -1423.76 3844
-2749.41 -1423.76 3844
-2740.21 -1423.76 3844
-2731.02 -1423.76 3844
-2715.46 -1420.42 3835
-2699.94 -1417.09 3826
-2697.12 -1420.42 3835
-2687.95 -1420.42 3835
-2678.77 -1420.42 3835
-2669.6 -1420.42 3835
-2660.43 -1420.42 3835
-2651.26 -1420.42 3835
-2635.89 -1417.09 3826
-2603.4 -1404.5 3792
-2582.02 -1397.83 3774
-2572.99 -1397.83 3774
-2552.42 -1391.53 3757
-2526.51 -1382.27 3732
-2500.72 -1373.01 3707
-2491.86 -1373.01 3707
-2472.27 -1367.09 3691
-2447.43 -1358.2 3667
-2417.38 -1346.35 3635
-2382.18 -1331.53 3595
-2373.59 -1331.53 3595
-2339.99 -1317.46 3557
-2311.82 -1306.34 3527
-2293.59 -1300.79 3512
-2285.19 -1300.79 3512
-1304 -1373.01 3707
-1298.28 -1376.35 3716
-1289.4 -1376.35 3716
-1283.27 -1379.31 3724
-1274.36 -1379.31 3724
-1265.46 -1379.31 3724
-1256.55 -1379.31 3724
-1247.65 -1379.31 3724
-1230.43 -1370.05 3699
-1221.58 -1370.05 3699
-1210.11 -1367.09 3691
-1198.68 -1364.12 3683
-1192.46 -1367.09 3691
-1183.63 -1367.09 3691
-1174.81 -1367.09 3691
-1168.51 -1370.05 3699
-1162.17 -1373.01 3707
-1153.31 -1373.01 3707
-1144.44 -1373.01 3707
-67.0226 -792.251 2139
-62.0523 -794.103 2144
-56.9253 -794.103 2144
-51.7984 -794.103 2144
-46.6714 -794.103 2144
-41.5445 -794.103 2144
-36.4175 -794.103 2144
-31.2906 -794.103 2144
-26.1392 -793.362 2142
-20.9876 -792.251 2139
-15.791 -788.177 2128
-10.7023 -788.177 2128
-5.59248 -785.214 2120
-0.522182 -784.103 2117
4.54021 -784.103 2117
9.6026 -784.103 2117
14.665 -784.103 2117
19.7274 -784.103 2117
24.7898 -784.103 2117
29.8521 -784.103 2117
34.9145 -784.103 2117
39.9769 -784.103 2117
45.1031 -785.214 2120
50.1727 -785.214 2120
55.2423 -785.214 2120
60.3118 -785.214 2120
65.2889 -784.103 2117
70.3513 -784.103 2117
75.4137 -784.103 2117
80.476 -784.103 2117
85.5384 -784.103 2117
90.6008 -784.103 2117
95.6632 -784.103 2117
100.726 -784.103 2117
105.788 -784.103 2117
110.85 -784.103 2117
115.913 -784.103 2117
120.975 -784.103 2117
125.859 -782.991 2114
131.1 -784.103 2117
136.355 -785.214 2120
141.425 -785.214 2120
146.633 -785.955 2122
151.707 -785.955 2122
156.781 -785.955 2122
161.856 -785.955 2122
167.166 -787.066 2125
172.247 -787.066 2125
177.83 -789.288 2131
182.926 -789.288 2131
188.021 -789.288 2131
193.57 -791.14 2136
198.957 -792.251 2139
204.072 -792.251 2139
209.676 -794.103 2144
214.803 -794.103 2144
219.93 -794.103 2144
224.532 -792.251 2139
598.802 -1407.46 3800
607.888 -1407.46 3800
616.975 -1407.46 3800
624.744 -1404.5 3792
636.654 -1410.79 3809
648.644 -1417.09 3826
657.793 -1417.09 3826
666.942 -1417.09 3826
676.092 -1417.09 3826
685.241 -1417.09 3826
694.39 -1417.09 3826
703.539 -1417.09 3826
707.845 -1407.46 3800
1435.14 -1373.01 3707
1447.51 -1376.35 3716
1462.67 -1382.27 3732
1471.6 -1382.27 3732
1480.52 -1382.27 3732
1483.06 -1376.35 3716
1475.48 -1361.16 3675
1484.27 -1361.16 3675
1493.06 -1361.16 3675
1501.85 -1361.16 3675
1507.35 -1358.2 3667
1516.12 -1358.2 3667
1524.89 -1358.2 3667
1537 -1361.16 3675
1545.79 -1361.16 3675
1554.58 -1361.16 3675
1563.36 -1361.16 3675
1568.73 -1358.2 3667
1566.74 -1348.94 3642
1575.45 -1348.94 3642
1577.64 -1343.38 3627
1565.76 -1325.97 3580
1574.32 -1325.97 3580
1582.88 -1325.97 3580
1591.44 -1325.97 3580
-2882.43 -1444.35 3925
-2873.04 -1444.35 3925
-2863.66 -1444.35 3925
-2847.73 -1441.04 3916
-2818.79 -1431.11 3889
-2763.98 -1407.92 3826
-2774.27 -1417.86 3853
-2765.06 -1417.86 3853
-2762.28 -1421.17 3862
-2753.05 -1421.17 3862
-2743.81 -1421.17 3862
-2721.83 -1414.55 3844
-2706.29 -1411.24 3835
-2697.12 -1411.24 3835
-2706.87 -1421.17 3862
-2697.63 -1421.17 3862
-2688.4 -1421.17 3862
-2679.16 -1421.17 3862
-2669.93 -1421.17 3862
-2648.29 -1414.55 3844
-2615.07 -1401.67 3809
-2599.81 -1398.36 3800
-2590.72 -1398.36 3800
-2563.97 -1388.79 3774
-2543.43 -1382.53 3757
-2522.98 -1376.28 3740
-2514.04 -1376.28 3740
-2482.99 -1364.13 3707
-2458.11 -1355.3 3683
-2417.38 -1337.64 3635
-2387.48 -1325.86 3603
-2378.87 -1325.86 3603
-2349.86 -1314.45 3572
-2326.24 -1305.99 3549
-2313.18 -1303.41 3542
-2304.71 -1303.41 3542
-1309.98 -1370.39 3724
-1301.08 -1370.39 3724
-1292.17 -1370.39 3724
-1286.03 -1373.33 3732
-1277.1 -1373.33 3732
-1270.9 -1376.28 3740
-1261.95 -1376.28 3740
-1253.01 -1376.28 3740
-1236.08 -1367.44 3716
-1227.2 -1367.44 3716
-1212.74 -1361.19 3699
-1201.29 -1358.24 3691
-1192.46 -1358.24 3691
-1186.2 -1361.19 3699
-1177.35 -1361.19 3699
-1171.04 -1364.13 3707
-1164.99 -1367.44 3716
-1156.11 -1367.44 3716
-1147.22 -1367.44 3716
-77.5415 -790.071 2147
-72.4074 -790.071 2147
-67.2732 -790.071 2147
-62.0523 -788.967 2144
-56.9253 -788.967 2144
-51.7984 -788.967 2144
-46.7367 -790.071 2147
-41.6026 -790.071 2147
-36.4685 -790.071 2147
-31.2906 -788.967 2144
-26.1392 -788.231 2142
-20.9876 -787.127 2139
-15.791 -783.079 2128
-10.7023 -783.079 2128
-5.59248 -780.135 2120
-0.522182 -779.031 2117
4.54021 -779.031 2117
9.6026 -779.031 2117
14.665 -779.031 2117
19.7274 -779.031 2117
24.7898 -779.031 2117
29.8521 -779.031 2117
34.9145 -779.031 2117
39.9769 -779.031 2117
45.1031 -780.135 2120
50.1727 -780.135 2120
55.2423 -780.135 2120
60.3118 -780.135 2120
65.2889 -779.031 2117
70.3513 -779.031 2117
75.4137 -779.031 2117
80.476 -779.031 2117
85.5384 -779.031 2117
90.6008 -779.031 2117
95.6632 -779.031 2117
100.726 -779.031 2117
105.788 -779.031 2117
110.85 -779.031 2117
115.913 -779.031 2117
120.975 -779.031 2117
125.859 -777.927 2114
131.1 -779.031 2117
136.355 -780.135 2120
141.425 -780.135 2120
146.633 -780.871 2122
151.707 -780.871 2122
156.781 -780.871 2122
161.856 -780.871 2122
167.166 -781.975 2125
172.247 -781.975 2125
177.83 -784.183 2131
182.926 -784.183 2131
188.021 -784.183 2131
193.57 -786.023 2136
198.957 -787.127 2139
204.072 -787.127 2139
209.676 -788.967 2144
214.803 -788.967 2144
219.93 -788.967 2144
224.532 -787.127 2139
503.44 -1411.24 3835
513.813 -1414.55 3844
523.005 -1414.55 3844
532.198 -1414.55 3844
570.348 -1465.33 3982
579.87 -1465.33 3982
592.205 -1472.32 4001
601.772 -1472.32 4001
611.34 -1472.32 4001
619.355 -1468.64 3991
604.317 -1411.24 3835
607.888 -1398.36 3800
616.975 -1398.36 3800
626.062 -1398.36 3800
638.158 -1404.98 3818
648.644 -1407.92 3826
665.53 -1424.48 3871
674.787 -1424.48 3871
685.634 -1427.79 3880
694.912 -1427.79 3880
704.19 -1427.79 3880
711.814 -1424.48 3871
721.07 -1424.48 3871
1432.05 -1361.19 3699
1447.51 -1367.44 3716
1462.67 -1373.33 3732
1471.6 -1373.33 3732
1480.52 -1373.33 3732
1483.06 -1367.44 3716
1475.48 -1352.36 3675
1484.27 -1352.36 3675
1493.06 -1352.36 3675
1498.58 -1349.41 3667
1507.35 -1349.41 3667
1516.12 -1349.41 3667
1524.89 -1349.41 3667
1537 -1352.36 3675
1545.79 -1352.36 3675
1554.58 -1352.36 3675
1563.36 -1352.36 3675
1568.73 -1349.41 3667
1566.74 -1340.21 3642
1575.45 -1340.21 3642
1577.64 -1334.69 3627
1565.76 -1317.4 3580
1574.32 -1317.4 3580
1582.88 -1317.4 3580
1591.44 -1317.4 3580
-2889.77 -1438.61 3935
-2880.36 -1438.61 3935
-2870.95 -1438.61 3935
-2854.27 -1434.95 3925
-2818.79 -1421.79 3889
-2776.98 -1405.34 3844
-2793.71 -1418.5 3880
-2784.43 -1418.5 3880
-2775.16 -1418.5 3880
-2765.88 -1418.5 3880
-2756.6 -1418.5 3880
-2721.83 -1405.34 3844
-2706.29 -1402.05 3835
-2716.1 -1411.92 3862
-2706.87 -1411.92 3862
-2697.63 -1411.92 3862
-2688.4 -1411.92 3862
-2679.16 -1411.92 3862
-2669.93 -1411.92 3862
-2660.69 -1411.92 3862
-2626.74 -1398.76 3826
-2599.81 -1389.25 3800
-2590.72 -1389.25 3800
-2576.2 -1386.33 3792
-2549.53 -1376.82 3766
-2522.98 -1367.32 3740
-2514.04 -1367.32 3740
-2489.02 -1358.54 3716
-2458.11 -1346.48 3683
-2417.38 -1328.93 3635
-2387.48 -1317.23 3603
-2378.87 -1317.23 3603
-2349.86 -1305.9 3572
-2336.73 -1303.34 3565
-2322.98 -1300.41 3557
-2314.47 -1300.41 3557
-1312.8 -1364.39 3732
-1309.81 -1370.61 3749
-1300.85 -1370.61 3749
-1291.88 -1370.61 3749
-1282.92 -1370.61 3749
-1273.95 -1370.61 3749
-1264.99 -1370.61 3749
-1256.02 -1370.61 3749
-1241.4 -1364.39 3732
-1232.48 -1364.39 3732
-1218.31 -1358.54 3716
-1203.89 -1352.33 3699
-1195.05 -1352.33 3699
-1188.77 -1355.25 3707
-1179.9 -1355.25 3707
-1173.88 -1358.54 3716
-1164.99 -1358.54 3716
-1156.11 -1358.54 3716
-1147.22 -1358.54 3716
-77.5415 -784.928 2147
-72.4074 -784.928 2147
-67.2732 -784.928 2147
-62.0523 -783.831 2144
-56.9253 -783.831 2144
-51.7984 -783.831 2144
-46.7367 -784.928 2147
-41.6026 -784.928 2147
-36.4685 -784.928 2147
-31.2906 -783.831 2144
-26.1392 -783.1 2142
-20.9582 -780.906 2136
-15.7687 -776.885 2125
-10.6872 -776.885 2125
-5.58457 -773.96 2117
-0.521442 -772.863 2114
4.53377 -772.863 2114
9.58899 -772.863 2114
14.6442 -772.863 2114
19.6994 -772.863 2114
24.7546 -772.863 2114
29.8098 -772.863 2114
34.8651 -772.863 2114
39.9203 -772.863 2114
45.0393 -773.96 2117
50.1017 -773.96 2117
55.1641 -773.96 2117
60.2265 -773.96 2117
65.1964 -772.863 2114
70.2516 -772.863 2114
75.3068 -772.863 2114
80.362 -772.863 2114
85.4172 -772.863 2114
90.6008 -773.96 2117
95.6632 -773.96 2117
100.726 -773.96 2117
105.788 -773.96 2117
110.85 -773.96 2117
115.913 -773.96 2117
120.975 -773.96 2117
125.859 -772.863 2114
131.1 -773.96 2117
136.355 -775.057 2120
141.425 -775.057 2120
146.633 -775.788 2122
151.707 -775.788 2122
156.781 -775.788 2122
161.856 -775.788 2122
167.166 -776.885 2125
172.247 -776.885 2125
177.579 -777.982 2128
182.668 -777.982 2128
188.021 -779.078 2131
193.57 -780.906 2136
198.957 -782.003 2139
204.072 -782.003 2139
209.676 -783.831 2144
214.803 -783.831 2144
219.93 -783.831 2144
224.532 -782.003 2139
503.44 -1402.05 3835
513.813 -1405.34 3844
523.005 -1405.34 3844
532.198 -1405.34 3844
570.348 -1455.79 3982
579.87 -1455.79 3982
592.205 -1462.74 4001
601.772 -1462.74 4001
611.34 -1462.74 4001
619.355 -1459.08 3991
604.317 -1402.05 3835
607.888 -1389.25 3800
616.975 -1389.25 3800
626.062 -1389.25 3800
638.158 -1395.83 3818
648.644 -1398.76 3826
665.53 -1415.21 3871
674.787 -1415.21 3871
685.634 -1418.5 3880
694.912 -1418.5 3880
704.19 -1418.5 3880
711.814 -1415.21 3871
721.07 -1415.21 3871
1444.82 -1364.39 3732
1453.75 -1364.39 3732
1465.81 -1367.32 3740
1474.75 -1367.32 3740
1483.69 -1367.32 3740
1483.06 -1358.54 3716
1491.95 -1358.54 3716
1500.83 -1358.54 3716
1489.81 -1340.63 3667
1498.58 -1340.63 3667
1507.35 -1340.63 3667
1519.42 -1343.55 3675
1528.21 -1343.55 3675
1537 -1343.55 3675
1545.79 -1343.55 3675
1554.58 -1343.55 3675
1563.36 -1343.55 3675
1568.73 -1340.63 3667
1566.74 -1331.49 3642
1575.45 -1331.49 3642
1574.16 -1323.08 3619
1565.76 -1308.82 3580
1574.32 -1308.82 3580
1582.88 -1308.82 3580
1591.44 -1308.82 3580
-2889.77 -1429.18 3935
-2880.36 -1429.18 3935
-2870.95 -1429.18 3935
-2854.27 -1425.55 3925
-2818.79 -1412.47 3889
-2783.49 -1399.4 3853
-2793.71 -1409.21 3880
-2784.43 -1409.21 3880
-2775.16 -1409.21 3880
-2765.88 -1409.21 3880
-2756.6 -1409.21 3880
-2721.83 -1396.13 3844
-2706.29 -1392.86 3835
-2716.1 -1402.67 3862
-2706.87 -1402.67 3862
-2697.63 -1402.67 3862
-2688.4 -1402.67 3862
-2679.16 -1402.67 3862
-2669.93 -1402.67 3862
-2660.69 -1402.67 3862
-2626.74 -1389.59 3826
-2599.81 -1380.15 3800
-2590.72 -1380.15 3800
-2576.2 -1377.24 3792
-2549.53 -1367.8 3766
-2522.98 -1358.36 3740
-2514.04 -1358.36 3740
-2489.02 -1349.64 3716
-2458.11 -1337.66 3683
-2417.38 -1320.22 3635
-2387.48 -1308.6 3603
-2378.87 -1308.6 3603
-2349.86 -1297.34 3572
-2336.73 -1294.8 3565
-2322.98 -1291.89 3557
-2314.47 -1291.89 3557
-1312.8 -1355.45 3732
-1309.81 -1361.63 3749
-1300.85 -1361.63 3749
-1291.88 -1361.63 3749
-1282.92 -1361.63 3749
-1273.95 -1361.63 3749
-1264.99 -1361.63 3749
-1256.02 -1361.63 3749
-1241.4 -1355.45 3732
-1232.48 -1355.45 3732
-1218.31 -1349.64 3716
-1203.89 -1343.47 3699
-1195.05 -1343.47 3699
-1188.77 -1346.37 3707
-1179.9 -1346.37 3707
-1173.88 -1349.64 3716
-1164.99 -1349.64 3716
-1156.11 -1349.64 3716
-1147.22 -1349.64 3716
-77.5415 -779.785 2147
-72.4074 -779.785 2147
-67.2732 -779.785 2147
-62.0523 -778.695 2144
-56.9253 -778.695 2144
-51.7984 -778.695 2144
-46.7367 -779.785 2147
-41.6026 -779.785 2147
-36.4685 -779.785 2147
-31.2906 -778.695 2144
-26.1026 -776.879 2139
-20.9582 -775.789 2136
-15.7465 -770.705 2122
-10.6721 -770.705 2122
-5.58457 -768.889 2117
-0.521442 -767.799 2114
4.53377 -767.799 2114
9.58899 -767.799 2114
14.6303 -767.073 2112
19.6808 -767.073 2112
24.7312 -767.073 2112
29.7816 -767.073 2112
34.8321 -767.073 2112
39.8825 -767.073 2112
45.0393 -768.889 2117
50.1017 -768.889 2117
55.1641 -768.889 2117
60.2265 -768.889 2117
65.1347 -767.073 2112
70.1851 -767.073 2112
75.2355 -767.073 2112
80.286 -767.073 2112
85.3364 -767.073 2112
90.4724 -767.799 2114
95.6632 -768.889 2117
100.726 -768.889 2117
105.788 -768.889 2117
110.85 -768.889 2117
115.913 -768.889 2117
120.975 -768.889 2117
125.859 -767.799 2114
131.1 -768.889 2117
136.355 -769.978 2120
141.425 -769.978 2120
146.633 -770.705 2122
151.707 -770.705 2122
156.781 -770.705 2122
161.856 -770.705 2122
166.93 -770.705 2122
172.247 -771.794 2125
177.579 -772.884 2128
182.668 -772.884 2128
188.021 -773.973 2131
193.299 -774.7 2133
198.678 -775.789 2136
203.786 -775.789 2136
209.187 -776.879 2139
214.302 -776.879 2139
219.417 -776.879 2139
224.532 -776.879 2139
494.269 -1392.86 3835
503.44 -1392.86 3835
513.813 -1396.13 3844
523.005 -1396.13 3844
532.198 -1396.13 3844
552.798 -1425.55 3925
570.348 -1446.25 3982
579.87 -1446.25 3982
592.205 -1453.15 4001
601.772 -1453.15 4001
611.34 -1453.15 4001
619.355 -1449.52 3991
604.317 -1392.86 3835
607.888 -1380.15 3800
616.975 -1380.15 3800
626.062 -1380.15 3800
638.158 -1386.69 3818
648.644 -1389.59 3826
665.53 -1405.94 3871
674.787 -1405.94 3871
685.634 -1409.21 3880
694.912 -1409.21 3880
704.19 -1409.21 3880
713.469 -1409.21 3880
721.07 -1405.94 3871
1451.4 -1361.63 3749
1463.49 -1364.53 3757
1482.66 -1373.98 3783
1491.71 -1373.98 3783
1500.75 -1373.98 3783
1496.23 -1361.63 3749
1505.19 -1361.63 3749
1500.83 -1349.64 3716
1506.06 -1346.37 3707
1514.93 -1346.37 3707
1517.21 -1340.56 3691
1526.04 -1340.56 3691
1531.54 -1337.66 3683
1540.35 -1337.66 3683
1545.79 -1334.75 3675
1554.58 -1334.75 3675
1563.36 -1334.75 3675
1561.46 -1325.67 3650
1560.29 -1317.32 3627
1568.96 -1317.32 3627
1563.72 -1305.69 3595
1569.25 -1303.15 3588
1567.72 -1294.8 3565
-2889.77 -1419.76 3935
-2880.36 -1419.76 3935
-2870.95 -1419.76 3935
-2854.27 -1416.15 3925
-2818.79 -1403.16 3889
-2783.49 -1390.17 3853
-2793.71 -1399.91 3880
-2784.43 -1399.91 3880
-2775.16 -1399.91 3880
-2765.88 -1399.91 3880
-2756.6 -1399.91 3880
-2721.83 -1386.92 3844
-2706.29 -1383.67 3835
-2716.1 -1393.42 3862
-2706.87 -1393.42 3862
-2697.63 -1393.42 3862
-2688.4 -1393.42 3862
-2679.16 -1393.42 3862
-2669.93 -1393.42 3862
-2660.69 -1393.42 3862
-2626.74 -1380.43 3826
-2599.81 -1371.05 3800
-2590.72 -1371.05 3800
-2576.2 -1368.16 3792
-2549.53 -1358.78 3766
-2522.98 -1349.4 3740
-2514.04 -1349.4 3740
-2489.02 -1340.74 3716
-2458.11 -1328.83 3683
-2417.38 -1311.51 3635
-2392.78 -1302.86 3611
-2384.15 -1302.86 3611
-2364.99 -1297.08 3595
-2336.73 -1286.26 3565
-2328.2 -1286.26 3565
-2319.68 -1286.26 3565
-1318.78 -1352.65 3749
-1312.61 -1355.53 3757
-1303.62 -1355.53 3757
-1294.64 -1355.53 3757
-1285.66 -1355.53 3757
-1276.67 -1355.53 3757
-1264.99 -1352.65 3749
-1256.02 -1352.65 3749
-1244.07 -1349.4 3740
-1235.12 -1349.4 3740
-1223.56 -1346.51 3732
-1209.42 -1340.74 3716
-1197.63 -1337.49 3707
-1188.77 -1337.49 3707
-1179.9 -1337.49 3707
-1176.41 -1343.63 3724
-1170.01 -1346.51 3732
-1161.09 -1346.51 3732
-1152.16 -1346.51 3732
-67.1792 -773.559 2144
-62.0523 -773.559 2144
-56.9253 -773.559 2144
-51.7984 -773.559 2144
-46.7367 -774.641 2147
-41.6026 -774.641 2147
-36.4685 -774.641 2147
-31.2906 -773.559 2144
-26.1026 -771.755 2139
-20.9287 -769.59 2133
-15.7465 -765.621 2122
-10.6721 -765.621 2122
-5.57666 -762.735 2114
-0.520949 -762.013 2112
4.52305 -760.931 2109
9.56631 -760.931 2109
14.6096 -760.931 2109
19.6528 -760.931 2109
24.6961 -760.931 2109
29.7393 -760.931 2109
34.7826 -760.931 2109
39.8259 -760.931 2109
44.9329 -762.013 2112
49.9834 -762.013 2112
55.0338 -762.013 2112
60.0842 -762.013 2112
65.0421 -760.931 2109
70.0854 -760.931 2109
75.1287 -760.931 2109
80.1719 -760.931 2109
85.3364 -762.013 2112
90.4724 -762.735 2114
95.5276 -762.735 2114
100.583 -762.735 2114
105.788 -763.817 2117
110.85 -763.817 2117
115.913 -763.817 2117
120.804 -762.735 2114
125.859 -762.735 2114
131.1 -763.817 2117
136.355 -764.9 2120
141.425 -764.9 2120
146.633 -765.621 2122
151.707 -765.621 2122
156.781 -765.621 2122
161.856 -765.621 2122
166.93 -765.621 2122
172.247 -766.704 2125
177.329 -766.704 2125
182.411 -766.704 2125
187.757 -767.786 2128
193.117 -768.869 2131
198.399 -769.59 2133
203.5 -769.59 2133
209.481 -772.837 2142
214.603 -772.837 2142
219.725 -772.837 2142
224.847 -772.837 2142
447.363 -1380.43 3826
458.66 -1386.92 3844
467.852 -1386.92 3844
477.045 -1386.92 3844
485.098 -1383.67 3835
494.269 -1383.67 3835
503.44 -1383.67 3835
513.813 -1386.92 3844
523.005 -1386.92 3844
532.198 -1386.92 3844
552.798 -1416.15 3925
568.916 -1433.1 3972
578.414 -1433.1 3972
589.392 -1436.71 3982
598.914 -1436.71 3982
608.437 -1436.71 3982
617.959 -1436.71 3982
602.449 -1358.78 3766
611.455 -1358.78 3766
620.461 -1358.78 3766
629.466 -1358.78 3766
647.288 -1377.54 3818
663.983 -1393.42 3862
673.218 -1393.42 3862
685.634 -1399.91 3880
694.912 -1399.91 3880
704.19 -1399.91 3880
713.469 -1399.91 3880
721.07 -1396.66 3871
1436.53 -1355.53 3757
1445.52 -1355.53 3757
1464.57 -1364.91 3783
1473.61 -1364.91 3783
1499.51 -1380.43 3826
1508.66 -1380.43 3826
1517.81 -1380.43 3826
1509.8 -1364.91 3783
1518.85 -1364.91 3783
1517.39 -1355.53 3757
1509.72 -1340.74 3716
1518.6 -1340.74 3716
1523.79 -1337.49 3707
1532.65 -1337.49 3707
1541.52 -1337.49 3707
1543.69 -1331.72 3691
1549.15 -1328.83 3683
1557.96 -1328.83 3683
1566.77 -1328.83 3683
1561.46 -1316.93 3650
1563.73 -1311.51 3635
1572.43 -1311.51 3635
1567.2 -1299.97 3603
1569.25 -1294.56 3588
1567.72 -1286.26 3565
-2889.77 -1410.33 3935
-2880.36 -1410.33 3935
-2870.95 -1410.33 3935
-2854.27 -1406.74 3925
-2818.79 -1393.84 3889
-2783.49 -1380.94 3853
-2793.71 -1390.62 3880
-2784.43 -1390.62 3880
-2775.16 -1390.62 3880
-2765.88 -1390.62 3880
-2756.6 -1390.62 3880
-2721.83 -1377.71 3844
-2706.29 -1374.49 3835
-2703.45 -1377.71 3844
-2706.87 -1384.17 3862
-2697.63 -1384.17 3862
-2688.4 -1384.17 3862
-2679.16 -1384.17 3862
-2669.93 -1384.17 3862
-2642.09 -1374.49 3835
-2626.74 -1371.26 3826
-2612.12 -1368.4 3818
-2602.99 -1368.4 3818
-2576.2 -1359.08 3792
-2567.13 -1359.08 3792
-2522.98 -1340.44 3740
-2514.04 -1340.44 3740
-2482.99 -1328.61 3707
-2458.11 -1320.01 3683
-2422.04 -1305.32 3642
-2398.09 -1297.07 3619
-2389.43 -1297.07 3619
-2375.51 -1294.21 3611
-2361.64 -1291.34 3603
-2328.2 -1277.72 3565
-2319.68 -1277.72 3565
-1324.76 -1349.76 3766
-1318.55 -1352.63 3774
-1309.52 -1352.63 3774
-1306.7 -1359.08 3792
-1297.63 -1359.08 3792
-1288.57 -1359.08 3792
-1279.5 -1359.08 3792
-1261.72 -1349.76 3766
-1249.72 -1346.53 3757
-1240.74 -1346.53 3757
-1231.75 -1346.53 3757
-1214.63 -1337.57 3732
-1203.12 -1334.71 3724
-1204.8 -1346.53 3757
-1195.82 -1346.53 3757
-1186.83 -1346.53 3757
-1177.85 -1346.53 3757
-1168.86 -1346.53 3757
-1159.88 -1346.53 3757
-67.1792 -768.423 2144
-62.0523 -768.423 2144
-57.005 -769.498 2147
-51.8709 -769.498 2147
-46.7367 -769.498 2147
-41.6026 -769.498 2147
-36.4685 -769.498 2147
-31.2906 -768.423 2144
-26.1026 -766.631 2139
-20.9287 -764.481 2133
-15.7465 -760.538 2122
-10.6721 -760.538 2122
-5.57666 -757.671 2114
-0.520949 -756.954 2112
4.52305 -755.879 2109
9.56631 -755.879 2109
14.6096 -755.879 2109
19.6528 -755.879 2109
24.6961 -755.879 2109
29.7393 -755.879 2109
34.7826 -755.879 2109
39.8259 -755.879 2109
44.9329 -756.954 2112
49.9834 -756.954 2112
55.0338 -756.954 2112
60.0842 -756.954 2112
65.0421 -755.879 2109
70.0854 -755.879 2109
75.1287 -755.879 2109
80.1719 -755.879 2109
85.3364 -756.954 2112
90.4724 -757.671 2114
95.5276 -757.671 2114
100.583 -757.671 2114
105.788 -758.746 2117
110.85 -758.746 2117
115.913 -758.746 2117
120.804 -757.671 2114
125.859 -757.671 2114
131.1 -758.746 2117
136.355 -759.821 2120
141.425 -759.821 2120
146.633 -760.538 2122
151.707 -760.538 2122
156.781 -760.538 2122
161.856 -760.538 2122
166.93 -760.538 2122
172.491 -762.689 2128
177.579 -762.689 2128
182.668 -762.689 2128
187.757 -762.689 2128
193.117 -763.764 2131
198.399 -764.481 2133
203.5 -764.481 2133
209.676 -768.423 2144
214.803 -768.423 2144
219.93 -768.423 2144
225.057 -768.423 2144
449.468 -1377.71 3844
461.882 -1387.39 3871
471.139 -1387.39 3871
480.395 -1387.39 3871
489.652 -1387.39 3871
496.589 -1380.94 3853
505.803 -1380.94 3853
515.016 -1380.94 3853
524.23 -1380.94 3853
532.198 -1377.71 3844
552.798 -1406.74 3925
568.916 -1423.59 3972
578.414 -1423.59 3972
589.392 -1427.17 3982
598.914 -1427.17 3982
608.437 -1427.17 3982
617.959 -1427.17 3982
609.99 -1387.39 3871
602.449 -1349.76 3766
611.455 -1349.76 3766
620.461 -1349.76 3766
629.466 -1349.76 3766
647.288 -1368.4 3818
663.983 -1384.17 3862
673.218 -1384.17 3862
685.634 -1390.62 3880
694.912 -1390.62 3880
704.19 -1390.62 3880
713.469 -1390.62 3880
721.07 -1387.39 3871
808.51 -1444.38 4030
819.974 -1447.6 4039
829.632 -1447.6 4039
841.369 -1451.19 4049
851.051 -1451.19 4049
860.734 -1451.19 4049
1436.53 -1346.53 3757
1445.52 -1346.53 3757
1464.57 -1355.85 3783
1473.61 -1355.85 3783
1499.51 -1371.26 3826
1508.66 -1371.26 3826
1517.81 -1371.26 3826
1509.8 -1355.85 3783
1518.85 -1355.85 3783
1517.39 -1346.53 3757
1509.72 -1331.84 3716
1518.6 -1331.84 3716
1523.79 -1328.61 3707
1532.65 -1328.61 3707
1541.52 -1328.61 3707
1543.69 -1322.88 3691
1549.15 -1320.01 3683
1557.96 -1320.01 3683
1566.77 -1320.01 3683
1561.46 -1308.18 3650
1563.73 -1302.81 3635
1572.43 -1302.81 3635
1567.2 -1291.34 3603
1569.25 -1285.96 3588
-2902.99 -1407.31 3953
-2893.54 -1407.31 3953
-2884.09 -1407.31 3953
-2874.63 -1407.31 3953
-2865.18 -1407.31 3953
-2822.5 -1390.93 3907
-2813.15 -1390.93 3907
-2803.81 -1390.93 3907
-2794.47 -1390.93 3907
-2785.12 -1390.93 3907
-2775.78 -1390.93 3907
-2728.2 -1371.71 3853
-2712.64 -1368.51 3844
-2716.1 -1374.91 3862
-2706.87 -1374.91 3862
-2697.63 -1374.91 3862
-2688.4 -1374.91 3862
-2679.16 -1374.91 3862
-2669.93 -1374.91 3862
-2648.29 -1368.51 3844
-2632.92 -1365.3 3835
-2623.75 -1365.3 3835
-2614.58 -1365.3 3835
-2593.86 -1359.25 3818
-2572.54 -1352.84 3800
-2540.52 -1340.74 3766
-2531.52 -1340.74 3766
-2505.1 -1331.48 3740
-2474.13 -1319.73 3707
-2443.98 -1308.34 3675
-2403.39 -1291.25 3627
-2394.71 -1291.25 3627
-2380.78 -1288.4 3619
-2366.88 -1285.55 3611
-2328.2 -1269.18 3565
-2319.68 -1269.18 3565
-1330.58 -1337.53 3757
-1324.76 -1340.74 3766
-1318.55 -1343.58 3774
-1309.52 -1343.58 3774
-1306.7 -1349.99 3792
-1297.63 -1349.99 3792
-1288.57 -1349.99 3792
-1279.5 -1349.99 3792
-1270.43 -1349.99 3792
-1252.71 -1340.74 3766
-1243.71 -1340.74 3766
-1234.7 -1340.74 3766
-1225.7 -1340.74 3766
-1213.78 -1337.53 3757
-1207.69 -1340.74 3766
-1198.68 -1340.74 3766
-1189.67 -1340.74 3766
-1180.67 -1340.74 3766
-1171.66 -1340.74 3766
-1159.88 -1337.53 3757
-67.1792 -763.287 2144
-62.0523 -763.287 2144
-57.005 -764.355 2147
-51.8709 -764.355 2147
-46.7367 -764.355 2147
-41.6026 -764.355 2147
-36.4685 -764.355 2147
-31.2906 -763.287 2144
-26.1026 -761.507 2139
-20.9287 -759.371 2133
-15.7465 -755.455 2122
-10.6721 -755.455 2122
-5.57666 -752.607 2114
-0.520209 -750.827 2109
4.51662 -749.759 2106
