ply
format ascii 1.0
comment File generated
element vertex 2248
property float x
property float y
property float z
end_header
1284.84 1090.31 2133
1295.38 1094.91 2142
1300.5 1094.91 2142
1305.63 1094.91 2142
1315.64 1099 2150
1320.78 1099 2150
1325.93 1099 2150
1331.07 1099 2150
1336.21 1099 2150
1341.35 1099 2150
1346.49 1099 2150
1347.86 1095.93 2144
1346.05 1090.31 2133
1361.91 1099 2150
1367.06 1099 2150
1386.24 1110.25 2172
1404.24 1120.47 2192
1422.99 1131.2 2213
1428.28 1131.2 2213
1452.36 1146.03 2242
1470.07 1155.74 2261
1475.48 1155.74 2261
1480.89 1155.74 2261
1486.29 1155.74 2261
1481.15 1147.56 2245
1486.51 1147.56 2245
1491.88 1147.56 2245
1491.25 1142.96 2236
1508.64 1152.16 2254
1516.05 1153.7 2257
1521.45 1153.7 2257
1526.84 1153.7 2257
1532.24 1153.7 2257
1542.41 1157.27 2264
1553.97 1161.87 2273
1559.41 1161.87 2273
1573.11 1168.01 2285
1585.48 1173.12 2295
1608.3 1185.9 2320
1613.84 1185.9 2320
1619.39 1185.9 2320
1624.94 1185.9 2320
1630.49 1185.9 2320
1636.04 1185.9 2320
1637.34 1182.83 2314
1647.13 1185.9 2320
1659.8 1191.01 2330
1672.52 1196.12 2340
1678.12 1196.12 2340
1685.87 1197.66 2343
1691.47 1197.66 2343
1697.08 1197.66 2343
1702.68 1197.66 2343
1706.1 1196.12 2340
1713.89 1197.66 2343
1719.49 1197.66 2343
1725.09 1197.66 2343
1730.69 1197.66 2343
1736.3 1197.66 2343
1741.9 1197.66 2343
1737.81 1191.01 2330
1726.17 1179.25 2307
1706.16 1161.87 2273
1674.7 1136.83 2224
1680.02 1136.83 2224
1685.34 1136.83 2224
1660.25 1116.38 2184
1660.9 1113.31 2178
1666.11 1113.31 2178
-1561.09 1070.77 2085
-1556.1 1070.77 2085
-1545.91 1067.18 2078
-1536.49 1064.09 2072
-1531.54 1064.09 2072
-1526.58 1064.09 2072
-1521.63 1064.09 2072
-1516.67 1064.09 2072
-1511.72 1064.09 2072
-1494.4 1055.36 2055
-1487.31 1053.82 2052
-1478.79 1051.26 2047
-1473.9 1051.26 2047
-1469 1051.26 2047
-1471.26 1056.39 2057
-1490.58 1073.85 2091
-1501.92 1085.66 2114
-1496.86 1085.66 2114
-1509.45 1098.5 2139
-1514.18 1105.69 2153
-1516.74 1111.34 2164
-1511.57 1111.34 2164
-1509.88 1113.91 2169
-1524.81 1128.8 2198
-1521.62 1130.34 2201
-1516.36 1130.34 2201
-1526.89 1142.16 2224
-1527.73 1146.78 2233
-1532.61 1154.48 2248
-1538.11 1162.7 2264
-1532.7 1162.7 2264
-1527.28 1162.7 2264
-1521.87 1162.7 2264
-1516.45 1162.7 2264
-1504.37 1157.56 2254
-1498.98 1157.56 2254
-1493.59 1157.56 2254
-1464.43 1139.07 2218
-1430.83 1116.99 2175
-1414.49 1108.26 2158
-1409.33 1108.26 2158
-1398.96 1104.15 2150
-1389.93 1101.07 2144
-1383.51 1100.04 2142
-1378.39 1100.04 2142
-1369.42 1096.96 2136
-1368.15 1100.04 2142
-1364.3 1101.07 2144
-1359.17 1101.07 2144
-1354.04 1101.07 2144
-1348.92 1101.07 2144
-1343.79 1101.07 2144
-1338.66 1101.07 2144
-1330.43 1098.5 2139
-1325.31 1098.5 2139
-1323.28 1101.07 2144
-1318.16 1101.07 2144
-1313.03 1101.07 2144
-1313.39 1105.69 2153
-1314.93 1111.34 2164
-1314.6 1115.45 2172
-1309.4 1115.45 2172
-1312.61 1122.64 2186
-1307.39 1122.64 2186
-1302.16 1122.64 2186
-1290.41 1116.99 2175
-1285.2 1116.99 2175
-1280 1116.99 2175
-1274.8 1116.99 2175
-1267.85 1115.45 2172
-1259.75 1112.88 2167
-1255.73 1113.91 2169
-1255.73 1118.53 2178
-1250.52 1118.53 2178
-1245.31 1118.53 2178
-1240.1 1118.53 2178
-1234.89 1118.53 2178
-1229.69 1118.53 2178
-1218.29 1112.88 2167
-1209.75 1109.8 2161
-1200.13 1105.69 2153
-1194.98 1105.69 2153
-1186.51 1102.61 2147
-1176.98 1098.5 2139
-1167.48 1094.39 2131
-1162.38 1094.39 2131
-1152.4 1089.77 2122
-1146.24 1088.74 2120
-1137.94 1085.66 2114
-1132.89 1085.66 2114
-1127.83 1085.66 2114
-1127.03 1089.77 2122
-1121.95 1089.77 2122
-1116.88 1089.77 2122
-1111.81 1089.77 2122
-1111.42 1094.39 2131
-1106.33 1094.39 2131
-1105.37 1098.5 2139
-1100.25 1098.5 2139
-1095.14 1098.5 2139
-1090.02 1098.5 2139
-1087.44 1101.07 2144
-1082.32 1101.07 2144
-1081.71 1105.69 2153
-1083.56 1112.88 2167
-1079.38 1113.91 2169
-1074.19 1113.91 2169
-1069 1113.91 2169
-1066.76 1116.99 2175
-1061.56 1116.99 2175
-1056.36 1116.99 2175
-1055.51 1121.61 2184
-1052.69 1124.18 2189
-1051.76 1128.8 2198
-1046.5 1128.8 2198
-1042.67 1130.34 2201
-1040.23 1133.42 2207
-1034.96 1133.42 2207
-1029.68 1133.42 2207
-1021.61 1130.34 2201
-1013.58 1127.26 2195
-1008.33 1127.26 2195
-1000.34 1124.18 2189
-993.743 1122.64 2186
-988.516 1122.64 2186
-984.638 1124.18 2189
-979.403 1124.18 2189
-974.169 1124.18 2189
-966.721 1121.61 2184
-965.02 1125.72 2192
-959.778 1125.72 2192
-955.843 1127.26 2195
-951.893 1128.8 2198
-946.637 1128.8 2198
-941.381 1128.8 2198
-936.125 1128.8 2198
-929.599 1127.26 2195
-924.35 1127.26 2195
-917.845 1125.72 2192
-911.354 1124.18 2189
-902.808 1120.07 2181
-897.592 1120.07 2181
-892.377 1120.07 2181
-887.161 1120.07 2181
-883.159 1121.61 2184
-877.937 1121.61 2184
-872.714 1121.61 2184
-867.491 1121.61 2184
-862.269 1121.61 2184
-855.869 1120.07 2181
-850.653 1120.07 2181
-845.438 1120.07 2181
-842.149 1122.64 2186
-839.219 1125.72 2192
-833.977 1125.72 2192
-828.735 1125.72 2192
-823.493 1125.72 2192
-818.252 1125.72 2192
-814.122 1127.26 2195
-808.874 1127.26 2195
-804.723 1128.8 2198
-801.649 1131.88 2204
-796.379 1131.88 2204
-791.108 1131.88 2204
-785.838 1131.88 2204
-776.318 1125.72 2192
-771.076 1125.72 2192
-765.834 1125.72 2192
-759.552 1124.18 2189
-753.283 1122.64 2186
-748.056 1122.64 2186
-742.149 1121.61 2184
-736.926 1121.61 2184
-732.374 1122.64 2186
-727.146 1122.64 2186
-721.919 1122.64 2186
-716.691 1122.64 2186
-710.813 1121.61 2184
-705.591 1121.61 2184
-700.368 1121.61 2184
-695.145 1121.61 2184
-689.923 1121.61 2184
-684.7 1121.61 2184
-679.477 1121.61 2184
-672.403 1118.53 2178
-667.194 1118.53 2178
-662.898 1120.07 2181
-657.682 1120.07 2181
-652.467 1120.07 2181
-647.252 1120.07 2181
-642.036 1120.07 2181
-637.697 1121.61 2184
-632.474 1121.61 2184
-627.251 1121.61 2184
-621.174 1120.07 2181
-615.959 1120.07 2181
-610.744 1120.07 2181
-604.695 1118.53 2178
-598.661 1116.99 2175
-593.46 1116.99 2175
-587.448 1115.45 2172
-582.254 1115.45 2172
-577.06 1115.45 2172
-572.656 1116.99 2175
-567.455 1116.99 2175
-563.805 1120.07 2181
-559.87 1122.64 2186
-556.165 1125.72 2192
-550.923 1125.72 2192
-545.681 1125.72 2192
-540.44 1125.72 2192
-535.198 1125.72 2192
-529.231 1124.18 2189
-523.996 1124.18 2189
-519.473 1125.72 2192
-516.342 1130.34 2201
-511.079 1130.34 2201
-505.816 1130.34 2201
-501.917 1133.42 2207
-496.639 1133.42 2207
-491.362 1133.42 2207
-487.406 1136.51 2213
-483.857 1140.61 2221
-478.545 1140.61 2221
-473.234 1140.61 2221
-467.923 1140.61 2221
-465.112 1146.78 2233
-460.39 1148.32 2236
-455.043 1148.32 2236
-449.696 1148.32 2236
-442.56 1143.7 2227
-437.235 1143.7 2227
-430.164 1139.07 2218
-423.902 1136.51 2213
-418.61 1136.51 2213
-413.318 1136.51 2213
-408.026 1136.51 2213
-402.734 1136.51 2213
-395.826 1131.88 2204
-389.492 1128.8 2198
-384.236 1128.8 2198
-377.428 1124.18 2189
-372.194 1124.18 2189
-366.456 1122.64 2186
-361.229 1122.64 2186
-355.187 1120.07 2181
-349.972 1120.07 2181
-344.282 1118.53 2178
-339.074 1118.53 2178
-332.946 1115.45 2172
-326.545 1111.34 2164
-321.37 1111.34 2164
-317.803 1116.99 2175
-312.602 1116.99 2175
-308.248 1120.07 2181
-303.728 1122.64 2186
-298.91 1124.18 2189
-293.675 1124.18 2189
-288.441 1124.18 2189
-283.594 1125.72 2192
-279.496 1130.34 2201
-274.232 1130.34 2201
-270.069 1134.97 2210
-265.144 1136.51 2213
-259.852 1136.51 2213
-254.56 1136.51 2213
-249.268 1136.51 2213
-243.976 1136.51 2213
-239.223 1139.07 2218
-234.236 1140.61 2221
-228.924 1140.61 2221
-224.217 1143.7 2227
-219.777 1148.32 2236
-214.43 1148.32 2236
-209.083 1148.32 2236
-203.462 1146.78 2233
-197.324 1142.16 2224
-192.006 1142.16 2224
-186.436 1140.61 2221
-180.88 1139.07 2218
-174.468 1131.88 2204
-169.197 1131.88 2204
-163.927 1131.88 2204
-158.009 1127.26 2195
-152.133 1122.64 2186
-146.906 1122.64 2186
-141.549 1121.61 2184
-135.952 1118.53 2178
-130.203 1113.91 2169
-125.017 1113.91 2169
-119.719 1112.88 2167
-114.537 1112.88 2167
-109.356 1112.88 2167
-104.27 1113.91 2169
-99.083 1113.91 2169
-93.8963 1113.91 2169
-88.7095 1113.91 2169
-83.4458 1112.88 2167
-78.2638 1112.88 2167
-72.9807 1111.34 2164
-67.8059 1111.34 2164
-62.718 1112.88 2167
-57.536 1112.88 2167
-52.3541 1112.88 2167
-47.2809 1115.45 2172
-42.087 1115.45 2172
-36.8931 1115.45 2172
-31.6992 1115.45 2172
-26.5053 1115.45 2172
-21.2623 1112.88 2167
-16.0804 1112.88 2167
-10.7576 1098.5 2139
111.583 1094.39 2131
116.679 1094.39 2131
121.775 1094.39 2131
126.871 1094.39 2131
132.462 1098.5 2139
137.577 1098.5 2139
143.026 1101.07 2144
149.328 1109.8 2161
154.71 1111.34 2164
159.884 1111.34 2164
165.441 1113.91 2169
171.571 1120.07 2181
177.192 1122.64 2186
182.419 1122.64 2186
187.647 1122.64 2186
193.933 1128.8 2198
199.733 1131.88 2204
205.003 1131.88 2204
210.274 1131.88 2204
215.544 1131.88 2204
220.814 1131.88 2204
226.7 1134.97 2210
231.985 1134.97 2210
237.592 1136.51 2213
243.433 1139.07 2218
248.737 1139.07 2218
254.041 1139.07 2218
259.345 1139.07 2218
264.648 1139.07 2218
269.952 1139.07 2218
274.884 1137.53 2215
280.56 1139.07 2218
285.864 1139.07 2218
291.168 1139.07 2218
296.071 1137.53 2215
301.368 1137.53 2215
306.387 1136.51 2213
311.679 1136.51 2213
315.682 1131.88 2204
319.642 1127.26 2195
325.779 1130.34 2201
331.042 1130.34 2201
336.306 1130.34 2201
341.569 1130.34 2201
346.359 1128.8 2198
350.176 1124.18 2189
355.41 1124.18 2189
360.645 1124.18 2189
365.879 1124.18 2189
369.758 1120.07 2181
374.973 1120.07 2181
379.666 1118.53 2178
384.344 1116.99 2175
388.112 1112.88 2167
393.294 1112.88 2167
397.373 1109.8 2161
402.54 1109.8 2161
407.708 1109.8 2161
413.449 1111.34 2164
418.623 1111.34 2164
423.798 1111.34 2164
428.973 1111.34 2164
434.148 1111.34 2164
439.323 1111.34 2164
444.497 1111.34 2164
450.295 1112.88 2167
457.159 1116.99 2175
462.998 1118.53 2178
468.206 1118.53 2178
474.066 1120.07 2181
479.282 1120.07 2181
486.274 1124.18 2189
491.509 1124.18 2189
496.743 1124.18 2189
501.978 1124.18 2189
507.908 1125.72 2192
513.149 1125.72 2192
518.391 1125.72 2192
521.722 1121.61 2184
526.945 1121.61 2184
532.167 1121.61 2184
537.882 1122.64 2186
543.855 1124.18 2189
550.594 1127.26 2195
555.843 1127.26 2195
561.092 1127.26 2195
566.341 1127.26 2195
571.59 1127.26 2195
576.839 1127.26 2195
582.088 1127.26 2195
587.337 1127.26 2195
592.585 1127.26 2195
597.834 1127.26 2195
603.083 1127.26 2195
608.332 1127.26 2195
612.742 1125.72 2192
618.83 1127.26 2195
624.079 1127.26 2195
629.328 1127.26 2195
638.913 1134.97 2210
644.198 1134.97 2210
649.483 1134.97 2210
656.249 1137.53 2215
661.546 1137.53 2215
666.842 1137.53 2215
669.712 1133.42 2207
671.319 1127.26 2195
673.177 1121.61 2184
678.4 1121.61 2184
680.806 1116.99 2175
685.06 1115.45 2172
690.254 1115.45 2172
697.369 1118.53 2178
702.578 1118.53 2178
707.786 1118.53 2178
712.994 1118.53 2178
718.202 1118.53 2178
723.411 1118.53 2178
727.615 1116.99 2175
731.806 1115.45 2172
735.303 1112.88 2167
740.485 1112.88 2167
744.635 1111.34 2164
750.849 1112.88 2167
756.729 1113.91 2169
764.023 1116.99 2175
769.224 1116.99 2175
778.342 1122.64 2186
785.72 1125.72 2192
794.209 1130.34 2201
799.472 1130.34 2201
806.929 1133.42 2207
812.207 1133.42 2207
817.485 1133.42 2207
822.762 1133.42 2207
828.04 1133.42 2207
832.185 1131.88 2204
839.735 1134.97 2210
848.079 1139.07 2218
853.382 1139.07 2218
859.848 1140.61 2221
871.002 1148.32 2236
877.525 1149.86 2239
882.879 1149.86 2239
888.233 1149.86 2239
894.784 1151.4 2242
900.146 1151.4 2242
905.507 1151.4 2242
910.868 1151.4 2242
916.23 1151.4 2242
922.824 1152.94 2245
928.193 1152.94 2245
933.561 1152.94 2245
938.929 1152.94 2245
944.298 1152.94 2245
949.666 1152.94 2245
955.035 1152.94 2245
960.403 1152.94 2245
965.772 1152.94 2245
971.14 1152.94 2245
976.509 1152.94 2245
980.565 1151.4 2242
985.926 1151.4 2242
991.288 1151.4 2242
989.981 1143.7 2227
993.966 1142.16 2224
995.24 1137.53 2215
1000.54 1137.53 2215
999.476 1130.34 2201
1004.74 1130.34 2201
1008.63 1128.8 2198
1013.88 1128.8 2198
1019.14 1128.8 2198
1018.8 1122.64 2186
1024.03 1122.64 2186
1026.9 1120.07 2181
1033.54 1121.61 2184
1038.76 1121.61 2184
1046.37 1124.18 2189
1054.49 1127.26 2195
1061.19 1128.8 2198
1066.44 1128.8 2198
1079.99 1137.53 2215
1086.75 1139.07 2218
1099.44 1146.78 2233
1104.78 1146.78 2233
1116.09 1152.94 2245
1125.95 1157.56 2254
1131.34 1157.56 2254
1136.73 1157.56 2254
1142.12 1157.56 2254
1147.51 1157.56 2254
1152.9 1157.56 2254
1156.75 1156.02 2251
1157.49 1151.4 2242
1161.29 1149.86 2239
1166.65 1149.86 2239
1178.28 1156.02 2251
1183.67 1156.02 2251
1189.05 1156.02 2251
1194.43 1156.02 2251
1199.81 1156.02 2251
1205.2 1156.02 2251
1207.35 1152.94 2245
1212.72 1152.94 2245
1218.09 1152.94 2245
1218.55 1148.32 2236
1217.33 1142.16 2224
1216.6 1136.51 2213
1221.9 1136.51 2213
1218.87 1128.8 2198
1220.78 1125.72 2192
1219.87 1120.07 2181
1221.72 1116.99 2175
1226.92 1116.99 2175
1232.12 1116.99 2175
1237.32 1116.99 2175
1242.52 1116.99 2175
1247.72 1116.99 2175
1251.2 1115.45 2172
1253.5 1112.88 2167
1251.71 1106.72 2155
1256.86 1106.72 2155
1257.33 1102.61 2147
1259.53 1100.04 2142
1261.11 1096.96 2136
1266.21 1096.96 2136
1266.56 1092.85 2128
1268.06 1089.77 2122
1276.74 1092.85 2128
1283.63 1094.39 2131
1289.94 1095.42 2133
1295.04 1095.42 2133
1301.97 1096.96 2136
1310.75 1100.04 2142
1315.87 1100.04 2142
1320.99 1100.04 2142
1329.21 1102.61 2147
1334.34 1102.61 2147
1339.48 1102.61 2147
1341.48 1100.04 2142
1346.6 1100.04 2142
1346.05 1095.42 2133
1361.91 1104.15 2150
1367.06 1104.15 2150
1377.3 1108.26 2158
1388.23 1112.88 2167
1402.41 1120.07 2181
1418.6 1128.8 2198
1423.86 1128.8 2198
1446.02 1142.16 2224
1461.12 1149.86 2239
1466.48 1149.86 2239
1471.83 1149.86 2239
1471.25 1145.24 2230
1472.61 1142.16 2224
1477.93 1142.16 2224
1477.24 1137.53 2215
1496.6 1148.32 2236
1503.96 1149.86 2239
1509.31 1149.86 2239
1514.67 1149.86 2239
1522.06 1151.4 2242
1529.46 1152.94 2245
1540.98 1157.56 2254
1546.37 1157.56 2254
1564.84 1167.32 2273
1578.57 1173.48 2285
1599.28 1184.78 2307
1604.8 1184.78 2307
1610.32 1184.78 2307
1620.74 1188.38 2314
1626.27 1188.38 2314
1631.8 1188.38 2314
1632.38 1184.78 2307
1645 1189.92 2317
1652.68 1191.46 2320
1670.38 1200.19 2337
1675.97 1200.19 2337
1681.55 1200.19 2337
1687.14 1200.19 2337
1692.73 1200.19 2337
1693.23 1196.59 2330
1698.8 1196.59 2330
1711.69 1201.73 2340
1717.29 1201.73 2340
1722.88 1201.73 2340
1730.69 1203.27 2343
1736.3 1203.27 2343
1741.9 1203.27 2343
1720.65 1184.78 2307
1726.17 1184.78 2307
1703.91 1165.78 2270
1674.7 1142.16 2224
1680.02 1142.16 2224
1661.09 1125.72 2192
1655.69 1118.53 2178
1656.32 1115.45 2172
1661.52 1115.45 2172
-1561.09 1075.77 2085
-1556.1 1075.77 2085
-1545.91 1072.15 2078
-1536.49 1069.06 2072
-1531.54 1069.06 2072
-1526.58 1069.06 2072
-1521.63 1069.06 2072
-1516.67 1069.06 2072
-1511.72 1069.06 2072
-1494.4 1060.29 2055
-1487.31 1058.74 2052
-1478.79 1056.16 2047
-1473.9 1056.16 2047
-1469 1056.16 2047
-1471.26 1061.32 2057
-1490.58 1078.86 2091
-1501.92 1090.73 2114
-1496.86 1090.73 2114
-1509.45 1103.63 2139
-1514.18 1110.85 2153
-1516.74 1116.53 2164
-1511.57 1116.53 2164
-1509.88 1119.11 2169
-1524.81 1134.07 2198
-1521.62 1135.62 2201
-1516.36 1135.62 2201
-1526.89 1147.48 2224
-1527.73 1152.13 2233
-1532.61 1159.87 2248
-1538.11 1168.12 2264
-1532.7 1168.12 2264
-1527.28 1168.12 2264
-1521.87 1168.12 2264
-1516.45 1168.12 2264
-1504.37 1162.96 2254
-1498.98 1162.96 2254
-1493.59 1162.96 2254
-1468.39 1147.48 2224
-1430.83 1122.2 2175
-1414.49 1113.43 2158
-1409.33 1113.43 2158
-1398.96 1109.3 2150
-1389.93 1106.21 2144
-1383.51 1105.17 2142
-1378.39 1105.17 2142
-1369.42 1102.08 2136
-1364.32 1102.08 2136
-1363.03 1105.17 2142
-1357.9 1105.17 2142
-1352.78 1105.17 2142
-1347.66 1105.17 2142
-1342.54 1105.17 2142
-1337.42 1105.17 2142
-1330.43 1103.63 2139
-1323.45 1102.08 2136
-1318.35 1102.08 2136
-1313.24 1102.08 2136
-1308.13 1102.08 2136
-1304.85 1103.63 2139
-1308.24 1110.85 2153
-1309.75 1116.53 2164
-1304.58 1116.53 2164
-1299.4 1116.53 2164
-1294.23 1116.53 2164
-1290.84 1118.07 2167
-1285.66 1118.07 2167
-1280.48 1118.07 2167
-1275.3 1118.07 2167
-1270.11 1118.07 2167
-1263.18 1116.53 2164
-1254.52 1113.43 2158
-1249.36 1113.43 2158
-1247.66 1116.53 2164
-1242.48 1116.53 2164
-1240.17 1119.11 2169
-1234.98 1119.11 2169
-1229.79 1119.11 2169
-1223.48 1118.07 2167
-1218.29 1118.07 2167
-1206.39 1111.88 2155
-1198.45 1109.3 2150
-1193.31 1109.3 2150
-1184.86 1106.21 2144
-1175.33 1102.08 2136
-1162.55 1094.86 2122
-1157.47 1094.86 2122
-1151.31 1093.82 2120
-1143 1090.73 2114
-1133.64 1086.6 2106
-1128.6 1086.6 2106
-1123.57 1086.6 2106
-1118.53 1086.6 2106
-1113.49 1086.6 2106
-1108.46 1086.6 2106
-1103.42 1086.6 2106
-1104.12 1092.28 2117
-1104.77 1097.95 2128
-1099.68 1097.95 2128
-1094.59 1097.95 2128
-1089.51 1097.95 2128
-1084.42 1097.95 2128
-1081.86 1100.53 2133
-1076.76 1100.53 2133
-1074.68 1103.63 2139
-1076.56 1110.85 2153
-1073.9 1113.43 2158
-1068.74 1113.43 2158
-1066.54 1116.53 2164
-1062.84 1118.07 2167
-1061.56 1122.2 2175
-1056.36 1122.2 2175
-1051.16 1122.2 2175
-1048.84 1125.3 2181
-1047.45 1129.42 2189
-1042.22 1129.42 2189
-1039.83 1132.52 2195
-1037.4 1135.62 2201
-1032.14 1135.62 2201
-1026.88 1135.62 2201
-1021.61 1135.62 2201
-1012.2 1130.97 2192
-1006.95 1130.97 2192
-998.97 1127.88 2186
-991.47 1125.3 2181
-986.255 1125.3 2181
-981.039 1125.3 2181
-975.824 1125.3 2181
-969.273 1123.75 2178
-964.065 1123.75 2178
-958.857 1123.75 2178
-953.648 1123.75 2178
-951.053 1126.84 2184
-949.295 1130.97 2192
-944.053 1130.97 2192
-938.812 1130.97 2192
-933.57 1130.97 2192
-927.057 1129.42 2189
-921.823 1129.42 2189
-913.239 1125.3 2181
-906.774 1123.75 2178
-899.082 1120.65 2172
-892.654 1119.11 2169
-887.467 1119.11 2169
-882.28 1119.11 2169
-877.093 1119.11 2169
-871.907 1119.11 2169
-866.72 1119.11 2169
-861.533 1119.11 2169
-855.557 1118.07 2167
-851.16 1119.11 2169
-845.973 1119.11 2169
-840.786 1119.11 2169
-835.6 1119.11 2169
-831.561 1120.65 2172
-826.367 1120.65 2172
-821.174 1120.65 2172
-815.98 1120.65 2172
-810.786 1120.65 2172
-805.592 1120.65 2172
-800.398 1120.65 2172
-796.302 1122.2 2175
-792.192 1123.75 2178
-786.984 1123.75 2178
-781.776 1123.75 2178
-776.568 1123.75 2178
-769.234 1120.65 2172
-764.041 1120.65 2172
-758.847 1120.65 2172
-753.653 1120.65 2172
-748.459 1120.65 2172
-744.292 1122.2 2175
-739.09 1122.2 2175
-733.889 1122.2 2175
-729.693 1123.75 2178
-724.485 1123.75 2178
-719.277 1123.75 2178
-714.069 1123.75 2178
-706.908 1120.65 2172
-701.714 1120.65 2172
-695.558 1119.11 2169
-690.371 1119.11 2169
-685.184 1119.11 2169
-679.997 1119.11 2169
-674.811 1119.11 2169
-669.007 1118.07 2167
-662.906 1116.53 2164
-658.643 1118.07 2167
-653.461 1118.07 2167
-648.279 1118.07 2167
-643.097 1118.07 2167
-637.915 1118.07 2167
-633.317 1119.11 2169
-628.13 1119.11 2169
-622.943 1119.11 2169
-617.757 1119.11 2169
-612.57 1119.11 2169
-607.383 1119.11 2169
-602.196 1119.11 2169
-596.459 1118.07 2167
-591.277 1118.07 2167
-586.095 1118.07 2167
-581.449 1119.11 2169
-576.263 1119.11 2169
-571.076 1119.11 2169
-565.889 1119.11 2169
-562.254 1122.2 2175
-558.589 1125.3 2181
-554.642 1127.88 2186
-549.415 1127.88 2186
-544.188 1127.88 2186
-538.96 1127.88 2186
-533.733 1127.88 2186
-528.505 1127.88 2186
-523.278 1127.88 2186
-518.051 1127.88 2186
-513.527 1129.42 2189
-508.293 1129.42 2189
-503.058 1129.42 2189
-499.87 1134.07 2198
-494.614 1134.07 2198
-489.358 1134.07 2198
-484.763 1135.62 2201
-480.807 1138.71 2207
-476.175 1140.26 2210
-470.891 1140.26 2210
-465.606 1140.26 2210
-461.362 1142.84 2215
-457.301 1145.93 2221
-451.99 1145.93 2221
-446.679 1145.93 2221
-440.175 1142.84 2215
-433.897 1140.26 2210
-428.612 1140.26 2210
-422.178 1137.16 2204
-416.908 1137.16 2204
-411.637 1137.16 2204
-406.367 1137.16 2204
-401.096 1137.16 2204
-394.21 1132.52 2195
-387.366 1127.88 2186
-382.139 1127.88 2186
-376.911 1127.88 2186
-369.303 1120.65 2172
-364.109 1120.65 2172
-358.916 1120.65 2172
-353.722 1120.65 2172
-348.528 1120.65 2172
-342.86 1119.11 2169
-337.673 1119.11 2169
-331.72 1116.53 2164
-326.092 1114.98 2161
-320.925 1114.98 2161
-316.195 1116.53 2164
-311.021 1116.53 2164
-307.4 1122.2 2175
-302.199 1122.2 2175
-296.998 1122.2 2175
-291.797 1122.2 2175
-286.596 1122.2 2175
-282.171 1125.3 2181
-277.972 1129.42 2189
-273.859 1134.07 2198
-268.602 1134.07 2198
-263.706 1135.62 2201
-258.443 1135.62 2201
-253.524 1137.16 2204
-248.254 1137.16 2204
-242.984 1137.16 2204
-237.39 1135.62 2201
-232.126 1135.62 2201
-226.863 1135.62 2201
-221.902 1137.16 2204
-216.926 1138.71 2207
-211.649 1138.71 2207
-206.371 1138.71 2207
-201.093 1138.71 2207
-195.816 1138.71 2207
-190.538 1138.71 2207
-184.757 1135.62 2201
-179.494 1135.62 2201
-173.755 1132.52 2195
-168.507 1132.52 2195
-162.588 1127.88 2186
-157.361 1127.88 2186
-151.368 1122.2 2175
-146.167 1122.2 2175
-140.447 1118.07 2167
-135.265 1118.07 2167
-130.083 1118.07 2167
-124.901 1118.07 2167
-119.554 1116.53 2164
-114.379 1116.53 2164
-109.204 1116.53 2164
-104.27 1119.11 2169
-99.083 1119.11 2169
-93.8963 1119.11 2169
-88.7095 1119.11 2169
-83.4458 1118.07 2167
-78.2638 1118.07 2167
-72.9807 1116.53 2164
-67.8059 1116.53 2164
-62.4575 1113.43 2158
-57.4564 1116.53 2164
-52.2816 1116.53 2164
-47.1068 1116.53 2164
-41.9901 1118.07 2167
-36.8082 1118.07 2167
-31.6262 1118.07 2167
-26.4443 1118.07 2167
-21.2623 1118.07 2167
-16.0804 1118.07 2167
-10.7576 1103.63 2139
111.583 1099.5 2131
116.679 1099.5 2131
121.775 1099.5 2131
126.871 1099.5 2131
132.462 1103.63 2139
137.577 1103.63 2139
143.026 1106.21 2144
148.913 1111.88 2155
154.495 1114.98 2161
159.663 1114.98 2161
165.441 1119.11 2169
170.863 1120.65 2172
176.3 1122.2 2175
182.419 1127.88 2186
187.647 1127.88 2186
193.933 1134.07 2198
199.733 1137.16 2204
205.003 1137.16 2204
210.274 1137.16 2204
215.544 1137.16 2204
220.814 1137.16 2204
226.7 1140.26 2210
231.985 1140.26 2210
237.592 1141.81 2213
243.433 1144.39 2218
248.737 1144.39 2218
254.041 1144.39 2218
259.345 1144.39 2218
264.648 1144.39 2218
269.952 1144.39 2218
274.884 1142.84 2215
280.56 1144.39 2218
285.864 1144.39 2218
291.168 1144.39 2218
296.071 1142.84 2215
301.368 1142.84 2215
306.387 1141.81 2213
311.679 1141.81 2213
315.682 1137.16 2204
319.642 1132.52 2195
325.779 1135.62 2201
331.042 1135.62 2201
336.306 1135.62 2201
341.569 1135.62 2201
346.359 1134.07 2198
350.176 1129.42 2189
355.41 1129.42 2189
360.645 1129.42 2189
365.879 1129.42 2189
369.758 1125.3 2181
374.973 1125.3 2181
379.666 1123.75 2178
384.344 1122.2 2175
388.112 1118.07 2167
393.294 1118.07 2167
397.373 1114.98 2161
402.54 1114.98 2161
407.708 1114.98 2161
413.449 1116.53 2164
418.623 1116.53 2164
423.798 1116.53 2164
428.973 1116.53 2164
434.148 1116.53 2164
439.323 1116.53 2164
444.497 1116.53 2164
450.295 1118.07 2167
457.159 1122.2 2175
462.998 1123.75 2178
468.206 1123.75 2178
474.066 1125.3 2181
479.282 1125.3 2181
486.274 1129.42 2189
491.509 1129.42 2189
496.743 1129.42 2189
501.978 1129.42 2189
507.908 1130.97 2192
513.149 1130.97 2192
518.391 1130.97 2192
521.722 1126.84 2184
526.945 1126.84 2184
532.167 1126.84 2184
537.882 1127.88 2186
543.855 1129.42 2189
550.594 1132.52 2195
555.843 1132.52 2195
561.092 1132.52 2195
566.341 1132.52 2195
571.59 1132.52 2195
576.839 1132.52 2195
582.088 1132.52 2195
587.337 1132.52 2195
592.585 1132.52 2195
597.834 1132.52 2195
603.083 1132.52 2195
608.332 1132.52 2195
612.742 1130.97 2192
618.83 1132.52 2195
624.079 1132.52 2195
629.328 1132.52 2195
638.913 1140.26 2210
644.198 1140.26 2210
649.483 1140.26 2210
656.249 1142.84 2215
661.546 1142.84 2215
666.842 1142.84 2215
669.712 1138.71 2207
671.319 1132.52 2195
673.177 1126.84 2184
678.4 1126.84 2184
680.806 1122.2 2175
685.06 1120.65 2172
689.301 1119.11 2169
695.448 1120.65 2172
701.61 1122.2 2175
706.811 1122.2 2175
712.012 1122.2 2175
717.213 1122.2 2175
722.414 1122.2 2175
727.615 1122.2 2175
730.121 1118.07 2167
734.285 1116.53 2164
739.46 1116.53 2164
743.602 1114.98 2161
749.809 1116.53 2164
756.031 1118.07 2167
761.915 1119.11 2169
767.102 1119.11 2169
774.425 1122.2 2175
783.569 1127.88 2186
790.961 1130.97 2192
796.203 1130.97 2192
803.639 1134.07 2198
809.999 1135.62 2201
815.262 1135.62 2201
820.525 1135.62 2201
825.789 1135.62 2201
831.052 1135.62 2201
836.315 1135.62 2201
841.578 1135.62 2201
846.842 1135.62 2201
857.525 1142.84 2215
865.159 1145.93 2221
873.997 1150.58 2230
879.33 1150.58 2230
887.043 1153.67 2236
893.587 1155.22 2239
898.941 1155.22 2239
904.295 1155.22 2239
910.868 1156.77 2242
916.23 1156.77 2242
921.591 1156.77 2242
924.471 1153.67 2236
929.818 1153.67 2236
935.165 1153.67 2236
940.512 1153.67 2236
945.859 1153.67 2236
951.206 1153.67 2236
959.12 1156.77 2242
964.481 1156.77 2242
969.843 1156.77 2242
975.204 1156.77 2242
975.317 1150.58 2230
979.33 1149.03 2227
984.656 1149.03 2227
984.647 1142.84 2215
989.049 1141.81 2213
988.95 1135.62 2201
994.213 1135.62 2201
998.114 1134.07 2198
1003.37 1134.07 2198
1004.5 1129.42 2189
1009.73 1129.42 2189
1013.57 1127.88 2186
1017.87 1126.84 2184
1021.69 1125.3 2181
1025.49 1123.75 2178
1030.7 1123.75 2178
1034.48 1122.2 2175
1042.55 1125.3 2181
1050.17 1127.88 2186
1056.84 1129.42 2189
1062.08 1129.42 2189
1071.7 1134.07 2198
1081.36 1138.71 2207
1095.01 1147.48 2224
1100.33 1147.48 2224
1110.12 1152.13 2233
1121.46 1158.32 2245
1126.83 1158.32 2245
1132.19 1158.32 2245
1137.56 1158.32 2245
1142.93 1158.32 2245
1148.3 1158.32 2245
1149.04 1153.67 2236
1152.84 1152.13 2233
1158.18 1152.13 2233
1165.08 1153.67 2236
1173.57 1156.77 2242
1178.93 1156.77 2242
1185.88 1158.32 2245
1191.25 1158.32 2245
1196.62 1158.32 2245
1201.98 1158.32 2245
1202.51 1153.67 2236
1206.24 1152.13 2233
1211.58 1152.13 2233
1212.01 1147.48 2224
1215.69 1145.93 2221
1211.66 1137.16 2204
1216.93 1137.16 2204
1217.21 1132.52 2195
1219.11 1129.42 2189
1218.2 1123.75 2178
1221.72 1122.2 2175
1226.92 1122.2 2175
1230.42 1120.65 2172
1233.91 1119.11 2169
1239.09 1119.11 2169
1244.28 1119.11 2169
1248.32 1118.07 2167
1253.5 1118.07 2167
1248.81 1109.3 2150
1253.95 1109.3 2150
1254.4 1105.17 2142
1256 1102.08 2136
1258.15 1099.5 2131
1263.25 1099.5 2131
1266.56 1097.95 2128
1266.87 1093.82 2120
1276.74 1097.95 2128
1283.63 1099.5 2131
1288.73 1099.5 2131
1293.82 1099.5 2131
1298.92 1099.5 2131
1310.75 1105.17 2142
1315.87 1105.17 2142
1320.99 1105.17 2142
1327.35 1106.21 2144
1332.48 1106.21 2144
1337.61 1106.21 2144
1341.48 1105.17 2142
1344.72 1103.63 2139
1346.05 1100.53 2133
1361.91 1109.3 2150
1367.06 1109.3 2150
1375.39 1111.88 2155
1382.46 1113.43 2158
1396.63 1120.65 2172
1409.56 1126.84 2184
1414.79 1126.84 2184
1420.01 1126.84 2184
1425.23 1126.84 2184
1430.46 1126.84 2184
1435.68 1126.84 2184
1440.9 1126.84 2184
1438.18 1120.65 2172
1443.37 1120.65 2172
1448.57 1120.65 2172
1459.78 1125.3 2181
1468.36 1127.88 2186
1479.65 1132.52 2195
1484.9 1132.52 2195
1500.33 1140.26 2210
1505.62 1140.26 2210
1534.83 1158.32 2245
1540.2 1158.32 2245
1545.57 1158.32 2245
1550.94 1158.32 2245
1556.3 1158.32 2245
1561.67 1158.32 2245
1556.57 1150.58 2230
1568.21 1155.22 2239
1595.35 1171.22 2270
1618.41 1184.12 2295
1623.89 1184.12 2295
1635.77 1188.76 2304
1650.54 1195.47 2317
1658.23 1197.01 2320
1663.77 1197.01 2320
1669.32 1197.01 2320
1674.87 1197.01 2320
1680.42 1197.01 2320
1676.52 1190.31 2307
1698.8 1202.17 2330
1704.38 1202.17 2330
1712.15 1203.72 2333
1717.73 1203.72 2333
1723.31 1203.72 2333
1709.62 1190.31 2307
1715.14 1190.31 2307
1702.01 1177.41 2282
1679.78 1158.32 2245
1661.13 1141.81 2213
1640.06 1123.75 2178
1645.27 1123.75 2178
1629.26 1109.3 2150
1623.76 1102.08 2136
1633.44 1105.17 2142
1638.57 1105.17 2142
-1546.12 1070.39 2065
-1541.18 1070.39 2065
-1536.24 1070.39 2065
-1529.08 1068.84 2062
-1524.15 1068.84 2062
-1519.22 1068.84 2062
-1514.28 1068.84 2062
-1507.89 1067.8 2060
-1502.96 1067.8 2060
-1490.04 1062.1 2049
-1483.69 1061.06 2047
-1478.79 1061.06 2047
-1473.9 1061.06 2047
-1469 1061.06 2047
-1467.69 1063.65 2052
-1484.88 1079.72 2083
-1490.55 1087.5 2098
-1485.54 1087.5 2098
-1493.93 1097.35 2117
-1506.45 1110.31 2142
-1509.03 1116.01 2153
-1503.89 1116.01 2153
-1508.48 1123.26 2167
-1522.73 1137.78 2195
-1519.55 1139.33 2198
-1514.29 1139.33 2198
-1519.34 1147.11 2213
-1517.47 1149.7 2218
-1532.61 1165.25 2248
-1527.24 1165.25 2248
-1521.86 1165.25 2248
-1525.26 1171.99 2261
-1519.85 1171.99 2261
-1514.44 1171.99 2261
-1504.37 1168.36 2254
-1498.98 1168.36 2254
-1493.59 1168.36 2254
-1468.39 1152.81 2224
-1430.83 1127.41 2175
-1412.52 1117.04 2155
-1407.37 1117.04 2155
-1398.96 1114.45 2150
-1389.93 1111.34 2144
-1383.51 1110.31 2142
-1378.39 1110.31 2142
-1369.42 1107.2 2136
-1364.32 1107.2 2136
-1363.03 1110.31 2142
-1357.9 1110.31 2142
-1352.78 1110.31 2142
-1347.66 1110.31 2142
-1342.54 1110.31 2142
-1337.42 1110.31 2142
-1330.43 1108.75 2139
-1323.45 1107.2 2136
-1318.35 1107.2 2136
-1313.24 1107.2 2136
-1308.13 1107.2 2136
-1304.85 1108.75 2139
-1308.24 1116.01 2153
-1309.75 1121.71 2164
-1304.58 1121.71 2164
-1299.4 1121.71 2164
-1294.23 1121.71 2164
-1290.84 1123.26 2167
-1285.66 1123.26 2167
-1280.48 1123.26 2167
-1275.3 1123.26 2167
-1270.11 1123.26 2167
-1263.18 1121.71 2164
-1254.52 1118.6 2158
-1249.36 1118.6 2158
-1247.66 1121.71 2164
-1242.48 1121.71 2164
-1240.17 1124.3 2169
-1234.98 1124.3 2169
-1229.79 1124.3 2169
-1223.48 1123.26 2167
-1218.29 1123.26 2167
-1206.39 1117.04 2155
-1198.45 1114.45 2150
-1193.31 1114.45 2150
-1184.86 1111.34 2144
-1175.33 1107.2 2136
-1162.55 1099.94 2122
-1157.47 1099.94 2122
-1151.31 1098.9 2120
-1143 1095.79 2114
-1133.64 1091.65 2106
-1128.6 1091.65 2106
-1123.57 1091.65 2106
-1118.53 1091.65 2106
-1113.49 1091.65 2106
-1108.46 1091.65 2106
-1103.42 1091.65 2106
-1104.12 1097.35 2117
-1104.77 1103.05 2128
-1099.68 1103.05 2128
-1094.59 1103.05 2128
-1089.51 1103.05 2128
-1084.42 1103.05 2128
-1081.86 1105.64 2133
-1076.76 1105.64 2133
-1074.68 1108.75 2139
-1076.56 1116.01 2153
-1073.9 1118.6 2158
-1068.74 1118.6 2158
-1066.54 1121.71 2164
-1062.84 1123.26 2167
-1061.56 1127.41 2175
-1056.36 1127.41 2175
-1051.16 1127.41 2175
-1048.84 1130.52 2181
-1047.45 1134.67 2189
-1042.22 1134.67 2189
-1039.83 1137.78 2195
-1037.4 1140.89 2201
-1032.14 1140.89 2201
-1026.88 1140.89 2201
-1021.61 1140.89 2201
-1012.2 1136.22 2192
-1006.95 1136.22 2192
-998.97 1133.11 2186
-991.47 1130.52 2181
-986.255 1130.52 2181
-981.039 1130.52 2181
-975.824 1130.52 2181
-969.273 1128.97 2178
-964.065 1128.97 2178
-958.857 1128.97 2178
-953.648 1128.97 2178
-951.053 1132.08 2184
-949.295 1136.22 2192
-944.053 1136.22 2192
-938.812 1136.22 2192
-933.57 1136.22 2192
-927.057 1134.67 2189
-921.823 1134.67 2189
-913.239 1130.52 2181
-906.774 1128.97 2178
-899.082 1125.86 2172
-892.654 1124.3 2169
-887.467 1124.3 2169
-882.28 1124.3 2169
-877.093 1124.3 2169
-867.485 1118.6 2158
-862.324 1118.6 2158
-855.972 1117.04 2155
-850.819 1117.04 2155
-846.843 1118.6 2158
-841.683 1118.6 2158
-836.522 1118.6 2158
-831.362 1118.6 2158
-829.647 1123.26 2167
-824.465 1123.26 2167
-819.283 1123.26 2167
-814.101 1123.26 2167
-808.919 1123.26 2167
-803.737 1123.26 2167
-798.555 1123.26 2167
-794.106 1124.3 2169
-788.919 1124.3 2169
-783.732 1124.3 2169
-778.545 1124.3 2169
-773.359 1124.3 2169
-768.172 1124.3 2169
-762.985 1124.3 2169
-757.799 1124.3 2169
-752.612 1124.3 2169
-747.425 1124.3 2169
-742.238 1124.3 2169
-736.372 1123.26 2167
-731.19 1123.26 2167
-727.683 1125.86 2172
-722.489 1125.86 2172
-717.295 1125.86 2172
-711.118 1124.3 2169
-705.931 1124.3 2169
-700.744 1124.3 2169
-694.916 1123.26 2167
-689.734 1123.26 2167
-684.552 1123.26 2167
-679.37 1123.26 2167
-673.255 1121.71 2164
-668.08 1121.71 2164
-662.906 1121.71 2164
-657.731 1121.71 2164
-652.556 1121.71 2164
-647.381 1121.71 2164
-642.206 1121.71 2164
-637.032 1121.71 2164
-632.733 1123.26 2167
-627.551 1123.26 2167
-622.369 1123.26 2167
-617.187 1123.26 2167
-612.005 1123.26 2167
-606.823 1123.26 2167
-600.808 1121.71 2164
-595.633 1121.71 2164
-591.277 1123.26 2167
-586.095 1123.26 2167
-580.913 1123.26 2167
-575.731 1123.26 2167
-571.076 1124.3 2169
-565.889 1124.3 2169
-560.703 1124.3 2169
-557.052 1127.41 2175
-553.374 1130.52 2181
-548.158 1130.52 2181
-543.69 1132.08 2184
-538.467 1132.08 2184
-533.245 1132.08 2184
-528.022 1132.08 2184
-522.081 1130.52 2181
-516.866 1130.52 2181
-512.823 1133.11 2186
-507.596 1133.11 2186
-503.058 1134.67 2189
-497.823 1134.67 2189
-493.939 1137.78 2195
-488.69 1137.78 2195
-484.102 1139.33 2198
-478.846 1139.33 2198
-473.59 1139.33 2198
-468.334 1139.33 2198
-463.078 1139.33 2198
-459.071 1142.44 2204
-453.801 1142.44 2204
-448.53 1142.44 2204
-443.26 1142.44 2204
-437.393 1140.89 2201
-430.952 1137.78 2195
-425.703 1137.78 2195
-419.305 1134.67 2189
-414.07 1134.67 2189
-408.836 1134.67 2189
-403.601 1134.67 2189
-398.367 1134.67 2189
-391.695 1130.52 2181
-384.885 1125.86 2172
-379.691 1125.86 2172
-373.635 1123.26 2167
-368.453 1123.26 2167
-361.763 1118.6 2158
-356.602 1118.6 2158
-350.953 1117.04 2155
-345.8 1117.04 2155
-340.647 1117.04 2155
-335.493 1117.04 2155
-329.574 1114.45 2150
-324.432 1114.45 2150
-319.737 1116.01 2153
-314.88 1117.04 2155
-309.727 1117.04 2155
-304.574 1117.04 2155
-299.421 1117.04 2155
-294.267 1117.04 2155
-289.114 1117.04 2155
-283.961 1117.04 2155
-279.972 1121.71 2164
-276.956 1130.52 2181
-271.74 1130.52 2181
-266.525 1130.52 2181
-261.31 1130.52 2181
-256.094 1130.52 2181
-251.224 1132.08 2184
-246.001 1132.08 2184
-240.779 1132.08 2184
-234.909 1128.97 2178
-229.701 1128.97 2178
-224.183 1127.41 2175
-218.982 1127.41 2175
-213.781 1127.41 2175
-209.155 1130.52 2181
-203.94 1130.52 2181
-198.724 1130.52 2181
-193.509 1130.52 2181
-188.294 1130.52 2181
-182.826 1128.97 2178
-177.618 1128.97 2178
-172.41 1128.97 2178
-167.201 1128.97 2178
-161.324 1124.3 2169
-156.137 1124.3 2169
-150.811 1123.26 2167
-145.629 1123.26 2167
-139.864 1118.6 2158
-134.704 1118.6 2158
-129.543 1118.6 2158
-124.383 1118.6 2158
-119.388 1120.15 2161
-114.22 1120.15 2161
-109.204 1121.71 2164
-104.174 1123.26 2167
-98.9916 1123.26 2167
-93.8097 1123.26 2167
-88.6277 1123.26 2167
-83.3303 1121.71 2164
-78.1555 1121.71 2164
-72.7783 1118.6 2158
-67.6179 1118.6 2158
-62.3128 1116.01 2153
-57.1643 1116.01 2153
-52.0158 1116.01 2153
-46.8673 1116.01 2153
-41.7576 1117.04 2155
-36.6044 1117.04 2155
-31.4511 1117.04 2155
-26.2978 1117.04 2155
-21.1446 1117.04 2155
-15.9913 1117.04 2155
-10.7576 1108.75 2139
-5.64261 1108.75 2139
111.583 1104.6 2131
116.679 1104.6 2131
121.775 1104.6 2131
126.871 1104.6 2131
132.462 1108.75 2139
137.577 1108.75 2139
143.026 1111.34 2144
148.153 1111.34 2144
154.066 1117.04 2155
159.219 1117.04 2155
164.83 1120.15 2161
169.998 1120.15 2161
176.057 1125.86 2172
181.501 1127.41 2175
186.703 1127.41 2175
191.904 1127.41 2175
198.917 1137.78 2195
204.166 1137.78 2195
209.415 1137.78 2195
214.664 1137.78 2195
219.913 1137.78 2195
225.469 1139.33 2198
230.726 1139.33 2198
235.982 1139.33 2198
242.555 1145.55 2210
248.176 1147.11 2213
253.468 1147.11 2213
258.76 1147.11 2213
264.052 1147.11 2213
269.344 1147.11 2213
274.263 1145.55 2210
279.169 1144 2207
284.06 1142.44 2204
289.33 1142.44 2204
294.2 1140.89 2201
299.055 1139.33 2198
303.895 1137.78 2195
309.144 1137.78 2195
313.964 1136.22 2192
318.04 1132.08 2184
323.559 1133.11 2186
328.786 1133.11 2186
334.014 1133.11 2186
339.241 1133.11 2186
344.153 1132.08 2184
348.416 1128.97 2178
353.624 1128.97 2178
358.833 1128.97 2178
363.539 1127.41 2175
368.232 1125.86 2172
373.426 1125.86 2172
377.225 1121.71 2164
381.34 1118.6 2158
385.963 1117.04 2155
391.116 1117.04 2155
395.35 1114.45 2150
399.932 1112.9 2147
405.066 1112.9 2147
410.201 1112.9 2147
414.754 1111.34 2144
419.881 1111.34 2144
425.008 1111.34 2144
429.734 1110.31 2142
434.856 1110.31 2142
439.978 1110.31 2142
446.14 1112.9 2147
451.904 1114.45 2150
457.683 1116.01 2153
462.832 1116.01 2153
468.415 1117.04 2155
475.546 1121.71 2164
480.721 1121.71 2164
485.896 1121.71 2164
492.205 1124.3 2169
498.768 1127.41 2175
503.969 1127.41 2175
509.17 1127.41 2175
514.371 1127.41 2175
518.855 1125.86 2172
524.773 1127.41 2175
529.974 1127.41 2175
535.175 1127.41 2175
541.867 1130.52 2181
549.089 1134.67 2189
554.324 1134.67 2189
559.558 1134.67 2189
564.793 1134.67 2189
570.027 1134.67 2189
576.05 1136.22 2192
581.292 1136.22 2192
586.534 1136.22 2192
591.776 1136.22 2192
597.017 1136.22 2192
601.435 1134.67 2189
605.284 1132.08 2184
610.506 1132.08 2184
615.729 1132.08 2184
620.951 1132.08 2184
626.174 1132.08 2184
633.709 1136.22 2192
638.951 1136.22 2192
644.193 1136.22 2192
650.323 1137.78 2195
655.572 1137.78 2195
660.821 1137.78 2195
664.25 1134.67 2189
667.955 1132.08 2184
670.403 1127.41 2175
675.604 1127.41 2175
678.927 1124.3 2169
684.114 1124.3 2169
689.301 1124.3 2169
695.448 1125.86 2172
701.61 1127.41 2175
706.811 1127.41 2175
712.012 1127.41 2175
717.213 1127.41 2175
722.414 1127.41 2175
727.615 1127.41 2175
730.121 1123.26 2167
734.285 1121.71 2164
739.46 1121.71 2164
743.602 1120.15 2161
749.809 1121.71 2164
756.031 1123.26 2167
761.915 1124.3 2169
767.102 1124.3 2169
774.425 1127.41 2175
783.569 1133.11 2186
790.961 1136.22 2192
796.203 1136.22 2192
803.639 1139.33 2198
809.999 1140.89 2201
815.262 1140.89 2201
820.525 1140.89 2201
825.789 1140.89 2201
831.052 1140.89 2201
836.315 1140.89 2201
841.578 1140.89 2201
846.842 1140.89 2201
857.525 1148.15 2215
865.159 1151.26 2221
873.997 1155.92 2230
879.33 1155.92 2230
887.043 1159.03 2236
893.587 1160.59 2239
898.941 1160.59 2239
904.295 1160.59 2239
910.868 1162.14 2242
916.23 1162.14 2242
921.591 1162.14 2242
924.471 1159.03 2236
929.818 1159.03 2236
935.165 1159.03 2236
940.512 1159.03 2236
945.859 1159.03 2236
951.206 1159.03 2236
959.12 1162.14 2242
964.481 1162.14 2242
969.843 1162.14 2242
975.204 1162.14 2242
975.317 1155.92 2230
979.33 1154.37 2227
984.656 1154.37 2227
984.647 1148.15 2215
989.049 1147.11 2213
988.95 1140.89 2201
994.213 1140.89 2201
998.114 1139.33 2198
1003.37 1139.33 2198
1004.5 1134.67 2189
1009.73 1134.67 2189
1013.57 1133.11 2186
1017.87 1132.08 2184
1021.69 1130.52 2181
1025.49 1128.97 2178
1030.7 1128.97 2178
1034.48 1127.41 2175
1042.55 1130.52 2181
1050.17 1133.11 2186
1056.84 1134.67 2189
1062.08 1134.67 2189
1071.7 1139.33 2198
1081.36 1144 2207
1095.01 1152.81 2224
1100.33 1152.81 2224
1110.12 1157.48 2233
1121.46 1163.7 2245
1126.83 1163.7 2245
1132.19 1163.7 2245
1137.56 1163.7 2245
1142.93 1163.7 2245
1148.3 1163.7 2245
1149.04 1159.03 2236
1152.84 1157.48 2233
1158.18 1157.48 2233
1165.08 1159.03 2236
1173.57 1162.14 2242
1178.93 1162.14 2242
1185.88 1163.7 2245
1191.25 1163.7 2245
1196.62 1163.7 2245
1201.98 1163.7 2245
1202.51 1159.03 2236
1206.24 1157.48 2233
1211.58 1157.48 2233
1210.38 1151.26 2221
1206.39 1142.44 2204
1206.71 1137.78 2195
1211.96 1137.78 2195
1213.88 1134.67 2189
1212.99 1128.97 2178
1216.52 1127.41 2175
1217.22 1123.26 2167
1222.41 1123.26 2167
1227.59 1123.26 2167
1232.77 1123.26 2167
1237.95 1123.26 2167
1243.13 1123.26 2167
1248.32 1123.26 2167
1245.4 1116.01 2153
1245.32 1111.34 2144
1250.45 1111.34 2144
1254.4 1110.31 2142
1253.06 1104.6 2131
1258.15 1104.6 2131
1263.25 1104.6 2131
1264.77 1101.49 2125
1266.87 1098.9 2120
1276.74 1103.05 2128
1281.83 1103.05 2128
1288.73 1104.6 2131
1293.82 1104.6 2131
1298.92 1104.6 2131
1308.91 1108.75 2139
1315.87 1110.31 2142
1320.99 1110.31 2142
1326.11 1110.31 2142
1331.24 1110.31 2142
1336.36 1110.31 2142
1341.48 1110.31 2142
1340.94 1105.64 2133
1342.89 1103.05 2128
1358.11 1111.34 2144
1367.06 1114.45 2150
1372.2 1114.45 2150
1380.54 1117.04 2155
1394.7 1124.3 2169
1405.69 1128.97 2178
1410.9 1128.97 2178
1420.01 1132.08 2184
1425.23 1132.08 2184
1430.46 1132.08 2184
1435.68 1132.08 2184
1431 1124.3 2169
1428.91 1118.6 2158
1436.06 1120.15 2161
1441.23 1120.15 2161
1488.56 1152.81 2224
1493.88 1152.81 2224
1499.2 1152.81 2224
1504.52 1152.81 2224
1486.08 1134.67 2189
1491.31 1134.67 2189
1510.9 1145.55 2210
1516.19 1145.55 2210
1541.44 1160.59 2239
1546.79 1160.59 2239
1552.14 1160.59 2239
1557.5 1160.59 2239
1556.57 1155.92 2230
1561.9 1155.92 2230
1573.56 1160.59 2239
1600.78 1176.65 2270
1606.2 1176.65 2270
1631.51 1191.17 2298
1641.28 1194.28 2304
1648.94 1195.83 2307
1654.45 1195.83 2307
1659.97 1195.83 2307
1665.49 1195.83 2307
1671 1195.83 2307
1667.8 1189.61 2295
1666 1184.43 2285
1667.07 1181.32 2279
1672.52 1181.32 2279
1677.97 1181.32 2279
1683.42 1181.32 2279
1663.67 1163.7 2245
1645.25 1147.11 2213
1650.54 1147.11 2213
1649.1 1142.44 2204
1617.59 1117.04 2155
1604.67 1104.6 2131
1609.77 1104.6 2131
1612.59 1103.05 2128
1613.12 1099.94 2122
1618.19 1099.94 2122
1623.27 1099.94 2122
-1542.37 1072.74 2060
-1537.45 1072.74 2060
-1532.52 1072.74 2060
-1521.66 1068.57 2052
-1524.15 1073.78 2062
-1519.22 1073.78 2062
-1514.28 1073.78 2062
-1509.35 1073.78 2062
-1504.42 1073.78 2062
-1494.4 1070.13 2055
-1489.49 1070.13 2055
-1482.41 1068.57 2052
-1477.5 1068.57 2052
-1469 1065.97 2047
-1471.26 1071.17 2057
-1477.04 1078.98 2072
-1490.55 1092.52 2098
-1485.54 1092.52 2098
-1490.4 1099.81 2112
-1485.35 1099.81 2112
-1483.8 1102.42 2117
-1478.74 1102.42 2117
-1473.68 1102.42 2117
-1504.69 1129.5 2169
-1517.48 1143.04 2195
-1512.23 1143.04 2195
-1515.22 1149.29 2207
-1514.04 1152.41 2213
-1512.16 1155.01 2218
-1506.86 1155.01 2218
-1521.86 1170.64 2248
-1525.26 1177.41 2261
-1519.85 1177.41 2261
-1514.44 1177.41 2261
-1504.37 1173.76 2254
-1498.98 1173.76 2254
-1493.59 1173.76 2254
-1468.39 1158.14 2224
-1425.57 1128.46 2167
-1412.52 1122.21 2155
-1407.37 1122.21 2155
-1397.01 1118.04 2147
-1388.64 1115.44 2142
-1379.64 1112.31 2136
-1374.53 1112.31 2136
-1367.5 1110.75 2133
-1364.32 1112.31 2136
-1359.21 1112.31 2136
-1354.1 1112.31 2136
-1348.99 1112.31 2136
-1343.88 1112.31 2136
-1338.78 1112.31 2136
-1333.67 1112.31 2136
-1328.56 1112.31 2136
-1321.59 1110.75 2133
-1315.26 1109.71 2131
-1310.16 1109.71 2131
-1305.07 1109.71 2131
-1299.97 1109.71 2131
-1299.74 1113.87 2139
-1301.28 1119.6 2150
-1296.14 1119.6 2150
-1294 1122.21 2155
-1288.85 1122.21 2155
-1285.48 1123.77 2158
-1280.32 1123.77 2158
-1275.16 1123.77 2158
-1270 1123.77 2158
-1264.84 1123.77 2158
-1257.93 1122.21 2155
-1249.87 1119.6 2150
-1247.62 1122.21 2155
-1242.47 1122.21 2155
-1237.31 1122.21 2155
-1233.88 1123.77 2158
-1228.72 1123.77 2158
-1223.55 1123.77 2158
-1216.7 1122.21 2155
-1211.55 1122.21 2155
-1203.59 1119.6 2150
-1195.11 1116.48 2144
-1189.98 1116.48 2144
-1182.09 1113.87 2139
-1170.92 1108.15 2128
-1161.45 1103.98 2120
-1156.38 1103.98 2120
-1145.34 1098.25 2109
-1137.59 1095.65 2104
-1129.33 1092.52 2098
-1124.32 1092.52 2098
-1119.3 1092.52 2098
-1114.28 1092.52 2098
-1109.26 1092.52 2098
-1104.25 1092.52 2098
-1099.23 1092.52 2098
-1098.39 1096.69 2106
-1096.46 1099.81 2112
-1091.41 1099.81 2112
-1086.36 1099.81 2112
-1086.43 1105.02 2122
-1082.89 1106.58 2125
-1077.81 1106.58 2125
-1072.72 1106.58 2125
-1071.66 1110.75 2133
-1076.56 1121.16 2153
-1071.41 1121.16 2153
-1066.27 1121.16 2153
-1062.1 1122.21 2155
-1059.89 1125.33 2161
-1057.65 1128.46 2167
-1052.47 1128.46 2167
-1051.16 1132.62 2175
-1045.95 1132.62 2175
-1043.62 1135.75 2181
-1038.41 1135.75 2181
-1036.98 1139.91 2189
-1034.58 1143.04 2195
-1029.33 1143.04 2195
-1024.08 1143.04 2195
-1017.44 1141.47 2192
-1009.43 1138.35 2186
-1004.2 1138.35 2186
-995.315 1134.18 2178
-988.742 1132.62 2175
-983.541 1132.62 2175
-978.34 1132.62 2175
-973.139 1132.62 2175
-966.603 1131.06 2172
-959.196 1128.46 2167
-954.014 1128.46 2167
-948.832 1128.46 2167
-947.134 1132.62 2175
-941.933 1132.62 2175
-936.732 1132.62 2175
-930.246 1131.06 2172
-925.052 1131.06 2172
-919.858 1131.06 2172
-914.664 1131.06 2172
-908.214 1129.5 2169
-900.945 1126.89 2164
-892.045 1122.21 2155
-888.127 1123.77 2158
-882.966 1123.77 2158
-877.806 1123.77 2158
-872.645 1123.77 2158
-867.485 1123.77 2158
-862.324 1123.77 2158
-855.972 1122.21 2155
-850.819 1122.21 2155
-846.843 1123.77 2158
-841.683 1123.77 2158
-836.522 1123.77 2158
-831.362 1123.77 2158
-829.647 1128.46 2167
-824.465 1128.46 2167
-819.283 1128.46 2167
-814.101 1128.46 2167
-808.919 1128.46 2167
-803.737 1128.46 2167
-798.555 1128.46 2167
-794.106 1129.5 2169
-788.919 1129.5 2169
-783.732 1129.5 2169
-778.545 1129.5 2169
-773.359 1129.5 2169
-768.172 1129.5 2169
-762.985 1129.5 2169
-757.799 1129.5 2169
-752.612 1129.5 2169
-747.425 1129.5 2169
-742.238 1129.5 2169
-736.372 1128.46 2167
-731.19 1128.46 2167
-727.683 1131.06 2172
-722.489 1131.06 2172
-717.295 1131.06 2172
-711.118 1129.5 2169
-705.931 1129.5 2169
-700.744 1129.5 2169
-694.916 1128.46 2167
-689.734 1128.46 2167
-684.552 1128.46 2167
-679.37 1128.46 2167
-673.255 1126.89 2164
-668.08 1126.89 2164
-662.906 1126.89 2164
-657.731 1126.89 2164
-652.556 1126.89 2164
-647.381 1126.89 2164
-642.206 1126.89 2164
-637.032 1126.89 2164
-632.733 1128.46 2167
-627.551 1128.46 2167
-622.369 1128.46 2167
-617.187 1128.46 2167
-612.005 1128.46 2167
-606.823 1128.46 2167
-600.808 1126.89 2164
-595.633 1126.89 2164
-591.277 1128.46 2167
-586.095 1128.46 2167
-580.913 1128.46 2167
-575.731 1128.46 2167
-571.076 1129.5 2169
-565.889 1129.5 2169
-560.703 1129.5 2169
-557.052 1132.62 2175
-553.374 1135.75 2181
-548.158 1135.75 2181
-543.69 1137.31 2184
-538.467 1137.31 2184
-533.245 1137.31 2184
-528.022 1137.31 2184
-522.081 1135.75 2181
-516.866 1135.75 2181
-512.823 1138.35 2186
-507.596 1138.35 2186
-503.058 1139.91 2189
-497.823 1139.91 2189
-493.939 1143.04 2195
-488.69 1143.04 2195
-484.102 1144.6 2198
-478.846 1144.6 2198
-473.59 1144.6 2198
-468.334 1144.6 2198
-463.078 1144.6 2198
-459.071 1147.72 2204
-453.801 1147.72 2204
-448.53 1147.72 2204
-443.26 1147.72 2204
-437.393 1146.16 2201
-430.952 1143.04 2195
-425.703 1143.04 2195
-419.305 1139.91 2189
-414.07 1139.91 2189
-408.836 1139.91 2189
-403.601 1139.91 2189
-398.367 1139.91 2189
-391.695 1135.75 2181
-384.885 1131.06 2172
-379.691 1131.06 2172
-373.635 1128.46 2167
-366.073 1121.16 2153
-360.421 1119.6 2150
-355.28 1119.6 2150
-349.65 1118.04 2147
-344.516 1118.04 2147
-339.382 1118.04 2147
-334.248 1118.04 2147
-328.654 1116.48 2144
-323.527 1116.48 2144
-318.845 1118.04 2147
-314.15 1119.6 2150
-309.008 1119.6 2150
-304.291 1121.16 2153
-299.143 1121.16 2153
-293.994 1121.16 2153
-288.846 1121.16 2153
-283.697 1121.16 2153
-278.807 1122.21 2155
-274.797 1126.89 2164
-269.622 1126.89 2164
-264.448 1126.89 2164
-259.273 1126.89 2164
-254.45 1128.46 2167
-249.268 1128.46 2167
-244.086 1128.46 2167
-238.904 1128.46 2167
-233.722 1128.46 2167
-228.54 1128.46 2167
-222.74 1125.33 2161
-217.572 1125.33 2161
-212.7 1126.89 2164
-207.525 1126.89 2164
-202.35 1126.89 2164
-197.175 1126.89 2164
-192.001 1126.89 2164
-186.826 1126.89 2164
-181.651 1126.89 2164
-176.476 1126.89 2164
-171.539 1128.46 2167
-166.357 1128.46 2167
-161.175 1128.46 2167
-155.561 1125.33 2161
-150.185 1123.77 2158
-145.024 1123.77 2158
-139.67 1122.21 2155
-134.516 1122.21 2155
-129.363 1122.21 2155
-124.21 1122.21 2155
-119.388 1125.33 2161
-114.22 1125.33 2161
-109.204 1126.89 2164
-104.174 1128.46 2167
-98.9916 1128.46 2167
-93.8097 1128.46 2167
-88.6277 1128.46 2167
-83.3303 1126.89 2164
-78.1555 1126.89 2164
-72.6772 1122.21 2155
-67.5239 1122.21 2155
-62.2259 1119.6 2150
-57.0846 1119.6 2150
-51.8709 1118.04 2147
-46.7367 1118.04 2147
-41.7189 1121.16 2153
-36.6044 1122.21 2155
-31.4511 1122.21 2155
-26.2978 1122.21 2155
-21.0661 1118.04 2147
-15.932 1118.04 2147
-10.7576 1113.87 2139
-5.64261 1113.87 2139
111.583 1109.71 2131
116.679 1109.71 2131
121.775 1109.71 2131
126.99 1110.75 2133
132.277 1112.31 2136
137.384 1112.31 2136
142.892 1115.44 2142
148.153 1116.48 2144
153.709 1119.6 2150
159.219 1122.21 2155
164.373 1122.21 2155
169.762 1123.77 2158
174.922 1123.77 2158
181.001 1129.5 2169
186.188 1129.5 2169
191.639 1131.06 2172
196.833 1131.06 2172
202.306 1132.62 2175
207.507 1132.62 2175
212.708 1132.62 2175
218.21 1134.18 2178
223.726 1135.75 2181
228.941 1135.75 2181
235.015 1139.91 2189
240.579 1141.47 2192
246.157 1143.04 2195
251.406 1143.04 2195
256.655 1143.04 2195
261.904 1143.04 2195
267.153 1143.04 2195
271.657 1139.91 2189
276.892 1139.91 2189
