ply
format ascii 1.0
comment File generated
element vertex 2254
property float x
property float y
property float z
end_header
-774.604 1085.44 2380
-768.913 1085.44 2380
-763.221 1085.44 2380
-754.347 1080.88 2370
-748.68 1080.88 2370
-743.012 1080.88 2370
-736.101 1079.05 2366
-728.59 1076.32 2360
-723.866 1077.69 2363
-718.215 1077.69 2363
-712.565 1077.69 2363
-706.914 1077.69 2363
-702.154 1079.05 2366
-697.673 1080.88 2370
-692.006 1080.88 2370
-687.207 1082.25 2373
-681.533 1082.25 2373
-675.858 1082.25 2373
-670.184 1082.25 2373
-660.869 1076.32 2360
-654.115 1074.49 2356
-648.481 1074.49 2356
-642.847 1074.49 2356
-638.295 1076.32 2360
-632.651 1076.32 2360
-627.805 1077.69 2363
-622.154 1077.69 2363
-617.286 1079.05 2366
-613.438 1082.25 2373
-608.532 1083.61 2376
-602.85 1083.61 2376
-597.168 1083.61 2376
-591.487 1083.61 2376
-585.805 1083.61 2376
-580.123 1083.61 2376
-574.441 1083.61 2376
-568.042 1082.25 2373
-562.367 1082.25 2373
-555.05 1079.05 2366
-549.392 1079.05 2366
-543.735 1079.05 2366
-538.077 1079.05 2366
-533.994 1082.25 2373
-528.32 1082.25 2373
-522.645 1082.25 2373
-516.971 1082.25 2373
-511.942 1083.61 2376
-506.261 1083.61 2376
-500.579 1083.61 2376
-494.272 1082.25 2373
-488.598 1082.25 2373
-482.923 1082.25 2373
-477.249 1082.25 2373
-470.978 1080.88 2370
-465.31 1080.88 2370
-458.867 1079.05 2366
-453.209 1079.05 2366
-447.552 1079.05 2366
-441.894 1079.05 2366
-436.236 1079.05 2366
-431.306 1080.88 2370
-425.639 1080.88 2370
-419.971 1080.88 2370
-414.304 1080.88 2370
-408.637 1080.88 2370
-402.969 1080.88 2370
-397.302 1080.88 2370
-391.634 1080.88 2370
-385.967 1080.88 2370
-380.3 1080.88 2370
-374.632 1080.88 2370
-368.342 1079.05 2366
-362.684 1079.05 2366
-358.083 1082.25 2373
-353.448 1085.44 2380
-348.195 1086.81 2383
-342.496 1086.81 2383
-336.798 1086.81 2383
-330.127 1083.61 2376
-324.445 1083.61 2376
-317.958 1080.88 2370
-311.764 1079.05 2366
-306.106 1079.05 2366
-300.448 1079.05 2366
-294.79 1079.05 2366
-289.133 1079.05 2366
-282.756 1076.32 2360
-277.112 1076.32 2360
-271.009 1074.49 2356
-265.037 1073.12 2353
-259.41 1073.12 2353
-254.539 1076.32 2360
-248.895 1076.32 2360
-243.87 1079.05 2366
-238.212 1079.05 2366
-232.554 1079.05 2366
-225.938 1074.49 2356
-220.023 1073.12 2353
-215.581 1079.05 2366
-210.544 1082.25 2373
-204.87 1082.25 2373
-200.37 1088.63 2387
-194.662 1088.63 2387
-188.954 1088.63 2387
-64.8018 1021.13 2239
-59.4477 1021.13 2239
-54.0936 1021.13 2239
-48.7394 1021.13 2239
-43.269 1018.4 2233
-37.9293 1018.4 2233
-32.3706 1011.56 2218
-27.0666 1011.56 2218
-21.7627 1011.56 2218
-16.4588 1011.56 2218
-11.1549 1011.56 2218
-5.85101 1011.56 2218
-0.546355 1010.19 2215
4.75038 1010.19 2215
10.038 1009.28 2213
15.2884 1006.54 2207
20.566 1006.54 2207
25.8436 1006.54 2207
31.079 1005.17 2204
36.2999 1003.8 2201
41.8275 1010.19 2215
47.2519 1012.92 2221
52.563 1012.92 2221
57.8741 1012.92 2221
63.3559 1015.66 2227
68.6813 1015.66 2227
74.0067 1015.66 2227
79.3322 1015.66 2227
84.6576 1015.66 2227
89.6194 1011.56 2218
94.9233 1011.56 2218
99.7301 1006.54 2207
105.008 1006.54 2207
110.135 1005.17 2204
115.563 1006.54 2207
120.841 1006.54 2207
126.118 1006.54 2207
131.753 1009.28 2213
137.169 1010.19 2215
142.466 1010.19 2215
147.962 1011.56 2218
153.266 1011.56 2218
158.57 1011.56 2218
163.874 1011.56 2218
168.797 1009.28 2213
173.853 1007.91 2210
179.381 1009.28 2213
184.673 1009.28 2213
189.964 1009.28 2213
196.492 1015.66 2227
208.795 1050.78 2304
214.305 1050.78 2304
219.814 1050.78 2304
224.15 1045.3 2292
230.232 1048.04 2298
235.727 1048.04 2298
244.582 1062.64 2330
251.227 1067.2 2340
258.579 1074.49 2356
264.213 1074.49 2356
270.648 1077.69 2363
276.299 1077.69 2363
281.95 1077.69 2363
287.6 1077.69 2363
295.361 1085.44 2380
301.431 1086.81 2383
308.419 1091.37 2393
314.141 1091.37 2393
319.863 1091.37 2393
325.586 1091.37 2393
331.308 1091.37 2393
339.002 1097.75 2407
344.758 1097.75 2407
351.534 1100.95 2414
357.898 1102.77 2418
364.132 1104.14 2421
369.921 1104.14 2421
378.504 1112.35 2439
384.336 1112.35 2439
390.168 1112.35 2439
396.001 1112.35 2439
400.68 1109.15 2432
404.156 1102.77 2418
409.938 1102.77 2418
414.516 1099.58 2411
420.282 1099.58 2411
425.34 1097.75 2407
431.096 1097.75 2407
436.852 1097.75 2407
443.344 1099.58 2411
449.109 1099.58 2411
454.874 1099.58 2411
460.64 1099.58 2411
470.468 1109.15 2432
478.438 1114.17 2443
484.28 1114.17 2443
490.121 1114.17 2443
493.73 1109.15 2432
499.546 1109.15 2432
504.53 1107.33 2428
510.336 1107.33 2428
516.143 1107.33 2428
520.444 1104.14 2421
526.233 1104.14 2421
533.561 1107.33 2428
539.367 1107.33 2428
546.745 1110.52 2435
552.568 1110.52 2435
559.308 1112.35 2439
565.14 1112.35 2439
574.25 1118.73 2453
584.373 1126.94 2471
590.281 1126.94 2471
596.19 1126.94 2471
602.099 1126.94 2471
608.008 1126.94 2471
613.917 1126.94 2471
619.074 1125.57 2468
623.962 1123.75 2464
629.854 1123.75 2464
635.747 1123.75 2464
641.639 1123.75 2464
647.531 1123.75 2464
651.567 1120.56 2457
657.442 1120.56 2457
663.318 1120.56 2457
669.193 1120.56 2457
675.069 1120.56 2457
679.835 1118.73 2453
685.701 1118.73 2453
689.594 1115.54 2446
695.443 1115.54 2446
702.439 1117.36 2450
708.297 1117.36 2450
714.156 1117.36 2450
720.015 1117.36 2450
725.874 1117.36 2450
731.732 1117.36 2450
737.591 1117.36 2450
743.45 1117.36 2450
749.308 1117.36 2450
755.167 1117.36 2450
754.192 1107.33 2428
765.632 1115.54 2446
771.482 1115.54 2446
777.331 1115.54 2446
783.18 1115.54 2446
789.029 1115.54 2446
796.178 1117.36 2450
803.019 1118.73 2453
813.831 1125.57 2468
819.733 1125.57 2468
825.634 1125.57 2468
831.536 1125.57 2468
837.438 1125.57 2468
835.822 1115.54 2446
835.477 1107.33 2428
840.244 1105.96 2425
847.089 1107.33 2428
852.895 1107.33 2428
858.702 1107.33 2428
864.508 1107.33 2428
870.314 1107.33 2428
873.594 1104.14 2421
879.383 1104.14 2421
886.635 1105.96 2425
892.434 1105.96 2425
898.233 1105.96 2425
902.541 1104.14 2421
908.33 1104.14 2421
914.119 1104.14 2421
919.909 1104.14 2421
923.021 1100.95 2414
927.64 1099.58 2411
930.695 1096.38 2404
937.613 1097.75 2407
943.368 1097.75 2407
957.405 1107.33 2428
970.352 1115.54 2446
976.201 1115.54 2446
982.05 1115.54 2446
987.899 1115.54 2446
993.748 1115.54 2446
999.597 1115.54 2446
999.692 1109.15 2432
1005.51 1109.15 2432
1014.23 1112.35 2439
1025.92 1118.73 2453
1036.41 1123.75 2464
1042.31 1123.75 2464
1048.2 1123.75 2464
1054.09 1123.75 2464
1059.98 1123.75 2464
1064.58 1122.38 2461
1073.51 1125.57 2468
1082.47 1128.77 2475
1091.91 1132.41 2483
1097.84 1132.41 2483
1105.12 1133.78 2486
1111.06 1133.78 2486
1117.01 1133.78 2486
1122.95 1133.78 2486
1128.89 1133.78 2486
1134.84 1133.78 2486
1144.46 1137.43 2494
1150.42 1137.43 2494
1156.38 1137.43 2494
1163.75 1138.8 2497
1169.72 1138.8 2497
1175.69 1138.8 2497
1181.66 1138.8 2497
1187.63 1138.8 2497
1190.25 1135.61 2490
1196.21 1135.61 2490
1200.23 1133.78 2486
1208.12 1135.61 2490
1216.02 1137.43 2494
1221.99 1137.43 2494
1227.95 1137.43 2494
1233.91 1137.43 2494
1239.88 1137.43 2494
1245.84 1137.43 2494
1249.8 1135.61 2490
1252.22 1132.41 2483
1250.56 1125.57 2468
1256.46 1125.57 2468
1262.36 1125.57 2468
1266.21 1123.75 2464
1266.42 1118.73 2453
1272.29 1118.73 2453
1278.15 1118.73 2453
1284.02 1118.73 2453
1289.89 1118.73 2453
1290.47 1114.17 2443
1300.03 1117.36 2450
1305.88 1117.36 2450
1311.74 1117.36 2450
1317.6 1117.36 2450
1331.02 1123.75 2464
1336.92 1123.75 2464
1346.62 1126.94 2471
1352.53 1126.94 2471
1358.44 1126.94 2471
1364.35 1126.94 2471
1368.59 1125.57 2468
1372.27 1123.75 2464
1378.16 1123.75 2464
1376.19 1117.36 2450
1382.05 1117.36 2450
1389.61 1118.73 2453
1404 1125.57 2468
1413.91 1128.77 2475
1419.82 1128.77 2475
1425.74 1128.77 2475
1431.66 1128.77 2475
1437.58 1128.77 2475
1430.67 1118.73 2453
1430.68 1114.17 2443
1436.52 1114.17 2443
1442.36 1114.17 2443
1443.46 1110.52 2435
1447.5 1109.15 2432
1455.11 1110.52 2435
1471.73 1118.73 2453
1486.63 1125.57 2468
1492.53 1125.57 2468
1505.11 1130.59 2479
1511.04 1130.59 2479
1516.97 1130.59 2479
1522.89 1130.59 2479
1533.14 1133.78 2486
1539.08 1133.78 2486
1545.03 1133.78 2486
1550.97 1133.78 2486
1552.54 1130.59 2479
1560.98 1132.41 2483
1568.81 1133.78 2486
1574.75 1133.78 2486
1585.78 1137.43 2494
1593.66 1138.8 2497
1609.24 1145.64 2512
1615.25 1145.64 2512
1621.26 1145.64 2512
1627.26 1145.64 2512
1633.27 1145.64 2512
1639.28 1145.64 2512
1638.08 1140.62 2501
1636.83 1135.61 2490
1616.39 1117.36 2450
1622.25 1117.36 2450
1628.11 1117.36 2450
1645.98 1125.57 2468
1651.88 1125.57 2468
1657.78 1125.57 2468
1663.68 1125.57 2468
1669.58 1125.57 2468
1677.52 1126.94 2471
1683.43 1126.94 2471
1689.34 1126.94 2471
1693.19 1125.57 2468
1694.27 1122.38 2461
1700.16 1122.38 2461
1706.04 1122.38 2461
1691.75 1109.15 2432
1675.23 1094.56 2400
1671.87 1088.63 2387
1677.58 1088.63 2387
1683.28 1088.63 2387
1684.04 1085.44 2380
1686.89 1083.61 2376
1692.57 1083.61 2376
1696.11 1082.25 2373
1696.76 1079.05 2366
1705.3 1080.88 2370
1713.13 1082.25 2373
1720.98 1083.61 2376
1726.66 1083.61 2376
1732.34 1083.61 2376
1738.03 1083.61 2376
1743.71 1083.61 2376
1744.97 1080.88 2370
1763.2 1088.63 2387
1776.31 1093.19 2397
1789.48 1097.75 2407
1795.24 1097.75 2407
1803.99 1099.58 2411
1833.77 1114.17 2443
1875 1135.61 2490
1880.96 1135.61 2490
1886.91 1135.61 2490
1889.83 1133.78 2486
1915.6 1145.64 2512
1921.61 1145.64 2512
-1703.84 1074.18 2343
-1698.23 1074.18 2343
-1692.63 1074.18 2343
-1687.03 1074.18 2343
-1672.1 1068.22 2330
-1666.52 1068.22 2330
-1660.95 1068.22 2330
-1655.38 1068.22 2330
-1649.81 1068.22 2330
-1644.24 1068.22 2330
-1638.67 1068.22 2330
-1616.97 1057.67 2307
-1593.99 1046.21 2282
-1580.18 1040.71 2270
-1574.75 1040.71 2270
-1567.25 1039.33 2267
-1581.12 1052.17 2295
-1588.68 1060.88 2314
-1585.2 1062.26 2317
-1579.66 1062.26 2317
-1574.12 1062.26 2317
-1586.18 1074.18 2343
-1594.07 1083.35 2363
-1588.42 1083.35 2363
-1582.76 1083.35 2363
-1577.11 1083.35 2363
-1571.46 1083.35 2363
-1477.42 1033.37 2254
-1476.6 1036.58 2261
-1471.19 1036.58 2261
-1475.51 1043.46 2276
-1480.4 1050.8 2292
-1484.57 1057.67 2307
-1479.05 1057.67 2307
-1473.54 1057.67 2307
-1466.11 1056.3 2304
-1462.5 1057.67 2307
-1456.99 1057.67 2307
-1451.47 1057.67 2307
-1444.07 1056.3 2304
-1438.56 1056.3 2304
-1427.46 1052.17 2295
-1413.91 1046.21 2282
-1406.61 1044.84 2279
-1401.16 1044.84 2279
-1388.36 1039.33 2267
-1376.84 1034.75 2257
-1365.97 1030.62 2248
-1375.72 1042.08 2273
-1370.29 1042.08 2273
-1366.66 1043.46 2276
-1361.21 1043.46 2276
-1355.77 1043.46 2276
-1350.33 1043.46 2276
-1341.34 1040.71 2270
-1328.26 1034.75 2257
-1322.86 1034.75 2257
-1305.21 1025.12 2236
-1258.01 992.112 2164
-1251.09 990.737 2161
-1245.93 990.737 2161
-1311.64 1074.18 2343
-1311.61 1078.76 2353
-1305.98 1078.76 2353
-1307.54 1084.72 2366
-1301.88 1084.72 2366
-1296.23 1084.72 2366
-1290.57 1084.72 2366
-1281.65 1081.97 2360
-1292.23 1095.72 2390
-1290.28 1098.93 2397
-1284.55 1098.93 2397
-1284.15 1103.52 2407
-1282.11 1106.73 2414
-1276.34 1106.73 2414
-1270.57 1106.73 2414
-1244.89 1089.31 2376
-1233.99 1084.72 2366
-1228.33 1084.72 2366
-1217.51 1080.14 2356
-1211.87 1080.14 2356
-1223.65 1095.72 2390
-1219.46 1097.1 2393
-1213.74 1097.1 2393
-1208.01 1097.1 2393
-1199.28 1094.35 2387
-1193.57 1094.35 2387
-1180.89 1087.93 2373
-1180.17 1092.52 2383
-1181.37 1098.93 2397
-1182.51 1105.35 2411
-1176.74 1105.35 2411
-1170.98 1105.35 2411
-1158.45 1098.93 2397
-1152.71 1098.93 2397
-1143.63 1095.72 2390
-1147.92 1105.35 2411
-1155.41 1118.19 2439
-1151.47 1120.02 2443
-1145.63 1120.02 2443
-1139.78 1120.02 2443
-1133.94 1120.02 2443
-1128.1 1120.02 2443
-1115.37 1113.15 2428
-1106.36 1109.94 2421
-1100.57 1109.94 2421
-1094.78 1109.94 2421
-1088.99 1109.94 2421
-1084.99 1111.77 2425
-1079.2 1111.77 2425
-1073.4 1111.77 2425
-1061.43 1105.35 2411
-1046.47 1095.72 2390
-1030.31 1084.72 2366
-1024.65 1084.72 2366
-1018.99 1084.72 2366
-1013.33 1084.72 2366
-1007.68 1084.72 2366
-1002.02 1084.72 2366
-996.36 1084.72 2366
-985.259 1078.76 2353
-974.22 1072.8 2340
-968.625 1072.8 2340
-963.029 1072.8 2340
-957.433 1072.8 2340
-951.838 1072.8 2340
-945.029 1071.43 2337
-939.44 1071.43 2337
-932.253 1069.59 2333
-924.291 1066.84 2327
-914.779 1062.26 2317
-909.238 1062.26 2317
-903.697 1062.26 2317
-902.033 1066.84 2327
-897.624 1068.22 2330
-895.881 1072.8 2340
-890.285 1072.8 2340
-884.69 1072.8 2340
-881.348 1075.55 2346
-875.738 1075.55 2346
-870.128 1075.55 2346
-867.098 1078.76 2353
-864.034 1081.97 2360
-858.39 1081.97 2360
-852.747 1081.97 2360
-845.668 1080.14 2356
-840.034 1080.14 2356
-836.879 1083.35 2363
-831.228 1083.35 2363
-828.023 1086.56 2370
-822.356 1086.56 2370
-817.722 1087.93 2373
-812.048 1087.93 2373
-807.393 1089.31 2376
-801.711 1089.31 2376
-796.029 1089.31 2376
-790.347 1089.31 2376
-783.675 1087.93 2373
-778 1087.93 2373
-771.349 1086.56 2370
-765.682 1086.56 2370
-758.732 1084.72 2366
-752.119 1083.35 2363
-746.469 1083.35 2363
-740.818 1083.35 2363
-732.056 1078.76 2353
-725.503 1077.39 2350
-718.658 1075.55 2346
-713.048 1075.55 2346
-707.438 1075.55 2346
-701.828 1075.55 2346
-697.405 1077.39 2350
-692.669 1078.76 2353
-687.042 1078.76 2353
-681.415 1078.76 2353
-675.789 1078.76 2353
-670.162 1078.76 2353
-664.535 1078.76 2353
-658.068 1077.39 2350
-649.672 1072.8 2340
-644.903 1074.18 2343
-639.3 1074.18 2343
-634.508 1075.55 2346
-628.898 1075.55 2346
-623.288 1075.55 2346
-617.678 1075.55 2346
-613.895 1078.76 2353
-609.043 1080.14 2356
-604.434 1081.97 2360
-598.791 1081.97 2360
-593.901 1083.35 2363
-588.25 1083.35 2363
-582.6 1083.35 2363
-576.949 1083.35 2363
-571.298 1083.35 2363
-564.93 1081.97 2360
-558.338 1080.14 2356
-552.704 1080.14 2356
-547.07 1080.14 2356
-542.356 1081.97 2360
-536.712 1081.97 2360
-531.744 1083.35 2363
-526.093 1083.35 2363
-521.103 1084.72 2366
-515.445 1084.72 2366
-510.65 1086.56 2370
-504.982 1086.56 2370
-499.947 1087.93 2373
-494.272 1087.93 2373
-488.598 1087.93 2373
-482.313 1086.56 2370
-475.841 1084.72 2366
-469.587 1083.35 2363
-463.936 1083.35 2363
-458.285 1083.35 2363
-452.635 1083.35 2363
-446.984 1083.35 2363
-441.333 1083.35 2363
-435.683 1083.35 2363
-430.578 1084.72 2366
-424.92 1084.72 2366
-419.263 1084.72 2366
-413.08 1083.35 2363
-407.43 1083.35 2363
-401.779 1083.35 2363
-396.128 1083.35 2363
-390.478 1083.35 2363
-384.338 1081.97 2360
-378.695 1081.97 2360
-373.051 1081.97 2360
-367.408 1081.97 2360
-361.765 1081.97 2360
-357.026 1084.72 2366
-352.408 1087.93 2373
-346.734 1087.93 2373
-341.059 1087.93 2373
-335.384 1087.93 2373
-329.293 1086.56 2370
-323.626 1086.56 2370
-316.08 1080.14 2356
-309.656 1077.39 2350
-304.036 1077.39 2350
-298.416 1077.39 2350
-292.797 1077.39 2350
-287.177 1077.39 2350
-281.079 1075.55 2346
-275.469 1075.55 2346
-269.859 1075.55 2346
-263.235 1071.43 2337
-257.646 1071.43 2337
-252.705 1074.18 2343
-247.102 1074.18 2343
-241.499 1074.18 2343
-235.896 1074.18 2343
-230.294 1074.18 2343
-224.115 1071.43 2337
-218.527 1071.43 2337
-213.485 1074.18 2343
-208.149 1075.55 2346
-202.539 1075.55 2346
-196.929 1075.55 2346
-191.319 1075.55 2346
-185.709 1075.55 2346
-59.2884 1023.75 2233
-53.9486 1023.75 2233
-48.6088 1023.75 2233
-43.2109 1022.37 2230
-37.8783 1022.37 2230
-32.1662 1010.45 2204
-26.9324 1011.83 2207
-21.6548 1011.83 2207
-16.3995 1013.2 2210
-11.1147 1013.2 2210
-5.8299 1013.2 2210
-0.542902 1009.08 2201
4.72036 1009.08 2201
9.98361 1009.08 2201
15.2053 1006.32 2195
20.4263 1004.95 2192
25.668 1004.95 2192
30.9097 1004.95 2192
36.1515 1004.95 2192
41.5632 1009.08 2201
47.1243 1015.49 2215
52.421 1015.49 2215
57.7177 1015.49 2215
63.1852 1018.24 2221
68.5888 1019.62 2224
73.907 1019.62 2224
79.2253 1019.62 2224
84.4295 1018.24 2221
89.4982 1015.49 2215
94.7949 1015.49 2215
99.5946 1010.45 2204
104.722 1009.08 2201
109.986 1009.08 2201
115.249 1009.08 2201
120.512 1009.08 2201
126.118 1011.83 2207
131.396 1011.83 2207
137.169 1015.49 2215
142.466 1015.49 2215
147.962 1016.87 2218
153.266 1016.87 2218
158.57 1016.87 2218
208.795 1056.3 2304
214.305 1056.3 2304
219.814 1056.3 2304
224.15 1050.8 2292
229.631 1050.8 2292
235.112 1050.8 2292
244.267 1066.84 2327
250.905 1071.43 2337
257.481 1075.55 2346
263.091 1075.55 2346
270.305 1081.97 2360
275.948 1081.97 2360
281.95 1083.35 2363
287.6 1083.35 2363
294.864 1089.31 2376
301.052 1091.14 2380
307.13 1092.52 2383
312.828 1092.52 2383
318.527 1092.52 2383
323.817 1091.14 2380
329.508 1091.14 2380
338.017 1100.31 2400
343.756 1100.31 2400
350.514 1103.52 2407
356.27 1103.52 2407
362.026 1103.52 2407
367.782 1103.52 2407
374.158 1105.35 2411
380.397 1106.73 2414
386.169 1106.73 2414
391.942 1106.73 2414
397.714 1106.73 2414
400.646 1098.93 2397
406.377 1098.93 2397
410.906 1095.72 2390
415.401 1092.52 2383
420.569 1091.14 2380
426.261 1091.14 2380
431.226 1089.31 2376
436.356 1087.93 2373
442.589 1089.31 2376
450.912 1095.72 2390
457.201 1097.1 2393
462.923 1097.1 2393
469.429 1098.93 2397
475.161 1098.93 2397
481.495 1100.31 2400
487.234 1100.31 2400
492.973 1100.31 2400
498.089 1098.93 2397
503.821 1098.93 2397
509.553 1098.93 2397
515.285 1098.93 2397
521.669 1100.31 2400
528.946 1103.52 2407
534.702 1103.52 2407
542.029 1106.73 2414
547.802 1106.73 2414
555.18 1109.94 2421
560.969 1109.94 2421
570.036 1116.36 2435
578.46 1121.4 2446
585.982 1124.61 2453
591.847 1124.61 2453
597.713 1124.61 2453
603.579 1124.61 2453
609.445 1124.61 2453
614.558 1123.23 2450
621.177 1124.61 2453
627.043 1124.61 2453
632.909 1124.61 2453
638.774 1124.61 2453
640.961 1118.19 2439
645.733 1116.36 2435
651.556 1116.36 2435
658.458 1118.19 2439
664.291 1118.19 2439
670.123 1118.19 2439
675.955 1118.19 2439
681.788 1118.19 2439
683.673 1111.77 2425
692.315 1116.36 2435
698.138 1116.36 2435
703.961 1116.36 2435
709.784 1116.36 2435
713.549 1113.15 2428
717.282 1109.94 2421
723.071 1109.94 2421
728.86 1109.94 2421
735.863 1111.77 2425
741.662 1111.77 2425
748.386 1113.15 2428
754.192 1113.15 2428
765.632 1121.4 2446
771.482 1121.4 2446
777.331 1121.4 2446
783.18 1121.4 2446
789.029 1121.4 2446
796.178 1123.23 2450
803.019 1124.61 2453
813.831 1131.48 2468
819.733 1131.48 2468
825.634 1131.48 2468
831.536 1131.48 2468
837.438 1131.48 2468
835.822 1121.4 2446
835.477 1113.15 2428
840.244 1111.77 2425
847.089 1113.15 2428
852.895 1113.15 2428
858.702 1113.15 2428
864.508 1113.15 2428
870.314 1113.15 2428
873.594 1109.94 2421
879.383 1109.94 2421
886.635 1111.77 2425
892.434 1111.77 2425
898.233 1111.77 2425
902.541 1109.94 2421
908.33 1109.94 2421
914.119 1109.94 2421
919.909 1109.94 2421
923.021 1106.73 2414
927.64 1105.35 2411
930.695 1102.14 2404
937.613 1103.52 2407
943.368 1103.52 2407
957.405 1113.15 2428
970.352 1121.4 2446
976.201 1121.4 2446
982.05 1121.4 2446
987.899 1121.4 2446
993.748 1121.4 2446
999.597 1121.4 2446
999.692 1114.98 2432
1005.51 1114.98 2432
1014.23 1118.19 2439
1025.92 1124.61 2453
1036.41 1129.65 2464
1042.31 1129.65 2464
1048.2 1129.65 2464
1054.09 1129.65 2464
1059.98 1129.65 2464
1064.58 1128.28 2461
1073.51 1131.48 2468
1082.47 1134.69 2475
1091.91 1138.36 2483
1097.84 1138.36 2483
1105.12 1139.74 2486
1111.06 1139.74 2486
1117.01 1139.74 2486
1122.95 1139.74 2486
1128.89 1139.74 2486
1134.84 1139.74 2486
1144.46 1143.4 2494
1150.42 1143.4 2494
1156.38 1143.4 2494
1163.75 1144.78 2497
1169.72 1144.78 2497
1175.69 1144.78 2497
1181.66 1144.78 2497
1187.63 1144.78 2497
1190.25 1141.57 2490
1196.21 1141.57 2490
1200.23 1139.74 2486
1208.12 1141.57 2490
1216.02 1143.4 2494
1221.99 1143.4 2494
1227.95 1143.4 2494
1233.91 1143.4 2494
1239.88 1143.4 2494
1245.84 1143.4 2494
1249.8 1141.57 2490
1252.22 1138.36 2483
1250.56 1131.48 2468
1256.46 1131.48 2468
1262.36 1131.48 2468
1266.21 1129.65 2464
1266.42 1124.61 2453
1272.29 1124.61 2453
1278.15 1124.61 2453
1284.02 1124.61 2453
1289.89 1124.61 2453
1290.47 1120.02 2443
1300.03 1123.23 2450
1305.88 1123.23 2450
1311.74 1123.23 2450
1317.6 1123.23 2450
1331.02 1129.65 2464
1336.92 1129.65 2464
1346.62 1132.86 2471
1352.53 1132.86 2471
1358.44 1132.86 2471
1364.35 1132.86 2471
1368.59 1131.48 2468
1372.27 1129.65 2464
1378.16 1129.65 2464
1359.9 1109.94 2421
1365.69 1109.94 2421
1373.74 1111.77 2425
1383.52 1114.98 2432
1391.05 1116.36 2435
1396.88 1116.36 2435
1402.7 1116.36 2435
1406.79 1114.98 2432
1412.6 1114.98 2432
1418.42 1114.98 2432
1424.23 1114.98 2432
1430.05 1114.98 2432
1435.87 1114.98 2432
1439.31 1113.15 2428
1445.12 1113.15 2428
1453.31 1114.98 2432
1463.33 1118.19 2439
1486.63 1131.48 2468
1492.53 1131.48 2468
1505.11 1136.53 2479
1511.04 1136.53 2479
1516.97 1136.53 2479
1522.89 1136.53 2479
1533.14 1139.74 2486
1539.08 1139.74 2486
1545.03 1139.74 2486
1546.61 1136.53 2479
1550.03 1134.69 2475
1560.98 1138.36 2483
1568.81 1139.74 2486
1574.75 1139.74 2486
1580.7 1139.74 2486
1591.75 1143.4 2494
1599.63 1144.78 2497
1605.61 1144.78 2497
1616.74 1148.45 2505
1622.73 1148.45 2505
1628.72 1148.45 2505
1632.1 1146.61 2501
1630.88 1141.57 2490
1619.74 1129.65 2464
1604.52 1114.98 2432
1610.33 1114.98 2432
1616.15 1114.98 2432
1626.63 1118.19 2439
1632.47 1118.19 2439
1640.99 1120.02 2443
1646.83 1120.02 2443
1659.44 1124.61 2453
1670.73 1128.28 2461
1676.62 1128.28 2461
1682.5 1128.28 2461
1673.29 1118.19 2439
1674.31 1114.98 2432
1680.12 1114.98 2432
1685.94 1114.98 2432
1679.23 1106.73 2414
1675.23 1100.31 2400
1671.87 1094.35 2387
1677.58 1094.35 2387
1683.28 1094.35 2387
1684.04 1091.14 2380
1684.76 1087.93 2373
1690.43 1087.93 2373
1693.96 1086.56 2370
1699.63 1086.56 2370
1705.3 1086.56 2370
1713.13 1087.93 2373
1720.98 1089.31 2376
1726.66 1089.31 2376
1732.34 1089.31 2376
1738.03 1089.31 2376
1743.71 1089.31 2376
1744.97 1086.56 2370
1758.03 1091.14 2380
1773.35 1097.1 2393
1784.28 1100.31 2400
1790.02 1100.31 2400
1795.75 1100.31 2400
1804.5 1102.14 2404
1858.44 1131.48 2468
1864.34 1131.48 2468
1870.24 1131.48 2468
1889.83 1139.74 2486
1913.31 1150.28 2509
1919.31 1150.28 2509
-1683.74 1070.57 2323
-1683.24 1073.8 2330
-1677.67 1073.8 2330
-1672.1 1073.8 2330
-1666.52 1073.8 2330
-1660.95 1073.8 2330
-1655.38 1073.8 2330
-1649.81 1073.8 2330
-1644.24 1073.8 2330
-1638.67 1073.8 2330
-1616.97 1063.2 2307
-1593.99 1051.68 2282
-1580.18 1046.15 2270
-1574.75 1046.15 2270
-1567.25 1044.76 2267
-1581.12 1057.67 2295
-1588.68 1066.42 2314
-1585.2 1067.81 2317
-1579.66 1067.81 2317
-1574.12 1067.81 2317
-1575.35 1072.42 2327
-1589.34 1085.78 2356
-1583.71 1085.78 2356
-1582.76 1089.01 2363
-1577.11 1089.01 2363
-1571.46 1089.01 2363
-1477.42 1038.77 2254
-1476.6 1042 2261
-1471.19 1042 2261
-1475.51 1048.91 2276
-1480.4 1056.29 2292
-1484.57 1063.2 2307
-1479.05 1063.2 2307
-1473.54 1063.2 2307
-1466.11 1061.82 2304
-1462.5 1063.2 2307
-1456.99 1063.2 2307
-1451.47 1063.2 2307
-1444.07 1061.82 2304
-1438.56 1061.82 2304
-1427.46 1057.67 2295
-1413.91 1051.68 2282
-1401.05 1046.15 2270
-1395.62 1046.15 2270
-1382.23 1040.16 2257
-1373.18 1037.39 2251
-1347.74 1022.18 2218
-1375.72 1047.53 2273
-1370.29 1047.53 2273
-1366.66 1048.91 2276
-1361.21 1048.91 2276
-1355.77 1048.91 2276
-1350.33 1048.91 2276
-1341.34 1046.15 2270
-1328.26 1040.16 2257
-1322.86 1040.16 2257
-1305.21 1030.48 2236
-1258.01 997.296 2164
-1311.64 1079.79 2343
-1307.71 1081.17 2346
-1302.1 1081.17 2346
-1300.36 1084.4 2353
-1298.58 1087.62 2360
-1292.94 1087.62 2360
-1287.29 1087.62 2360
-1277.85 1084.4 2353
-1276.01 1087.62 2360
-1278.98 1095 2376
-1273.29 1095 2376
-1267.61 1095 2376
-1261.93 1095 2376
-1256.25 1095 2376
-1250.57 1095 2376
-1239.65 1090.39 2366
-1227.21 1084.4 2353
-1221.58 1084.4 2353
-1214.41 1083.02 2350
-1211.87 1085.78 2356
-1218.53 1096.84 2380
-1216.4 1100.07 2387
-1210.69 1100.07 2387
-1204.99 1100.07 2387
-1195.76 1096.84 2380
-1190.07 1096.84 2380
-1184.38 1096.84 2380
-1183.64 1101.45 2390
-1182.85 1106.06 2400
-1182.51 1111.13 2411
-1176.74 1111.13 2411
-1170.98 1111.13 2411
-1158.45 1104.68 2397
-1152.71 1104.68 2397
-1143.63 1101.45 2390
-1147.92 1111.13 2411
-1155.41 1124.03 2439
-1151.47 1125.88 2443
-1145.63 1125.88 2443
-1139.78 1125.88 2443
-1133.94 1125.88 2443
-1128.1 1125.88 2443
-1115.37 1118.96 2428
-1106.36 1115.74 2421
-1100.57 1115.74 2421
-1094.78 1115.74 2421
-1088.99 1115.74 2421
-1084.99 1117.58 2425
-1079.2 1117.58 2425
-1073.4 1117.58 2425
-1061.43 1111.13 2411
-1046.47 1101.45 2390
-1030.31 1090.39 2366
-1024.65 1090.39 2366
-1018.99 1090.39 2366
-1013.33 1090.39 2366
-1007.68 1090.39 2366
-1002.02 1090.39 2366
-996.36 1090.39 2366
-985.259 1084.4 2353
-974.22 1078.41 2340
-968.625 1078.41 2340
-963.029 1078.41 2340
-957.433 1078.41 2340
-951.838 1078.41 2340
-945.029 1077.02 2337
-939.44 1077.02 2337
-932.253 1075.18 2333
-924.291 1072.42 2327
-914.779 1067.81 2317
-909.238 1067.81 2317
-903.697 1067.81 2317
-902.033 1072.42 2327
-897.624 1073.8 2330
-895.881 1078.41 2340
-890.285 1078.41 2340
-884.69 1078.41 2340
-881.348 1081.17 2346
-875.738 1081.17 2346
-870.128 1081.17 2346
-867.098 1084.4 2353
-864.034 1087.62 2360
-858.39 1087.62 2360
-852.747 1087.62 2360
-845.668 1085.78 2356
-840.034 1085.78 2356
-836.879 1089.01 2363
-831.228 1089.01 2363
-828.023 1092.23 2370
-822.356 1092.23 2370
-817.722 1093.62 2373
-812.048 1093.62 2373
-807.393 1095 2376
-801.711 1095 2376
-796.029 1095 2376
-790.347 1095 2376
-783.675 1093.62 2373
-778 1093.62 2373
-771.349 1092.23 2370
-765.682 1092.23 2370
-758.732 1090.39 2366
-752.119 1089.01 2363
-746.469 1089.01 2363
-740.818 1089.01 2363
-732.056 1084.4 2353
-725.503 1083.02 2350
-718.658 1081.17 2346
-713.048 1081.17 2346
-707.438 1081.17 2346
-701.828 1081.17 2346
-697.405 1083.02 2350
-692.669 1084.4 2353
-687.042 1084.4 2353
-681.415 1084.4 2353
-675.789 1084.4 2353
-670.162 1084.4 2353
-664.535 1084.4 2353
-658.068 1083.02 2350
-649.672 1078.41 2340
-644.903 1079.79 2343
-639.3 1079.79 2343
-634.508 1081.17 2346
-628.898 1081.17 2346
-623.288 1081.17 2346
-617.678 1081.17 2346
-613.895 1084.4 2353
-609.043 1085.78 2356
-604.434 1087.62 2360
-598.791 1087.62 2360
-593.901 1089.01 2363
-588.25 1089.01 2363
-582.6 1089.01 2363
-576.949 1089.01 2363
-571.298 1089.01 2363
-564.93 1087.62 2360
-556.916 1083.02 2350
-551.297 1083.02 2350
-545.677 1083.02 2350
-540.747 1084.4 2353
-535.803 1085.78 2356
-531.069 1087.62 2360
-525.425 1087.62 2360
-519.782 1087.62 2360
-514.138 1087.62 2360
-508.495 1087.62 2360
-502.851 1087.62 2360
-497.208 1087.62 2360
-491.564 1087.62 2360
-485.921 1087.62 2360
-480.278 1087.62 2360
-474.634 1087.62 2360
-468.991 1087.62 2360
-463.347 1087.62 2360
-456.928 1085.78 2356
-452.06 1087.62 2360
-446.417 1087.62 2360
-440.773 1087.62 2360
-435.13 1087.62 2360
-429.486 1087.62 2360
-423.124 1085.78 2356
-417.49 1085.78 2356
-411.857 1085.78 2356
-405.705 1084.4 2353
-400.079 1084.4 2353
-394.452 1084.4 2353
-388.329 1083.02 2350
-382.71 1083.02 2350
-377.09 1083.02 2350
-371.471 1083.02 2350
-365.228 1081.17 2346
-359.618 1081.17 2346
-355.517 1085.78 2356
-349.884 1085.78 2356
-344.25 1085.78 2356
-338.616 1085.78 2356
-332.982 1085.78 2356
-326.514 1083.02 2350
-320.895 1083.02 2350
-312.994 1075.18 2333
-306.098 1070.57 2323
-300.543 1070.57 2323
-295.496 1072.42 2327
-289.931 1072.42 2327
-284.367 1072.42 2327
-278.802 1072.42 2327
-273.238 1072.42 2327
-267.673 1072.42 2327
-261.32 1069.19 2320
-255.441 1067.81 2317
-250.224 1069.19 2320
-244.676 1069.19 2320
-239.129 1069.19 2320
-233.581 1069.19 2320
-228.033 1069.19 2320
-222.197 1067.81 2317
-216.657 1067.81 2317
-212.027 1072.42 2327
-206.729 1073.8 2330
-201.157 1073.8 2330
-195.585 1073.8 2330
-190.014 1073.8 2330
-184.205 1072.42 2327
-178.64 1072.42 2327
-59.2087 1027.71 2230
-53.8761 1027.71 2230
-48.5435 1027.71 2230
-43.2109 1027.71 2230
-37.8783 1027.71 2230
-31.9911 1010.2 2192
-26.786 1011.58 2195
-21.5371 1011.58 2195
-16.3327 1014.35 2201
-11.0694 1014.35 2201
-5.80616 1014.35 2201
-0.541422 1011.58 2195
4.70749 1011.58 2195
9.9564 1011.58 2195
15.1845 1010.2 2192
20.3704 1007.43 2186
25.5977 1007.43 2186
30.8251 1007.43 2186
36.0525 1007.43 2186
41.3932 1010.2 2192
46.8264 1014.35 2201
52.3027 1018.5 2210
57.5875 1018.5 2210
62.9576 1019.88 2213
68.4963 1023.57 2221
73.8073 1023.57 2221
79.1184 1023.57 2221
84.4295 1023.57 2221
89.1749 1017.11 2207
94.4525 1017.11 2207
99.5946 1015.73 2204
104.722 1014.35 2201
109.386 1008.82 2189
114.62 1008.82 2189
199.139 1040.16 2257
208.795 1061.82 2304
214.305 1061.82 2304
219.814 1061.82 2304
224.15 1056.29 2292
229.631 1056.29 2292
235.112 1056.29 2292
244.267 1072.42 2327
250.905 1077.02 2337
256.823 1078.41 2340
262.418 1078.41 2340
269.503 1084.4 2353
275.48 1085.78 2356
281.592 1087.62 2360
287.235 1087.62 2360
294.12 1092.23 2370
300.546 1095 2376
306.743 1096.84 2380
312.435 1096.84 2380
318.126 1096.84 2380
323.273 1095 2376
329.508 1096.84 2380
335.622 1098.22 2383
341.321 1098.22 2383
348.475 1102.83 2393
354.198 1102.83 2393
359.92 1102.83 2393
365.184 1101.45 2390
370.899 1101.45 2390
376.615 1101.45 2390
382.33 1101.45 2390
388.045 1101.45 2390
393.76 1101.45 2390
398.974 1100.07 2387
404.682 1100.07 2387
409.702 1098.22 2383
414.878 1096.84 2380
418.095 1090.39 2366
423.753 1090.39 2366
428.866 1089.01 2363
433.965 1087.62 2360
439.609 1087.62 2360
447.705 1093.62 2373
454.717 1096.84 2380
460.408 1096.84 2380
466.1 1096.84 2380
472.386 1098.22 2383
480.09 1102.83 2393
485.813 1102.83 2393
491.535 1102.83 2393
497.258 1102.83 2393
502.98 1102.83 2393
507.427 1100.07 2387
513.135 1100.07 2387
519.495 1101.45 2390
525.21 1101.45 2390
530.925 1101.45 2390
538.886 1106.06 2400
546.214 1109.28 2407
551.969 1109.28 2407
557.725 1109.28 2407
564.418 1111.13 2411
573.494 1117.58 2425
582.637 1124.03 2439
588.47 1124.03 2439
594.302 1124.03 2439
600.134 1124.03 2439
605.967 1124.03 2439
610.796 1122.19 2435
615.859 1120.81 2432
620.652 1118.96 2428
626.458 1118.96 2428
632.264 1118.96 2428
638.07 1118.96 2428
641.225 1114.35 2418
647.007 1114.35 2418
653.599 1115.74 2421
659.388 1115.74 2421
665.177 1115.74 2421
670.967 1115.74 2421
676.756 1115.74 2421
679.726 1111.13 2411
688.335 1115.74 2421
694.124 1115.74 2421
699.914 1115.74 2421
705.703 1115.74 2421
711.492 1115.74 2421
714.319 1111.13 2411
720.084 1111.13 2411
725.85 1111.13 2411
733.739 1114.35 2418
739.521 1114.35 2418
747.461 1117.58 2425
754.192 1118.96 2428
759.998 1118.96 2428
768.012 1122.19 2435
773.835 1122.19 2435
779.658 1122.19 2435
785.48 1122.19 2435
788.054 1117.58 2425
794.835 1118.96 2428
802.949 1122.19 2435
808.772 1122.19 2435
814.595 1122.19 2435
820.417 1122.19 2435
826.24 1122.19 2435
828.646 1117.58 2425
827.219 1107.9 2404
831.581 1106.06 2400
837.321 1106.06 2400
843.06 1106.06 2400
848.799 1106.06 2400
854.538 1106.06 2400
860.277 1106.06 2400
863.49 1102.83 2393
869.213 1102.83 2393
873.838 1101.45 2390
879.553 1101.45 2390
886.38 1102.83 2393
892.102 1102.83 2393
900.451 1106.06 2400
906.19 1106.06 2400
911.929 1106.06 2400
917.668 1106.06 2400
922.253 1104.68 2397
927.985 1104.68 2397
934.886 1106.06 2400
940.625 1106.06 2400
949.124 1109.28 2407
963.211 1118.96 2428
969.017 1118.96 2428
974.823 1118.96 2428
980.629 1118.96 2428
985.217 1117.58 2425
991.015 1117.58 2425
993.937 1114.35 2418
999.719 1114.35 2418
1012.57 1122.19 2435
1024.67 1129.1 2450
1033.47 1132.33 2457
1039.35 1132.33 2457
1045.22 1132.33 2457
1051.1 1132.33 2457
1056.97 1132.33 2457
1059.82 1129.1 2450
1065.68 1129.1 2450
1079.41 1137.4 2468
1086.63 1138.78 2471
1092.54 1138.78 2471
1102 1142.47 2479
1107.93 1142.47 2479
1113.86 1142.47 2479
1119.79 1142.47 2479
1125.72 1142.47 2479
1131.64 1142.47 2479
1140.78 1145.69 2486
1146.73 1145.69 2486
1154.53 1147.54 2490
1162.35 1149.38 2494
1168.31 1149.38 2494
1174.28 1149.38 2494
1180.24 1149.38 2494
1184.3 1147.54 2490
1181.17 1138.78 2471
1187.08 1138.78 2471
1192.99 1138.78 2471
1202.78 1142.47 2479
1214.07 1147.54 2490
1220.03 1147.54 2490
1225.98 1147.54 2490
1231.94 1147.54 2490
1235.9 1145.69 2486
1241.85 1145.69 2486
1246.28 1144.31 2483
1241.13 1134.17 2461
1244.99 1132.33 2457
1250.86 1132.33 2457
1254.69 1130.48 2453
1259.01 1129.1 2450
1261.26 1125.88 2443
1267.1 1125.88 2443
1272.94 1125.88 2443
1278.79 1125.88 2443
1282.52 1124.03 2439
1284.66 1120.81 2432
1290.47 1120.81 2432
1296.29 1120.81 2432
1302.11 1120.81 2432
1307.92 1120.81 2432
1313.74 1120.81 2432
1317.38 1118.96 2428
1327 1122.19 2435
1332.83 1122.19 2435
1338.65 1122.19 2435
1344.47 1122.19 2435
1350.29 1122.19 2435
1354.45 1120.81 2432
1350.19 1112.51 2414
1359.9 1115.74 2421
1365.69 1115.74 2421
1373.74 1117.58 2425
1383.52 1120.81 2432
1391.05 1122.19 2435
1396.88 1122.19 2435
1402.7 1122.19 2435
1406.79 1120.81 2432
1412.6 1120.81 2432
1418.42 1120.81 2432
1424.23 1120.81 2432
1430.05 1120.81 2432
1435.87 1120.81 2432
1439.31 1118.96 2428
1445.12 1118.96 2428
1453.31 1120.81 2432
1463.33 1124.03 2439
1486.63 1137.4 2468
1492.53 1137.4 2468
1505.11 1142.47 2479
1511.04 1142.47 2479
1516.97 1142.47 2479
1522.89 1142.47 2479
1533.14 1145.69 2486
1539.08 1145.69 2486
1545.03 1145.69 2486
1546.61 1142.47 2479
1550.03 1140.62 2475
1560.98 1144.31 2483
1568.81 1145.69 2486
1574.75 1145.69 2486
1580.7 1145.69 2486
1591.75 1149.38 2494
1599.63 1150.76 2497
1605.61 1150.76 2497
1616.74 1154.45 2505
1622.73 1154.45 2505
1628.72 1154.45 2505
1632.1 1152.61 2501
1630.88 1147.54 2490
1619.74 1135.55 2464
1604.52 1120.81 2432
1610.33 1120.81 2432
1616.15 1120.81 2432
1626.63 1124.03 2439
1632.47 1124.03 2439
1640.99 1125.88 2443
1646.83 1125.88 2443
1659.44 1130.48 2453
1670.73 1134.17 2461
1676.62 1134.17 2461
1682.5 1134.17 2461
1673.29 1124.03 2439
1674.31 1120.81 2432
1680.12 1120.81 2432
1685.94 1120.81 2432
1679.23 1112.51 2414
1675.23 1106.06 2400
1671.87 1100.07 2387
1677.58 1100.07 2387
1683.28 1100.07 2387
1684.04 1096.84 2380
1684.76 1093.62 2373
1690.43 1093.62 2373
1693.96 1092.23 2370
1699.63 1092.23 2370
1705.3 1092.23 2370
1713.13 1093.62 2373
1720.98 1095 2376
1726.66 1095 2376
1732.34 1095 2376
1738.03 1095 2376
1743.71 1095 2376
1744.97 1092.23 2370
1758.03 1096.84 2380
1773.35 1102.83 2393
1784.28 1106.06 2400
1790.02 1106.06 2400
1795.75 1106.06 2400
1804.5 1107.9 2404
1858.44 1137.4 2468
1864.34 1137.4 2468
1870.24 1137.4 2468
1889.83 1145.69 2486
1913.31 1156.29 2509
1919.31 1156.29 2509
-1678.18 1076.14 2323
-1672.63 1076.14 2323
-1667.07 1076.14 2323
-1666.52 1079.38 2330
-1660.95 1079.38 2330
-1655.38 1079.38 2330
-1649.81 1079.38 2330
-1644.24 1079.38 2330
-1638.67 1079.38 2330
-1614.87 1067.34 2304
-1593.99 1057.14 2282
-1580.18 1051.58 2270
-1574.75 1051.58 2270
-1567.25 1050.2 2267
-1574.23 1058.53 2285
-1579.75 1065.95 2301
-1581.09 1070.58 2311
-1575.57 1070.58 2311
-1570.04 1070.58 2311
-1572.64 1076.14 2323
-1567.08 1076.14 2323
-1561.53 1076.14 2323
-1555.97 1076.14 2323
-1489.38 1048.81 2264
-1483.97 1048.81 2264
-1478.56 1048.81 2264
-1473.14 1048.81 2264
-1477.45 1055.75 2279
-1482.34 1063.17 2295
-1482.64 1067.34 2304
-1485.47 1073.36 2317
-1481.84 1074.75 2320
-1476.29 1074.75 2320
-1470.75 1074.75 2320
-1465.2 1074.75 2320
-1457.76 1073.36 2317
-1452.22 1073.36 2317
-1446.68 1073.36 2317
-1427.46 1063.17 2295
-1417.63 1059.92 2288
-1401.05 1051.58 2270
-1395.62 1051.58 2270
-1382.23 1045.56 2257
-1373.18 1042.78 2251
-1347.74 1027.5 2218
-1375.72 1052.97 2273
-1370.29 1052.97 2273
-1366.66 1054.36 2276
-1363.01 1055.75 2279
-1357.56 1055.75 2279
-1352.11 1055.75 2279
-1341.34 1051.58 2270
-1328.26 1045.56 2257
-1322.86 1045.56 2257
-1313.96 1042.78 2251
-1308.58 1042.78 2251
-1304.36 1079.38 2330
-1304.36 1084.01 2340
-1298.77 1084.01 2340
-1294.83 1085.4 2343
-1289.23 1085.4 2343
-1283.62 1085.4 2343
-1270.93 1079.38 2330
-1276.22 1088.65 2350
-1276.01 1093.28 2360
-1273.59 1096.06 2366
-1267.94 1096.06 2366
-1262.28 1096.06 2366
-1253.43 1093.28 2360
-1247.79 1093.28 2360
-1238.46 1090.03 2353
-1227.6 1085.4 2343
-1220.43 1084.01 2340
-1214.83 1084.01 2340
-1209.24 1084.01 2340
-1208.79 1088.65 2350
-1211.36 1096.06 2366
-1205.7 1096.06 2366
-1200.04 1096.06 2366
-1194.38 1096.06 2366
-1190.74 1097.91 2370
-1190.07 1102.54 2380
-1184.38 1102.54 2380
-1183.64 1107.18 2390
-1182.85 1111.81 2400
-1182.51 1116.9 2411
-1176.74 1116.9 2411
-1170.98 1116.9 2411
-1158.45 1110.42 2397
-1152.71 1110.42 2397
-1134.06 1097.91 2370
-1133.16 1102.54 2380
-1140.26 1115.05 2407
-1134.5 1115.05 2407
-1128.74 1115.05 2407
-1122.99 1115.05 2407
-1117.23 1115.05 2407
-1111.48 1115.05 2407
-1105.72 1115.05 2407
-1092.2 1107.18 2390
-1081.93 1102.54 2380
-1076.24 1102.54 2380
-1071.9 1103.93 2383
-1066.2 1103.93 2383
-1060.5 1103.93 2383
-1053.48 1102.54 2380
-1047.79 1102.54 2380
-1035.97 1096.06 2366
-1018.99 1084.01 2340
-1012.09 1082.62 2337
-1013.39 1090.03 2353
-1007.77 1090.03 2353
-1002.14 1090.03 2353
-996.513 1090.03 2353
-990.886 1090.03 2353
-976.885 1080.77 2333
-967.143 1076.14 2323
-961.587 1076.14 2323
-957.679 1077.99 2327
-952.114 1077.99 2327
-946.55 1077.99 2327
-938.154 1074.75 2320
-932.607 1074.75 2320
-927.059 1074.75 2320
-920.319 1073.36 2317
-913.594 1071.97 2314
-908.061 1071.97 2314
-902.527 1071.97 2314
-898.157 1073.36 2317
-893.772 1074.75 2320
-892.052 1079.38 2330
-886.481 1079.38 2330
-883.556 1082.62 2337
-879.094 1084.01 2340
-874.618 1085.4 2343
-869.016 1085.4 2343
-864.518 1086.79 2346
-858.908 1086.79 2346
-853.298 1086.79 2346
-847.688 1086.79 2346
-842.078 1086.79 2346
-836.468 1086.79 2346
-834.4 1091.42 2356
-828.766 1091.42 2356
-825.578 1094.67 2363
-820.968 1096.06 2366
-815.31 1096.06 2366
-809.652 1096.06 2366
-805.354 1097.91 2370
-799.686 1097.91 2370
-794.019 1097.91 2370
-788.352 1097.91 2370
-782.684 1097.91 2370
-777.017 1097.91 2370
-768.095 1093.28 2360
-762.451 1093.28 2360
-756.808 1093.28 2360
-748.936 1090.03 2353
-742.362 1088.65 2350
-736.742 1088.65 2350
-729.878 1086.79 2346
-722.416 1084.01 2340
-716.82 1084.01 2340
-711.225 1084.01 2340
-704.724 1082.62 2337
-699.136 1082.62 2337
-695.328 1085.4 2343
-689.725 1085.4 2343
-684.122 1085.4 2343
-680.547 1088.65 2350
-674.927 1088.65 2350
-669.308 1088.65 2350
-661.711 1085.4 2343
-655.268 1084.01 2340
-648.84 1082.62 2337
-644.077 1084.01 2340
-638.481 1084.01 2340
-633.697 1085.4 2343
-628.094 1085.4 2343
-623.288 1086.79 2346
-617.678 1086.79 2346
-612.068 1086.79 2346
-608.268 1090.03 2353
-603.409 1091.42 2356
-597.776 1091.42 2356
-593.147 1093.28 2360
-587.504 1093.28 2360
-581.86 1093.28 2360
-576.217 1093.28 2360
-570.573 1093.28 2360
-563.972 1091.42 2356
-556.916 1088.65 2350
-551.297 1088.65 2350
-545.677 1088.65 2350
-540.747 1090.03 2353
-535.803 1091.42 2356
-531.069 1093.28 2360
-525.425 1093.28 2360
-519.782 1093.28 2360
-514.138 1093.28 2360
-508.495 1093.28 2360
-502.851 1093.28 2360
-497.208 1093.28 2360
-491.564 1093.28 2360
-485.921 1093.28 2360
-480.278 1093.28 2360
-474.634 1093.28 2360
-468.991 1093.28 2360
-463.347 1093.28 2360
-456.928 1091.42 2356
-452.06 1093.28 2360
-446.417 1093.28 2360
-440.773 1093.28 2360
-435.13 1093.28 2360
-429.486 1093.28 2360
-423.124 1091.42 2356
-417.49 1091.42 2356
-411.857 1091.42 2356
-405.705 1090.03 2353
-400.079 1090.03 2353
-394.452 1090.03 2353
-388.329 1088.65 2350
-382.71 1088.65 2350
-377.09 1088.65 2350
-371.471 1088.65 2350
-365.228 1086.79 2346
-359.618 1086.79 2346
-355.517 1091.42 2356
-349.884 1091.42 2356
-344.25 1091.42 2356
-338.616 1091.42 2356
-332.982 1091.42 2356
-326.514 1088.65 2350
-320.895 1088.65 2350
-312.994 1080.77 2333
-306.098 1076.14 2323
-300.543 1076.14 2323
-295.496 1077.99 2327
-289.931 1077.99 2327
-284.367 1077.99 2327
-278.802 1077.99 2327
-273.238 1077.99 2327
-267.673 1077.99 2327
-261.32 1074.75 2320
-255.441 1073.36 2317
-250.224 1074.75 2320
-244.676 1074.75 2320
-239.129 1074.75 2320
-233.581 1074.75 2320
-228.033 1074.75 2320
-222.197 1073.36 2317
-216.657 1073.36 2317
-212.027 1077.99 2327
-206.729 1079.38 2330
-201.157 1079.38 2330
-195.585 1079.38 2330
-190.014 1079.38 2330
-184.442 1079.38 2330
-178.87 1079.38 2330
-173.075 1077.99 2327
-59.2087 1033.05 2230
-53.8761 1033.05 2230
-48.5435 1033.05 2230
-43.2109 1033.05 2230
-37.8783 1033.05 2230
-31.9911 1015.45 2192
-26.786 1016.84 2195
-21.5371 1016.84 2195
-16.3327 1019.62 2201
-11.0694 1019.62 2201
-5.80616 1019.62 2201
-0.541422 1016.84 2195
4.70749 1016.84 2195
9.9564 1016.84 2195
15.1845 1015.45 2192
20.3704 1012.67 2186
25.5977 1012.67 2186
30.8251 1012.67 2186
36.0525 1012.67 2186
41.3932 1015.45 2192
46.7626 1018.23 2198
52.2317 1022.4 2207
57.5093 1022.4 2207
62.8722 1023.79 2210
68.157 1023.79 2210
73.4418 1023.79 2210
78.5128 1021.01 2204
83.7833 1021.01 2204
89.0537 1021.01 2204
94.3241 1021.01 2204
99.459 1019.62 2201
199.139 1045.56 2257
206.801 1057.14 2282
212.258 1057.14 2282
217.715 1057.14 2282
223.759 1059.92 2288
229.23 1059.92 2288
234.702 1059.92 2288
244.267 1077.99 2327
250.905 1082.62 2337
256.493 1082.62 2337
262.082 1082.62 2337
268.358 1085.4 2343
275.13 1090.03 2353
281.592 1093.28 2360
287.235 1093.28 2360
293.623 1096.06 2366
299.787 1097.91 2370
305.454 1097.91 2370
311.122 1097.91 2370
316.789 1097.91 2370
322.457 1097.91 2370
328.539 1099.3 2373
334.636 1100.69 2376
340.318 1100.69 2376
347.019 1103.93 2383
352.718 1103.93 2383
358.416 1103.93 2383
363.656 1102.54 2380
369.348 1102.54 2380
375.039 1102.54 2380
380.73 1102.54 2380
385.772 1100.69 2376
391.454 1100.69 2376
396.634 1099.3 2373
402.309 1099.3 2373
407.467 1097.91 2370
412.438 1096.06 2366
417.035 1093.28 2360
422.679 1093.28 2360
427.052 1090.03 2353
432.678 1090.03 2353
437.001 1086.79 2346
445.252 1093.28 2360
450.896 1093.28 2360
456.539 1093.28 2360
462.183 1093.28 2360
467.826 1093.28 2360
473.47 1093.28 2360
479.113 1093.28 2360
485.373 1094.67 2363
491.024 1094.67 2363
496.674 1094.67 2363
502.325 1094.67 2363
507.976 1094.67 2363
513.626 1094.67 2363
519.936 1096.06 2366
525.594 1096.06 2366
532.824 1099.3 2373
539.179 1100.69 2376
547.383 1105.79 2387
553.091 1105.79 2387
561.843 1111.81 2400
569.237 1115.05 2407
579.293 1123.39 2425
585.092 1123.39 2425
590.891 1123.39 2425
596.69 1123.39 2425
602.488 1123.39 2425
608.287 1123.39 2425
614.086 1123.39 2425
619.885 1123.39 2425
625.684 1123.39 2425
629.66 1120.15 2418
634.391 1118.29 2414
639.368 1116.9 2411
645.134 1116.9 2411
650.899 1116.9 2411
656.664 1116.9 2411
662.43 1116.9 2411
668.195 1116.9 2411
673.961 1116.9 2411
676.625 1111.81 2400
683.501 1113.66 2404
691.257 1116.9 2411
697.023 1116.9 2411
702.788 1116.9 2411
708.553 1116.9 2411
711.06 1111.81 2400
717.994 1113.66 2404
723.742 1113.66 2404
730.401 1115.05 2407
736.157 1115.05 2407
741.913 1115.05 2407
748.911 1116.9 2411
754.677 1116.9 2411
764.858 1123.39 2425
770.657 1123.39 2425
776.456 1123.39 2425
780.964 1121.54 2421
785.779 1120.15 2418
789.269 1116.9 2411
796.024 1118.29 2414
801.797 1118.29 2414
807.569 1118.29 2414
813.342 1118.29 2414
819.115 1118.29 2414
821.47 1113.66 2404
821.369 1105.79 2387
827.077 1105.79 2387
833.832 1107.18 2390
839.547 1107.18 2390
845.262 1107.18 2390
850.977 1107.18 2390
856.693 1107.18 2390
858.799 1102.54 2380
864.491 1102.54 2380
868.72 1100.69 2376
874.401 1100.69 2376
882.676 1103.93 2383
888.374 1103.93 2383
895.574 1105.79 2387
901.282 1105.79 2387
906.99 1105.79 2387
912.698 1105.79 2387
919.56 1107.18 2390
925.275 1107.18 2390
933.717 1110.42 2397
939.449 1110.42 2397
947.941 1113.66 2404
963.211 1124.78 2428
969.017 1124.78 2428
974.823 1124.78 2428
980.629 1124.78 2428
980.747 1118.29 2414
986.52 1118.29 2414
992.293 1118.29 2414
998.065 1118.29 2414
1012.57 1128.02 2435
1024.67 1134.97 2450
1031.79 1136.36 2453
1037.65 1136.36 2453
1043.52 1136.36 2453
1048.1 1134.97 2450
1053.96 1134.97 2450
1058.09 1133.12 2446
1063.94 1133.12 2446
1071.54 1134.97 2450
1077.4 1134.97 2450
1083.25 1134.97 2450
1094 1140.07 2461
1099.89 1140.07 2461
1105.77 1140.07 2461
1111.66 1140.07 2461
1113.91 1136.36 2453
1121.6 1138.21 2457
1130.69 1141.46 2464
1136.58 1141.46 2464
1144.33 1143.31 2468
1150.23 1143.31 2468
1156.13 1143.31 2468
1162.03 1143.31 2468
1166.04 1141.46 2464
1171.93 1141.46 2464
1176.39 1140.07 2461
1182.28 1140.07 2461
1182.85 1134.97 2450
1197.44 1143.31 2468
1204.81 1144.7 2471
1214.64 1148.4 2479
1220.56 1148.4 2479
1226.49 1148.4 2479
1232.42 1148.4 2479
1238.35 1148.4 2479
1233.23 1138.21 2457
1232.05 1131.73 2443
1237.89 1131.73 2443
1243.73 1131.73 2443
1249.58 1131.73 2443
1247.71 1124.78 2428
1251.97 1123.39 2425
1257.77 1123.39 2425
1263.56 1123.39 2425
1269.36 1123.39 2425
1273.06 1121.54 2421
1277.26 1120.15 2418
1283.05 1120.15 2418
1288.83 1120.15 2418
1292.47 1118.29 2414
1296.63 1116.9 2411
1302.39 1116.9 2411
1304.36 1113.66 2404
1310.11 1113.66 2404
1317.5 1115.05 2407
1323.26 1115.05 2407
1329.01 1115.05 2407
1334.77 1115.05 2407
1340.52 1115.05 2407
1342.36 1111.81 2400
1348.1 1111.81 2400
1353.84 1111.81 2400
1363.55 1115.05 2407
1371.58 1116.9 2411
1377.34 1116.9 2411
1383.11 1116.9 2411
1388.87 1116.9 2411
1384.23 1108.56 2393
1394.02 1111.81 2400
1399.76 1111.81 2400
1421.89 1124.78 2428
1427.7 1124.78 2428
1433.5 1124.78 2428
1435.16 1121.54 2421
1440.95 1121.54 2421
1446.74 1121.54 2421
1460.93 1128.02 2435
1482.41 1140.07 2461
1488.3 1140.07 2461
1502.68 1146.55 2475
1508.6 1146.55 2475
1514.52 1146.55 2475
1520.44 1146.55 2475
1528.82 1148.4 2479
1534.75 1148.4 2479
1540.68 1148.4 2479
1544.11 1146.55 2475
1547.52 1144.7 2471
1558.46 1148.4 2479
1566.92 1150.26 2483
1572.85 1150.26 2483
1578.79 1150.26 2483
1586.64 1151.65 2486
1592.59 1151.65 2486
1598.53 1151.65 2486
1609.64 1155.35 2494
1615.6 1155.35 2494
1621.57 1155.35 2494
1615.13 1146.55 2475
1613.85 1141.46 2464
1612.51 1136.36 2453
1599.9 1123.39 2425
1610.33 1126.63 2432
1616.15 1126.63 2432
1621.97 1126.63 2432
1627.78 1126.63 2432
1633.6 1126.63 2432
1639.41 1126.63 2432
1649.96 1129.87 2439
1655.8 1129.87 2439
1661.63 1129.87 2439
1667.46 1129.87 2439
1668.49 1126.63 2432
1661.92 1118.29 2414
1667.69 1118.29 2414
1673.46 1118.29 2414
1669.49 1111.81 2400
1668.25 1107.18 2390
1671.87 1105.79 2387
1677.58 1105.79 2387
1680.46 1103.93 2383
1681.21 1100.69 2376
1682.63 1097.91 2370
1688.3 1097.91 2370
1693.96 1097.91 2370
1699.63 1097.91 2370
1705.3 1097.91 2370
1713.13 1099.3 2373
1720.98 1100.69 2376
1726.66 1100.69 2376
1732.34 1100.69 2376
1735.83 1099.3 2373
1741.51 1099.3 2373
1744.97 1097.91 2370
1758.03 1102.54 2380
1768.9 1105.79 2387
1784.28 1111.81 2400
1790.02 1111.81 2400
1795.75 1111.81 2400
1804.5 1113.66 2404
1858.44 1143.31 2468
1864.34 1143.31 2468
1870.24 1143.31 2468
1889.83 1151.65 2486
1901.87 1155.35 2494
1907.84 1155.35 2494
-1655.59 1074.25 2307
-1655.08 1077.51 2314
-1649.55 1077.51 2314
-1644.01 1077.51 2314
-1633.52 1074.25 2307
-1628.01 1074.25 2307
-1622.49 1074.25 2307
-1603.66 1065.4 2288
-1591.9 1061.21 2279
-1578.09 1055.63 2267
-1572.67 1055.63 2267
-1549.97 1043.98 2242
-1544.61 1043.98 2242
-1568.77 1064.01 2285
-1563.3 1064.01 2285
-1557.84 1064.01 2285
-1561.21 1070.06 2298
-1555.71 1070.06 2298
-1550.22 1070.06 2298
-1544.72 1070.06 2298
-1522.48 1058.42 2273
-1519.05 1059.82 2276
-1513.61 1059.82 2276
-1508.16 1059.82 2276
-1502.72 1059.82 2276
-1493.33 1057.02 2270
-1487.9 1057.02 2270
-1486.39 1059.82 2276
-1480.95 1059.82 2276
-1477.45 1061.21 2279
-1482.34 1068.66 2295
-1482.64 1072.85 2304
-1485.47 1078.91 2317
-1481.84 1080.31 2320
-1476.29 1080.31 2320
-1470.75 1080.31 2320
-1465.2 1080.31 2320
-1457.76 1078.91 2317
-1452.22 1078.91 2317
-1446.68 1078.91 2317
-1427.46 1068.66 2295
-1417.63 1065.4 2288
-1397.35 1054.23 2264
-1391.93 1054.23 2264
-1384.68 1052.83 2261
-1373.18 1048.18 2251
-1347.74 1032.81 2218
-1373.91 1057.02 2270
-1368.48 1057.02 2270
-1368.46 1061.21 2279
-1366.6 1064.01 2285
-1361.13 1064.01 2285
-1355.67 1064.01 2285
-1346.66 1061.21 2279
-1335.91 1057.02 2270
-1330.48 1057.02 2270
-1317.47 1050.97 2257
-1319.63 1057.02 2270
-1315.94 1058.42 2273
-1315.69 1062.61 2282
-1310.23 1062.61 2282
-1304.77 1062.61 2282
-1280.85 1065.4 2288
-1284.3 1072.85 2304
-1278.79 1072.85 2304
-1274.94 1074.25 2307
-1269.42 1074.25 2307
-1267.74 1077.51 2314
-1262.2 1077.51 2314
-1276.22 1094.27 2350
-1276.01 1098.93 2360
-1273.59 1101.72 2366
-1267.94 1101.72 2366
-1262.28 1101.72 2366
-1256.62 1101.72 2366
