ply
format ascii 1.0
comment File generated
element vertex 2246
property float x
property float y
property float z
end_header
-1798.09 735.164 3512
-1789.69 735.164 3512
-1781.3 735.164 3512
-1772.9 735.164 3512
-1772.04 738.304 3527
-1771.1 741.444 3542
-1766.12 742.91 3549
-1757.63 742.91 3549
-1753.09 744.584 3557
-1744.58 744.584 3557
-1739.98 746.259 3565
-1734.85 747.724 3572
-1726.31 747.724 3572
-1732.68 754.213 3603
-1735.55 759.237 3627
-1726.87 759.237 3627
-1729.1 764.052 3650
-1724.14 765.727 3658
-1734.62 774.309 3699
-1725.77 774.309 3699
-1724.82 777.868 3716
-1763.03 799.219 3818
-1765.84 804.662 3844
-1756.65 804.662 3844
-1763.83 812.198 3880
-1754.55 812.198 3880
-1749.32 814.082 3889
-1740.02 814.082 3889
-1730.72 814.082 3889
-1721.42 814.082 3889
-1712.12 814.082 3889
-1698.88 812.198 3880
-1681.76 808.43 3862
-1642.21 793.777 3792
-1625.39 790.009 3774
-1616.37 790.009 3774
-1600.1 786.45 3757
-1563.17 772.634 3691
-1540.44 765.727 3658
-1531.69 765.727 3658
-1506.71 757.563 3619
-1491.43 754.213 3603
-1473.35 749.399 3580
-1464.79 749.399 3580
-1437.52 739.77 3534
-1426.24 738.304 3527
-1411.77 735.164 3512
-1403.38 735.164 3512
-1394.98 735.164 3512
-1389.74 736.839 3520
-1381.32 736.839 3520
-1375.63 738.304 3527
-1367.2 738.304 3527
-1367.24 742.91 3549
-1364.88 746.259 3565
-1365.1 751.073 3588
-1356.52 751.073 3588
-1347.94 751.073 3588
-1353.92 759.237 3627
-1348.22 760.912 3635
-1339.52 760.912 3635
-1333.39 762.377 3642
-1330.51 765.727 3658
-1325.01 767.611 3667
-1316.24 767.611 3667
-1313.18 770.96 3683
-1307.2 772.634 3691
-1301.19 774.309 3699
-1292.35 774.309 3699
-1283.5 774.309 3699
-1274.65 774.309 3699
-1265.81 774.309 3699
-1251.53 770.96 3683
-1240.02 769.285 3675
-1228.55 767.611 3667
-1219.78 767.611 3667
-1211.01 767.611 3667
-1199.29 765.727 3658
-1190.55 765.727 3658
-1181.8 765.727 3658
-1178.5 769.285 3675
-1169.72 769.285 3675
-1160.93 769.285 3675
-1154.65 770.96 3683
-1145.84 770.96 3683
-1137.03 770.96 3683
-1128.23 770.96 3683
-1116.99 769.285 3675
-1108.2 769.285 3675
-1099.41 769.285 3675
-1090.62 769.285 3675
-1086.55 772.634 3691
-1085.02 777.868 3716
-1076.13 777.868 3716
-1071.84 781.217 3732
-1067.76 784.776 3749
-1061.05 786.45 3757
-1052.07 786.45 3757
-1043.09 786.45 3757
-1038.78 790.009 3774
-1029.76 790.009 3774
-1020.73 790.009 3774
-1011.71 790.009 3774
-1000.56 788.334 3766
-991.55 788.334 3766
-980.196 786.45 3757
-975.607 790.009 3774
-968.887 791.893 3783
-959.841 791.893 3783
-950.795 791.893 3783
-941.748 791.893 3783
-934.921 793.777 3792
-925.853 793.777 3792
-916.785 793.777 3792
-905.563 791.893 3783
-894.384 790.009 3774
-885.359 790.009 3774
-876.334 790.009 3774
-865.471 788.334 3766
-856.465 788.334 3766
-849.26 790.009 3774
-840.235 790.009 3774
-831.21 790.009 3774
-822.186 790.009 3774
-811.437 788.334 3766
-802.432 788.334 3766
-793.426 788.334 3766
-784.42 788.334 3766
-773.562 786.45 3757
-764.577 786.45 3757
-755.593 786.45 3757
-746.609 786.45 3757
-737.625 786.45 3757
-728.641 786.45 3757
-716.4 782.892 3740
-704.43 779.542 3724
-694.031 777.868 3716
-685.145 777.868 3716
-674.621 775.984 3707
-664.32 774.309 3699
-649.804 767.611 3667
-641.035 767.611 3667
-627.955 762.377 3642
-619.246 762.377 3642
-606.681 757.563 3619
-598.027 757.563 3619
-588.07 755.888 3611
-579.435 755.888 3611
-570.8 755.888 3611
-560.92 754.213 3603
-552.304 754.213 3603
-543.688 754.213 3603
-535.072 754.213 3603
-525.288 752.539 3595
-516.691 752.539 3595
-507.105 751.073 3588
-498.525 751.073 3588
-488.852 749.399 3580
-480.292 749.399 3580
-471.731 749.399 3580
-465.11 752.539 3595
-456.514 752.539 3595
-447.917 752.539 3595
-439.32 752.539 3595
-430.723 752.539 3595
-422.127 752.539 3595
-413.53 752.539 3595
-404.933 752.539 3595
-397.219 754.213 3603
-388.603 754.213 3603
-379.987 754.213 3603
-371.371 754.213 3603
-362.755 754.213 3603
-352.665 751.073 3588
-344.085 751.073 3588
-335.505 751.073 3588
-326.925 751.073 3588
-318.966 752.539 3595
-310.369 752.539 3595
-301.772 752.539 3595
-293.176 752.539 3595
-284.579 752.539 3595
-275.982 752.539 3595
-267.386 752.539 3595
-258.789 752.539 3595
-249.705 751.073 3588
-240.587 749.399 3580
-232.026 749.399 3580
-222.529 746.259 3565
-214.004 746.259 3565
-205.479 746.259 3565
-196.954 746.259 3565
-188.429 746.259 3565
-179.904 746.259 3565
-170.995 744.584 3557
-162.489 744.584 3557
-153.983 744.584 3557
-145.477 744.584 3557
-83.4458 453.617 2167
-78.2638 453.617 2167
-73.0819 453.617 2167
-67.8999 453.617 2167
-62.718 453.617 2167
-57.536 453.617 2167
-52.2091 452.361 2161
-46.9109 451.105 2155
-41.6026 449.43 2147
-36.4685 449.43 2147
-31.3343 449.43 2147
-26.2002 449.43 2147
-21.0661 449.43 2147
-15.932 449.43 2147
-10.7978 449.43 2147
-5.6558 448.802 2144
-0.528842 448.802 2144
4.59811 448.802 2144
9.72507 448.802 2144
14.852 448.802 2144
20.0069 449.43 2147
25.1762 450.058 2150
30.3598 450.686 2153
35.5083 450.686 2153
40.6945 451.105 2155
45.8478 451.105 2155
51.072 451.733 2158
56.2325 451.733 2158
61.5636 452.989 2164
66.9851 454.663 2172
72.2787 455.291 2175
77.4798 455.291 2175
83.2131 458.222 2189
88.4476 458.222 2189
93.8106 458.85 2192
99.0523 458.85 2192
104.294 458.85 2192
109.686 459.478 2195
115.092 460.106 2198
120.348 460.106 2198
125.604 460.106 2198
130.681 459.478 2195
136.116 460.106 2198
141.372 460.106 2198
146.628 460.106 2198
151.884 460.106 2198
157.14 460.106 2198
162.175 459.478 2195
167.424 459.478 2195
172.673 459.478 2195
177.922 459.478 2195
183.17 459.478 2195
188.419 459.478 2195
193.404 458.85 2192
198.373 458.222 2189
203.608 458.222 2189
208.843 458.222 2189
213.784 457.594 2186
219.312 458.222 2189
224.546 458.222 2189
229.781 458.222 2189
235.015 458.222 2189
239.701 457.175 2184
244.924 457.175 2184
249.459 455.919 2178
253.966 454.663 2172
501.208 799.219 3818
510.338 799.219 3818
520.556 800.894 3826
529.706 800.894 3826
538.855 800.894 3826
548.004 800.894 3826
554.677 797.335 3809
563.786 797.335 3809
572.894 797.335 3809
582.003 797.335 3809
591.111 797.335 3809
600.22 797.335 3809
610.768 799.219 3818
619.898 799.219 3818
629.028 799.219 3818
639.495 800.894 3826
650.17 802.778 3835
660.888 804.662 3844
670.08 804.662 3844
679.272 804.662 3844
688.465 804.662 3844
697.657 804.662 3844
706.849 804.662 3844
721.07 810.314 3871
730.327 810.314 3871
739.584 810.314 3871
748.841 810.314 3871
758.097 810.314 3871
765.57 808.43 3862
774.805 808.43 3862
787.695 812.198 3880
796.973 812.198 3880
808.121 814.082 3889
819.313 815.966 3898
828.634 815.966 3898
837.955 815.966 3898
847.277 815.966 3898
848.687 808.43 3862
857.922 808.43 3862
867.157 808.43 3862
876.393 808.43 3862
881.5 804.662 3844
890.692 804.662 3844
899.884 804.662 3844
909.077 804.662 3844
909.908 797.335 3809
919.016 797.335 3809
907.413 779.542 3724
910.167 774.309 3699
913.05 769.285 3675
917.573 765.727 3658
926.321 765.727 3658
933.023 764.052 3650
935.817 759.237 3627
944.49 759.237 3627
953.164 759.237 3627
959.715 757.563 3619
964.088 754.213 3603
968.654 751.073 3588
977.234 751.073 3588
985.814 751.073 3588
992.177 749.399 3580
996.545 746.259 3565
1005.07 746.259 3565
1009.05 742.91 3549
1015.53 741.444 3542
1021.68 739.77 3534
1030.13 739.77 3534
1038.58 739.77 3534
1044.96 738.304 3527
1053.4 738.304 3527
1059.72 736.839 3520
1068.14 736.839 3520
1071.97 733.699 3505
1080.35 733.699 3505
1084.07 730.559 3490
1092.42 730.559 3490
1098.56 729.094 3483
1106.89 729.094 3483
1115.21 729.094 3483
1123.54 729.094 3483
1129.6 727.629 3476
1137.91 727.629 3476
1146.22 727.629 3476
1159.18 730.559 3490
1167.53 730.559 3490
1175.88 730.559 3490
1186.6 732.025 3497
1194.96 732.025 3497
1203.32 732.025 3497
1209.26 730.559 3490
1222.84 733.699 3505
1233.68 735.164 3512
1249.86 739.77 3534
1258.31 739.77 3534
1272.13 742.91 3549
1288.92 747.724 3572
1303.27 751.073 3588
1311.85 751.073 3588
1328.9 755.888 3611
1340.5 757.563 3619
1352.13 759.237 3627
1360.81 759.237 3627
1381.18 765.727 3658
1389.93 765.727 3658
1398.68 765.727 3658
1407.43 765.727 3658
1413.08 764.052 3650
1412.85 759.237 3627
1421.52 759.237 3627
1417.57 752.539 3595
1423.39 751.073 3588
1422.79 746.259 3565
1422.09 741.444 3542
1430.56 741.444 3542
1420.74 732.025 3497
1414.39 724.489 3461
1405.41 715.697 3419
1413.58 715.697 3419
1404.29 706.905 3377
1395.64 698.532 3337
1395.21 694.345 3317
1403.14 694.345 3317
1397.03 687.437 3284
1399.32 684.716 3271
1401.55 681.995 3258
1404.15 679.483 3246
1411.91 679.483 3246
1416.61 678.018 3239
1421.72 676.762 3233
1429.45 676.762 3233
1439.85 678.018 3239
1447.6 678.018 3239
1455.34 678.018 3239
1463.09 678.018 3239
1470.83 678.018 3239
1478.58 678.018 3239
1489.54 679.483 3246
1497.3 679.483 3246
1505.06 679.483 3246
1512.82 679.483 3246
1520.58 679.483 3246
1528.35 679.483 3246
1532.8 678.018 3239
1540.54 678.018 3239
1545.42 676.762 3233
1544.02 672.784 3214
1545.91 670.272 3202
1553.57 670.272 3202
1549.53 665.248 3178
1551.25 662.737 3166
1552.91 660.225 3154
1560.45 660.225 3154
1553.08 653.945 3124
1546.06 647.874 3095
1536.4 640.757 3061
1532.62 636.152 3039
1539.89 636.152 3039
1527.3 627.988 3000
1497.14 612.707 2927
1495.91 609.358 2911
1502.88 609.358 2911
1494.28 603.078 2881
1488.66 598.054 2857
1487.64 594.914 2842
1491.81 593.867 2837
1498.59 593.867 2837
1502.72 592.821 2832
1509.5 592.821 2832
1514.13 591.983 2828
1520.89 591.983 2828
1522.25 589.89 2818
1521.39 586.959 2804
1525.37 585.913 2799
1532.07 585.913 2799
1536.01 584.866 2794
1540.48 584.029 2790
1544.38 582.982 2785
1551.04 582.982 2785
1557.7 582.982 2785
1556.5 580.051 2771
1558.05 578.168 2762
1561.82 577.121 2757
1579.22 581.098 2776
1585.86 581.098 2776
1594.79 581.935 2780
1615.26 586.959 2804
1624.86 588.006 2809
1631.58 588.006 2809
1638.3 588.006 2809
2030.92 717.162 3426
2081.37 732.025 3497
2089.73 732.025 3497
2134.09 744.584 3557
2142.6 744.584 3557
2155.94 746.259 3565
2164.47 746.259 3565
2172.99 746.259 3565
2181.52 746.259 3565
2190.04 746.259 3565
2198.57 746.259 3565
2192.86 741.444 3542
2196.35 739.77 3534
2204.8 739.77 3534
2213.25 739.77 3534
2203.47 733.699 3505
2202.39 730.559 3490
2206.3 729.094 3483
2214.63 729.094 3483
2243.43 727.629 3476
2251.74 727.629 3476
2260.05 727.629 3476
2249.44 721.558 3447
2257.68 721.558 3447
2265.93 721.558 3447
2269.55 720.093 3440
2263.87 715.697 3419
2267.4 714.232 3412
2275.55 714.232 3412
2279.03 712.766 3405
2287.17 712.766 3405
2295.31 712.766 3405
2303.46 712.766 3405
2283.08 703.974 3363
2319.74 712.766 3405
2327.88 712.766 3405
2336.03 712.766 3405
2344.17 712.766 3405
2332.97 706.905 3377
2228.05 672.784 3214
2235.73 672.784 3214
2243.42 672.784 3214
2234.29 667.76 3190
2241.92 667.76 3190
2275.64 675.506 3227
2283.36 675.506 3227
2291.07 675.506 3227
2268.16 666.504 3184
2262.91 662.737 3166
2270.48 662.737 3166
2247.83 653.945 3124
2222.09 644.316 3078
2193.24 633.849 3028
2100.92 605.171 2891
2107.83 605.171 2891
2114.74 605.171 2891
2121.66 605.171 2891
2128.57 605.171 2891
2135.48 605.171 2891
2123.87 599.938 2866
2130.72 599.938 2866
2137.58 599.938 2866
2163.14 605.171 2891
2197.07 612.707 2927
2204.07 612.707 2927
2211.07 612.707 2927
-2479.16 719.441 3398
-2471.04 719.441 3398
-2462.91 719.441 3398
-2429.5 712.031 3363
-2421.46 712.031 3363
-2413.42 712.031 3363
-2420.39 716.477 3384
-2412.3 716.477 3384
-2404.21 716.477 3384
-2401.07 717.959 3391
-2392.96 717.959 3391
-2399.62 722.405 3412
-2391.47 722.405 3412
-2383.31 722.405 3412
-2375.15 722.405 3412
-2357.28 719.441 3398
-2349.15 719.441 3398
-2355.49 723.887 3419
-2347.32 723.887 3419
-2353.51 728.333 3440
-2354.83 731.297 3454
-2346.57 731.297 3454
-2338.31 731.297 3454
-2330.05 731.297 3454
-2331.2 734.262 3468
-2328.26 735.955 3476
-2319.95 735.955 3476
-2311.64 735.955 3476
-2303.33 735.955 3476
-2304.26 738.92 3490
-2295.91 738.92 3490
-2287.57 738.92 3490
-2279.22 738.92 3490
-2270.88 738.92 3490
-2262.53 738.92 3490
-2254.19 738.92 3490
-2250.34 740.402 3497
-2247.11 742.095 3505
-2238.73 742.095 3505
-2230.35 742.095 3505
-2221.97 742.095 3505
-2213.59 742.095 3505
-2205.2 742.095 3505
-2201.21 743.578 3512
-2192.81 743.578 3512
-2184.41 743.578 3512
-2176.01 743.578 3512
-2167.62 743.578 3512
-2159.22 743.578 3512
-2150.82 743.578 3512
-2142.42 743.578 3512
-2134.02 743.578 3512
-2125.63 743.578 3512
-2117.23 743.578 3512
-2104.63 742.095 3505
-2096.24 742.095 3505
-2083.1 740.402 3497
-2074.73 740.402 3497
-2066.37 740.402 3497
-2045.65 735.955 3476
-2032.65 734.262 3468
-2024.36 734.262 3468
-1979.44 720.923 3405
-1971.3 720.923 3405
-1947.01 714.995 3377
-1938.94 714.995 3377
-1922.86 712.031 3363
-1914.81 712.031 3363
-1918.68 716.477 3384
-1910.59 716.477 3384
-1902.49 716.477 3384
-1894.4 716.477 3384
-1890.21 717.959 3391
-1882.1 717.959 3391
-1873.99 717.959 3391
-1869.74 719.441 3398
-1861.61 719.441 3398
-1857.3 720.923 3405
-1849.16 720.923 3405
-1844.8 722.405 3412
-1836.65 722.405 3412
-1839.74 726.851 3433
-1831.53 726.851 3433
-1827.04 728.333 3440
-1833.62 734.262 3468
-1829.53 735.955 3476
-1821.22 735.955 3476
-1820.21 738.92 3490
-1815.5 740.402 3497
-1807.14 740.402 3497
-1798.78 740.402 3497
-1794.51 742.095 3505
-1789.69 743.578 3512
-1781.3 743.578 3512
-1772.9 743.578 3512
-1768.52 745.271 3520
-1763.6 746.753 3527
-1766.12 751.411 3549
-1757.63 751.411 3549
-1749.14 751.411 3549
-1740.66 751.411 3549
-1736.07 753.105 3557
-1734.85 756.281 3572
-1726.31 756.281 3572
-1732.68 762.844 3603
-1731.72 766.232 3619
-1723.06 766.232 3619
-1725.31 771.102 3642
-1724.14 774.489 3658
-1734.62 783.17 3699
-1725.77 783.17 3699
-1724.82 786.769 3716
-1763.03 808.365 3818
-1774.11 817.681 3862
-1764.88 817.681 3862
-1763.83 821.492 3880
-1754.55 821.492 3880
-1745.27 821.492 3880
-1735.99 821.492 3880
-1722.71 819.587 3871
-1713.45 819.587 3871
-1704.19 819.587 3871
-1694.94 819.587 3871
-1681.76 817.681 3862
-1642.21 802.86 3792
-1625.39 799.049 3774
-1616.37 799.049 3774
-1600.1 795.45 3757
-1563.17 781.476 3691
-1537.07 772.796 3650
-1528.35 772.796 3650
-1506.71 766.232 3619
-1491.43 762.844 3603
-1473.35 757.975 3580
-1464.79 757.975 3580
-1437.52 748.235 3534
-1426.24 746.753 3527
-1411.77 743.578 3512
-1403.38 743.578 3512
-1394.98 743.578 3512
-1389.74 745.271 3520
-1381.32 745.271 3520
-1375.63 746.753 3527
-1367.2 746.753 3527
-1364.54 749.929 3542
-1361.82 753.105 3557
-1365.1 759.669 3588
-1356.52 759.669 3588
-1347.94 759.669 3588
-1353.92 767.926 3627
-1348.22 769.62 3635
-1339.52 769.62 3635
-1333.39 771.102 3642
-1330.51 774.489 3658
-1325.01 776.395 3667
-1316.24 776.395 3667
-1313.18 779.782 3683
-1307.2 781.476 3691
-1298.38 781.476 3691
-1289.55 781.476 3691
-1280.72 781.476 3691
-1269.14 779.782 3683
-1260.33 779.782 3683
-1251.53 779.782 3683
-1237.32 776.395 3667
-1225.54 774.489 3658
-1214.13 772.796 3650
-1205.4 772.796 3650
-1196.67 772.796 3650
-1187.94 772.796 3650
-1179.21 772.796 3650
-1175.94 776.395 3667
-1167.17 776.395 3667
-1158.4 776.395 3667
-1149.63 776.395 3667
-1140.86 776.395 3667
-1132.09 776.395 3667
-1123.32 776.395 3667
-1114.56 776.395 3667
-1105.79 776.395 3667
-1097.02 776.395 3667
-1088.25 776.395 3667
-1086.55 781.476 3691
-1085.02 786.769 3716
-1076.13 786.769 3716
-1071.84 790.157 3732
-1067.76 793.756 3749
-1061.05 795.45 3757
-1052.07 795.45 3757
-1043.09 795.45 3757
-1038.78 799.049 3774
-1029.76 799.049 3774
-1020.73 799.049 3774
-1011.71 799.049 3774
-998.165 795.45 3757
-989.181 795.45 3757
-980.196 795.45 3757
-973.539 797.356 3766
-966.582 799.049 3774
-959.841 800.955 3783
-950.795 800.955 3783
-941.748 800.955 3783
-932.702 800.955 3783
-923.656 800.955 3783
-914.609 800.955 3783
-901.494 797.356 3766
-892.488 797.356 3766
-883.482 797.356 3766
-874.477 797.356 3766
-865.471 797.356 3766
-856.465 797.356 3766
-849.26 799.049 3774
-840.235 799.049 3774
-831.21 799.049 3774
-822.186 799.049 3774
-811.437 797.356 3766
-802.432 797.356 3766
-793.426 797.356 3766
-784.42 797.356 3766
-775.415 797.356 3766
-766.409 797.356 3766
-757.403 797.356 3766
-748.398 797.356 3766
-739.392 797.356 3766
-730.386 797.356 3766
-721.381 797.356 3766
-709.159 793.756 3749
-695.525 788.463 3724
-686.62 788.463 3724
-677.715 788.463 3724
-664.32 783.17 3699
-651.221 778.089 3675
-642.433 778.089 3675
-630.714 774.489 3658
-619.246 771.102 3642
-608.023 767.926 3627
-599.349 767.926 3627
-588.07 764.538 3611
-579.435 764.538 3611
-569.536 762.844 3603
-560.92 762.844 3603
-552.304 762.844 3603
-543.688 762.844 3603
-533.884 761.151 3595
-524.265 759.669 3588
-515.685 759.669 3588
-504.843 756.281 3572
-496.302 756.281 3572
-487.76 756.281 3572
-479.218 756.281 3572
-470.676 756.281 3572
-463.17 757.975 3580
-455.625 759.669 3588
-447.917 761.151 3595
-439.32 761.151 3595
-430.723 761.151 3595
-421.305 759.669 3588
-412.725 759.669 3588
-404.145 759.669 3588
-396.337 761.151 3595
-387.74 761.151 3595
-379.143 761.151 3595
-370.546 761.151 3595
-361.95 761.151 3595
-352.665 759.669 3588
-344.085 759.669 3588
-334.757 757.975 3580
-326.196 757.975 3580
-318.345 759.669 3588
-309.765 759.669 3588
-301.185 759.669 3588
-292.605 759.669 3588
-284.025 759.669 3588
-275.445 759.669 3588
-266.865 759.669 3588
-258.285 759.669 3588
-249.148 757.975 3580
-239.579 754.799 3565
-231.054 754.799 3565
-222.529 754.799 3565
-214.004 754.799 3565
-205.479 754.799 3565
-196.954 754.799 3565
-188.006 753.105 3557
-179.501 753.105 3557
-170.995 753.105 3557
-162.489 753.105 3557
-153.983 753.105 3557
-145.477 753.105 3557
-83.4458 458.808 2167
-78.2638 458.808 2167
-73.0819 458.808 2167
-67.8999 458.808 2167
-62.718 458.808 2167
-57.536 458.808 2167
-52.2091 457.537 2161
-46.9109 456.267 2155
-41.5445 453.938 2144
-36.4175 453.938 2144
-31.2906 453.938 2144
-26.2002 454.573 2147
-21.0661 454.573 2147
-15.932 454.573 2147
-10.7978 454.573 2147
-5.6558 453.938 2144
-0.528842 453.938 2144
4.59811 453.938 2144
9.72507 453.938 2144
14.852 453.938 2144
19.979 453.938 2144
25.1411 454.573 2147
30.3598 455.844 2153
35.5083 455.844 2153
40.6945 456.267 2155
45.8478 456.267 2155
51.072 456.902 2158
56.2325 456.902 2158
61.4782 457.537 2161
66.9851 459.866 2172
72.2787 460.501 2175
77.4798 460.501 2175
83.2131 463.466 2189
88.5688 464.101 2192
93.8106 464.101 2192
99.0523 464.101 2192
104.437 464.736 2195
109.836 465.371 2198
115.092 465.371 2198
120.348 465.371 2198
125.775 466.006 2201
131.039 466.006 2201
136.302 466.006 2201
141.372 465.371 2198
146.628 465.371 2198
151.884 465.371 2198
157.14 465.371 2198
161.953 464.101 2192
167.424 464.736 2195
172.673 464.736 2195
177.922 464.736 2195
183.17 464.736 2195
188.419 464.736 2195
193.404 464.101 2192
198.373 463.466 2189
203.608 463.466 2189
208.366 462.407 2184
213.588 462.407 2184
218.811 462.407 2184
224.033 462.407 2184
229.256 462.407 2184
234.479 462.407 2184
239.372 461.772 2181
244.587 461.772 2181
249.459 461.137 2178
254.667 461.137 2178
501.208 808.365 3818
510.338 808.365 3818
519.468 808.365 3818
528.598 808.365 3818
538.855 810.059 3826
548.004 810.059 3826
557.153 810.059 3826
565.118 808.365 3818
572.894 806.46 3809
583.378 808.365 3818
592.508 808.365 3818
602.899 810.059 3826
612.048 810.059 3826
621.197 810.059 3826
630.346 810.059 3826
639.495 810.059 3826
650.17 811.965 3835
662.435 815.776 3853
671.649 815.776 3853
680.863 815.776 3853
688.465 813.87 3844
697.657 813.87 3844
706.849 813.87 3844
722.747 821.492 3880
732.025 821.492 3880
743.023 823.398 3889
752.323 823.398 3889
761.622 823.398 3889
770.922 823.398 3889
780.222 823.398 3889
789.522 823.398 3889
798.822 823.398 3889
811.862 827.209 3907
821.205 827.209 3907
830.547 827.209 3907
839.89 827.209 3907
849.233 827.209 3907
858.576 827.209 3907
867.919 827.209 3907
871.199 821.492 3880
880.477 821.492 3880
889.756 821.492 3880
899.034 821.492 3880
899.884 813.87 3844
909.077 813.87 3844
909.908 806.46 3809
919.016 806.46 3809
907.413 788.463 3724
910.167 783.17 3699
913.05 778.089 3675
917.573 774.489 3658
926.321 774.489 3658
933.023 772.796 3650
935.817 767.926 3627
944.49 767.926 3627
953.164 767.926 3627
959.715 766.232 3619
964.088 762.844 3603
968.654 759.669 3588
977.234 759.669 3588
985.814 759.669 3588
992.177 757.975 3580
996.545 754.799 3565
1005.07 754.799 3565
1009.05 751.411 3549
1015.53 749.929 3542
1021.68 748.235 3534
1030.13 748.235 3534
1038.58 748.235 3534
1044.96 746.753 3527
1053.4 746.753 3527
1059.72 745.271 3520
1068.14 745.271 3520
1071.97 742.095 3505
1080.35 742.095 3505
1084.07 738.92 3490
1092.42 738.92 3490
1098.56 737.438 3483
1106.89 737.438 3483
1115.21 737.438 3483
1123.54 737.438 3483
1129.6 735.955 3476
1137.91 735.955 3476
1146.22 735.955 3476
1159.18 738.92 3490
1167.53 738.92 3490
1175.88 738.92 3490
1186.6 740.402 3497
1194.96 740.402 3497
1203.32 740.402 3497
1209.26 738.92 3490
1222.84 742.095 3505
1233.68 743.578 3512
1249.86 748.235 3534
1258.31 748.235 3534
1272.13 751.411 3549
1288.92 756.281 3572
1303.27 759.669 3588
1311.85 759.669 3588
1328.9 764.538 3611
1340.5 766.232 3619
1352.13 767.926 3627
1360.81 767.926 3627
1381.18 774.489 3658
1389.93 774.489 3658
1398.68 774.489 3658
1407.43 774.489 3658
1413.08 772.796 3650
1412.85 767.926 3627
1421.52 767.926 3627
1417.57 761.151 3595
1423.39 759.669 3588
1422.79 754.799 3565
1422.09 749.929 3542
1430.56 749.929 3542
1420.74 740.402 3497
1414.39 732.78 3461
1405.41 723.887 3419
1413.58 723.887 3419
1404.29 714.995 3377
1395.64 706.526 3337
1395.21 702.291 3317
1403.14 702.291 3317
1397.03 695.304 3284
1399.32 692.552 3271
1401.55 689.799 3258
1404.15 687.259 3246
1411.91 687.259 3246
1416.61 685.777 3239
1421.72 684.506 3233
1429.45 684.506 3233
1439.85 685.777 3239
1447.6 685.777 3239
1455.34 685.777 3239
1463.09 685.777 3239
1470.83 685.777 3239
1478.58 685.777 3239
1489.54 687.259 3246
1497.3 687.259 3246
1505.06 687.259 3246
1512.82 687.259 3246
1520.58 687.259 3246
1528.35 687.259 3246
1532.8 685.777 3239
1540.54 685.777 3239
1545.42 684.506 3233
1544.02 680.484 3214
1545.91 677.943 3202
1553.57 677.943 3202
1549.53 672.861 3178
1551.25 670.321 3166
1552.91 667.78 3154
1560.45 667.78 3154
1553.08 661.428 3124
1546.06 655.288 3095
1536.4 648.09 3061
1532.62 643.432 3039
1539.89 643.432 3039
1527.3 635.174 3000
1497.14 619.719 2927
1495.91 616.331 2911
1502.88 616.331 2911
1494.28 609.979 2881
1488.66 604.898 2857
1487.64 601.722 2842
1491.81 600.663 2837
1498.59 600.663 2837
1502.72 599.605 2832
1507.36 598.758 2828
1514.13 598.758 2828
1520.89 598.758 2828
1522.25 596.641 2818
1521.39 593.676 2804
1525.37 592.618 2799
1532.07 592.618 2799
1536.01 591.559 2794
1537.72 589.654 2785
1544.38 589.654 2785
1551.04 589.654 2785
1554.9 588.595 2780
1556.5 586.689 2771
1558.05 584.784 2762
1561.82 583.725 2757
1579.22 587.748 2776
1585.86 587.748 2776
1594.79 588.595 2780
1615.26 593.676 2804
1624.86 594.735 2809
1631.58 594.735 2809
1638.3 594.735 2809
2030.92 725.369 3426
2081.37 740.402 3497
2089.73 740.402 3497
2134.09 753.105 3557
2142.6 753.105 3557
2155.94 754.799 3565
2164.47 754.799 3565
2172.99 754.799 3565
2181.52 754.799 3565
2190.04 754.799 3565
2198.57 754.799 3565
2192.86 749.929 3542
2196.35 748.235 3534
2204.8 748.235 3534
2213.25 748.235 3534
2203.47 742.095 3505
2202.39 738.92 3490
2206.3 737.438 3483
2214.63 737.438 3483
2243.43 735.955 3476
2251.74 735.955 3476
2260.05 735.955 3476
2249.44 729.815 3447
2257.68 729.815 3447
2265.93 729.815 3447
2269.55 728.333 3440
2263.87 723.887 3419
2267.4 722.405 3412
2275.55 722.405 3412
2279.03 720.923 3405
2287.17 720.923 3405
2295.31 720.923 3405
2303.46 720.923 3405
2283.08 712.031 3363
2319.74 720.923 3405
2327.88 720.923 3405
2336.03 720.923 3405
2344.17 720.923 3405
2332.97 714.995 3377
2228.05 680.484 3214
2349.12 714.995 3377
2357.19 714.995 3377
2365.27 714.995 3377
2373.34 714.995 3377
2353.21 706.526 3337
2361.19 706.526 3337
2327.28 694.034 3278
2303.07 684.506 3233
2297.22 680.484 3214
2304.9 680.484 3214
2291 674.132 3184
2255.3 661.428 3124
2258.42 660.158 3118
2261.52 658.888 3112
2268.96 658.888 3112
2276.4 658.888 3112
2225.87 642.161 3033
2208.82 635.174 3000
2216 635.174 3000
2199.46 628.399 2968
2179.79 620.777 2932
2179.34 618.66 2922
2201.3 622.894 2942
2208.33 622.894 2942
2215.37 622.894 2942
2325.14 651.689 3078
2332.5 651.689 3078
2339.86 651.689 3078
2479.91 688.529 3252
2487.68 688.529 3252
-2640.75 755.202 3527
-2632.32 755.202 3527
-2629.09 756.701 3534
-2620.64 756.701 3534
-2612.19 756.701 3534
-2587.53 751.991 3512
-2562.97 747.28 3490
-2518.03 736.574 3440
-2509.8 736.574 3440
-2491.4 733.576 3426
-2488.28 735.075 3433
-2480.07 735.075 3433
-2471.86 735.075 3433
-2453.6 732.077 3419
-2425.4 726.082 3391
-2417.29 726.082 3391
-2409.18 726.082 3391
-2401.07 726.082 3391
-2392.96 726.082 3391
-2399.62 730.578 3412
-2391.47 730.578 3412
-2383.31 730.578 3412
-2375.15 730.578 3412
-2357.28 727.581 3398
-2349.15 727.581 3398
-2355.49 732.077 3419
-2347.32 732.077 3419
-2353.51 736.574 3440
-2354.83 739.572 3454
-2346.57 739.572 3454
-2338.31 739.572 3454
-2330.05 739.572 3454
-2331.2 742.569 3468
-2328.26 744.282 3476
-2319.95 744.282 3476
-2311.64 744.282 3476
-2303.33 744.282 3476
-2304.26 747.28 3490
-2295.91 747.28 3490
-2287.57 747.28 3490
-2279.22 747.28 3490
-2270.88 747.28 3490
-2262.53 747.28 3490
-2254.19 747.28 3490
-2250.34 748.779 3497
-2247.11 750.492 3505
-2238.73 750.492 3505
-2230.35 750.492 3505
-2221.97 750.492 3505
-2213.59 750.492 3505
-2205.2 750.492 3505
-2201.21 751.991 3512
-2192.81 751.991 3512
-2184.41 751.991 3512
-2176.01 751.991 3512
-2167.62 751.991 3512
-2159.22 751.991 3512
-2150.82 751.991 3512
-2142.42 751.991 3512
-2134.02 751.991 3512
-2125.63 751.991 3512
-2117.23 751.991 3512
-2104.63 750.492 3505
-2096.24 750.492 3505
-2083.1 748.779 3497
-2074.73 748.779 3497
-2066.37 748.779 3497
-2045.65 744.282 3476
-2032.65 742.569 3468
-2024.36 742.569 3468
-1987.58 732.077 3419
-1971.3 729.08 3405
-1947.01 723.084 3377
-1938.94 723.084 3377
-1922.86 720.087 3363
-1914.81 720.087 3363
-1918.68 724.583 3384
-1910.59 724.583 3384
-1902.49 724.583 3384
-1894.4 724.583 3384
-1890.21 726.082 3391
-1882.1 726.082 3391
-1873.99 726.082 3391
-1869.74 727.581 3398
-1861.61 727.581 3398
-1857.3 729.08 3405
-1849.16 729.08 3405
-1844.8 730.578 3412
-1836.65 730.578 3412
-1839.74 735.075 3433
-1831.53 735.075 3433
-1827.04 736.574 3440
-1833.62 742.569 3468
-1829.53 744.282 3476
-1821.22 744.282 3476
-1820.21 747.28 3490
-1815.5 748.779 3497
-1807.14 748.779 3497
-1798.78 748.779 3497
-1794.51 750.492 3505
-1789.69 751.991 3512
-1781.3 751.991 3512
-1772.9 751.991 3512
-1768.52 753.703 3520
-1763.6 755.202 3527
-1766.12 759.913 3549
-1757.63 759.913 3549
-1749.14 759.913 3549
-1740.66 759.913 3549
-1736.07 761.626 3557
-1734.85 764.838 3572
-1726.31 764.838 3572
-1732.68 771.475 3603
-1731.72 774.901 3619
-1723.06 774.901 3619
-1725.31 779.826 3642
-1724.14 783.252 3658
-1734.62 792.031 3699
-1725.77 792.031 3699
-1724.82 795.671 3716
-1763.03 817.511 3818
-1774.11 826.933 3862
-1764.88 826.933 3862
-1763.83 830.787 3880
-1754.55 830.787 3880
-1745.27 830.787 3880
-1735.99 830.787 3880
-1722.71 828.86 3871
-1713.45 828.86 3871
-1704.19 828.86 3871
-1694.94 828.86 3871
-1681.76 826.933 3862
-1642.21 811.944 3792
-1625.39 808.09 3774
-1616.37 808.09 3774
-1600.1 804.45 3757
-1563.17 790.318 3691
-1537.07 781.539 3650
-1528.35 781.539 3650
-1506.71 774.901 3619
-1491.43 771.475 3603
-1473.35 766.551 3580
-1464.79 766.551 3580
-1437.52 756.701 3534
-1426.24 755.202 3527
-1411.77 751.991 3512
-1403.38 751.991 3512
-1394.98 751.991 3512
-1389.74 753.703 3520
-1381.32 753.703 3520
-1375.63 755.202 3527
-1367.2 755.202 3527
-1364.54 758.414 3542
-1361.82 761.626 3557
-1365.1 768.264 3588
-1356.52 768.264 3588
-1347.94 768.264 3588
-1353.92 776.614 3627
-1348.22 778.327 3635
-1339.52 778.327 3635
-1333.39 779.826 3642
-1330.51 783.252 3658
-1325.01 785.179 3667
-1316.24 785.179 3667
-1313.18 788.605 3683
-1307.2 790.318 3691
-1298.38 790.318 3691
-1289.55 790.318 3691
-1280.72 790.318 3691
-1269.14 788.605 3683
-1260.33 788.605 3683
-1251.53 788.605 3683
-1237.32 785.179 3667
-1225.54 783.252 3658
-1214.13 781.539 3650
-1205.4 781.539 3650
-1196.67 781.539 3650
-1187.94 781.539 3650
-1179.21 781.539 3650
-1175.94 785.179 3667
-1167.17 785.179 3667
-1158.4 785.179 3667
-1149.63 785.179 3667
-1140.86 785.179 3667
-1132.09 785.179 3667
-1123.32 785.179 3667
-1114.56 785.179 3667
-1105.79 785.179 3667
-1097.02 785.179 3667
-1088.25 785.179 3667
-1086.55 790.318 3691
-1085.02 795.671 3716
-1076.13 795.671 3716
-1071.84 799.097 3732
-1067.76 802.737 3749
-1061.05 804.45 3757
-1052.07 804.45 3757
-1043.09 804.45 3757
-1038.78 808.09 3774
-1029.76 808.09 3774
-1020.73 808.09 3774
-1011.71 808.09 3774
-998.165 804.45 3757
-989.181 804.45 3757
-980.196 804.45 3757
-973.539 806.377 3766
-966.582 808.09 3774
-959.841 810.017 3783
-950.795 810.017 3783
-941.748 810.017 3783
-932.702 810.017 3783
-923.656 810.017 3783
-914.609 810.017 3783
-901.494 806.377 3766
-892.488 806.377 3766
-883.482 806.377 3766
-872.387 804.45 3757
-863.403 804.45 3757
-856.465 806.377 3766
-847.46 806.377 3766
-838.454 806.377 3766
-829.448 806.377 3766
-822.186 808.09 3774
-813.161 808.09 3774
-804.136 808.09 3774
-795.111 808.09 3774
-786.087 808.09 3774
-777.062 808.09 3774
-769.869 810.017 3783
-760.822 810.017 3783
-751.776 810.017 3783
-742.73 810.017 3783
-733.683 810.017 3783
-724.637 810.017 3783
-712.375 806.377 3766
-701.689 804.45 3757
-692.704 804.45 3757
-682.264 802.737 3749
-668.81 797.384 3724
-654.057 790.318 3691
-645.23 790.318 3691
-632.266 785.179 3667
-619.246 779.826 3642
-609.364 778.327 3635
-600.671 778.327 3635
-589.373 774.901 3619
-579.435 773.188 3611
-569.536 771.475 3603
-559.674 769.763 3595
-551.078 769.763 3595
-542.481 769.763 3595
-533.884 769.763 3595
-523.096 766.551 3580
-514.535 766.551 3580
-503.854 763.339 3565
-495.329 763.339 3565
-486.804 763.339 3565
-479.218 764.838 3572
-470.676 764.838 3572
-462.135 764.838 3572
-455.625 768.264 3588
-447.045 768.264 3588
-438.465 768.264 3588
-429.885 768.264 3588
-421.305 768.264 3588
-412.725 768.264 3588
-403.244 766.551 3580
-395.565 768.264 3588
-386.985 768.264 3588
-378.405 768.264 3588
-369.825 768.264 3588
-361.245 768.264 3588
-351.879 766.551 3580
-343.318 766.551 3580
-334.757 766.551 3580
-326.196 766.551 3580
-317.635 766.551 3580
-309.074 766.551 3580
-301.185 768.264 3588
-292.605 768.264 3588
-284.025 768.264 3588
-275.445 768.264 3588
-266.865 768.264 3588
-257.709 766.551 3580
-248.104 763.339 3565
-239.042 761.626 3557
-230.536 761.626 3557
-221.531 759.913 3549
-213.044 759.913 3549
-204.557 759.913 3549
-196.07 759.913 3549
-187.214 758.414 3542
-178.744 758.414 3542
-170.61 759.913 3549
-162.123 759.913 3549
-153.637 759.913 3549
-145.15 759.913 3549
-83.4458 463.999 2167
-78.2638 463.999 2167
-73.0819 463.999 2167
-67.8999 463.999 2167
-62.718 463.999 2167
-57.536 463.999 2167
-52.2091 462.714 2161
-46.9109 461.429 2155
-41.6026 459.716 2147
-36.4685 459.716 2147
-31.3343 459.716 2147
-26.2002 459.716 2147
-21.0661 459.716 2147
-15.932 459.716 2147
-10.7978 459.716 2147
-5.6558 459.074 2144
-0.528842 459.074 2144
4.59811 459.074 2144
9.71599 458.646 2142
14.8382 458.646 2142
19.979 459.074 2144
25.1411 459.716 2147
30.3598 461.001 2153
35.5083 461.001 2153
40.6945 461.429 2155
45.8478 461.429 2155
51.072 462.072 2158
56.2325 462.072 2158
61.4782 462.714 2161
66.9851 465.069 2172
72.2787 465.712 2175
77.4798 465.712 2175
83.2131 468.709 2189
88.5688 469.352 2192
93.8106 469.352 2192
99.0523 469.352 2192
104.58 470.636 2198
109.836 470.636 2198
115.249 471.279 2201
120.512 471.279 2201
125.775 471.279 2201
131.039 471.279 2201
136.302 471.279 2201
141.565 471.279 2201
146.628 470.636 2198
151.884 470.636 2198
157.14 470.636 2198
162.175 469.994 2195
167.424 469.994 2195
172.909 470.636 2198
178.165 470.636 2198
183.421 470.636 2198
188.419 469.994 2195
193.404 469.352 2192
198.102 468.067 2186
203.329 468.067 2186
208.366 467.639 2184
213.588 467.639 2184
218.811 467.639 2184
224.033 467.639 2184
228.626 466.354 2178
234.156 466.996 2181
239.372 466.996 2181
244.587 466.996 2181
249.459 466.354 2178
254.667 466.354 2178
501.208 817.511 3818
510.338 817.511 3818
519.468 817.511 3818
528.598 817.511 3818
541.39 823.078 3844
550.582 823.078 3844
559.774 823.078 3844
566.302 819.224 3826
574.248 817.511 3818
583.378 817.511 3818
592.508 817.511 3818
604.317 821.151 3835
613.487 821.151 3835
622.658 821.151 3835
630.346 819.224 3826
639.495 819.224 3826
650.17 821.151 3835
662.435 825.006 3853
671.649 825.006 3853
680.863 825.006 3853
690.076 825.006 3853
699.29 825.006 3853
706.849 823.078 3844
722.747 830.787 3880
738.817 838.495 3916
748.182 838.495 3916
757.546 838.495 3916
766.91 838.495 3916
774.49 836.568 3907
783.833 836.568 3907
793.176 836.568 3907
802.519 836.568 3907
817.68 842.563 3935
827.09 842.563 3935
840.326 846.418 3953
849.779 846.418 3953
859.232 846.418 3953
864.729 842.563 3935
874.139 842.563 3935
881.303 840.422 3925
884.562 834.641 3898
893.883 834.641 3898
903.205 834.641 3898
906.205 828.86 3871
913.333 826.933 3862
912.058 817.511 3818
921.188 817.511 3818
909.362 799.097 3732
912.135 793.744 3707
915.037 788.605 3683
917.573 783.252 3658
926.321 783.252 3658
933.023 781.539 3650
937.881 778.327 3635
944.49 776.614 3627
953.164 776.614 3627
959.715 774.901 3619
964.088 771.475 3603
968.654 768.264 3588
977.234 768.264 3588
985.814 768.264 3588
994.394 768.264 3588
998.502 764.838 3572
1007.04 764.838 3572
1011.32 761.626 3557
1015.53 758.414 3542
1024 758.414 3542
1030.13 756.701 3534
1038.58 756.701 3534
1044.96 755.202 3527
1053.4 755.202 3527
1059.72 753.703 3520
1068.14 753.703 3520
1071.97 750.492 3505
1080.35 750.492 3505
1084.07 747.28 3490
1092.42 747.28 3490
1098.56 745.781 3483
1106.89 745.781 3483
1115.21 745.781 3483
1123.54 745.781 3483
1131.87 745.781 3483
1137.91 744.282 3476
1150.84 747.28 3490
1159.18 747.28 3490
1169.87 748.779 3497
1178.23 748.779 3497
1186.6 748.779 3497
1194.96 748.779 3497
1203.32 748.779 3497
1211.68 748.779 3497
1222.84 750.492 3505
1231.22 750.492 3505
1247.38 755.202 3527
1255.81 755.202 3527
1269.63 758.414 3542
1288.92 764.838 3572
1305.82 769.763 3595
1314.41 769.763 3595
1328.9 773.188 3611
1343.46 776.614 3627
1355.12 778.327 3635
1363.81 778.327 3635
1381.18 783.252 3658
1389.93 783.252 3658
1398.68 783.252 3658
1407.43 783.252 3658
1413.08 781.539 3650
1409.73 774.901 3619
1418.38 774.901 3619
1417.57 769.763 3595
1423.39 768.264 3588
1422.79 763.339 3565
1422.09 758.414 3542
1430.56 758.414 3542
1420.74 748.779 3497
1414.39 741.07 3461
1405.41 732.077 3419
1413.58 732.077 3419
1404.29 723.084 3377
1395.64 714.519 3337
1395.21 710.237 3317
1403.14 710.237 3317
1397.03 703.171 3284
1399.32 700.388 3271
1401.55 697.604 3258
1404.15 695.035 3246
1411.91 695.035 3246
1416.61 693.536 3239
1421.72 692.251 3233
1432.11 693.536 3239
1439.85 693.536 3239
1447.6 693.536 3239
1455.34 693.536 3239
1463.09 693.536 3239
1470.83 693.536 3239
1478.58 693.536 3239
1489.54 695.035 3246
1497.3 695.035 3246
1505.06 695.035 3246
1512.82 695.035 3246
1520.58 695.035 3246
1528.35 695.035 3246
1536.11 695.035 3246
1543.87 695.035 3246
1548.29 693.536 3239
1550.27 690.966 3227
1551.71 688.183 3214
1559.39 688.183 3214
1552.45 681.759 3184
1554.19 679.19 3172
1555.86 676.62 3160
1563.42 676.62 3160
1562.03 672.766 3142
1554.56 666.342 3112
1544.93 659.062 3078
1538.17 653.067 3050
1545.46 653.067 3050
1541.56 648.356 3028
1507.37 631.013 2947
1504.14 626.73 2927
1511.14 626.73 2927
1499.46 619.022 2891
1491.27 612.812 2862
1487.64 608.53 2842
1491.81 607.459 2837
1498.59 607.459 2837
1502.72 606.389 2832
1507.36 605.532 2828
1514.13 605.532 2828
1520.89 605.532 2828
1522.25 603.391 2818
1521.39 600.393 2804
1525.37 599.323 2799
1532.07 599.323 2799
1536.01 598.252 2794
1537.72 596.325 2785
1541.61 595.254 2780
1548.26 595.254 2780
1552.67 594.398 2776
1554.25 592.471 2767
1558.05 591.4 2762
1564.65 591.4 2762
1579.22 594.398 2776
1585.86 594.398 2776
1594.79 595.254 2780
1601.44 595.254 2780
1608.09 595.254 2780
1614.74 595.254 2780
2030.92 733.576 3426
2086.13 750.492 3505
2094.51 750.492 3505
2134.09 761.626 3557
2142.6 761.626 3557
2155.94 763.339 3565
2164.47 763.339 3565
2172.99 763.339 3565
2181.52 763.339 3565
2190.04 763.339 3565
2198.57 763.339 3565
2192.86 758.414 3542
2196.35 756.701 3534
2204.8 756.701 3534
2213.25 756.701 3534
2221.71 756.701 3534
2202.39 747.28 3490
2210.74 747.28 3490
2219.08 747.28 3490
2272.41 756.701 3534
2280.86 756.701 3534
2289.31 756.701 3534
2260.05 744.282 3476
2258.58 741.07 3461
2266.85 741.07 3461
2275.13 741.07 3461
2269.55 736.574 3440
2273.14 735.075 3433
2281.35 735.075 3433
2294.23 736.574 3440
2302.45 736.574 3440
2310.68 736.574 3440
2304.75 732.077 3419
2312.93 732.077 3419
2316.35 730.578 3412
2329.28 732.077 3419
2361.38 739.572 3454
2369.64 739.572 3454
2377.9 739.572 3454
2352.31 729.08 3405
2350.75 726.082 3391
2358.86 726.082 3391
2357.19 723.084 3377
2365.27 723.084 3377
2373.34 723.084 3377
2353.21 714.519 3337
2361.19 714.519 3337
2327.28 701.886 3278
2303.07 692.251 3233
2297.22 688.183 3214
2304.9 688.183 3214
2291 681.759 3184
2255.3 668.912 3124
2258.42 667.627 3118
2261.52 666.342 3112
2268.96 666.342 3112
2276.4 666.342 3112
2225.87 649.427 3033
2208.82 642.361 3000
2216 642.361 3000
2199.46 635.509 2968
2179.79 627.801 2932
2179.34 625.66 2922
2201.3 629.942 2942
2208.33 629.942 2942
2215.37 629.942 2942
2325.14 659.062 3078
2332.5 659.062 3078
2339.86 659.062 3078
2479.91 696.319 3252
2487.68 696.319 3252
-2640.75 763.651 3527
-2632.32 763.651 3527
-2629.09 765.167 3534
-2620.64 765.167 3534
-2612.19 765.167 3534
-2587.53 760.404 3512
-2562.97 755.64 3490
-2518.03 744.814 3440
-2509.8 744.814 3440
-2491.4 741.783 3426
-2488.28 743.299 3433
-2480.07 743.299 3433
-2471.86 743.299 3433
-2453.6 740.268 3419
-2425.4 734.205 3391
-2417.29 734.205 3391
-2409.18 734.205 3391
-2401.07 734.205 3391
-2392.96 734.205 3391
-2399.62 738.752 3412
-2391.47 738.752 3412
-2383.31 738.752 3412
-2375.15 738.752 3412
-2357.28 735.721 3398
-2349.15 735.721 3398
-2355.49 740.268 3419
-2347.32 740.268 3419
-2343.93 741.783 3426
-2350.05 746.33 3447
-2341.81 746.33 3447
-2333.57 746.33 3447
-2325.33 746.33 3447
-2326.49 749.361 3461
-2322.91 750.877 3468
-2314.61 750.877 3468
-2311.64 752.609 3476
-2303.33 752.609 3476
-2304.26 755.64 3490
-2295.91 755.64 3490
-2287.57 755.64 3490
-2279.22 755.64 3490
-2270.88 755.64 3490
-2262.53 755.64 3490
-2254.19 755.64 3490
-2250.34 757.156 3497
-2247.11 758.888 3505
-2238.73 758.888 3505
-2230.35 758.888 3505
-2221.97 758.888 3505
-2213.59 758.888 3505
-2205.2 758.888 3505
-2201.21 760.404 3512
-2192.81 760.404 3512
-2184.41 760.404 3512
-2176.01 760.404 3512
-2167.62 760.404 3512
-2159.22 760.404 3512
-2150.82 760.404 3512
-2142.42 760.404 3512
-2134.02 760.404 3512
-2125.63 760.404 3512
-2117.23 760.404 3512
-2104.63 758.888 3505
-2096.24 758.888 3505
-2083.1 757.156 3497
-2074.73 757.156 3497
-2066.37 757.156 3497
-2045.65 752.609 3476
-2032.65 750.877 3468
-2024.36 750.877 3468
-1987.58 740.268 3419
-1971.3 737.236 3405
-1947.01 731.174 3377
-1938.94 731.174 3377
-1922.86 728.143 3363
-1911.4 726.844 3357
-1914.71 731.174 3377
-1906.63 731.174 3377
-1898.56 731.174 3377
-1890.48 731.174 3377
-1878.51 729.658 3370
-1870.45 729.658 3370
-1862.39 729.658 3370
-1862.03 732.69 3384
-1853.94 732.69 3384
-1853.49 735.721 3398
-1845.36 735.721 3398
-1837.23 735.721 3398
-1829.11 735.721 3398
-1828.49 738.752 3412
-1820.33 738.752 3412
-1823.32 743.299 3433
-1822.51 746.33 3447
-1825.32 750.877 3468
-1817.03 750.877 3468
-1812.91 752.609 3476
-1811.87 755.64 3490
-1803.52 755.64 3490
-1795.18 755.64 3490
-1790.41 757.156 3497
-1782.05 757.156 3497
-1781.3 760.404 3512
-1772.9 760.404 3512
-1764.5 760.404 3512
-1760.1 762.136 3520
-1758.65 765.167 3534
-1750.2 765.167 3534
-1745.69 766.899 3542
-1737.22 766.899 3542
-1732.17 768.415 3549
-1734.85 773.395 3572
-1726.31 773.395 3572
-1732.68 780.107 3603
-1727.89 781.839 3611
-1719.25 781.839 3611
-1725.31 788.551 3642
-1720.37 790.283 3650
-1730.87 799.16 3691
-1722.04 799.16 3691
-1724.82 804.573 3716
-1763.03 826.657 3818
-1774.11 836.184 3862
-1764.88 836.184 3862
-1763.83 840.081 3880
-1754.55 840.081 3880
-1745.27 840.081 3880
-1735.99 840.081 3880
-1722.71 838.133 3871
-1713.45 838.133 3871
-1704.19 838.133 3871
-1694.94 838.133 3871
-1681.76 836.184 3862
-1642.21 821.028 3792
-1618.07 813.45 3757
-1609.09 813.45 3757
-1582.64 804.573 3716
-1549.19 792.015 3658
-1530.76 787.035 3635
-1522.06 787.035 3635
-1500.05 780.107 3603
-1481.91 775.127 3580
-1463.89 770.147 3557
-1455.38 770.147 3557
-1434.67 763.651 3527
-1420.17 760.404 3512
-1411.77 760.404 3512
-1403.38 760.404 3512
-1392.2 758.888 3505
-1383.81 758.888 3505
-1381.32 762.136 3520
-1372.9 762.136 3520
-1364.48 762.136 3520
-1361.46 765.167 3534
-1361.82 770.147 3557
-1359.02 773.395 3572
-1350.48 773.395 3572
-1347.94 776.859 3588
-1350.94 783.571 3619
-1348.22 787.035 3635
-1339.52 787.035 3635
-1333.39 788.551 3642
-1330.51 792.015 3658
-1325.01 793.964 3667
-1316.24 793.964 3667
-1310.32 795.696 3675
-1304.37 797.428 3683
-1295.56 797.428 3683
-1286.76 797.428 3683
-1277.95 797.428 3683
-1269.14 797.428 3683
-1260.33 797.428 3683
-1251.53 797.428 3683
-1234.28 792.015 3658
-1225.54 792.015 3658
-1214.13 790.283 3650
-1205.4 790.283 3650
-1196.67 790.283 3650
-1187.94 790.283 3650
-1179.21 790.283 3650
-1173.05 792.015 3658
-1164.3 792.015 3658
-1158.4 793.964 3667
-1149.63 793.964 3667
-1140.86 793.964 3667
-1132.09 793.964 3667
-1120.57 792.015 3658
-1114.56 793.964 3667
-1105.79 793.964 3667
-1097.02 793.964 3667
-1088.25 793.964 3667
-1081.84 795.696 3675
-1082.39 802.624 3707
-1073.53 802.624 3707
-1067.25 804.573 3716
-1065.2 809.769 3740
-1058.79 811.718 3749
-1049.83 811.718 3749
-1043.09 813.45 3757
-1034.1 813.45 3757
-1025.12 813.45 3757
-1016.13 813.45 3757
-1005 811.718 3749
-996.039 811.718 3749
-987.074 811.718 3749
-978.109 811.718 3749
-969.144 811.718 3749
-964.533 815.399 3766
-955.528 815.399 3766
-946.522 815.399 3766
-937.516 815.399 3766
-930.483 817.131 3774
-921.458 817.131 3774
-912.433 817.131 3774
-901.494 815.399 3766
-892.488 815.399 3766
-883.482 815.399 3766
-872.387 813.45 3757
-863.403 813.45 3757
-856.465 815.399 3766
-847.46 815.399 3766
-838.454 815.399 3766
-829.448 815.399 3766
-822.186 817.131 3774
-813.161 817.131 3774
-804.136 817.131 3774
-795.111 817.131 3774
-786.087 817.131 3774
-778.915 819.079 3783
-769.869 819.079 3783
-760.822 819.079 3783
-753.565 821.028 3792
-744.497 821.028 3792
-735.429 821.028 3792
-726.361 821.028 3792
-713.888 817.131 3774
-701.689 813.45 3757
-692.704 813.45 3757
-682.264 811.718 3749
-671.683 809.769 3740
-654.057 799.16 3691
-645.23 799.16 3691
-632.266 793.964 3667
-620.607 790.283 3650
-609.364 787.035 3635
-600.671 787.035 3635
-589.373 783.571 3619
-579.435 781.839 3611
-569.536 780.107 3603
-559.674 778.374 3595
-551.078 778.374 3595
-542.481 778.374 3595
-533.884 778.374 3595
-523.096 775.127 3580
-514.535 775.127 3580
-503.854 771.879 3565
-495.329 771.879 3565
-486.804 771.879 3565
-479.218 773.395 3572
-470.676 773.395 3572
-462.135 773.395 3572
-455.625 776.859 3588
-447.045 776.859 3588
-438.465 776.859 3588
-429.885 776.859 3588
-421.305 776.859 3588
-412.725 776.859 3588
-403.244 775.127 3580
-395.565 776.859 3588
-386.985 776.859 3588
-378.405 776.859 3588
-369.825 776.859 3588
-361.245 776.859 3588
-351.879 775.127 3580
-343.318 775.127 3580
-334.757 775.127 3580
-326.196 775.127 3580
-317.635 775.127 3580
-309.074 775.127 3580
-301.185 776.859 3588
-292.605 776.859 3588
-284.025 776.859 3588
-275.445 776.859 3588
-266.865 776.859 3588
-257.709 775.127 3580
-248.104 771.879 3565
-239.042 770.147 3557
-230.536 770.147 3557
-221.531 768.415 3549
-213.044 768.415 3549
-204.557 768.415 3549
-196.07 768.415 3549
-187.214 766.899 3542
-178.744 766.899 3542
-170.61 768.415 3549
-162.123 768.415 3549
-153.637 768.415 3549
-145.15 768.415 3549
-83.4458 469.19 2167
-78.2638 469.19 2167
-73.0819 469.19 2167
-67.8999 469.19 2167
-62.718 469.19 2167
-57.536 469.19 2167
-52.2091 467.891 2161
-46.9109 466.592 2155
-41.6026 464.859 2147
-36.4685 464.859 2147
-31.3343 464.859 2147
-26.2002 464.859 2147
-21.0661 464.859 2147
-15.932 464.859 2147
-10.7978 464.859 2147
-5.6558 464.21 2144
-0.528842 464.21 2144
4.59811 464.21 2144
9.71599 463.777 2142
14.8382 463.777 2142
19.979 464.21 2144
25.1411 464.859 2147
30.3598 466.159 2153
35.5083 466.159 2153
40.6945 466.592 2155
45.8478 466.592 2155
51.072 467.241 2158
56.2325 467.241 2158
61.4782 467.891 2161
66.9851 470.272 2172
72.2787 470.922 2175
77.4798 470.922 2175
83.2131 473.953 2189
88.5688 474.603 2192
93.8106 474.603 2192
99.0523 474.603 2192
104.58 475.902 2198
109.836 475.902 2198
115.563 477.85 2207
120.841 477.85 2207
126.118 477.85 2207
131.396 477.85 2207
136.673 477.85 2207
141.758 477.201 2204
146.828 476.551 2201
151.884 475.902 2198
157.14 475.902 2198
162.175 475.252 2195
167.653 475.902 2198
173.145 476.551 2201
178.408 476.551 2201
183.671 476.551 2201
188.677 475.902 2198
193.668 475.252 2195
198.373 473.953 2189
203.608 473.953 2189
208.556 473.304 2186
213.588 472.871 2184
218.811 472.871 2184
224.033 472.871 2184
228.626 471.571 2178
234.156 472.221 2181
240.908 475.252 2195
246.494 475.902 2198
251.75 475.902 2198
257.006 475.902 2198
501.208 826.657 3818
510.338 826.657 3818
519.468 826.657 3818
528.598 826.657 3818
542.657 834.235 3853
551.871 834.235 3853
561.085 834.235 3853
570.298 834.235 3853
578.159 832.287 3844
587.351 832.287 3844
596.543 832.287 3844
608.571 836.184 3862
617.807 836.184 3862
627.042 836.184 3862
633.312 832.287 3844
640.999 830.338 3835
650.17 830.338 3835
662.435 834.235 3853
671.649 834.235 3853
680.863 834.235 3853
690.076 834.235 3853
699.29 834.235 3853
706.849 832.287 3844
729.453 847.876 3916
738.817 847.876 3916
749.901 849.825 3925
759.287 849.825 3925
768.673 849.825 3925
776.275 847.876 3916
785.639 847.876 3916
793.176 845.927 3907
808.27 851.99 3935
821.42 855.887 3953
832.975 858.052 3963
844.365 860.001 3972
853.863 860.001 3972
863.362 860.001 3972
868.685 855.887 3953
878.137 855.887 3953
885.569 853.938 3944
890.689 849.825 3925
900.075 849.825 3925
909.461 849.825 3925
912.526 843.979 3898
915.462 838.133 3871
918.269 832.287 3844
927.461 832.287 3844
911.312 809.769 3740
912.135 802.624 3707
915.037 797.428 3683
919.831 793.964 3667
928.6 793.964 3667
933.023 790.283 3650
937.881 787.035 3635
946.574 787.035 3635
955.266 787.035 3635
961.837 785.303 3627
966.229 781.839 3611
972.704 780.107 3603
981.32 780.107 3603
987.738 778.374 3595
994.394 776.859 3588
998.502 773.395 3572
1007.04 773.395 3572
1011.32 770.147 3557
1015.53 766.899 3542
1024 766.899 3542
1030.13 765.167 3534
1038.58 765.167 3534
1044.96 763.651 3527
1053.4 763.651 3527
1059.72 762.136 3520
1068.14 762.136 3520
1071.97 758.888 3505
1080.35 758.888 3505
1084.07 755.64 3490
1092.42 755.64 3490
1098.56 754.125 3483
1106.89 754.125 3483
1115.21 754.125 3483
1123.54 754.125 3483
1131.87 754.125 3483
1137.91 752.609 3476
1150.84 755.64 3490
1159.18 755.64 3490
1169.87 757.156 3497
1178.23 757.156 3497
1186.6 757.156 3497
1194.96 757.156 3497
1203.32 757.156 3497
1211.68 757.156 3497
1222.84 758.888 3505
1231.22 758.888 3505
1247.38 763.651 3527
1255.81 763.651 3527
1269.63 766.899 3542
1288.92 773.395 3572
1305.82 778.374 3595
1314.41 778.374 3595
1328.9 781.839 3611
1343.46 785.303 3627
1355.12 787.035 3635
1363.81 787.035 3635
1381.18 792.015 3658
1389.93 792.015 3658
1398.68 792.015 3658
1407.43 792.015 3658
1413.08 790.283 3650
1409.73 783.571 3619
1418.38 783.571 3619
1417.57 778.374 3595
1417.05 773.395 3572
1416.41 768.415 3549
1416.06 763.651 3527
1424.5 763.651 3527
1415.06 754.125 3483
1405.81 744.814 3440
1399.65 737.236 3405
1407.79 737.236 3405
1390.15 723.812 3343
1389.78 719.482 3323
1389.32 715.152 3303
1397.22 715.152 3303
1394.48 709.739 3278
1396.76 706.924 3265
