ply
format ascii 1.0
comment File generated
element vertex 2259
property float x
property float y
property float z
end_header
156.445 837.291 2264
162.288 839.51 2270
167.716 839.51 2270
173.144 839.51 2270
178.573 839.51 2270
184.001 839.51 2270
189.429 839.51 2270
195.372 841.729 2276
200.815 841.729 2276
206.258 841.729 2276
211.7 841.729 2276
218.956 848.756 2295
224.444 848.756 2295
229.932 848.756 2295
313.893 1035.15 2799
321.731 1038.85 2809
328.916 1040.33 2813
335.643 1040.33 2813
342.37 1040.33 2813
349.096 1040.33 2813
360.124 1052.9 2847
366.932 1052.9 2847
373.74 1052.9 2847
379.211 1049.2 2837
385.995 1049.2 2837
390.841 1044.03 2823
402.381 1056.6 2857
410.502 1059.93 2866
418.811 1063.63 2876
425.689 1063.63 2876
433.318 1065.48 2881
440.207 1065.48 2881
447.097 1065.48 2881
451.622 1059.93 2866
457.836 1058.45 2862
457.536 1042.18 2818
464.275 1042.18 2818
471.013 1042.18 2818
477.752 1042.18 2818
489.477 1052.9 2847
496.285 1052.9 2847
503.093 1052.9 2847
505.602 1044.03 2823
512.353 1044.03 2823
520.023 1045.87 2828
526.786 1045.87 2828
533.548 1045.87 2828
538.4 1042.18 2818
545.139 1042.18 2818
551.878 1042.18 2818
555.841 1037 2804
563.549 1038.85 2809
571.079 1040.33 2813
578.832 1042.18 2818
585.571 1042.18 2818
592.31 1042.18 2818
600.111 1044.03 2823
606.862 1044.03 2823
613.613 1044.03 2823
619.265 1042.18 2818
626.003 1042.18 2818
632.742 1042.18 2818
642.658 1047.35 2832
649.43 1047.35 2832
658.519 1051.05 2842
665.315 1051.05 2842
674.476 1054.75 2852
681.296 1054.75 2852
688.116 1054.75 2852
697.373 1058.45 2862
710.122 1067.32 2886
717.023 1067.32 2886
723.925 1067.32 2886
725.761 1059.93 2866
732.615 1059.93 2866
738.436 1058.45 2862
745.28 1058.45 2862
752.124 1058.45 2862
758.968 1058.45 2862
765.812 1058.45 2862
769.956 1054.75 2852
772.691 1049.2 2837
782.222 1052.9 2847
789.03 1052.9 2847
795.838 1052.9 2847
802.646 1052.9 2847
805.19 1047.35 2832
811.962 1047.35 2832
814.687 1042.18 2818
821.425 1042.18 2818
828.164 1042.18 2818
834.903 1042.18 2818
841.641 1042.18 2818
848.38 1042.18 2818
855.119 1042.18 2818
861.857 1042.18 2818
865.822 1038.85 2809
870.986 1037 2804
879.256 1038.85 2809
890.389 1044.03 2823
897.14 1044.03 2823
909.974 1051.05 2842
916.77 1051.05 2842
923.566 1051.05 2842
930.362 1051.05 2842
937.159 1051.05 2842
943.955 1051.05 2842
950.751 1051.05 2842
959.231 1052.9 2847
966.039 1052.9 2847
974.556 1054.75 2852
981.376 1054.75 2852
991.661 1058.45 2862
998.505 1058.45 2862
1005.35 1058.45 2862
1012.19 1058.45 2862
1019.04 1058.45 2862
1024.09 1056.6 2857
1032.72 1058.45 2862
1044.65 1063.63 2876
1055.19 1067.32 2886
1062.09 1067.32 2886
1070.84 1069.17 2891
1077.76 1069.17 2891
1084.67 1069.17 2891
1087.81 1065.48 2881
1094.7 1065.48 2881
1101.58 1065.48 2881
1106.55 1063.63 2876
1113.43 1063.63 2876
1114.85 1058.45 2862
1121.7 1058.45 2862
1122.62 1052.9 2847
1129.43 1052.9 2847
1136.24 1052.9 2847
1141.04 1051.05 2842
1145.82 1049.2 2837
1152.6 1049.2 2837
1159.39 1049.2 2837
1162.47 1045.87 2828
1167.17 1044.03 2823
1173.92 1044.03 2823
1174.81 1038.85 2809
1179.43 1037 2804
1181.9 1033.3 2794
1182.63 1028.12 2780
1189.27 1028.12 2780
1194.2 1026.64 2776
1210.79 1035.15 2799
1221.83 1038.85 2809
1236.86 1045.87 2828
1243.62 1045.87 2828
1254.36 1049.2 2837
1267.82 1054.75 2852
1283.13 1061.78 2871
1289.99 1061.78 2871
1299.12 1063.63 2876
1312.81 1069.17 2891
1319.72 1069.17 2891
1326.63 1069.17 2891
1333.55 1069.17 2891
1335.82 1065.48 2881
1342.71 1065.48 2881
1349.6 1065.48 2881
1361.2 1069.17 2891
1368.11 1069.17 2891
1377.4 1071.02 2896
1386.72 1072.87 2901
1393.66 1072.87 2901
1403.01 1074.72 2906
1409.96 1074.72 2906
1416.91 1074.72 2906
1423.85 1074.72 2906
1416.03 1063.63 2876
1415.98 1058.45 2862
1422.83 1058.45 2862
1424.68 1054.75 2852
1416.94 1044.03 2823
1418.65 1040.33 2813
1425.37 1040.33 2813
1424.97 1035.15 2799
1424.51 1029.97 2785
1433.73 1031.82 2790
1440.41 1031.82 2790
1447.08 1031.82 2790
1453.75 1031.82 2790
1457.8 1029.97 2785
1464.46 1029.97 2785
1471.12 1029.97 2785
1470.36 1024.79 2771
1476.98 1024.79 2771
1478.79 1021.47 2762
1485.39 1021.47 2762
1492 1021.47 2762
1503.49 1024.79 2771
1512.84 1026.64 2776
1529.33 1033.3 2794
1536.01 1033.3 2794
1561.46 1045.87 2828
1570.44 1047.35 2832
1577.22 1047.35 2832
1583.99 1047.35 2832
1588.51 1045.87 2828
1584.56 1038.85 2809
1591.28 1038.85 2809
1597.99 1038.85 2809
1604.71 1038.85 2809
1608.56 1037 2804
1607.2 1031.82 2790
1613.87 1031.82 2790
1617.64 1029.97 2785
1627.22 1031.82 2790
1633.89 1031.82 2790
1640.56 1031.82 2790
1647.23 1031.82 2790
1659.24 1035.15 2799
1671.88 1038.85 2809
1678.6 1038.85 2809
1687.72 1040.33 2813
1697.46 1042.18 2818
1707.22 1044.03 2823
1713.97 1044.03 2823
1720.72 1044.03 2823
1727.47 1044.03 2823
1734.22 1044.03 2823
1740.97 1044.03 2823
1750.82 1045.87 2828
1757.58 1045.87 2828
1779.32 1054.75 2852
1794.9 1059.93 2866
1856.45 1092.1 2953
1863.51 1092.1 2953
1894.01 1105.79 2990
1901.16 1105.79 2990
1908.31 1105.79 2990
1915.46 1105.79 2990
1943.19 1117.62 3022
1979.46 1134.26 3067
1990.03 1136.11 3072
1997.38 1136.11 3072
2004.72 1136.11 3072
2008.79 1134.26 3067
2016.13 1134.26 3067
1990.47 1115.77 3017
1965.24 1097.65 2968
1972.34 1097.65 2968
-1717.78 1039.99 2794
-1711.1 1039.99 2794
-1704.42 1039.99 2794
-1697.74 1039.99 2794
-1691.06 1039.99 2794
-1634.55 1021.38 2744
-1627.99 1021.38 2744
-1621.43 1021.38 2744
-1611.92 1019.52 2739
-1590.13 1009.84 2713
-1578.39 1006.49 2704
-1559.14 998.305 2682
-1552.72 998.305 2682
-1531.32 988.627 2656
-1530.13 991.977 2665
-1528.34 994.954 2673
-1536.75 1004.63 2699
-1530.29 1004.63 2699
-1526.66 1006.49 2704
-1520.2 1006.49 2704
-1513.73 1006.49 2704
-1271.57 1057.86 2842
-1267 1059.72 2847
-1260.19 1059.72 2847
-1253.38 1059.72 2847
-1246.57 1059.72 2847
-1239.77 1059.72 2847
-1230.79 1057.86 2842
-1224 1057.86 2842
-1221.48 1061.58 2852
-1214.66 1061.58 2852
-1207.84 1061.58 2852
-1201.02 1061.58 2852
-1194.2 1061.58 2852
-1193.21 1066.79 2866
-1186.36 1066.79 2866
-1189.79 1076.1 2891
-1182.88 1076.1 2891
-1175.97 1076.1 2891
-1169.05 1076.1 2891
-1168.17 1081.68 2906
-1165.62 1085.78 2917
-1158.64 1085.78 2917
-1151.67 1085.78 2917
-1144.69 1085.78 2917
-1119.77 1068.65 2871
-1112.91 1068.65 2871
-1106.04 1068.65 2871
-1082.71 1052.65 2828
-1072.15 1048.93 2818
-1060.12 1043.72 2804
-1055.29 1045.58 2809
-1048.57 1045.58 2809
-1045.19 1048.93 2818
-1038.45 1048.93 2818
-1031.71 1048.93 2818
-1024.98 1048.93 2818
-1025.1 1056 2837
-1023.7 1061.58 2852
-1016.88 1061.58 2852
-1010.06 1061.58 2852
-999.725 1057.86 2842
-986.291 1050.79 2823
-979.54 1050.79 2823
-956.594 1033.29 2776
-946.876 1029.94 2767
-938.56 1028.08 2762
-931.955 1028.08 2762
-923.675 1026.22 2757
-917.082 1026.22 2757
-910.49 1026.22 2757
-907.175 1029.94 2767
-900.559 1029.94 2767
-893.942 1029.94 2767
-887.325 1029.94 2767
-880.708 1029.94 2767
-874.092 1029.94 2767
-867.475 1029.94 2767
-860.858 1029.94 2767
-854.241 1029.94 2767
-847.625 1029.94 2767
-837.969 1026.22 2757
-831.376 1026.22 2757
-824.783 1026.22 2757
-818.19 1026.22 2757
-808.948 1022.87 2748
-805.004 1026.22 2757
-798.412 1026.22 2757
-791.819 1026.22 2757
-785.226 1026.22 2757
-780.045 1028.08 2762
-777.361 1033.29 2776
-771.833 1034.78 2780
-765.185 1034.78 2780
-758.537 1034.78 2780
-751.89 1034.78 2780
-745.242 1034.78 2780
-736.203 1031.43 2771
-729.577 1031.43 2771
-718.254 1024.73 2753
-711.671 1024.73 2753
-701.502 1019.52 2739
-696.221 1021.38 2744
-689.659 1021.38 2744
-685.338 1024.73 2753
-678.755 1024.73 2753
-675.59 1029.94 2767
-669.94 1031.43 2771
-666.665 1036.64 2785
-660.005 1036.64 2785
-653.345 1036.64 2785
-646.686 1036.64 2785
-640.026 1036.64 2785
-633.366 1036.64 2785
-626.706 1036.64 2785
-621.16 1038.5 2790
-617.571 1043.72 2804
-610.866 1043.72 2804
-604.161 1043.72 2804
-597.456 1043.72 2804
-591.804 1045.58 2809
-585.087 1045.58 2809
-578.37 1045.58 2809
-571.652 1045.58 2809
-567.751 1050.79 2823
-561 1050.79 2823
-554.25 1050.79 2823
-544.784 1045.58 2809
-538.067 1045.58 2809
-531.349 1045.58 2809
-523.698 1043.72 2804
-516.071 1041.85 2799
-506.83 1036.64 2785
-500.17 1036.64 2785
-491.916 1033.29 2776
-483.704 1029.94 2767
-473.122 1021.38 2744
-466.56 1021.38 2744
-458.49 1018.03 2735
-450.462 1014.68 2726
-443.129 1012.82 2721
-436.622 1012.82 2721
-429.483 1011.33 2717
-420.184 1004.63 2699
-413.73 1004.63 2699
-409.388 1009.84 2713
-402.901 1009.84 2713
-396.413 1009.84 2713
-389.207 1007.98 2708
-377.785 994.954 2673
-371.393 994.954 2673
-349.835 1006.49 2704
-343.369 1006.49 2704
-341.887 1021.38 2744
-335.325 1021.38 2744
-328.764 1021.38 2744
-277.176 1024.73 2753
-270.593 1024.73 2753
-264.009 1024.73 2753
-256.959 1022.87 2748
-250.387 1022.87 2748
-243.816 1022.87 2748
-237.676 1024.73 2753
-231.093 1024.73 2753
-226.385 1033.29 2776
-219.747 1033.29 2776
-213.109 1033.29 2776
-207.14 1036.64 2785
-200.84 1038.5 2790
-194.169 1038.5 2790
-187.497 1038.5 2790
-180.825 1038.5 2790
-174.153 1038.5 2790
-166.641 1033.29 2776
-160.003 1033.29 2776
-153.365 1033.29 2776
-146.726 1033.29 2776
-140.088 1033.29 2776
-133.21 1031.43 2771
-126.583 1031.43 2771
-120.173 1033.29 2776
-113.535 1033.29 2776
-106.897 1033.29 2776
-99.9335 1029.94 2767
-93.3168 1029.94 2767
-86.7001 1029.94 2767
-79.9386 1028.08 2762
-72.4842 1016.17 2730
-65.3278 1006.49 2704
-58.8617 1006.49 2704
-52.2988 1004.63 2699
-45.7087 1001.65 2691
-5.97235 842.715 2264
-0.558442 842.715 2264
4.85547 842.715 2264
10.1832 835.643 2245
15.5517 835.643 2245
20.7804 830.059 2230
26.113 830.059 2230
31.3187 826.709 2221
36.3989 821.498 2207
41.5065 818.148 2198
46.7626 818.148 2198
51.7347 813.681 2186
56.9621 813.681 2186
62.1895 813.681 2186
67.4168 813.681 2186
72.9433 817.031 2195
78.1922 817.031 2195
83.6692 819.265 2201
89.1749 821.498 2207
94.5809 822.615 2210
99.8657 822.615 2210
105.531 825.593 2218
111.135 827.826 2224
116.767 830.059 2230
122.1 830.059 2230
127.432 830.059 2230
133.122 832.293 2236
139.212 836.759 2248
144.588 836.759 2248
150.364 838.993 2254
155.961 840.109 2257
162.288 844.948 2270
167.716 844.948 2270
173.144 844.948 2270
178.573 844.948 2270
184.001 844.948 2270
189.429 844.948 2270
195.372 847.182 2276
201.344 849.415 2282
207.073 850.532 2285
212.537 850.532 2285
218.956 854.254 2295
224.444 854.254 2295
229.932 854.254 2295
298.466 1034.78 2780
305.114 1034.78 2780
313.893 1041.85 2799
320.586 1041.85 2799
327.279 1041.85 2799
333.972 1041.85 2799
340.057 1039.99 2794
346.738 1039.99 2794
353.42 1039.99 2794
360.101 1039.99 2794
364.419 1033.29 2776
371.058 1033.29 2776
380.145 1039.99 2794
386.826 1039.99 2794
396.888 1048.93 2818
404.343 1050.79 2823
416.044 1063.44 2857
422.876 1063.44 2857
431.062 1066.79 2866
437.915 1066.79 2866
444.769 1066.79 2866
443.271 1047.07 2813
446.958 1039.99 2794
452.178 1036.64 2785
458.838 1036.64 2785
466.333 1038.5 2790
473.005 1038.5 2790
482.943 1045.58 2809
489.661 1045.58 2809
496.378 1045.58 2809
503.095 1045.58 2809
509.812 1045.58 2809
518.184 1048.93 2818
524.923 1048.93 2818
531.662 1048.93 2818
538.4 1048.93 2818
540.496 1039.99 2794
547.177 1039.99 2794
553.859 1039.99 2794
561.543 1041.85 2799
568.236 1041.85 2799
577.805 1047.07 2813
584.532 1047.07 2813
591.259 1047.07 2813
599.049 1048.93 2818
605.787 1048.93 2818
612.526 1048.93 2818
619.265 1048.93 2818
626.003 1048.93 2818
632.742 1048.93 2818
640.615 1050.79 2823
647.366 1050.79 2823
657.361 1056 2837
665.315 1057.86 2842
672.111 1057.86 2842
678.907 1057.86 2842
685.703 1057.86 2842
694.936 1061.58 2852
702.986 1063.44 2857
709.818 1063.44 2857
717.905 1065.3 2862
724.748 1065.3 2862
731.592 1065.3 2862
738.436 1065.3 2862
745.28 1065.3 2862
752.124 1065.3 2862
758.968 1065.3 2862
765.812 1065.3 2862
769.956 1061.58 2852
772.691 1056 2837
780.849 1057.86 2842
787.645 1057.86 2842
794.441 1057.86 2842
801.237 1057.86 2842
802.631 1050.79 2823
809.382 1050.79 2823
814.687 1048.93 2818
819.968 1047.07 2813
826.695 1047.07 2813
834.903 1048.93 2818
841.641 1048.93 2818
848.38 1048.93 2818
853.602 1047.07 2813
860.328 1047.07 2813
865.822 1045.58 2809
870.986 1043.72 2804
876.126 1041.85 2799
885.974 1045.58 2809
897.14 1050.79 2823
903.891 1050.79 2823
910.641 1050.79 2823
920.317 1054.14 2832
927.089 1054.14 2832
933.861 1054.14 2832
937.644 1050.79 2823
944.394 1050.79 2823
951.145 1050.79 2823
957.896 1050.79 2823
967.722 1054.14 2832
976.214 1056 2837
984.731 1057.86 2842
991.527 1057.86 2842
998.323 1057.86 2842
1005.12 1057.86 2842
1011.92 1057.86 2842
1018.71 1057.86 2842
1025.51 1057.86 2842
1039.57 1065.3 2862
1051.53 1070.52 2876
1058.41 1070.52 2876
1065.29 1070.52 2876
1072.16 1070.52 2876
1079.04 1070.52 2876
1085.92 1070.52 2876
1092.8 1070.52 2876
1095.85 1066.79 2866
1101.16 1065.3 2862
1108.01 1065.3 2862
1110.96 1061.58 2852
1115.82 1059.72 2847
1122.62 1059.72 2847
1129.43 1059.72 2847
1132.25 1056 2837
1139.03 1056 2837
1142.18 1052.65 2828
1148.95 1052.65 2828
1155.71 1052.65 2828
1158.36 1048.93 2818
1161.38 1045.58 2809
1168.09 1045.58 2809
1172.72 1043.72 2804
1177.32 1041.85 2799
1175.98 1034.78 2780
1180.93 1033.29 2776
1187.56 1033.29 2776
1186.03 1026.22 2757
1194.78 1028.08 2762
1219.66 1043.72 2804
1230.3 1047.07 2813
1237.03 1047.07 2813
1252.15 1054.14 2832
1263.37 1057.86 2842
1274.64 1061.58 2852
1281.46 1061.58 2852
1290.53 1063.44 2857
1303.72 1068.65 2871
1310.59 1068.65 2871
1317.45 1068.65 2871
1324.32 1068.65 2871
1331.19 1068.65 2871
1340.38 1070.52 2876
1347.26 1070.52 2876
1354.14 1070.52 2876
1361.01 1070.52 2876
1370.27 1072.38 2881
1381.94 1076.1 2891
1388.85 1076.1 2891
1403.01 1081.68 2906
1409.96 1081.68 2906
1416.91 1081.68 2906
1416.5 1076.1 2891
1413.57 1068.65 2871
1411.04 1061.58 2852
1417.86 1061.58 2852
1419.68 1057.86 2842
1416.94 1050.79 2823
1418.65 1047.07 2813
1425.37 1047.07 2813
1424.97 1041.85 2799
1421.95 1034.78 2780
1428.6 1034.78 2780
1437.83 1036.64 2785
1444.49 1036.64 2785
1451.14 1036.64 2785
1455.19 1034.78 2780
1461.84 1034.78 2780
1468.48 1034.78 2780
1470.36 1031.43 2771
1476.98 1031.43 2771
1478.79 1028.08 2762
1485.39 1028.08 2762
1492 1028.08 2762
1503.49 1031.43 2771
1512.84 1033.29 2776
1529.33 1039.99 2794
1536.01 1039.99 2794
1561.46 1052.65 2828
1570.44 1054.14 2832
1577.22 1054.14 2832
1583.99 1054.14 2832
1588.51 1052.65 2828
1584.56 1045.58 2809
1591.28 1045.58 2809
1597.99 1045.58 2809
1604.71 1045.58 2809
1608.56 1043.72 2804
1607.2 1038.5 2790
1613.87 1038.5 2790
1617.64 1036.64 2785
1627.22 1038.5 2790
1633.89 1038.5 2790
1640.56 1038.5 2790
1647.23 1038.5 2790
1659.24 1041.85 2799
1671.88 1045.58 2809
1678.6 1045.58 2809
1685.32 1045.58 2809
1697.46 1048.93 2818
1707.22 1050.79 2823
1713.97 1050.79 2823
1720.72 1050.79 2823
1727.47 1050.79 2823
1734.22 1050.79 2823
1740.97 1050.79 2823
1747.72 1050.79 2823
1754.47 1050.79 2823
1766.84 1054.14 2832
1794.9 1066.79 2866
1830.05 1083.54 2911
1837.01 1083.54 2911
1894.01 1112.95 2990
1901.16 1112.95 2990
1908.31 1112.95 2990
1915.46 1112.95 2990
1936.11 1120.77 3011
1947.19 1123 3017
1990.03 1143.47 3072
1997.38 1143.47 3072
2004.72 1143.47 3072
1976.05 1123 3017
1983.26 1123 3017
1962.11 1106.99 2974
1965.24 1104.76 2968
1972.34 1104.76 2968
2058.2 1004.63 2699
2064.66 1004.63 2699
-1717.78 1046.69 2794
-1711.1 1046.69 2794
-1704.42 1046.69 2794
-1697.74 1046.69 2794
-1691.06 1046.69 2794
-1631.57 1026.08 2739
-1625.02 1026.08 2739
-1618.47 1026.08 2739
-1609.57 1024.58 2735
-1584.86 1012.97 2704
-1565.55 1004.73 2682
-1559.14 1004.73 2682
-1552.72 1004.73 2682
-1531.32 994.989 2656
-1524.97 994.989 2656
-1521.47 996.862 2661
-1517.39 998.361 2665
-1511.02 998.361 2665
-1521.58 1009.6 2695
-1515.14 1009.6 2695
-1508.69 1009.6 2695
-1258.59 1053.8 2813
-1251.87 1053.8 2813
-1245.14 1053.8 2813
-1238.41 1053.8 2813
-1231.69 1053.8 2813
-1224.96 1053.8 2813
-1216.5 1052.31 2809
-1209.78 1052.31 2809
-1203.07 1052.31 2809
-1196.35 1052.31 2809
-1189.63 1052.31 2809
-1182.91 1052.31 2809
-1174.1 1050.43 2804
-1171.15 1053.8 2813
-1164.42 1053.8 2813
-1165.51 1060.92 2832
-1158.74 1060.92 2832
-1151.97 1060.92 2832
-1149.24 1064.67 2842
-1142.44 1064.67 2842
-1135.65 1064.67 2842
-1128.85 1064.67 2842
-1122.05 1064.67 2842
-1115.26 1064.67 2842
-1099.1 1055.68 2818
-1090.43 1053.8 2813
-1083.7 1053.8 2813
-1071.61 1048.56 2799
-1059.59 1043.32 2785
-1051.04 1041.44 2780
-1046.27 1043.32 2785
-1039.61 1043.32 2785
-1036.29 1046.69 2794
-1029.61 1046.69 2794
-1022.93 1046.69 2794
-1016.25 1046.69 2794
-1009.57 1046.69 2794
-1001.45 1045.19 2790
-994.777 1045.19 2790
-986.334 1043.32 2785
-976.509 1039.94 2776
-960.088 1029.45 2748
-955.251 1031.33 2753
-948.668 1031.33 2753
-942.085 1031.33 2753
-935.502 1031.33 2753
-928.918 1031.33 2753
-922.335 1031.33 2753
-914.089 1029.45 2748
-909.169 1031.33 2753
-903.897 1032.83 2757
-897.304 1032.83 2757
-892.326 1034.7 2762
-885.722 1034.7 2762
-880.708 1036.57 2767
-874.092 1036.57 2767
-867.475 1036.57 2767
-860.858 1036.57 2767
-852.698 1034.7 2762
-846.093 1034.7 2762
-836.753 1031.33 2753
-828.662 1029.45 2748
-822.09 1029.45 2748
-815.519 1029.45 2748
-806.298 1026.08 2739
-799.749 1026.08 2739
-793.199 1026.08 2739
-786.649 1026.08 2739
-780.099 1026.08 2739
-774.962 1027.96 2744
-772.04 1032.83 2757
-766.836 1034.7 2762
-760.231 1034.7 2762
-753.626 1034.7 2762
-747.021 1034.7 2762
-740.417 1034.7 2762
-733.812 1034.7 2762
-724.837 1031.33 2753
-713.558 1024.58 2735
-707.018 1024.58 2735
-696.892 1019.34 2721
-692.669 1022.71 2730
-687.397 1024.58 2735
-680.857 1024.58 2735
-674.317 1024.58 2735
-669.974 1027.96 2744
-667.764 1034.7 2762
-663.314 1038.07 2771
-656.687 1038.07 2771
-650.061 1038.07 2771
-643.435 1038.07 2771
-637.957 1039.94 2776
-631.319 1039.94 2776
-625.581 1041.44 2780
-620.046 1043.32 2785
-616.47 1048.56 2799
-609.777 1048.56 2799
-604.161 1050.43 2804
-597.456 1050.43 2804
-591.804 1052.31 2809
-585.087 1052.31 2809
-578.37 1052.31 2809
-571.652 1052.31 2809
-567.751 1057.55 2823
-561 1057.55 2823
-554.25 1057.55 2823
-544.784 1052.31 2809
-538.067 1052.31 2809
-531.349 1052.31 2809
-523.698 1050.43 2804
-516.071 1048.56 2799
-506.83 1043.32 2785
-500.17 1043.32 2785
-491.916 1039.94 2776
-483.704 1036.57 2767
-473.122 1027.96 2744
-466.56 1027.96 2744
-458.49 1024.58 2735
-450.462 1021.21 2726
-443.129 1019.34 2721
-436.622 1019.34 2721
-429.483 1017.84 2717
-420.184 1011.1 2699
-413.73 1011.1 2699
-409.388 1016.34 2713
-402.901 1016.34 2713
-396.413 1016.34 2713
-389.207 1014.47 2708
-377.785 1001.36 2673
-371.393 1001.36 2673
-363.908 998.361 2665
-357.535 998.361 2665
-351.163 998.361 2665
-349.835 1012.97 2704
-343.369 1012.97 2704
-341.887 1027.96 2744
-335.325 1027.96 2744
-328.764 1027.96 2744
-322.202 1027.96 2744
-314.03 1022.71 2730
-281.904 1024.58 2735
-277.176 1031.33 2753
-270.593 1031.33 2753
-264.009 1031.33 2753
-256.959 1029.45 2748
-250.387 1029.45 2748
-243.816 1029.45 2748
-237.676 1031.33 2753
-231.093 1031.33 2753
-226.385 1039.94 2776
-219.747 1039.94 2776
-213.109 1039.94 2776
-207.14 1043.32 2785
-200.84 1045.19 2790
-194.169 1045.19 2790
-187.497 1045.19 2790
-180.825 1045.19 2790
-174.153 1045.19 2790
-166.641 1039.94 2776
-160.003 1039.94 2776
-153.365 1039.94 2776
-146.726 1039.94 2776
-140.088 1039.94 2776
-133.21 1038.07 2771
-126.583 1038.07 2771
-120.173 1039.94 2776
-113.535 1039.94 2776
-106.897 1039.94 2776
-99.9335 1036.57 2767
-93.3168 1036.57 2767
-86.7001 1036.57 2767
-79.9386 1034.7 2762
-72.4842 1022.71 2730
-65.3278 1012.97 2704
-58.8617 1012.97 2704
-52.2988 1011.1 2699
-45.7087 1008.1 2691
-16.8447 850.386 2270
-11.4164 850.386 2270
-5.98818 850.386 2270
-0.558442 848.138 2264
4.85547 848.138 2264
10.2694 848.138 2264
15.5517 841.021 2245
20.9201 841.021 2245
26.2886 841.021 2245
31.361 833.154 2224
36.5803 830.906 2218
41.5065 823.413 2198
46.7626 823.413 2198
51.7347 818.918 2186
56.9621 818.918 2186
62.2748 820.042 2189
67.5094 820.042 2189
72.9433 822.29 2195
78.1922 822.29 2195
83.7833 825.661 2204
89.1749 826.785 2207
94.5809 827.909 2210
99.8657 827.909 2210
105.531 830.906 2218
111.135 833.154 2224
116.767 835.401 2230
122.1 835.401 2230
127.432 835.401 2230
133.301 838.773 2239
139.212 842.144 2248
144.588 842.144 2248
150.364 844.392 2254
156.238 847.014 2261
162.288 850.386 2270
167.716 850.386 2270
173.144 850.386 2270
178.573 850.386 2270
184.487 852.634 2276
189.93 852.634 2276
195.887 854.881 2282
201.874 857.129 2288
207.345 857.129 2288
212.816 857.129 2288
218.956 859.752 2295
224.444 859.752 2295
229.932 859.752 2295
298.466 1041.44 2780
305.114 1041.44 2780
311.762 1041.44 2780
318.41 1041.44 2780
325.058 1041.44 2780
331.705 1041.44 2780
337.866 1039.94 2776
344.505 1039.94 2776
351.143 1039.94 2776
357.137 1038.07 2771
363.238 1036.57 2767
369.855 1036.57 2767
377.016 1038.07 2771
383.642 1038.07 2771
392.944 1045.19 2790
400.905 1048.56 2799
407.598 1048.56 2799
414.292 1048.56 2799
420.985 1048.56 2799
426.303 1045.19 2790
431.423 1041.44 2780
438.071 1041.44 2780
444.079 1039.94 2776
450.717 1039.94 2776
458.014 1041.44 2780
464.662 1041.44 2780
471.31 1041.44 2780
479.677 1045.19 2790
487.917 1048.56 2799
494.611 1048.56 2799
501.304 1048.56 2799
507.997 1048.56 2799
514.69 1048.56 2799
521.384 1048.56 2799
528.077 1048.56 2799
533.815 1046.69 2794
538.755 1043.32 2785
545.415 1043.32 2785
551.084 1041.44 2780
557.731 1041.44 2780
565.394 1043.32 2785
573.081 1045.19 2790
580.584 1046.69 2794
587.265 1046.69 2794
593.947 1046.69 2794
600.628 1046.69 2794
607.309 1046.69 2794
613.99 1046.69 2794
620.672 1046.69 2794
629.598 1050.43 2804
639.481 1055.68 2818
646.219 1055.68 2818
654.117 1057.55 2823
660.867 1057.55 2823
670.929 1062.8 2837
677.713 1062.8 2837
684.497 1062.8 2837
693.718 1066.54 2847
701.756 1068.41 2852
708.576 1068.41 2852
716.65 1070.29 2857
724.748 1072.16 2862
731.592 1072.16 2862
738.436 1072.16 2862
745.28 1072.16 2862
750.81 1070.29 2857
757.642 1070.29 2857
764.474 1070.29 2857
768.606 1066.54 2847
772.691 1062.8 2837
778.101 1060.92 2832
784.873 1060.92 2832
791.645 1060.92 2832
795.88 1057.55 2823
801.209 1055.68 2818
807.948 1055.68 2818
812.085 1052.31 2809
817.344 1050.43 2804
822.58 1048.56 2799
830.755 1050.43 2804
837.46 1050.43 2804
844.165 1050.43 2804
850.871 1050.43 2804
857.576 1050.43 2804
864.281 1050.43 2804
869.433 1048.56 2799
873.309 1045.19 2790
879.981 1045.19 2790
892.691 1052.31 2809
899.408 1052.31 2809
909.028 1055.68 2818
915.767 1055.68 2818
922.506 1055.68 2818
927.596 1053.8 2813
931.333 1050.43 2804
939.711 1052.31 2809
947.776 1053.8 2813
954.503 1053.8 2813
962.938 1055.68 2818
971.397 1057.55 2823
979.88 1059.42 2828
986.643 1059.42 2828
993.405 1059.42 2828
1000.17 1059.42 2828
1006.93 1059.42 2828
1011.9 1057.55 2823
1018.65 1057.55 2823
1030.49 1062.8 2837
1044.58 1070.29 2857
1051.42 1070.29 2857
1060.1 1072.16 2862
1066.94 1072.16 2862
1073.79 1072.16 2862
1078.74 1070.29 2857
1085.58 1070.29 2857
1090.5 1068.41 2852
1095.39 1066.54 2847
1102.2 1066.54 2847
1105.11 1062.8 2837
1109.94 1060.92 2832
1116.71 1060.92 2832
1123.48 1060.92 2832
1126.66 1057.55 2823
1133.41 1057.55 2823
1140.16 1057.55 2823
1146.91 1057.55 2823
1153.66 1057.55 2823
1154.66 1052.31 2809
1159.31 1050.43 2804
1166.02 1050.43 2804
1172.72 1050.43 2804
1171.43 1043.32 2785
1174.29 1039.94 2776
1172.84 1032.83 2757
1179.44 1032.83 2757
1184.31 1031.33 2753
1194.78 1034.7 2762
1213.57 1045.19 2790
1230.3 1053.8 2813
1237.03 1053.8 2813
1245.96 1055.68 2818
1258.93 1060.92 2832
1270.17 1064.67 2842
1276.96 1064.67 2842
1283.76 1064.67 2842
1295.1 1068.41 2852
1301.92 1068.41 2852
1308.74 1068.41 2852
1317.86 1070.29 2857
1324.69 1070.29 2857
1333.86 1072.16 2862
1340.7 1072.16 2862
1347.54 1072.16 2862
1356.28 1073.66 2866
1363.13 1073.66 2866
1374.77 1077.41 2876
1381.65 1077.41 2876
1395.76 1083.02 2891
1402.68 1083.02 2891
1409.59 1083.02 2891
1406.71 1075.53 2871
1406.68 1070.29 2857
1406.09 1064.67 2842
1412.88 1064.67 2842
1410.19 1057.55 2823
1411.92 1053.8 2813
1414.11 1050.43 2804
1420.81 1050.43 2804
1422.43 1046.69 2794
1419.9 1039.94 2776
1423.97 1038.07 2771
1430.6 1038.07 2771
1437.22 1038.07 2771
1443.85 1038.07 2771
1455.19 1041.44 2780
1461.84 1041.44 2780
1468.48 1041.44 2780
1468.23 1036.57 2767
1474.85 1036.57 2767
1478.79 1034.7 2762
1485.39 1034.7 2762
1487.14 1031.33 2753
1498.6 1034.7 2762
1512.84 1039.94 2776
1527.14 1045.19 2790
1533.81 1045.19 2790
1540.48 1045.19 2790
1565.45 1057.55 2823
1572.2 1057.55 2823
1578.96 1057.55 2823
1585.71 1057.55 2823
1581.74 1050.43 2804
1588.44 1050.43 2804
1595.15 1050.43 2804
1601.85 1050.43 2804
1600.53 1045.19 2790
1601.44 1041.44 2780
1608.09 1041.44 2780
1614.74 1041.44 2780
1624.3 1043.32 2785
1630.96 1043.32 2785
1640.56 1045.19 2790
1647.23 1045.19 2790
1662.2 1050.43 2804
1671.88 1052.31 2809
1680.99 1053.8 2813
1687.72 1053.8 2813
1697.46 1055.68 2818
1707.22 1057.55 2823
1713.97 1057.55 2823
1720.72 1057.55 2823
1727.47 1057.55 2823
1737.29 1059.42 2828
1744.05 1059.42 2828
1750.82 1059.42 2828
1754.47 1057.55 2823
1766.84 1060.92 2832
1773.61 1060.92 2832
1801.76 1073.66 2866
1808.61 1073.66 2866
1821.8 1077.41 2876
1841.39 1084.9 2896
1851.51 1086.77 2901
1858.45 1086.77 2901
1871.81 1090.52 2911
1905.88 1106.25 2953
1926.55 1114.12 2974
1933.66 1114.12 2974
1940.77 1114.12 2974
1947.88 1114.12 2974
1954.99 1114.12 2974
1958.15 1111.87 2968
1965.24 1111.87 2968
1972.34 1111.87 2968
2012.12 1130.23 3017
2019.33 1130.23 3017
2026.55 1130.23 3017
2058.2 1011.1 2699
2064.66 1011.1 2699
-1709.18 1048.1 2780
-1702.53 1048.1 2780
-1695.88 1048.1 2780
-1689.23 1048.1 2780
-1682.58 1048.1 2780
-1631.57 1032.64 2739
-1625.02 1032.64 2739
-1618.47 1032.64 2739
-1609.57 1031.14 2735
-1581.93 1017.56 2699
-1557.96 1006.25 2669
-1549.25 1004.74 2665
-1542.88 1004.74 2665
-1534.2 1003.24 2661
-1524.97 1001.35 2656
-1514.04 998.336 2648
-1517.39 1004.74 2665
-1511.02 1004.74 2665
-1504.64 1004.74 2665
-1252.33 1055.26 2799
-1245.64 1055.26 2799
-1238.94 1055.26 2799
-1232.25 1055.26 2799
-1223.37 1053.38 2794
-1218.86 1055.26 2799
-1212.17 1055.26 2799
-1207.63 1057.15 2804
-1200.92 1057.15 2804
-1194.22 1057.15 2804
-1187.51 1057.15 2804
-1180.81 1057.15 2804
-1169.92 1053.38 2794
-1167.4 1057.15 2804
-1164.42 1060.54 2813
-1157.69 1060.54 2813
-1153.01 1062.43 2818
-1148.31 1064.31 2823
-1145.2 1067.71 2832
-1138.42 1067.71 2832
-1131.65 1067.71 2832
-1124.88 1067.71 2832
-1118.11 1067.71 2832
-1105.84 1062.43 2818
-1095.59 1059.03 2809
-1083.06 1053.38 2794
-1076.38 1053.38 2794
-1066.25 1049.99 2785
-1054.27 1044.71 2771
-1044.24 1041.32 2762
-1039.51 1043.2 2767
-1032.89 1043.2 2767
-1029.61 1046.59 2776
-1022.98 1046.59 2776
-1019.63 1049.99 2785
-1012.97 1049.99 2785
-1006.31 1049.99 2785
-997.859 1048.1 2780
-991.211 1048.1 2780
-981.376 1044.71 2771
-966.659 1036.04 2748
-958.69 1034.53 2744
-953.516 1036.04 2748
-946.945 1036.04 2748
-940.374 1036.04 2748
-933.803 1036.04 2748
-927.231 1036.04 2748
-919.32 1034.53 2744
-911.095 1032.64 2739
-907.517 1036.04 2748
-902.585 1037.92 2753
-896.002 1037.92 2753
-889.419 1037.92 2753
-882.836 1037.92 2753
-879.117 1041.32 2762
-872.512 1041.32 2762
-865.907 1041.32 2762
-859.303 1041.32 2762
-852.698 1041.32 2762
-846.093 1041.32 2762
-836.753 1037.92 2753
-828.662 1036.04 2748
-822.09 1036.04 2748
-815.519 1036.04 2748
-806.298 1032.64 2739
-795.953 1027.74 2726
-789.434 1027.74 2726
-784.064 1029.25 2730
-777.536 1029.25 2730
-772.42 1031.14 2735
-768.4 1034.53 2744
-761.838 1034.53 2744
-755.276 1034.53 2744
-748.715 1034.53 2744
-740.801 1032.64 2739
-734.251 1032.64 2739
-726.638 1031.14 2735
-720.098 1031.14 2735
-706.514 1020.96 2708
-700.038 1020.96 2708
-686.903 1011.15 2682
-683.788 1016.06 2695
-680.611 1020.96 2708
-675.38 1022.84 2713
-668.893 1022.84 2713
-666.556 1029.25 2730
-663.412 1034.53 2744
-661.159 1041.32 2762
-654.554 1041.32 2762
-649.123 1043.2 2767
-642.506 1043.2 2767
-635.889 1043.2 2767
-629.272 1043.2 2767
-623.556 1044.71 2771
-618.933 1048.1 2780
-613.387 1049.99 2785
-609.777 1055.26 2799
-603.084 1055.26 2799
-596.39 1055.26 2799
-590.75 1057.15 2804
-585.087 1059.03 2809
-578.37 1059.03 2809
-571.652 1059.03 2809
-564.935 1059.03 2809
-558.218 1059.03 2809
-551.501 1059.03 2809
-543.814 1057.15 2804
-536.151 1055.26 2799
-529.458 1055.26 2799
-522.764 1055.26 2799
-513.49 1049.99 2785
-505.192 1046.59 2776
-498.554 1046.59 2776
-490.321 1043.2 2767
-479.684 1034.53 2744
-472.26 1032.64 2739
-465.71 1032.64 2739
-452.455 1017.56 2699
-444.679 1014.55 2691
-437.429 1012.66 2686
-431.006 1012.66 2686
-421.896 1006.25 2669
-414.268 1003.24 2661
-407.905 1003.24 2661
-403.352 1007.76 2673
-396.96 1007.76 2673
-390.568 1007.76 2673
-384.177 1007.76 2673
-377.785 1007.76 2673
-371.393 1007.76 2673
-363.908 1004.74 2665
-357.535 1004.74 2665
-351.163 1004.74 2665
-349.835 1019.45 2704
-343.369 1019.45 2704
-341.887 1034.53 2744
-335.325 1034.53 2744
-328.764 1034.53 2744
-322.202 1034.53 2744
-314.03 1029.25 2730
-281.904 1031.14 2735
-276.672 1036.04 2748
-270.101 1036.04 2748
-263.53 1036.04 2748
-256.959 1036.04 2748
-250.387 1036.04 2748
-243.017 1032.64 2739
-236.899 1034.53 2744
-230.673 1036.04 2748
-224.836 1039.43 2757
-218.243 1039.43 2757
-211.65 1039.43 2757
-205.058 1039.43 2757
-198.465 1039.43 2757
-191.872 1039.43 2757
-186.22 1044.71 2771
-179.594 1044.71 2771
-172.967 1044.71 2771
-166.341 1044.71 2771
-159.715 1044.71 2771
-153.088 1044.71 2771
-146.462 1044.71 2771
-139.836 1044.71 2771
-132.777 1041.32 2762
-126.172 1041.32 2762
-119.957 1044.71 2771
-113.331 1044.71 2771
-106.704 1044.71 2771
-99.5724 1039.43 2757
-92.9796 1039.43 2757
-86.3867 1039.43 2757
-78.752 1025.86 2721
-71.7939 1019.45 2704
-64.8929 1012.66 2686
-58.4699 1012.66 2686
-52.0469 1012.66 2686
-16.8447 855.824 2270
-11.4164 855.824 2270
-5.98818 855.824 2270
-0.558442 853.562 2264
4.85547 853.562 2264
10.2694 853.562 2264
15.5517 846.398 2245
20.9201 846.398 2245
26.2886 846.398 2245
31.361 838.481 2224
36.5803 836.219 2218
41.5065 828.679 2198
46.7626 828.679 2198
51.7347 824.155 2186
56.9621 824.155 2186
62.2748 825.286 2189
67.5094 825.286 2189
72.9433 827.548 2195
78.1922 827.548 2195
83.7833 830.941 2204
89.1749 832.072 2207
94.5809 833.203 2210
99.8657 833.203 2210
105.531 836.219 2218
111.135 838.481 2224
116.767 840.743 2230
122.1 840.743 2230
127.604 841.874 2233
133.301 844.136 2239
139.212 847.53 2248
144.588 847.53 2248
150.831 852.431 2261
156.652 854.693 2267
162.502 856.955 2273
167.938 856.955 2273
173.373 856.955 2273
179.045 858.086 2276
184.487 858.086 2276
189.93 858.086 2276
196.145 861.479 2285
201.874 862.61 2288
207.708 864.118 2292
213.188 864.118 2292
218.956 865.249 2295
224.444 865.249 2295
229.932 865.249 2295
298.466 1048.1 2780
305.114 1048.1 2780
311.762 1048.1 2780
318.41 1048.1 2780
325.058 1048.1 2780
331.705 1048.1 2780
337.866 1046.59 2776
344.505 1046.59 2776
351.143 1046.59 2776
357.137 1044.71 2771
363.238 1043.2 2767
369.855 1043.2 2767
377.016 1044.71 2771
383.642 1044.71 2771
392.944 1051.87 2790
400.905 1055.26 2799
407.598 1055.26 2799
414.292 1055.26 2799
420.985 1055.26 2799
426.303 1051.87 2790
431.423 1048.1 2780
438.071 1048.1 2780
444.079 1046.59 2776
450.717 1046.59 2776
458.014 1048.1 2780
464.662 1048.1 2780
471.31 1048.1 2780
479.677 1051.87 2790
487.917 1055.26 2799
494.611 1055.26 2799
501.304 1055.26 2799
507.997 1055.26 2799
514.69 1055.26 2799
521.384 1055.26 2799
528.077 1055.26 2799
533.815 1053.38 2794
538.755 1049.99 2785
545.415 1049.99 2785
551.084 1048.1 2780
557.731 1048.1 2780
565.394 1049.99 2785
573.081 1051.87 2790
580.584 1053.38 2794
587.265 1053.38 2794
593.947 1053.38 2794
600.628 1053.38 2794
607.309 1053.38 2794
613.99 1053.38 2794
620.672 1053.38 2794
629.598 1057.15 2804
639.481 1062.43 2818
646.219 1062.43 2818
654.117 1064.31 2823
660.867 1064.31 2823
670.929 1069.59 2837
677.713 1069.59 2837
684.497 1069.59 2837
693.718 1073.36 2847
701.756 1075.25 2852
708.576 1075.25 2852
716.65 1077.13 2857
724.748 1079.02 2862
731.592 1079.02 2862
738.436 1079.02 2862
745.28 1079.02 2862
750.81 1077.13 2857
757.642 1077.13 2857
764.474 1077.13 2857
768.606 1073.36 2847
772.691 1069.59 2837
778.101 1067.71 2832
784.873 1067.71 2832
791.645 1067.71 2832
795.88 1064.31 2823
801.209 1062.43 2818
807.948 1062.43 2818
812.085 1059.03 2809
817.344 1057.15 2804
822.58 1055.26 2799
830.755 1057.15 2804
837.46 1057.15 2804
844.165 1057.15 2804
850.871 1057.15 2804
857.576 1057.15 2804
864.281 1057.15 2804
869.433 1055.26 2799
873.309 1051.87 2790
879.981 1051.87 2790
892.691 1059.03 2809
899.408 1059.03 2809
909.028 1062.43 2818
915.767 1062.43 2818
922.506 1062.43 2818
927.596 1060.54 2813
931.333 1057.15 2804
939.711 1059.03 2809
947.776 1060.54 2813
954.503 1060.54 2813
962.938 1062.43 2818
971.397 1064.31 2823
979.88 1066.2 2828
986.643 1066.2 2828
993.405 1066.2 2828
1000.17 1066.2 2828
1006.93 1066.2 2828
1011.9 1064.31 2823
1018.65 1064.31 2823
1030.49 1069.59 2837
1044.58 1077.13 2857
1051.42 1077.13 2857
1060.1 1079.02 2862
1066.94 1079.02 2862
1073.79 1079.02 2862
1078.74 1077.13 2857
1085.58 1077.13 2857
1090.5 1075.25 2852
1095.39 1073.36 2847
1102.2 1073.36 2847
1105.11 1069.59 2837
1104.45 1062.43 2818
1111.19 1062.43 2818
1117.93 1062.43 2818
1119.08 1057.15 2804
1125.78 1057.15 2804
1138.14 1062.43 2818
1144.88 1062.43 2818
1151.62 1062.43 2818
1152.61 1057.15 2804
1153.52 1051.87 2790
1160.19 1051.87 2790
1155.16 1041.32 2762
1159.66 1039.43 2757
1160.75 1034.53 2744
1163.48 1031.14 2735
1170.02 1031.14 2735
1170.54 1025.86 2721
1190.89 1037.92 2753
1207.48 1046.59 2776
1226.36 1057.15 2804
1233.07 1057.15 2804
1243.75 1060.54 2813
1254.92 1064.31 2823
1261.67 1064.31 2823
1268.43 1064.31 2823
1275.18 1064.31 2823
1286.01 1067.71 2832
1292.79 1067.71 2832
1299.56 1067.71 2832
1306.33 1067.71 2832
1315.42 1069.59 2837
1329.2 1075.25 2852
1336.02 1075.25 2852
1342.84 1075.25 2852
1352.02 1077.13 2857
1358.85 1077.13 2857
1369.99 1080.52 2866
1376.84 1080.52 2866
1388.52 1084.29 2876
1395.4 1084.29 2876
1402.28 1084.29 2876
1402.3 1079.02 2862
1399.29 1071.48 2842
1396.69 1064.31 2823
1403.44 1064.31 2823
1405.19 1060.54 2813
1409.91 1059.03 2809
1411.59 1055.26 2799
1418.28 1055.26 2799
1422.43 1053.38 2794
1417.34 1044.71 2771
1423.97 1044.71 2771
1430.6 1044.71 2771
1437.22 1044.71 2771
1439.16 1041.32 2762
1445.77 1041.32 2762
1452.37 1041.32 2762
1458.97 1041.32 2762
1453.38 1032.64 2739
1459.93 1032.64 2739
1461.66 1029.25 2730
1468.18 1029.25 2730
1474.71 1029.25 2730
1488.84 1034.53 2744
1495.4 1034.53 2744
1511.81 1041.32 2762
1518.42 1041.32 2762
1525.02 1041.32 2762
1531.63 1041.32 2762
1538.23 1041.32 2762
1544.84 1041.32 2762
1543.58 1036.04 2748
1555.23 1039.43 2757
1574.85 1048.1 2780
1581.5 1048.1 2780
1588.14 1048.1 2780
1594.79 1048.1 2780
1599.14 1046.59 2776
1605.77 1046.59 2776
1612.41 1046.59 2776
1621.38 1048.1 2780
1630.96 1049.99 2785
1648.79 1057.15 2804
1655.5 1057.15 2804
1667.54 1060.54 2813
1677.24 1062.43 2818
1686.97 1064.31 2823
1693.72 1064.31 2823
1700.47 1064.31 2823
1707.22 1064.31 2823
1713.97 1064.31 2823
1729.25 1069.59 2837
1736.04 1069.59 2837
1742.82 1069.59 2837
1749.6 1069.59 2837
1756.39 1069.59 2837
1760.07 1067.71 2832
1766.84 1067.71 2832
1773.61 1067.71 2832
1786.67 1071.48 2842
1793.46 1071.48 2842
1803.43 1073.36 2847
1810.24 1073.36 2847
1823.43 1077.13 2857
1830.26 1077.13 2857
1862.17 1091.84 2896
1872.32 1093.72 2901
1905.82 1109.18 2942
1912.85 1109.18 2942
1919.89 1109.18 2942
1930.2 1111.06 2947
1937.24 1111.06 2947
1951.55 1115.21 2958
1958.62 1115.21 2958
1969.02 1117.1 2963
2012.12 1137.45 3017
2019.33 1137.45 3017
2026.55 1137.45 3017
2033.76 1137.45 3017
2065.06 1020.96 2708
2071.54 1020.96 2708
-1709.18 1054.76 2780
-1702.53 1054.76 2780
-1695.88 1054.76 2780
-1689.23 1054.76 2780
-1682.58 1054.76 2780
-1614.2 1024.03 2699
-1631.57 1039.21 2739
-1625.02 1039.21 2739
-1618.47 1039.21 2739
-1609.57 1037.69 2735
-1581.93 1024.03 2699
-1557.96 1012.65 2669
-1549.25 1011.13 2665
-1542.88 1011.13 2665
-1534.2 1009.61 2661
-1524.97 1007.71 2656
-1514.04 1004.68 2648
-1517.39 1011.13 2665
-1511.02 1011.13 2665
-1504.64 1011.13 2665
-1248.3 1058.56 2790
-1241.63 1058.56 2790
-1234.96 1058.56 2790
-1226.09 1056.66 2785
-1219.43 1056.66 2785
-1216.69 1060.07 2794
-1210 1060.07 2794
-1205.48 1061.97 2799
-1198.78 1061.97 2799
-1192.09 1061.97 2799
-1185.4 1061.97 2799
-1176.6 1060.07 2794
-1166.15 1056.66 2785
-1163.24 1060.07 2794
-1160.69 1063.87 2804
-1153.99 1063.87 2804
-1150.97 1067.28 2813
-1144.24 1067.28 2813
-1141.56 1071.08 2823
-1134.81 1071.08 2823
-1128.05 1071.08 2823
-1119.32 1069.18 2818
-1112.58 1069.18 2818
-1100.35 1063.87 2804
-1091.69 1061.97 2799
-1079.57 1056.66 2785
-1072.91 1056.66 2785
-1060.89 1051.35 2771
-1048.94 1046.03 2757
-1038.94 1042.62 2748
-1032.37 1042.62 2748
-1024.31 1041.1 2744
-1022.57 1046.03 2757
-1015.97 1046.03 2757
-1011.21 1047.93 2762
-1004.61 1047.93 2762
-998.003 1047.93 2762
-991.398 1047.93 2762
-984.793 1047.93 2762
-975.001 1044.52 2753
-960.327 1035.79 2730
-952.401 1034.27 2726
-945.883 1034.27 2726
-937.641 1032.38 2721
-932.845 1034.27 2726
-927.686 1035.79 2730
-921.158 1035.79 2730
-914.629 1035.79 2730
-908.101 1035.79 2730
-901.573 1035.79 2730
-900.946 1042.62 2748
-894.375 1042.62 2748
-887.803 1042.62 2748
-882.836 1044.52 2753
-876.252 1044.52 2753
-870.933 1046.03 2757
-864.34 1046.03 2757
-857.747 1046.03 2757
-848.376 1042.62 2748
-841.804 1042.62 2748
-834.017 1041.1 2744
-825.948 1039.21 2739
-819.398 1039.21 2739
-812.848 1039.21 2739
-802.472 1034.27 2726
-793.325 1030.86 2717
-786.828 1030.86 2717
-780.331 1030.86 2717
-773.833 1030.86 2717
-768.466 1032.38 2721
-764.479 1035.79 2730
-757.951 1035.79 2730
-751.423 1035.79 2730
-743.803 1034.27 2726
-735.932 1032.38 2721
-729.426 1032.38 2721
-722.919 1032.38 2721
-715.359 1030.86 2717
-698.687 1016.06 2678
-692.283 1016.06 2678
-685.879 1016.06 2678
-679.475 1016.06 2678
-676.338 1020.99 2691
-670.899 1022.51 2695
-664.455 1022.51 2695
-662.405 1029.34 2713
-659.06 1034.27 2726
-653.499 1035.79 2730
-646.971 1035.79 2730
-641.616 1037.69 2735
-635.075 1037.69 2735
-629.454 1039.21 2739
-626.998 1046.03 2757
-620.405 1046.03 2757
-616.039 1049.83 2767
-609.422 1049.83 2767
-602.805 1049.83 2767
-596.189 1049.83 2767
-589.572 1049.83 2767
-582.955 1049.83 2767
-579.046 1054.76 2780
-572.398 1054.76 2780
-565.751 1054.76 2780
-559.103 1054.76 2780
-552.455 1054.76 2780
-545.807 1054.76 2780
-539.159 1054.76 2780
-532.512 1054.76 2780
-525.864 1054.76 2780
-514.173 1044.52 2753
-507.59 1044.52 2753
-500.097 1042.62 2748
-493.525 1042.62 2748
-485.359 1039.21 2739
-476.537 1034.27 2726
-465.363 1024.03 2699
-458.909 1024.03 2699
-450.275 1019.1 2686
-440.382 1011.13 2665
-432.544 1007.71 2656
-426.192 1007.71 2656
-419.841 1007.71 2656
-413.49 1007.71 2656
-406.525 1006.2 2652
-401.542 1009.61 2661
-395.178 1009.61 2661
-388.815 1009.61 2661
-382.452 1009.61 2661
-376.089 1009.61 2661
-370.281 1011.13 2665
-363.908 1011.13 2665
-357.535 1011.13 2665
-351.163 1011.13 2665
-349.835 1025.93 2704
-343.369 1025.93 2704
-341.887 1041.1 2744
-335.325 1041.1 2744
-328.764 1041.1 2744
-322.202 1041.1 2744
-314.03 1035.79 2730
-309.078 1041.1 2744
-302.517 1041.1 2744
-295.955 1041.1 2744
-288.444 1037.69 2735
-281.904 1037.69 2735
-275.766 1039.21 2739
-269.217 1039.21 2739
-262.667 1039.21 2739
-254.901 1034.27 2726
-248.383 1034.27 2726
-241.42 1032.38 2721
-236.122 1037.69 2735
-229.582 1037.69 2735
-223.776 1041.1 2744
-217.214 1041.1 2744
-210.652 1041.1 2744
-204.76 1044.52 2753
-198.177 1044.52 2753
-191.594 1044.52 2753
-185.01 1044.52 2753
-178.427 1044.52 2753
-172.967 1051.35 2771
-166.341 1051.35 2771
-159.715 1051.35 2771
-152.591 1047.93 2762
-145.986 1047.93 2762
-139.382 1047.93 2762
-132.104 1042.62 2748
-125.533 1042.62 2748
-119.351 1046.03 2757
-112.758 1046.03 2757
-106.165 1046.03 2757
-98.7778 1037.69 2735
-91.7655 1032.38 2721
-85.2587 1032.38 2721
-78.1153 1024.03 2699
-70.6522 1009.61 2661
-64.1681 1007.71 2656
-57.8168 1007.71 2656
-22.5183 870.747 2295
-17.0302 870.747 2295
-11.5422 870.747 2295
-5.98818 861.262 2270
-0.559182 860.123 2267
4.8619 860.123 2267
10.2694 858.985 2264
15.5517 851.776 2245
20.9201 851.776 2245
26.2886 851.776 2245
31.4033 844.947 2227
36.6298 842.671 2221
41.5065 833.944 2198
46.7626 833.944 2198
51.8767 831.668 2192
57.1184 831.668 2192
62.2748 830.529 2189
67.5094 830.529 2189
73.043 833.944 2198
78.2991 833.944 2198
83.7833 836.221 2204
89.2961 838.497 2210
94.7093 839.635 2213
100.001 839.635 2213
105.388 840.394 2215
110.985 842.671 2221
116.61 844.947 2227
121.936 844.947 2227
127.604 847.223 2233
133.301 849.5 2239
139.212 852.915 2248
144.588 852.915 2248
150.831 857.847 2261
156.652 860.123 2267
162.502 862.4 2273
167.938 862.4 2273
173.373 862.4 2273
179.045 863.538 2276
184.487 863.538 2276
189.93 863.538 2276
196.145 866.953 2285
201.874 868.091 2288
207.708 869.609 2292
213.188 869.609 2292
218.669 869.609 2292
295.997 1046.03 2757
302.59 1046.03 2757
311.313 1053.24 2776
317.952 1053.24 2776
324.59 1053.24 2776
331.228 1053.24 2776
336.771 1049.83 2767
343.388 1049.83 2767
350.004 1049.83 2767
354.172 1042.62 2748
360.744 1042.62 2748
367.315 1042.62 2748
375.111 1046.03 2757
383.642 1051.35 2771
390.268 1051.35 2771
397.611 1053.24 2776
404.249 1053.24 2776
410.887 1053.24 2776
416.773 1051.35 2771
420.649 1044.52 2753
427.233 1044.52 2753
433.816 1044.52 2753
440.399 1044.52 2753
446.982 1044.52 2753
453.566 1044.52 2753
462.489 1049.83 2767
469.106 1049.83 2767
477.958 1054.76 2780
484.605 1054.76 2780
491.253 1054.76 2780
497.901 1054.76 2780
505.456 1056.66 2785
512.116 1056.66 2785
518.776 1056.66 2785
525.436 1056.66 2785
532.095 1056.66 2785
536.047 1051.35 2771
542.673 1051.35 2771
549.299 1051.35 2771
555.926 1051.35 2771
563.567 1053.24 2776
572.054 1056.66 2785
578.714 1056.66 2785
585.374 1056.66 2785
593.096 1058.56 2790
600.628 1060.07 2794
607.309 1060.07 2794
613.99 1060.07 2794
620.672 1060.07 2794
627.353 1060.07 2794
637.438 1065.76 2809
644.155 1065.76 2809
654.117 1071.08 2823
660.867 1071.08 2823
667.618 1071.08 2823
674.369 1071.08 2823
681.119 1071.08 2823
690.063 1074.49 2832
699.296 1078.28 2842
706.092 1078.28 2842
714.142 1080.18 2847
722.216 1082.08 2852
729.036 1082.08 2852
735.856 1082.08 2852
742.676 1082.08 2852
748.182 1080.18 2847
754.99 1080.18 2847
761.798 1080.18 2847
765.907 1076.39 2837
770.239 1072.97 2828
775.628 1071.08 2823
782.379 1071.08 2823
787.732 1069.18 2818
793.061 1067.28 2813
794.386 1060.07 2794
801.067 1060.07 2794
805.146 1056.66 2785
811.806 1056.66 2785
818.466 1056.66 2785
825.126 1056.66 2785
831.785 1056.66 2785
838.445 1056.66 2785
845.105 1056.66 2785
851.765 1056.66 2785
856.883 1054.76 2780
860.736 1051.35 2771
864.545 1047.93 2762
869.573 1046.03 2757
879.343 1049.83 2767
885.96 1049.83 2767
892.577 1049.83 2767
899.194 1049.83 2767
905.81 1049.83 2767
912.427 1049.83 2767
920.372 1051.35 2771
928.671 1053.24 2776
940.027 1058.56 2790
946.698 1058.56 2790
953.37 1058.56 2790
960.042 1058.56 2790
966.714 1058.56 2790
973.385 1058.56 2790
980.057 1058.56 2790
986.729 1058.56 2790
994.825 1060.07 2794
1001.51 1060.07 2794
1013.6 1065.76 2809
1023.59 1069.18 2818
1035.44 1074.49 2832
1042.22 1074.49 2832
1048.99 1074.49 2832
1055.76 1074.49 2832
1066.28 1078.28 2842
1073.08 1078.28 2842
1079.88 1078.28 2842
1086.67 1078.28 2842
1091.54 1076.39 2837
1098.33 1076.39 2837
1103.17 1074.49 2832
1104.45 1069.18 2818
1111.19 1069.18 2818
1117.93 1069.18 2818
1119.08 1063.87 2804
1125.78 1063.87 2804
1138.14 1069.18 2818
1144.88 1069.18 2818
1151.62 1069.18 2818
1152.61 1063.87 2804
1153.52 1058.56 2790
1160.19 1058.56 2790
1155.16 1047.93 2762
1159.66 1046.03 2757
1160.75 1041.1 2744
1163.48 1037.69 2735
1170.02 1037.69 2735
1170.54 1032.38 2721
1190.89 1044.52 2753
1207.48 1053.24 2776
1226.36 1063.87 2804
1233.07 1063.87 2804
1243.75 1067.28 2813
1254.92 1071.08 2823
1261.67 1071.08 2823
1268.43 1071.08 2823
1275.18 1071.08 2823
1286.01 1074.49 2832
1292.79 1074.49 2832
1299.56 1074.49 2832
1306.33 1074.49 2832
1315.42 1076.39 2837
1329.2 1082.08 2852
1336.02 1082.08 2852
1342.84 1082.08 2852
1352.02 1083.98 2857
1358.85 1083.98 2857
1369.99 1087.39 2866
1376.84 1087.39 2866
1388.52 1091.18 2876
1395.4 1091.18 2876
1402.28 1091.18 2876
1402.3 1085.87 2862
1399.29 1078.28 2842
1396.69 1071.08 2823
1403.44 1071.08 2823
1405.19 1067.28 2813
1409.91 1065.76 2809
1411.59 1061.97 2799
1418.28 1061.97 2799
1422.43 1060.07 2794
1417.34 1051.35 2771
1423.97 1051.35 2771
1430.6 1051.35 2771
1437.22 1051.35 2771
1439.16 1047.93 2762
1445.77 1047.93 2762
1452.37 1047.93 2762
1458.97 1047.93 2762
1453.38 1039.21 2739
1459.93 1039.21 2739
1461.66 1035.79 2730
1468.18 1035.79 2730
1474.71 1035.79 2730
1488.84 1041.1 2744
1495.4 1041.1 2744
1511.81 1047.93 2762
1518.42 1047.93 2762
1525.02 1047.93 2762
1531.63 1047.93 2762
1538.23 1047.93 2762
1544.84 1047.93 2762
1543.58 1042.62 2748
1555.23 1046.03 2757
1574.85 1054.76 2780
1581.5 1054.76 2780
1588.14 1054.76 2780
1594.79 1054.76 2780
1599.14 1053.24 2776
1605.77 1053.24 2776
1612.41 1053.24 2776
1621.38 1054.76 2780
1633.89 1058.56 2790
1648.79 1063.87 2804
1655.5 1063.87 2804
1667.54 1067.28 2813
1677.24 1069.18 2818
1686.97 1071.08 2823
1693.72 1071.08 2823
1700.47 1071.08 2823
1707.22 1071.08 2823
1713.97 1071.08 2823
1729.25 1076.39 2837
1736.04 1076.39 2837
1742.82 1076.39 2837
1749.6 1076.39 2837
1756.39 1076.39 2837
1760.07 1074.49 2832
1766.84 1074.49 2832
1773.61 1074.49 2832
1786.67 1078.28 2842
1793.46 1078.28 2842
1803.43 1080.18 2847
1810.24 1080.18 2847
1823.43 1083.98 2857
1830.26 1083.98 2857
1862.17 1098.77 2896
1872.32 1100.67 2901
1905.82 1116.23 2942
1912.85 1116.23 2942
1919.89 1116.23 2942
1930.2 1118.12 2947
1937.24 1118.12 2947
1951.55 1122.3 2958
1958.62 1122.3 2958
1969.02 1124.19 2963
2012.12 1144.68 3017
2019.33 1144.68 3017
2026.55 1144.68 3017
2033.76 1144.68 3017
1997.68 1120.4 2953
2004.74 1120.4 2953
2085.65 1037.69 2735
2092.19 1037.69 2735
-1681.51 1044.24 2735
-1682.93 1049.2 2748
-1676.36 1049.2 2748
-1669.79 1049.2 2748
-1663.22 1049.2 2748
-1614.2 1030.49 2699
-1618.47 1037.37 2717
-1611.97 1037.37 2717
-1605.47 1037.37 2717
-1596.62 1035.84 2713
-1564.34 1019.04 2669
-1555.63 1017.51 2665
-1549.25 1017.51 2665
-1542.88 1017.51 2665
-1534.2 1015.99 2661
-1524.97 1014.08 2656
-1509.47 1007.97 2640
-1503.15 1007.97 2640
-1496.84 1007.97 2640
-1490.53 1007.97 2640
-1248.3 1065.24 2790
-1241.63 1065.24 2790
-1234.96 1065.24 2790
-1226.09 1063.33 2785
-1219.43 1063.33 2785
-1216.69 1066.77 2794
-1210 1066.77 2794
-1205.48 1068.67 2799
-1198.78 1068.67 2799
-1192.09 1068.67 2799
-1185.4 1068.67 2799
-1176.6 1066.77 2794
-1166.15 1063.33 2785
-1163.24 1066.77 2794
-1160.69 1070.58 2804
-1153.99 1070.58 2804
-1150.97 1074.02 2813
-1144.24 1074.02 2813
-1141.56 1077.84 2823
-1134.81 1077.84 2823
-1128.05 1077.84 2823
-1119.32 1075.93 2818
-1112.58 1075.93 2818
-1100.35 1070.58 2804
-1091.69 1068.67 2799
-1079.57 1063.33 2785
-1072.91 1063.33 2785
-1060.89 1057.98 2771
-1048.94 1052.64 2757
-1038.94 1049.2 2748
-1032.37 1049.2 2748
-1024.31 1047.68 2744
-1022.57 1052.64 2757
-1015.97 1052.64 2757
-1011.21 1054.55 2762
-1004.61 1054.55 2762
-998.003 1054.55 2762
-991.398 1054.55 2762
-984.793 1054.55 2762
-975.001 1051.11 2753
-960.327 1042.33 2730
-952.401 1040.8 2726
-945.883 1040.8 2726
-937.641 1038.89 2721
-932.845 1040.8 2726
-927.686 1042.33 2730
-921.158 1042.33 2730
-914.629 1042.33 2730
-908.101 1042.33 2730
-901.573 1042.33 2730
-900.946 1049.2 2748
-894.375 1049.2 2748
-887.803 1049.2 2748
-882.836 1051.11 2753
-876.252 1051.11 2753
-870.933 1052.64 2757
-864.34 1052.64 2757
-857.747 1052.64 2757
-848.376 1049.2 2748
-841.804 1049.2 2748
-834.017 1047.68 2744
-825.948 1045.77 2739
-819.398 1045.77 2739
-812.848 1045.77 2739
-802.472 1040.8 2726
-793.325 1037.37 2717
-786.828 1037.37 2717
-780.331 1037.37 2717
-773.833 1037.37 2717
-768.466 1038.89 2721
-764.479 1042.33 2730
