ply
format ascii 1.0
comment File generated
element vertex 2160
property float x
property float y
property float z
end_header
310.892 -227.795 2285
316.771 -228.094 2288
322.806 -228.493 2292
328.287 -228.493 2292
335.078 -229.39 2301
340.581 -229.39 2301
346.083 -229.39 2301
351.585 -229.39 2301
357.088 -229.39 2301
363.063 -229.689 2304
368.572 -229.689 2304
374.569 -229.988 2307
381.239 -230.686 2314
387.274 -230.985 2317
392.815 -230.985 2317
398.355 -230.985 2317
510.23 -291.797 2927
517.229 -291.797 2927
524.229 -291.797 2927
538.669 -295.884 2968
545.767 -295.884 2968
552.864 -295.884 2968
553.17 -292.295 2932
556.169 -290.202 2911
559.261 -288.208 2891
566.174 -288.208 2891
565.356 -284.32 2852
569.167 -282.824 2837
573.109 -281.429 2823
579.859 -281.429 2823
586.61 -281.429 2823
593.361 -281.429 2823
600.111 -281.429 2823
608.797 -282.326 2832
619.916 -284.32 2852
626.736 -284.32 2852
633.556 -284.32 2852
640.376 -284.32 2852
647.196 -284.32 2852
652.87 -283.821 2847
659.678 -283.821 2847
666.486 -283.821 2847
673.294 -283.821 2847
676.518 -282.326 2832
683.291 -282.326 2832
691.281 -282.824 2837
698.065 -282.824 2837
704.849 -282.824 2837
711.634 -282.824 2837
716.139 -281.927 2828
722.901 -281.927 2828
940.324 -359.985 3611
953.164 -361.581 3627
961.837 -361.581 3627
970.51 -361.581 3627
983.233 -363.076 3642
991.942 -363.076 3642
1000.65 -363.076 3642
1009.36 -363.076 3642
1022.54 -364.671 3658
1031.29 -364.671 3658
1040.04 -364.671 3658
1048.78 -364.671 3658
1052.91 -363.076 3642
1061.61 -363.076 3642
1070.32 -363.076 3642
1079.03 -363.076 3642
1087.74 -363.076 3642
1091.94 -361.581 3627
1100.61 -361.581 3627
1106.84 -360.783 3619
1117.96 -361.581 3627
1129.11 -362.378 3635
1137.81 -362.378 3635
1146.5 -362.378 3635
1155.19 -362.378 3635
1163.88 -362.378 3635
1172.58 -362.378 3635
1178.67 -361.581 3627
1187.34 -361.581 3627
1193.38 -360.783 3619
1202.03 -360.783 3619
1208.01 -359.985 3611
1216.64 -359.985 3611
1227.99 -360.783 3619
1239.38 -361.581 3627
1248.05 -361.581 3627
1256.73 -361.581 3627
1265.4 -361.581 3627
1274.07 -361.581 3627
1282.75 -361.581 3627
1288.57 -360.783 3619
1297.23 -360.783 3619
1305.88 -360.783 3619
1314.53 -360.783 3619
1320.26 -359.985 3611
1328.9 -359.985 3611
1337.53 -359.985 3611
1346.17 -359.985 3611
1354.8 -359.985 3611
1360.42 -359.188 3603
1369.03 -359.188 3603
1377.65 -359.188 3603
1383.19 -358.39 3595
1391.78 -358.39 3595
1397.65 -357.693 3588
1406.23 -357.693 3588
1414.81 -357.693 3588
1423.39 -357.693 3588
1431.97 -357.693 3588
1443.36 -358.39 3595
1458.42 -359.985 3611
1467.06 -359.985 3611
1482.23 -361.581 3627
1490.91 -361.581 3627
1499.58 -361.581 3627
1508.25 -361.581 3627
1516.93 -361.581 3627
1515.5 -359.188 3603
1524.12 -359.188 3603
1526.35 -357.693 3588
1493.74 -263.983 2648
1502.34 -264.381 2652
1535.42 -269.067 2699
1541.87 -269.067 2699
1551.19 -269.565 2704
1557.66 -269.565 2704
1564.13 -269.565 2704
1557.81 -267.372 2682
1556.64 -266.076 2669
1555.41 -264.78 2656
1561.76 -264.78 2656
1571.07 -265.279 2661
1577.43 -265.279 2661
1583.79 -265.279 2661
1582.39 -263.983 2648
1588.72 -263.983 2648
1587.22 -262.687 2635
1588.69 -261.889 2627
1594.97 -261.889 2627
1601.25 -261.889 2627
1597.74 -260.294 2611
1593.54 -258.599 2594
1605.29 -259.497 2603
1611.52 -259.497 2603
1617.74 -259.497 2603
1623.97 -259.497 2603
1622.05 -258.201 2590
1625.73 -257.802 2586
1642.64 -259.497 2603
1648.87 -259.497 2603
1655.09 -259.497 2603
1661.32 -259.497 2603
1667.54 -259.497 2603
1673.77 -259.497 2603
1679.99 -259.497 2603
1667.43 -256.606 2574
1689.84 -259.098 2599
1696.05 -259.098 2599
1702.27 -259.098 2599
1730.01 -258.599 2594
1736.21 -258.599 2594
1742.41 -258.599 2594
1745.92 -258.201 2590
1752.11 -258.201 2590
1764.42 -259.098 2599
1770.63 -259.098 2599
1776.85 -259.098 2599
1783.06 -259.098 2599
1785.84 -258.599 2594
1792.04 -258.599 2594
1798.24 -258.599 2594
1807.92 -259.098 2599
1814.14 -259.098 2599
1820.35 -259.098 2599
1826.57 -259.098 2599
1817.97 -257.004 2578
1807.86 -254.711 2555
1808.29 -253.914 2547
1814.39 -253.914 2547
1820.48 -253.914 2547
1826.57 -253.914 2547
-2878.1 -374.005 3844
-2868.91 -374.005 3844
-2866.41 -374.881 3853
-2857.19 -374.881 3853
-2847.98 -374.881 3853
-2806.35 -370.6 3809
-2771.54 -367.194 3774
-2707.61 -359.897 3699
-2698.77 -359.897 3699
-2678.29 -358.341 3683
-2575.43 -346.86 3565
-2566.9 -346.86 3565
-2558.38 -346.86 3565
-2425.4 -329.93 3391
-2417.29 -329.93 3391
-2399.24 -328.568 3377
-2391.16 -328.568 3377
-2373.21 -327.206 3363
-2365.16 -327.206 3363
-2357.12 -327.206 3363
-2358.86 -328.568 3377
-2350.78 -328.568 3377
-2376.7 -333.336 3426
-2392.7 -336.741 3461
-2384.43 -336.741 3461
-2376.15 -336.741 3461
-2382.93 -338.881 3483
-2374.6 -338.881 3483
-2366.27 -338.881 3483
-2353.2 -338.2 3476
-2339.49 -337.422 3468
-2317.08 -335.379 3447
-2308.84 -335.379 3447
-2300.6 -335.379 3447
-2287.7 -334.698 3440
-2270.2 -333.336 3426
-2262 -333.336 3426
-2249.21 -332.654 3419
-2241.03 -332.654 3419
-2232.85 -332.654 3419
-2224.68 -332.654 3419
-2180.2 -327.206 3363
-2150.84 -323.995 3330
-2117.14 -320.103 3290
-2109.27 -320.103 3290
-2085.44 -317.671 3265
-2065.54 -315.822 3246
-2045.73 -313.974 3227
-2045.59 -315.141 3239
-2037.85 -315.141 3239
-2042.01 -316.99 3258
-2058.57 -320.784 3297
-2050.69 -320.784 3297
-2042.8 -320.784 3297
-1686.34 -364.762 3749
-1684.98 -366.416 3766
-1675.98 -366.416 3766
-1666.97 -366.416 3766
-1657.97 -366.416 3766
-1648.96 -366.416 3766
-1241.66 -388.308 3991
-1232.12 -388.308 3991
-1225.64 -389.281 4001
-1216.07 -389.281 4001
-1206.51 -389.281 4001
-1193.95 -388.308 3991
-1135.53 -378.383 3889
-1126.23 -378.383 3889
-1116.93 -378.383 3889
-1105.07 -377.508 3880
-1095.79 -377.508 3880
-1078.95 -374.881 3853
-1069.74 -374.881 3853
-1065.48 -376.632 3871
-1056.22 -376.632 3871
-1046.97 -376.632 3871
-1032.88 -374.881 3853
-1023.67 -374.881 3853
-1016.83 -375.757 3862
-1007.59 -375.757 3862
-1000.68 -376.632 3871
-996.035 -378.383 3889
-986.736 -378.383 3889
-977.436 -378.383 3889
-963.655 -376.632 3871
-949.961 -374.881 3853
-940.747 -374.881 3853
-929.357 -374.005 3844
-905.563 -368.07 3783
-878.506 -360.676 3707
-864.011 -358.341 3683
-855.204 -358.341 3683
-844.558 -357.562 3675
-833.951 -356.784 3667
-814.38 -352.114 3619
-805.726 -352.114 3619
-746.856 -329.93 3391
-735.697 -328.568 3377
-732.146 -330.611 3398
-724.021 -330.611 3398
-715.895 -330.611 3398
-703.395 -328.568 3377
-688.319 -325.26 3343
-680.325 -325.26 3343
-672.331 -325.26 3343
-660.363 -323.314 3323
-648.49 -321.368 3303
-648.349 -325.26 3343
-643.036 -326.622 3357
-635.009 -326.622 3357
-634.639 -330.611 3398
-627.804 -331.292 3405
-623.483 -333.336 3426
-615.29 -333.336 3426
-607.098 -333.336 3426
-597.682 -332.654 3419
-589.506 -332.654 3419
-581.33 -332.654 3419
-573.154 -332.654 3419
-568.448 -334.698 3440
-560.222 -334.698 3440
-551.996 -334.698 3440
-543.77 -334.698 3440
-533.364 -333.336 3426
-529.464 -336.06 3454
-521.204 -336.06 3454
-512.945 -336.06 3454
-504.685 -336.06 3454
-496.426 -336.06 3454
-485.198 -334.017 3433
-476.989 -334.017 3433
-466.868 -332.654 3419
-458.692 -332.654 3419
-448.671 -331.292 3405
-269.464 -206.462 2122
-264.389 -206.462 2122
-259.315 -206.462 2122
-254.241 -206.462 2122
-248.227 -205.683 2114
-243.172 -205.683 2114
-238.117 -205.683 2114
-233.392 -205.975 2117
-228.33 -205.975 2117
-223.584 -206.267 2120
-218.514 -206.267 2120
-213.445 -206.267 2120
-208.375 -206.267 2120
-203.305 -206.267 2120
-198.236 -206.267 2120
-193.166 -206.267 2120
-188.274 -206.462 2122
-183.2 -206.462 2122
-178.126 -206.462 2122
-173.051 -206.462 2122
-167.818 -206.267 2120
-162.749 -206.267 2120
-157.679 -206.267 2120
-152.61 -206.267 2120
-147.679 -206.462 2122
-142.605 -206.462 2122
-137.531 -206.462 2122
-132.456 -206.462 2122
-127.382 -206.462 2122
-122.481 -206.754 2125
-117.399 -206.754 2125
-112.318 -206.754 2125
-107.236 -206.754 2125
-102.155 -206.754 2125
-97.073 -206.754 2125
-91.9915 -206.754 2125
-86.91 -206.754 2125
-81.8285 -206.754 2125
-76.7469 -206.754 2125
-71.4968 -206.267 2120
-66.2392 -205.683 2114
-61.184 -205.683 2114
-56.1288 -205.683 2114
-51.0736 -205.683 2114
-46.0184 -205.683 2114
-40.9244 -205.489 2112
-35.874 -205.489 2112
-30.8235 -205.489 2112
-25.6999 -204.905 2106
-20.6638 -204.905 2106
-15.6129 -204.71 2104
-10.5816 -204.71 2104
-5.55028 -204.71 2104
-0.518976 -204.71 2104
4.51233 -204.71 2104
9.54363 -204.71 2104
14.5749 -204.71 2104
19.5783 -204.419 2101
24.6024 -204.419 2101
29.6265 -204.419 2101
34.6507 -204.419 2101
39.7314 -204.71 2104
44.7627 -204.71 2104
49.8414 -204.905 2106
54.8775 -204.905 2106
59.9135 -204.905 2106
64.9496 -204.905 2106
70.0854 -205.197 2109
75.1287 -205.197 2109
80.1719 -205.197 2109
85.2152 -205.197 2109
90.3868 -205.489 2112
95.4373 -205.489 2112
100.488 -205.489 2112
105.638 -205.683 2114
110.693 -205.683 2114
115.748 -205.683 2114
120.804 -205.683 2114
126.038 -205.975 2117
131.1 -205.975 2117
136.355 -206.267 2120
141.425 -206.267 2120
146.494 -206.267 2120
151.707 -206.462 2122
156.781 -206.462 2122
161.856 -206.462 2122
167.402 -207.046 2128
172.491 -207.046 2128
177.579 -207.046 2128
182.668 -207.046 2128
188.198 -207.532 2133
193.57 -207.824 2136
198.678 -207.824 2136
203.786 -207.824 2136
209.187 -208.116 2139
214.302 -208.116 2139
220.546 -209.186 2150
225.687 -209.186 2150
231.687 -209.964 2158
237.177 -210.256 2161
244.587 -212.202 2181
249.803 -212.202 2181
255.954 -212.981 2189
265.006 -216.094 2221
272.508 -217.845 2239
277.862 -217.845 2239
285.493 -219.597 2257
292.566 -220.862 2270
298.782 -221.445 2276
304.225 -221.445 2276
310.483 -222.029 2282
316.356 -222.321 2285
322.242 -222.613 2288
327.714 -222.613 2288
334.641 -223.586 2298
340.136 -223.586 2298
345.632 -223.586 2298
351.127 -223.586 2298
356.622 -223.586 2298
362.59 -223.878 2301
368.572 -224.17 2304
374.569 -224.461 2307
380.086 -224.461 2307
387.274 -225.434 2317
392.815 -225.434 2317
398.355 -225.434 2317
510.23 -284.785 2927
517.229 -284.785 2927
524.229 -284.785 2927
538.669 -288.774 2968
545.767 -288.774 2968
552.864 -288.774 2968
553.17 -285.271 2932
552.347 -281.282 2891
554.424 -278.85 2866
561.278 -278.85 2866
565.356 -277.488 2852
569.167 -276.028 2837
573.109 -274.666 2823
579.859 -274.666 2823
586.61 -274.666 2823
593.361 -274.666 2823
600.111 -274.666 2823
607.937 -275.153 2828
614.7 -275.153 2828
621.462 -275.153 2828
630.224 -276.028 2837
637.008 -276.028 2837
643.792 -276.028 2837
650.576 -276.028 2837
657.361 -276.028 2837
664.145 -276.028 2837
670.929 -276.028 2837
676.518 -275.542 2832
683.291 -275.542 2832
691.281 -276.028 2837
698.065 -276.028 2837
704.849 -276.028 2837
711.634 -276.028 2837
716.139 -275.153 2828
722.901 -275.153 2828
1024.81 -353.67 3635
1033.5 -353.67 3635
1042.19 -353.67 3635
1050.88 -353.67 3635
1059.57 -353.67 3635
1068.27 -353.67 3635
1076.96 -353.67 3635
1080.87 -352.114 3619
1093.33 -350.557 3603
1101.94 -350.557 3603
1110.56 -350.557 3603
1158.76 -352.114 3619
1167.41 -352.114 3619
1176.07 -352.114 3619
1184.72 -352.114 3619
1193.38 -352.114 3619
1202.03 -352.114 3619
1208.01 -351.335 3611
1216.64 -351.335 3611
1227.99 -352.114 3619
1239.38 -352.892 3627
1248.05 -352.892 3627
1256.73 -352.892 3627
1265.4 -352.892 3627
1274.07 -352.892 3627
1282.75 -352.892 3627
1288.57 -352.114 3619
1297.23 -352.114 3619
1305.88 -352.114 3619
1314.53 -352.114 3619
1320.26 -351.335 3611
1328.9 -351.335 3611
1337.53 -351.335 3611
1346.17 -351.335 3611
1351.8 -350.557 3603
1360.42 -350.557 3603
1365.99 -349.779 3595
1374.59 -349.779 3595
1383.19 -349.779 3595
1389.07 -349.097 3588
1397.65 -349.097 3588
1406.23 -349.097 3588
1411.66 -348.319 3580
1420.22 -348.319 3580
1428.78 -348.319 3580
1440.55 -349.097 3588
1451.96 -349.779 3595
1460.56 -349.779 3595
1475.69 -351.335 3611
1484.33 -351.335 3611
1492.96 -351.335 3611
1501.6 -351.335 3611
1506.89 -350.557 3603
1509.19 -349.097 3588
1517.77 -349.097 3588
1526.35 -349.097 3588
1493.74 -257.639 2648
1502.34 -258.029 2652
1535.42 -262.601 2699
1541.87 -262.601 2699
1551.19 -263.088 2704
1557.66 -263.088 2704
1564.13 -263.088 2704
1557.81 -260.947 2682
1556.64 -259.683 2669
1555.41 -258.418 2656
1561.76 -258.418 2656
1571.07 -258.904 2661
1577.43 -258.904 2661
1583.79 -258.904 2661
1582.39 -257.639 2648
1588.72 -257.639 2648
1587.22 -256.375 2635
1588.69 -255.596 2627
1594.97 -255.596 2627
1601.25 -255.596 2627
1597.74 -254.039 2611
1593.54 -252.385 2594
1605.29 -253.261 2603
1611.52 -253.261 2603
1617.74 -253.261 2603
1623.97 -253.261 2603
1622.05 -251.996 2590
1625.73 -251.607 2586
1642.64 -253.261 2603
1648.87 -253.261 2603
1655.09 -253.261 2603
1661.32 -253.261 2603
1667.54 -253.261 2603
1673.77 -253.261 2603
1679.99 -253.261 2603
1667.43 -250.439 2574
1689.84 -252.872 2599
1696.05 -252.872 2599
1702.27 -252.872 2599
1730.01 -252.385 2594
1736.21 -252.385 2594
1742.41 -252.385 2594
1745.92 -251.996 2590
1752.11 -251.996 2590
1764.42 -252.872 2599
1770.63 -252.872 2599
1776.85 -252.872 2599
1783.06 -252.872 2599
1785.84 -252.385 2594
1792.04 -252.385 2594
1798.24 -252.385 2594
1807.92 -252.872 2599
1814.14 -252.872 2599
1820.35 -252.872 2599
1826.57 -252.872 2599
1817.97 -250.829 2578
1807.86 -248.591 2555
1808.29 -247.812 2547
1814.39 -247.812 2547
1820.48 -247.812 2547
1826.57 -247.812 2547
-2851.89 -361.475 3809
-2842.78 -361.475 3809
-2833.67 -361.475 3809
-2824.57 -361.475 3809
-2815.46 -361.475 3809
-2793.82 -359.862 3792
-2716.46 -351.036 3699
-2690.05 -348.759 3675
-2681.26 -348.759 3675
-2433.51 -321.807 3391
-2425.4 -321.807 3391
-2417.29 -321.807 3391
-2389.29 -319.15 3363
-2381.25 -319.15 3363
-2373.21 -319.15 3363
-2365.16 -319.15 3363
-2366.93 -320.478 3377
-2358.86 -320.478 3377
-2350.78 -320.478 3377
-2366.99 -323.8 3412
-2373.35 -325.793 3433
-2374.78 -327.121 3447
-2366.54 -327.121 3447
-2367.88 -328.45 3461
-2364.37 -329.114 3468
-2356.08 -329.114 3468
-2347.79 -329.114 3468
-2330.05 -327.786 3454
-2317.08 -327.121 3447
-2308.84 -327.121 3447
-2300.6 -327.121 3447
-2287.7 -326.457 3440
-2274.83 -325.793 3433
-2266.63 -325.793 3433
-2249.21 -324.464 3419
-2236.44 -323.8 3412
-2228.28 -323.8 3412
-2220.12 -323.8 3412
-2167.23 -317.252 3343
-2150.84 -316.018 3330
-2117.14 -312.222 3290
-2109.27 -312.222 3290
-2077.13 -308.616 3252
-2061.08 -307.382 3239
-2045.73 -306.243 3227
-2053.8 -308.616 3252
-2046.03 -308.616 3252
-2046.4 -309.85 3265
-2038.59 -309.85 3265
-2030.78 -309.85 3265
-2022.97 -309.85 3265
-1733.69 -358.154 3774
-1724.66 -358.154 3774
-1715.64 -358.154 3774
-1706.61 -358.154 3774
-1697.59 -358.154 3774
-1688.56 -358.154 3774
-1679.54 -358.154 3774
-1666.97 -357.395 3766
-1657.97 -357.395 3766
-1648.96 -357.395 3766
-1222.58 -378.747 3991
-1213.03 -378.747 3991
-1203.49 -378.747 3991
-1188.26 -376.944 3972
-993.73 -368.213 3880
-984.452 -368.213 3880
-975.174 -368.213 3880
-956.934 -364.797 3844
-947.742 -364.797 3844
-938.549 -364.797 3844
-763.074 -321.807 3391
-754.965 -321.807 3391
-746.856 -321.807 3391
-735.697 -320.478 3377
-727.622 -320.478 3377
-719.546 -320.478 3377
-705.782 -317.916 3350
-696.314 -317.252 3343
-687.084 -316.682 3337
-679.104 -316.682 3337
-671.125 -316.682 3337
-660.363 -315.354 3323
-653.791 -316.018 3330
-651.064 -318.58 3357
-645.527 -319.814 3370
-637.468 -319.814 3370
-634.639 -322.471 3398
-629.094 -323.8 3412
-622.209 -324.464 3419
-614.033 -324.464 3419
-605.857 -324.464 3419
-596.458 -323.8 3412
-588.299 -323.8 3412
-580.14 -323.8 3412
-571.98 -323.8 3412
-563.821 -323.8 3412
-556.802 -324.464 3419
-548.626 -324.464 3419
-540.45 -324.464 3419
-533.364 -325.129 3426
-529.464 -327.786 3454
-521.204 -327.786 3454
-512.945 -327.786 3454
-504.685 -327.786 3454
-496.426 -327.786 3454
-486.187 -326.457 3440
-477.961 -326.457 3440
-468.779 -325.793 3433
-460.57 -325.793 3433
-448.671 -323.136 3405
-269.845 -201.663 2125
-264.763 -201.663 2125
-259.682 -201.663 2125
-254.241 -201.378 2122
-248.931 -201.189 2120
-243.862 -201.189 2120
-238.792 -201.189 2120
-233.392 -200.904 2117
-228.33 -200.904 2117
-223.584 -201.189 2120
-218.514 -201.189 2120
-213.445 -201.189 2120
-208.375 -201.189 2120
-203.305 -201.189 2120
-198.423 -201.378 2122
-193.349 -201.378 2122
-188.274 -201.378 2122
-183.2 -201.378 2122
-178.126 -201.378 2122
-173.051 -201.378 2122
-167.818 -201.189 2120
-162.749 -201.189 2120
-157.679 -201.189 2120
-152.61 -201.189 2120
-147.888 -201.663 2125
-142.807 -201.663 2125
-137.725 -201.663 2125
-132.456 -201.378 2122
-127.382 -201.378 2122
-122.481 -201.663 2125
-117.399 -201.663 2125
-112.318 -201.663 2125
-107.236 -201.663 2125
-102.155 -201.663 2125
-97.073 -201.663 2125
-91.9915 -201.663 2125
-86.91 -201.663 2125
-81.8285 -201.663 2125
-76.7469 -201.663 2125
-71.4968 -201.189 2120
-66.2392 -200.619 2114
-61.184 -200.619 2114
-56.1288 -200.619 2114
-51.0736 -200.619 2114
-46.0184 -200.619 2114
-40.9244 -200.429 2112
-35.874 -200.429 2112
-30.8235 -200.429 2112
-25.6999 -199.86 2106
-20.6638 -199.86 2106
-15.6129 -199.67 2104
-10.5816 -199.67 2104
-5.55028 -199.67 2104
-0.518976 -199.67 2104
4.50589 -199.386 2101
9.53002 -199.386 2101
14.5541 -199.386 2101
19.5783 -199.386 2101
24.6024 -199.386 2101
29.6265 -199.386 2101
34.6507 -199.386 2101
39.6748 -199.386 2101
44.6989 -199.386 2101
49.794 -199.67 2104
54.8253 -199.67 2104
59.9135 -199.86 2106
64.9496 -199.86 2106
69.9857 -199.86 2106
75.0218 -199.86 2106
80.1719 -200.145 2109
85.2152 -200.145 2109
90.2584 -200.145 2109
95.3017 -200.145 2109
100.488 -200.429 2112
105.538 -200.429 2112
110.693 -200.619 2114
115.748 -200.619 2114
120.804 -200.619 2114
126.038 -200.904 2117
131.1 -200.904 2117
136.355 -201.189 2120
141.425 -201.189 2120
146.494 -201.189 2120
151.707 -201.378 2122
157.003 -201.663 2125
162.084 -201.663 2125
167.402 -201.948 2128
172.491 -201.948 2128
177.579 -201.948 2128
182.668 -201.948 2128
188.198 -202.422 2133
193.57 -202.707 2136
198.678 -202.707 2136
203.786 -202.707 2136
209.187 -202.992 2139
214.302 -202.992 2139
220.238 -203.751 2147
225.372 -203.751 2147
231.365 -204.51 2155
236.848 -204.795 2158
243.914 -206.408 2175
249.116 -206.408 2175
255.369 -207.262 2184
263.694 -209.73 2210
271.048 -211.343 2227
276.373 -211.343 2227
285.114 -213.905 2254
291.793 -214.854 2264
298.388 -215.708 2273
303.824 -215.708 2273
310.075 -216.278 2279
316.356 -216.847 2285
322.806 -217.512 2292
328.287 -217.512 2292
334.641 -218.081 2298
340.136 -218.081 2298
345.632 -218.081 2298
351.127 -218.081 2298
356.622 -218.081 2298
361.645 -217.796 2295
367.613 -218.081 2298
373.108 -218.081 2298
378.603 -218.081 2298
384.098 -218.081 2298
510.23 -277.773 2927
517.229 -277.773 2927
524.229 -277.773 2927
531.228 -277.773 2927
535.285 -276.255 2911
542.246 -276.255 2911
547.321 -275.306 2901
547.571 -271.984 2866
551.716 -270.656 2852
558.536 -270.656 2852
565.356 -270.656 2852
570.17 -269.707 2842
574.936 -268.758 2832
581.708 -268.758 2832
587.649 -268.378 2828
594.412 -268.378 2828
601.174 -268.378 2828
606.862 -267.904 2823
614.7 -268.378 2828
621.462 -268.378 2828
628.225 -268.378 2828
637.008 -269.232 2837
643.792 -269.232 2837
650.576 -269.232 2837
656.202 -268.758 2832
662.974 -268.758 2832
669.746 -268.758 2832
675.563 -268.378 2828
682.326 -268.378 2828
691.281 -269.232 2837
698.065 -269.232 2837
704.849 -269.232 2837
711.634 -269.232 2837
716.139 -268.378 2828
723.924 -268.758 2832
733.276 -269.707 2842
740.072 -269.707 2842
746.868 -269.707 2842
756.316 -270.656 2852
763.136 -270.656 2852
769.956 -270.656 2852
774.052 -269.707 2842
778.101 -268.758 2832
784.873 -268.758 2832
789.13 -267.904 2823
798.418 -268.758 2832
805.19 -268.758 2832
811.962 -268.758 2832
865.436 -270.656 2852
872.256 -270.656 2852
879.076 -270.656 2852
881.237 -269.232 2837
1184.72 -343.444 3619
1193.38 -343.444 3619
1202.03 -343.444 3619
1208.01 -342.685 3611
1216.64 -342.685 3611
1225.28 -342.685 3611
1239.38 -344.203 3627
1248.05 -344.203 3627
1256.73 -344.203 3627
1265.4 -344.203 3627
1276.88 -344.963 3635
1285.58 -344.963 3635
1294.27 -344.963 3635
1302.96 -344.963 3635
1305.88 -343.444 3619
1314.53 -343.444 3619
1323.19 -343.444 3619
1328.9 -342.685 3611
1334.57 -341.926 3603
1343.19 -341.926 3603
1351.8 -341.926 3603
1360.42 -341.926 3603
1365.99 -341.167 3595
1374.59 -341.167 3595
1380.49 -340.502 3588
1385.98 -339.743 3580
1394.54 -339.743 3580
1403.1 -339.743 3580
1408.51 -338.984 3572
1417.05 -338.984 3572
1425.59 -338.984 3572
1437.34 -339.743 3580
1449.13 -340.502 3588
1457.71 -340.502 3588
1472.42 -341.926 3603
1481.04 -341.926 3603
1489.66 -341.926 3603
1498.27 -341.926 3603
1506.89 -341.926 3603
1512.14 -341.167 3595
1520.74 -341.167 3595
1519.55 -338.984 3572
1493.74 -251.296 2648
1511.97 -253.289 2669
1538.26 -256.61 2704
1544.73 -256.61 2704
1563.81 -258.698 2726
1570.33 -258.698 2726
1576.85 -258.698 2726
1567.69 -256.136 2699
1564.23 -254.523 2682
1558.34 -252.53 2661
1569.41 -253.289 2669
1575.79 -253.289 2669
1582.17 -253.289 2669
1588.56 -253.289 2669
1590.16 -252.53 2661
1596.52 -252.53 2661
1595.05 -251.296 2648
1593.52 -250.062 2635
1594.97 -249.303 2627
1601.25 -249.303 2627
1600.19 -248.164 2615
1603.98 -247.785 2611
1610.23 -247.785 2611
1616.47 -247.785 2611
1622.72 -247.785 2611
1628.96 -247.785 2611
1630.19 -247.026 2603
1636.42 -247.026 2603
1645.17 -247.405 2607
1651.4 -247.405 2607
1657.63 -247.405 2607
1663.87 -247.405 2607
1670.1 -247.405 2607
1676.34 -247.405 2607
1679.99 -247.026 2603
1672.61 -245.033 2582
1689.84 -246.646 2599
1696.05 -246.646 2599
1704.89 -247.026 2603
1711.11 -247.026 2603
1717.34 -247.026 2603
1731.51 -248.164 2615
1737.76 -248.164 2615
1744.01 -248.164 2615
1747.59 -247.785 2611
1753.83 -247.785 2611
1745.92 -245.792 2590
1758.2 -246.646 2599
1764.42 -246.646 2599
1770.63 -246.646 2599
1776.85 -246.646 2599
1783.06 -246.646 2599
1785.84 -246.171 2594
1798.26 -247.026 2603
1804.48 -247.026 2603
1819.05 -248.164 2615
1825.31 -248.164 2615
1831.56 -248.164 2615
1829.38 -247.026 2603
1832.78 -246.646 2599
1832.63 -245.792 2590
1825.33 -243.989 2571
1831.48 -243.989 2571
1837.63 -243.989 2571
1843.78 -243.989 2571
1886.91 -236.302 2490
1892.87 -236.302 2490
1898.82 -236.302 2490
1904.78 -236.302 2490
-2825.69 -349.113 3774
-2816.66 -349.113 3774
-2833.67 -352.351 3809
-2824.57 -352.351 3809
-2815.46 -352.351 3809
-2768.04 -347.541 3757
-2413.42 -311.094 3363
-2405.37 -311.094 3363
-2397.33 -311.094 3363
-2389.29 -311.094 3363
-2381.25 -311.094 3363
-2373.21 -311.094 3363
-2365.16 -311.094 3363
-2366.93 -312.389 3377
-2358.86 -312.389 3377
-2350.78 -312.389 3377
-2366.99 -315.626 3412
-2368.51 -316.922 3426
-2374.78 -318.864 3447
-2366.54 -318.864 3447
-2363.09 -319.512 3454
-2354.83 -319.512 3454
-2346.57 -319.512 3454
-2338.31 -319.512 3454
-2330.05 -319.512 3454
-2317.08 -318.864 3447
-2308.84 -318.864 3447
-2300.6 -318.864 3447
-2287.7 -318.217 3440
-2274.83 -317.569 3433
-2266.63 -317.569 3433
-2253.81 -316.922 3426
-2236.44 -315.626 3412
-2228.28 -315.626 3412
-2220.12 -315.626 3412
-2167.23 -309.244 3343
-2150.84 -308.041 3330
-2117.14 -304.341 3290
-2109.27 -304.341 3290
-2097.57 -303.786 3284
-2069.36 -300.826 3252
-2078.06 -303.231 3278
-2074.01 -303.786 3284
-2066.16 -303.786 3284
-2116.6 -312.389 3377
-2108.52 -312.389 3377
-2100.44 -312.389 3377
-2092.37 -312.389 3377
-1824.84 -339.215 3667
-1816.07 -339.215 3667
-1807.3 -339.215 3667
-1745.63 -351.518 3800
-1736.55 -351.518 3800
-1727.46 -351.518 3800
-1718.37 -351.518 3800
-1720.98 -353.923 3826
-1727.94 -357.254 3862
-1718.7 -357.254 3862
-1709.47 -357.254 3862
-1657.97 -348.373 3766
-1648.96 -348.373 3766
-738.996 -303.786 3284
-744.278 -309.244 3343
-736.284 -309.244 3343
-729.815 -309.891 3350
-721.804 -309.891 3350
-713.793 -309.891 3350
-704.308 -309.244 3343
-693.606 -308.041 3330
-685.643 -308.041 3330
-677.68 -308.041 3330
-669.717 -308.041 3330
-661.754 -308.041 3330
-656.343 -309.244 3343
-651.064 -310.539 3357
-650.89 -314.331 3398
-642.764 -314.331 3398
-634.639 -314.331 3398
-629.094 -315.626 3412
-622.209 -316.274 3419
-614.033 -316.274 3419
-605.857 -316.274 3419
-596.458 -315.626 3412
-588.299 -315.626 3412
-580.14 -315.626 3412
-571.98 -315.626 3412
-563.821 -315.626 3412
-555.662 -315.626 3412
-547.503 -315.626 3412
-539.344 -315.626 3412
-531.185 -315.626 3412
-529.464 -319.512 3454
-521.204 -319.512 3454
-512.945 -319.512 3454
-504.685 -319.512 3454
-496.426 -319.512 3454
-486.187 -318.217 3440
-477.961 -318.217 3440
-468.779 -317.569 3433
-460.57 -317.569 3433
-448.671 -314.979 3405
-270.226 -196.85 2128
-265.137 -196.85 2128
-260.048 -196.85 2128
-254.6 -196.573 2125
-249.166 -196.295 2122
-244.092 -196.295 2122
-238.792 -196.11 2120
-233.723 -196.11 2120
-228.653 -196.11 2120
-223.795 -196.295 2122
-218.72 -196.295 2122
-213.646 -196.295 2122
-208.572 -196.295 2122
-203.497 -196.295 2122
-198.423 -196.295 2122
-193.349 -196.295 2122
-188.54 -196.573 2125
-183.459 -196.573 2125
-178.377 -196.573 2125
-173.051 -196.295 2122
-167.977 -196.295 2122
-162.902 -196.295 2122
-157.828 -196.295 2122
-152.754 -196.295 2122
-147.888 -196.573 2125
-142.807 -196.573 2125
-137.725 -196.573 2125
-132.456 -196.295 2122
-127.382 -196.295 2122
-122.481 -196.573 2125
-117.399 -196.573 2125
-112.318 -196.573 2125
-107.236 -196.573 2125
-102.155 -196.573 2125
-97.073 -196.573 2125
-91.9915 -196.573 2125
-86.91 -196.573 2125
-81.7129 -196.295 2122
-76.6386 -196.295 2122
-71.3956 -195.833 2117
-66.2392 -195.555 2114
-61.184 -195.555 2114
-56.1288 -195.555 2114
-51.0253 -195.37 2112
-45.9748 -195.37 2112
-40.9244 -195.37 2112
-35.874 -195.37 2112
-30.7798 -195.093 2109
-25.6999 -194.815 2106
-20.6442 -194.63 2104
-15.6129 -194.63 2104
-10.5816 -194.63 2104
-5.55028 -194.63 2104
-0.518976 -194.63 2104
4.50589 -194.353 2101
9.53002 -194.353 2101
14.5541 -194.353 2101
19.5783 -194.353 2101
24.6024 -194.353 2101
29.6265 -194.353 2101
34.6507 -194.353 2101
39.6748 -194.353 2101
44.6989 -194.353 2101
49.794 -194.63 2104
54.8253 -194.63 2104
59.9135 -194.815 2106
64.9496 -194.815 2106
69.9857 -194.815 2106
75.0218 -194.815 2106
80.1719 -195.093 2109
85.2152 -195.093 2109
90.2584 -195.093 2109
95.3017 -195.093 2109
100.488 -195.37 2112
105.538 -195.37 2112
110.693 -195.555 2114
115.748 -195.555 2114
120.804 -195.555 2114
126.038 -195.833 2117
131.286 -196.11 2120
136.355 -196.11 2120
141.425 -196.11 2120
146.494 -196.11 2120
151.707 -196.295 2122
157.003 -196.573 2125
162.084 -196.573 2125
167.402 -196.85 2128
172.491 -196.85 2128
177.83 -197.128 2131
182.926 -197.128 2131
188.198 -197.313 2133
193.57 -197.59 2136
198.957 -197.868 2139
204.072 -197.868 2139
209.187 -197.868 2139
214.803 -198.33 2144
220.238 -198.608 2147
225.372 -198.608 2147
231.365 -199.348 2155
236.518 -199.348 2155
243.017 -200.458 2167
248.199 -200.458 2167
254.667 -201.475 2178
263.694 -204.436 2210
269.952 -205.176 2218
275.256 -205.176 2218
283.975 -207.673 2245
291.793 -209.431 2264
298.388 -210.263 2273
303.824 -210.263 2273
310.075 -210.818 2279
316.356 -211.374 2285
322.806 -212.021 2292
328.287 -212.021 2292
334.204 -212.299 2295
339.692 -212.299 2295
345.18 -212.299 2295
350.669 -212.299 2295
356.157 -212.299 2295
361.645 -212.299 2295
367.133 -212.299 2295
372.134 -212.021 2292
377.614 -212.021 2292
383.095 -212.021 2292
506.569 -268.819 2906
513.519 -268.819 2906
520.468 -268.819 2906
527.417 -268.819 2906
533.447 -268.356 2901
540.384 -268.356 2901
542.604 -266.044 2876
547.571 -265.119 2866
552.683 -264.286 2857
559.515 -264.286 2857
565.356 -263.824 2852
570.17 -262.899 2842
574.936 -261.974 2832
581.708 -261.974 2832
587.649 -261.604 2828
594.412 -261.604 2828
601.174 -261.604 2828
607.937 -261.604 2828
614.7 -261.604 2828
620.363 -261.141 2823
628.225 -261.604 2828
634.987 -261.604 2828
641.75 -261.604 2828
648.513 -261.604 2828
655.275 -261.604 2828
662.038 -261.604 2828
668.8 -261.604 2828
674.369 -261.141 2823
682.326 -261.604 2828
689.088 -261.604 2828
695.851 -261.604 2828
702.613 -261.604 2828
709.376 -261.604 2828
716.139 -261.604 2828
723.924 -261.974 2832
733.276 -262.899 2842
740.072 -262.899 2842
746.868 -262.899 2842
756.316 -263.824 2852
763.136 -263.824 2852
769.956 -263.824 2852
774.052 -262.899 2842
778.101 -261.974 2832
784.873 -261.974 2832
789.13 -261.141 2823
798.418 -261.974 2832
805.19 -261.974 2832
811.962 -261.974 2832
814.687 -260.679 2818
821.425 -260.679 2818
826.695 -260.216 2813
834.903 -260.679 2818
841.641 -260.679 2818
852.595 -261.974 2832
865.436 -263.824 2852
872.256 -263.824 2852
879.076 -263.824 2852
881.237 -262.436 2837
883.639 -261.141 2823
890.389 -261.141 2823
895.551 -260.679 2818
899.408 -259.846 2809
1190.74 -334.035 3611
1199.37 -334.035 3611
1208.01 -334.035 3611
1216.64 -334.035 3611
1225.28 -334.035 3611
1242.11 -336.255 3635
1250.81 -336.255 3635
1259.5 -336.255 3635
1268.19 -336.255 3635
1276.88 -336.255 3635
1285.58 -336.255 3635
1294.27 -336.255 3635
1302.96 -336.255 3635
1311.65 -336.255 3635
1320.35 -336.255 3635
1323.19 -334.775 3619
1328.9 -334.035 3611
1334.57 -333.295 3603
1343.19 -333.295 3603
1351.8 -333.295 3603
1357.4 -332.555 3595
1365.99 -332.555 3595
1374.59 -332.555 3595
1383.19 -332.555 3595
1385.98 -331.167 3580
1394.54 -331.167 3580
1403.1 -331.167 3580
1408.51 -330.427 3572
1417.05 -330.427 3572
1425.59 -330.427 3572
1437.34 -331.167 3580
1451.96 -332.555 3595
1460.56 -332.555 3595
1472.42 -333.295 3603
1481.04 -333.295 3603
1489.66 -333.295 3603
1498.27 -333.295 3603
1506.89 -333.295 3603
1512.14 -332.555 3595
1520.74 -332.555 3595
1519.55 -330.427 3572
1496 -245.323 2652
1511.97 -246.895 2669
1540.54 -250.503 2708
1547.01 -250.503 2708
1563.81 -252.168 2726
1570.33 -252.168 2726
1576.85 -252.168 2726
1567.69 -249.671 2699
1566.56 -248.468 2686
1563.03 -246.895 2669
1574.7 -247.728 2678
1591.14 -249.3 2695
1597.59 -249.3 2695
1604.03 -249.3 2695
1600.32 -247.728 2678
1606.72 -247.728 2678
1597.46 -245.323 2652
1601.39 -244.953 2648
1602.86 -244.213 2640
1609.17 -244.213 2640
1602.64 -242.27 2619
1603.98 -241.53 2611
1615.16 -242.27 2619
1621.43 -242.27 2619
1627.69 -242.27 2619
1633.95 -242.27 2619
1635.2 -241.53 2611
1638.93 -241.16 2607
1645.17 -241.16 2607
1651.4 -241.16 2607
1660.18 -241.53 2611
1666.42 -241.53 2611
1672.67 -241.53 2611
1676.34 -241.16 2607
1679.99 -240.79 2603
1680.38 -239.957 2594
1689.84 -240.42 2599
1696.05 -240.42 2599
1704.89 -240.79 2603
1711.11 -240.79 2603
1722.62 -241.53 2611
1731.51 -241.9 2615
1737.76 -241.9 2615
1744.01 -241.9 2615
1747.59 -241.53 2611
1753.83 -241.53 2611
1745.92 -239.587 2590
1758.2 -240.42 2599
1764.42 -240.42 2599
1770.63 -240.42 2599
1776.85 -240.42 2599
1783.06 -240.42 2599
1785.84 -239.957 2594
1812.07 -242.64 2623
1818.35 -242.64 2623
1824.62 -242.64 2623
1830.89 -242.64 2623
1837.16 -242.64 2623
1840.62 -242.27 2619
1844.07 -241.9 2615
1844.66 -241.16 2607
1841.66 -239.957 2594
1847.87 -239.957 2594
1854.07 -239.957 2594
1854.54 -239.217 2586
1857.84 -238.847 2582
1864.02 -238.847 2582
1887.29 -236.35 2555
1893.4 -236.35 2555
1899.51 -236.35 2555
1902.64 -235.98 2551
1908.74 -235.98 2551
1897.57 -233.852 2528
1903.62 -233.852 2528
1909.66 -233.852 2528
1906.62 -232.742 2516
1912.63 -232.742 2516
1924.75 -233.482 2524
1930.79 -233.482 2524
-2825.69 -340.073 3774
-2816.66 -340.073 3774
-2833.67 -343.226 3809
-2824.57 -343.226 3809
-2815.46 -343.226 3809
-2768.04 -338.541 3757
-2413.42 -303.038 3363
-2405.37 -303.038 3363
-2397.33 -303.038 3363
-2389.29 -303.038 3363
-2381.25 -303.038 3363
-2373.21 -303.038 3363
-2365.16 -303.038 3363
-2366.93 -304.299 3377
-2358.86 -304.299 3377
-2350.78 -304.299 3377
-2366.99 -307.453 3412
-2368.51 -308.714 3426
-2374.78 -310.607 3447
-2366.54 -310.607 3447
-2363.09 -311.238 3454
-2354.83 -311.238 3454
-2346.57 -311.238 3454
-2338.31 -311.238 3454
-2330.05 -311.238 3454
-2317.08 -310.607 3447
-2308.84 -310.607 3447
-2300.6 -310.607 3447
-2287.7 -309.976 3440
-2274.83 -309.345 3433
-2266.63 -309.345 3433
-2253.81 -308.714 3426
-2241.03 -308.084 3419
-2228.28 -307.453 3412
-2220.12 -307.453 3412
-2189.27 -304.299 3377
-2163.76 -301.866 3350
-2151.24 -301.235 3343
-2143.25 -301.235 3343
-2118.65 -298.893 3317
-2118.99 -300.064 3330
-2119.27 -301.235 3343
-2132.75 -304.299 3377
-2124.67 -304.299 3377
-2138.53 -307.453 3412
-2156.6 -311.238 3454
-2148.34 -311.238 3454
-2140.08 -311.238 3454
-1842.38 -330.431 3667
-1833.61 -330.431 3667
-1832.8 -331.873 3683
-1823.99 -331.873 3683
-1843.28 -337.009 3740
-1834.33 -337.009 3740
-1825.39 -337.009 3740
-1758.87 -343.226 3809
-1749.77 -343.226 3809
-1740.66 -343.226 3809
-1727.46 -342.415 3800
-1718.37 -342.415 3800
-1720.98 -344.758 3826
-1727.94 -348.002 3862
-1718.7 -348.002 3862
-1709.47 -348.002 3862
-1657.97 -339.352 3766
-1648.96 -339.352 3766
-738.996 -295.919 3284
-744.278 -301.235 3343
-736.284 -301.235 3343
-729.815 -301.866 3350
-721.804 -301.866 3350
-713.793 -301.866 3350
-704.308 -301.235 3343
-693.606 -300.064 3330
-685.643 -300.064 3330
-677.68 -300.064 3330
-669.717 -300.064 3330
-661.754 -300.064 3330
-656.343 -301.235 3343
-652.228 -303.038 3363
-650.89 -306.191 3398
-642.764 -306.191 3398
-637.253 -307.453 3412
-629.094 -307.453 3412
-622.209 -308.084 3419
-614.033 -308.084 3419
-605.857 -308.084 3419
-596.458 -307.453 3412
-588.299 -307.453 3412
-580.14 -307.453 3412
-571.98 -307.453 3412
-563.821 -307.453 3412
-555.662 -307.453 3412
-547.503 -307.453 3412
-539.344 -307.453 3412
-531.185 -307.453 3412
-529.464 -311.238 3454
-521.204 -311.238 3454
-512.945 -311.238 3454
-504.685 -311.238 3454
-496.426 -311.238 3454
-486.187 -309.976 3440
-477.961 -309.976 3440
-468.779 -309.345 3433
-460.57 -309.345 3433
-448.671 -306.822 3405
-270.861 -192.203 2133
-265.76 -192.203 2133
-260.659 -192.203 2133
-255.559 -192.203 2133
-249.519 -191.482 2125
-244.437 -191.482 2125
-239.356 -191.482 2125
-233.723 -191.032 2120
-228.869 -191.212 2122
-223.795 -191.212 2122
-218.72 -191.212 2122
-213.646 -191.212 2122
-208.572 -191.212 2122
-203.497 -191.212 2122
-198.423 -191.212 2122
-193.622 -191.482 2125
-188.54 -191.482 2125
-183.459 -191.482 2125
-178.377 -191.482 2125
-173.296 -191.482 2125
-167.977 -191.212 2122
-162.902 -191.212 2122
-157.828 -191.212 2122
-152.754 -191.212 2122
-147.888 -191.482 2125
-142.807 -191.482 2125
-137.725 -191.482 2125
-132.456 -191.212 2122
-127.382 -191.212 2122
-122.481 -191.482 2125
-117.399 -191.482 2125
-112.318 -191.482 2125
-107.236 -191.482 2125
-102.155 -191.482 2125
-97.073 -191.482 2125
-91.9915 -191.482 2125
-86.91 -191.482 2125
-81.7129 -191.212 2122
-76.6386 -191.212 2122
-71.3956 -190.761 2117
-66.2392 -190.491 2114
-61.184 -190.491 2114
-56.1288 -190.491 2114
-51.0253 -190.311 2112
-45.9748 -190.311 2112
-40.9244 -190.311 2112
-35.874 -190.311 2112
-30.7798 -190.041 2109
-25.6999 -189.77 2106
-20.6442 -189.59 2104
-15.6129 -189.59 2104
-10.5816 -189.59 2104
-5.55028 -189.59 2104
-0.518976 -189.59 2104
4.51233 -189.59 2104
9.54363 -189.59 2104
14.5541 -189.32 2101
19.5783 -189.32 2101
24.6024 -189.32 2101
29.6688 -189.59 2104
34.7001 -189.59 2104
39.7314 -189.59 2104
44.7627 -189.59 2104
49.794 -189.59 2104
54.8253 -189.59 2104
59.9135 -189.77 2106
64.9496 -189.77 2106
69.9857 -189.77 2106
75.0218 -189.77 2106
80.1719 -190.041 2109
85.2152 -190.041 2109
90.2584 -190.041 2109
95.3017 -190.041 2109
100.488 -190.311 2112
105.538 -190.311 2112
110.693 -190.491 2114
115.748 -190.491 2114
120.804 -190.491 2114
126.038 -190.761 2117
131.286 -191.032 2120
136.355 -191.032 2120
141.425 -191.032 2120
146.633 -191.212 2122
151.921 -191.482 2125
157.225 -191.753 2128
162.313 -191.753 2128
167.402 -191.753 2128
172.734 -192.023 2131
177.83 -192.023 2131
182.926 -192.023 2131
188.463 -192.473 2136
193.842 -192.744 2139
199.236 -193.014 2142
204.359 -193.014 2142
209.481 -193.014 2142
215.104 -193.465 2147
220.546 -193.735 2150
225.687 -193.735 2150
231.365 -194.186 2155
236.518 -194.186 2155
243.017 -195.267 2167
248.199 -195.267 2167
255.018 -196.528 2181
263.694 -199.142 2210
269.952 -199.862 2218
275.256 -199.862 2218
283.975 -202.295 2245
291.793 -204.007 2264
298.388 -204.818 2273
303.824 -204.818 2273
310.075 -205.359 2279
316.356 -205.9 2285
323.228 -206.801 2295
328.716 -206.801 2295
334.204 -206.801 2295
339.692 -206.801 2295
345.18 -206.801 2295
350.669 -206.801 2295
356.157 -206.801 2295
361.645 -206.801 2295
367.133 -206.801 2295
372.621 -206.801 2295
377.614 -206.531 2292
383.095 -206.531 2292
506.569 -261.858 2906
513.519 -261.858 2906
520.468 -261.858 2906
527.417 -261.858 2906
533.447 -261.407 2901
540.384 -261.407 2901
542.604 -259.154 2876
547.571 -258.253 2866
552.683 -257.442 2857
559.515 -257.442 2857
565.356 -256.992 2852
570.17 -256.091 2842
574.936 -255.19 2832
581.708 -255.19 2832
587.649 -254.829 2828
594.412 -254.829 2828
601.174 -254.829 2828
607.937 -254.829 2828
614.7 -254.829 2828
621.462 -254.829 2828
628.225 -254.829 2828
634.987 -254.829 2828
641.75 -254.829 2828
648.513 -254.829 2828
655.275 -254.829 2828
662.038 -254.829 2828
668.8 -254.829 2828
674.369 -254.379 2823
682.326 -254.829 2828
689.088 -254.829 2828
695.851 -254.829 2828
702.613 -254.829 2828
709.376 -254.829 2828
716.139 -254.829 2828
723.924 -255.19 2832
733.276 -256.091 2842
740.072 -256.091 2842
746.868 -256.091 2842
756.316 -256.992 2852
763.136 -256.992 2852
769.956 -256.992 2852
774.052 -256.091 2842
778.101 -255.19 2832
784.873 -255.19 2832
789.13 -254.379 2823
798.418 -255.19 2832
805.19 -255.19 2832
811.962 -255.19 2832
814.687 -253.928 2818
821.425 -253.928 2818
826.695 -253.477 2813
834.903 -253.928 2818
841.641 -253.928 2818
852.595 -255.19 2832
865.436 -256.992 2852
872.256 -256.992 2852
879.076 -256.992 2852
881.237 -255.64 2837
883.639 -254.379 2823
890.389 -254.379 2823
895.551 -253.928 2818
899.408 -253.117 2809
904.512 -252.667 2804
1190.74 -325.385 3611
1199.37 -325.385 3611
1208.01 -325.385 3611
1219.34 -326.106 3619
1227.99 -326.106 3619
1242.11 -327.547 3635
1250.81 -327.547 3635
1259.5 -327.547 3635
1268.19 -327.547 3635
1276.88 -327.547 3635
1285.58 -327.547 3635
1294.27 -327.547 3635
1302.96 -327.547 3635
1311.65 -327.547 3635
1320.35 -327.547 3635
1326.11 -326.826 3627
1328.9 -325.385 3611
1334.57 -324.664 3603
1343.19 -324.664 3603
1351.8 -324.664 3603
1357.4 -323.943 3595
1365.99 -323.943 3595
1374.59 -323.943 3595
1383.19 -323.943 3595
1389.07 -323.312 3588
1394.54 -322.591 3580
1406.23 -323.312 3588
1414.81 -323.312 3588
1423.39 -323.312 3588
1428.78 -322.591 3580
1437.34 -322.591 3580
1451.96 -323.943 3595
1460.56 -323.943 3595
1472.42 -324.664 3603
1481.04 -324.664 3603
1489.66 -324.664 3603
1498.27 -324.664 3603
1506.89 -324.664 3603
1515.5 -324.664 3603
1524.12 -324.664 3603
1519.55 -321.87 3572
1501.07 -239.781 2661
1511.97 -240.502 2669
1540.54 -244.016 2708
1547.01 -244.016 2708
1563.81 -245.638 2726
1570.33 -245.638 2726
1576.85 -245.638 2726
1567.69 -243.205 2699
1569.48 -242.484 2691
1575.91 -242.484 2691
1584.7 -242.845 2695
1593.5 -243.205 2699
1599.96 -243.205 2699
1606.41 -243.205 2699
1608.09 -242.484 2691
1614.52 -242.484 2691
1602.88 -239.781 2661
1603.81 -238.97 2652
1607.72 -238.609 2648
1614.05 -238.609 2648
1607.53 -236.717 2627
1608.9 -235.996 2619
1617.63 -236.357 2623
1623.9 -236.357 2623
1630.17 -236.357 2623
1636.45 -236.357 2623
1640.21 -235.996 2619
1646.48 -235.996 2619
1652.74 -235.996 2619
1659 -235.996 2619
1665.26 -235.996 2619
1671.53 -235.996 2619
1677.79 -235.996 2619
1681.48 -235.636 2615
1682.57 -234.915 2607
1683.62 -234.194 2599
1689.84 -234.194 2599
1696.05 -234.194 2599
1704.89 -234.555 2603
1711.11 -234.555 2603
1722.62 -235.275 2611
1731.51 -235.636 2615
1737.76 -235.636 2615
1744.01 -235.636 2615
1747.59 -235.275 2611
1753.83 -235.275 2611
1745.92 -233.383 2590
1758.2 -234.194 2599
1764.42 -234.194 2599
1770.63 -234.194 2599
1776.85 -234.194 2599
1783.06 -234.194 2599
1785.84 -233.744 2594
1812.07 -236.357 2623
1818.35 -236.357 2623
1824.62 -236.357 2623
1830.89 -236.357 2623
1837.16 -236.357 2623
1840.62 -235.996 2619
1844.07 -235.636 2615
1850.32 -235.636 2615
1850.89 -234.915 2607
1857.13 -234.915 2607
1860.5 -234.555 2603
1860.27 -233.744 2594
1857.84 -232.662 2582
1864.02 -232.662 2582
1870.19 -232.662 2582
1873.46 -232.302 2578
1876.71 -231.941 2574
1882.86 -231.941 2574
1880.94 -230.95 2563
1884.13 -230.59 2559
1890.25 -230.59 2559
1896.37 -230.59 2559
1902.48 -230.59 2559
1905.62 -230.229 2555
1908.74 -229.869 2551
1908.83 -229.148 2543
1914.91 -229.148 2543
1921 -229.148 2543
1915.71 -227.796 2528
1921.75 -227.796 2528
1927.8 -227.796 2528
1930.79 -227.436 2524
-2384.71 -291.473 3323
-2376.76 -291.473 3323
-2383.07 -293.227 3343
-2375.08 -293.227 3343
-2377 -294.455 3357
-2368.97 -294.455 3357
-2360.94 -294.455 3357
-2352.92 -294.455 3357
-2358.86 -296.21 3377
-2350.78 -296.21 3377
-2352.42 -297.438 3391
-2368.51 -300.507 3426
-2365.14 -301.121 3433
-2356.93 -301.121 3433
-2358.3 -302.349 3447
-2350.05 -302.349 3447
-2341.81 -302.349 3447
-2333.57 -302.349 3447
-2325.33 -302.349 3447
-2312.38 -301.735 3440
-2304.15 -301.735 3440
-2295.93 -301.735 3440
-2283.04 -301.121 3433
-2274.83 -301.121 3433
-2266.63 -301.121 3433
-2253.81 -300.507 3426
-2241.03 -299.893 3419
-2228.28 -299.279 3412
-2220.12 -299.279 3412
-2189.27 -296.21 3377
-2163.76 -293.841 3350
-2151.24 -293.227 3343
-2143.25 -293.227 3343
-2118.65 -290.947 3317
-2118.99 -292.087 3330
-2119.27 -293.227 3343
-2132.75 -296.21 3377
-2124.67 -296.21 3377
-2138.53 -299.279 3412
-2156.6 -302.963 3454
-2148.34 -302.963 3454
-2140.08 -302.963 3454
-1842.38 -321.647 3667
-1833.61 -321.647 3667
-1832.8 -323.05 3683
-1823.99 -323.05 3683
-1843.28 -328.05 3740
-1834.33 -328.05 3740
-1825.39 -328.05 3740
-1758.87 -334.102 3809
-1749.77 -334.102 3809
-1740.66 -334.102 3809
-1727.46 -333.312 3800
-1718.37 -333.312 3800
-1720.98 -335.593 3826
-1727.94 -338.751 3862
-1718.7 -338.751 3862
-1709.47 -338.751 3862
-738.996 -288.052 3284
-731.143 -288.052 3284
-731.879 -291.473 3323
-723.933 -291.473 3323
-715.987 -291.473 3323
-703.779 -289.719 3303
-695.88 -289.719 3303
-687.982 -289.719 3303
-685.643 -292.087 3330
-677.68 -292.087 3330
-669.717 -292.087 3330
-661.754 -292.087 3330
-656.343 -293.227 3343
-652.228 -294.982 3363
-650.89 -298.051 3398
-642.764 -298.051 3398
-637.253 -299.279 3412
-629.094 -299.279 3412
-622.209 -299.893 3419
-614.033 -299.893 3419
-605.857 -299.893 3419
-596.458 -299.279 3412
-588.299 -299.279 3412
-580.14 -299.279 3412
-570.807 -298.665 3405
-563.821 -299.279 3412
-555.662 -299.279 3412
-547.503 -299.279 3412
-539.344 -299.279 3412
-531.185 -299.279 3412
-523.026 -299.279 3412
-514.867 -299.279 3412
-512.945 -302.963 3454
-504.685 -302.963 3454
-496.426 -302.963 3454
-486.187 -301.735 3440
-477.961 -301.735 3440
-466.868 -299.893 3419
-458.692 -299.893 3419
-448.671 -298.665 3405
-270.861 -187.094 2133
-265.76 -187.094 2133
-260.659 -187.094 2133
-255.559 -187.094 2133
-249.519 -186.392 2125
-244.437 -186.392 2125
-239.356 -186.392 2125
-233.723 -185.953 2120
-228.869 -186.129 2122
-223.795 -186.129 2122
-218.72 -186.129 2122
-213.646 -186.129 2122
-208.572 -186.129 2122
-203.497 -186.129 2122
-198.423 -186.129 2122
-193.622 -186.392 2125
-188.54 -186.392 2125
-183.459 -186.392 2125
-178.377 -186.392 2125
-173.296 -186.392 2125
-167.977 -186.129 2122
-162.902 -186.129 2122
-157.828 -186.129 2122
-152.754 -186.129 2122
-147.888 -186.392 2125
-142.807 -186.392 2125
-137.725 -186.392 2125
-132.456 -186.129 2122
-127.382 -186.129 2122
-122.481 -186.392 2125
-117.399 -186.392 2125
-112.318 -186.392 2125
-107.236 -186.392 2125
-102.155 -186.392 2125
-97.073 -186.392 2125
-91.9915 -186.392 2125
-86.91 -186.392 2125
-81.7129 -186.129 2122
-76.6386 -186.129 2122
-71.3956 -185.69 2117
-66.2392 -185.427 2114
-61.184 -185.427 2114
-56.1288 -185.427 2114
-51.0253 -185.252 2112
-45.9748 -185.252 2112
-40.8663 -184.988 2109
-35.823 -184.988 2109
-30.736 -184.725 2106
-25.6999 -184.725 2106
-20.6442 -184.55 2104
-15.6129 -184.55 2104
-10.5816 -184.55 2104
-5.55028 -184.55 2104
-0.518976 -184.55 2104
4.51233 -184.55 2104
9.54363 -184.55 2104
14.5541 -184.287 2101
19.5783 -184.287 2101
24.6024 -184.287 2101
29.6688 -184.55 2104
34.7001 -184.55 2104
39.7314 -184.55 2104
44.7627 -184.55 2104
49.794 -184.55 2104
54.8253 -184.55 2104
59.9135 -184.725 2106
64.9496 -184.725 2106
69.9857 -184.725 2106
75.0218 -184.725 2106
80.1719 -184.988 2109
85.2152 -184.988 2109
90.2584 -184.988 2109
95.3017 -184.988 2109
100.488 -185.252 2112
105.538 -185.252 2112
110.693 -185.427 2114
115.748 -185.427 2114
120.804 -185.427 2114
126.038 -185.69 2117
131.286 -185.953 2120
136.355 -185.953 2120
141.425 -185.953 2120
146.633 -186.129 2122
151.921 -186.392 2125
157.225 -186.655 2128
162.313 -186.655 2128
167.402 -186.655 2128
172.734 -186.918 2131
177.83 -186.918 2131
182.926 -186.918 2131
188.463 -187.357 2136
193.842 -187.62 2139
199.236 -187.883 2142
204.359 -187.883 2142
209.481 -187.883 2142
215.104 -188.322 2147
220.546 -188.585 2150
225.687 -188.585 2150
231.365 -189.023 2155
236.518 -189.023 2155
243.017 -190.076 2167
248.199 -190.076 2167
255.018 -191.304 2181
263.694 -193.847 2210
269.587 -194.286 2215
274.884 -194.286 2215
283.596 -196.654 2242
291.793 -198.584 2264
297.994 -199.11 2270
303.423 -199.11 2270
310.075 -199.9 2279
316.356 -200.426 2285
323.228 -201.303 2295
328.716 -201.303 2295
334.204 -201.303 2295
339.692 -201.303 2295
345.18 -201.303 2295
350.669 -201.303 2295
356.157 -201.303 2295
361.645 -201.303 2295
367.133 -201.303 2295
372.621 -201.303 2295
377.614 -201.04 2292
381.925 -200.426 2285
503.955 -253.581 2891
512.635 -254.458 2901
519.572 -254.458 2901
526.509 -254.458 2901
530.688 -253.142 2886
537.59 -253.142 2886
541.661 -251.826 2871
546.807 -251.037 2862
552.683 -250.598 2857
559.515 -250.598 2857
565.356 -250.16 2852
570.17 -249.283 2842
574.936 -248.405 2832
581.708 -248.405 2832
587.649 -248.055 2828
594.412 -248.055 2828
601.174 -248.055 2828
607.937 -248.055 2828
614.7 -248.055 2828
621.462 -248.055 2828
628.225 -248.055 2828
634.987 -248.055 2828
641.75 -248.055 2828
648.513 -248.055 2828
654.117 -247.616 2823
660.867 -247.616 2823
667.618 -247.616 2823
674.369 -247.616 2823
681.119 -247.616 2823
689.088 -248.055 2828
695.851 -248.055 2828
702.613 -248.055 2828
706.868 -247.177 2818
714.872 -247.616 2823
721.623 -247.616 2823
728.374 -247.616 2823
735.124 -247.616 2823
741.875 -247.616 2823
751.012 -248.405 2832
757.785 -248.405 2832
764.557 -248.405 2832
771.329 -248.405 2832
775.628 -247.616 2823
782.379 -247.616 2823
787.732 -247.177 2818
794.471 -247.177 2818
801.209 -247.177 2818
807.948 -247.177 2818
814.687 -247.177 2818
821.425 -247.177 2818
826.695 -246.739 2813
834.903 -247.177 2818
841.641 -247.177 2818
852.595 -248.405 2832
859.367 -248.405 2832
866.139 -248.405 2832
870.137 -247.616 2823
876.888 -247.616 2823
883.639 -247.616 2823
890.389 -247.616 2823
895.551 -247.177 2818
899.408 -246.388 2809
904.512 -245.949 2804
1199.37 -316.735 3611
1208.01 -316.735 3611
1219.34 -317.436 3619
1227.99 -317.436 3619
1242.11 -318.84 3635
1250.81 -318.84 3635
1259.5 -318.84 3635
1268.19 -318.84 3635
1276.88 -318.84 3635
1285.58 -318.84 3635
1294.27 -318.84 3635
1302.96 -318.84 3635
1311.65 -318.84 3635
1320.35 -318.84 3635
1326.11 -318.138 3627
1328.9 -316.735 3611
1334.57 -316.033 3603
1343.19 -316.033 3603
1351.8 -316.033 3603
1357.4 -315.331 3595
1365.99 -315.331 3595
1374.59 -315.331 3595
1383.19 -315.331 3595
1389.07 -314.717 3588
1394.54 -314.015 3580
1406.23 -314.717 3588
1414.81 -314.717 3588
1423.39 -314.717 3588
1428.78 -314.015 3580
1437.34 -314.015 3580
1451.96 -315.331 3595
1460.56 -315.331 3595
1472.42 -316.033 3603
1481.04 -316.033 3603
1489.66 -316.033 3603
1498.27 -316.033 3603
1506.89 -316.033 3603
1515.5 -316.033 3603
1524.12 -316.033 3603
1519.55 -313.314 3572
1501.07 -233.406 2661
1511.97 -234.108 2669
1540.54 -237.529 2708
1547.01 -237.529 2708
1563.81 -239.108 2726
1570.33 -239.108 2726
1576.85 -239.108 2726
1567.69 -236.74 2699
1569.48 -236.038 2691
1575.91 -236.038 2691
1584.7 -236.389 2695
1593.5 -236.74 2699
1599.96 -236.74 2699
1606.41 -236.74 2699
1608.09 -236.038 2691
1614.52 -236.038 2691
1602.88 -233.406 2661
