ply
format ascii 1.0
comment File generated
element vertex 2145
property float x
property float y
property float z
end_header
459.276 -203.684 2871
466.141 -203.684 2871
473.007 -203.684 2871
479.872 -203.684 2871
485.89 -203.329 2866
492.056 -203.045 2862
498.899 -203.045 2862
505.743 -203.045 2862
512.587 -203.045 2862
519.431 -203.045 2862
525.356 -202.691 2857
532.188 -202.691 2857
539.02 -202.691 2857
544.896 -202.336 2852
551.716 -202.336 2852
558.536 -202.336 2852
565.356 -202.336 2852
571.173 -201.981 2847
577.981 -201.981 2847
584.789 -201.981 2847
591.597 -201.981 2847
598.405 -201.981 2847
605.213 -201.981 2847
612.021 -201.981 2847
618.829 -201.981 2847
625.637 -201.981 2847
632.445 -201.981 2847
638.131 -201.626 2842
644.927 -201.626 2842
651.723 -201.626 2842
657.361 -201.272 2837
664.145 -201.272 2837
670.929 -201.272 2837
677.713 -201.272 2837
684.497 -201.272 2837
691.281 -201.272 2837
698.065 -201.272 2837
704.849 -201.272 2837
711.634 -201.272 2837
717.151 -200.917 2832
723.924 -200.917 2832
730.696 -200.917 2832
736.426 -200.633 2828
743.189 -200.633 2828
749.952 -200.633 2828
756.714 -200.633 2828
762.127 -200.278 2823
770.239 -200.633 2828
777.002 -200.633 2828
783.765 -200.633 2828
790.527 -200.633 2828
795.88 -200.278 2823
802.631 -200.278 2823
809.382 -200.278 2823
816.132 -200.278 2823
822.883 -200.278 2823
829.633 -200.278 2823
836.384 -200.278 2823
843.135 -200.278 2823
849.885 -200.278 2823
858.153 -200.633 2828
864.916 -200.633 2828
871.679 -200.633 2828
878.441 -200.633 2828
883.639 -200.278 2823
890.389 -200.278 2823
897.14 -200.278 2823
900.689 -199.569 2813
909.028 -199.924 2818
915.767 -199.924 2818
922.506 -199.924 2818
929.244 -199.924 2818
937.644 -200.278 2823
944.394 -200.278 2823
951.145 -200.278 2823
957.896 -200.278 2823
964.646 -200.278 2823
969.677 -199.924 2818
976.415 -199.924 2818
1268.19 -257.886 3635
1282.15 -258.95 3650
1302.55 -261.291 3683
1311.36 -261.291 3683
1325.9 -262.426 3699
1334.75 -262.426 3699
1343.59 -262.426 3699
1346.59 -261.291 3683
1352.45 -260.724 3675
1351.98 -258.95 3650
1360.71 -258.95 3650
1369.44 -258.95 3650
1375.14 -258.383 3642
1383.85 -258.383 3642
1392.56 -258.383 3642
1401.27 -258.383 3642
1404.17 -257.318 3627
1406.61 -256.183 3611
1415.25 -256.183 3611
1420.73 -255.616 3603
1429.34 -255.616 3603
1434.77 -255.048 3595
1440.55 -254.552 3588
1449.13 -254.552 3588
1454.46 -253.984 3580
1466.29 -254.552 3588
1474.87 -254.552 3588
1483.45 -254.552 3588
1492.03 -254.552 3588
1497.27 -253.984 3580
1502.46 -253.416 3572
1511.01 -253.416 3572
1484.66 -247.599 3490
1477.61 -245.045 3454
1476.84 -243.555 3433
1472.93 -241.569 3405
1481.07 -241.569 3405
1483.09 -240.575 3391
1464.38 -236.248 3330
1472.34 -236.248 3330
1480.3 -236.248 3330
1519.9 -232.558 3278
1527.74 -232.558 3278
1535.57 -232.558 3278
1487.26 -190.275 2682
1510.94 -192.474 2713
1521.91 -193.042 2721
1528.41 -193.042 2721
1537.74 -193.397 2726
1551.62 -194.319 2739
1558.17 -194.319 2739
1564.72 -194.319 2739
1571.27 -194.319 2739
1572.64 -193.68 2730
1579.16 -193.68 2730
1583.37 -193.397 2726
1589.89 -193.397 2726
1593.48 -193.042 2721
1599.99 -193.042 2721
1601.77 -192.474 2713
1608.26 -192.474 2713
1614.74 -192.474 2713
1621.23 -192.474 2713
1627.72 -192.474 2713
1631.2 -192.12 2708
1632.23 -191.481 2699
1636.25 -191.197 2695
1642.7 -191.197 2695
1641.19 -190.275 2682
1647.6 -190.275 2682
1648.46 -189.637 2673
1654.86 -189.637 2673
1658.76 -189.353 2669
1665.14 -189.353 2669
1669.02 -189.069 2665
1675.4 -189.069 2665
1679.24 -188.785 2661
1685.61 -188.785 2661
1691.97 -188.785 2661
1690.04 -187.863 2648
1696.37 -187.863 2648
1697.56 -187.295 2640
1700.64 -186.941 2635
1704.35 -186.657 2631
1710.64 -186.657 2631
1714.33 -186.373 2627
1720.61 -186.373 2627
1721.63 -185.806 2619
1727.89 -185.806 2619
1734.16 -185.806 2619
1737.76 -185.522 2615
1741.35 -185.238 2611
1747.59 -185.238 2611
1753.83 -185.238 2611
1760.08 -185.238 2611
1760.91 -184.67 2603
1767.13 -184.67 2603
1773.36 -184.67 2603
1779.58 -184.67 2603
1783.06 -184.387 2599
1789.28 -184.387 2599
1803.78 -185.238 2611
1810.03 -185.238 2611
1819.05 -185.522 2615
1825.31 -185.522 2615
1831.56 -185.522 2615
1837.81 -185.522 2615
1844.07 -185.522 2615
1847.49 -185.238 2611
1853.73 -185.238 2611
1859.98 -185.238 2611
1863.36 -184.954 2607
1866.73 -184.67 2603
1870.07 -184.387 2599
1876.29 -184.387 2599
1878.88 -184.032 2594
1882.18 -183.748 2590
1885.45 -183.464 2586
1891.64 -183.464 2586
1889.02 -182.613 2574
1895.17 -182.613 2574
1899.11 -182.4 2571
1905.26 -182.4 2571
1911.41 -182.4 2571
1914.57 -182.116 2567
1914.72 -181.549 2559
1917.84 -181.265 2555
1923.95 -181.265 2555
1930.06 -181.265 2555
1930.11 -180.698 2547
1936.2 -180.698 2547
1942.29 -180.698 2547
1948.38 -180.698 2547
-2057.5 -188.375 2748
-2050.92 -188.375 2748
-2044.35 -188.375 2748
-2338.76 -226.42 3303
-2330.86 -226.42 3303
-2322.97 -226.42 3303
-2315.07 -226.42 3303
-2321.14 -227.791 3323
-2313.19 -227.791 3323
-2323.98 -229.642 3350
-2324.95 -230.533 3363
-2336.2 -232.452 3391
-2328.09 -232.452 3391
-2324.77 -232.932 3398
-2316.65 -232.932 3398
-2308.52 -232.932 3398
-2300.4 -232.932 3398
-2296.99 -233.412 3405
-2293.56 -233.892 3412
-2290.09 -234.372 3419
-2281.91 -234.372 3419
-2273.73 -234.372 3419
-2265.56 -234.372 3419
-2275.87 -236.291 3447
-2267.63 -236.291 3447
-2263.97 -236.771 3454
-2274.65 -238.759 3483
-2299.51 -242.255 3534
-2291.06 -242.255 3534
-2282.61 -242.255 3534
-2274.15 -242.255 3534
-2265.7 -242.255 3534
-2248.31 -241.295 3520
-2263.44 -243.831 3557
-2260 -244.38 3565
-2255.9 -244.86 3572
-2247.36 -244.86 3572
-2238.82 -244.86 3572
-2225.9 -244.38 3565
-2217.38 -244.38 3565
-1979.45 -227.791 3323
-2062.28 -238.279 3476
-2053.96 -238.279 3476
-2049.77 -238.759 3483
-2054.34 -240.267 3505
-2045.95 -240.267 3505
-2037.57 -240.267 3505
-2029.19 -240.267 3505
-1995.44 -237.251 3461
-1987.17 -237.251 3461
-1950.87 -233.892 3412
-1922.79 -231.492 3377
-1906.77 -230.533 3363
-2052.3 -249.178 3635
-2043.61 -249.178 3635
-2057.31 -251.92 3675
-2048.52 -251.92 3675
-2062.49 -254.731 3716
-2053.6 -254.731 3716
-2044.72 -254.731 3716
-2048.98 -256.376 3740
-2054.22 -258.158 3766
-2045.21 -258.158 3766
-2036.21 -258.158 3766
-2027.2 -258.158 3766
-2018.19 -258.158 3766
-1907.83 -250.755 3658
-1916.22 -253.017 3691
-1907.39 -253.017 3691
-1898.56 -253.017 3691
-1877.45 -251.372 3667
-1860.02 -250.207 3650
-1851.29 -250.207 3650
-1818.84 -246.985 3603
-1802.68 -245.956 3588
-1774.6 -243.283 3549
-1755.17 -241.775 3527
-1746.73 -241.775 3527
-1723.51 -239.718 3497
-1715.15 -239.718 3497
-1751.2 -245.956 3588
-1757.68 -248.081 3619
-1749.03 -248.081 3619
-1748.07 -249.178 3635
-1758.51 -251.92 3675
-1753.54 -252.469 3683
-1744.73 -252.469 3683
-1735.92 -252.469 3683
-1727.11 -252.469 3683
-1718.31 -252.469 3683
-1709.5 -252.469 3683
-1681.76 -249.658 3642
-1673.05 -249.658 3642
-1664.34 -249.658 3642
-1655.63 -249.658 3642
-1646.92 -249.658 3642
-1649.46 -251.372 3667
-1640.69 -251.372 3667
-1631.92 -251.372 3667
-1619.17 -250.755 3658
-1610.42 -250.755 3658
-1601.67 -250.755 3658
-1592.93 -250.755 3658
-1102.58 -196.189 2862
-1095.73 -196.189 2862
-1098.02 -197.835 2886
-1093.01 -198.177 2891
-1091.73 -199.206 2906
-1084.78 -199.206 2906
-1077.83 -199.206 2906
-1070.88 -199.206 2906
-1063.93 -199.206 2906
-1053.35 -198.52 2896
-1041 -197.492 2881
-1034.11 -197.492 2881
-1027.22 -197.492 2881
-1016.79 -196.806 2871
-1009.93 -196.806 2871
-998.17 -195.847 2857
-991.338 -195.847 2857
-984.506 -195.847 2857
-977.674 -195.847 2857
-970.842 -195.847 2857
-965.697 -196.189 2862
-958.853 -196.189 2862
-952.009 -196.189 2862
-943.514 -195.847 2857
-936.682 -195.847 2857
-928.223 -195.504 2852
-918.172 -194.818 2842
-909.773 -194.476 2837
-902.989 -194.476 2837
-896.205 -194.476 2837
-889.42 -194.476 2837
-882.636 -194.476 2837
-875.852 -194.476 2837
-869.068 -194.476 2837
-862.284 -194.476 2837
-857.008 -194.818 2842
-851.707 -195.161 2847
-846.383 -195.504 2852
-839.563 -195.504 2852
-832.743 -195.504 2852
-825.923 -195.504 2852
-819.103 -195.504 2852
-810.859 -195.161 2847
-802.639 -194.818 2842
-795.843 -194.818 2842
-789.047 -194.818 2842
-782.251 -194.818 2842
-776.819 -195.161 2847
-770.011 -195.161 2847
-763.203 -195.161 2847
-756.395 -195.161 2847
-749.587 -195.161 2847
-742.779 -195.161 2847
-737.263 -195.504 2852
-730.443 -195.504 2852
-723.623 -195.504 2852
-715.546 -195.161 2847
-708.738 -195.161 2847
-701.93 -195.161 2847
-693.901 -194.818 2842
-687.105 -194.818 2842
-681.506 -195.161 2847
-674.698 -195.161 2847
-667.89 -195.161 2847
-662.243 -195.504 2852
-658.641 -196.464 2866
-651.787 -196.464 2866
-646.059 -196.806 2871
-642.533 -197.835 2886
-649.067 -202.016 2947
-642.019 -202.016 2947
-640.79 -203.867 2974
-633.678 -203.867 2974
-664.489 -216.206 3154
-656.947 -216.206 3154
-651.875 -217.028 3166
-656.718 -221.21 3227
-651.415 -222.033 3239
-643.67 -222.033 3239
-645.937 -225.529 3290
-641.949 -226.9 3310
-637.865 -228.271 3330
-629.901 -228.271 3330
-623.246 -228.75 3337
-617.663 -229.642 3350
-610.926 -230.121 3357
-602.898 -230.121 3357
-594.871 -230.121 3357
-587.892 -230.533 3363
-579.85 -230.533 3363
-571.808 -230.533 3363
-563.766 -230.533 3363
-555.724 -230.533 3363
-547.682 -230.533 3363
-539.64 -230.533 3363
-531.598 -230.533 3363
-522.622 -230.121 3357
-514.595 -230.121 3357
-504.455 -229.162 3343
-492.599 -227.379 3317
-484.667 -227.379 3317
-477.598 -227.791 3323
-469.651 -227.791 3323
-461.705 -227.791 3323
-453.759 -227.791 3323
-445.812 -227.791 3323
-437.866 -227.791 3323
-429.92 -227.791 3323
-421.212 -227.379 3317
-412.408 -226.9 3310
-404.492 -226.9 3310
-396.577 -226.9 3310
-388.662 -226.9 3310
-379.941 -226.42 3303
-372.043 -226.42 3303
-364.145 -226.42 3303
-354.844 -225.529 3290
-346.344 -225.117 3284
-338.491 -225.117 3284
-204.081 -138.95 2027
-199.529 -139.156 2030
-194.866 -139.293 2032
-190.007 -139.293 2032
-185.148 -139.293 2032
-180.91 -139.773 2039
-177.156 -140.664 2052
-173.509 -141.692 2067
-168.566 -141.692 2067
-164.89 -142.789 2083
-160.062 -142.926 2085
-156.043 -143.817 2098
-151.026 -143.817 2098
-146.218 -144.023 2101
-141.194 -144.023 2101
-136.364 -144.229 2104
-131.333 -144.229 2104
-126.422 -144.366 2106
-121.847 -144.914 2114
-116.957 -145.12 2117
-111.895 -145.12 2117
-107.085 -145.463 2122
-102.299 -145.874 2128
-97.3471 -146.079 2131
-92.2512 -146.079 2131
-87.2372 -146.217 2133
-82.252 -146.422 2136
-77.1442 -146.422 2136
-72.0364 -146.422 2136
-66.9286 -146.422 2136
-61.7339 -146.217 2133
-56.6333 -146.217 2133
-51.4843 -146.079 2131
-46.3884 -146.079 2131
-41.2344 -145.874 2128
-36.1457 -145.874 2128
-31.0571 -145.874 2128
-25.9684 -145.874 2128
-20.8502 -145.668 2125
-15.7687 -145.668 2125
-10.6872 -145.668 2125
-5.59776 -145.463 2122
-0.523416 -145.463 2122
4.55736 -145.668 2125
9.63888 -145.668 2125
14.7204 -145.668 2125
19.774 -145.463 2122
24.8483 -145.463 2122
29.9227 -145.463 2122
34.997 -145.463 2122
40.0713 -145.463 2122
45.1457 -145.463 2122
50.22 -145.463 2122
55.2944 -145.463 2122
60.3687 -145.463 2122
65.4431 -145.463 2122
70.5174 -145.463 2122
75.5918 -145.463 2122
80.6661 -145.463 2122
85.8617 -145.668 2125
90.9432 -145.668 2125
96.0247 -145.668 2125
101.249 -145.874 2128
106.488 -146.079 2131
111.688 -146.217 2133
116.789 -146.217 2133
122.232 -146.628 2139
127.347 -146.628 2139
132.772 -146.971 2144
138.092 -147.176 2147
143.226 -147.176 2147
148.567 -147.382 2150
153.923 -147.588 2153
159.441 -147.93 2158
164.602 -147.93 2158
169.998 -148.136 2161
175.409 -148.342 2164
180.834 -148.547 2167
186.016 -148.547 2167
192.168 -149.301 2178
198.645 -150.261 2192
205.282 -151.289 2207
210.56 -151.289 2207
217.207 -152.249 2221
224.321 -153.483 2239
231.214 -154.511 2254
236.604 -154.511 2254
243.712 -155.608 2270
250.786 -156.636 2285
258.381 -157.939 2304
263.891 -157.939 2304
270.219 -158.418 2311
275.745 -158.418 2311
286.383 -161.298 2353
292.01 -161.298 2353
300.166 -162.669 2373
314.863 -167.467 2443
321.099 -167.673 2446
326.948 -167.673 2446
332.797 -167.673 2446
338.646 -167.673 2446
408.496 -195.504 2852
416.044 -195.847 2857
424.208 -196.464 2866
431.062 -196.464 2866
438.679 -196.806 2871
445.545 -196.806 2871
452.41 -196.806 2871
459.276 -196.806 2871
466.141 -196.806 2871
472.183 -196.464 2866
479.036 -196.464 2866
485.89 -196.464 2866
492.056 -196.189 2862
498.899 -196.189 2862
505.743 -196.189 2862
512.587 -196.189 2862
519.431 -196.189 2862
525.356 -195.847 2857
532.188 -195.847 2857
539.02 -195.847 2857
544.896 -195.504 2852
551.716 -195.504 2852
558.536 -195.504 2852
565.356 -195.504 2852
571.173 -195.161 2847
577.981 -195.161 2847
584.789 -195.161 2847
591.597 -195.161 2847
598.405 -195.161 2847
605.213 -195.161 2847
612.021 -195.161 2847
618.829 -195.161 2847
625.637 -195.161 2847
632.445 -195.161 2847
638.131 -194.818 2842
644.927 -194.818 2842
651.723 -194.818 2842
657.361 -194.476 2837
664.145 -194.476 2837
670.929 -194.476 2837
677.713 -194.476 2837
684.497 -194.476 2837
691.281 -194.476 2837
698.065 -194.476 2837
704.849 -194.476 2837
711.634 -194.476 2837
717.151 -194.133 2832
723.924 -194.133 2832
730.696 -194.133 2832
736.426 -193.859 2828
743.189 -193.859 2828
749.952 -193.859 2828
756.714 -193.859 2828
762.127 -193.516 2823
770.239 -193.859 2828
777.002 -193.859 2828
783.765 -193.859 2828
790.527 -193.859 2828
795.88 -193.516 2823
802.631 -193.516 2823
809.382 -193.516 2823
816.132 -193.516 2823
822.883 -193.516 2823
829.633 -193.516 2823
836.384 -193.516 2823
843.135 -193.516 2823
849.885 -193.516 2823
858.153 -193.859 2828
864.916 -193.859 2828
871.679 -193.859 2828
878.441 -193.859 2828
883.639 -193.516 2823
890.389 -193.516 2823
897.14 -193.516 2823
900.689 -192.83 2813
909.028 -193.173 2818
915.767 -193.173 2818
922.506 -193.173 2818
929.244 -193.173 2818
937.644 -193.516 2823
944.394 -193.516 2823
951.145 -193.516 2823
957.896 -193.516 2823
964.646 -193.516 2823
969.677 -193.173 2818
976.415 -193.173 2818
1282.15 -250.207 3650
1302.55 -252.469 3683
1311.36 -252.469 3683
1325.9 -253.565 3699
1334.75 -253.565 3699
1343.59 -253.565 3699
1346.59 -252.469 3683
1352.45 -251.92 3675
1351.98 -250.207 3650
1360.71 -250.207 3650
1369.44 -250.207 3650
1375.14 -249.658 3642
1383.85 -249.658 3642
1392.56 -249.658 3642
1401.27 -249.658 3642
1404.17 -248.63 3627
1406.61 -247.533 3611
1415.25 -247.533 3611
1420.73 -246.985 3603
1429.34 -246.985 3603
1434.77 -246.436 3595
1440.55 -245.956 3588
1449.13 -245.956 3588
1454.46 -245.408 3580
1463.02 -245.408 3580
1471.59 -245.408 3580
1480.15 -245.408 3580
1488.71 -245.408 3580
1493.92 -244.86 3572
1489.85 -242.803 3542
1498.32 -242.803 3542
1475.31 -237.73 3468
1465.63 -234.851 3426
1464.79 -233.412 3405
1440.49 -228.271 3330
1448.45 -228.271 3330
1456.41 -228.271 3330
1464.38 -228.271 3330
1472.34 -228.271 3330
1480.3 -228.271 3330
1519.9 -224.706 3278
1527.74 -224.706 3278
1535.57 -224.706 3278
1487.26 -183.85 2682
1510.94 -185.975 2713
1521.91 -186.524 2721
1528.41 -186.524 2721
1537.74 -186.867 2726
1551.62 -187.758 2739
1558.17 -187.758 2739
1564.72 -187.758 2739
1571.27 -187.758 2739
1572.64 -187.141 2730
1579.16 -187.141 2730
1583.37 -186.867 2726
1589.89 -186.867 2726
1593.48 -186.524 2721
1599.99 -186.524 2721
1601.77 -185.975 2713
1608.26 -185.975 2713
1614.74 -185.975 2713
1621.23 -185.975 2713
1627.72 -185.975 2713
1631.2 -185.633 2708
1632.23 -185.016 2699
1636.25 -184.742 2695
1642.7 -184.742 2695
1641.19 -183.85 2682
1647.6 -183.85 2682
1648.46 -183.233 2673
1654.86 -183.233 2673
1658.76 -182.959 2669
1665.14 -182.959 2669
1669.02 -182.685 2665
1675.4 -182.685 2665
1679.24 -182.411 2661
1685.61 -182.411 2661
1691.97 -182.411 2661
1690.04 -181.52 2648
1696.37 -181.52 2648
1697.56 -180.971 2640
1700.64 -180.629 2635
1704.35 -180.354 2631
1710.64 -180.354 2631
1714.33 -180.08 2627
1720.61 -180.08 2627
1721.63 -179.532 2619
1727.89 -179.532 2619
1734.16 -179.532 2619
1737.76 -179.258 2615
1741.35 -178.983 2611
1747.59 -178.983 2611
1753.83 -178.983 2611
1760.08 -178.983 2611
1760.91 -178.435 2603
1767.13 -178.435 2603
1773.36 -178.435 2603
1779.58 -178.435 2603
1783.06 -178.161 2599
1789.28 -178.161 2599
1803.78 -178.983 2611
1810.03 -178.983 2611
1816.27 -178.983 2611
1825.31 -179.258 2615
1831.56 -179.258 2615
1837.81 -179.258 2615
1841.25 -178.983 2611
1847.49 -178.983 2611
1853.73 -178.983 2611
1859.98 -178.983 2611
1863.36 -178.709 2607
1866.73 -178.435 2603
1870.07 -178.161 2599
1876.29 -178.161 2599
1878.88 -177.818 2594
1882.18 -177.544 2590
1885.45 -177.27 2586
1891.64 -177.27 2586
1889.02 -176.447 2574
1895.17 -176.447 2574
1899.11 -176.241 2571
1905.26 -176.241 2571
1908.43 -175.967 2567
1911.59 -175.693 2563
1914.72 -175.419 2559
1914.84 -174.87 2551
1920.94 -174.87 2551
1927.04 -174.87 2551
1927.08 -174.322 2543
1936.2 -174.596 2547
1942.29 -174.596 2547
1948.38 -174.596 2547
-2054.5 -181.527 2744
-2047.94 -181.527 2744
-2041.38 -181.527 2744
-2001.45 -178.55 2699
-2338.76 -218.507 3303
-2330.86 -218.507 3303
-2322.97 -218.507 3303
-2315.07 -218.507 3303
-2321.14 -219.83 3323
-2313.19 -219.83 3323
-2323.98 -221.617 3350
-2324.95 -222.477 3363
-2341.02 -224.792 3398
-2332.9 -224.792 3398
-2329.56 -225.255 3405
-2321.42 -225.255 3405
-2313.28 -225.255 3405
-2305.14 -225.255 3405
-2296.99 -225.255 3405
-2298.26 -226.181 3419
-2294.77 -226.644 3426
-2286.58 -226.644 3426
-2278.39 -226.644 3426
-2270.2 -226.644 3426
-2275.87 -228.034 3447
-2267.63 -228.034 3447
-2273.15 -229.423 3468
-2283.79 -231.341 3497
-2299.51 -233.789 3534
-2291.06 -233.789 3534
-2282.61 -233.789 3534
-2274.15 -233.789 3534
-2265.7 -233.789 3534
-2248.31 -232.863 3520
-2263.44 -235.311 3557
-2254.93 -235.311 3557
-2251.48 -235.84 3565
-2242.95 -235.84 3565
-2234.43 -235.84 3565
-2220.91 -235.311 3557
-2212.4 -235.311 3557
-1971.84 -218.11 3297
-1987.79 -220.757 3337
-1995.23 -222.477 3363
-1987.19 -222.477 3363
-2036.82 -228.96 3461
-2041.44 -230.415 3483
-2033.11 -230.415 3483
-2024.78 -230.415 3483
-2003.72 -228.96 3461
-1979.3 -227.107 3433
-1971.09 -227.107 3433
-1950.87 -225.718 3412
-1922.79 -223.403 3377
-1906.77 -222.477 3363
-2047.78 -239.941 3627
-2039.11 -239.941 3627
-2047.79 -241.992 3658
-2039.04 -241.992 3658
-2039.73 -243.117 3675
-2030.94 -243.117 3675
-2030.96 -244.175 3691
-2030.9 -245.234 3707
-2031.31 -246.358 3724
-2022.4 -246.358 3724
-2013.5 -246.358 3724
-2004.59 -246.358 3724
-1995.69 -246.358 3724
-1895.84 -240.471 3635
-1894.93 -241.463 3650
-1886.2 -241.463 3650
-1877.48 -241.463 3650
-1868.75 -241.463 3650
-1848.3 -239.941 3627
-1839.62 -239.941 3627
-1814.8 -237.824 3595
-1802.68 -237.361 3588
-1778.6 -235.311 3557
-1762.63 -234.318 3542
-1754.16 -234.318 3542
-1730.91 -232.334 3512
-1722.51 -232.334 3512
-1747.3 -236.832 3580
-1753.79 -238.883 3611
-1745.16 -238.883 3611
-1748.07 -240.471 3635
-1746.55 -241.463 3650
-1749.73 -243.117 3675
-1740.94 -243.117 3675
-1732.15 -243.117 3675
-1723.36 -243.117 3675
-1714.57 -243.117 3675
-1694.18 -241.463 3650
-1678.53 -240.471 3635
-1666.16 -239.941 3627
-1664.34 -240.934 3642
-1655.63 -240.934 3642
-1646.92 -240.934 3642
-1649.46 -242.588 3667
-1640.69 -242.588 3667
-1631.92 -242.588 3667
-1623.15 -242.588 3667
-1614.38 -242.588 3667
-1605.61 -242.588 3667
-1592.93 -241.992 3658
-1150.3 -191.583 2896
-1143.37 -191.583 2896
-1136.45 -191.583 2896
-1123.67 -190.59 2881
-1107.48 -189.003 2857
-1111.82 -190.921 2886
-1104.92 -190.921 2886
-1098.02 -190.921 2886
-1094.9 -191.583 2896
-1091.73 -192.244 2906
-1084.78 -192.244 2906
-1077.83 -192.244 2906
-1070.88 -192.244 2906
-1063.93 -192.244 2906
-1055.17 -191.913 2901
-1044.61 -191.252 2891
-1037.7 -191.252 2891
-1030.79 -191.252 2891
-1020.33 -190.59 2881
-1013.44 -190.59 2881
-1001.31 -189.598 2866
-994.461 -189.598 2866
-987.607 -189.598 2866
-980.754 -189.598 2866
-973.9 -189.598 2866
-967.047 -189.598 2866
-960.193 -189.598 2866
-953.34 -189.598 2866
-946.486 -189.598 2866
-939.633 -189.598 2866
-929.85 -189.003 2857
-921.403 -188.672 2852
-912.98 -188.341 2847
-906.172 -188.341 2847
-899.364 -188.341 2847
-892.555 -188.341 2847
-885.747 -188.341 2847
-878.939 -188.341 2847
-872.131 -188.341 2847
-865.323 -188.341 2847
-860.023 -188.672 2852
-853.203 -188.672 2852
-847.867 -189.003 2857
-841.035 -189.003 2857
-834.203 -189.003 2857
-827.371 -189.003 2857
-820.539 -189.003 2857
-813.707 -189.003 2857
-805.463 -188.672 2852
-798.643 -188.672 2852
-791.823 -188.672 2852
-785.003 -188.672 2852
-778.183 -188.672 2852
-771.363 -188.672 2852
-764.543 -188.672 2852
-757.723 -188.672 2852
-750.903 -188.672 2852
-744.083 -188.672 2852
-738.556 -189.003 2857
-731.724 -189.003 2857
-724.892 -189.003 2857
-716.803 -188.672 2852
-709.983 -188.672 2852
-701.93 -188.341 2847
-695.122 -188.341 2847
-688.314 -188.341 2847
-681.506 -188.341 2847
-674.698 -188.341 2847
-667.89 -188.341 2847
-662.243 -188.672 2852
-655.423 -188.672 2852
-648.603 -188.672 2852
-644.934 -189.598 2866
-639.193 -189.929 2871
-638.935 -191.913 2901
-631.998 -191.913 2901
-640.79 -196.743 2974
-633.678 -196.743 2974
-655.64 -205.872 3112
-648.199 -205.872 3112
-649.405 -208.65 3154
-654.073 -212.62 3214
-649.002 -213.48 3227
-641.285 -213.48 3227
-645.937 -217.647 3290
-645.828 -220.294 3330
-640.355 -221.154 3343
-632.361 -221.154 3343
-628.102 -222.477 3363
-620.06 -222.477 3363
-613.292 -222.94 3370
-605.233 -222.94 3370
-598.415 -223.403 3377
-591.563 -223.866 3384
-583.471 -223.866 3384
-575.379 -223.866 3384
-567.287 -223.866 3384
-559.194 -223.866 3384
-552.242 -224.329 3391
-544.133 -224.329 3391
-536.024 -224.329 3391
-523.556 -222.477 3363
-515.514 -222.477 3363
-507.473 -222.477 3363
-497.5 -221.617 3350
-489.489 -221.617 3350
-481.478 -221.617 3350
-471.63 -220.757 3337
-463.65 -220.757 3337
-455.67 -220.757 3337
-447.691 -220.757 3337
-439.711 -220.757 3337
-431.731 -220.757 3337
-422.862 -220.294 3330
-414.899 -220.294 3330
-406.936 -220.294 3330
-398.135 -219.83 3323
-389.484 -219.434 3317
-381.552 -219.434 3317
-373.62 -219.434 3317
-365.688 -219.434 3317
-356.246 -218.507 3303
-348.348 -218.507 3303
-340.449 -218.507 3303
-203.578 -133.764 2022
-199.234 -134.095 2027
-194.675 -134.293 2030
-189.82 -134.293 2030
-184.966 -134.293 2030
-180.733 -134.756 2037
-177.588 -136.079 2057
-173.76 -136.939 2070
-168.811 -136.939 2070
-165.048 -137.932 2085
-160.523 -138.328 2091
-156.043 -138.792 2098
-151.026 -138.792 2098
-146.427 -139.188 2104
-141.395 -139.188 2104
-136.494 -139.321 2106
-131.458 -139.321 2106
-126.602 -139.519 2109
-121.847 -139.85 2114
-116.957 -140.048 2117
-111.895 -140.048 2117
-107.085 -140.379 2122
-102.299 -140.776 2128
-97.3471 -140.975 2131
-92.2512 -140.975 2131
-87.2372 -141.107 2133
-82.252 -141.305 2136
-77.1442 -141.305 2136
-72.0364 -141.305 2136
-66.9286 -141.305 2136
-61.7339 -141.107 2133
-56.6333 -141.107 2133
-51.4843 -140.975 2131
-46.3884 -140.975 2131
-41.2344 -140.776 2128
-36.1457 -140.776 2128
-31.0571 -140.776 2128
-25.9318 -140.578 2125
-20.8502 -140.578 2125
-15.7465 -140.379 2122
-10.6721 -140.379 2122
-5.59776 -140.379 2122
-0.523416 -140.379 2122
4.55093 -140.379 2122
9.62527 -140.379 2122
14.6996 -140.379 2122
19.7553 -140.247 2120
24.8249 -140.247 2120
29.8945 -140.247 2120
34.964 -140.247 2120
40.0336 -140.247 2120
45.1031 -140.247 2120
50.1727 -140.247 2120
55.2423 -140.247 2120
60.3118 -140.247 2120
65.3814 -140.247 2120
70.451 -140.247 2120
75.5205 -140.247 2120
80.5901 -140.247 2120
85.7405 -140.379 2122
90.9432 -140.578 2125
96.0247 -140.578 2125
101.249 -140.776 2128
106.488 -140.975 2131
111.688 -141.107 2133
116.789 -141.107 2133
122.232 -141.504 2139
127.347 -141.504 2139
132.772 -141.835 2144
138.092 -142.033 2147
143.226 -142.033 2147
148.567 -142.232 2150
153.923 -142.43 2153
159.441 -142.761 2158
164.602 -142.761 2158
169.998 -142.959 2161
175.409 -143.158 2164
180.834 -143.356 2167
186.016 -143.356 2167
192.168 -144.084 2178
198.645 -145.01 2192
205.003 -145.804 2204
210.274 -145.804 2204
216.913 -146.73 2218
223.72 -147.722 2233
230.906 -148.913 2251
236.289 -148.913 2251
244.034 -150.369 2273
250.786 -151.162 2285
258.381 -152.419 2304
263.891 -152.419 2304
269.751 -152.618 2307
275.745 -152.882 2311
284.801 -154.801 2340
290.397 -154.801 2340
298.522 -156.124 2360
314.347 -161.35 2439
320.18 -161.35 2439
326.948 -161.813 2446
332.797 -161.813 2446
338.646 -161.813 2446
408.496 -188.672 2852
416.044 -189.003 2857
424.208 -189.598 2866
431.062 -189.598 2866
438.679 -189.929 2871
445.545 -189.929 2871
452.41 -189.929 2871
459.276 -189.929 2871
466.141 -189.929 2871
473.007 -189.929 2871
479.872 -189.929 2871
486.737 -189.929 2871
492.743 -189.598 2866
499.597 -189.598 2866
506.45 -189.598 2866
512.587 -189.333 2862
519.431 -189.333 2862
526.275 -189.333 2862
533.119 -189.333 2862
539.02 -189.003 2857
545.852 -189.003 2857
551.716 -188.672 2852
558.536 -188.672 2852
565.356 -188.672 2852
572.176 -188.672 2852
577.981 -188.341 2847
584.789 -188.341 2847
591.597 -188.341 2847
598.405 -188.341 2847
605.213 -188.341 2847
613.096 -188.672 2852
619.916 -188.672 2852
626.736 -188.672 2852
632.445 -188.341 2847
639.253 -188.341 2847
646.062 -188.341 2847
651.723 -188.01 2842
658.519 -188.01 2842
665.315 -188.01 2842
672.111 -188.01 2842
678.907 -188.01 2842
685.703 -188.01 2842
692.5 -188.01 2842
699.296 -188.01 2842
706.092 -188.01 2842
711.634 -187.68 2837
718.418 -187.68 2837
725.202 -187.68 2837
730.696 -187.349 2832
737.468 -187.349 2832
744.24 -187.349 2832
749.952 -187.084 2828
757.785 -187.349 2832
764.557 -187.349 2832
771.329 -187.349 2832
778.101 -187.349 2832
784.873 -187.349 2832
791.645 -187.349 2832
797.29 -187.084 2828
804.052 -187.084 2828
810.815 -187.084 2828
817.578 -187.084 2828
824.34 -187.084 2828
831.103 -187.084 2828
837.865 -187.084 2828
844.628 -187.084 2828
851.391 -187.084 2828
858.153 -187.084 2828
864.916 -187.084 2828
871.679 -187.084 2828
878.441 -187.084 2828
885.204 -187.084 2828
891.966 -187.084 2828
897.14 -186.753 2823
902.29 -186.423 2818
909.028 -186.423 2818
917.392 -186.753 2823
924.143 -186.753 2823
930.893 -186.753 2823
937.644 -186.753 2823
944.394 -186.753 2823
951.145 -186.753 2823
956.199 -186.423 2818
962.938 -186.423 2818
969.677 -186.423 2818
976.415 -186.423 2818
1322.71 -247.417 3740
1331.66 -247.417 3740
1340.6 -247.417 3740
1349.54 -247.417 3740
1358.49 -247.417 3740
1352.44 -244.704 3699
1358.34 -244.175 3691
1361.24 -243.117 3675
1370.03 -243.117 3675
1372.44 -241.992 3658
1378.16 -241.463 3650
1386.89 -241.463 3650
1395.62 -241.463 3650
1404.35 -241.463 3650
1409.98 -240.934 3642
1409.73 -239.412 3619
1418.38 -239.412 3619
1423.88 -238.883 3611
1429.34 -238.354 3603
1437.96 -238.354 3603
1440.55 -237.361 3588
1449.13 -237.361 3588
1454.46 -236.832 3580
1459.76 -236.303 3572
1465.42 -235.84 3565
1473.94 -235.84 3565
1482.47 -235.84 3565
1484.3 -234.781 3549
1474.28 -231.871 3505
1482.66 -231.871 3505
1457.44 -226.644 3426
1456.65 -225.255 3405
1441.13 -221.617 3350
1446.11 -221.154 3343
1454.11 -221.154 3343
1462.1 -221.154 3343
1470.09 -221.154 3343
1478.09 -221.154 3343
1486.08 -221.154 3343
1519.9 -216.854 3278
1527.74 -216.854 3278
1535.57 -216.854 3278
1543.41 -216.854 3278
1551.25 -216.854 3278
1559.09 -216.854 3278
1487.26 -177.426 2682
1510.94 -179.476 2713
1524.7 -180.336 2726
1531.22 -180.336 2726
1537.74 -180.336 2726
1554.45 -181.527 2744
1561.02 -181.527 2744
1567.58 -181.527 2744
1574.14 -181.527 2744
1572.64 -180.601 2730
1579.16 -180.601 2730
1583.37 -180.336 2726
1589.89 -180.336 2726
1593.48 -180.006 2721
1599.99 -180.006 2721
1604.13 -179.741 2717
1610.63 -179.741 2717
1617.13 -179.741 2717
1623.62 -179.741 2717
1630.12 -179.741 2717
1634.21 -179.476 2713
1635.25 -178.881 2704
1638.68 -178.55 2699
1645.14 -178.55 2699
1646.7 -178.021 2691
1647.6 -177.426 2682
1651.55 -177.161 2678
1657.95 -177.161 2678
1658.76 -176.566 2669
1665.14 -176.566 2669
1671.53 -176.566 2669
1677.91 -176.566 2669
1681.77 -176.301 2665
1688.14 -176.301 2665
1691.97 -176.036 2661
1692.59 -175.441 2652
1698.93 -175.441 2652
1700.13 -174.912 2644
1703.87 -174.647 2640
1706.94 -174.316 2635
1713.24 -174.316 2635
1716.94 -174.052 2631
1720.61 -173.787 2627
1724.26 -173.523 2623
1730.53 -173.523 2623
1734.16 -173.258 2619
1737.76 -172.993 2615
1744.01 -172.993 2615
1747.59 -172.729 2611
1753.83 -172.729 2611
1760.08 -172.729 2611
1763.61 -172.464 2607
1767.13 -172.199 2603
1773.36 -172.199 2603
1779.58 -172.199 2603
1783.06 -171.935 2599
1789.28 -171.935 2599
1803.78 -172.729 2611
1810.03 -172.729 2611
1816.27 -172.729 2611
1825.31 -172.993 2615
1831.56 -172.993 2615
1837.81 -172.993 2615
1844.07 -172.993 2615
1850.32 -172.993 2615
1850.89 -172.464 2607
1857.13 -172.464 2607
1863.36 -172.464 2607
1863.86 -171.935 2599
1866.48 -171.604 2594
1872.68 -171.604 2594
1875.98 -171.339 2590
1879.27 -171.075 2586
1885.45 -171.075 2586
1891.64 -171.075 2586
1889.02 -170.281 2574
1892.96 -170.083 2571
1896.16 -169.818 2567
1902.29 -169.818 2567
1908.43 -169.818 2567
1908.6 -169.289 2559
1908.74 -168.759 2551
1914.84 -168.759 2551
1920.94 -168.759 2551
1924.02 -168.495 2547
1933.14 -168.759 2551
1939.24 -168.759 2551
1945.34 -168.759 2551
1948.38 -168.495 2547
-2027.55 -172.659 2708
-2021.07 -172.659 2708
-2014.59 -172.659 2708
-2005.15 -172.404 2704
-1998.69 -172.404 2704
-2338.76 -210.595 3303
-2330.86 -210.595 3303
-2337.03 -211.87 3323
-2329.09 -211.87 3323
-2326.03 -212.317 3330
-2318.07 -212.317 3330
-2333 -214.421 3363
-2349.15 -216.652 3398
-2345.85 -217.098 3405
-2337.71 -217.098 3405
-2334.35 -217.545 3412
-2326.19 -217.545 3412
-2318.03 -217.545 3412
-2309.87 -217.545 3412
-2306.44 -217.991 3419
-2312.38 -219.33 3440
-2304.15 -219.33 3440
-2295.93 -219.33 3440
-2287.7 -219.33 3440
-2274.83 -218.884 3433
-2289.73 -221.115 3468
-2281.44 -221.115 3468
-2278.39 -221.625 3476
-2283.79 -222.964 3497
-2314.47 -226.79 3557
-2305.97 -226.79 3557
-2297.46 -226.79 3557
-2288.96 -226.79 3557
-2280.45 -226.79 3557
-2252.78 -224.877 3527
-2263.44 -226.79 3557
-2260 -227.3 3565
-2251.48 -227.3 3565
-2242.95 -227.3 3565
-2234.43 -227.3 3565
-2225.9 -227.3 3565
-2217.38 -227.3 3565
-2194.6 -225.833 3542
-1995.77 -212.763 3337
-1999.7 -214.038 3357
-2011.85 -216.206 3391
-2003.74 -216.206 3391
-2036.82 -220.669 3461
-2032.65 -221.115 3468
-2024.36 -221.115 3468
-2016.06 -221.115 3468
-2007.77 -221.115 3468
-1995.44 -220.669 3461
-1987.17 -220.669 3461
-1950.87 -217.545 3412
-1914.81 -214.421 3363
-1906.77 -214.421 3363
-2047.78 -231.253 3627
-2039.11 -231.253 3627
-2043.31 -232.719 3650
-2039.04 -233.229 3658
-2030.3 -233.229 3658
-2021.55 -233.229 3658
-2022.16 -234.313 3675
-2022.13 -235.333 3691
-2022.03 -236.354 3707
-2013.17 -236.354 3707
-2004.31 -236.354 3707
-1995.44 -236.354 3707
-1986.58 -236.354 3707
-1964.91 -234.823 3683
-1883.32 -230.233 3611
-1887.14 -231.763 3635
-1878.45 -231.763 3635
-1869.76 -231.763 3635
-1861.07 -231.763 3635
-1848.3 -231.253 3627
-1839.62 -231.253 3627
-1818.84 -229.723 3603
-1802.68 -228.766 3588
-1786.1 -227.746 3572
-1762.63 -225.833 3542
-1754.16 -225.833 3542
-1734.85 -224.431 3520
-1729.87 -224.877 3527
-1747.3 -228.256 3580
-1753.79 -230.233 3611
-1745.16 -230.233 3611
-1744.22 -231.253 3627
-1742.72 -232.209 3642
-1734.01 -232.209 3642
-1725.31 -232.209 3642
-1716.6 -232.209 3642
-1707.89 -232.209 3642
-1699.18 -232.209 3642
-1687.22 -231.763 3635
-1667.44 -230.233 3611
-1662.48 -230.743 3619
-1657.49 -231.253 3627
-1648.81 -231.253 3627
-1646.92 -232.209 3642
-1649.46 -233.803 3667
-1640.69 -233.803 3667
-1631.92 -233.803 3667
-1626.69 -234.313 3675
-1617.91 -234.313 3675
-1609.12 -234.313 3675
-1600.33 -234.313 3675
-1189.68 -187.578 2942
-1182.64 -187.578 2942
-1177.6 -187.897 2947
-1170.56 -187.897 2947
-1163.51 -187.897 2947
-1150.58 -186.941 2932
-1123.67 -183.689 2881
-1109.42 -182.477 2862
-1111.82 -184.008 2886
-1104.92 -184.008 2886
-1099.92 -184.326 2891
-1094.9 -184.645 2896
-1091.73 -185.283 2906
-1084.78 -185.283 2906
-1077.83 -185.283 2906
-1070.88 -185.283 2906
-1063.93 -185.283 2906
-1055.17 -184.964 2901
-1044.61 -184.326 2891
-1037.7 -184.326 2891
-1030.79 -184.326 2891
-1020.33 -183.689 2881
-1013.44 -183.689 2881
-1003.06 -183.051 2871
-996.196 -183.051 2871
-987.607 -182.732 2866
-980.754 -182.732 2866
-973.9 -182.732 2866
-970.421 -183.37 2876
-963.544 -183.37 2876
-956.666 -183.37 2876
-949.789 -183.37 2876
-942.911 -183.37 2876
-931.478 -182.477 2862
-923.018 -182.159 2857
-916.186 -182.159 2857
-909.354 -182.159 2857
-902.523 -182.159 2857
-894.123 -181.84 2852
-887.303 -181.84 2852
-880.483 -181.84 2852
-873.663 -181.84 2852
-866.843 -181.84 2852
-861.531 -182.159 2857
-856.195 -182.477 2862
-849.351 -182.477 2862
-842.507 -182.477 2862
-835.663 -182.477 2862
-828.819 -182.477 2862
-821.975 -182.477 2862
-815.131 -182.477 2862
-808.287 -182.477 2862
-800.043 -182.159 2857
-793.211 -182.159 2857
-786.379 -182.159 2857
-779.547 -182.159 2857
-772.715 -182.159 2857
-765.883 -182.159 2857
-759.052 -182.159 2857
-750.903 -181.84 2852
-745.388 -182.159 2857
-738.556 -182.159 2857
-731.724 -182.159 2857
-724.892 -182.159 2857
-718.06 -182.159 2857
-711.228 -182.159 2857
-703.163 -181.84 2852
-695.122 -181.521 2847
-688.314 -181.521 2847
-681.506 -181.521 2847
-674.698 -181.521 2847
-667.89 -181.521 2847
-661.082 -181.521 2847
-655.423 -181.84 2852
-648.603 -181.84 2852
-641.783 -181.84 2852
-638.08 -182.732 2866
-634.53 -183.689 2881
-627.641 -183.689 2881
-630.663 -186.622 2927
-633.678 -189.618 2974
-626.566 -189.618 2974
-619.455 -189.618 2974
-643.228 -199.182 3124
-654.073 -204.921 3214
-649.002 -205.749 3227
-641.285 -205.749 3227
-645.937 -209.766 3290
-648.349 -213.145 3343
-643.036 -214.038 3357
-635.009 -214.038 3357
-628.102 -214.421 3363
-621.35 -214.867 3370
-614.566 -215.313 3377
-606.49 -215.313 3377
-599.655 -215.759 3384
-591.563 -215.759 3384
-583.471 -215.759 3384
-575.379 -215.759 3384
-567.287 -215.759 3384
-560.351 -216.206 3391
-553.382 -216.652 3398
-545.257 -216.652 3398
-537.131 -216.652 3398
-527.916 -216.206 3391
-519.807 -216.206 3391
-507.473 -214.421 3363
-499.431 -214.421 3363
-490.512 -214.038 3357
-482.484 -214.038 3357
-473.467 -213.592 3350
-465.457 -213.592 3350
-457.446 -213.592 3350
-449.435 -213.592 3350
-441.424 -213.592 3350
-433.413 -213.592 3350
-425.402 -213.592 3350
-416.519 -213.145 3343
-408.525 -213.145 3343
-398.973 -212.317 3330
-391.01 -212.317 3330
-383.047 -212.317 3330
-375.084 -212.317 3330
-366.349 -211.87 3323
-357.756 -211.488 3317
-348.348 -210.595 3303
-340.449 -210.595 3303
-203.074 -128.601 2017
-198.546 -128.793 2020
-194.387 -129.239 2027
-189.54 -129.239 2027
-184.692 -129.239 2027
-180.289 -129.558 2032
-177.588 -131.152 2057
-174.18 -132.299 2075
-169.218 -132.299 2075
-165.048 -132.937 2085
-160.523 -133.319 2091
-156.266 -133.957 2101
-151.242 -133.957 2101
-146.566 -134.276 2106
-141.53 -134.276 2106
-136.688 -134.467 2109
-131.645 -134.467 2109
-126.782 -134.658 2112
-122.02 -134.977 2117
-117.123 -135.168 2120
-112.053 -135.168 2120
-107.236 -135.487 2125
-102.443 -135.87 2131
-97.4385 -135.997 2133
-92.3378 -135.997 2133
-87.2372 -135.997 2133
-82.252 -136.189 2136
-77.1442 -136.189 2136
-72.0364 -136.189 2136
-66.9286 -136.189 2136
-61.7339 -135.997 2133
-56.6333 -135.997 2133
-51.4843 -135.87 2131
-46.3231 -135.679 2128
-41.2344 -135.679 2128
-36.1457 -135.679 2128
-31.0133 -135.487 2125
-25.9318 -135.487 2125
-20.8208 -135.296 2122
-15.7316 -135.168 2120
-10.662 -135.168 2120
-5.59248 -135.168 2120
-0.522922 -135.168 2120
4.54664 -135.168 2120
9.6162 -135.168 2120
14.6858 -135.168 2120
19.7553 -135.168 2120
24.8249 -135.168 2120
29.8945 -135.168 2120
34.964 -135.168 2120
40.0336 -135.168 2120
45.1031 -135.168 2120
50.1727 -135.168 2120
55.2423 -135.168 2120
60.3118 -135.168 2120
65.3814 -135.168 2120
70.451 -135.168 2120
75.5205 -135.168 2120
80.5901 -135.168 2120
85.7405 -135.296 2122
90.9432 -135.487 2125
96.0247 -135.487 2125
101.249 -135.679 2128
106.488 -135.87 2131
111.583 -135.87 2131
116.679 -135.87 2131
122.232 -136.38 2139
127.347 -136.38 2139
132.772 -136.699 2144
137.899 -136.699 2144
143.026 -136.699 2144
148.567 -137.081 2150
153.923 -137.273 2153
159.441 -137.591 2158
164.602 -137.591 2158
169.762 -137.591 2158
175.409 -137.974 2164
180.834 -138.165 2167
186.016 -138.165 2167
192.168 -138.866 2178
198.102 -139.377 2186
204.724 -140.333 2201
209.987 -140.333 2201
216.62 -141.226 2215
223.72 -142.373 2233
230.906 -143.521 2251
236.289 -143.521 2251
244.034 -144.924 2273
250.786 -145.689 2285
258.381 -146.9 2304
263.891 -146.9 2304
269.751 -147.091 2307
275.745 -147.346 2311
284.436 -149.004 2337
290.024 -149.004 2337
298.522 -150.471 2360
310.739 -153.722 2411
316.504 -153.722 2411
326.948 -155.954 2446
332.797 -155.954 2446
338.646 -155.954 2446
408.496 -181.84 2852
416.044 -182.159 2857
424.208 -182.732 2866
431.062 -182.732 2866
439.443 -183.37 2876
446.321 -183.37 2876
453.198 -183.37 2876
460.076 -183.37 2876
466.141 -183.051 2871
473.007 -183.051 2871
479.872 -183.051 2871
486.737 -183.051 2871
493.603 -183.051 2871
500.468 -183.051 2871
507.334 -183.051 2871
513.304 -182.732 2866
520.157 -182.732 2866
527.011 -182.732 2866
533.864 -182.732 2866
539.963 -182.477 2862
546.807 -182.477 2862
552.683 -182.159 2857
559.515 -182.159 2857
566.347 -182.159 2857
573.179 -182.159 2857
580.011 -182.159 2857
586.843 -182.159 2857
592.636 -181.84 2852
599.456 -181.84 2852
606.276 -181.84 2852
614.171 -182.159 2857
621.003 -182.159 2857
627.835 -182.159 2857
633.556 -181.84 2852
640.376 -181.84 2852
647.196 -181.84 2852
654.016 -181.84 2852
660.836 -181.84 2852
666.486 -181.521 2847
673.294 -181.521 2847
680.102 -181.521 2847
686.91 -181.521 2847
693.718 -181.521 2847
700.526 -181.521 2847
707.334 -181.521 2847
714.142 -181.521 2847
719.684 -181.202 2842
726.48 -181.202 2842
733.276 -181.202 2842
738.77 -180.883 2837
745.554 -180.883 2837
752.338 -180.883 2837
759.122 -180.883 2837
765.907 -180.883 2837
772.691 -180.883 2837
779.475 -180.883 2837
786.259 -180.883 2837
793.043 -180.883 2837
798.418 -180.565 2832
805.19 -180.565 2832
811.962 -180.565 2832
818.734 -180.565 2832
825.506 -180.565 2832
832.278 -180.565 2832
839.051 -180.565 2832
845.823 -180.565 2832
852.595 -180.565 2832
860.884 -180.883 2837
867.668 -180.883 2837
874.453 -180.883 2837
878.441 -180.31 2828
885.204 -180.31 2828
891.966 -180.31 2828
897.14 -179.991 2823
902.29 -179.672 2818
909.028 -179.672 2818
917.392 -179.991 2823
924.143 -179.991 2823
930.893 -179.991 2823
939.305 -180.31 2828
946.067 -180.31 2828
952.83 -180.31 2828
959.592 -180.31 2828
966.355 -180.31 2828
973.118 -180.31 2828
979.88 -180.31 2828
1322.71 -238.458 3740
1331.66 -238.458 3740
1340.6 -238.458 3740
1349.54 -238.458 3740
1358.49 -238.458 3740
1358.65 -236.927 3716
1361.28 -235.843 3699
1364.2 -234.823 3683
1373.01 -234.823 3683
1375.81 -233.803 3667
1381.18 -233.229 3658
1389.93 -233.229 3658
1398.68 -233.229 3658
1407.43 -233.229 3658
1413.08 -232.719 3650
1415.96 -231.763 3635
1424.65 -231.763 3635
1427.04 -230.743 3619
1432.52 -230.233 3611
1437.96 -229.723 3603
1440.55 -228.766 3588
1449.13 -228.766 3588
1454.46 -228.256 3580
1456.89 -227.3 3565
1462.13 -226.79 3557
1470.64 -226.79 3557
1475.82 -226.28 3549
1478.03 -225.323 3534
1470.92 -222.964 3497
1479.28 -222.964 3497
1451.48 -217.545 3412
1444.67 -215.313 3377
1446.72 -214.421 3363
1452.17 -214.038 3357
1460.2 -214.038 3357
1465.16 -213.592 3350
1473.17 -213.592 3350
1478.09 -213.145 3343
1486.08 -213.145 3343
1485.14 -211.87 3323
1506.06 -208.172 3265
1519.9 -209.001 3278
1527.74 -209.001 3278
1535.57 -209.001 3278
1558.48 -211.041 3310
1627.92 -219.33 3440
1636.14 -219.33 3440
1657.75 -221.115 3468
1666.05 -221.115 3468
1674.34 -221.115 3468
1682.63 -221.115 3468
1494.47 -171.83 2695
1518.18 -173.806 2726
1529.74 -174.38 2735
1536.28 -174.38 2735
1547.89 -174.954 2744
1554.45 -174.954 2744
1561.02 -174.954 2744
1567.58 -174.954 2744
1574.14 -174.954 2744
1572.64 -174.061 2730
1579.16 -174.061 2730
1585.69 -174.061 2730
1592.22 -174.061 2730
1598.75 -174.061 2730
1605.28 -174.061 2730
1604.13 -173.232 2717
1610.63 -173.232 2717
1617.13 -173.232 2717
1623.62 -173.232 2717
1630.12 -173.232 2717
1634.21 -172.977 2713
1635.25 -172.404 2704
1638.68 -172.085 2699
1645.14 -172.085 2699
1649.14 -171.83 2695
1653.13 -171.575 2691
1651.55 -170.746 2678
1657.95 -170.746 2678
1664.36 -170.746 2678
1665.14 -170.172 2669
1671.53 -170.172 2669
1677.91 -170.172 2669
1684.29 -170.172 2669
1690.67 -170.172 2669
1691.97 -169.662 2661
1695.14 -169.343 2656
1701.49 -169.343 2656
1702.7 -168.833 2648
1706.45 -168.578 2644
1710.18 -168.323 2640
1716.5 -168.323 2640
1719.55 -168.004 2635
1723.23 -167.749 2631
1726.89 -167.494 2627
1733.17 -167.494 2627
1736.8 -167.239 2623
1740.42 -166.984 2619
1746.68 -166.984 2619
1752.94 -166.984 2619
1759.21 -166.984 2619
1762.77 -166.729 2615
1766.32 -166.474 2611
1769.85 -166.219 2607
1776.08 -166.219 2607
1782.32 -166.219 2607
1785.81 -165.964 2603
1792.03 -165.964 2603
1803.78 -166.474 2611
1810.03 -166.474 2611
1816.27 -166.474 2611
1825.31 -166.729 2615
1831.56 -166.729 2615
1837.81 -166.729 2615
1844.07 -166.729 2615
1850.32 -166.729 2615
1853.73 -166.474 2611
1859.98 -166.474 2611
1863.36 -166.219 2607
1866.73 -165.964 2603
1870.07 -165.709 2599
1876.29 -165.709 2599
1878.88 -165.39 2594
1882.18 -165.135 2590
1885.45 -164.88 2586
1891.64 -164.88 2586
1891.95 -164.37 2578
1895.17 -164.115 2574
1899.11 -163.924 2571
1905.26 -163.924 2571
1908.43 -163.669 2567
1908.6 -163.159 2559
1911.73 -162.904 2555
1917.84 -162.904 2555
1923.95 -162.904 2555
1927.04 -162.648 2551
1933.14 -162.648 2551
1939.24 -162.648 2551
1945.34 -162.648 2551
1951.44 -162.648 2551
-2027.55 -166.172 2708
-2021.07 -166.172 2708
-2018.31 -166.478 2713
-2011.83 -166.478 2713
-2005.34 -166.478 2713
-1998.85 -166.478 2713
-1992.36 -166.478 2713
-1966.11 -164.822 2686
-1956.77 -164.576 2682
-1940.9 -163.778 2669
-1934.52 -163.778 2669
-1925.25 -163.533 2665
-2338.76 -202.683 3303
-2330.86 -202.683 3303
-2337.03 -203.91 3323
-2329.09 -203.91 3323
-2335.11 -205.137 3343
-2327.12 -205.137 3343
-2333 -206.364 3363
-2349.15 -208.512 3398
-2345.85 -208.942 3405
-2337.71 -208.942 3405
-2334.35 -209.371 3412
-2326.19 -209.371 3412
-2322.79 -209.801 3419
-2314.61 -209.801 3419
-2311.16 -210.23 3426
-2321.79 -211.949 3454
-2313.53 -211.949 3454
-2305.27 -211.949 3454
-2297.01 -211.949 3454
-2279.47 -211.089 3440
-2289.73 -212.808 3468
-2281.44 -212.808 3468
-2278.39 -213.298 3476
-2283.79 -214.587 3497
-2314.47 -218.269 3557
-2305.97 -218.269 3557
-2297.46 -218.269 3557
-2288.96 -218.269 3557
-2280.45 -218.269 3557
-2252.78 -216.428 3527
-2263.44 -218.269 3557
-2260 -218.76 3565
-2251.48 -218.76 3565
-2242.95 -218.76 3565
-2234.43 -218.76 3565
-2225.9 -218.76 3565
-2217.38 -218.76 3565
-2194.6 -217.348 3542
-2172.55 -215.998 3520
-2007.73 -205.996 3357
-2003.28 -206.364 3363
-2011.85 -208.083 3391
-2003.74 -208.083 3391
-2036.82 -212.378 3461
-2041.44 -213.728 3483
-2033.11 -213.728 3483
-2024.78 -213.728 3483
-2016.46 -213.728 3483
-1999.48 -212.808 3468
-1991.18 -212.808 3468
-1978.89 -212.378 3461
-1914.81 -206.364 3363
-1906.77 -206.364 3363
-2052.3 -223.055 3635
-2043.61 -223.055 3635
-2043.31 -223.976 3650
-2039.04 -224.467 3658
-2030.3 -224.467 3658
-2021.55 -224.467 3658
-2022.16 -225.51 3675
-2022.13 -226.492 3691
-2022.03 -227.473 3707
-2013.17 -227.473 3707
-2004.31 -227.473 3707
-1995.44 -227.473 3707
-1986.58 -227.473 3707
-1964.91 -226.001 3683
-1930.61 -223.055 3635
-1900.59 -221.583 3611
-1891.95 -221.583 3611
-1887.49 -222.073 3619
-1890.78 -223.485 3642
-1882.07 -223.485 3642
-1873.36 -223.485 3642
-1864.65 -223.485 3642
-1848.3 -222.564 3627
-1839.62 -222.564 3627
-1826.91 -222.073 3619
-1810.22 -221.092 3603
-1790.1 -219.68 3580
-1781.54 -219.68 3580
-1761.59 -218.269 3557
-1745.69 -217.348 3542
-1740.66 -217.778 3549
-1751.2 -220.171 3588
-1753.79 -221.583 3611
-1745.16 -221.583 3611
-1744.22 -222.564 3627
-1742.72 -223.485 3642
-1734.01 -223.485 3642
-1725.31 -223.485 3642
-1716.6 -223.485 3642
-1707.89 -223.485 3642
-1699.18 -223.485 3642
-1687.22 -223.055 3635
-1671.14 -222.073 3619
-1662.48 -222.073 3619
-1657.49 -222.564 3627
-1648.81 -222.564 3627
-1646.92 -223.485 3642
-1649.46 -225.019 3667
-1644.27 -225.51 3675
-1635.48 -225.51 3675
-1626.69 -225.51 3675
-1617.91 -225.51 3675
-1609.12 -225.51 3675
-1600.33 -225.51 3675
-1189.68 -180.531 2942
-1182.64 -180.531 2942
-1177.6 -180.837 2947
-1170.56 -180.837 2947
-1163.51 -180.837 2947
-1150.58 -179.917 2932
-1129.52 -177.708 2896
-1110.97 -175.867 2866
-1111.82 -177.094 2886
-1104.92 -177.094 2886
-1101.82 -177.708 2896
-1094.9 -177.708 2896
-1091.73 -178.321 2906
-1084.78 -178.321 2906
-1077.83 -178.321 2906
-1070.88 -178.321 2906
-1063.93 -178.321 2906
-1055.17 -178.015 2901
-1044.61 -177.401 2891
-1037.7 -177.401 2891
-1030.79 -177.401 2891
-1020.33 -176.787 2881
-1013.44 -176.787 2881
-1003.06 -176.174 2871
-996.196 -176.174 2871
-989.33 -176.174 2871
-982.465 -176.174 2871
-975.599 -176.174 2871
-970.421 -176.481 2876
-963.544 -176.481 2876
-956.666 -176.481 2876
-949.789 -176.481 2876
-942.911 -176.481 2876
-932.779 -175.867 2866
-924.634 -175.621 2862
-917.79 -175.621 2862
-910.946 -175.621 2862
-904.102 -175.621 2862
-897.258 -175.621 2862
-888.859 -175.315 2857
-883.57 -175.621 2862
-876.726 -175.621 2862
-869.882 -175.621 2862
-863.039 -175.621 2862
-857.391 -175.867 2866
-850.538 -175.867 2866
-843.684 -175.867 2866
-836.831 -175.867 2866
-829.977 -175.867 2866
-823.124 -175.867 2866
-816.27 -175.867 2866
-808.287 -175.621 2862
-801.443 -175.621 2862
-794.599 -175.621 2862
-787.756 -175.621 2862
-780.912 -175.621 2862
-774.068 -175.621 2862
-767.224 -175.621 2862
-760.38 -175.621 2862
-750.903 -175.008 2852
-746.692 -175.621 2862
-739.848 -175.621 2862
-733.004 -175.621 2862
-726.16 -175.621 2862
-719.316 -175.621 2862
-712.473 -175.621 2862
-704.396 -175.315 2857
-696.343 -175.008 2852
-688.314 -174.701 2847
-681.506 -174.701 2847
-674.698 -174.701 2847
-667.89 -174.701 2847
-661.082 -174.701 2847
-655.423 -175.008 2852
-648.603 -175.008 2852
-641.783 -175.008 2852
-638.08 -175.867 2866
-634.53 -176.787 2881
-627.641 -176.787 2881
-630.663 -179.61 2927
-633.678 -182.494 2974
-628.673 -183.108 2984
-621.537 -183.108 2984
-643.228 -191.699 3124
-654.073 -197.221 3214
-649.002 -198.019 3227
-641.285 -198.019 3227
-645.937 -201.885 3290
-649.706 -205.567 3350
-644.186 -206.364 3363
-636.144 -206.364 3363
-629.409 -206.794 3370
-622.641 -207.224 3377
-614.566 -207.224 3377
-606.49 -207.224 3377
-599.655 -207.653 3384
-591.563 -207.653 3384
-583.471 -207.653 3384
-575.379 -207.653 3384
-567.287 -207.653 3384
-560.351 -208.083 3391
-553.382 -208.512 3398
-545.257 -208.512 3398
-537.131 -208.512 3398
-527.916 -208.083 3391
-519.807 -208.083 3391
-507.473 -206.364 3363
-499.431 -206.364 3363
-490.512 -205.996 3357
-482.484 -205.996 3357
-474.457 -205.996 3357
-466.429 -205.996 3357
-458.401 -205.996 3357
-450.374 -205.996 3357
-442.346 -205.996 3357
-434.319 -205.996 3357
-427.053 -206.364 3363
-419.011 -206.364 3363
-410.969 -206.364 3363
-401.37 -205.567 3350
-392.537 -205.137 3343
-384.543 -205.137 3343
-376.549 -205.137 3343
-367.893 -204.769 3337
-358.403 -203.91 3323
-349.824 -203.542 3317
-341.892 -203.542 3317
-203.074 -123.77 2017
-198.546 -123.954 2020
-194.387 -124.383 2027
-189.54 -124.383 2027
-184.692 -124.383 2027
-180.289 -124.69 2032
-177.588 -126.224 2057
-174.18 -127.329 2075
-169.218 -127.329 2075
-165.285 -128.126 2088
-160.523 -128.31 2091
-156.489 -129.108 2104
-151.458 -129.108 2104
-146.566 -129.231 2106
-141.53 -129.231 2106
-136.688 -129.415 2109
-131.645 -129.415 2109
-126.782 -129.599 2112
-122.02 -129.906 2117
-117.123 -130.09 2120
-112.053 -130.09 2120
-107.236 -130.397 2125
-102.443 -130.765 2131
-97.4385 -130.888 2133
-92.3378 -130.888 2133
-87.2372 -130.888 2133
-82.252 -131.072 2136
-77.1442 -131.072 2136
-72.0364 -131.072 2136
-66.9286 -131.072 2136
-61.7339 -130.888 2133
-56.6333 -130.888 2133
-51.4843 -130.765 2131
-46.3231 -130.581 2128
