ply
format ascii 1.0
comment File generated
element vertex 2258
property float x
property float y
property float z
end_header
1413.62 1029.93 3323
1413.01 1023.73 3303
1410.16 1015.99 3278
1409.34 1009.79 3258
1417.13 1009.79 3258
1424.92 1009.79 3258
1438.43 1013.82 3271
1446.25 1013.82 3271
1454.08 1013.82 3271
1461.9 1013.82 3271
1458.49 1006.07 3246
1463.09 1003.9 3239
1470.83 1003.9 3239
1473.1 1000.18 3227
1478.06 998.319 3221
1485.77 998.319 3221
1493.47 998.319 3221
1497.91 996.149 3214
1502.78 994.29 3208
1513.28 996.149 3214
1520.97 996.149 3214
1528.65 996.149 3214
1536.34 996.149 3214
1541.14 994.29 3208
1545.91 992.43 3202
1553.57 992.43 3202
1561.23 992.43 3202
1565.95 990.57 3196
1570.63 988.711 3190
1578.26 988.711 3190
1582.91 986.851 3184
1596.52 990.57 3196
1622.73 1002.04 3233
1630.46 1002.04 3233
1638.19 1002.04 3233
1645.92 1002.04 3233
1653.65 1002.04 3233
1661.39 1002.04 3233
1662.92 998.319 3221
1670.62 998.319 3221
1678.33 998.319 3221
1676.08 992.43 3202
1683.74 992.43 3202
1681.89 986.851 3184
1686.32 984.991 3178
1674.73 973.834 3142
1682.24 973.834 3142
1667.71 961.126 3101
1665.94 955.857 3084
1664.09 950.588 3067
1664.88 946.869 3055
1672.19 946.869 3055
1670.7 941.91 3039
1674.65 940.05 3033
1691.33 945.319 3050
1698.63 945.319 3050
1705.92 945.319 3050
1716.02 946.869 3055
1723.33 946.869 3055
1730.63 946.869 3055
1737.94 946.869 3055
1723.54 935.091 3017
1844.01 971.974 3136
1851.51 971.974 3136
1869.68 977.553 3154
1877.22 977.553 3154
1884.76 977.553 3154
1885.11 973.834 3142
1892.62 973.834 3142
1900.13 973.834 3142
1907.65 973.834 3142
1907.85 970.114 3130
1915.33 970.114 3130
1926.5 971.974 3136
1934 971.974 3136
1941.5 971.974 3136
1949 971.974 3136
1938.41 962.986 3107
1945.84 962.986 3107
1949.49 961.126 3101
1953.12 959.266 3095
1932.02 945.319 3050
1904.34 928.272 2995
1911.5 928.272 2995
1878.31 908.746 2932
1983.4 889.84 2871
1990.27 889.84 2871
2054.17 915.255 2953
2087.06 926.723 2990
2094.21 926.723 2990
2155.48 950.588 3067
2166.34 952.138 3072
2177.93 953.997 3078
2185.29 953.997 3078
2209.03 961.126 3101
2216.45 961.126 3101
2223.86 961.126 3101
2214.73 953.997 3078
2222.09 953.997 3078
2196.86 940.05 3033
2184.49 931.682 3006
2191.68 931.682 3006
2187.16 926.723 2990
2194.31 926.723 2990
2193.36 923.313 2979
2200.49 923.313 2979
2176.49 910.296 2937
2168.64 904.097 2917
2186.8 908.746 2932
2201.3 911.845 2942
2244.36 926.723 2990
2251.51 926.723 2990
2258.66 926.723 2990
2233.23 913.395 2947
2240.27 913.395 2947
-1831.14 933.885 2990
-1847.17 945.754 3028
-1839.93 945.754 3028
-1832.69 945.754 3028
-1825.45 945.754 3028
-1818.2 945.754 3028
-1807.37 943.88 3022
-1787.04 937.009 3000
-1760.88 927.014 2968
-1753.79 927.014 2968
-1731.39 918.893 2942
-1748.97 932.011 2984
-1803.13 964.806 3089
-1806.2 970.429 3107
-1798.77 970.429 3107
-1804.6 977.612 3130
-1797.12 977.612 3130
-1803.36 985.108 3154
-1795.81 985.108 3154
-1788.27 985.108 3154
-1780.73 985.108 3154
-1824.91 1013.84 3246
-1817.15 1013.84 3246
-1816.08 1017.59 3258
-1808.28 1017.59 3258
-1800.49 1017.59 3258
-1792.7 1017.59 3258
-1784.91 1017.59 3258
-1766.76 1011.66 3239
-1773.13 1019.78 3265
-1765.32 1019.78 3265
-1777.97 1031.65 3303
-1795.26 1046.33 3350
-1787.25 1046.33 3350
-1779.24 1046.33 3350
-1760.65 1040.08 3330
-1219.25 970.429 3107
-1232.49 986.982 3160
-1224.94 986.982 3160
-1217.38 986.982 3160
-1209.82 986.982 3160
-1193.13 979.486 3136
-1185.64 979.486 3136
-1173.63 975.738 3124
-1170.64 979.486 3136
-1165.36 981.36 3142
-1157.85 981.36 3142
-1150.34 981.36 3142
-1131.91 971.99 3112
-1128.81 975.738 3124
-1123.49 977.612 3130
-1116 977.612 3130
-1108.52 977.612 3130
-1098.92 975.738 3124
-1091.45 975.738 3124
-1079.82 971.99 3112
-1070.65 970.429 3107
-1059.12 966.68 3095
-1051.72 966.68 3095
-1048.37 970.429 3107
-1040.94 970.429 3107
-1035.17 971.99 3112
-1027.73 971.99 3112
-1020.29 971.99 3112
-1009.26 968.555 3101
-997.971 964.806 3089
-987.057 961.371 3078
-979.697 961.371 3078
-972.336 961.371 3078
-966.857 963.245 3084
-959.482 963.245 3084
-952.107 963.245 3084
-941.056 959.497 3072
-932.191 957.935 3067
-936.919 970.429 3107
-929.489 970.429 3107
-922.059 970.429 3107
-914.629 970.429 3107
-908.659 971.99 3112
-906.43 977.612 3130
-898.945 977.612 3130
-891.461 977.612 3130
-883.976 977.612 3130
-876.491 977.612 3130
-865.675 973.864 3118
-855.191 970.429 3107
-842.85 964.806 3089
-835.463 964.806 3089
-828.076 964.806 3089
-820.69 964.806 3089
-813.303 964.806 3089
-805.916 964.806 3089
-798.529 964.806 3089
-782.435 954.187 3055
-775.129 954.187 3055
-767.824 954.187 3055
-756.535 949.19 3039
-746.556 945.754 3028
-735.164 940.444 3011
-726.755 938.883 3006
-719.567 938.883 3006
-712.379 938.883 3006
-705.191 938.883 3006
-695.448 935.447 2995
-688.286 935.447 2995
-673.847 925.452 2963
-666.761 925.452 2963
-664.351 932.011 2984
-659.638 935.447 2995
-652.476 935.447 2995
-646.392 937.009 3000
-639.218 937.009 3000
-632.044 937.009 3000
-624.87 937.009 3000
-615.637 933.885 2990
-608.487 933.885 2990
-601.337 933.885 2990
-592.995 932.011 2984
-585.859 932.011 2984
-573.681 923.89 2958
-566.608 923.89 2958
-558.588 922.329 2953
-551.527 922.329 2953
-541.515 917.331 2937
-534.492 917.331 2937
-529.265 920.455 2947
-522.218 920.455 2947
-515.17 920.455 2947
-508.123 920.455 2947
-501.076 920.455 2947
-494.029 920.455 2947
-488.799 923.89 2958
-482.54 925.452 2963
-475.455 925.452 2963
-468.369 925.452 2963
-468.757 940.444 3011
-464.162 945.754 3028
-460.241 952.625 3050
-452.948 952.625 3050
-448.869 959.497 3072
-443.247 963.245 3084
-435.873 963.245 3084
-428.498 963.245 3084
-421.123 963.245 3084
-412.138 959.497 3072
-404.792 959.497 3072
-397.446 959.497 3072
-390.862 961.371 3078
-383.502 961.371 3078
-376.141 961.371 3078
-368.062 959.497 3072
-361.42 961.371 3078
-354.06 961.371 3078
-346.699 961.371 3078
-338.678 959.497 3072
-331.979 961.371 3078
-324.618 961.371 3078
-318.392 964.806 3089
-311.005 964.806 3089
-303.618 964.806 3089
-296.807 966.68 3095
-289.406 966.68 3095
-282.005 966.68 3095
-274.071 964.806 3089
-266.684 964.806 3089
-259.801 966.68 3095
-252.4 966.68 3095
-244.999 966.68 3095
-237.137 964.806 3089
-231.908 973.864 3118
-226.179 981.36 3142
-218.666 981.36 3142
-212.765 988.856 3166
-207.139 998.226 3196
-199.496 998.226 3196
-191.853 998.226 3196
-83.3303 675.896 2164
-78.3361 677.457 2169
-73.1493 677.457 2169
-68.0566 678.394 2172
-62.8627 678.394 2172
-57.6688 678.394 2172
-52.4749 678.394 2172
-47.2156 677.457 2169
-41.932 675.896 2164
-36.7572 675.896 2164
-31.5387 674.958 2161
-26.3345 674.021 2158
-21.174 674.021 2158
-16.0136 674.021 2158
-10.8532 674.021 2158
-5.68481 673.084 2155
-0.531556 673.084 2155
4.6217 673.084 2155
9.77496 673.084 2155
14.9282 673.084 2155
20.0349 671.523 2150
25.1411 670.586 2147
30.2752 670.586 2147
35.3598 669.649 2144
40.5434 670.586 2147
45.6776 670.586 2147
50.9537 672.46 2153
56.1022 672.46 2153
61.4782 674.958 2161
66.8926 677.457 2169
72.179 678.394 2172
77.3729 678.394 2172
82.7949 680.268 2178
88.4476 683.704 2189
93.8106 684.641 2192
99.0523 684.641 2192
104.58 686.515 2198
110.285 689.326 2207
115.877 691.2 2213
121.169 691.2 2213
126.461 691.2 2213
132.408 694.636 2224
137.726 694.636 2224
143.044 694.636 2224
148.363 694.636 2224
153.681 694.636 2224
158.999 694.636 2224
163.652 691.825 2215
168.949 691.825 2215
174.089 691.2 2213
179.381 691.2 2213
184.673 691.2 2213
189.707 690.263 2210
194.462 688.389 2204
199.733 688.389 2204
205.282 689.326 2207
210.56 689.326 2207
216.131 690.263 2210
221.416 690.263 2210
227.213 691.825 2215
232.51 691.825 2215
237.807 691.825 2215
242.225 689.326 2207
247.503 689.326 2207
481.004 983.234 3148
488.532 983.234 3148
496.06 983.234 3148
503.588 983.234 3148
511.115 983.234 3148
518.643 983.234 3148
526.171 983.234 3148
531.664 979.486 3136
541.227 983.234 3148
548.755 983.234 3148
556.282 983.234 3148
563.81 983.234 3148
569.16 979.486 3136
576.659 979.486 3136
581.923 975.738 3124
589.393 975.738 3124
595.718 973.864 3118
603.174 973.864 3118
616.505 983.234 3148
624.033 983.234 3148
632.764 985.108 3154
640.306 985.108 3154
647.849 985.108 3154
654.144 983.234 3148
660.411 981.36 3142
666.649 979.486 3136
674.148 979.486 3136
675.344 970.429 3107
682.773 970.429 3107
682.428 959.497 3072
689.774 959.497 3072
689.632 949.19 3039
693 943.88 3022
697.678 940.444 3011
704.878 940.444 3011
712.078 940.444 3011
718.084 938.883 3006
714.898 925.452 2963
737.821 945.754 3028
755.889 959.497 3072
763.235 959.497 3072
770.581 959.497 3072
776.661 957.935 3067
783.995 957.935 3067
791.329 957.935 3067
799.965 959.497 3072
807.311 959.497 3072
819.166 964.806 3089
826.552 964.806 3089
833.939 964.806 3089
844.594 968.555 3101
853.658 970.429 3107
861.088 970.429 3107
886.688 990.73 3172
897.656 994.478 3184
905.27 994.478 3184
912.884 994.478 3184
920.498 994.478 3184
926.363 992.604 3178
933.962 992.604 3178
941.562 992.604 3178
950.953 994.478 3184
958.567 994.478 3184
966.181 994.478 3184
975.63 996.352 3190
983.258 996.352 3190
996.478 1001.97 3208
1011.97 1009.78 3233
1019.71 1009.78 3233
1027.44 1009.78 3233
1035.17 1009.78 3233
1040.96 1007.91 3227
1048.68 1007.91 3227
1052.14 1003.85 3214
1059.83 1003.85 3214
1061.53 998.226 3196
1069.18 998.226 3196
1066.71 988.856 3166
1070.21 985.108 3154
1075.7 983.234 3148
1085.29 985.108 3154
1092.84 985.108 3154
1100.38 985.108 3154
1107.92 985.108 3154
1115.46 985.108 3154
1123.01 985.108 3154
1130.55 985.108 3154
1140.25 986.982 3160
1147.81 986.982 3160
1155.37 986.982 3160
1162.92 986.982 3160
1174.93 990.73 3172
1186.98 994.478 3184
1210.73 1007.91 3227
1218.45 1007.91 3227
1250.1 1027.59 3290
1262.94 1031.65 3303
1270.84 1031.65 3303
1278.74 1031.65 3303
1297.15 1040.08 3330
1323.54 1054.76 3377
1353.69 1072.25 3433
1361.9 1072.25 3433
1370.11 1072.25 3433
1378.32 1072.25 3433
1392.19 1076.62 3447
1400.43 1076.62 3447
1408.67 1076.62 3447
1416.92 1076.62 3447
1425.16 1076.62 3447
1421.76 1067.88 3419
1409.44 1052.57 3370
1397.73 1037.89 3323
1405.68 1037.89 3323
1405.11 1031.65 3303
1402.32 1023.84 3278
1401.55 1017.59 3258
1404.15 1013.84 3246
1417.13 1017.59 3258
1424.92 1017.59 3258
1435.79 1019.78 3265
1443.6 1019.78 3265
1451.41 1019.78 3265
1456.09 1017.59 3258
1455.34 1011.66 3239
1454.96 1006.03 3221
1462.66 1006.03 3221
1470.36 1006.03 3221
1478.06 1006.03 3221
1479.77 1001.97 3208
1487.44 1001.97 3208
1492.32 1000.1 3202
1499.97 1000.1 3202
1510.45 1001.97 3208
1518.13 1001.97 3208
1525.8 1001.97 3208
1533.47 1001.97 3208
1538.26 1000.1 3202
1545.91 1000.1 3202
1553.57 1000.1 3202
1561.23 1000.1 3202
1563.01 996.352 3190
1570.63 996.352 3190
1578.26 996.352 3190
1582.91 994.478 3184
1596.52 998.226 3196
1622.73 1009.78 3233
1630.46 1009.78 3233
1638.19 1009.78 3233
1645.92 1009.78 3233
1653.65 1009.78 3233
1661.39 1009.78 3233
1662.92 1006.03 3221
1670.62 1006.03 3221
1678.33 1006.03 3221
1676.08 1000.1 3202
1683.74 1000.1 3202
1681.89 994.478 3184
1686.32 992.604 3178
1674.73 981.36 3142
1682.24 981.36 3142
1667.71 968.555 3101
1665.94 963.245 3084
1664.09 957.935 3067
1664.88 954.187 3055
1672.19 954.187 3055
1670.7 949.19 3039
1674.65 947.316 3033
1691.33 952.625 3050
1698.63 952.625 3050
1705.92 952.625 3050
1716.02 954.187 3055
1723.33 954.187 3055
1730.63 954.187 3055
1737.94 954.187 3055
1723.54 942.318 3017
1844.01 979.486 3136
1851.51 979.486 3136
1869.68 985.108 3154
1877.22 985.108 3154
1884.76 985.108 3154
1885.11 981.36 3142
1892.62 981.36 3142
1900.13 981.36 3142
1907.65 981.36 3142
1907.85 977.612 3130
1915.33 977.612 3130
1926.5 979.486 3136
1934 979.486 3136
1941.5 979.486 3136
1949 979.486 3136
1934.66 968.555 3101
1942.08 968.555 3101
1938.81 963.245 3084
1927.88 954.187 3055
1921.25 947.316 3033
1880.81 923.89 2958
1887.89 923.89 2958
1878.31 915.77 2932
1983.4 896.717 2871
1990.27 896.717 2871
2018 906.087 2901
2064.72 923.89 2958
2078.8 927.014 2968
2085.9 927.014 2968
2100.75 930.449 2979
2107.88 930.449 2979
2157.6 949.19 3039
2164.87 949.19 3039
2187.86 956.061 3061
2195.18 956.061 3061
2202.5 956.061 3061
2209.82 956.061 3061
2196.86 947.316 3033
2184.49 938.883 3006
2191.68 938.883 3006
2179.11 930.449 2979
2186.24 930.449 2979
2181.58 925.452 2963
2188.67 925.452 2963
2192.05 923.89 2958
2176.07 914.208 2927
2186.8 915.77 2932
2201.3 918.893 2942
2212.08 920.455 2947
2219.13 920.455 2947
2226.18 920.455 2947
2214.28 912.646 2922
2221.27 912.646 2922
2182.5 893.906 2862
2170.22 886.098 2837
-1831.14 941.048 2990
-1847.17 953.008 3028
-1839.93 953.008 3028
-1832.69 953.008 3028
-1825.45 953.008 3028
-1818.2 953.008 3028
-1797.81 946.083 3006
-1787.04 944.195 3000
-1754.95 930.976 2958
-1747.88 930.976 2958
-1731.39 925.941 2942
-1746.04 937.586 2979
-1793.2 966.856 3072
-1799.23 974.095 3095
-1791.83 974.095 3095
-1791.34 977.871 3107
-1783.91 977.871 3107
-1776.48 977.871 3107
-1762.22 974.095 3095
-1754.82 974.095 3095
-1750.81 975.983 3101
-1824.91 1021.62 3246
-1817.15 1021.62 3246
-1816.08 1025.4 3258
-1808.28 1025.4 3258
-1800.49 1025.4 3258
-1786.1 1021.62 3246
-1760.81 1011.55 3214
-1753.12 1011.55 3214
-1773.13 1027.6 3265
-1765.32 1027.6 3265
-1767.74 1033.58 3284
-1795.26 1054.35 3350
-1787.25 1054.35 3350
-1779.24 1054.35 3350
-1760.65 1048.06 3330
-1219.25 977.871 3107
-1232.49 994.552 3160
-1224.94 994.552 3160
-1217.38 994.552 3160
-1209.82 994.552 3160
-1190.85 985.11 3130
-1183.37 985.11 3130
-1173.63 983.222 3124
-1170.64 986.999 3136
-1165.36 988.887 3142
-1157.85 988.887 3142
-1150.34 988.887 3142
-1131.91 979.445 3112
-1128.81 983.222 3124
-1123.49 985.11 3130
-1116 985.11 3130
-1108.52 985.11 3130
-1098.92 983.222 3124
-1091.45 983.222 3124
-1079.82 979.445 3112
-1070.65 977.871 3107
-1059.12 974.095 3095
-1051.72 974.095 3095
-1044.32 974.095 3095
-1036.92 974.095 3095
-1031.51 975.983 3101
-1024.09 975.983 3101
-1016.68 975.983 3101
-1007.31 974.095 3095
-996.356 970.633 3084
-985.133 966.856 3072
-979.697 968.744 3078
-972.336 968.744 3078
-968.424 972.206 3089
-961.038 972.206 3089
-953.651 972.206 3089
-946.264 972.206 3089
-935.534 968.744 3078
-936.919 977.871 3107
-929.489 977.871 3107
-922.059 977.871 3107
-914.629 977.871 3107
-908.659 979.445 3112
-906.43 985.11 3130
-898.945 985.11 3130
-891.461 985.11 3130
-883.976 985.11 3130
-876.491 985.11 3130
-865.675 981.333 3118
-855.191 977.871 3107
-842.85 972.206 3089
-835.463 972.206 3089
-828.076 972.206 3089
-820.69 972.206 3089
-813.303 972.206 3089
-805.916 972.206 3089
-798.529 972.206 3089
-783.971 963.394 3061
-776.652 963.394 3061
-769.332 963.394 3061
-757.78 958.043 3044
-746.556 953.008 3028
-736.629 949.545 3017
-726.755 946.083 3006
-719.567 946.083 3006
-712.379 946.083 3006
-705.191 946.083 3006
-695.448 942.621 2995
-688.286 942.621 2995
-673.847 932.55 2963
-666.761 932.55 2963
-664.351 939.159 2984
-659.638 942.621 2995
-652.476 942.621 2995
-646.392 944.195 3000
-639.218 944.195 3000
-632.044 944.195 3000
-624.87 944.195 3000
-615.637 941.048 2990
-608.487 941.048 2990
-601.337 941.048 2990
-592.995 939.159 2984
-585.859 939.159 2984
-573.681 930.976 2958
-566.608 930.976 2958
-558.588 929.403 2953
-551.527 929.403 2953
-541.515 924.367 2937
-534.492 924.367 2937
-529.265 927.514 2947
-522.218 927.514 2947
-515.17 927.514 2947
-508.123 927.514 2947
-501.076 927.514 2947
-494.029 927.514 2947
-488.799 930.976 2958
-482.54 932.55 2963
-475.455 932.55 2963
-468.369 932.55 2963
-468.757 947.657 3011
-464.162 953.008 3028
-460.241 959.932 3050
-452.948 959.932 3050
-448.869 966.856 3072
-443.247 970.633 3084
-435.873 970.633 3084
-428.498 970.633 3084
-421.123 970.633 3084
-412.138 966.856 3072
-405.583 968.744 3078
-398.223 968.744 3078
-391.624 970.633 3084
-384.249 970.633 3084
-377.485 972.206 3089
-370.099 972.206 3089
-362.712 972.206 3089
-355.325 972.206 3089
-347.939 972.206 3089
-340.552 972.206 3089
-332.626 970.633 3084
-325.778 972.206 3089
-319.01 974.095 3095
-311.609 974.095 3095
-304.798 975.983 3101
-298.437 979.445 3112
-290.995 979.445 3112
-283.554 979.445 3112
-275.136 975.983 3101
-267.202 974.095 3095
-259.801 974.095 3095
-252.4 974.095 3095
-244.999 974.095 3095
-237.137 972.206 3089
-231.908 981.333 3118
-226.179 988.887 3142
-218.666 988.887 3142
-212.765 996.44 3166
-207.139 1005.88 3196
-199.496 1005.88 3196
-191.853 1005.88 3196
-83.3303 681.079 2164
-78.3361 682.653 2169
-73.1493 682.653 2169
-68.0566 683.597 2172
-62.8627 683.597 2172
-57.6688 683.597 2172
-52.4749 683.597 2172
-47.2156 682.653 2169
-41.932 681.079 2164
-36.7572 681.079 2164
-31.5387 680.135 2161
-26.3345 679.191 2158
-21.174 679.191 2158
-16.0136 679.191 2158
-10.8532 679.191 2158
-5.68481 678.247 2155
-0.531556 678.247 2155
4.6217 678.247 2155
9.77496 678.247 2155
14.9282 678.247 2155
20.0628 677.617 2153
25.1411 675.729 2147
30.2752 675.729 2147
35.4093 675.729 2147
40.5434 675.729 2147
45.7414 676.673 2150
51.001 678.247 2155
56.1543 678.247 2155
61.6489 682.024 2167
66.9851 683.597 2172
72.2787 684.541 2175
77.4798 684.541 2175
82.7949 685.486 2178
88.4476 688.948 2189
94.0674 691.78 2198
99.3234 691.78 2198
104.58 691.78 2198
110.435 695.557 2210
115.982 697.131 2215
121.279 697.131 2215
126.575 697.131 2215
132.408 699.963 2224
137.912 700.907 2227
143.237 700.907 2227
148.563 700.907 2227
153.681 699.963 2224
158.999 699.963 2224
164.096 699.019 2221
168.949 697.131 2215
174.246 697.131 2215
179.543 697.131 2215
184.673 696.501 2213
189.449 694.613 2207
194.462 693.669 2204
199.733 693.669 2204
205.282 694.613 2207
210.56 694.613 2207
215.837 694.613 2207
221.416 695.557 2210
226.7 695.557 2210
231.985 695.557 2210
472.906 974.095 3095
481.238 975.983 3101
488.654 975.983 3101
497.029 977.871 3107
504.459 977.871 3107
511.888 977.871 3107
519.318 977.871 3107
528.613 981.333 3118
537.1 983.222 3124
544.571 983.222 3124
552.041 983.222 3124
559.512 983.222 3124
564.804 979.445 3112
572.246 979.445 3112
578.756 977.871 3107
586.186 977.871 3107
593.616 977.871 3107
601.046 977.871 3107
614.155 986.999 3136
621.654 986.999 3136
631.561 990.775 3148
639.088 990.775 3148
646.616 990.775 3148
651.65 986.999 3136
659.15 986.999 3136
660.484 977.871 3107
667.914 977.871 3107
675.344 977.871 3107
675.082 966.856 3072
681.317 965.282 3067
688.651 965.282 3067
690.766 958.043 3044
693 951.119 3022
699.068 949.545 3017
706.283 949.545 3017
713.497 949.545 3017
718.084 946.083 3006
714.898 932.55 2963
732.461 946.083 3006
739.649 946.083 3006
746.837 946.083 3006
758.039 951.119 3022
765.266 951.119 3022
774.026 953.008 3028
781.267 953.008 3028
788.508 953.008 3028
799.953 958.043 3044
814.657 966.856 3072
822.004 966.856 3072
829.35 966.856 3072
836.696 966.856 3072
852.01 975.983 3101
859.425 975.983 3101
885.01 996.44 3166
897.656 1002.11 3184
905.27 1002.11 3184
912.884 1002.11 3184
920.498 1002.11 3184
926.363 1000.22 3178
933.962 1000.22 3178
941.562 1000.22 3178
950.953 1002.11 3184
958.567 1002.11 3184
966.181 1002.11 3184
975.63 1003.99 3190
983.258 1003.99 3190
996.478 1009.66 3208
1016.04 1021.62 3246
1023.81 1021.62 3246
1031.57 1021.62 3246
1035.17 1017.53 3233
1040.96 1015.64 3227
1048.68 1015.64 3227
1052.14 1011.55 3214
1059.83 1011.55 3214
1061.53 1005.88 3196
1069.18 1005.88 3196
1066.71 996.44 3166
1070.21 992.664 3154
1075.7 990.775 3148
1085.29 992.664 3154
1092.84 992.664 3154
1100.38 992.664 3154
1105.81 990.775 3148
1115.46 992.664 3154
1123.01 992.664 3154
1130.55 992.664 3154
1138.09 992.664 3154
1145.63 992.664 3154
1153.17 992.664 3154
1160.72 992.664 3154
1166.04 990.775 3148
1175.8 992.664 3154
1192.35 1000.22 3178
1199.95 1000.22 3178
1226.16 1015.64 3227
1243.44 1023.51 3252
1251.22 1023.51 3252
1258.99 1023.51 3252
1271.83 1027.6 3265
1305.12 1048.06 3330
1331.61 1062.85 3377
1339.69 1062.85 3377
1347.76 1062.85 3377
1361.46 1067.26 3391
1369.57 1067.26 3391
1377.68 1067.26 3391
1394.37 1073.86 3412
1402.53 1073.86 3412
1410.69 1073.86 3412
1404.29 1062.85 3377
1384.35 1041.76 3310
1378.8 1031.69 3278
1386.64 1031.69 3278
1391.5 1029.49 3271
1393.76 1025.4 3258
1388.22 1015.64 3227
1390.31 1011.55 3214
1403.65 1015.64 3227
1411.37 1015.64 3227
1424.36 1019.42 3239
1432.11 1019.42 3239
1439.85 1019.42 3239
1447.6 1019.42 3239
1444.11 1011.55 3214
1449.08 1009.66 3208
1456.76 1009.66 3208
1458.95 1005.88 3196
1466.59 1005.88 3196
1474.23 1005.88 3196
1481.88 1005.88 3196
1486.72 1003.99 3190
1494.35 1003.99 3190
1507.63 1007.77 3202
1515.29 1007.77 3202
1522.94 1007.77 3202
1530.6 1007.77 3202
1538.26 1007.77 3202
1545.91 1007.77 3202
1553.57 1007.77 3202
1561.23 1007.77 3202
1563.01 1003.99 3190
1570.63 1003.99 3190
1590.14 1011.55 3214
1597.82 1011.55 3214
1615 1017.53 3233
1622.73 1017.53 3233
1633.49 1019.42 3239
1641.23 1019.42 3239
1648.98 1019.42 3239
1653.65 1017.53 3233
1661.39 1017.53 3233
1669.12 1017.53 3233
1676.85 1017.53 3233
1678.33 1013.75 3221
1686.03 1013.75 3221
1693.73 1013.75 3221
1685.06 1003.99 3190
1689.5 1002.11 3184
1693.92 1000.22 3178
1701.52 1000.22 3178
1667.71 975.983 3101
1691.33 959.932 3050
1717.56 970.633 3084
1724.94 970.633 3084
1732.31 970.633 3084
1739.69 970.633 3084
1747.06 970.633 3084
1737.94 961.505 3055
1869.68 992.664 3154
1877.22 992.664 3154
1884.76 992.664 3154
1881.51 986.999 3136
1889.01 986.999 3136
1896.51 986.999 3136
1904 986.999 3136
1912.95 968.744 3078
1920.31 968.744 3078
1927.67 968.744 3078
1920.57 961.505 3055
1914 954.581 3033
1887.04 937.586 2979
1873.82 927.514 2947
1880.87 927.514 2947
1881.51 924.367 2937
1885.32 922.793 2932
1973.73 899.188 2857
1980.56 899.188 2857
1990.87 900.762 2862
2021.45 911.463 2896
2046.58 919.646 2922
2053.57 919.646 2922
2085.95 930.976 2958
2093.02 930.976 2958
2100.09 930.976 2958
2099.33 927.514 2947
2159.98 951.119 3022
2179.4 956.47 3039
2186.67 956.47 3039
2193.94 956.47 3039
2172.95 944.195 3000
2180.13 944.195 3000
2187.3 944.195 3000
2182.77 939.159 2984
2178.17 934.124 2968
2177.9 930.976 2958
2184.97 930.976 2958
2192.05 930.976 2958
2176.07 921.22 2927
2183.07 921.22 2927
2197.56 924.367 2937
2208.33 925.941 2942
2215.37 925.941 2942
2222.4 925.941 2942
2214.28 919.646 2922
2221.27 919.646 2922
2182.5 900.762 2862
2170.22 892.894 2837
-1820.05 910.472 2871
-1813.18 910.472 2871
-1806.32 910.472 2871
-1799.45 910.472 2871
-1792.59 910.472 2871
-1791.94 913.643 2881
-1788.15 915.229 2886
-1781.25 915.229 2886
-1789.72 923.157 2911
-1831.14 948.21 2990
-1823.99 948.21 2990
-1816.84 948.21 2990
-1812.71 949.796 2995
-1805.55 949.796 2995
-1798.39 949.796 2995
-1791.23 949.796 2995
-1781.09 948.21 2990
-1751.98 936.477 2953
-1744.92 936.477 2953
-1722.56 928.231 2927
-1727.28 934.574 2947
-1780.36 967.238 3050
-1792.83 978.02 3084
-1785.46 978.02 3084
-1778.08 978.02 3084
-1773.58 979.606 3089
-1766.19 979.606 3089
-1758.8 979.606 3089
-1758.22 983.411 3101
-1754.19 985.314 3107
-1756.32 990.705 3124
-1748.85 990.705 3124
-1741.38 990.705 3124
-1783.86 1019.25 3214
-1776.18 1019.25 3214
-1768.49 1019.25 3214
-1760.81 1019.25 3214
-1760.21 1023.37 3227
-1773.13 1035.42 3265
-1765.32 1035.42 3265
-1788.74 1053.81 3323
-1780.79 1053.81 3323
-1772.84 1053.81 3323
-1764.9 1053.81 3323
-1200.35 958.358 3022
-1193.12 958.358 3022
-1219.25 985.314 3107
-1232.49 1002.12 3160
-1224.94 1002.12 3160
-1217.38 1002.12 3160
-1200.63 994.511 3136
-1188.57 990.705 3124
-1181.1 990.705 3124
-1171.37 988.803 3118
-1168.4 992.608 3130
-1160.91 992.608 3130
-1153.43 992.608 3130
-1145.94 992.608 3130
-1131.91 986.9 3112
-1128.81 990.705 3124
-1123.49 992.608 3130
-1116 992.608 3130
-1108.52 992.608 3130
-1098.92 990.705 3124
-1091.45 990.705 3124
-1079.82 986.9 3112
-1070.65 985.314 3107
-1057.07 979.606 3089
-1049.68 979.606 3089
-1042.29 979.606 3089
-1034.9 979.606 3089
-1029.51 981.509 3095
-1022.11 981.509 3095
-1014.71 981.509 3095
-1007.31 981.509 3095
-996.356 978.02 3084
-985.133 974.215 3072
-979.697 976.117 3078
-972.336 976.117 3078
-968.424 979.606 3089
-961.038 979.606 3089
-953.651 979.606 3089
-946.264 979.606 3089
-935.534 976.117 3078
-936.919 985.314 3107
-929.489 985.314 3107
-922.059 985.314 3107
-914.629 985.314 3107
-908.659 986.9 3112
-902.955 988.803 3118
-895.499 988.803 3118
-888.043 988.803 3118
-880.587 988.803 3118
-873.131 988.803 3118
-864.009 986.9 3112
-850.237 979.606 3089
-841.485 978.02 3084
-835.463 979.606 3089
-828.076 979.606 3089
-820.69 979.606 3089
-813.303 979.606 3089
-805.916 979.606 3089
-794.135 974.215 3072
-783.971 970.726 3061
-776.652 970.726 3061
-769.332 970.726 3061
-757.78 965.335 3044
-746.556 960.261 3028
-736.629 956.773 3017
-726.755 953.284 3006
-719.567 953.284 3006
-712.379 953.284 3006
-705.191 953.284 3006
-695.448 949.796 2995
-688.286 949.796 2995
-672.71 938.062 2958
-665.636 938.062 2958
-659.676 939.648 2963
-657.216 946.308 2984
-650.08 946.308 2984
-642.944 946.308 2984
-635.809 946.308 2984
-628.673 946.308 2984
-621.537 946.308 2984
-612.343 943.136 2974
-605.231 943.136 2974
-598.119 943.136 2974
-587.828 938.062 2958
-580.755 938.062 2958
-572.711 936.477 2953
-565.65 936.477 2953
-558.588 936.477 2953
-548.539 931.403 2937
-540.593 929.817 2932
-531.762 926.646 2922
-526.571 929.817 2932
-519.559 929.817 2932
-512.548 929.817 2932
-505.537 929.817 2932
-498.526 929.817 2932
-491.514 929.817 2932
-484.503 929.817 2932
-477.492 929.817 2932
-470.48 929.817 2932
-463.469 929.817 2932
-461.284 939.648 2963
-459.104 949.796 2995
-454.356 954.87 3011
-447.156 954.87 3011
-447.262 970.726 3061
-441.523 974.215 3072
-434.177 974.215 3072
-426.831 974.215 3072
-419.484 974.215 3072
-412.138 974.215 3072
-405.583 976.117 3078
-398.223 976.117 3078
-391.624 978.02 3084
-384.249 978.02 3084
-377.485 979.606 3089
-370.099 979.606 3089
-362.712 979.606 3089
-355.325 979.606 3089
-347.939 979.606 3089
-340.552 979.606 3089
-332.626 978.02 3084
-325.778 979.606 3089
-319.01 981.509 3095
-311.609 981.509 3095
-304.798 983.411 3101
-298.437 986.9 3112
-290.995 986.9 3112
-283.554 986.9 3112
-275.136 983.411 3101
-267.202 981.509 3095
-259.801 981.509 3095
-252.4 981.509 3095
-244.999 981.509 3095
-237.137 979.606 3089
-230.643 983.411 3101
-224.883 990.705 3124
-217.413 990.705 3124
-210.749 994.511 3136
-203.25 994.511 3136
-195.751 994.511 3136
-83.3303 686.263 2164
-78.3361 687.849 2169
-73.1493 687.849 2169
-67.9626 687.849 2169
-62.7758 687.849 2169
-57.5891 687.849 2169
-52.4024 687.849 2169
-47.2156 687.849 2169
-41.932 686.263 2164
-36.7572 686.263 2164
-31.5387 685.312 2161
-26.3345 684.36 2158
-21.174 684.36 2158
-16.0136 684.36 2158
-10.8532 684.36 2158
-5.68481 683.409 2155
-0.531556 683.409 2155
4.6217 683.409 2155
9.77496 683.409 2155
14.9282 683.409 2155
20.0628 682.775 2153
25.1411 680.872 2147
30.2752 680.872 2147
35.4093 680.872 2147
40.6001 681.823 2150
45.8052 682.775 2153
51.001 683.409 2155
56.1543 683.409 2155
61.7058 687.849 2169
67.0776 689.752 2175
72.3784 690.703 2178
77.5866 690.703 2178
83.023 692.606 2184
88.5688 695.143 2192
94.0674 697.046 2198
99.3234 697.046 2198
104.865 698.948 2204
110.685 702.437 2215
116.139 703.388 2218
121.443 703.388 2218
126.918 704.339 2221
132.586 706.242 2227
138.098 707.194 2230
143.43 707.194 2230
148.763 707.194 2230
153.888 706.242 2227
159.214 706.242 2227
164.096 704.339 2221
169.178 703.388 2218
174.246 702.437 2215
179.543 702.437 2215
184.673 701.802 2213
189.707 700.851 2210
194.727 699.9 2207
200.005 699.9 2207
205.282 699.9 2207
210.56 699.9 2207
215.837 699.9 2207
221.416 700.851 2210
226.7 700.851 2210
231.985 700.851 2210
474.739 985.314 3107
482.169 985.314 3107
489.599 985.314 3107
497.829 986.9 3112
505.27 986.9 3112
512.712 986.9 3112
520.154 986.9 3112
528.613 988.803 3118
537.1 990.705 3124
544.571 990.705 3124
552.041 990.705 3124
559.512 990.705 3124
564.804 986.9 3112
572.246 986.9 3112
578.756 985.314 3107
586.186 985.314 3107
593.616 985.314 3107
601.046 985.314 3107
614.155 994.511 3136
621.654 994.511 3136
631.561 998.316 3148
639.088 998.316 3148
646.616 998.316 3148
651.65 994.511 3136
659.15 994.511 3136
660.484 985.314 3107
667.914 985.314 3107
675.344 985.314 3107
675.082 974.215 3072
681.317 972.629 3067
688.651 972.629 3067
690.766 965.335 3044
693 958.358 3022
699.068 956.773 3017
706.283 956.773 3017
713.497 956.773 3017
718.084 953.284 3006
714.898 939.648 2963
732.461 953.284 3006
739.649 953.284 3006
746.837 953.284 3006
758.039 958.358 3022
765.266 958.358 3022
774.026 960.261 3028
781.267 960.261 3028
788.508 960.261 3028
799.953 965.335 3044
814.657 974.215 3072
822.004 974.215 3072
829.35 974.215 3072
836.696 974.215 3072
852.01 983.411 3101
859.425 983.411 3101
885.01 1004.02 3166
897.656 1009.73 3184
905.27 1009.73 3184
912.884 1009.73 3184
920.498 1009.73 3184
926.363 1007.83 3178
933.962 1007.83 3178
941.562 1007.83 3178
950.953 1009.73 3184
958.567 1009.73 3184
966.181 1009.73 3184
975.63 1011.64 3190
983.258 1011.64 3190
996.478 1017.34 3208
1016.04 1029.39 3246
1023.81 1029.39 3246
1031.57 1029.39 3246
1035.17 1025.27 3233
1040.96 1023.37 3227
1048.68 1023.37 3227
1052.14 1019.25 3214
1059.83 1019.25 3214
1061.53 1013.54 3196
1069.18 1013.54 3196
1066.71 1004.02 3166
1070.21 1000.22 3154
1075.7 998.316 3148
1085.29 1000.22 3154
1092.84 1000.22 3154
1100.38 1000.22 3154
1105.81 998.316 3148
1115.46 1000.22 3154
1123.01 1000.22 3154
1130.55 1000.22 3154
1138.09 1000.22 3154
1145.63 1000.22 3154
1153.17 1000.22 3154
1160.72 1000.22 3154
1166.04 998.316 3148
1175.8 1000.22 3154
1192.35 1007.83 3178
1199.95 1007.83 3178
1226.16 1023.37 3227
1243.44 1031.3 3252
1251.22 1031.3 3252
1258.99 1031.3 3252
1254.69 1021.47 3221
1279.64 1035.42 3265
1307.95 1051.91 3317
1315.89 1051.91 3317
1329.01 1056.03 3330
1339.78 1058.25 3337
1347.76 1058.25 3337
1355.74 1058.25 3337
1377.2 1068.72 3370
1385.26 1068.72 3370
1393.32 1068.72 3370
1376.43 1049.69 3310
1368.03 1037.32 3271
1365.34 1029.39 3246
1367.6 1025.27 3233
1375.34 1025.27 3233
1380.5 1023.37 3227
1377.46 1015.44 3202
1374.74 1007.83 3178
1387.56 1011.64 3190
1395.18 1011.64 3190
1410.73 1017.34 3208
1418.4 1017.34 3208
1426.07 1017.34 3208
1433.74 1017.34 3208
1427.93 1007.83 3178
1430.11 1004.02 3166
1437.68 1004.02 3166
1445.25 1004.02 3166
1452.83 1004.02 3166
1457.63 1002.12 3160
1459.62 998.316 3148
1469.95 1000.22 3154
1477.49 1000.22 3154
1490.68 1004.02 3166
1512.45 1013.54 3196
1520.09 1013.54 3196
1527.73 1013.54 3196
1590.14 1019.25 3214
1597.82 1019.25 3214
1615 1025.27 3233
1622.73 1025.27 3233
1633.49 1027.17 3239
1641.23 1027.17 3239
1648.98 1027.17 3239
1653.65 1025.27 3233
1661.39 1025.27 3233
1669.12 1025.27 3233
1676.85 1025.27 3233
1678.33 1021.47 3221
1686.03 1021.47 3221
1693.73 1021.47 3221
1685.06 1011.64 3190
1689.5 1009.73 3184
1693.92 1007.83 3178
1701.52 1007.83 3178
1717.56 978.02 3084
1724.94 978.02 3084
1732.31 978.02 3084
1739.69 978.02 3084
1747.06 978.02 3084
1841.82 985.314 3107
1859.37 990.705 3124
1866.84 990.705 3124
1874.31 990.705 3124
1881.78 990.705 3124
1885.38 958.358 3022
1892.6 958.358 3022
1899.83 958.358 3022
1900.11 954.87 3011
1887.04 944.722 2979
1877.64 936.477 2953
1884.7 936.477 2953
1887.91 934.574 2947
1888.53 931.403 2937
1892.33 929.817 2932
1899.34 929.817 2932
1966.82 902.861 2847
1973.63 902.861 2847
1990.87 907.618 2862
2021.45 918.4 2896
2046.58 926.646 2922
2053.57 926.646 2922
2071.14 931.403 2937
2078.16 931.403 2937
2092.28 934.574 2947
2099.33 934.574 2947
2159.98 958.358 3022
2179.4 963.75 3039
2186.67 963.75 3039
2193.94 963.75 3039
2172.95 951.382 3000
2180.13 951.382 3000
2187.3 951.382 3000
2182.77 946.308 2984
2178.17 941.234 2968
2177.9 938.062 2958
2184.97 938.062 2958
2192.05 938.062 2958
2176.07 928.231 2927
2183.07 928.231 2927
2197.56 931.403 2937
2204.58 931.403 2937
2211.6 931.403 2937
2218.62 931.403 2937
2187 915.229 2886
2193.9 915.229 2886
2182.5 907.618 2862
2170.22 899.69 2837
-1821.64 911.279 2852
-1814.82 911.279 2852
-1820.05 917.35 2871
-1813.18 917.35 2871
-1806.32 917.35 2871
-1799.45 917.35 2871
-1792.59 917.35 2871
-1791.94 920.545 2881
-1791.25 923.74 2891
-1784.33 923.74 2891
-1789.72 930.131 2911
-1817.66 948.343 2968
-1823.99 955.373 2990
-1816.84 955.373 2990
-1812.71 956.971 2995
-1805.55 956.971 2995
-1798.39 956.971 2995
-1791.23 956.971 2995
-1777.51 953.456 2984
-1751.98 943.551 2953
-1744.92 943.551 2953
-1719.62 933.645 2922
-1727.28 941.633 2947
-1780.36 974.544 3050
-1792.83 985.408 3084
-1785.46 985.408 3084
-1778.08 985.408 3084
-1773.58 987.006 3089
-1766.19 987.006 3089
-1758.8 987.006 3089
-1758.22 990.84 3101
-1754.19 992.757 3107
-1756.32 998.189 3124
-1748.85 998.189 3124
-1741.38 998.189 3124
-1767.21 1017.36 3184
-1759.6 1017.36 3184
-1751.98 1017.36 3184
-1760.81 1026.95 3214
-1760.21 1031.1 3227
-1773.13 1043.24 3265
-1765.32 1043.24 3265
-1788.74 1061.77 3323
-1780.79 1061.77 3323
-1772.84 1061.77 3323
-1764.9 1061.77 3323
-1200.35 965.598 3022
-1193.12 965.598 3022
-1205.52 981.574 3072
-1204.8 987.006 3089
-1204.39 992.757 3107
-1196.96 992.757 3107
-1189.53 992.757 3107
-1175.25 987.006 3089
-1167.87 987.006 3089
-1139.44 969.112 3033
-1151.23 985.408 3084
-1143.85 985.408 3084
-1136.48 985.408 3084
-1129.1 985.408 3084
-1121.73 985.408 3084
-1124.47 994.355 3112
-1121.34 998.189 3124
-1113.86 998.189 3124
-1106.39 998.189 3124
-1092.94 992.757 3107
-1085.51 992.757 3107
-1073.92 988.923 3095
-1064.45 987.006 3089
-1057.07 987.006 3089
-1045.94 983.491 3078
-1042.29 987.006 3089
-1034.9 987.006 3089
-1029.51 988.923 3095
-1022.11 988.923 3095
-1014.71 988.923 3095
-1007.31 988.923 3095
-996.356 985.408 3084
-985.133 981.574 3072
-979.697 983.491 3078
-972.336 983.491 3078
-968.424 987.006 3089
-961.038 987.006 3089
-953.651 987.006 3089
-946.264 987.006 3089
-935.534 983.491 3078
-936.919 992.757 3107
-929.489 992.757 3107
-922.059 992.757 3107
-914.629 992.757 3107
-907.199 992.757 3107
-901.218 994.355 3112
-893.776 994.355 3112
-886.334 994.355 3112
-878.892 994.355 3112
-871.451 994.355 3112
-862.621 992.757 3107
-848.86 985.408 3084
-841.485 985.408 3084
-835.463 987.006 3089
-828.076 987.006 3089
-820.69 987.006 3089
-813.303 987.006 3089
-805.916 987.006 3089
-794.135 981.574 3072
-785.508 979.976 3067
-776.652 978.059 3061
-769.332 978.059 3061
-757.78 972.627 3044
-746.556 967.515 3028
-736.629 964 3017
-724.096 956.971 2995
-716.934 956.971 2995
-709.772 956.971 2995
-702.61 956.971 2995
-691.733 951.858 2979
-684.609 951.858 2979
-672.71 945.148 2958
-664.511 943.551 2953
-659.676 946.746 2963
-653.692 948.343 2968
-646.594 948.343 2968
-641.867 951.858 2979
-634.743 951.858 2979
-627.62 951.858 2979
-618.205 948.343 2968
-606.784 941.633 2947
-599.736 941.633 2947
-593.896 943.551 2953
-586.834 943.551 2953
-579.773 943.551 2953
-569.608 938.438 2937
-562.585 938.438 2937
-555.562 938.438 2937
-546.671 935.243 2927
-537.828 932.048 2917
-530.852 932.048 2917
-524.775 933.645 2922
-517.787 933.645 2922
-510.8 933.645 2922
-503.813 933.645 2922
-496.825 933.645 2922
-487.994 930.131 2911
-481.033 930.131 2911
-475.049 932.048 2917
-468.876 933.645 2922
-461.888 933.645 2922
-458.793 941.633 2947
-454.198 946.746 2963
-452.696 958.568 3000
-445.522 958.568 3000
-440.832 964 3017
-435.199 967.515 3028
-431.774 976.142 3055
-424.469 976.142 3055
-417.163 976.142 3055
-412.138 981.574 3072
-405.583 983.491 3078
-398.223 983.491 3078
-391.624 985.408 3084
-384.249 985.408 3084
-377.485 987.006 3089
-370.099 987.006 3089
-362.712 987.006 3089
-355.325 987.006 3089
-347.939 987.006 3089
-340.552 987.006 3089
-333.165 987.006 3089
-326.411 988.923 3095
-320.247 992.757 3107
-312.817 992.757 3107
-305.879 994.355 3112
-299.012 996.272 3118
-291.556 996.272 3118
-284.1 996.272 3118
-276.112 994.355 3112
-267.72 990.84 3101
-260.305 990.84 3101
-252.89 990.84 3101
-244.999 988.923 3095
-237.137 987.006 3089
-230.643 990.84 3101
-224.883 998.189 3124
-217.413 998.189 3124
-209.943 998.189 3124
-202.861 1000.11 3130
-195.376 1000.11 3130
-187.892 1000.11 3130
-83.3303 691.447 2164
-78.3361 693.045 2169
-73.1493 693.045 2169
-67.9626 693.045 2169
-62.7758 693.045 2169
-57.5891 693.045 2169
-52.4024 693.045 2169
-47.1721 692.406 2167
-41.8739 690.489 2161
-36.7063 690.489 2161
-31.5387 690.489 2161
-26.3345 689.53 2158
-21.174 689.53 2158
-16.0136 689.53 2158
-10.8532 689.53 2158
-5.69273 689.53 2158
-0.532296 689.53 2158
4.62814 689.53 2158
9.78857 689.53 2158
14.9282 688.571 2155
20.0628 687.932 2153
25.1411 686.015 2147
30.2752 686.015 2147
35.4093 686.015 2147
40.6001 686.974 2150
45.8052 687.932 2153
51.001 688.571 2155
56.1543 688.571 2155
61.7058 693.045 2169
67.0776 694.962 2175
72.3784 695.92 2178
77.5866 695.92 2178
83.023 697.838 2184
88.5688 700.394 2192
94.0674 702.311 2198
99.3234 702.311 2198
104.865 704.228 2204
110.685 707.743 2215
116.139 708.701 2218
121.443 708.701 2218
126.918 709.66 2221
132.586 711.577 2227
138.098 712.536 2230
143.43 712.536 2230
148.763 712.536 2230
153.888 711.577 2227
159.214 711.577 2227
164.096 709.66 2221
169.178 708.701 2218
174.246 707.743 2215
179.543 707.743 2215
184.673 707.104 2213
189.707 706.145 2210
194.727 705.187 2207
200.005 705.187 2207
205.282 705.187 2207
210.56 705.187 2207
215.837 705.187 2207
221.416 706.145 2210
226.7 706.145 2210
231.985 706.145 2210
474.739 992.757 3107
482.169 992.757 3107
489.599 992.757 3107
497.829 994.355 3112
505.27 994.355 3112
512.712 994.355 3112
520.154 994.355 3112
525.731 990.84 3101
535.037 994.355 3112
542.479 994.355 3112
549.921 994.355 3112
557.363 994.355 3112
562.808 990.84 3101
571.327 992.757 3107
578.756 992.757 3107
586.186 992.757 3107
593.616 992.757 3107
601.046 992.757 3107
611.805 998.189 3124
619.275 998.189 3124
629.153 1002.02 3136
636.652 1002.02 3136
644.151 1002.02 3136
651.65 1002.02 3136
656.627 998.189 3124
660.484 992.757 3107
667.914 992.757 3107
669.04 983.491 3078
675.082 981.574 3072
681.317 979.976 3067
688.651 979.976 3067
690.766 972.627 3044
693 965.598 3022
699.068 964 3017
706.283 964 3017
713.497 964 3017
718.084 960.485 3006
714.898 946.746 2963
723.201 948.343 2968
731.775 950.26 2974
738.887 950.26 2974
745.999 950.26 2974
753.11 950.26 2974
761.5 951.858 2979
768.624 951.858 2979
784.081 962.083 3011
791.281 962.083 3011
802.989 967.515 3028
810.23 967.515 3028
817.471 967.515 3028
826.074 969.112 3033
842.668 979.976 3067
850.002 979.976 3067
876.624 1002.02 3136
895.964 1015.44 3178
903.564 1015.44 3178
911.163 1015.44 3178
918.763 1015.44 3178
924.614 1013.53 3172
933.962 1015.44 3178
941.562 1015.44 3178
950.953 1017.36 3184
958.567 1017.36 3184
966.181 1017.36 3184
973.795 1017.36 3184
981.409 1017.36 3184
992.75 1021.19 3196
1016.04 1037.17 3246
1023.81 1037.17 3246
1031.57 1037.17 3246
1035.17 1033.02 3233
1040.96 1031.1 3227
1048.68 1031.1 3227
1052.14 1026.95 3214
1057.85 1025.03 3208
1061.53 1021.19 3196
1069.18 1021.19 3196
1066.71 1011.61 3166
1068.17 1005.86 3148
1075.7 1005.86 3148
1085.29 1007.77 3154
1092.84 1007.77 3154
1100.38 1007.77 3154
1105.81 1005.86 3148
1113.34 1005.86 3148
1123.01 1007.77 3154
1130.55 1007.77 3154
1138.09 1007.77 3154
1143.45 1005.86 3148
1150.98 1005.86 3148
1158.51 1005.86 3148
1161.59 1002.02 3136
1166.85 1000.11 3130
1178.84 1003.94 3142
1186.35 1003.94 3142
1207.55 1015.44 3178
1224.32 1023.11 3202
1236.6 1026.95 3214
1244.28 1026.95 3214
1254.69 1029.18 3221
1279.64 1043.24 3265
1307.95 1059.86 3317
1315.89 1059.86 3317
1329.01 1064.01 3330
1339.78 1066.25 3337
1347.76 1066.25 3337
1355.74 1066.25 3337
1377.2 1076.79 3370
1385.26 1076.79 3370
1393.32 1076.79 3370
1376.43 1057.62 3310
1368.03 1045.16 3271
1365.34 1037.17 3246
1367.6 1033.02 3233
1375.34 1033.02 3233
1380.5 1031.1 3227
1377.46 1023.11 3202
1374.74 1015.44 3178
1387.56 1019.28 3190
1395.18 1019.28 3190
1410.73 1025.03 3208
1418.4 1025.03 3208
1426.07 1025.03 3208
1433.74 1025.03 3208
1427.93 1015.44 3178
1430.11 1011.61 3166
1437.68 1011.61 3166
1445.25 1011.61 3166
1452.83 1011.61 3166
1457.63 1009.69 3160
1459.62 1005.86 3148
1469.95 1007.77 3154
1477.49 1007.77 3154
1490.68 1011.61 3166
1512.45 1021.19 3196
1520.09 1021.19 3196
1527.73 1021.19 3196
1590.14 1026.95 3214
1597.82 1026.95 3214
1615 1033.02 3233
1622.73 1033.02 3233
1633.49 1034.93 3239
1641.23 1034.93 3239
1648.98 1034.93 3239
1653.65 1033.02 3233
1661.39 1033.02 3233
1669.12 1033.02 3233
1676.85 1033.02 3233
1678.33 1029.18 3221
1686.03 1029.18 3221
1693.73 1029.18 3221
1685.06 1019.28 3190
1689.5 1017.36 3184
1693.92 1015.44 3178
1701.52 1015.44 3178
1717.56 985.408 3084
1724.94 985.408 3084
1732.31 985.408 3084
1739.69 985.408 3084
1747.06 985.408 3084
1841.82 992.757 3107
1859.37 998.189 3124
1866.84 998.189 3124
1874.31 998.189 3124
1881.78 998.189 3124
1847.52 976.142 3055
1854.83 976.142 3055
1828.2 943.551 2953
1835.27 943.551 2953
1885.38 965.598 3022
1892.6 965.598 3022
1899.83 965.598 3022
1900.11 962.083 3011
1887.04 951.858 2979
1877.64 943.551 2953
1884.7 943.551 2953
1887.91 941.633 2947
1891.75 940.036 2942
1892.33 936.841 2932
1899.34 936.841 2932
1966.82 909.681 2847
1973.63 909.681 2847
1990.87 914.474 2862
2021.45 925.338 2896
2050.09 935.243 2927
2057.09 935.243 2927
2071.14 938.438 2937
2078.16 938.438 2937
2092.28 941.633 2947
2099.33 941.633 2947
2159.98 965.598 3022
2179.4 971.029 3039
2186.67 971.029 3039
2193.94 971.029 3039
2172.95 958.568 3000
2180.13 958.568 3000
2187.3 958.568 3000
2182.77 953.456 2984
2162.75 941.633 2947
2169.8 941.633 2947
2176.85 941.633 2947
2172.78 936.841 2932
2176.07 935.243 2927
2183.07 935.243 2927
2197.56 938.438 2937
2204.58 938.438 2937
2211.6 938.438 2937
2218.62 938.438 2937
2183.21 920.545 2881
2190.1 920.545 2881
2182.5 914.474 2862
2170.22 906.486 2837
-1813.08 910.385 2828
-1821.64 918.111 2852
-1814.82 918.111 2852
-1820.05 924.227 2871
-1813.18 924.227 2871
-1806.32 924.227 2871
-1799.45 924.227 2871
-1792.59 924.227 2871
-1791.94 927.446 2881
-1791.25 930.666 2891
-1784.33 930.666 2891
-1799.55 942.255 2927
-1817.66 955.453 2968
-1823.99 962.535 2990
-1816.84 962.535 2990
-1819.37 967.686 3006
-1812.18 967.686 3006
-1804.99 967.686 3006
-1791.23 964.145 2995
-1777.51 960.604 2984
-1757.92 953.844 2963
-1750.83 953.844 2963
-1719.62 940.645 2922
-1727.28 948.693 2947
-1780.36 981.851 3050
-1792.83 992.796 3084
-1785.46 992.796 3084
-1778.08 992.796 3084
-1773.58 994.405 3089
-1766.19 994.405 3089
-1758.8 994.405 3089
-1758.22 998.268 3101
-1754.19 1000.2 3107
-1756.32 1005.67 3124
-1748.85 1005.67 3124
-1741.38 1005.67 3124
-1767.21 1024.99 3184
-1759.6 1024.99 3184
-1751.98 1024.99 3184
-1760.81 1034.65 3214
-1760.21 1038.83 3227
-1773.13 1051.06 3265
-1765.32 1051.06 3265
-1788.74 1069.73 3323
-1780.79 1069.73 3323
-1772.84 1069.73 3323
-1764.9 1069.73 3323
-1207.57 972.837 3022
-1215.84 985.392 3061
-1208.52 985.392 3061
-1210.22 992.796 3084
-1209.48 998.268 3101
-1204.39 1000.2 3107
-1196.96 1000.2 3107
-1189.53 1000.2 3107
-1175.25 994.405 3089
-1167.87 994.405 3089
-1139.44 976.378 3033
-1151.23 992.796 3084
-1143.85 992.796 3084
-1136.48 992.796 3084
-1129.1 992.796 3084
-1121.73 992.796 3084
-1124.47 1001.81 3112
-1121.34 1005.67 3124
-1113.86 1005.67 3124
-1106.39 1005.67 3124
-1092.94 1000.2 3107
-1085.51 1000.2 3107
-1056.22 979.919 3044
-1048.95 979.919 3044
-1037.9 976.378 3033
-1026.91 972.837 3022
-1023.4 976.378 3033
-1016.14 976.378 3033
-1020.2 987.323 3067
-1014.52 988.933 3072
-1007.17 988.933 3072
-999.825 988.933 3072
-992.479 988.933 3072
-983.529 987.323 3067
-977.787 988.933 3072
-970.441 988.933 3072
-966.857 992.796 3084
-959.482 992.796 3084
-952.107 992.796 3084
-941.056 988.933 3072
-935.534 990.864 3078
-935.109 998.268 3101
-929.489 1000.2 3107
-922.059 1000.2 3107
-914.629 1000.2 3107
-907.199 1000.2 3107
-901.218 1001.81 3112
-893.776 1001.81 3112
-886.334 1001.81 3112
-878.892 1001.81 3112
-871.451 1001.81 3112
-860.955 998.268 3101
-850.237 994.405 3089
-841.485 992.796 3084
-835.463 994.405 3089
-828.076 994.405 3089
-820.69 994.405 3089
-813.303 994.405 3089
-805.916 994.405 3089
-794.135 988.933 3072
-785.508 987.323 3067
-776.652 985.392 3061
-769.332 985.392 3061
-756.535 978.309 3039
-746.556 974.768 3028
-732.479 965.755 3000
-721.437 960.604 2984
-714.301 960.604 2984
-707.165 960.604 2984
-698.857 958.994 2979
-690.572 957.385 2974
-683.46 957.385 2974
-669.071 947.083 2942
-662.036 947.083 2942
-657.45 950.624 2953
-651.489 952.234 2958
-644.416 952.234 2958
-638.42 953.844 2963
-631.334 953.844 2963
-624.249 953.844 2963
-613.831 948.693 2947
-605.754 947.083 2942
-598.719 947.083 2942
-591.684 947.083 2942
-583.655 945.474 2937
-575.65 943.864 2932
-567.669 942.255 2927
-560.669 942.255 2927
-553.67 942.255 2927
-543.683 937.104 2911
-534.878 933.885 2901
-528.85 935.494 2906
-523.877 939.035 2917
-516.901 939.035 2917
-509.926 939.035 2917
-502.951 939.035 2917
-495.975 939.035 2917
-487.994 937.104 2911
-479.38 933.885 2901
-472.443 933.885 2901
-466.308 935.494 2906
-459.359 935.494 2906
-454.901 940.645 2922
-451.746 948.693 2947
-447.113 953.844 2963
-440.028 953.844 2963
-437.618 964.145 2995
-432.756 969.296 3011
-427.958 974.768 3028
-420.717 974.768 3028
-415.661 979.919 3044
-409.858 983.46 3055
-404.133 987.323 3067
-396.799 987.323 3067
-389.465 987.323 3067
-382.131 987.323 3067
-375.408 988.933 3072
-368.062 988.933 3072
-362.712 994.405 3089
-355.325 994.405 3089
-347.939 994.405 3089
-340.552 994.405 3089
-333.165 994.405 3089
-327.677 1000.2 3107
-320.247 1000.2 3107
-312.817 1000.2 3107
-306.469 1003.74 3118
-300.163 1007.6 3130
-292.678 1007.6 3130
-285.194 1007.6 3130
-276.644 1003.74 3118
-267.72 998.268 3101
-260.305 998.268 3101
-252.89 998.268 3101
-245.474 998.268 3101
-237.137 994.405 3089
-230.643 998.268 3101
-224.452 1003.74 3118
-216.995 1003.74 3118
-209.943 1005.67 3124
-202.861 1007.6 3130
-195.376 1007.6 3130
-187.892 1007.6 3130
-179.369 1001.81 3112
-171.928 1001.81 3112
-164.486 1001.81 3112
-83.0992 694.7 2158
-78.4444 699.206 2172
-73.2505 699.206 2172
-68.0566 699.206 2172
-62.718 697.597 2167
-57.536 697.597 2167
-52.3541 697.597 2167
-47.1068 696.631 2164
-41.8739 695.665 2161
-36.7063 695.665 2161
-31.4949 694.7 2158
-26.3345 694.7 2158
-21.174 694.7 2158
-16.0136 694.7 2158
-10.8532 694.7 2158
-5.69273 694.7 2158
-0.532296 694.7 2158
4.62814 694.7 2158
9.78857 694.7 2158
14.9282 693.734 2155
20.0628 693.09 2153
25.1411 691.158 2147
30.3175 692.124 2150
35.4588 692.124 2150
40.6567 693.09 2153
45.8052 693.09 2153
51.001 693.734 2155
56.1543 693.734 2155
61.7912 699.206 2172
67.0776 700.172 2175
72.4781 702.104 2181
77.6935 702.104 2181
83.099 703.713 2186
88.6901 706.61 2195
94.1957 708.542 2201
99.459 708.542 2201
105.008 710.474 2207
110.685 713.049 2215
116.296 714.98 2221
121.607 714.98 2221
127.09 715.946 2224
132.944 718.843 2233
138.283 718.843 2233
143.623 718.843 2233
148.963 718.843 2233
154.303 718.843 2233
159.643 718.843 2233
164.096 714.98 2221
169.407 714.98 2221
174.246 713.049 2215
179.543 713.049 2215
184.673 712.405 2213
189.707 711.439 2210
194.992 711.439 2210
200.277 711.439 2210
205.561 711.439 2210
210.846 711.439 2210
216.131 711.439 2210
221.416 711.439 2210
226.7 711.439 2210
231.985 711.439 2210
478.254 1007.6 3130
485.739 1007.6 3130
493.223 1007.6 3130
500.708 1007.6 3130
508.193 1007.6 3130
515.678 1007.6 3130
521.157 1003.74 3118
527.596 1001.81 3112
535.037 1001.81 3112
542.479 1001.81 3112
549.921 1001.81 3112
557.363 1001.81 3112
562.808 998.268 3101
571.327 1000.2 3107
578.756 1000.2 3107
586.186 1000.2 3107
593.616 1000.2 3107
599.885 998.268 3101
609.455 1001.81 3112
616.896 1001.81 3112
626.746 1005.67 3124
634.216 1005.67 3124
641.686 1005.67 3124
649.157 1005.67 3124
651.793 998.268 3101
655.595 992.796 3084
662.969 992.796 3084
666.649 987.323 3067
673.983 987.323 3067
676.208 979.919 3044
683.487 979.919 3044
685.774 972.837 3022
690.478 969.296 3011
695.129 965.755 3000
702.303 965.755 3000
704.511 958.994 2979
707.812 953.844 2963
711.037 948.693 2947
718.084 948.693 2947
725.132 948.693 2947
732.179 948.693 2947
743.239 953.844 2963
750.325 953.844 2963
757.41 953.844 2963
764.496 953.844 2963
774.446 957.385 2974
781.557 957.385 2974
792.912 962.535 2990
