ply
format ascii 1.0
comment File generated
element vertex 2254
property float x
property float y
property float z
end_header
1364.75 1123.04 2239
1370.1 1123.04 2239
1375.46 1123.04 2239
1380.81 1123.04 2239
1388.02 1124.55 2242
1408.92 1137.08 2267
1451.78 1167.18 2327
1457.34 1167.18 2327
1469.19 1172.2 2337
1474.78 1172.2 2337
1480.37 1172.2 2337
1483.41 1170.19 2333
1488.99 1170.19 2333
1490.73 1167.18 2327
1496.29 1167.18 2327
1497.34 1163.67 2320
1502.89 1163.67 2320
1502.58 1159.15 2311
1508.11 1159.15 2311
1488.75 1140.09 2273
1483.67 1132.07 2257
1483.12 1127.55 2248
1482.54 1123.04 2239
1487.9 1123.04 2239
1487.25 1118.53 2230
1486.56 1114.01 2221
1489.85 1112.51 2218
1495.16 1112.51 2218
1498.43 1111 2215
1503.73 1111 2215
1509.02 1111 2215
1520.47 1115.52 2224
1525.79 1115.52 2224
1543.5 1124.55 2242
1557.15 1130.56 2254
1577.79 1141.6 2276
1583.24 1141.6 2276
1597.06 1147.62 2288
1602.53 1147.62 2288
1608 1147.62 2288
1613.47 1147.62 2288
1618.94 1147.62 2288
1624.41 1147.62 2288
1634.87 1151.13 2295
1648.94 1157.15 2307
1654.45 1157.15 2307
1671.48 1165.17 2323
1679.92 1167.18 2327
1689.83 1170.19 2333
1695.41 1170.19 2333
1703.91 1172.2 2337
1709.5 1172.2 2337
1715.09 1172.2 2337
1720.67 1172.2 2337
1723.31 1170.19 2333
1721.48 1165.17 2323
1727.03 1165.17 2323
1720.65 1157.15 2307
1719.44 1152.63 2298
1717.42 1147.62 2288
1709.34 1138.59 2270
1714.77 1138.59 2270
1720.2 1138.59 2270
1727.91 1140.09 2273
1733.34 1140.09 2273
1738.78 1140.09 2273
-1534.86 1096.15 2175
-1529.66 1096.15 2175
-1524.45 1096.15 2175
-1519.25 1096.15 2175
-1504.31 1089.09 2161
-1499.14 1089.09 2161
-1493.97 1089.09 2161
-1486.74 1087.58 2158
-1481.58 1087.58 2158
-1473 1085.06 2153
-1467.85 1085.06 2153
-1462.7 1085.06 2153
-1457.55 1085.06 2153
-1453.75 1086.07 2155
-1448.6 1086.07 2155
-1443.44 1086.07 2155
-1440.29 1087.58 2158
-1437.13 1089.09 2161
-1433.95 1090.61 2164
-1428.77 1090.61 2164
-1425.57 1092.12 2167
-1429.57 1099.17 2181
-1426.31 1100.69 2184
-1421.09 1100.69 2184
-1415.86 1100.69 2184
-1408.7 1099.17 2181
-1403.49 1099.17 2181
-1394.43 1096.15 2175
-1389.23 1096.15 2175
-1384.02 1096.15 2175
-1378.82 1096.15 2175
-1369.83 1093.13 2169
-1364.65 1093.13 2169
-1359.46 1093.13 2169
-1354.27 1093.13 2169
-1347.84 1092.12 2167
-1340.8 1090.61 2164
-1335.63 1090.61 2164
-1330.45 1090.61 2164
-1325.28 1090.61 2164
-1321.93 1092.12 2167
-1319.79 1094.64 2172
-1321.86 1100.69 2184
-1316.64 1100.69 2184
-1311.41 1100.69 2184
-1306.19 1100.69 2184
-1300.97 1100.69 2184
-1292.19 1097.66 2178
-1285.2 1096.15 2175
-1278.24 1094.64 2172
-1273.04 1094.64 2172
-1267.85 1094.64 2172
-1266.14 1097.66 2178
-1260.94 1097.66 2178
-1255.73 1097.66 2178
-1250.52 1097.66 2178
-1241.88 1094.64 2172
-1236.69 1094.64 2172
-1234.89 1097.66 2178
-1229.69 1097.66 2178
-1224.48 1097.66 2178
-1219.27 1097.66 2178
-1214.06 1097.66 2178
-1203.86 1093.13 2169
-1195.91 1090.61 2164
-1187.43 1087.58 2158
-1180.63 1086.07 2155
-1175.47 1086.07 2155
-1165.98 1082.04 2147
-1162.46 1083.55 2150
-1157.32 1083.55 2150
-1152.18 1083.55 2150
-1147.04 1083.55 2150
-1141.9 1083.55 2150
-1133.59 1080.53 2144
-1128.46 1080.53 2144
-1123.33 1080.53 2144
-1118.2 1080.53 2144
-1114.64 1082.04 2147
-1109.5 1082.04 2147
-1104.37 1082.04 2147
-1096.67 1079.52 2142
-1091.55 1079.52 2142
-1088.96 1082.04 2147
-1083.83 1082.04 2147
-1084.22 1087.58 2158
-1082.06 1090.61 2164
-1078.38 1092.12 2167
-1073.2 1092.12 2167
-1068.02 1092.12 2167
-1062.84 1092.12 2167
-1058.63 1093.13 2169
-1053.44 1093.13 2169
-1054.06 1099.17 2181
-1051.24 1101.69 2186
-1053.19 1109.25 2201
-1047.93 1109.25 2201
-1044.09 1110.77 2204
-1041.65 1113.79 2210
-1036.36 1113.79 2210
-1031.08 1113.79 2210
-1028.11 1116.31 2215
-1024.2 1117.82 2218
-1027.17 1126.89 2236
-1021.82 1126.89 2236
-1016.47 1126.89 2236
-1011.13 1126.89 2236
-1005.78 1126.89 2236
-999.09 1125.38 2233
-993.75 1125.38 2233
-987.082 1123.87 2230
-981.75 1123.87 2230
-972.476 1119.33 2221
-963.681 1115.3 2213
-958.389 1115.3 2213
-953.098 1115.3 2213
-947.806 1115.3 2213
-939.958 1112.28 2207
-933.41 1110.77 2204
-928.14 1110.77 2204
-922.869 1110.77 2204
-917.599 1110.77 2204
-912.328 1110.77 2204
-907.058 1110.77 2204
-901.788 1110.77 2204
-895.297 1109.25 2201
-886.394 1104.72 2192
-881.152 1104.72 2192
-877.109 1106.23 2195
-871.861 1106.23 2195
-866.612 1106.23 2195
-862.54 1107.74 2198
-858.454 1109.25 2201
-853.191 1109.25 2201
-847.927 1109.25 2201
-843.813 1110.77 2204
-838.542 1110.77 2204
-833.272 1110.77 2204
-828.001 1110.77 2204
-822.731 1110.77 2204
-817.461 1110.77 2204
-812.19 1110.77 2204
-806.92 1110.77 2204
-806.741 1117.82 2218
-805.774 1123.87 2230
-800.441 1123.87 2230
-795.108 1123.87 2230
-794.026 1129.92 2242
-788.664 1129.92 2242
-783.303 1129.92 2242
-786.616 1142.52 2267
-781.195 1142.52 2267
-775.774 1142.52 2267
-766.955 1137.48 2257
-761.558 1137.48 2257
-753.145 1132.94 2248
-747.77 1132.94 2248
-742.394 1132.94 2248
-737.018 1132.94 2248
-730.666 1131.43 2245
-725.298 1131.43 2245
-718.005 1128.4 2239
-710.742 1125.38 2233
-703.506 1122.36 2227
-698.181 1122.36 2227
-690.989 1119.33 2221
-683.825 1116.31 2215
-675.159 1110.77 2204
-669.888 1110.77 2204
-661.904 1106.23 2195
-655.758 1104.72 2192
-649.626 1103.21 2189
-642.036 1099.17 2181
-636.821 1099.17 2181
-629.868 1096.15 2175
-624.667 1096.15 2175
-621.174 1099.17 2181
-618.218 1103.21 2189
-612.984 1103.21 2189
-609.415 1106.23 2195
-604.166 1106.23 2195
-598.917 1106.23 2195
-593.668 1106.23 2195
-590.028 1109.25 2201
-585.562 1110.77 2204
-584.767 1119.33 2221
-579.456 1119.33 2221
-575.696 1122.36 2227
-571.139 1123.87 2230
-567.329 1126.89 2236
-561.982 1126.89 2236
-557.382 1128.4 2239
-552.767 1129.92 2242
-547.406 1129.92 2242
-542.044 1129.92 2242
-537.401 1131.43 2245
-532.033 1131.43 2245
-526.664 1131.43 2245
-521.296 1131.43 2245
-515.927 1131.43 2245
-509.877 1129.92 2242
-504.515 1129.92 2242
-498.486 1128.4 2239
-493.793 1129.92 2242
-488.431 1129.92 2242
-483.07 1129.92 2242
-477.709 1129.92 2242
-472.348 1129.92 2242
-467.611 1131.43 2245
-462.86 1132.94 2248
-457.485 1132.94 2248
-452.109 1132.94 2248
-446.137 1131.43 2245
-440.769 1131.43 2245
-435.4 1131.43 2245
-428.882 1128.4 2239
-422.393 1125.38 2233
-415.933 1122.36 2227
-410.608 1122.36 2227
-403.644 1117.82 2218
-396.365 1112.28 2207
-391.087 1112.28 2207
-385.81 1112.28 2207
-380.532 1112.28 2207
-375.254 1112.28 2207
-370.983 1115.3 2213
-365.691 1115.3 2213
-360.399 1115.3 2213
-355.107 1115.3 2213
-349.815 1115.3 2213
-344.523 1115.3 2213
-339.231 1115.3 2213
-333.034 1112.28 2207
-327.756 1112.28 2207
-322.917 1113.79 2210
-317.632 1113.79 2210
-315.174 1123.87 2230
-310.675 1126.89 2236
-306.967 1132.94 2248
-301.591 1132.94 2248
-297.006 1135.96 2254
-292.521 1139.49 2261
-287.115 1139.49 2261
-281.708 1139.49 2261
-275.079 1134.45 2251
-268.978 1131.43 2245
-263.609 1131.43 2245
-257.55 1128.4 2239
-252.196 1128.4 2239
-246.842 1128.4 2239
-241.488 1128.4 2239
-236.134 1128.4 2239
-230.471 1126.89 2236
-225.124 1126.89 2236
-219.777 1126.89 2236
-214.43 1126.89 2236
-209.083 1126.89 2236
-203.462 1125.38 2233
-198.123 1125.38 2233
-192.783 1125.38 2233
-187.191 1123.87 2230
-181.859 1123.87 2230
-175.339 1116.31 2215
-170.042 1116.31 2215
-164.745 1116.31 2215
-159.304 1115.3 2213
-154.013 1115.3 2213
-148.721 1115.3 2213
-143.04 1112.28 2207
-137.762 1112.28 2207
-132.304 1110.77 2204
-127.034 1110.77 2204
-121.764 1110.77 2204
-117.233 1117.82 2218
-112.686 1125.38 2233
-107.491 1126.89 2236
-102.144 1126.89 2236
-96.7967 1126.89 2236
-91.2044 1123.87 2230
-85.8717 1123.87 2230
-80.4308 1122.36 2227
-75.0042 1120.84 2224
-69.5919 1119.33 2221
-63.9625 1113.79 2210
-58.6777 1113.79 2210
-53.103 1107.74 2198
-47.651 1103.21 2189
-42.3196 1100.69 2184
-37.097 1100.69 2184
-31.8306 1099.17 2181
-26.6151 1099.17 2181
-21.3997 1099.17 2181
-16.1843 1099.17 2181
-10.9688 1099.17 2181
134.32 1093.13 2169
139.507 1093.13 2169
144.694 1093.13 2169
149.88 1093.13 2169
155.067 1093.13 2169
160.254 1093.13 2169
165.288 1092.12 2167
171.099 1096.15 2175
176.3 1096.15 2175
181.501 1096.15 2175
186.703 1096.15 2175
192.433 1099.17 2181
198.373 1103.21 2189
203.887 1104.72 2192
209.129 1104.72 2192
214.371 1104.72 2192
219.312 1103.21 2189
224.546 1103.21 2189
229.781 1103.21 2189
235.982 1107.74 2198
241.896 1110.77 2204
247.84 1113.79 2210
253.124 1113.79 2210
258.76 1115.3 2213
264.052 1115.3 2213
269.344 1115.3 2213
274.263 1113.79 2210
280.181 1116.31 2215
286.251 1119.33 2221
292.743 1123.87 2230
298.076 1123.87 2230
303.817 1125.38 2233
309.156 1125.38 2233
314.496 1125.38 2233
319.406 1123.87 2230
324.739 1123.87 2230
330.516 1125.38 2233
337.66 1131.43 2245
343.029 1131.43 2245
349.794 1135.96 2254
356.287 1139.49 2261
361.694 1139.49 2261
367.1 1139.49 2261
373.001 1141 2264
378.415 1141 2264
383.829 1141 2264
388.727 1139.49 2261
394.134 1139.49 2261
398.834 1137.48 2257
403.694 1135.96 2254
409.084 1135.96 2254
413.371 1132.94 2248
417.629 1129.92 2242
422.99 1129.92 2242
429.497 1132.94 2248
434.873 1132.94 2248
440.836 1134.45 2251
446.814 1135.96 2254
452.204 1135.96 2254
457.594 1135.96 2254
462.984 1135.96 2254
466.504 1131.43 2245
471.872 1131.43 2245
475.327 1126.89 2236
478.095 1120.84 2224
483.413 1120.84 2224
488.731 1120.84 2224
494.716 1122.36 2227
500.041 1122.36 2227
506.048 1123.87 2230
512.756 1126.89 2236
519.493 1129.92 2242
524.855 1129.92 2242
530.216 1129.92 2242
534.86 1128.4 2239
540.215 1128.4 2239
544.107 1125.38 2233
546.494 1119.33 2221
550.314 1116.31 2215
555.611 1116.31 2215
558.882 1112.28 2207
564.159 1112.28 2207
570.985 1115.3 2213
577.579 1117.82 2218
582.883 1117.82 2218
588.187 1117.82 2218
593.491 1117.82 2218
598.795 1117.82 2218
602.737 1115.3 2213
608.029 1115.3 2213
613.321 1115.3 2213
618.613 1115.3 2213
623.905 1115.3 2213
629.197 1115.3 2213
634.489 1115.3 2213
645.563 1125.38 2233
652.651 1128.4 2239
658.005 1128.4 2239
664.248 1129.92 2242
669.61 1129.92 2242
675.874 1131.43 2245
681.243 1131.43 2245
686.611 1131.43 2245
691.055 1129.92 2242
696.416 1129.92 2242
701.777 1129.92 2242
705.246 1126.89 2236
711.547 1128.4 2239
716.901 1128.4 2239
722.255 1128.4 2239
728.584 1129.92 2242
733.945 1129.92 2242
739.307 1129.92 2242
744.668 1129.92 2242
748.022 1126.89 2236
752.358 1125.38 2233
757.698 1125.38 2233
763.038 1125.38 2233
766.313 1122.36 2227
768.52 1117.82 2218
772.079 1115.3 2213
777.371 1115.3 2213
780.541 1112.28 2207
785.819 1112.28 2207
793.964 1116.31 2215
799.261 1116.31 2215
804.558 1116.31 2215
810.951 1117.82 2218
819.567 1122.36 2227
824.893 1122.36 2227
830.218 1122.36 2227
829.165 1113.79 2210
834.45 1113.79 2210
849.614 1126.89 2236
856.108 1128.4 2239
861.462 1128.4 2239
870.301 1132.94 2248
876.845 1134.45 2251
887.323 1141 2264
892.737 1141 2264
905.291 1150.08 2282
913.143 1153.1 2288
922.629 1158.14 2298
928.124 1158.14 2298
933.62 1158.14 2298
936.663 1155.11 2292
942.144 1155.11 2292
947.625 1155.11 2292
955.601 1158.14 2298
961.096 1158.14 2298
966.591 1158.14 2298
970.817 1156.63 2295
977.581 1158.14 2298
985.643 1161.16 2304
991.153 1161.16 2304
996.662 1161.16 2304
1002.17 1161.16 2304
1006.37 1159.65 2301
1011.87 1159.65 2301
1018.7 1161.16 2304
1024.21 1161.16 2304
1029.72 1161.16 2304
1033.88 1159.65 2301
1039.38 1159.65 2301
1040.8 1155.11 2292
1046.28 1155.11 2292
1051.76 1155.11 2292
1057.24 1155.11 2292
1062.72 1155.11 2292
1066.34 1153.1 2288
1070.41 1151.59 2285
1075.87 1151.59 2285
1079.91 1150.08 2282
1083.94 1148.56 2279
1086.53 1145.54 2273
1093.4 1147.05 2276
1098.84 1147.05 2276
1104.29 1147.05 2276
1109.73 1147.05 2276
1115.17 1147.05 2276
1120.62 1147.05 2276
1123.09 1144.03 2270
1130.01 1145.54 2273
1136.94 1147.05 2276
1142.39 1147.05 2276
1147.83 1147.05 2276
1153.27 1147.05 2276
1157.19 1145.54 2273
1162.62 1145.54 2273
1163.43 1141 2264
1168.85 1141 2264
1174.26 1141 2264
1179.67 1141 2264
1185.09 1141 2264
1190.5 1141 2264
1195.92 1141 2264
1201.33 1141 2264
1206.74 1141 2264
1208.41 1137.48 2257
1210.58 1134.45 2251
1215.96 1134.45 2251
1221.35 1134.45 2251
1226.73 1134.45 2251
1228.83 1131.43 2245
1229.25 1126.89 2236
1234.59 1126.89 2236
1229.96 1117.82 2218
1233.59 1116.31 2215
1237.77 1115.3 2213
1243.06 1115.3 2213
1246.66 1113.79 2210
1250.25 1112.28 2207
1253.82 1110.77 2204
1248.81 1101.69 2186
1254.03 1101.69 2186
1259.26 1101.69 2186
1264.49 1101.69 2186
1269.72 1101.69 2186
1274.94 1101.69 2186
1271.97 1094.64 2172
1278.93 1096.15 2175
1285.9 1097.66 2178
1291.11 1097.66 2178
1296.32 1097.66 2178
1305.11 1100.69 2184
1322.33 1110.77 2204
1339.65 1120.84 2224
1344.97 1120.84 2224
1355.75 1125.38 2233
1361.09 1125.38 2233
1366.43 1125.38 2233
1369.93 1123.87 2230
1375.26 1123.87 2230
1388.02 1129.92 2242
1400.84 1135.96 2254
1447.41 1169.23 2320
1452.96 1169.23 2320
1464.79 1174.27 2330
1470.36 1174.27 2330
1475.94 1174.27 2330
1479.6 1172.75 2327
1482.61 1170.74 2323
1484.32 1167.71 2317
1489.86 1167.71 2317
1491.53 1164.69 2311
1497.06 1164.69 2311
1472.03 1141 2264
1477.44 1141 2264
1478.27 1137.48 2257
1481.69 1135.96 2254
1481.15 1131.43 2245
1480.55 1126.89 2236
1485.9 1126.89 2236
1485.25 1122.36 2227
1484.55 1117.82 2218
1487.84 1116.31 2215
1493.13 1116.31 2215
1493.02 1112.28 2207
1500.33 1113.79 2210
1505.62 1113.79 2210
1514.32 1116.31 2215
1519.62 1116.31 2215
1539.37 1126.89 2236
1555.08 1134.45 2251
1571.56 1142.52 2267
1576.98 1142.52 2267
1588.68 1147.05 2276
1596.22 1148.56 2279
1601.67 1148.56 2279
1607.12 1148.56 2279
1610.45 1147.05 2276
1618.02 1148.56 2279
1623.47 1148.56 2279
1640.36 1156.63 2295
1645.85 1156.63 2295
1657.81 1161.16 2304
1665.49 1162.67 2307
1671 1162.67 2307
1676.52 1162.67 2307
1684.95 1164.69 2311
1690.48 1164.69 2311
1696 1164.69 2311
1696.38 1161.16 2304
1701.89 1161.16 2304
1698.5 1155.11 2292
1703.98 1155.11 2292
1704.24 1151.59 2285
1696.24 1142.52 2267
1680.64 1128.4 2239
1666.42 1115.3 2213
1671.71 1115.3 2213
1670.18 1110.77 2204
1675.45 1110.77 2204
1709.7 1129.92 2242
1715.06 1129.92 2242
-1531.05 1091.23 2155
-1525.9 1091.23 2155
-1534.86 1101.36 2175
-1529.66 1101.36 2175
-1524.45 1101.36 2175
-1519.25 1101.36 2175
-1504.31 1094.27 2161
-1499.14 1094.27 2161
-1493.97 1094.27 2161
-1486.74 1092.75 2158
-1481.58 1092.75 2158
-1473 1090.22 2153
-1467.85 1090.22 2153
-1462.7 1090.22 2153
-1457.55 1090.22 2153
-1453.75 1091.23 2155
-1448.6 1091.23 2155
-1443.44 1091.23 2155
-1440.29 1092.75 2158
-1437.13 1094.27 2161
-1433.95 1095.79 2164
-1428.77 1095.79 2164
-1425.57 1097.31 2167
-1429.57 1104.4 2181
-1426.31 1105.92 2184
-1421.09 1105.92 2184
-1415.86 1105.92 2184
-1408.7 1104.4 2181
-1403.49 1104.4 2181
-1394.43 1101.36 2175
-1389.23 1101.36 2175
-1384.02 1101.36 2175
-1378.82 1101.36 2175
-1369.83 1098.32 2169
-1364.65 1098.32 2169
-1359.46 1098.32 2169
-1354.27 1098.32 2169
-1347.84 1097.31 2167
-1340.8 1095.79 2164
-1333.78 1094.27 2161
-1330.45 1095.79 2164
-1325.28 1095.79 2164
-1320.1 1095.79 2164
-1316.75 1097.31 2167
-1320.04 1104.4 2181
-1314.83 1104.4 2181
-1309.61 1104.4 2181
-1304.4 1104.4 2181
-1299.18 1104.4 2181
-1290.41 1101.36 2175
-1283.43 1099.84 2172
-1278.24 1099.84 2172
-1273.04 1099.84 2172
-1267.85 1099.84 2172
-1264.4 1101.36 2175
-1259.2 1101.36 2175
-1254 1101.36 2175
-1248.8 1101.36 2175
-1240.17 1098.32 2169
-1234.98 1098.32 2169
-1231.49 1099.84 2172
-1226.3 1099.84 2172
-1221.1 1099.84 2172
-1214.23 1098.32 2169
-1209.04 1098.32 2169
-1201.08 1095.79 2164
-1192.59 1092.75 2158
-1184.68 1090.22 2153
-1176.24 1087.18 2147
-1171.11 1087.18 2147
-1164.35 1085.66 2144
-1159.22 1085.66 2144
-1155.71 1087.18 2147
-1150.57 1087.18 2147
-1145.44 1087.18 2147
-1138.71 1085.66 2144
-1132.53 1084.65 2142
-1127.41 1084.65 2142
-1119.14 1081.61 2136
-1115.6 1083.13 2139
-1110.48 1083.13 2139
-1105.37 1083.13 2139
-1100.25 1083.13 2139
-1095.14 1083.13 2139
-1090.02 1083.13 2139
-1086.43 1084.65 2142
-1081.31 1084.65 2142
-1082.72 1091.23 2155
-1080.56 1094.27 2161
-1076.89 1095.79 2164
-1071.71 1095.79 2164
-1066.54 1095.79 2164
-1061.36 1095.79 2164
-1056.19 1095.79 2164
-1051.01 1095.79 2164
-1048.26 1098.32 2169
-1048.84 1104.4 2181
-1046.02 1106.93 2186
-1040.79 1106.93 2186
-1035.56 1106.93 2186
-1040.23 1117.56 2207
-1034.96 1117.56 2207
-1029.68 1117.56 2207
-1027.18 1120.6 2213
-1024.2 1123.13 2218
-1027.17 1132.25 2236
-1021.82 1132.25 2236
-1016.47 1132.25 2236
-1011.13 1132.25 2236
-1005.78 1132.25 2236
-999.09 1130.73 2233
-993.75 1130.73 2233
-987.082 1129.21 2230
-981.75 1129.21 2230
-968.973 1120.6 2213
-962.375 1119.08 2210
-958.389 1120.6 2213
-953.098 1120.6 2213
-947.806 1120.6 2213
-938.681 1116.04 2204
-933.41 1116.04 2204
-928.14 1116.04 2204
-922.869 1116.04 2204
-917.599 1116.04 2204
-912.328 1116.04 2204
-907.058 1116.04 2204
-900.56 1114.53 2201
-891.636 1109.97 2192
-885.181 1108.45 2189
-877.937 1105.92 2184
-872.714 1105.92 2184
-866.3 1104.4 2181
-861.084 1104.4 2181
-855.869 1104.4 2181
-850.653 1104.4 2181
-844.275 1102.88 2178
-839.067 1102.88 2178
-833.859 1102.88 2178
-828.65 1102.88 2178
-823.442 1102.88 2178
-818.234 1102.88 2178
-813.026 1102.88 2178
-807.817 1102.88 2178
-802.609 1102.88 2178
-799.597 1105.92 2184
-798.376 1111.49 2195
-793.127 1111.49 2195
-787.878 1111.49 2195
-783.699 1113.01 2198
-783.755 1120.6 2213
-787.609 1133.77 2239
-782.255 1133.77 2239
-776.901 1133.77 2239
-771.547 1133.77 2239
-767.219 1135.29 2242
-761.858 1135.29 2242
-756.497 1135.29 2242
-749.125 1132.25 2236
-743.778 1132.25 2236
-737.44 1130.73 2233
-731.117 1129.21 2230
-725.784 1129.21 2230
-720.452 1129.21 2230
-715.119 1129.21 2230
-708.832 1127.69 2227
-701.611 1124.65 2221
-696.3 1124.65 2221
-689.122 1121.61 2215
-679.503 1114.53 2201
-672.402 1111.49 2195
-667.153 1111.49 2195
-660.095 1108.45 2189
-654.86 1108.45 2189
-646.361 1102.88 2178
-641.153 1102.88 2178
-635.945 1102.88 2178
-629.868 1101.36 2175
-623.805 1099.84 2172
-620.32 1102.88 2178
-616.806 1105.92 2184
-611.584 1105.92 2184
-606.361 1105.92 2184
-601.138 1105.92 2184
-596.461 1106.93 2186
-591.234 1106.93 2186
-587.615 1109.97 2192
-584.765 1114.53 2201
-580.291 1116.04 2204
-575.021 1116.04 2204
-569.75 1116.04 2204
-564.48 1116.04 2204
-560.732 1119.08 2210
-555.447 1119.08 2210
-552.901 1124.65 2221
-547.589 1124.65 2221
-542.278 1124.65 2221
-536.967 1124.65 2221
-531.656 1124.65 2221
-529.189 1130.73 2233
-523.849 1130.73 2233
-518.509 1130.73 2233
-513.17 1130.73 2233
-507.148 1129.21 2230
-501.815 1129.21 2230
-496.482 1129.21 2230
-492.471 1132.25 2236
-487.124 1132.25 2236
-481.777 1132.25 2236
-475.791 1130.73 2233
-469.819 1129.21 2230
-464.487 1129.21 2230
-461.625 1135.29 2242
-456.264 1135.29 2242
-450.902 1135.29 2242
-444.945 1133.77 2239
-439.591 1133.77 2239
-433.073 1130.73 2233
-427.159 1129.21 2230
-419.556 1123.13 2218
-413.318 1120.6 2213
-408.026 1120.6 2213
-400.551 1114.53 2201
-394.748 1113.01 2198
-389.492 1113.01 2198
-384.236 1113.01 2198
-378.98 1113.01 2198
-373.724 1113.01 2198
-368.971 1114.53 2201
-363.708 1114.53 2201
-358.444 1114.53 2201
-353.181 1114.53 2201
-347.918 1114.53 2201
-342.655 1114.53 2201
-337.391 1114.53 2201
-331.675 1113.01 2198
-326.419 1113.01 2198
-321.602 1114.53 2201
-316.338 1114.53 2201
-312.347 1119.08 2210
-307.479 1120.6 2213
-304.509 1129.21 2230
-299.176 1129.21 2230
-294.634 1132.25 2236
-290.451 1136.81 2245
-285.083 1136.81 2245
-279.714 1136.81 2245
-273.979 1135.29 2242
-266.461 1126.17 2224
-261.143 1126.17 2224
-255.48 1124.65 2221
-249.493 1121.61 2215
-244.196 1121.61 2215
-238.899 1121.61 2215
-234.236 1124.65 2221
-228.924 1124.65 2221
-223.613 1124.65 2221
-218.302 1124.65 2221
-212.991 1124.65 2221
-207.68 1124.65 2221
-202.096 1123.13 2218
-196.792 1123.13 2218
-191.488 1123.13 2218
-186.184 1123.13 2218
-180.88 1123.13 2218
-175.18 1120.6 2213
-169.888 1120.6 2213
-164.596 1120.6 2213
-159.304 1120.6 2213
-154.013 1120.6 2213
-148.721 1120.6 2213
-143.04 1117.56 2207
-137.762 1117.56 2207
-132.124 1114.53 2201
-126.861 1114.53 2201
-121.598 1114.53 2201
-116.969 1120.6 2213
-112.081 1124.65 2221
-107.346 1130.73 2233
-102.007 1130.73 2233
-96.6668 1130.73 2233
-91.0817 1127.69 2227
-85.7562 1127.69 2227
-80.3224 1126.17 2224
-75.0042 1126.17 2224
-69.5919 1124.65 2221
-63.9625 1119.08 2210
-58.6777 1119.08 2210
-53.103 1113.01 2198
-47.651 1108.45 2189
-42.3196 1105.92 2184
-37.097 1105.92 2184
-31.8306 1104.4 2181
-26.6151 1104.4 2181
-21.3997 1104.4 2181
-16.1843 1104.4 2181
-10.9688 1104.4 2181
134.32 1098.32 2169
139.507 1098.32 2169
144.694 1098.32 2169
149.88 1098.32 2169
155.067 1098.32 2169
160.254 1098.32 2169
165.288 1097.31 2167
171.099 1101.36 2175
176.3 1101.36 2175
181.752 1102.88 2178
186.96 1102.88 2178
192.433 1104.4 2181
198.102 1106.93 2186
203.608 1108.45 2189
208.843 1108.45 2189
214.077 1108.45 2189
219.011 1106.93 2186
224.239 1106.93 2186
229.466 1106.93 2186
235.337 1109.97 2192
241.567 1114.53 2201
247.167 1116.04 2204
252.437 1116.04 2204
258.409 1119.08 2210
263.694 1119.08 2210
268.979 1119.08 2210
274.263 1119.08 2210
280.181 1121.61 2215
286.251 1124.65 2221
292.743 1129.21 2230
298.076 1129.21 2230
303.817 1130.73 2233
309.156 1130.73 2233
314.496 1130.73 2233
319.406 1129.21 2230
324.739 1129.21 2230
330.516 1130.73 2233
337.66 1136.81 2245
343.029 1136.81 2245
349.794 1141.36 2254
356.287 1144.91 2261
361.694 1144.91 2261
367.1 1144.91 2261
373.001 1146.43 2264
378.415 1146.43 2264
383.829 1146.43 2264
388.727 1144.91 2261
394.134 1144.91 2261
398.834 1142.88 2257
403.694 1141.36 2254
409.084 1141.36 2254
413.371 1138.33 2248
417.629 1135.29 2242
422.99 1135.29 2242
429.497 1138.33 2248
434.873 1138.33 2248
440.836 1139.84 2251
446.814 1141.36 2254
452.204 1141.36 2254
457.594 1141.36 2254
462.984 1141.36 2254
466.504 1136.81 2245
471.872 1136.81 2245
475.327 1132.25 2236
478.095 1126.17 2224
483.413 1126.17 2224
488.731 1126.17 2224
494.716 1127.69 2227
500.041 1127.69 2227
506.048 1129.21 2230
512.756 1132.25 2236
519.493 1135.29 2242
524.855 1135.29 2242
530.216 1135.29 2242
534.86 1133.77 2239
540.215 1133.77 2239
544.107 1130.73 2233
546.494 1124.65 2221
550.314 1121.61 2215
555.611 1121.61 2215
558.882 1117.56 2207
564.159 1117.56 2207
570.985 1120.6 2213
577.579 1123.13 2218
582.883 1123.13 2218
588.187 1123.13 2218
593.491 1123.13 2218
598.795 1123.13 2218
602.737 1120.6 2213
608.029 1120.6 2213
613.321 1120.6 2213
618.613 1120.6 2213
623.905 1120.6 2213
629.197 1120.6 2213
634.489 1120.6 2213
645.563 1130.73 2233
652.651 1133.77 2239
658.005 1133.77 2239
664.248 1135.29 2242
669.61 1135.29 2242
675.874 1136.81 2245
681.243 1136.81 2245
686.611 1136.81 2245
691.055 1135.29 2242
696.416 1135.29 2242
701.777 1135.29 2242
705.246 1132.25 2236
711.547 1133.77 2239
716.901 1133.77 2239
722.255 1133.77 2239
728.584 1135.29 2242
733.945 1135.29 2242
739.307 1135.29 2242
744.668 1135.29 2242
748.022 1132.25 2236
752.358 1130.73 2233
757.698 1130.73 2233
763.038 1130.73 2233
766.313 1127.69 2227
768.52 1123.13 2218
772.079 1120.6 2213
777.371 1120.6 2213
780.541 1117.56 2207
783.683 1114.53 2201
788.946 1114.53 2201
794.209 1114.53 2201
799.472 1114.53 2201
804.736 1114.53 2201
809.999 1114.53 2201
815.262 1114.53 2201
820.525 1114.53 2201
825.789 1114.53 2201
833.317 1117.56 2207
841.635 1121.61 2215
854.961 1132.25 2236
860.308 1132.25 2236
866.816 1133.77 2239
875.676 1138.33 2248
881.052 1138.33 2248
886.428 1138.33 2248
898.151 1146.43 2264
910.748 1155.54 2282
917.41 1157.06 2285
922.874 1157.06 2285
928.338 1157.06 2285
933.802 1157.06 2285
942.144 1160.61 2292
947.625 1160.61 2292
953.105 1160.61 2292
958.586 1160.61 2292
964.067 1160.61 2292
967.856 1158.58 2288
975.029 1160.61 2292
983.077 1163.64 2298
988.572 1163.64 2298
994.067 1163.64 2298
999.562 1163.64 2298
1003.75 1162.12 2295
1009.23 1162.12 2295
1014.72 1162.12 2295
1020.21 1162.12 2295
1025.7 1162.12 2295
1029.84 1160.61 2292
1035.32 1160.61 2292
1038.98 1158.58 2288
1044.45 1158.58 2288
1049.93 1158.58 2288
1055.4 1158.58 2288
1060.87 1158.58 2288
1064.94 1157.06 2285
1069 1155.54 2282
1074.46 1155.54 2282
1078.49 1154.02 2279
1081.09 1150.98 2273
1085.09 1149.47 2270
1091.96 1150.98 2273
1097.4 1150.98 2273
1102.83 1150.98 2273
1108.27 1150.98 2273
1113.7 1150.98 2273
1119.14 1150.98 2273
1123.09 1149.47 2270
1130.01 1150.98 2273
1136.94 1152.5 2276
1142.39 1152.5 2276
1147.83 1152.5 2276
1153.27 1152.5 2276
1157.19 1150.98 2273
1162.62 1150.98 2273
1163.43 1146.43 2264
1168.85 1146.43 2264
1174.26 1146.43 2264
1179.67 1146.43 2264
1183.52 1144.91 2261
1188.92 1144.91 2261
1194.33 1144.91 2261
1199.74 1144.91 2261
1205.14 1144.91 2261
1208.41 1142.88 2257
1210.58 1139.84 2251
1215.96 1139.84 2251
1221.35 1139.84 2251
1226.73 1139.84 2251
1228.83 1136.81 2245
1229.25 1132.25 2236
1234.59 1132.25 2236
1229.96 1123.13 2218
1230.81 1119.08 2210
1236.09 1119.08 2210
1241.38 1119.08 2210
1244.97 1117.56 2207
1250.25 1117.56 2207
1243.58 1106.93 2186
1248.81 1106.93 2186
1254.03 1106.93 2186
1259.26 1106.93 2186
1264.49 1106.93 2186
1261.58 1099.84 2172
1266.78 1099.84 2172
1271.97 1099.84 2172
1277.17 1099.84 2172
1282.36 1099.84 2172
1287.55 1099.84 2172
1292.75 1099.84 2172
1305.11 1105.92 2184
1316.94 1111.49 2195
1325.8 1114.53 2201
1332.88 1116.04 2204
1338.15 1116.04 2204
1343.42 1116.04 2204
1352.36 1119.08 2210
1366.24 1126.17 2224
1371.56 1126.17 2224
1388.02 1135.29 2242
1400.84 1141.36 2254
1414.34 1147.95 2267
1419.76 1147.95 2267
1436.5 1157.06 2285
1464.05 1174.78 2320
1469.6 1174.78 2320
1475.15 1174.78 2320
1446.87 1147.95 2267
1452.29 1147.95 2267
1457.71 1147.95 2267
1461.2 1146.43 2264
1460.13 1141.36 2254
1465.52 1141.36 2254
1470.91 1141.36 2254
1476.3 1141.36 2254
1481.69 1141.36 2254
1479.17 1135.29 2242
1478.57 1130.73 2233
1483.91 1130.73 2233
1485.25 1127.69 2227
1484.55 1123.13 2218
1482.46 1117.56 2207
1487.74 1117.56 2207
1488.96 1114.53 2201
1494.22 1114.53 2201
1503.57 1117.56 2207
1514.32 1121.61 2215
1519.62 1121.61 2215
1537.31 1130.73 2233
1550.94 1136.81 2245
1564.62 1142.88 2257
1570.02 1142.88 2257
1582.4 1147.95 2267
1589.92 1149.47 2270
1595.35 1149.47 2270
1600.78 1149.47 2270
1606.2 1149.47 2270
1609.5 1147.95 2267
1614.92 1147.95 2267
1628.92 1154.02 2279
1634.37 1154.02 2279
1639.82 1154.02 2279
1658.99 1163.64 2298
1664.48 1163.64 2298
1669.98 1163.64 2298
1677.66 1165.16 2301
1683.16 1165.16 2301
1688.67 1165.16 2301
1684.6 1158.58 2288
1687.85 1157.06 2285
1679.98 1147.95 2267
1685.4 1147.95 2267
1683.36 1142.88 2257
1675.29 1133.77 2239
1664.88 1123.13 2218
1657.38 1114.53 2201
1664.91 1116.04 2204
1670.18 1116.04 2204
1675.45 1116.04 2204
1689.11 1121.61 2215
1694.41 1121.61 2215
-1531.05 1096.39 2155
-1525.9 1096.39 2155
-1522.86 1097.92 2158
-1517.7 1097.92 2158
-1512.54 1097.92 2158
-1507.38 1097.92 2158
-1498.74 1095.38 2153
-1493.59 1095.38 2153
-1488.44 1095.38 2153
-1479.16 1092.32 2147
-1470.59 1089.78 2142
-1465.47 1089.78 2142
-1463.76 1092.32 2147
-1458.62 1092.32 2147
-1453.49 1092.32 2147
-1448.35 1092.32 2147
-1443.22 1092.32 2147
-1438.09 1092.32 2147
-1430.95 1090.8 2144
-1425.82 1090.8 2144
-1424.67 1093.85 2150
-1419.53 1093.85 2150
-1419.65 1097.92 2158
-1418.42 1100.97 2164
-1413.25 1100.97 2164
-1408.07 1100.97 2164
-1402.9 1100.97 2164
-1397.72 1100.97 2164
-1392.55 1100.97 2164
-1387.37 1100.97 2164
-1384.12 1102.5 2167
-1378.93 1102.5 2167
-1375.02 1103.52 2169
-1369.83 1103.52 2169
-1364.65 1103.52 2169
-1358.21 1102.5 2167
-1353.02 1102.5 2167
-1347.84 1102.5 2167
-1338.94 1099.45 2161
-1333.78 1099.45 2161
-1330.45 1100.97 2164
-1325.28 1100.97 2164
-1320.1 1100.97 2164
-1316.75 1102.5 2167
-1320.04 1109.62 2181
-1314.83 1109.62 2181
-1309.61 1109.62 2181
-1304.4 1109.62 2181
-1299.18 1109.62 2181
-1290.41 1106.57 2175
-1283.43 1105.04 2172
-1278.24 1105.04 2172
-1273.04 1105.04 2172
-1267.85 1105.04 2172
-1264.4 1106.57 2175
-1259.2 1106.57 2175
-1254 1106.57 2175
-1248.8 1106.57 2175
-1240.17 1103.52 2169
-1234.98 1103.52 2169
-1231.49 1105.04 2172
-1226.3 1105.04 2172
-1222.79 1106.57 2175
-1217.59 1106.57 2175
-1212.39 1106.57 2175
-1201.08 1100.97 2164
-1192.59 1097.92 2158
-1184.68 1095.38 2153
-1176.24 1092.32 2147
-1171.11 1092.32 2147
-1164.35 1090.8 2144
-1159.22 1090.8 2144
-1155.71 1092.32 2147
-1150.57 1092.32 2147
-1145.44 1092.32 2147
-1138.71 1090.8 2144
-1132.53 1089.78 2142
-1127.41 1089.78 2142
-1119.14 1086.73 2136
-1115.6 1088.25 2139
-1110.48 1088.25 2139
-1105.37 1088.25 2139
-1100.25 1088.25 2139
-1095.14 1088.25 2139
-1090.02 1088.25 2139
-1086.43 1089.78 2142
-1081.31 1089.78 2142
-1082.72 1096.39 2155
-1080.56 1099.45 2161
-1076.89 1100.97 2164
-1071.71 1100.97 2164
-1066.54 1100.97 2164
-1061.36 1100.97 2164
-1056.19 1100.97 2164
-1051.01 1100.97 2164
-1048.26 1103.52 2169
-1048.84 1109.62 2181
-1046.02 1112.17 2186
-1040.79 1112.17 2186
-1035.56 1112.17 2186
-1040.23 1122.85 2207
-1034.96 1122.85 2207
-1029.68 1122.85 2207
-1027.18 1125.9 2213
-1024.2 1128.45 2218
-1027.17 1137.6 2236
-1021.82 1137.6 2236
-1016.47 1137.6 2236
-1011.13 1137.6 2236
-1005.78 1137.6 2236
-999.09 1136.08 2233
-993.75 1136.08 2233
-987.082 1134.55 2230
-981.75 1134.55 2230
-968.973 1125.9 2213
-962.375 1124.38 2210
-958.389 1125.9 2213
-953.098 1125.9 2213
-947.806 1125.9 2213
-938.681 1121.32 2204
-933.41 1121.32 2204
-928.14 1121.32 2204
-922.869 1121.32 2204
-917.599 1121.32 2204
-912.328 1121.32 2204
-907.058 1121.32 2204
-900.56 1119.8 2201
-891.636 1115.22 2192
-885.181 1113.69 2189
-877.937 1111.15 2184
-872.714 1111.15 2184
-866.3 1109.62 2181
-861.084 1109.62 2181
-855.869 1109.62 2181
-850.653 1109.62 2181
-844.275 1108.1 2178
-839.067 1108.1 2178
-833.859 1108.1 2178
-828.65 1108.1 2178
-823.442 1108.1 2178
-817.107 1106.57 2175
-811.906 1106.57 2175
-807.817 1108.1 2178
-802.609 1108.1 2178
-797.401 1108.1 2178
-793.284 1109.62 2181
-789.875 1112.17 2186
-784.647 1112.17 2186
-779.42 1112.17 2186
-777.38 1116.75 2195
-776.352 1122.85 2207
-771.075 1122.85 2207
-765.797 1122.85 2207
-760.52 1122.85 2207
-755.242 1122.85 2207
-748.945 1121.32 2204
-743.675 1121.32 2204
-738.404 1121.32 2204
-733.134 1121.32 2204
-727.863 1121.32 2204
-722.593 1121.32 2204
-717.322 1121.32 2204
-712.052 1121.32 2204
-705.82 1119.8 2201
-698.646 1116.75 2195
-692.45 1115.22 2192
-687.208 1115.22 2192
-681.966 1115.22 2192
-673.329 1109.62 2181
-667.194 1108.1 2178
-661.986 1108.1 2178
-656.778 1108.1 2178
-651.57 1108.1 2178
-645.471 1106.57 2175
-640.27 1106.57 2175
-635.069 1106.57 2175
-628.999 1105.04 2172
-622.943 1103.52 2169
-618.611 1105.04 2172
-615.112 1108.1 2178
-609.903 1108.1 2178
-604.695 1108.1 2178
-599.487 1108.1 2178
-594.279 1108.1 2178
-589.07 1108.1 2178
-585.471 1111.15 2184
-580.779 1112.17 2186
-577.132 1115.22 2192
-571.89 1115.22 2192
-566.648 1115.22 2192
-561.406 1115.22 2192
-557.687 1118.27 2198
-552.431 1118.27 2198
-547.922 1119.8 2201
-542.659 1119.8 2201
-537.395 1119.8 2201
-532.132 1119.8 2201
-526.869 1119.8 2201
-523.027 1122.85 2207
-517.75 1122.85 2207
-512.472 1122.85 2207
-509.722 1128.45 2218
-504.419 1128.45 2218
-499.115 1128.45 2218
-493.811 1128.45 2218
-489.168 1129.97 2221
-483.857 1129.97 2221
-478.545 1129.97 2221
-472.595 1128.45 2218
-464.342 1121.32 2204
-461.987 1128.45 2218
-457.301 1129.97 2221
-451.99 1129.97 2221
-446.679 1129.97 2221
-441.368 1129.97 2221
-436.057 1129.97 2221
-429.582 1126.92 2215
-423.328 1124.38 2210
-415.773 1118.27 2198
-410.517 1118.27 2198
-405.261 1118.27 2198
-398.913 1115.22 2192
-392.593 1112.17 2186
-387.366 1112.17 2186
-382.139 1112.17 2186
-376.911 1112.17 2186
-372.194 1113.69 2189
-367.462 1115.22 2192
-362.22 1115.22 2192
-356.979 1115.22 2192
-351.737 1115.22 2192
-346.495 1115.22 2192
-341.254 1115.22 2192
-336.012 1115.22 2192
-330.317 1113.69 2189
-325.083 1113.69 2189
-320.287 1115.22 2192
-315.045 1115.22 2192
-310.651 1118.27 2198
-305.812 1119.8 2201
-302.187 1125.9 2213
-296.895 1125.9 2213
-291.867 1126.92 2215
-287.346 1129.97 2221
-282.035 1129.97 2221
-276.724 1129.97 2221
-271.413 1129.97 2221
-264.425 1122.85 2207
-259.147 1122.85 2207
-253.869 1122.85 2207
-248.254 1121.32 2204
-242.984 1121.32 2204
-237.713 1121.32 2204
-232.759 1122.85 2207
-227.481 1122.85 2207
-222.204 1122.85 2207
-217.713 1126.92 2215
-212.416 1126.92 2215
-207.119 1126.92 2215
-201.822 1126.92 2215
-196.526 1126.92 2215
-191.229 1126.92 2215
-185.764 1125.9 2213
-180.472 1125.9 2213
-175.18 1125.9 2213
-169.888 1125.9 2213
-164.596 1125.9 2213
-159.089 1124.38 2210
-153.804 1124.38 2210
-148.519 1124.38 2210
-142.845 1121.32 2204
-137.575 1121.32 2204
-132.124 1119.8 2201
-126.861 1119.8 2201
-121.432 1118.27 2198
-116.493 1121.32 2204
-111.778 1126.92 2215
-106.914 1131.5 2224
-101.595 1131.5 2224
-96.2772 1131.5 2224
-90.959 1131.5 2224
-85.6407 1131.5 2224
-80.3224 1131.5 2224
-75.0042 1131.5 2224
-69.5919 1129.97 2221
-63.9625 1124.38 2210
-58.6777 1124.38 2210
-53.103 1118.27 2198
-47.7816 1116.75 2195
-42.5327 1116.75 2195
-37.2838 1116.75 2195
-31.9473 1113.69 2189
-26.6761 1112.17 2186
-21.6548 1122.85 2207
-16.3995 1124.38 2210
-11.1147 1124.38 2210
-5.8299 1124.38 2210
103.913 1111.15 2184
109.136 1111.15 2184
114.359 1111.15 2184
119.581 1111.15 2184
134.01 1100.97 2164
139.185 1100.97 2164
144.36 1100.97 2164
149.88 1103.52 2169
155.067 1103.52 2169
160.254 1103.52 2169
165.441 1103.52 2169
171.099 1106.57 2175
176.544 1108.1 2178
181.752 1108.1 2178
186.96 1108.1 2178
192.433 1109.62 2181
197.92 1111.15 2184
203.329 1112.17 2186
208.556 1112.17 2186
213.784 1112.17 2186
218.51 1109.62 2181
223.726 1109.62 2181
228.941 1109.62 2181
234.693 1112.17 2186
240.908 1116.75 2195
246.494 1118.27 2198
251.75 1118.27 2198
257.006 1118.27 2198
262.262 1118.27 2198
267.518 1118.27 2198
272.774 1118.27 2198
279.169 1122.85 2207
285.22 1125.9 2213
290.774 1126.92 2215
296.071 1126.92 2215
301.776 1128.45 2218
307.08 1128.45 2218
312.384 1128.45 2218
317.258 1126.92 2215
322.555 1126.92 2215
327.851 1126.92 2215
335.855 1136.08 2233
341.195 1136.08 2233
348.397 1142.18 2245
355.184 1146.76 2254
360.574 1146.76 2254
366.451 1148.29 2257
371.848 1148.29 2257
377.245 1148.29 2257
382.642 1148.29 2257
388.04 1148.29 2257
393.437 1148.29 2257
397.244 1143.71 2248
401.545 1140.66 2242
406.906 1140.66 2242
411.716 1139.13 2239
415.952 1136.08 2233
421.292 1136.08 2233
427.778 1139.13 2239
433.132 1139.13 2239
439.661 1142.18 2245
445.03 1142.18 2245
450.398 1142.18 2245
455.767 1142.18 2245
461.135 1142.18 2245
464.01 1136.08 2233
469.35 1136.08 2233
472.139 1129.97 2221
476.16 1126.92 2215
480.37 1124.38 2210
483.677 1119.8 2201
490.939 1124.38 2210
496.224 1124.38 2210
504.005 1129.97 2221
510.692 1133.03 2227
516.713 1134.55 2230
522.045 1134.55 2230
527.378 1134.55 2230
531.994 1133.03 2227
537.319 1133.03 2227
541.183 1129.97 2221
543.049 1122.85 2207
546.836 1119.8 2201
552.099 1119.8 2201
555.843 1116.75 2195
561.092 1116.75 2195
567.889 1119.8 2201
574.715 1122.85 2207
579.992 1122.85 2207
585.27 1122.85 2207
590.547 1122.85 2207
595.825 1122.85 2207
601.92 1124.38 2210
607.205 1124.38 2210
612.489 1124.38 2210
617.774 1124.38 2210
623.059 1124.38 2210
628.344 1124.38 2210
633.628 1124.38 2210
638.913 1124.38 2210
645.655 1126.92 2215
650.952 1126.92 2215
663.36 1139.13 2239
668.714 1139.13 2239
674.068 1139.13 2239
679.422 1139.13 2239
684.776 1139.13 2239
690.13 1139.13 2239
695.484 1139.13 2239
698.021 1134.55 2230
702.408 1133.03 2227
706.78 1131.5 2224
713.059 1133.03 2227
718.384 1133.03 2227
726.634 1137.6 2236
731.981 1137.6 2236
737.328 1137.6 2236
742.675 1137.6 2236
745.011 1133.03 2227
750.337 1133.03 2227
755.662 1133.03 2227
760.987 1133.03 2227
763.216 1128.45 2218
766.787 1125.9 2213
768.939 1121.32 2204
774.21 1121.32 2204
778.419 1119.8 2201
783.683 1119.8 2201
788.946 1119.8 2201
794.209 1119.8 2201
799.472 1119.8 2201
804.736 1119.8 2201
809.999 1119.8 2201
815.262 1119.8 2201
820.525 1119.8 2201
825.789 1119.8 2201
833.317 1122.85 2207
841.635 1126.92 2215
854.961 1137.6 2236
860.308 1137.6 2236
866.816 1139.13 2239
875.676 1143.71 2248
881.052 1143.71 2248
886.428 1143.71 2248
898.151 1151.85 2264
910.748 1161.01 2282
917.41 1162.53 2285
922.874 1162.53 2285
928.338 1162.53 2285
933.802 1162.53 2285
942.144 1166.1 2292
947.625 1166.1 2292
953.105 1166.1 2292
958.586 1166.1 2292
964.067 1166.1 2292
967.856 1164.06 2288
975.029 1166.1 2292
983.077 1169.15 2298
988.572 1169.15 2298
994.067 1169.15 2298
999.562 1169.15 2298
1003.75 1167.62 2295
1009.23 1167.62 2295
1014.72 1167.62 2295
1020.21 1167.62 2295
1025.7 1167.62 2295
1029.84 1166.1 2292
1035.32 1166.1 2292
1038.98 1164.06 2288
1044.45 1164.06 2288
1049.93 1164.06 2288
1055.4 1164.06 2288
1060.87 1164.06 2288
1064.94 1162.53 2285
1069 1161.01 2282
1074.46 1161.01 2282
1078.49 1159.48 2279
1081.09 1156.43 2273
1085.09 1154.9 2270
1091.96 1156.43 2273
1097.4 1156.43 2273
1102.83 1156.43 2273
1108.27 1156.43 2273
1113.7 1156.43 2273
1119.14 1156.43 2273
1123.09 1154.9 2270
1130.01 1156.43 2273
1136.94 1157.96 2276
1142.39 1157.96 2276
1147.83 1157.96 2276
1153.27 1157.96 2276
1157.19 1156.43 2273
1162.62 1156.43 2273
1163.43 1151.85 2264
1168.85 1151.85 2264
1174.26 1151.85 2264
1179.67 1151.85 2264
1183.52 1150.32 2261
1188.92 1150.32 2261
1194.33 1150.32 2261
1199.74 1150.32 2261
1205.14 1150.32 2261
1208.41 1148.29 2257
1210.58 1145.24 2251
1215.96 1145.24 2251
1221.35 1145.24 2251
1226.73 1145.24 2251
1228.83 1142.18 2245
1229.25 1137.6 2236
1234.59 1137.6 2236
1229.96 1128.45 2218
1230.81 1124.38 2210
1236.09 1124.38 2210
1241.38 1124.38 2210
1244.97 1122.85 2207
1250.25 1122.85 2207
1243.58 1112.17 2186
1248.81 1112.17 2186
1254.03 1112.17 2186
1259.26 1112.17 2186
1264.49 1112.17 2186
1261.58 1105.04 2172
1266.78 1105.04 2172
1269.04 1102.5 2167
1268.93 1097.92 2158
1279.41 1102.5 2167
1284.59 1102.5 2167
1289.77 1102.5 2167
1296.15 1103.52 2169
1306.74 1108.1 2178
1316.76 1112.17 2186
1329.25 1118.27 2198
1334.5 1118.27 2198
1339.76 1118.27 2198
1348.69 1121.32 2204
1353.96 1121.32 2204
1359.23 1121.32 2204
1376.88 1131.5 2224
1385.93 1134.55 2230
1406.23 1146.76 2254
1411.62 1146.76 2254
1418.9 1148.29 2257
1426.82 1150.32 2261
1434.13 1151.85 2264
1439.54 1151.85 2264
1444.96 1151.85 2264
1442.04 1145.24 2251
1447.42 1145.24 2251
1448.93 1142.18 2245
1452.36 1140.66 2242
1457.72 1140.66 2242
1463.08 1140.66 2242
1468.44 1140.66 2242
1473.8 1140.66 2242
1473.23 1136.08 2233
1474.6 1133.03 2227
1479.92 1133.03 2227
1477.24 1126.92 2215
1479.19 1124.38 2210
1478.43 1119.8 2201
1483.7 1119.8 2201
1484.9 1116.75 2195
1484.04 1112.17 2186
1497.44 1118.27 2198
1508.85 1122.85 2207
1514.13 1122.85 2207
1521.47 1124.38 2210
1542.65 1136.08 2233
1556.3 1142.18 2245
1570.02 1148.29 2257
1575.42 1148.29 2257
1580.81 1148.29 2257
1581.99 1145.24 2251
1587.38 1145.24 2251
1592.76 1145.24 2251
1602.4 1148.29 2257
1607.8 1148.29 2257
1616.06 1150.32 2261
1621.46 1150.32 2261
1629.03 1151.85 2264
1645.27 1159.48 2279
1650.72 1159.48 2279
1656.17 1159.48 2279
1666 1162.53 2285
1671.46 1162.53 2285
1676.92 1162.53 2285
1671.34 1154.9 2270
1667.17 1148.29 2257
1672.57 1148.29 2257
1653.43 1131.5 2224
1658.75 1131.5 2224
1661.82 1129.97 2221
1652.12 1119.8 2201
1650.61 1115.22 2192
1655.85 1115.22 2192
1661.09 1115.22 2192
1668.61 1116.75 2195
1680.72 1121.32 2204
1685.99 1121.32 2204
-1609.76 1099 2150
-1604.62 1099 2150
-1577.16 1083.67 2120
-1572.09 1083.67 2120
-1567.02 1083.67 2120
-1559.74 1082.13 2117
-1562.79 1094.91 2142
-1557.67 1094.91 2142
-1552.55 1094.91 2142
-1547.42 1094.91 2142
-1542.3 1094.91 2142
-1536.2 1101.56 2155
-1533.18 1103.09 2158
-1528.02 1103.09 2158
-1522.86 1103.09 2158
-1515.59 1101.56 2155
-1510.44 1101.56 2155
-1503.89 1100.53 2153
-1494.56 1097.47 2147
-1489.43 1097.47 2147
-1484.29 1097.47 2147
-1475.71 1094.91 2142
-1470.59 1094.91 2142
-1461.36 1091.85 2136
-1460.35 1094.91 2142
-1455.22 1094.91 2142
-1450.1 1094.91 2142
-1446.33 1095.93 2144
-1441.2 1095.93 2144
-1436.08 1095.93 2144
-1430.95 1095.93 2144
-1424.49 1094.91 2142
-1419.37 1094.91 2142
-1414.25 1094.91 2142
-1412.41 1097.47 2147
-1414.49 1103.09 2158
-1411.29 1104.62 2161
-1406.12 1104.62 2161
-1400.95 1104.62 2161
-1395.79 1104.62 2161
-1390.62 1104.62 2161
-1383.53 1103.09 2158
-1380.28 1104.62 2161
-1378.93 1107.69 2167
-1373.75 1107.69 2167
-1368.57 1107.69 2167
-1363.39 1107.69 2167
-1358.21 1107.69 2167
-1353.02 1107.69 2167
-1347.84 1107.69 2167
-1338.94 1104.62 2161
-1333.78 1104.62 2161
-1328.61 1104.62 2161
-1323.44 1104.62 2161
-1320.1 1106.16 2164
-1316.75 1107.69 2167
-1316.41 1111.78 2175
-1311.21 1111.78 2175
-1307.81 1113.31 2178
-1302.6 1113.31 2178
-1297.39 1113.31 2178
-1290.41 1111.78 2175
-1283.43 1110.25 2172
-1278.24 1110.25 2172
-1273.04 1110.25 2172
-1267.85 1110.25 2172
-1262.66 1110.25 2172
-1257.46 1110.25 2172
-1252.27 1110.25 2172
-1247.07 1110.25 2172
-1237.31 1106.16 2164
-1234.98 1108.71 2169
-1231.49 1110.25 2172
-1226.3 1110.25 2172
-1222.79 1111.78 2175
-1217.59 1111.78 2175
-1212.39 1111.78 2175
-1199.42 1104.62 2161
-1189.83 1100.53 2153
-1181.38 1097.47 2147
-1174.6 1095.93 2144
-1169.47 1095.93 2144
-1163.26 1094.91 2142
-1158.14 1094.91 2142
-1153.02 1094.91 2142
-1147.89 1094.91 2142
-1142.77 1094.91 2142
-1137.65 1094.91 2142
-1127.77 1090.31 2133
-1122.67 1090.31 2133
-1114.95 1087.76 2128
-1114.03 1091.85 2136
-1108.92 1091.85 2136
-1103.82 1091.85 2136
-1098.71 1091.85 2136
-1093.6 1091.85 2136
-1085.95 1089.29 2131
-1084.91 1093.38 2139
-1079.79 1093.38 2139
-1081.71 1100.53 2153
-1079.06 1103.09 2158
-1075.4 1104.62 2161
-1070.23 1104.62 2161
-1065.06 1104.62 2161
-1059.89 1104.62 2161
-1054.72 1104.62 2161
-1049.56 1104.62 2161
-1048.26 1108.71 2169
-1048.84 1114.85 2181
-1043.62 1114.85 2181
-1038.41 1114.85 2181
-1034.61 1116.38 2184
-1040.23 1128.14 2207
-1034.96 1128.14 2207
-1029.68 1128.14 2207
-1025.79 1129.67 2210
-1021.89 1131.2 2213
-1025.79 1141.43 2233
-1020.45 1141.43 2233
-1015.11 1141.43 2233
-1009.77 1141.43 2233
-1004.43 1141.43 2233
-997.747 1139.89 2230
-992.415 1139.89 2230
-985.754 1138.36 2227
-980.429 1138.36 2227
-967.66 1129.67 2210
-959.762 1126.6 2204
-955.791 1128.14 2207
-950.513 1128.14 2207
-945.236 1128.14 2207
-937.403 1125.07 2201
-932.14 1125.07 2201
-926.876 1125.07 2201
-921.613 1125.07 2201
-916.35 1125.07 2201
-911.087 1125.07 2201
-905.823 1125.07 2201
-896.878 1120.47 2192
-890.416 1118.94 2189
-883.159 1116.38 2184
-877.937 1116.38 2184
-872.714 1116.38 2184
-866.3 1114.85 2181
-861.084 1114.85 2181
-854.692 1113.31 2178
-849.483 1113.31 2178
-844.275 1113.31 2178
-839.067 1113.31 2178
-833.859 1113.31 2178
-828.65 1113.31 2178
-823.442 1113.31 2178
-817.107 1111.78 2175
-811.906 1111.78 2175
-807.817 1113.31 2178
-802.609 1113.31 2178
-797.401 1113.31 2178
-793.284 1114.85 2181
-789.875 1117.4 2186
-784.647 1117.4 2186
-779.42 1117.4 2186
-777.38 1122 2195
-776.352 1128.14 2207
-771.075 1128.14 2207
-765.797 1128.14 2207
-760.52 1128.14 2207
-755.242 1128.14 2207
-748.945 1126.6 2204
-743.675 1126.6 2204
-738.404 1126.6 2204
-733.134 1126.6 2204
-727.863 1126.6 2204
-722.593 1126.6 2204
-717.322 1126.6 2204
-712.052 1126.6 2204
-705.82 1125.07 2201
-698.646 1122 2195
-692.45 1120.47 2192
-687.208 1120.47 2192
-681.966 1120.47 2192
-673.329 1114.85 2181
-667.194 1113.31 2178
-661.986 1113.31 2178
-656.778 1113.31 2178
-651.57 1113.31 2178
-645.471 1111.78 2175
-640.27 1111.78 2175
-635.069 1111.78 2175
-628.999 1110.25 2172
-622.943 1108.71 2169
-618.611 1110.25 2172
-615.112 1113.31 2178
-609.903 1113.31 2178
-604.695 1113.31 2178
-599.487 1113.31 2178
-594.279 1113.31 2178
-589.07 1113.31 2178
-585.471 1116.38 2184
-580.779 1117.4 2186
-577.132 1120.47 2192
-571.89 1120.47 2192
-566.648 1120.47 2192
-561.406 1120.47 2192
-557.687 1123.54 2198
-552.431 1123.54 2198
-547.922 1125.07 2201
-542.659 1125.07 2201
-537.395 1125.07 2201
-532.132 1125.07 2201
-526.869 1125.07 2201
-523.027 1128.14 2207
-517.75 1128.14 2207
-512.472 1128.14 2207
-509.722 1133.76 2218
-504.419 1133.76 2218
-499.115 1133.76 2218
-493.811 1133.76 2218
-489.168 1135.29 2221
-483.857 1135.29 2221
-478.545 1135.29 2221
-472.595 1133.76 2218
-464.342 1126.6 2204
-461.987 1133.76 2218
-457.301 1135.29 2221
-451.99 1135.29 2221
-446.679 1135.29 2221
-441.368 1135.29 2221
-436.057 1135.29 2221
-429.582 1132.23 2215
-423.328 1129.67 2210
-415.773 1123.54 2198
-410.517 1123.54 2198
-405.261 1123.54 2198
-398.913 1120.47 2192
-392.593 1117.4 2186
-387.366 1117.4 2186
-382.139 1117.4 2186
-376.911 1117.4 2186
-372.194 1118.94 2189
-367.462 1120.47 2192
-362.22 1120.47 2192
-356.979 1120.47 2192
-351.737 1120.47 2192
-346.495 1120.47 2192
-341.254 1120.47 2192
-336.012 1120.47 2192
-330.317 1118.94 2189
-325.083 1118.94 2189
-319.848 1118.94 2189
-314.614 1118.94 2189
-308.248 1114.85 2181
-304.561 1120.47 2192
-299.32 1120.47 2192
-294.078 1120.47 2192
-289.231 1122 2195
-285.147 1126.6 2204
-279.877 1126.6 2204
-274.606 1126.6 2204
-269.336 1126.6 2204
-262.628 1120.47 2192
-257.738 1122 2195
-252.489 1122 2195
-247.24 1122 2195
-241.991 1122 2195
-236.742 1122 2195
-231.493 1122 2195
-226.245 1122 2195
-220.996 1122 2195
-216.926 1128.14 2207
-211.649 1128.14 2207
-206.371 1128.14 2207
-201.367 1129.67 2210
-196.082 1129.67 2210
-191.056 1131.2 2213
-185.764 1131.2 2213
-180.472 1131.2 2213
-174.943 1129.67 2210
-169.658 1129.67 2210
-164.373 1129.67 2210
-158.873 1128.14 2207
-153.595 1128.14 2207
-148.317 1128.14 2207
-142.845 1126.6 2204
-137.575 1126.6 2204
-131.584 1120.47 2192
-126.342 1120.47 2192
-121.101 1120.47 2192
-116.493 1126.6 2204
-111.677 1131.2 2213
-106.77 1135.29 2221
-101.458 1135.29 2221
-96.1474 1135.29 2221
-90.959 1136.83 2224
-85.6407 1136.83 2224
-80.3224 1136.83 2224
-75.0042 1136.83 2224
-69.5919 1135.29 2221
-63.9625 1129.67 2210
-58.6777 1129.67 2210
-53.103 1123.54 2198
-47.7816 1122 2195
-42.5327 1122 2195
-37.2838 1122 2195
-32.0349 1122 2195
-26.8226 1123.54 2198
-21.6548 1128.14 2207
-16.3995 1129.67 2210
-11.1147 1129.67 2210
-5.8299 1129.67 2210
92.9546 1110.25 2172
98.1485 1110.25 2172
103.913 1116.38 2184
109.136 1116.38 2184
114.359 1116.38 2184
119.581 1116.38 2184
124.118 1110.25 2172
128.002 1099 2150
133.453 1101.56 2155
138.606 1101.56 2155
144.16 1104.62 2161
149.742 1107.69 2167
154.924 1107.69 2167
160.106 1107.69 2167
165.441 1108.71 2169
171.099 1111.78 2175
176.544 1113.31 2178
181.752 1113.31 2178
186.96 1113.31 2178
192.433 1114.85 2181
197.92 1116.38 2184
203.143 1116.38 2184
208.366 1116.38 2184
213.588 1116.38 2184
218.51 1114.85 2181
223.726 1114.85 2181
228.626 1113.31 2178
234.479 1116.38 2184
239.921 1117.4 2186
246.157 1122 2195
251.406 1122 2195
256.655 1122 2195
261.904 1122 2195
267.153 1122 2195
272.03 1120.47 2192
278.03 1123.54 2198
284.446 1128.14 2207
289.724 1128.14 2207
295.002 1128.14 2207
300.687 1129.67 2210
305.972 1129.67 2210
311.257 1129.67 2210
316.112 1128.14 2207
320.516 1125.07 2201
327.111 1129.67 2210
334.05 1135.29 2221
339.362 1135.29 2221
344.673 1135.29 2221
351.875 1141.43 2233
357.694 1142.96 2236
363.041 1142.96 2236
368.388 1142.96 2236
373.735 1142.96 2236
379.082 1142.96 2236
384.429 1142.96 2236
389.776 1142.96 2236
395.123 1142.96 2236
398.321 1136.83 2224
403.639 1136.83 2224
407.302 1132.23 2215
411.668 1129.67 2210
416.386 1128.14 2207
423.193 1132.23 2215
428.489 1132.23 2215
435.549 1136.83 2224
441.462 1138.36 2227
446.787 1138.36 2227
452.112 1138.36 2227
456.822 1136.83 2224
460.27 1132.23 2215
465.566 1132.23 2215
469.8 1129.67 2210
473.15 1125.07 2201
477.762 1123.54 2198
483.018 1123.54 2198
488.94 1125.07 2201
494.203 1125.07 2201
501.509 1129.67 2210
507.482 1131.2 2213
513.237 1132.23 2215
518.534 1132.23 2215
523.831 1132.23 2215
528.65 1131.2 2213
533.941 1131.2 2213
538.502 1129.67 2210
540.835 1123.54 2198
544.6 1120.47 2192
549.842 1120.47 2192
553.057 1116.38 2184
558.28 1116.38 2184
564.793 1118.94 2189
570.809 1120.47 2192
576.05 1120.47 2192
581.292 1120.47 2192
586.534 1120.47 2192
590.966 1118.94 2189
596.2 1118.94 2189
600.61 1117.4 2186
605.838 1117.4 2186
611.065 1117.4 2186
616.293 1117.4 2186
620.951 1116.38 2184
626.174 1116.38 2184
