ply
format ascii 1.0
comment File generated
element vertex 2153
property float x
property float y
property float z
end_header
115.475 -109.206 2109
120.518 -109.206 2109
125.74 -109.362 2112
130.914 -109.465 2114
136.355 -109.776 2120
141.425 -109.776 2120
146.633 -109.88 2122
151.707 -109.88 2122
157.225 -110.19 2128
162.313 -110.19 2128
167.638 -110.346 2131
172.896 -110.449 2133
178.247 -110.605 2136
183.355 -110.605 2136
188.727 -110.76 2139
194.114 -110.915 2142
199.422 -111.019 2144
204.549 -111.019 2144
209.97 -111.174 2147
215.104 -111.174 2147
220.546 -111.33 2150
225.687 -111.33 2150
232.009 -111.899 2161
238.384 -112.469 2172
244.251 -112.779 2178
249.459 -112.779 2178
255.954 -113.349 2189
264.052 -114.592 2213
274.334 -116.715 2254
279.724 -116.715 2254
287.897 -117.854 2276
294.886 -118.475 2288
301.67 -118.993 2298
307.165 -118.993 2298
313.885 -119.459 2307
321.617 -120.288 2323
329.989 -121.323 2343
335.591 -121.323 2343
343.087 -121.996 2356
348.721 -121.996 2356
354.355 -121.996 2356
441.044 -147.162 2842
448.628 -147.421 2847
455.436 -147.421 2847
462.244 -147.421 2847
469.876 -147.68 2852
476.696 -147.68 2852
483.516 -147.68 2852
491.196 -147.939 2857
498.899 -148.198 2862
505.743 -148.198 2862
512.587 -148.198 2862
520.157 -148.405 2866
527.011 -148.405 2866
533.864 -148.405 2866
540.718 -148.405 2866
546.807 -148.198 2862
553.651 -148.198 2862
560.495 -148.198 2862
567.339 -148.198 2862
574.182 -148.198 2862
580.011 -147.939 2857
586.843 -147.939 2857
594.714 -148.198 2862
601.558 -148.198 2862
608.402 -148.198 2862
615.246 -148.198 2862
622.09 -148.198 2862
628.934 -148.198 2862
635.778 -148.198 2862
642.622 -148.198 2862
649.465 -148.198 2862
656.309 -148.198 2862
663.153 -148.198 2862
669.997 -148.198 2862
676.841 -148.198 2862
682.491 -147.939 2857
689.323 -147.939 2857
696.154 -147.939 2857
702.986 -147.939 2857
709.818 -147.939 2857
716.65 -147.939 2857
722.216 -147.68 2852
729.036 -147.68 2852
735.856 -147.68 2852
742.676 -147.68 2852
748.182 -147.421 2847
754.99 -147.421 2847
763.136 -147.68 2852
769.956 -147.68 2852
776.776 -147.68 2852
783.596 -147.68 2852
790.416 -147.68 2852
795.838 -147.421 2847
802.646 -147.421 2847
808.033 -147.162 2842
814.829 -147.162 2842
821.625 -147.162 2842
828.421 -147.162 2842
835.217 -147.162 2842
842.013 -147.162 2842
848.809 -147.162 2842
855.605 -147.162 2842
862.402 -147.162 2842
869.198 -147.162 2842
875.994 -147.162 2842
881.237 -146.903 2837
885.204 -146.437 2828
891.966 -146.437 2828
898.729 -146.437 2828
900.689 -145.66 2813
907.415 -145.66 2813
914.142 -145.66 2813
920.869 -145.66 2813
926.277 -145.453 2809
932.994 -145.453 2809
938.038 -145.194 2804
944.744 -145.194 2804
948.056 -144.677 2794
954.737 -144.677 2794
950.407 -143.02 2762
957.012 -143.02 2762
1356.62 -199.979 3862
1365.86 -199.979 3862
1375.09 -199.979 3862
1377.88 -199.047 3844
1387.07 -199.047 3844
1374.1 -195.888 3783
1367.43 -193.662 3740
1370.48 -192.833 3724
1367.17 -191.124 3691
1375.99 -191.124 3691
1378.82 -190.296 3675
1387.6 -190.296 3675
1393.35 -189.882 3667
1402.12 -189.882 3667
1407.43 -189.416 3658
1413.08 -189.001 3650
1409.73 -187.396 3619
1418.38 -187.396 3619
1423.88 -186.982 3611
1423.39 -185.791 3588
1428.78 -185.377 3580
1431.32 -184.6 3565
1439.84 -184.6 3565
1441.87 -183.771 3549
1444.23 -182.995 3534
1446.92 -182.27 3520
1455.34 -182.27 3520
1460.43 -181.855 3512
1462.56 -181.079 3497
1462.08 -179.991 3476
1470.4 -179.991 3476
1463.39 -178.127 3440
1462.64 -177.04 3419
1467.8 -176.677 3412
1469.9 -175.952 3398
1478.03 -175.952 3398
1483.09 -175.59 3391
1467.46 -172.794 3337
1469.25 -172.069 3323
1477.19 -172.069 3323
1479.33 -171.396 3310
1484.1 -171.033 3303
1489.29 -170.723 3297
1497.17 -170.723 3297
1505.05 -170.723 3297
1522.12 -171.758 3317
1530.05 -171.758 3317
1607.99 -179.577 3468
1616.29 -179.577 3468
1624.58 -179.577 3468
1650.29 -181.493 3505
1661.99 -181.855 3512
1670.39 -181.855 3512
1685.96 -182.632 3527
1694.39 -182.632 3527
1710.07 -183.409 3542
1733.09 -184.962 3572
1741.63 -184.962 3572
1758.01 -185.791 3588
1766.59 -185.791 3588
1790.51 -187.396 3619
1799.17 -187.396 3619
1807.82 -187.396 3619
1808.44 -186.568 3603
1817.06 -186.568 3603
1802.37 -184.186 3557
1504.15 -142.295 2748
1510.72 -142.295 2748
1517.29 -142.295 2748
1523.86 -142.295 2748
1538.23 -143.02 2762
1549.87 -143.486 2771
1556.5 -143.486 2771
1563.12 -143.486 2771
1567.48 -143.278 2767
1574.1 -143.278 2767
1577.86 -143.02 2762
1581.6 -142.761 2757
1585.89 -142.554 2753
1592.47 -142.554 2753
1593.82 -142.088 2744
1602.72 -142.295 2748
1609.29 -142.295 2748
1615.86 -142.295 2748
1620.07 -142.088 2744
1621.3 -141.621 2735
1627.84 -141.621 2735
1629 -141.155 2726
1635.52 -141.155 2726
1639.03 -140.897 2721
1643.11 -140.689 2717
1644.15 -140.223 2708
1650.62 -140.223 2708
1651.59 -139.757 2699
1655.59 -139.55 2695
1648.46 -138.411 2673
1657.95 -138.67 2678
1664.36 -138.67 2678
1670.76 -138.67 2678
1677.16 -138.67 2678
1683.57 -138.67 2678
1686.82 -138.411 2673
1690.67 -138.204 2669
1694.51 -137.997 2665
1698.33 -137.79 2661
1704.7 -137.79 2661
1711.06 -137.79 2661
1714.2 -137.531 2656
1715.37 -137.117 2648
1721.7 -137.117 2648
1728.03 -137.117 2648
1734.36 -137.117 2648
1738.06 -136.909 2644
1744.39 -136.909 2644
1750.71 -136.909 2644
1754.37 -136.702 2640
1760.69 -136.702 2640
1763.65 -136.443 2635
1769.95 -136.443 2635
1776.26 -136.443 2635
1774.44 -135.822 2623
1780.71 -135.822 2623
1789.71 -136.029 2627
1795.99 -136.029 2627
1802.27 -136.029 2627
1808.55 -136.029 2627
1817.6 -136.236 2631
1823.89 -136.236 2631
1830.18 -136.236 2631
1836.47 -136.236 2631
1842.77 -136.236 2631
1843.44 -135.822 2623
1849.71 -135.822 2623
1855.98 -135.822 2623
1862.25 -135.822 2623
1868.52 -135.822 2623
1871.94 -135.615 2619
1872.46 -135.201 2611
1875.83 -134.993 2607
1882.06 -134.993 2607
1885.4 -134.786 2603
1888.72 -134.579 2599
1894.93 -134.579 2599
1901.15 -134.579 2599
1900.76 -134.113 2590
1906.95 -134.113 2590
1907.24 -133.699 2582
1913.41 -133.699 2582
1916.61 -133.492 2578
1919.79 -133.285 2574
1923.7 -133.129 2571
1929.85 -133.129 2571
1936 -133.129 2571
1939.12 -132.922 2567
1945.26 -132.922 2567
1948.36 -132.715 2563
1954.49 -132.715 2563
1957.56 -132.508 2559
-2044.02 -134.823 2730
-2050.92 -135.712 2748
-2054.77 -136.403 2762
-2048.16 -136.403 2762
-2041.56 -136.403 2762
-2028.32 -135.959 2753
-2021.74 -135.959 2753
-2015.16 -135.959 2753
-2002.01 -135.514 2744
-1988.9 -135.07 2735
-1982.36 -135.07 2735
-1962.82 -134.181 2717
-2455.59 -171.269 3468
-2447.3 -171.269 3468
-2439.01 -171.269 3468
-2420.9 -170.578 3454
-2422.42 -171.269 3468
-2414.13 -171.269 3468
-2416.24 -172.01 3483
-2407.91 -172.01 3483
-2399.58 -172.01 3483
-2386.45 -171.665 3476
-2363.09 -170.578 3454
-2345.28 -169.887 3440
-2337.06 -169.887 3440
-2319.35 -169.195 3426
-2311.16 -169.195 3426
-2317.08 -170.232 3447
-2308.84 -170.232 3447
-2300.6 -170.232 3447
-2292.35 -170.232 3447
-2274.83 -169.541 3433
-2266.63 -169.541 3433
-2253.81 -169.195 3426
-2250.21 -169.541 3433
-2242 -169.541 3433
-2261.77 -171.665 3476
-2253.46 -171.665 3476
-2263.87 -173.097 3505
-2255.49 -173.097 3505
-2247.11 -173.097 3505
-2229.15 -172.356 3490
-2230.35 -173.097 3505
-2235.91 -174.183 3527
-2227.48 -174.183 3527
-2219.05 -174.183 3527
-2249.1 -183.517 3716
-2240.21 -183.517 3716
-2231.32 -183.517 3716
-2207.49 -182.282 3691
-2174.24 -180.258 3650
-2170.25 -180.653 3658
-2161.51 -180.653 3658
-2162.76 -181.492 3675
-2153.98 -181.492 3675
-2149.86 -181.887 3683
-2141.05 -181.887 3683
-2136.88 -182.282 3691
-2128.05 -182.282 3691
-2119.22 -182.282 3691
-2101.25 -181.492 3675
-2092.46 -181.492 3675
-2101.82 -183.073 3707
-2126.26 -185.986 3766
-2117.26 -185.986 3766
-2108.25 -185.986 3766
-2099.24 -185.986 3766
-2090.24 -185.986 3766
-2081.23 -185.986 3766
-2067.28 -185.542 3757
-2058.29 -185.542 3757
-2072.76 -187.665 3800
-2063.68 -187.665 3800
-2054.59 -187.665 3800
-2041.2 -187.27 3792
-2032.13 -187.27 3792
-2023.06 -187.27 3792
-1986.37 -184.702 3740
-1964.74 -183.517 3716
-1955.85 -183.517 3716
-1929.68 -181.887 3683
-1907.83 -180.653 3658
-1912.06 -181.887 3683
-1903.26 -181.887 3683
-1894.45 -181.887 3683
-1881.55 -181.492 3675
-1860.02 -180.258 3650
-1851.29 -180.258 3650
-1834.99 -179.517 3635
-1810.22 -177.937 3603
-1797.6 -177.541 3595
-1789.01 -177.541 3595
-1776.94 -177.196 3588
-1764.42 -176.801 3580
-1767.14 -177.937 3603
-1770.24 -179.122 3627
-1761.57 -179.122 3627
-1752.89 -179.122 3627
-1744.22 -179.122 3627
-1739.37 -179.517 3635
-1745.92 -181.097 3667
-1737.15 -181.097 3667
-1728.38 -181.097 3667
-1719.61 -181.097 3667
-1710.84 -181.097 3667
-1694.18 -180.258 3650
-1674.83 -179.122 3627
-1658.81 -178.332 3611
-1653.83 -178.727 3619
-1645.18 -178.727 3619
-1643.76 -179.517 3635
-1653.06 -181.492 3675
-1644.27 -181.492 3675
-1635.48 -181.492 3675
-1633.78 -182.282 3691
-1624.95 -182.282 3691
-1616.12 -182.282 3691
-1596.85 -181.097 3667
-1216.24 -147.663 2990
-1209.09 -147.663 2990
-1201.94 -147.663 2990
-1175.61 -145.293 2942
-1168.57 -145.293 2942
-1159.56 -145.046 2937
-1146.65 -144.305 2922
-1135.37 -143.762 2911
-1126.48 -143.515 2906
-1121.45 -143.762 2911
-1114.49 -143.762 2911
-1109.81 -144.058 2917
-1104.73 -144.305 2922
-1097.74 -144.305 2922
-1090.75 -144.305 2922
-1083.77 -144.305 2922
-1076.78 -144.305 2922
-1069.79 -144.305 2922
-1060.98 -144.058 2917
-1054.01 -144.058 2917
-1044.88 -143.762 2911
-1037.92 -143.762 2911
-1029.19 -143.515 2906
-1020.48 -143.268 2901
-1011.8 -143.021 2896
-1004.87 -143.021 2896
-997.945 -143.021 2896
-989.309 -142.774 2891
-982.396 -142.774 2891
-975.482 -142.774 2891
-968.569 -142.774 2891
-959.993 -142.527 2886
-953.091 -142.527 2886
-946.19 -142.527 2886
-939.289 -142.527 2886
-930.772 -142.28 2881
-923.883 -142.28 2881
-916.993 -142.28 2881
-910.104 -142.28 2881
-903.215 -142.28 2881
-896.325 -142.28 2881
-890.98 -142.527 2886
-884.078 -142.527 2886
-877.177 -142.527 2886
-870.276 -142.527 2886
-863.374 -142.527 2886
-856.473 -142.527 2886
-849.572 -142.527 2886
-841.211 -142.28 2881
-834.321 -142.28 2881
-827.432 -142.28 2881
-819.119 -142.033 2876
-812.241 -142.033 2876
-805.364 -142.033 2876
-798.486 -142.033 2876
-791.609 -142.033 2876
-783.367 -141.786 2871
-776.502 -141.786 2871
-769.636 -141.786 2871
-762.771 -141.786 2871
-754.589 -141.539 2866
-747.736 -141.539 2866
-740.882 -141.539 2866
-734.029 -141.539 2866
-727.175 -141.539 2866
-719.316 -141.342 2862
-712.473 -141.342 2862
-705.629 -141.342 2862
-697.564 -141.095 2857
-690.732 -141.095 2857
-683.9 -141.095 2857
-677.068 -141.095 2857
-669.063 -140.848 2852
-662.243 -140.848 2852
-655.423 -140.848 2852
-648.603 -140.848 2852
-641.783 -140.848 2852
-636.076 -141.095 2857
-632.328 -141.786 2871
-625.462 -141.786 2871
-623.984 -143.021 2896
-630.269 -146.083 2958
-636.679 -149.243 3022
-629.452 -149.243 3022
-631.491 -151.466 3067
-634.536 -153.984 3118
-634.32 -155.762 3154
-626.778 -155.762 3154
-632.39 -159.071 3221
-638.07 -162.479 3290
-634.034 -163.467 3310
-626.118 -163.467 3310
-621.938 -164.454 3330
-615.266 -164.8 3337
-608.378 -165.096 3343
-600.384 -165.096 3343
-593.63 -165.442 3350
-586.843 -165.788 3357
-579.85 -166.084 3363
-571.808 -166.084 3363
-564.94 -166.43 3370
-558.038 -166.775 3377
-553.382 -167.812 3398
-545.257 -167.812 3398
-539.344 -168.504 3412
-531.185 -168.504 3412
-524.099 -168.85 3419
-515.923 -168.85 3419
-510.866 -169.887 3440
-502.64 -169.887 3440
-494.413 -169.887 3440
-486.187 -169.887 3440
-477.961 -169.887 3440
-469.735 -169.887 3440
-461.509 -169.887 3440
-453.283 -169.887 3440
-444.151 -169.541 3433
-435.942 -169.541 3433
-427.733 -169.541 3433
-416.957 -168.504 3412
-247.052 -101.833 2062
-242.121 -101.833 2062
-237.765 -102.08 2067
-232.823 -102.08 2067
-228.431 -102.327 2072
-224.123 -102.623 2078
-220.525 -103.265 2091
-215.525 -103.265 2091
-210.726 -103.364 2093
-206.213 -103.611 2098
-201.771 -103.907 2104
-196.927 -104.006 2106
-191.891 -104.006 2106
-186.855 -104.006 2106
-182.077 -104.154 2109
-177.286 -104.303 2112
-172.236 -104.303 2112
-167.344 -104.401 2114
-162.288 -104.401 2114
-157.233 -104.401 2114
-152.178 -104.401 2114
-147.54 -104.698 2120
-142.807 -104.945 2125
-137.92 -105.093 2128
-132.831 -105.093 2128
-127.742 -105.093 2128
-122.481 -104.945 2125
-117.399 -104.945 2125
-112.318 -104.945 2125
-107.236 -104.945 2125
-102.155 -104.945 2125
-97.073 -104.945 2125
-91.8616 -104.796 2122
-86.7055 -104.698 2120
-81.5204 -104.549 2117
-76.458 -104.549 2117
-71.3956 -104.549 2117
-66.2392 -104.401 2114
-61.1261 -104.303 2112
-56.0757 -104.303 2112
-50.9528 -104.154 2109
-45.8442 -104.006 2106
-40.7694 -103.907 2104
-35.7381 -103.907 2104
-30.7068 -103.907 2104
-25.6389 -103.759 2101
-20.5853 -103.611 2098
-15.5535 -103.512 2096
-10.5413 -103.512 2096
-5.52917 -103.512 2096
-0.517003 -103.512 2096
4.48873 -103.364 2093
9.49373 -103.364 2093
14.4849 -103.265 2091
19.4851 -103.265 2091
24.4502 -103.117 2088
29.4432 -103.117 2088
34.4363 -103.117 2088
39.4293 -103.117 2088
44.4223 -103.117 2088
49.4154 -103.117 2088
54.4084 -103.117 2088
59.4015 -103.117 2088
64.3945 -103.117 2088
69.3875 -103.117 2088
74.3806 -103.117 2088
79.3736 -103.117 2088
84.5687 -103.364 2093
89.5737 -103.364 2093
94.7142 -103.512 2096
99.7264 -103.512 2096
104.988 -103.759 2101
110.17 -103.907 2104
115.475 -104.154 2109
120.518 -104.154 2109
125.74 -104.303 2112
130.79 -104.303 2112
136.355 -104.698 2120
141.425 -104.698 2120
146.633 -104.796 2122
151.707 -104.796 2122
157.003 -104.945 2125
162.084 -104.945 2125
167.638 -105.241 2131
172.734 -105.241 2131
177.997 -105.34 2133
183.097 -105.34 2133
188.463 -105.488 2136
193.842 -105.636 2139
199.422 -105.883 2144
204.549 -105.883 2144
209.676 -105.883 2144
215.104 -106.031 2147
220.238 -106.031 2147
225.372 -106.031 2147
231.687 -106.574 2158
238.384 -107.266 2172
244.251 -107.562 2178
249.459 -107.562 2178
255.954 -108.105 2189
262.978 -108.846 2204
273.238 -110.871 2245
278.607 -110.871 2245
287.897 -112.402 2276
294.886 -112.994 2288
301.67 -113.488 2298
307.165 -113.488 2298
313.885 -113.933 2307
321.617 -114.723 2323
329.989 -115.711 2343
335.591 -115.711 2343
343.087 -116.353 2356
348.721 -116.353 2356
354.355 -116.353 2356
441.044 -140.354 2842
448.628 -140.601 2847
455.436 -140.601 2847
462.244 -140.601 2847
469.053 -140.601 2847
476.696 -140.848 2852
483.516 -140.848 2852
491.196 -141.095 2857
498.899 -141.342 2862
505.743 -141.342 2862
512.587 -141.342 2862
520.157 -141.539 2866
527.011 -141.539 2866
533.864 -141.539 2866
540.718 -141.539 2866
546.807 -141.342 2862
553.651 -141.342 2862
560.495 -141.342 2862
567.339 -141.342 2862
574.182 -141.342 2862
580.011 -141.095 2857
586.843 -141.095 2857
594.714 -141.342 2862
601.558 -141.342 2862
608.402 -141.342 2862
615.246 -141.342 2862
622.09 -141.342 2862
628.934 -141.342 2862
635.778 -141.342 2862
642.622 -141.342 2862
649.465 -141.342 2862
656.309 -141.342 2862
663.153 -141.342 2862
669.997 -141.342 2862
676.841 -141.342 2862
682.491 -141.095 2857
689.323 -141.095 2857
696.154 -141.095 2857
702.986 -141.095 2857
709.818 -141.095 2857
716.65 -141.095 2857
722.216 -140.848 2852
729.036 -140.848 2852
735.856 -140.848 2852
742.676 -140.848 2852
748.182 -140.601 2847
754.99 -140.601 2847
763.136 -140.848 2852
769.956 -140.848 2852
776.776 -140.848 2852
783.596 -140.848 2852
790.416 -140.848 2852
795.838 -140.601 2847
802.646 -140.601 2847
808.033 -140.354 2842
814.829 -140.354 2842
821.625 -140.354 2842
828.421 -140.354 2842
835.217 -140.354 2842
842.013 -140.354 2842
848.809 -140.354 2842
855.605 -140.354 2842
862.402 -140.354 2842
869.198 -140.354 2842
875.994 -140.354 2842
881.237 -140.107 2837
885.204 -139.663 2828
891.966 -139.663 2828
898.729 -139.663 2828
900.689 -138.922 2813
907.415 -138.922 2813
914.142 -138.922 2813
920.869 -138.922 2813
926.277 -138.724 2809
932.994 -138.724 2809
938.038 -138.477 2804
944.744 -138.477 2804
948.056 -137.984 2794
954.737 -137.984 2794
1356.62 -190.727 3862
1365.86 -190.727 3862
1375.09 -190.727 3862
1377.88 -189.838 3844
1387.07 -189.838 3844
1374.1 -186.826 3783
1364.5 -184.307 3732
1367.54 -183.517 3716
1367.17 -182.282 3691
1375.99 -182.282 3691
1378.82 -181.492 3675
1387.6 -181.492 3675
1393.35 -181.097 3667
1402.12 -181.097 3667
1407.43 -180.653 3658
1409.98 -179.863 3642
1406.61 -178.332 3611
1415.25 -178.332 3611
1420.73 -177.937 3603
1420.22 -176.801 3580
1422.79 -176.06 3565
1418.87 -174.529 3534
1427.32 -174.529 3534
1435.78 -174.529 3534
1438.5 -173.838 3520
1437.47 -172.702 3497
1445.83 -172.702 3497
1448.37 -172.01 3483
1453.77 -171.665 3476
1446.94 -169.887 3440
1455.17 -169.887 3440
1457.44 -169.195 3426
1462.64 -168.85 3419
1464.79 -168.158 3405
1469.9 -167.812 3398
1478.03 -167.812 3398
1483.09 -167.467 3391
1467.46 -164.8 3337
1469.25 -164.109 3323
1477.19 -164.109 3323
1482.46 -163.812 3317
1484.1 -163.121 3303
1492 -163.121 3303
1503.07 -163.467 3310
1510.99 -163.467 3310
1534.05 -165.096 3343
1603.39 -171.665 3476
1614.95 -172.01 3483
1623.28 -172.01 3483
1634.89 -172.356 3490
1650.29 -173.097 3505
1669.09 -174.183 3527
1677.52 -174.183 3527
1700.3 -175.665 3557
1708.8 -175.665 3557
1717.31 -175.665 3557
1733.09 -176.406 3572
1741.63 -176.406 3572
1758.01 -177.196 3588
1766.59 -177.196 3588
1782.6 -177.937 3603
1791.21 -177.937 3603
1799.83 -177.937 3603
1808.44 -177.937 3603
1817.06 -177.937 3603
1802.37 -175.665 3557
1509.08 -136.156 2757
1515.67 -136.156 2757
1522.26 -136.156 2757
1536.62 -136.848 2771
1543.24 -136.848 2771
1549.87 -136.848 2771
1556.5 -136.848 2771
1563.12 -136.848 2771
1569.75 -136.848 2771
1576.38 -136.848 2771
1583 -136.848 2771
1587.33 -136.65 2767
1591.07 -136.403 2762
1597.68 -136.403 2762
1601.38 -136.156 2757
1607.97 -136.156 2757
1614.56 -136.156 2757
1621.15 -136.156 2757
1625.39 -135.959 2753
1626.63 -135.514 2744
1633.2 -135.514 2744
1634.38 -135.07 2735
1640.92 -135.07 2735
1642.04 -134.625 2726
1645.53 -134.378 2721
1649.61 -134.181 2717
1656.11 -134.181 2717
1657.1 -133.736 2708
1658.04 -133.292 2699
1662.03 -133.094 2695
1668.48 -133.094 2695
1666.84 -132.452 2682
1673.26 -132.452 2682
1679.67 -132.452 2682
1686.08 -132.452 2682
1689.97 -132.255 2678
1693.21 -132.008 2673
1699.6 -132.008 2673
1700.89 -131.613 2665
1707.26 -131.613 2665
1711.06 -131.415 2661
1717.42 -131.415 2661
1720.55 -131.168 2656
1726.9 -131.168 2656
1730.64 -130.971 2652
1734.36 -130.773 2648
1740.69 -130.773 2648
1747.03 -130.773 2648
1750.71 -130.576 2644
1754.37 -130.378 2640
1760.69 -130.378 2640
1763.65 -130.131 2635
1769.95 -130.131 2635
1776.26 -130.131 2635
1777.14 -129.736 2627
1783.43 -129.736 2627
1789.71 -129.736 2627
1795.99 -129.736 2627
1802.27 -129.736 2627
1808.55 -129.736 2627
1817.6 -129.934 2631
1823.89 -129.934 2631
1830.18 -129.934 2631
1836.47 -129.934 2631
1842.77 -129.934 2631
1843.44 -129.539 2623
1849.71 -129.539 2623
1855.98 -129.539 2623
1862.25 -129.539 2623
1868.52 -129.539 2623
1871.94 -129.341 2619
1872.46 -128.946 2611
1878.71 -128.946 2611
1884.95 -128.946 2611
1885.4 -128.551 2603
1891.62 -128.551 2603
1894.93 -128.353 2599
1901.15 -128.353 2599
1903.69 -128.106 2594
1906.95 -127.909 2590
1907.24 -127.514 2582
1913.41 -127.514 2582
1919.58 -127.514 2582
1922.78 -127.316 2578
1925.95 -127.119 2574
1929.85 -126.971 2571
1936 -126.971 2571
1942.15 -126.971 2571
1945.26 -126.773 2567
1948.36 -126.575 2563
1954.49 -126.575 2563
1960.62 -126.575 2563
-2047.76 -128.518 2735
-2057.64 -129.552 2757
-2058.49 -130.022 2767
-2051.87 -130.022 2767
-2045.25 -130.022 2767
-2031.27 -129.552 2757
-2024.68 -129.552 2757
-2018.08 -129.552 2757
-2008.57 -129.364 2753
-1995.44 -128.941 2744
-1988.88 -128.941 2744
-1982.32 -128.941 2744
-2455.59 -162.962 3468
-2447.3 -162.962 3468
-2439.01 -162.962 3468
-2416 -161.975 3447
-2412.64 -162.304 3454
-2404.38 -162.304 3454
-2405.84 -162.962 3468
-2397.54 -162.962 3468
-2389.25 -162.962 3468
-2371.35 -162.304 3454
-2363.09 -162.304 3454
-2340.51 -161.317 3433
-2332.3 -161.317 3433
-2309.87 -160.33 3412
-2311.16 -160.988 3426
-2317.08 -161.975 3447
-2308.84 -161.975 3447
-2300.6 -161.975 3447
-2292.35 -161.975 3447
-2274.83 -161.317 3433
-2266.63 -161.317 3433
-2249.21 -160.659 3419
-2241.03 -160.659 3419
-2237.43 -160.988 3426
-2242.9 -161.975 3447
-2234.66 -161.975 3447
-2239.98 -162.962 3468
-2231.68 -162.962 3468
-2223.39 -162.962 3468
-2215.1 -162.962 3468
-2230.35 -164.7 3505
-2245.42 -166.439 3542
-2251.48 -167.52 3565
-2242.95 -167.52 3565
-2243.83 -168.225 3580
-2235.27 -168.225 3580
-2226.71 -168.225 3580
-2218.15 -168.225 3580
-2209.59 -168.225 3580
-2229.12 -173.065 3683
-2220.32 -173.065 3683
-2211.51 -173.065 3683
-2193.13 -172.313 3667
-2165.3 -170.809 3635
-2160.76 -171.138 3642
-2152.05 -171.138 3642
-2152.76 -171.89 3658
-2144.01 -171.89 3658
-2135.26 -171.89 3658
-2126.52 -171.89 3658
-2113.14 -171.514 3650
-2099.8 -171.138 3642
-2091.09 -171.138 3642
-2073.8 -170.433 3627
-2078.23 -171.514 3650
-2088.21 -173.065 3683
-2098.03 -174.615 3716
-2089.15 -174.615 3716
-2080.26 -174.615 3716
-2071.37 -174.615 3716
-2062.49 -174.615 3716
-2053.6 -174.615 3716
-2039.76 -174.192 3707
-2040.21 -174.991 3724
-2031.31 -174.991 3724
-2022.4 -174.991 3724
-2013.5 -174.991 3724
-2004.59 -174.991 3724
-1995.69 -174.991 3724
-1982.51 -174.615 3716
-1964.6 -173.817 3699
-1947.29 -173.065 3683
-1938.49 -173.065 3683
-1916.58 -171.89 3658
-1903.66 -171.514 3650
-1912.06 -173.065 3683
-1903.26 -173.065 3683
-1894.45 -173.065 3683
-1881.55 -172.689 3675
-1860.02 -171.514 3650
-1851.29 -171.514 3650
-1834.99 -170.809 3635
-1810.22 -169.306 3603
-1797.6 -168.93 3595
-1789.01 -168.93 3595
-1776.94 -168.601 3588
-1764.42 -168.225 3580
-1767.14 -169.306 3603
-1770.24 -170.433 3627
-1761.57 -170.433 3627
-1752.89 -170.433 3627
-1744.22 -170.433 3627
-1739.37 -170.809 3635
-1745.92 -172.313 3667
-1737.15 -172.313 3667
-1728.38 -172.313 3667
-1719.61 -172.313 3667
-1710.84 -172.313 3667
-1694.18 -171.514 3650
-1671.14 -170.057 3619
-1658.81 -169.681 3611
-1650.17 -169.681 3611
-1641.54 -169.681 3611
-1640.14 -170.433 3627
-1638.21 -171.138 3642
-1640.69 -172.313 3667
-1631.92 -172.313 3667
-1623.15 -172.313 3667
-1610.42 -171.89 3658
-1601.67 -171.89 3658
-1589.44 -171.514 3650
-1560.36 -169.306 3603
-1216.24 -140.501 2990
-1209.09 -140.501 2990
-1201.94 -140.501 2990
-1186 -139.467 2968
-1178.9 -139.467 2968
-1163.51 -138.48 2947
-1152.54 -138.01 2937
-1137.71 -137.07 2917
-1130.74 -137.07 2917
-1127.62 -137.54 2927
-1120.62 -137.54 2927
-1113.62 -137.54 2927
-1106.62 -137.54 2927
-1099.62 -137.54 2927
-1092.62 -137.54 2927
-1085.62 -137.54 2927
-1078.62 -137.54 2927
-1071.62 -137.54 2927
-1064.62 -137.54 2927
-1057.62 -137.54 2927
-1047.03 -137.07 2917
-1040.06 -137.07 2917
-1029.19 -136.553 2906
-1020.48 -136.318 2901
-1013.54 -136.318 2901
-1006.61 -136.318 2901
-997.945 -136.083 2896
-991.02 -136.083 2896
-982.396 -135.849 2891
-975.482 -135.849 2891
-968.569 -135.849 2891
-961.656 -135.849 2891
-954.743 -135.849 2891
-947.829 -135.849 2891
-939.289 -135.614 2886
-932.387 -135.614 2886
-925.486 -135.614 2886
-918.585 -135.614 2886
-910.104 -135.379 2881
-904.782 -135.614 2886
-897.881 -135.614 2886
-890.98 -135.614 2886
-884.078 -135.614 2886
-877.177 -135.614 2886
-870.276 -135.614 2886
-863.374 -135.614 2886
-856.473 -135.614 2886
-849.572 -135.614 2886
-842.671 -135.614 2886
-835.769 -135.614 2886
-828.868 -135.614 2886
-820.543 -135.379 2881
-813.653 -135.379 2881
-806.764 -135.379 2881
-799.875 -135.379 2881
-791.609 -135.144 2876
-784.732 -135.144 2876
-777.854 -135.144 2876
-770.977 -135.144 2876
-762.771 -134.909 2871
-754.589 -134.674 2866
-747.736 -134.674 2866
-740.882 -134.674 2866
-734.029 -134.674 2866
-727.175 -134.674 2866
-720.322 -134.674 2866
-713.468 -134.674 2866
-705.629 -134.486 2862
-698.785 -134.486 2862
-690.732 -134.251 2857
-683.9 -134.251 2857
-677.068 -134.251 2857
-669.063 -134.016 2852
-662.243 -134.016 2852
-655.423 -134.016 2852
-648.603 -134.016 2852
-641.783 -134.016 2852
-636.076 -134.251 2857
-630.346 -134.486 2862
-623.502 -134.486 2862
-620.752 -135.379 2881
-624.729 -137.775 2932
-627.62 -139.984 2979
-620.496 -139.984 2979
-626.756 -143.038 3044
-631.077 -145.716 3101
-629.493 -147.079 3130
-622.009 -147.079 3130
-631.016 -151.026 3214
-638.07 -154.598 3290
-635.374 -155.866 3317
-627.442 -155.866 3317
-621.938 -156.477 3330
-615.266 -156.806 3337
-607.286 -156.806 3337
-599.307 -156.806 3337
-592.39 -157.088 3343
-584.396 -157.088 3343
-577.609 -157.417 3350
-569.598 -157.417 3350
-561.587 -157.417 3350
-556.881 -158.357 3370
-552.242 -159.344 3391
-544.133 -159.344 3391
-537.131 -159.673 3398
-530.095 -160.001 3405
-523.026 -160.33 3412
-514.867 -160.33 3412
-509.826 -161.317 3433
-501.617 -161.317 3433
-493.407 -161.317 3433
-485.198 -161.317 3433
-476.989 -161.317 3433
-468.779 -161.317 3433
-460.57 -161.317 3433
-452.361 -161.317 3433
-441.434 -160.33 3412
-433.275 -160.33 3412
-425.116 -160.33 3412
-415.246 -159.673 3398
-247.052 -96.8937 2062
-242.121 -96.8937 2062
-238.341 -97.3636 2072
-233.386 -97.3636 2072
-229.092 -97.6455 2078
-224.878 -97.9745 2085
-220.736 -98.3504 2093
-215.731 -98.3504 2093
-211.23 -98.5853 2098
-206.802 -98.8673 2104
-201.963 -98.9613 2106
-197.488 -99.2432 2112
-192.437 -99.2432 2112
-187.564 -99.3372 2114
-182.509 -99.3372 2114
-177.454 -99.3372 2114
-172.399 -99.3372 2114
-167.818 -99.6191 2120
-162.749 -99.6191 2120
-157.679 -99.6191 2120
-152.61 -99.6191 2120
-148.097 -99.995 2128
-143.008 -99.995 2128
-138.114 -100.136 2131
-133.018 -100.136 2131
-127.922 -100.136 2131
-122.654 -99.995 2128
-117.565 -99.995 2128
-112.476 -99.995 2128
-107.236 -99.8541 2125
-102.155 -99.8541 2125
-97.073 -99.8541 2125
-91.8616 -99.7131 2122
-86.7055 -99.6191 2120
-81.5204 -99.4781 2117
-76.458 -99.4781 2117
-71.3956 -99.4781 2117
-66.2392 -99.3372 2114
-61.1261 -99.2432 2112
-56.0757 -99.2432 2112
-50.9528 -99.1022 2109
-45.8442 -98.9613 2106
-40.7694 -98.8673 2104
-35.7381 -98.8673 2104
-30.663 -98.7263 2101
-25.6389 -98.7263 2101
-20.5853 -98.5853 2098
-15.5535 -98.4913 2096
-10.5413 -98.4913 2096
-5.52917 -98.4913 2096
-0.516263 -98.3504 2093
4.48445 -98.2564 2091
9.48466 -98.2564 2091
14.4849 -98.2564 2091
19.4851 -98.2564 2091
24.4502 -98.1154 2088
29.4432 -98.1154 2088
34.4363 -98.1154 2088
39.4293 -98.1154 2088
44.4223 -98.1154 2088
49.4154 -98.1154 2088
54.4084 -98.1154 2088
59.4015 -98.1154 2088
64.3945 -98.1154 2088
69.4872 -98.2564 2091
74.4874 -98.2564 2091
79.4877 -98.2564 2091
84.5687 -98.3504 2093
89.5737 -98.3504 2093
94.8046 -98.5853 2098
99.8216 -98.5853 2098
104.988 -98.7263 2101
110.17 -98.8673 2104
115.475 -99.1022 2109
120.518 -99.1022 2109
125.561 -99.1022 2109
130.79 -99.2432 2112
136.355 -99.6191 2120
141.425 -99.6191 2120
146.633 -99.7131 2122
151.707 -99.7131 2122
157.003 -99.8541 2125
162.084 -99.8541 2125
167.402 -99.995 2128
172.734 -100.136 2131
177.997 -100.23 2133
183.097 -100.23 2133
188.463 -100.371 2136
193.842 -100.512 2139
199.422 -100.747 2144
204.549 -100.747 2144
209.676 -100.747 2144
215.104 -100.888 2147
220.546 -101.029 2150
225.687 -101.029 2150
231.687 -101.405 2158
238.384 -102.063 2172
244.251 -102.345 2178
249.459 -102.345 2178
255.954 -102.861 2189
262.978 -103.566 2204
273.238 -105.493 2245
278.607 -105.493 2245
287.897 -106.95 2276
294.886 -107.513 2288
302.064 -108.124 2301
307.566 -108.124 2301
314.837 -108.735 2314
322.171 -109.346 2327
330.975 -110.427 2350
336.594 -110.427 2350
343.087 -110.709 2356
348.721 -110.709 2356
354.355 -110.709 2356
441.82 -133.781 2847
448.628 -133.781 2847
455.436 -133.781 2847
462.244 -133.781 2847
469.053 -133.781 2847
476.696 -134.016 2852
483.516 -134.016 2852
491.196 -134.251 2857
498.899 -134.486 2862
505.743 -134.486 2862
512.587 -134.486 2862
520.157 -134.674 2866
527.011 -134.674 2866
533.864 -134.674 2866
540.718 -134.674 2866
547.571 -134.674 2866
554.424 -134.674 2866
561.278 -134.674 2866
568.131 -134.674 2866
574.182 -134.486 2862
581.026 -134.486 2862
587.87 -134.486 2862
594.714 -134.486 2862
601.558 -134.486 2862
608.402 -134.486 2862
615.246 -134.486 2862
622.09 -134.486 2862
628.934 -134.486 2862
635.778 -134.486 2862
642.622 -134.486 2862
649.465 -134.486 2862
656.309 -134.486 2862
663.153 -134.486 2862
669.997 -134.486 2862
676.841 -134.486 2862
683.685 -134.486 2862
689.323 -134.251 2857
696.154 -134.251 2857
702.986 -134.251 2857
709.818 -134.251 2857
716.65 -134.251 2857
723.482 -134.251 2857
730.314 -134.251 2857
737.146 -134.251 2857
742.676 -134.016 2852
749.496 -134.016 2852
756.316 -134.016 2852
763.136 -134.016 2852
769.956 -134.016 2852
776.776 -134.016 2852
783.596 -134.016 2852
790.416 -134.016 2852
797.236 -134.016 2852
804.056 -134.016 2852
809.455 -133.781 2847
816.263 -133.781 2847
823.071 -133.781 2847
829.879 -133.781 2847
836.687 -133.781 2847
843.495 -133.781 2847
850.303 -133.781 2847
857.111 -133.781 2847
862.402 -133.546 2842
869.198 -133.546 2842
875.994 -133.546 2842
881.237 -133.311 2837
888.021 -133.311 2837
894.805 -133.311 2837
898.729 -132.888 2828
903.891 -132.653 2823
907.415 -132.183 2813
914.142 -132.183 2813
920.869 -132.183 2813
927.596 -132.183 2813
932.994 -131.995 2809
938.038 -131.76 2804
944.744 -131.76 2804
951.449 -131.76 2804
953.37 -131.103 2790
1356.62 -181.476 3862
1365.86 -181.476 3862
1375.09 -181.476 3862
1374.65 -180.207 3835
1383.82 -180.207 3835
1374.1 -177.764 3783
1361.58 -174.991 3724
1358.34 -173.441 3691
1364.2 -173.065 3683
1373.01 -173.065 3683
1375.81 -172.313 3667
1384.58 -172.313 3667
1389.93 -171.89 3658
1398.68 -171.89 3658
1401.27 -171.138 3642
1407.27 -170.809 3635
1403.5 -169.306 3603
1412.11 -169.306 3603
1414.81 -168.601 3588
1414.27 -167.52 3565
1410.42 -166.063 3534
1413.25 -165.405 3520
1421.67 -165.405 3520
1426.84 -165.029 3512
1429.11 -164.325 3497
1431.71 -163.667 3483
1440.04 -163.667 3483
1445.46 -163.338 3476
1450.43 -162.962 3468
1446.94 -161.646 3440
1455.17 -161.646 3440
1454.46 -160.659 3419
1459.64 -160.33 3412
1464.79 -160.001 3405
1469.9 -159.673 3398
1478.03 -159.673 3398
1483.09 -159.344 3391
1467.46 -156.806 3337
1469.25 -156.148 3323
1477.19 -156.148 3323
1482.46 -155.866 3317
1484.1 -155.208 3303
1492 -155.208 3303
1503.07 -155.537 3310
1510.99 -155.537 3310
1534.05 -157.088 3343
1603.39 -163.338 3476
1614.95 -163.667 3483
1623.28 -163.667 3483
1634.89 -163.996 3490
1650.29 -164.7 3505
1669.09 -165.734 3527
1677.52 -165.734 3527
1700.3 -167.144 3557
1708.8 -167.144 3557
1717.31 -167.144 3557
1733.09 -167.849 3572
1741.63 -167.849 3572
1758.01 -168.601 3588
1766.59 -168.601 3588
1775.17 -168.601 3588
1783.75 -168.601 3588
1792.33 -168.601 3588
1796.9 -168.225 3580
1805.46 -168.225 3580
1802.37 -167.144 3557
1509.08 -129.552 2757
1515.67 -129.552 2757
1522.26 -129.552 2757
1536.62 -130.21 2771
1543.24 -130.21 2771
1549.87 -130.21 2771
1556.5 -130.21 2771
1563.12 -130.21 2771
1569.75 -130.21 2771
1576.38 -130.21 2771
1583 -130.21 2771
1587.33 -130.022 2767
1591.07 -129.787 2762
1597.68 -129.787 2762
1601.38 -129.552 2757
1607.97 -129.552 2757
1614.56 -129.552 2757
1621.15 -129.552 2757
1625.39 -129.364 2753
1626.63 -128.941 2744
1633.2 -128.941 2744
1634.38 -128.518 2735
1640.92 -128.518 2735
1642.04 -128.095 2726
1645.53 -127.86 2721
1649.61 -127.672 2717
1656.11 -127.672 2717
1657.1 -127.249 2708
1658.04 -126.826 2699
1662.03 -126.638 2695
1668.48 -126.638 2695
1666.84 -126.028 2682
1673.26 -126.028 2682
1679.67 -126.028 2682
1686.08 -126.028 2682
1689.97 -125.84 2678
1693.21 -125.605 2673
1699.6 -125.605 2673
1700.89 -125.229 2665
1707.26 -125.229 2665
1711.06 -125.041 2661
1717.42 -125.041 2661
1720.55 -124.806 2656
1726.9 -124.806 2656
1730.64 -124.618 2652
1734.36 -124.43 2648
1740.69 -124.43 2648
1747.03 -124.43 2648
1750.71 -124.242 2644
1754.37 -124.054 2640
1760.69 -124.054 2640
1763.65 -123.819 2635
1769.95 -123.819 2635
1776.26 -123.819 2635
1777.14 -123.443 2627
1783.43 -123.443 2627
1789.71 -123.443 2627
1795.99 -123.443 2627
1802.27 -123.443 2627
1808.55 -123.443 2627
1817.6 -123.631 2631
1823.89 -123.631 2631
1830.18 -123.631 2631
1836.47 -123.631 2631
1842.77 -123.631 2631
1843.44 -123.255 2623
1849.71 -123.255 2623
1855.98 -123.255 2623
1862.25 -123.255 2623
1868.52 -123.255 2623
1871.94 -123.067 2619
1872.46 -122.691 2611
1878.71 -122.691 2611
1884.95 -122.691 2611
1885.4 -122.315 2603
1891.62 -122.315 2603
1894.93 -122.127 2599
1901.15 -122.127 2599
1903.69 -121.892 2594
1906.95 -121.704 2590
1907.24 -121.329 2582
1913.41 -121.329 2582
1919.58 -121.329 2582
1922.78 -121.141 2578
1925.95 -120.953 2574
1929.85 -120.812 2571
1936 -120.812 2571
1942.15 -120.812 2571
1945.26 -120.624 2567
1948.36 -120.436 2563
1954.49 -120.436 2563
1960.62 -120.436 2563
-2050.76 -122.145 2739
-2061.37 -123.17 2762
-2061.46 -123.572 2771
-2054.84 -123.572 2771
-2048.21 -123.572 2771
-2038.64 -123.393 2767
-2032.02 -123.393 2767
-2021.74 -123.17 2762
-2015.14 -123.17 2762
-2008.53 -123.17 2762
-2001.93 -123.17 2762
-1991.71 -122.947 2757
-2420.9 -152.469 3419
-2412.72 -152.469 3419
-2404.55 -152.469 3419
-2396.37 -152.469 3419
-2407.75 -153.718 3447
-2399.51 -153.718 3447
-2396.12 -154.03 3454
-2387.86 -154.03 3454
-2379.61 -154.03 3454
-2371.35 -154.03 3454
-2348.72 -153.093 3433
-2326.19 -152.157 3412
-2318.03 -152.157 3412
-2300.4 -151.533 3398
-2292.27 -151.533 3398
-2307.67 -153.093 3433
-2299.46 -153.093 3433
-2291.25 -153.093 3433
-2283.04 -153.093 3433
-2265.56 -152.469 3419
-2257.38 -152.469 3419
-2249.21 -152.469 3419
-2227.27 -151.533 3398
-2219.14 -151.533 3398
-2247.45 -154.03 3454
-2239.19 -154.03 3454
-2235.45 -154.342 3461
-2227.18 -154.342 3461
-2233.01 -155.323 3483
-2224.68 -155.323 3483
-2234.8 -156.616 3512
-2245.42 -157.954 3542
-2251.48 -158.98 3565
-2242.95 -158.98 3565
-2243.83 -159.649 3580
-2235.27 -159.649 3580
-2226.71 -159.649 3580
-2218.15 -159.649 3580
-2209.59 -159.649 3580
-2201.03 -159.649 3580
-2192.46 -159.649 3580
-2183.9 -159.649 3580
-2203.9 -161.745 3627
-2209.15 -162.77 3650
-2200.42 -162.77 3650
-2191.69 -162.77 3650
-2178.18 -162.414 3642
-2155.77 -161.388 3619
-2147.12 -161.388 3619
-2138.46 -161.388 3619
-2139.22 -162.102 3635
-2134.63 -162.414 3642
-2125.93 -162.414 3642
-2117.22 -162.414 3642
-2104.45 -162.102 3635
-2086.54 -161.388 3619
-2077.88 -161.388 3619
-2060.08 -160.674 3603
-2051.46 -160.674 3603
-2064.96 -162.414 3642
-2074.88 -163.885 3675
-2066.1 -163.885 3675
-2070.74 -164.956 3699
-2061.9 -164.956 3699
-2053.05 -164.956 3699
-2044.21 -164.956 3699
-2022.16 -163.885 3675
-2022.13 -164.599 3691
-2017.67 -164.956 3699
-2008.83 -164.956 3699
-1999.98 -164.956 3699
-1991.13 -164.956 3699
-1982.29 -164.956 3699
-1973.44 -164.956 3699
-1956.1 -164.242 3683
-1934.07 -163.127 3658
-1925.33 -163.127 3658
-1900.34 -161.745 3627
-1891.66 -161.745 3627
-1894.93 -162.77 3650
-1886.2 -162.77 3650
-1877.48 -162.77 3650
-1868.75 -162.77 3650
-1852.38 -162.102 3635
-1843.68 -162.102 3635
-1822.87 -161.031 3611
-1806.2 -160.318 3595
-1790.1 -159.649 3580
-1781.54 -159.649 3580
-1769.02 -159.292 3572
-1760.48 -159.292 3572
-1755.86 -159.649 3580
-1758.53 -160.674 3603
-1749.91 -160.674 3603
-1741.29 -160.674 3603
-1736.52 -161.031 3611
-1731.72 -161.388 3619
-1730.68 -162.102 3635
-1721.99 -162.102 3635
-1713.3 -162.102 3635
-1697.1 -161.388 3619
-1688.45 -161.388 3619
-1679.79 -161.388 3619
-1663.75 -160.674 3603
-1651.46 -160.318 3595
-1642.86 -160.318 3595
-1631.08 -160.006 3588
-1636.52 -161.388 3619
-1631.47 -161.745 3627
-1629.5 -162.414 3642
-1620.8 -162.414 3642
-1612.09 -162.414 3642
-1603.38 -162.414 3642
-1594.67 -162.414 3642
-1579.43 -161.745 3627
-1560.36 -160.674 3603
-1541.84 -159.649 3580
-1533.28 -159.649 3580
-1210.38 -134.274 3011
-1203.18 -134.274 3011
-1195.98 -134.274 3011
-1178.12 -133.07 2984
-1156.46 -131.42 2947
-1145.52 -130.974 2937
-1132.68 -130.306 2922
-1129.54 -130.751 2932
-1122.53 -130.751 2932
-1115.52 -130.751 2932
-1106.62 -130.529 2927
-1099.62 -130.529 2927
-1092.62 -130.529 2927
-1085.62 -130.529 2927
-1078.62 -130.529 2927
-1071.62 -130.529 2927
-1064.62 -130.529 2927
-1057.62 -130.529 2927
-1047.03 -130.083 2917
-1040.06 -130.083 2917
-1033.08 -130.083 2917
-1022.24 -129.592 2906
-1013.54 -129.369 2901
-1006.61 -129.369 2901
-997.945 -129.146 2896
-991.02 -129.146 2896
-984.095 -129.146 2896
-977.169 -129.146 2896
-968.569 -128.923 2891
-961.656 -128.923 2891
-954.743 -128.923 2891
-947.829 -128.923 2891
-940.916 -128.923 2891
-934.003 -128.923 2891
-927.09 -128.923 2891
-920.176 -128.923 2891
-913.263 -128.923 2891
-906.35 -128.923 2891
-899.437 -128.923 2891
-892.523 -128.923 2891
-885.61 -128.923 2891
-878.697 -128.923 2891
-871.784 -128.923 2891
-864.87 -128.923 2891
-857.957 -128.923 2891
-851.044 -128.923 2891
-844.13 -128.923 2891
-835.769 -128.7 2886
-828.868 -128.7 2886
-821.967 -128.7 2886
-815.065 -128.7 2886
-806.764 -128.477 2881
-799.875 -128.477 2881
-792.985 -128.477 2881
-784.732 -128.254 2876
-777.854 -128.254 2876
-770.977 -128.254 2876
-764.099 -128.254 2876
-757.222 -128.254 2876
-747.736 -127.808 2866
-740.882 -127.808 2866
-734.029 -127.808 2866
-727.175 -127.808 2866
-720.322 -127.808 2866
-713.468 -127.808 2866
-706.615 -127.808 2866
-698.785 -127.63 2862
-691.941 -127.63 2862
-685.097 -127.63 2862
-678.253 -127.63 2862
-670.236 -127.407 2857
-662.243 -127.184 2852
-655.423 -127.184 2852
-648.603 -127.184 2852
-641.783 -127.184 2852
-636.076 -127.407 2857
-630.346 -127.63 2862
-623.502 -127.63 2862
-620.752 -128.477 2881
-622.598 -130.306 2922
-619.824 -131.197 2942
-612.789 -131.197 2942
-622.226 -134.765 3022
-624.157 -136.772 3067
-624.868 -138.556 3107
-617.438 -138.556 3107
-631.016 -143.327 3214
-638.07 -146.716 3290
-635.374 -147.92 3317
-627.442 -147.92 3317
-621.938 -148.5 3330
-613.975 -148.5 3330
-606.012 -148.5 3330
-598.049 -148.5 3330
-591.327 -148.812 3337
-584.396 -149.08 3343
-576.402 -149.08 3343
-568.408 -149.08 3343
-561.587 -149.392 3350
-556.881 -150.284 3370
-549.962 -150.596 3377
-541.887 -150.596 3377
-536.024 -151.22 3391
-527.916 -151.22 3391
-523.026 -152.157 3412
-514.867 -152.157 3412
-509.826 -153.093 3433
-501.617 -153.093 3433
-493.407 -153.093 3433
-485.198 -153.093 3433
-476.989 -153.093 3433
-466.868 -152.469 3419
-458.692 -152.469 3419
-450.516 -152.469 3419
-439.623 -151.533 3398
-431.497 -151.533 3398
-423.372 -151.533 3398
-252.594 -92.1771 2067
-247.651 -92.1771 2067
-242.708 -92.1771 2067
-239.031 -92.6677 2078
-234.062 -92.6677 2078
-229.644 -92.8906 2083
-225.525 -93.2474 2091
-221.263 -93.5596 2098
-216.247 -93.5596 2098
-211.834 -93.8271 2104
-206.999 -93.9163 2106
-202.538 -94.1839 2112
-197.675 -94.2731 2114
-192.62 -94.2731 2114
-187.564 -94.2731 2114
-182.509 -94.2731 2114
-177.958 -94.5406 2120
-172.888 -94.5406 2120
-167.818 -94.5406 2120
-162.902 -94.6298 2122
-157.828 -94.6298 2122
-152.754 -94.6298 2122
-148.097 -94.8974 2128
-143.21 -95.0312 2131
-138.114 -95.0312 2131
-133.018 -95.0312 2131
-127.922 -95.0312 2131
-122.826 -95.0312 2131
-117.731 -95.0312 2131
-112.476 -94.8974 2128
-107.236 -94.7636 2125
-102.155 -94.7636 2125
-97.073 -94.7636 2125
-91.8616 -94.6298 2122
-86.7055 -94.5406 2120
-81.5204 -94.4069 2117
-76.458 -94.4069 2117
-71.3956 -94.4069 2117
-66.2392 -94.2731 2114
-61.1261 -94.1839 2112
-56.0757 -94.1839 2112
-50.9528 -94.0501 2109
-45.8007 -93.8271 2104
-40.7694 -93.8271 2104
-35.7381 -93.8271 2104
-30.663 -93.6933 2101
-25.6023 -93.5596 2098
-20.5657 -93.4704 2096
-15.5535 -93.4704 2096
-10.5413 -93.4704 2096
-5.52126 -93.3366 2093
-0.516263 -93.3366 2093
4.48445 -93.2474 2091
9.48466 -93.2474 2091
14.4849 -93.2474 2091
19.4571 -93.1136 2088
24.4502 -93.1136 2088
29.4432 -93.1136 2088
34.4363 -93.1136 2088
39.4293 -93.1136 2088
44.4223 -93.1136 2088
49.4154 -93.1136 2088
54.4084 -93.1136 2088
59.4015 -93.1136 2088
64.3945 -93.1136 2088
69.4872 -93.2474 2091
74.4874 -93.2474 2091
79.4877 -93.2474 2091
84.5687 -93.3366 2093
89.7021 -93.4704 2096
94.8046 -93.5596 2098
99.8216 -93.5596 2098
104.988 -93.6933 2101
110.17 -93.8271 2104
115.475 -94.0501 2109
120.518 -94.0501 2109
125.561 -94.0501 2109
130.914 -94.2731 2114
136.355 -94.5406 2120
141.425 -94.5406 2120
146.633 -94.6298 2122
151.707 -94.6298 2122
157.003 -94.7636 2125
162.084 -94.7636 2125
167.402 -94.8974 2128
172.734 -95.0312 2131
177.997 -95.1204 2133
183.097 -95.1204 2133
188.463 -95.2542 2136
193.842 -95.3879 2139
199.422 -95.6109 2144
204.549 -95.6109 2144
209.676 -95.6109 2144
215.104 -95.7447 2147
220.853 -96.0123 2153
226.002 -96.0123 2153
231.687 -96.2352 2158
238.384 -96.8596 2172
244.587 -97.2609 2181
249.803 -97.2609 2181
255.954 -97.6177 2189
262.978 -98.2866 2204
273.238 -100.115 2245
278.607 -100.115 2245
287.897 -101.497 2276
294.886 -102.033 2288
302.064 -102.612 2301
307.566 -102.612 2301
314.837 -103.192 2314
322.171 -103.772 2327
330.975 -104.797 2350
336.594 -104.797 2350
343.087 -105.065 2356
348.721 -105.065 2356
354.355 -105.065 2356
441.82 -126.961 2847
449.416 -127.184 2852
456.236 -127.184 2852
463.056 -127.184 2852
469.876 -127.184 2852
476.696 -127.184 2852
483.516 -127.184 2852
491.196 -127.407 2857
498.899 -127.63 2862
506.45 -127.808 2866
513.304 -127.808 2866
521.065 -128.031 2871
527.93 -128.031 2871
534.795 -128.031 2871
541.661 -128.031 2871
548.526 -128.031 2871
554.424 -127.808 2866
561.278 -127.808 2866
568.131 -127.808 2866
574.985 -127.808 2866
581.026 -127.63 2862
588.692 -127.808 2866
595.545 -127.808 2866
602.399 -127.808 2866
609.252 -127.808 2866
616.106 -127.808 2866
622.959 -127.808 2866
629.813 -127.808 2866
636.666 -127.808 2866
643.52 -127.808 2866
650.373 -127.808 2866
656.309 -127.63 2862
663.153 -127.63 2862
669.997 -127.63 2862
676.841 -127.63 2862
683.685 -127.63 2862
690.529 -127.63 2862
696.154 -127.407 2857
702.986 -127.407 2857
709.818 -127.407 2857
716.65 -127.407 2857
723.482 -127.407 2857
730.314 -127.407 2857
737.146 -127.407 2857
743.978 -127.407 2857
749.496 -127.184 2852
756.316 -127.184 2852
763.136 -127.184 2852
769.956 -127.184 2852
776.776 -127.184 2852
783.596 -127.184 2852
790.416 -127.184 2852
797.236 -127.184 2852
804.056 -127.184 2852
810.876 -127.184 2852
817.696 -127.184 2852
823.071 -126.961 2847
829.879 -126.961 2847
838.156 -127.184 2852
844.976 -127.184 2852
851.796 -127.184 2852
858.616 -127.184 2852
863.919 -126.961 2847
870.727 -126.961 2847
877.535 -126.961 2847
884.343 -126.961 2847
889.586 -126.738 2842
896.382 -126.738 2842
901.589 -126.515 2837
906.772 -126.292 2832
912.254 -126.114 2828
919.017 -126.114 2828
925.779 -126.114 2828
932.542 -126.114 2828
935.983 -125.668 2818
942.722 -125.668 2818
949.461 -125.668 2818
951.449 -125.043 2804
1296.56 -164.599 3691
1305.38 -164.599 3691
1314.21 -164.599 3691
1334.86 -166.07 3724
1343.77 -166.07 3724
1352.67 -166.07 3724
1346.59 -164.242 3683
1352.45 -163.885 3675
1358.28 -163.529 3667
1367.05 -163.529 3667
1372.44 -163.127 3658
1375.14 -162.414 3642
1383.85 -162.414 3642
1392.56 -162.414 3642
1398.58 -162.102 3635
1404.17 -161.745 3627
1397.65 -160.006 3588
1406.23 -160.006 3588
1411.66 -159.649 3580
1414.27 -158.98 3565
1404.84 -156.973 3520
1413.25 -156.973 3520
1421.67 -156.973 3520
1423.99 -156.304 3505
1429.11 -155.947 3497
1431.71 -155.323 3483
1440.04 -155.323 3483
1445.46 -155.011 3476
1447.5 -154.342 3461
1444 -153.093 3433
1452.21 -153.093 3433
1454.46 -152.469 3419
1456.65 -151.845 3405
1458.77 -151.22 3391
1466.88 -151.22 3391
1474.98 -151.22 3391
1483.09 -151.22 3391
1467.46 -148.812 3337
1469.25 -148.188 3323
1477.19 -148.188 3323
1482.46 -147.92 3317
1484.1 -147.296 3303
1492 -147.296 3303
1503.07 -147.608 3310
1510.99 -147.608 3310
1534.05 -149.08 3343
1603.39 -155.011 3476
1614.95 -155.323 3483
1623.28 -155.323 3483
1634.89 -155.635 3490
1650.29 -156.304 3505
1672.4 -157.597 3534
1680.85 -157.597 3534
1700.3 -158.623 3557
1708.8 -158.623 3557
1717.31 -158.623 3557
1729.69 -158.98 3565
1738.22 -158.98 3565
1746.74 -158.98 3565
1758.72 -159.292 3572
1767.26 -159.292 3572
1775.8 -159.292 3572
1784.34 -159.292 3572
1785.35 -158.623 3557
1793.86 -158.623 3557
1794.77 -157.954 3542
1784.4 -156.304 3505
1532.07 -124.82 2799
1538.76 -124.82 2799
1545.45 -124.82 2799
1552.15 -124.82 2799
1558.84 -124.82 2799
1565.53 -124.82 2799
1572.23 -124.82 2799
1578.92 -124.82 2799
1582.78 -124.597 2794
1589.46 -124.597 2794
1593.86 -124.419 2790
1594.79 -123.973 2780
1599.14 -123.795 2776
1605.77 -123.795 2776
1609.51 -123.572 2771
1616.13 -123.572 2771
1620.42 -123.393 2767
1627.03 -123.393 2767
1627.75 -122.947 2757
1631.97 -122.769 2753
1635.58 -122.546 2748
1639.76 -122.368 2744
1646.32 -122.368 2744
1649.87 -122.145 2739
1654 -121.966 2735
1655.08 -121.565 2726
1661.59 -121.565 2726
1665.05 -121.342 2721
1661.12 -120.584 2704
1667.58 -120.584 2704
1674.05 -120.584 2704
1680.51 -120.584 2704
1686.98 -120.584 2704
1690.32 -120.361 2699
1696.77 -120.361 2699
1700.7 -120.183 2695
1704.61 -120.004 2691
1707.87 -119.781 2686
1711.74 -119.603 2682
1718.15 -119.603 2682
1718.78 -119.201 2673
1725.17 -119.201 2673
1728.97 -119.023 2669
1735.35 -119.023 2669
1739.12 -118.845 2665
1742.88 -118.666 2661
1743.32 -118.265 2652
1749.66 -118.265 2652
1753.36 -118.087 2648
1757.03 -117.908 2644
1760.69 -117.73 2640
1763.65 -117.507 2635
1769.95 -117.507 2635
1773.56 -117.328 2631
1777.14 -117.15 2627
1783.43 -117.15 2627
1789.71 -117.15 2627
1795.99 -117.15 2627
1802.27 -117.15 2627
1808.55 -117.15 2627
1817.6 -117.328 2631
1823.89 -117.328 2631
1830.18 -117.328 2631
1836.47 -117.328 2631
1842.77 -117.328 2631
1843.44 -116.972 2623
1849.71 -116.972 2623
1858.81 -117.15 2627
1865.09 -117.15 2627
1871.37 -117.15 2627
1874.8 -116.972 2623
1875.33 -116.615 2615
1878.71 -116.437 2611
1884.95 -116.437 2611
1888.3 -116.258 2607
1891.62 -116.08 2603
1897.85 -116.08 2603
1904.07 -116.08 2603
1907.36 -115.901 2599
1909.9 -115.678 2594
1910.19 -115.322 2586
1916.37 -115.322 2586
1919.58 -115.143 2582
1925.76 -115.143 2582
1928.94 -114.965 2578
1932.1 -114.787 2574
1938.26 -114.787 2574
1942.15 -114.653 2571
1945.26 -114.474 2567
1951.4 -114.474 2567
1957.54 -114.474 2567
1960.62 -114.296 2563
-2050.76 -115.583 2739
-2065.1 -116.765 2767
-2061.46 -116.934 2771
-2054.84 -116.934 2771
-2048.21 -116.934 2771
-2038.64 -116.765 2767
-2032.02 -116.765 2767
-2025.4 -116.765 2767
-2018.79 -116.765 2767
-2012.17 -116.765 2767
-2005.55 -116.765 2767
-1998.94 -116.765 2767
-1992.32 -116.765 2767
-2420.9 -144.279 3419
-2412.72 -144.279 3419
-2404.55 -144.279 3419
-2396.37 -144.279 3419
-2407.75 -145.46 3447
-2399.51 -145.46 3447
-2396.12 -145.756 3454
-2387.86 -145.756 3454
-2379.61 -145.756 3454
-2371.35 -145.756 3454
-2348.72 -144.87 3433
-2330.96 -144.279 3419
-2322.79 -144.279 3419
-2300.4 -143.393 3398
-2301.72 -143.983 3412
-2317.08 -145.46 3447
-2308.84 -145.46 3447
-2300.6 -145.46 3447
-2292.35 -145.46 3447
-2265.56 -144.279 3419
-2257.38 -144.279 3419
-2249.21 -144.279 3419
-2245.62 -144.574 3426
-2237.43 -144.574 3426
-2252.01 -146.051 3461
-2243.73 -146.051 3461
-2249.66 -146.98 3483
-2241.34 -146.98 3483
-2233.01 -146.98 3483
-2224.68 -146.98 3483
-2234.8 -148.203 3512
-2245.42 -149.469 3542
-2251.48 -150.44 3565
-2242.95 -150.44 3565
-2243.83 -151.073 3580
-2235.27 -151.073 3580
-2226.71 -151.073 3580
-2218.15 -151.073 3580
-2209.59 -151.073 3580
-2201.03 -151.073 3580
-2197.36 -151.41 3588
-2188.78 -151.41 3588
-2203.9 -153.056 3627
-2209.15 -154.027 3650
-2200.42 -154.027 3650
-2191.69 -154.027 3650
-2178.18 -153.689 3642
-2155.77 -152.719 3619
-2147.12 -152.719 3619
-2138.46 -152.719 3619
-2139.22 -153.394 3635
-2134.63 -153.689 3642
-2125.93 -153.689 3642
-2117.22 -153.689 3642
-2104.45 -153.394 3635
-2086.54 -152.719 3619
-2077.88 -152.719 3619
-2060.08 -152.043 3603
-2051.46 -152.043 3603
-2064.96 -153.689 3642
-2074.88 -155.082 3675
-2066.1 -155.082 3675
-2070.74 -156.095 3699
-2061.9 -156.095 3699
-2053.05 -156.095 3699
-2044.21 -156.095 3699
-2022.16 -155.082 3675
-2022.13 -155.757 3691
-2017.67 -156.095 3699
-2008.83 -156.095 3699
-1999.98 -156.095 3699
-1991.13 -156.095 3699
-1982.29 -156.095 3699
-1973.44 -156.095 3699
-1956.1 -155.419 3683
-1934.07 -154.364 3658
-1925.33 -154.364 3658
