ply
format ascii 1.0
comment File generated
element vertex 2255
property float x
property float y
property float z
end_header
-470.895 1038.85 2809
-460.212 1029.97 2785
-452.738 1028.12 2780
-446.09 1028.12 2780
-439.442 1028.12 2780
-432.794 1028.12 2780
-426.146 1028.12 2780
-419.499 1028.12 2780
-412.851 1028.12 2780
-404.888 1024.79 2771
-396.968 1021.47 2762
-390.363 1021.47 2762
-382.508 1018.14 2753
-375.925 1018.14 2753
-369.878 1019.62 2757
-363.285 1019.62 2757
-356.692 1019.62 2757
-350.1 1019.62 2757
-342.385 1016.29 2748
-335.325 1014.81 2744
-328.764 1014.81 2744
-321.615 1012.96 2739
-315.065 1012.96 2739
-308.515 1012.96 2739
-301.965 1012.96 2739
-295.416 1012.96 2739
-288.866 1012.96 2739
-281.904 1011.48 2735
-275.364 1011.48 2735
-268.332 1009.63 2730
-261.804 1009.63 2730
-254.901 1008.15 2726
-248.383 1008.15 2726
-241.065 1004.82 2717
-233.014 998.167 2699
-226.56 998.167 2699
-220.106 998.167 2699
-213.652 998.167 2699
-207.198 998.167 2699
-199.182 990.4 2678
-193.066 991.88 2682
-187.279 995.208 2691
-180.844 995.208 2691
-174.409 995.208 2691
-167.974 995.208 2691
-161.539 995.208 2691
-154.585 991.88 2682
-147.674 988.551 2673
-106.241 817.321 2210
-101.595 822.498 2224
-97.5759 833.593 2254
-92.1859 833.593 2254
-86.7959 833.593 2254
-80.9725 829.155 2242
-75.3077 825.827 2233
-69.7799 823.608 2227
-64.0493 818.43 2213
-58.7574 818.43 2213
-53.3929 817.321 2210
-48.0428 816.211 2207
-42.649 813.992 2201
-37.4876 816.211 2207
-32.21 816.211 2207
-26.9324 816.211 2207
-21.6548 816.211 2207
-16.3772 816.211 2207
-11.0694 813.992 2201
-5.79825 812.883 2198
-0.543642 815.102 2204
4.74609 818.43 2213
10.038 818.43 2213
15.3439 819.17 2215
20.6406 819.17 2215
25.9373 819.17 2215
31.1636 817.321 2210
36.2999 813.992 2201
41.5632 813.992 2201
46.8902 815.102 2204
52.1607 815.102 2204
57.4311 815.102 2204
62.7869 816.211 2207
68.0645 816.211 2207
73.3421 816.211 2207
78.6197 816.211 2207
84.0114 817.321 2210
89.2961 817.321 2210
94.7949 819.17 2215
100.092 819.17 2215
105.817 822.498 2224
111.285 823.608 2227
116.61 823.608 2227
121.936 823.608 2227
127.432 824.717 2230
132.765 824.717 2230
138.098 824.717 2230
143.43 824.717 2230
149.363 828.046 2239
154.925 829.155 2242
160.501 830.265 2245
165.869 830.265 2245
171.237 830.265 2245
227.816 1009.63 2730
235.546 1014.81 2744
243.254 1019.62 2757
249.847 1019.62 2757
257.742 1024.79 2771
264.846 1026.64 2776
271.484 1026.64 2776
278.122 1026.64 2776
285.684 1029.97 2785
292.868 1031.82 2790
301.043 1037 2804
307.748 1037 2804
314.453 1037 2804
321.159 1037 2804
327.864 1037 2804
334.569 1037 2804
340.666 1035.15 2799
346.242 1031.82 2790
352.914 1031.82 2790
358.941 1029.97 2785
364.945 1028.12 2780
372.261 1029.97 2785
380.145 1033.3 2794
386.826 1033.3 2794
393.508 1033.3 2794
402.337 1038.85 2809
409.637 1040.33 2813
416.364 1040.33 2813
423.09 1040.33 2813
428.442 1037 2804
434.371 1035.15 2799
441.065 1035.15 2799
446.958 1033.3 2794
453.639 1033.3 2794
461.144 1035.15 2799
467.838 1035.15 2799
474.531 1035.15 2799
481.224 1035.15 2799
487.917 1035.15 2799
494.611 1035.15 2799
499.692 1031.82 2790
505.456 1029.97 2785
512.116 1029.97 2785
518.776 1029.97 2785
525.436 1029.97 2785
530.376 1026.64 2776
537.014 1026.64 2776
544.436 1028.12 2780
551.084 1028.12 2780
558.734 1029.97 2785
568.236 1035.15 2799
576.984 1038.85 2809
583.701 1038.85 2809
590.418 1038.85 2809
597.135 1038.85 2809
603.852 1038.85 2809
610.57 1038.85 2809
639.702 1076.57 2911
646.663 1076.57 2911
654.971 1078.79 2917
664.216 1082.49 2927
671.215 1082.49 2927
679.373 1084.34 2932
686.384 1084.34 2932
693.396 1084.34 2932
769.353 1026.64 2776
775.991 1026.64 2776
782.63 1026.64 2776
782.729 1018.14 2753
789.312 1018.14 2753
795.895 1018.14 2753
803.644 1019.62 2757
813.176 1023.32 2767
823.644 1028.12 2780
830.292 1028.12 2780
838.445 1029.97 2785
845.105 1029.97 2785
854.517 1033.3 2794
861.199 1033.3 2794
867.88 1033.3 2794
876.126 1035.15 2799
884.397 1037 2804
893.962 1040.33 2813
900.689 1040.33 2813
913.544 1047.35 2832
926.816 1054.75 2852
936.91 1058.45 2862
943.754 1058.45 2862
953.587 1061.78 2871
965.47 1067.32 2886
977.425 1072.87 2901
984.363 1072.87 2901
996.767 1078.79 2917
1003.74 1078.79 2917
1010.72 1078.79 2917
1017.69 1078.79 2917
1024.67 1078.79 2917
1027.75 1074.72 2906
1034.7 1074.72 2906
1039.86 1072.87 2901
1043.19 1069.17 2891
1044.65 1063.63 2876
1051.53 1063.63 2876
1058.41 1063.63 2876
1061.58 1059.93 2866
1074.03 1065.48 2881
1082.79 1067.32 2886
1089.69 1067.32 2886
1096.59 1067.32 2886
1103.5 1067.32 2886
1108.47 1065.48 2881
1115.36 1065.48 2881
1118.36 1061.78 2871
1125.22 1061.78 2871
1124.6 1054.75 2852
1131.42 1054.75 2852
1132.25 1049.2 2837
1133.41 1044.03 2823
1134.51 1038.85 2809
1141.23 1038.85 2809
1141.81 1033.3 2794
1154.66 1038.85 2809
1163.03 1040.33 2813
1169.76 1040.33 2813
1176.48 1040.33 2813
1183.21 1040.33 2813
1188.25 1038.85 2809
1190.71 1035.15 2799
1197.4 1035.15 2799
1201.94 1033.3 2794
1200.84 1026.64 2776
1207.48 1026.64 2776
1218.05 1029.97 2785
1224.71 1029.97 2785
1233.58 1031.82 2790
1240.25 1031.82 2790
1246.93 1031.82 2790
1253.6 1031.82 2790
1260.27 1031.82 2790
1271.03 1035.15 2799
1280 1037 2804
1286.71 1037 2804
1297.57 1040.33 2813
1304.29 1040.33 2813
1311.02 1040.33 2813
1317.75 1040.33 2813
1322.59 1038.85 2809
1326.94 1037 2804
1331.27 1035.15 2799
1337.96 1035.15 2799
1344.65 1035.15 2799
1360.52 1042.18 2818
1367.26 1042.18 2818
1374 1042.18 2818
1357.71 1024.79 2771
1364.33 1024.79 2771
1370.96 1024.79 2771
1387.03 1031.82 2790
1393.7 1031.82 2790
1400.38 1031.82 2790
1409.07 1033.3 2794
1415.75 1033.3 2794
1424.97 1035.15 2799
1431.67 1035.15 2799
1438.36 1035.15 2799
1445.05 1035.15 2799
1451.75 1035.15 2799
1458.44 1035.15 2799
1455.19 1028.12 2780
1459.73 1026.64 2776
1473.77 1031.82 2790
1480.44 1031.82 2790
1502.03 1042.18 2818
1516.27 1047.35 2832
1523.04 1047.35 2832
1529.81 1047.35 2832
1536.58 1047.35 2832
1541.18 1045.87 2828
1563.81 1056.6 2857
1570.64 1056.6 2857
1580.24 1058.45 2862
1597.62 1065.48 2881
1610.08 1069.17 2891
1616.99 1069.17 2891
1626.71 1071.02 2896
1633.64 1071.02 2896
1640.56 1071.02 2896
1641.8 1067.32 2886
1634.99 1058.45 2862
1658.47 1069.17 2891
1668.26 1071.02 2896
1675.19 1071.02 2896
1682.11 1071.02 2896
1686.12 1069.17 2891
1690.11 1067.32 2886
1697.01 1067.32 2886
1686.79 1056.6 2857
1670.5 1042.18 2818
1677.24 1042.18 2818
1686.97 1044.03 2823
1693.72 1044.03 2823
1700.47 1044.03 2823
1710.24 1045.87 2828
1719.43 1047.35 2832
1726.2 1047.35 2832
1732.98 1047.35 2832
1739.75 1047.35 2832
1752.69 1051.05 2842
1759.48 1051.05 2842
1766.28 1051.05 2842
1773.08 1051.05 2842
1779.87 1051.05 2842
1786.67 1051.05 2842
1790.31 1049.2 2837
1793.93 1047.35 2832
1794.98 1044.03 2823
1801.73 1044.03 2823
1808.48 1044.03 2823
1815.23 1044.03 2823
1821.98 1044.03 2823
1828.73 1044.03 2823
1838.73 1045.87 2828
1845.49 1045.87 2828
1852.26 1045.87 2828
-1613.77 1041.85 2799
-1612.81 1045.58 2809
-1606.1 1045.58 2809
-1599.38 1045.58 2809
-1592.66 1045.58 2809
-1583.12 1043.72 2804
-1576.42 1043.72 2804
-1236.08 1022.87 2748
-1238.01 1029.94 2767
-1247.86 1043.72 2804
-1241.16 1043.72 2804
-1245.02 1052.65 2828
-1254.89 1066.79 2866
-1250.22 1068.65 2871
-1243.35 1068.65 2871
-1236.49 1068.65 2871
-1231.76 1070.52 2876
-1224.88 1070.52 2876
-1218.01 1070.52 2876
-1211.13 1070.52 2876
-1206.35 1072.38 2881
-1203.62 1076.1 2891
-1196.71 1076.1 2891
-1191.85 1077.96 2896
-1184.93 1077.96 2896
-1180.03 1079.82 2901
-1173.1 1079.82 2901
-1168.17 1081.68 2906
-1165.62 1085.78 2917
-1158.64 1085.78 2917
-1151.67 1085.78 2917
-1056.17 1033.29 2776
-1049.53 1033.29 2776
-1042.89 1033.29 2776
-1036.25 1033.29 2776
-1026.28 1029.94 2767
-913.621 973.365 2615
-923.329 990.488 2661
-916.965 990.488 2661
-934.214 1016.17 2730
-929.385 1018.03 2735
-927.231 1022.87 2748
-920.66 1022.87 2748
-918.746 1028.08 2762
-916.764 1033.29 2776
-910.126 1033.29 2776
-903.488 1033.29 2776
-896.849 1033.29 2776
-895.983 1039.99 2794
-890.894 1041.85 2799
-884.2 1041.85 2799
-877.507 1041.85 2799
-864.903 1034.78 2780
-858.255 1034.78 2780
-851.607 1034.78 2780
-843.743 1033.29 2776
-834.391 1029.94 2767
-824.783 1026.22 2757
-821.158 1029.94 2767
-814.541 1029.94 2767
-813.18 1036.64 2785
-807.968 1038.5 2790
-803.881 1041.85 2799
-797.188 1041.85 2799
-790.495 1041.85 2799
-779.881 1036.64 2785
-773.221 1036.64 2785
-761.607 1029.94 2767
-752.262 1026.22 2757
-739.719 1018.03 2735
-733.179 1018.03 2735
-721.856 1011.33 2717
-716.412 1012.82 2721
-711.21 1014.68 2726
-709.344 1021.38 2744
-702.783 1021.38 2744
-696.221 1021.38 2744
-691.921 1024.73 2753
-685.338 1024.73 2753
-678.755 1024.73 2753
-669.974 1021.38 2744
-663.412 1021.38 2744
-656.85 1021.38 2744
-650.289 1021.38 2744
-643.727 1021.38 2744
-637.165 1021.38 2744
-632.672 1024.73 2753
-626.998 1026.22 2757
-620.405 1026.22 2757
-614.926 1028.08 2762
-608.321 1028.08 2762
-601.716 1028.08 2762
-595.111 1028.08 2762
-588.507 1028.08 2762
-580.848 1026.22 2757
-574.256 1026.22 2757
-567.663 1026.22 2757
-563.105 1029.94 2767
-558.298 1033.29 2776
-553.449 1036.64 2785
-546.789 1036.64 2785
-541.099 1038.5 2790
-534.427 1038.5 2790
-527.755 1038.5 2790
-520.15 1036.64 2785
-515.149 1039.99 2794
-510.288 1043.72 2804
-504.481 1045.58 2809
-497.763 1045.58 2809
-491.046 1045.58 2809
-480.191 1036.64 2785
-473.531 1036.64 2785
-466.033 1034.78 2780
-456.411 1028.08 2762
-449.806 1028.08 2762
-444.646 1031.43 2771
-438.019 1031.43 2771
-431.393 1031.43 2771
-424.767 1031.43 2771
-418.14 1031.43 2771
-410.92 1029.94 2767
-402.258 1024.73 2753
-393.662 1019.52 2739
-387.113 1019.52 2739
-381.813 1022.87 2748
-375.242 1022.87 2748
-368.671 1022.87 2748
-362.099 1022.87 2748
-355.528 1022.87 2748
-348.449 1021.38 2744
-341.887 1021.38 2744
-334.714 1019.52 2739
-328.165 1019.52 2739
-320.558 1016.17 2730
-314.605 1018.03 2735
-308.515 1019.52 2739
-301.965 1019.52 2739
-295.416 1019.52 2739
-288.444 1018.03 2735
-281.904 1018.03 2735
-275.364 1018.03 2735
-268.823 1018.03 2735
-262.283 1018.03 2735
-255.275 1016.17 2730
-248.747 1016.17 2730
-241.065 1011.33 2717
-233.791 1007.98 2708
-227.316 1007.98 2708
-220.84 1007.98 2708
-213.652 1004.63 2699
-206.891 1003.14 2695
-200.149 1001.65 2691
-194.002 1003.14 2695
-187.835 1004.63 2699
-181.381 1004.63 2699
-174.927 1004.63 2699
-168.223 1003.14 2695
-161.779 1003.14 2695
-154.815 999.793 2686
-147.674 994.954 2673
-140.648 990.488 2661
-134.285 990.488 2661
-98.1387 843.832 2267
-92.7176 843.832 2267
-87.2965 843.832 2267
-80.9725 834.526 2242
-75.4089 832.293 2236
-69.7799 828.943 2227
-64.0493 823.732 2213
-58.7574 823.732 2213
-53.3929 822.615 2210
-48.1081 822.615 2210
-42.7071 820.381 2204
-37.5386 822.615 2210
-32.2538 822.615 2210
-27.0056 823.732 2213
-21.7137 823.732 2213
-16.4217 823.732 2213
-11.0996 821.498 2207
-5.81407 820.381 2204
-0.545122 822.615 2210
4.75038 824.476 2215
10.0471 824.476 2215
15.3439 824.476 2215
20.6406 824.476 2215
25.9373 824.476 2215
31.2341 824.476 2215
36.3494 820.381 2204
41.6765 821.498 2207
46.9541 821.498 2207
52.2317 821.498 2207
57.5093 821.498 2207
62.7869 821.498 2207
68.157 822.615 2210
73.4418 822.615 2210
78.7266 822.615 2210
84.1254 823.732 2213
89.4174 823.732 2213
94.9233 825.593 2218
100.227 825.593 2218
105.959 828.943 2227
111.734 832.293 2236
117.081 832.293 2236
122.428 832.293 2236
127.775 832.293 2236
133.122 832.293 2236
138.655 833.409 2239
144.009 833.409 2239
149.563 834.526 2242
155.339 836.759 2248
160.715 836.759 2248
166.091 836.759 2248
171.466 836.759 2248
223.81 998.305 2682
234.344 1016.17 2730
242.107 1021.38 2744
248.669 1021.38 2744
256.44 1026.22 2757
263.51 1028.08 2762
270.604 1029.94 2767
277.22 1029.94 2767
284.76 1033.29 2776
292.343 1036.64 2785
299.54 1038.5 2790
306.212 1038.5 2790
313.893 1041.85 2799
320.586 1041.85 2799
327.279 1041.85 2799
333.972 1041.85 2799
338.962 1036.64 2785
345.001 1034.78 2780
351.649 1034.78 2780
356.621 1029.94 2767
362.582 1028.08 2762
369.186 1028.08 2762
377.016 1031.43 2771
383.642 1031.43 2771
390.972 1033.29 2776
397.611 1033.29 2776
404.249 1033.29 2776
410.887 1033.29 2776
417.525 1033.29 2776
424.164 1033.29 2776
428.629 1028.08 2762
435.234 1028.08 2762
441.039 1026.22 2757
447.632 1026.22 2757
454.225 1026.22 2757
465.498 1036.64 2785
472.157 1036.64 2785
478.817 1036.64 2785
485.477 1036.64 2785
492.137 1036.64 2785
496.289 1031.43 2771
504.549 1034.78 2780
511.197 1034.78 2780
517.844 1034.78 2780
524.492 1034.78 2780
530.376 1033.29 2776
536.047 1031.43 2771
543.652 1033.29 2776
550.291 1033.29 2776
558.734 1036.64 2785
566.409 1038.5 2790
574.93 1041.85 2799
581.623 1041.85 2799
588.316 1041.85 2799
595.01 1041.85 2799
601.703 1041.85 2799
609.483 1043.72 2804
616.188 1043.72 2804
646.663 1083.54 2911
653.624 1083.54 2911
664.216 1089.5 2927
671.215 1089.5 2927
678.214 1089.5 2927
685.214 1089.5 2927
692.213 1089.5 2927
765.473 1028.08 2762
772.078 1028.08 2762
778.683 1028.08 2762
782.729 1024.73 2753
789.312 1024.73 2753
795.895 1024.73 2753
803.644 1026.22 2757
810.237 1026.22 2757
818.311 1028.08 2762
824.916 1028.08 2762
834.23 1031.43 2771
843.588 1034.78 2780
851.765 1036.64 2785
858.425 1036.64 2785
865.084 1036.64 2785
873.309 1038.5 2790
879.981 1038.5 2790
889.513 1041.85 2799
896.206 1041.85 2799
907.415 1047.07 2813
920.317 1054.14 2832
930.362 1057.86 2842
937.159 1057.86 2842
950.597 1065.3 2862
958.78 1066.79 2866
967.318 1068.65 2871
974.183 1068.65 2871
987.883 1076.1 2891
999.957 1081.68 2906
1006.91 1081.68 2906
1013.86 1081.68 2906
1020.8 1081.68 2906
1024.22 1077.96 2896
1031.14 1077.96 2896
1036.28 1076.1 2891
1037.78 1070.52 2876
1042.84 1068.65 2871
1049.7 1068.65 2871
1053.26 1065.3 2862
1061.58 1066.79 2866
1072.16 1070.52 2876
1082.79 1074.24 2886
1089.69 1074.24 2886
1096.59 1074.24 2886
1103.5 1074.24 2886
1106.55 1070.52 2876
1113.43 1070.52 2876
1118.36 1068.65 2871
1117.78 1061.58 2852
1120.65 1057.86 2842
1127.45 1057.86 2842
1126.66 1050.79 2823
1127.79 1045.58 2809
1126.84 1038.5 2790
1133.51 1038.5 2790
1136.09 1034.78 2780
1148.49 1039.99 2794
1157.24 1041.85 2799
1166.02 1043.72 2804
1172.72 1043.72 2804
1179.43 1043.72 2804
1184.02 1041.85 2799
1186.88 1038.5 2790
1193.55 1038.5 2790
1194.2 1033.29 2776
1194.78 1028.08 2762
1205.3 1031.43 2771
1211.93 1031.43 2771
1218.56 1031.43 2771
1231.37 1036.64 2785
1238.03 1036.64 2785
1244.69 1036.64 2785
1245.06 1031.43 2771
1249.88 1029.94 2767
1264.67 1036.64 2785
1277.72 1041.85 2799
1284.42 1041.85 2799
1291.11 1041.85 2799
1297.8 1041.85 2799
1304.49 1041.85 2799
1311.19 1041.85 2799
1317.88 1041.85 2799
1324.57 1041.85 2799
1331.27 1041.85 2799
1337.96 1041.85 2799
1344.65 1041.85 2799
1360.52 1048.93 2818
1367.26 1048.93 2818
1374 1048.93 2818
1357.71 1031.43 2771
1364.33 1031.43 2771
1370.96 1031.43 2771
1387.03 1038.5 2790
1393.7 1038.5 2790
1400.38 1038.5 2790
1404.53 1036.64 2785
1411.19 1036.64 2785
1424.97 1041.85 2799
1431.67 1041.85 2799
1438.36 1041.85 2799
1445.05 1041.85 2799
1451.75 1041.85 2799
1451.14 1036.64 2785
1455.19 1034.78 2780
1457.1 1031.43 2771
1473.77 1038.5 2790
1480.44 1038.5 2790
1502.03 1048.93 2818
1516.27 1054.14 2832
1523.04 1054.14 2832
1529.81 1054.14 2832
1536.58 1054.14 2832
1541.18 1052.65 2828
1563.81 1063.44 2857
1570.64 1063.44 2857
1580.24 1065.3 2862
1597.62 1072.38 2881
1610.08 1076.1 2891
1616.99 1076.1 2891
1626.71 1077.96 2896
1633.64 1077.96 2896
1640.56 1077.96 2896
1641.8 1074.24 2886
1634.99 1065.3 2862
1658.47 1076.1 2891
1668.26 1077.96 2896
1675.19 1077.96 2896
1682.11 1077.96 2896
1686.12 1076.1 2891
1690.11 1074.24 2886
1697.01 1074.24 2886
1686.79 1063.44 2857
1670.5 1048.93 2818
1677.24 1048.93 2818
1686.97 1050.79 2823
1693.72 1050.79 2823
1700.47 1050.79 2823
1710.24 1052.65 2828
1717 1052.65 2828
1723.77 1052.65 2828
1727.47 1050.79 2823
1734.22 1050.79 2823
1749.6 1056 2837
1756.39 1056 2837
1763.17 1056 2837
1769.96 1056 2837
1773.61 1054.14 2832
1780.38 1054.14 2832
1784.63 1052.65 2828
1779.36 1045.58 2809
1782.9 1043.72 2804
1789.6 1043.72 2804
1784.13 1036.64 2785
1790.79 1036.64 2785
1806.49 1041.85 2799
1813.18 1041.85 2799
1819.88 1041.85 2799
1826.57 1041.85 2799
1833.26 1041.85 2799
-1739.54 1027.96 2744
-1732.98 1027.96 2744
-1726.41 1027.96 2744
-1719.85 1027.96 2744
-1710.17 1026.08 2739
-1701.13 1024.58 2735
-1694.59 1024.58 2735
-1676.94 1017.84 2717
-1578.2 1021.21 2726
-1571.68 1021.21 2726
-1607.07 1048.56 2799
-1600.38 1048.56 2799
-1593.69 1048.56 2799
-1586.99 1048.56 2799
-1577.48 1046.69 2794
-1570.79 1046.69 2794
-1236.08 1029.45 2748
-1238.01 1036.57 2767
-1247.86 1050.43 2804
-1241.16 1050.43 2804
-1242.82 1057.55 2823
-1254.89 1073.66 2866
-1250.22 1075.53 2871
-1243.35 1075.53 2871
-1236.49 1075.53 2871
-1231.76 1077.41 2876
-1224.88 1077.41 2876
-1218.01 1077.41 2876
-1211.13 1077.41 2876
-1206.35 1079.28 2881
-1203.62 1083.02 2891
-1196.71 1083.02 2891
-1189.79 1083.02 2891
-1182.88 1083.02 2891
-1180.03 1086.77 2901
-1173.1 1086.77 2901
-1168.17 1088.64 2906
-1165.62 1092.76 2917
-1158.64 1092.76 2917
-1151.67 1092.76 2917
-1056.17 1039.94 2776
-1049.53 1039.94 2776
-1042.89 1039.94 2776
-1036.25 1039.94 2776
-1026.28 1036.57 2767
-913.621 979.63 2615
-916.042 988.995 2640
-911.107 990.494 2644
-904.785 990.494 2644
-910.016 1003.23 2678
-912.385 1012.97 2704
-905.919 1012.97 2704
-906.771 1021.21 2726
-900.252 1021.21 2726
-897.995 1026.08 2739
-891.446 1026.08 2739
-890.711 1032.83 2757
-884.118 1032.83 2757
-877.525 1032.83 2757
-870.933 1032.83 2757
-864.34 1032.83 2757
-854.947 1029.45 2748
-849.919 1031.33 2753
-843.336 1031.33 2753
-836.753 1031.33 2753
-830.169 1031.33 2753
-820.894 1027.96 2744
-818.19 1032.83 2757
-811.597 1032.83 2757
-807.924 1036.57 2767
-801.308 1036.57 2767
-794.691 1036.57 2767
-788.074 1036.57 2767
-780.045 1034.7 2762
-765.88 1024.58 2735
-759.339 1024.58 2735
-752.799 1024.58 2735
-741.348 1017.84 2717
-731.334 1012.97 2704
-724.868 1012.97 2704
-714.948 1008.1 2691
-710.62 1011.1 2699
-704.166 1011.1 2699
-702.365 1017.84 2717
-695.867 1017.84 2717
-689.37 1017.84 2717
-685.135 1021.21 2726
-678.616 1021.21 2726
-672.098 1021.21 2726
-665.579 1021.21 2726
-659.06 1021.21 2726
-652.542 1021.21 2726
-644.838 1019.34 2721
-639.504 1021.21 2726
-633.914 1022.71 2730
-630.603 1027.96 2744
-626.089 1031.33 2753
-619.505 1031.33 2753
-613.813 1032.83 2757
-607.22 1032.83 2757
-601.716 1034.7 2762
-595.111 1034.7 2762
-588.507 1034.7 2762
-580.848 1032.83 2757
-574.256 1032.83 2757
-567.663 1032.83 2757
-563.105 1036.57 2767
-558.298 1039.94 2776
-553.449 1043.32 2785
-546.789 1043.32 2785
-541.099 1045.19 2790
-534.427 1045.19 2790
-527.755 1045.19 2790
-520.15 1043.32 2785
-515.149 1046.69 2794
-510.288 1050.43 2804
-504.481 1052.31 2809
-497.763 1052.31 2809
-491.046 1052.31 2809
-480.191 1043.32 2785
-473.531 1043.32 2785
-466.033 1041.44 2780
-456.411 1034.7 2762
-449.806 1034.7 2762
-444.646 1038.07 2771
-438.019 1038.07 2771
-431.393 1038.07 2771
-424.767 1038.07 2771
-418.14 1038.07 2771
-410.92 1036.57 2767
-402.258 1031.33 2753
-393.662 1026.08 2739
-387.113 1026.08 2739
-381.813 1029.45 2748
-375.242 1029.45 2748
-368.671 1029.45 2748
-362.099 1029.45 2748
-355.528 1029.45 2748
-348.449 1027.96 2744
-341.887 1027.96 2744
-334.714 1026.08 2739
-328.165 1026.08 2739
-320.558 1022.71 2730
-314.605 1024.58 2735
-308.515 1026.08 2739
-301.965 1026.08 2739
-295.416 1026.08 2739
-288.444 1024.58 2735
-281.904 1024.58 2735
-275.364 1024.58 2735
-268.823 1024.58 2735
-262.283 1024.58 2735
-255.275 1022.71 2730
-248.747 1022.71 2730
-241.065 1017.84 2717
-233.791 1014.47 2708
-227.316 1014.47 2708
-220.84 1014.47 2708
-213.652 1011.1 2699
-206.891 1009.6 2695
-200.149 1008.1 2691
-194.002 1009.6 2695
-187.835 1011.1 2699
-181.381 1011.1 2699
-174.927 1011.1 2699
-168.223 1009.6 2695
-161.779 1009.6 2695
-154.815 1006.23 2686
-147.674 1001.36 2673
-140.648 996.862 2661
-134.285 996.862 2661
-125.71 979.63 2615
-98.1387 849.262 2267
-92.7176 849.262 2267
-87.2965 849.262 2267
-81.2976 843.268 2251
-75.4089 837.649 2236
-69.8739 835.401 2230
-64.1072 829.782 2215
-58.8105 829.782 2215
-53.4654 829.033 2213
-48.1081 827.909 2210
-42.7652 826.785 2207
-37.5895 829.033 2213
-32.2976 829.033 2213
-27.0056 829.033 2213
-21.7137 829.033 2213
-16.4217 829.033 2213
-11.1147 827.909 2210
-5.82199 826.785 2207
-0.545862 829.033 2213
4.75681 830.906 2218
10.0607 830.906 2218
15.3646 830.906 2218
20.6685 830.906 2218
25.9725 830.906 2218
31.2341 829.782 2215
36.3494 825.661 2204
41.6765 826.785 2207
46.9541 826.785 2207
52.2317 826.785 2207
57.5093 826.785 2207
62.7869 826.785 2207
68.157 827.909 2210
73.4418 827.909 2210
78.7266 827.909 2210
84.1254 829.033 2213
89.4174 829.033 2213
95.0517 832.03 2221
100.363 832.03 2221
106.245 836.525 2233
111.884 838.773 2239
117.239 838.773 2239
122.593 838.773 2239
127.947 838.773 2239
133.301 838.773 2239
138.841 839.897 2242
144.202 839.897 2242
149.964 842.144 2248
156.445 848.138 2264
161.859 848.138 2264
167.273 848.138 2264
172.687 848.138 2264
223.81 1004.73 2682
234.344 1022.71 2730
241.313 1024.58 2735
247.854 1024.58 2735
255.231 1027.96 2744
263.033 1032.83 2757
269.626 1032.83 2757
276.219 1032.83 2757
283.837 1036.57 2767
291.399 1039.94 2776
299.003 1043.32 2785
305.663 1043.32 2785
312.323 1043.32 2785
318.982 1043.32 2785
325.642 1043.32 2785
332.302 1043.32 2785
338.353 1041.44 2780
343.884 1038.07 2771
350.51 1038.07 2771
355.332 1032.83 2757
361.4 1031.33 2753
368.518 1032.83 2757
375.791 1034.7 2762
383.642 1038.07 2771
390.268 1038.07 2771
396.895 1038.07 2771
403.521 1038.07 2771
410.147 1038.07 2771
416.773 1038.07 2771
421.261 1032.83 2757
427.853 1032.83 2757
434.446 1032.83 2757
440.399 1031.33 2753
446.982 1031.33 2753
452.742 1029.45 2748
459.313 1029.45 2748
465.885 1029.45 2748
472.456 1029.45 2748
479.027 1029.45 2748
485.598 1029.45 2748
492.17 1029.45 2748
501.282 1034.7 2762
507.887 1034.7 2762
514.492 1034.7 2762
521.096 1034.7 2762
527.701 1034.7 2762
533.339 1032.83 2757
541.89 1036.57 2767
548.507 1036.57 2767
556.929 1039.94 2776
564.379 1041.44 2780
572.054 1043.32 2785
578.714 1043.32 2785
585.374 1043.32 2785
592.033 1043.32 2785
598.693 1043.32 2785
605.353 1043.32 2785
612.013 1043.32 2785
618.672 1043.32 2785
626.455 1045.19 2790
642.658 1060.92 2832
649.43 1060.92 2832
656.202 1060.92 2832
662.974 1060.92 2832
669.746 1060.92 2832
765.473 1034.7 2762
772.078 1034.7 2762
778.683 1034.7 2762
782.729 1031.33 2753
789.312 1031.33 2753
793.293 1027.96 2744
802.478 1031.33 2753
810.237 1032.83 2757
816.83 1032.83 2757
823.423 1032.83 2757
830.016 1032.83 2757
840.857 1038.07 2771
849.012 1039.94 2776
855.65 1039.94 2776
862.289 1039.94 2776
868.927 1039.94 2776
876.827 1041.44 2780
886.653 1045.19 2790
893.324 1045.19 2790
902.899 1048.56 2799
914.142 1053.8 2813
925.779 1059.42 2828
932.542 1059.42 2828
939.305 1059.42 2828
947.405 1060.92 2832
959.231 1066.54 2847
966.039 1066.54 2847
977.973 1072.16 2862
986.193 1073.66 2866
996.512 1077.41 2876
1003.39 1077.41 2876
1010.27 1077.41 2876
1017.14 1077.41 2876
1024.02 1077.41 2876
1029.11 1075.53 2871
1029.12 1068.41 2852
1032.3 1064.67 2842
1039.1 1064.67 2842
1045.9 1064.67 2842
1058.25 1070.29 2857
1065.08 1070.29 2857
1077.16 1075.53 2871
1084.03 1075.53 2871
1090.9 1075.53 2871
1097.76 1075.53 2871
1104.63 1075.53 2871
1111.49 1075.53 2871
1109.01 1066.54 2847
1108.37 1059.42 2828
1107.64 1052.31 2809
1114.36 1052.31 2809
1121.07 1052.31 2809
1120.16 1045.19 2790
1115.53 1034.7 2762
1122.13 1034.7 2762
1128.74 1034.7 2762
1137.4 1036.57 2767
1151.45 1043.32 2785
1160.19 1045.19 2790
1166.87 1045.19 2790
1173.54 1045.19 2790
1180.21 1045.19 2790
1178.8 1038.07 2771
1185.42 1038.07 2771
1186.03 1032.83 2757
1192.62 1032.83 2757
1199.21 1032.83 2757
1210.18 1036.57 2767
1216.8 1036.57 2767
1225.18 1038.07 2771
1231.81 1038.07 2771
1238.43 1038.07 2771
1243.26 1036.57 2767
1247.62 1034.7 2762
1256.5 1036.57 2767
1271.33 1043.32 2785
1277.99 1043.32 2785
1286.96 1045.19 2790
1297.8 1048.56 2799
1304.49 1048.56 2799
1311.19 1048.56 2799
1315.53 1046.69 2794
1317.95 1043.32 2785
1322.23 1041.44 2780
1333.66 1045.19 2790
1340.33 1045.19 2790
1360.52 1055.68 2818
1367.26 1055.68 2818
1374 1055.68 2818
1357.71 1038.07 2771
1364.33 1038.07 2771
1370.96 1038.07 2771
1377.59 1038.07 2771
1372.72 1029.45 2748
1386.32 1034.7 2762
1402 1041.44 2780
1411.19 1043.32 2785
1417.85 1043.32 2785
1424.51 1043.32 2785
1431.17 1043.32 2785
1437.83 1043.32 2785
1444.49 1043.32 2785
1448.54 1041.44 2780
1453.09 1039.94 2776
1455 1036.57 2767
1475.88 1046.69 2794
1482.56 1046.69 2794
1504.7 1057.55 2823
1518.94 1062.8 2837
1525.73 1062.8 2837
1532.51 1062.8 2837
1539.3 1062.8 2837
1548.81 1064.67 2842
1563.81 1070.29 2857
1570.64 1070.29 2857
1580.24 1072.16 2862
1597.62 1079.28 2881
1610.08 1083.02 2891
1616.99 1083.02 2891
1623.9 1083.02 2891
1630.82 1083.02 2891
1637.73 1083.02 2891
1641.8 1081.15 2886
1637.27 1073.66 2866
1658.47 1083.02 2891
1668.26 1084.9 2896
1675.19 1084.9 2896
1682.11 1084.9 2896
1686.12 1083.02 2891
1690.11 1081.15 2886
1697.01 1081.15 2886
1686.79 1070.29 2857
1670.5 1055.68 2818
1677.24 1055.68 2818
1686.97 1057.55 2823
1693.72 1057.55 2823
1700.47 1057.55 2823
1710.24 1059.42 2828
1717 1059.42 2828
1726.2 1060.92 2832
1732.98 1060.92 2832
1739.75 1060.92 2832
1746.52 1060.92 2832
1753.29 1060.92 2832
1760.07 1060.92 2832
1766.84 1060.92 2832
1771.1 1059.42 2828
1777.87 1059.42 2828
1772.64 1052.31 2809
1767.32 1045.19 2790
1761.91 1038.07 2771
1768.54 1038.07 2771
1775.17 1038.07 2771
1781.79 1038.07 2771
1788.42 1038.07 2771
1785.97 1032.83 2757
1792.57 1032.83 2757
1799.16 1032.83 2757
1805.75 1032.83 2757
-1739.54 1034.53 2744
-1732.98 1034.53 2744
-1726.41 1034.53 2744
-1719.85 1034.53 2744
-1710.17 1032.64 2739
-1701.13 1031.14 2735
-1694.59 1031.14 2735
-1676.94 1024.35 2717
-1670.44 1024.35 2717
-1671.91 1029.25 2730
-1668.43 1031.14 2735
-1661.89 1031.14 2735
-1655.35 1031.14 2735
-1645.79 1029.25 2730
-1639.27 1029.25 2730
-1627.36 1025.86 2721
-1616.08 1022.84 2713
-1598.92 1016.06 2695
-1592.47 1016.06 2695
-1586.03 1016.06 2695
-1577.24 1014.55 2691
-1570.8 1014.55 2691
-1574.25 1020.96 2708
-1578.2 1027.74 2726
-1571.68 1027.74 2726
-1580.66 1037.92 2753
-1582.08 1043.2 2767
-1575.47 1043.2 2767
-1568.85 1043.2 2767
-1562.23 1043.2 2767
-1238.01 1043.2 2767
-1247.86 1057.15 2804
-1241.16 1057.15 2804
-1240.61 1062.43 2818
-1250.95 1077.13 2857
-1248.04 1080.52 2866
-1241.19 1080.52 2866
-1234.33 1080.52 2866
-1231.76 1084.29 2876
-1224.88 1084.29 2876
-1218.01 1084.29 2876
-1211.13 1084.29 2876
-1206.35 1086.18 2881
-1203.62 1089.95 2891
-1196.71 1089.95 2891
-1189.79 1089.95 2891
-1182.88 1089.95 2891
-1182.07 1095.61 2906
-1175.12 1095.61 2906
-1180.63 1107.29 2937
-1173.61 1107.29 2937
-1166.59 1107.29 2937
-1159.56 1107.29 2937
-1150.58 1105.41 2932
-1056.17 1046.59 2776
-1049.53 1046.59 2776
-1042.89 1046.59 2776
-1036.25 1046.59 2776
-1024.42 1041.32 2762
-997.918 1020.96 2708
-991.442 1020.96 2708
-918.69 977.977 2594
-912.487 977.977 2594
-909.428 981.37 2603
-907.367 985.894 2615
-909.729 995.319 2640
-903.416 995.319 2640
-899.821 998.336 2648
-901.925 1007.76 2673
-902.903 1016.06 2695
-896.459 1016.06 2695
-894.307 1020.96 2708
-893.733 1027.74 2726
-887.215 1027.74 2726
-880.696 1027.74 2726
-878.346 1032.64 2739
-873.388 1034.53 2744
-866.826 1034.53 2744
-860.264 1034.53 2744
-850.902 1031.14 2735
-847.141 1034.53 2744
-840.579 1034.53 2744
-834.017 1034.53 2744
-827.456 1034.53 2744
-814.013 1025.86 2721
-810.177 1029.25 2730
-803.649 1029.25 2730
-799.749 1032.64 2739
-793.199 1032.64 2739
-786.649 1032.64 2739
-778.96 1031.14 2735
-771.008 1029.25 2730
-753.558 1014.55 2691
-747.123 1014.55 2691
-740.688 1014.55 2691
-730.706 1009.65 2678
-719.704 1003.24 2661
-714.414 1004.74 2665
-708.041 1004.74 2665
-701.668 1004.74 2665
-695.295 1004.74 2665
-697.711 1017.56 2699
-691.257 1017.56 2699
-684.803 1017.56 2699
-679.606 1019.45 2704
-673.14 1019.45 2704
-666.674 1019.45 2704
-658.987 1017.56 2699
-652.533 1017.56 2699
-646.078 1017.56 2699
-641.757 1020.96 2708
-635.282 1020.96 2708
-628.806 1020.96 2708
-626.467 1027.74 2726
-621.995 1031.14 2735
-615.455 1031.14 2735
-610.918 1034.53 2744
-604.357 1034.53 2744
-599.755 1037.92 2753
-593.172 1037.92 2753
-586.589 1037.92 2753
-578.952 1036.04 2748
-572.381 1036.04 2748
-565.81 1036.04 2748
-559.238 1036.04 2748
-556.488 1043.2 2767
-551.66 1046.59 2776
-545.022 1046.59 2776
-538.384 1046.59 2776
-531.745 1046.59 2776
-525.107 1046.59 2776
-518.469 1046.59 2776
-513.49 1049.99 2785
-506.83 1049.99 2785
-500.17 1049.99 2785
-493.511 1049.99 2785
-486.851 1049.99 2785
-479.329 1048.1 2780
-472.681 1048.1 2780
-462.178 1039.43 2757
-454.098 1036.04 2748
-446.061 1032.64 2739
-440.313 1034.53 2744
-433.751 1034.53 2744
-427.19 1034.53 2744
-420.628 1034.53 2744
-414.066 1034.53 2744
-407.504 1034.53 2744
-398.897 1029.25 2730
-391.075 1025.86 2721
-386.547 1031.14 2735
-380.007 1031.14 2735
-373.467 1031.14 2735
-367.463 1032.64 2739
-360.913 1032.64 2739
-354.364 1032.64 2739
-347.814 1032.64 2739
-341.264 1032.64 2739
-333.615 1029.25 2730
-327.086 1029.25 2730
-320.088 1027.74 2726
-313.57 1027.74 2726
-307.501 1029.25 2730
-300.973 1029.25 2730
-294.445 1029.25 2730
-287.917 1029.25 2730
-281.388 1029.25 2730
-275.364 1031.14 2735
-268.823 1031.14 2735
-262.283 1031.14 2735
-255.275 1029.25 2730
-248.747 1029.25 2730
-241.065 1024.35 2717
-233.791 1020.96 2708
-227.316 1020.96 2708
-220.84 1020.96 2708
-213.652 1017.56 2699
-206.891 1016.06 2695
-200.149 1014.55 2691
-194.002 1016.06 2695
-187.835 1017.56 2699
-181.381 1017.56 2699
-174.927 1017.56 2699
-168.223 1016.06 2695
-161.779 1016.06 2695
-154.815 1012.66 2686
-147.674 1007.76 2673
-140.648 1003.24 2661
-134.285 1003.24 2661
-125.71 985.894 2615
-98.1387 854.693 2267
-92.7176 854.693 2267
-87.2965 854.693 2267
-81.2976 848.661 2251
-75.4089 843.005 2236
-69.8739 840.743 2230
-64.1072 835.088 2215
-58.8105 835.088 2215
-53.4654 834.334 2213
-48.1081 833.203 2210
-42.7652 832.072 2207
-37.5895 834.334 2213
-32.2976 834.334 2213
-27.0056 834.334 2213
-21.7137 834.334 2213
-16.4217 834.334 2213
-11.1147 833.203 2210
-5.82199 832.072 2207
-0.545862 834.334 2213
4.75681 836.219 2218
10.0607 836.219 2218
15.3646 836.219 2218
20.6685 836.219 2218
25.9725 836.219 2218
31.2341 835.088 2215
36.3494 830.941 2204
41.6765 832.072 2207
46.9541 832.072 2207
52.2317 832.072 2207
57.5093 832.072 2207
62.7869 832.072 2207
68.157 833.203 2210
73.4418 833.203 2210
78.7266 833.203 2210
84.1254 834.334 2213
89.4174 834.334 2213
95.0517 837.35 2221
100.363 837.35 2221
106.245 841.874 2233
111.884 844.136 2239
117.553 846.398 2245
122.921 846.398 2245
128.29 846.398 2245
133.837 847.53 2248
139.398 848.661 2251
144.781 848.661 2251
151.031 853.562 2264
156.652 854.693 2267
162.073 854.693 2267
167.494 854.693 2267
172.916 854.693 2267
223.81 1011.15 2682
231.339 1016.06 2695
241.313 1031.14 2735
247.854 1031.14 2735
255.231 1034.53 2744
263.033 1039.43 2757
269.626 1039.43 2757
276.219 1039.43 2757
283.837 1043.2 2767
291.399 1046.59 2776
299.003 1049.99 2785
305.663 1049.99 2785
312.323 1049.99 2785
318.982 1049.99 2785
325.642 1049.99 2785
332.302 1049.99 2785
338.353 1048.1 2780
343.884 1044.71 2771
350.51 1044.71 2771
355.332 1039.43 2757
361.4 1037.92 2753
368.518 1039.43 2757
375.791 1041.32 2762
383.642 1044.71 2771
390.268 1044.71 2771
396.895 1044.71 2771
403.521 1044.71 2771
410.147 1044.71 2771
416.773 1044.71 2771
421.261 1039.43 2757
427.853 1039.43 2757
434.446 1039.43 2757
440.399 1037.92 2753
446.982 1037.92 2753
452.742 1036.04 2748
459.313 1036.04 2748
465.885 1036.04 2748
472.456 1036.04 2748
479.027 1036.04 2748
485.598 1036.04 2748
492.17 1036.04 2748
501.282 1041.32 2762
507.887 1041.32 2762
514.492 1041.32 2762
521.096 1041.32 2762
527.701 1041.32 2762
533.339 1039.43 2757
541.89 1043.2 2767
548.507 1043.2 2767
556.929 1046.59 2776
564.379 1048.1 2780
572.054 1049.99 2785
578.714 1049.99 2785
585.374 1049.99 2785
592.033 1049.99 2785
598.693 1049.99 2785
605.353 1049.99 2785
612.013 1049.99 2785
618.672 1049.99 2785
626.455 1051.87 2790
642.658 1067.71 2832
649.43 1067.71 2832
656.202 1067.71 2832
662.974 1067.71 2832
669.746 1067.71 2832
765.473 1041.32 2762
772.078 1041.32 2762
778.683 1041.32 2762
782.729 1037.92 2753
789.312 1037.92 2753
793.293 1034.53 2744
802.478 1037.92 2753
810.237 1039.43 2757
816.83 1039.43 2757
823.423 1039.43 2757
830.016 1039.43 2757
840.857 1044.71 2771
849.012 1046.59 2776
855.65 1046.59 2776
862.289 1046.59 2776
868.927 1046.59 2776
876.827 1048.1 2780
886.653 1051.87 2790
893.324 1051.87 2790
902.899 1055.26 2799
914.142 1060.54 2813
925.779 1066.2 2828
932.542 1066.2 2828
939.305 1066.2 2828
947.405 1067.71 2832
959.231 1073.36 2847
966.039 1073.36 2847
977.973 1079.02 2862
986.193 1080.52 2866
996.512 1084.29 2876
1003.39 1084.29 2876
1010.27 1084.29 2876
1017.14 1084.29 2876
1024.02 1084.29 2876
1029.11 1082.41 2871
1029.12 1075.25 2852
1032.3 1071.48 2842
1039.1 1071.48 2842
1045.9 1071.48 2842
1058.25 1077.13 2857
1065.08 1077.13 2857
1077.16 1082.41 2871
1084.03 1082.41 2871
1090.9 1082.41 2871
1097.76 1082.41 2871
1104.63 1082.41 2871
1111.49 1082.41 2871
1109.01 1073.36 2847
1100.92 1059.03 2809
1091.08 1043.2 2767
1097.7 1043.2 2767
1091.54 1031.14 2735
1089.25 1022.84 2713
1090.08 1017.56 2699
1096.54 1017.56 2699
1115.66 1029.25 2730
1122.19 1029.25 2730
1136.16 1036.04 2748
1142.73 1036.04 2748
1153.06 1039.43 2757
1159.66 1039.43 2757
1166.25 1039.43 2757
1172.84 1039.43 2757
1179.44 1039.43 2757
1180.44 1034.53 2744
1184.83 1032.64 2739
1197.47 1037.92 2753
1205.81 1039.43 2757
1212.4 1039.43 2757
1225.18 1044.71 2771
1231.81 1044.71 2771
1238.43 1044.71 2771
1236.97 1037.92 2753
1243.56 1037.92 2753
1251.96 1039.43 2757
1264.94 1044.71 2771
1271.57 1044.71 2771
1278.19 1044.71 2771
1284.82 1044.71 2771
1291.45 1044.71 2771
1298.07 1044.71 2771
1302.81 1043.2 2767
1304.7 1039.43 2757
1316.05 1043.2 2767
1333.66 1051.87 2790
1340.33 1051.87 2790
1360.52 1062.43 2818
1367.26 1062.43 2818
1374 1062.43 2818
1357.71 1044.71 2771
1364.33 1044.71 2771
1344.24 1024.35 2717
1350.74 1024.35 2717
1357.24 1024.35 2717
1379.3 1036.04 2748
1392.93 1041.32 2762
1404.09 1044.71 2771
1413.26 1046.59 2776
1419.9 1046.59 2776
1426.54 1046.59 2776
1433.18 1046.59 2776
1439.82 1046.59 2776
1446.46 1046.59 2776
1448.38 1043.2 2767
1455 1043.2 2767
1475.88 1053.38 2794
1482.56 1053.38 2794
1504.7 1064.31 2823
1518.94 1069.59 2837
1525.73 1069.59 2837
1532.51 1069.59 2837
1539.3 1069.59 2837
1548.81 1071.48 2842
1563.81 1077.13 2857
1570.64 1077.13 2857
1580.24 1079.02 2862
1597.62 1086.18 2881
1604.51 1086.18 2881
1611.4 1086.18 2881
1621.09 1088.07 2886
1628 1088.07 2886
1634.9 1088.07 2886
1636.11 1084.29 2876
1637.27 1080.52 2866
1658.47 1089.95 2891
1665.38 1089.95 2891
1672.3 1089.95 2891
1679.21 1089.95 2891
1686.12 1089.95 2891
1690.11 1088.07 2886
1697.01 1088.07 2886
1692.1 1080.52 2866
1673.46 1064.31 2823
1677.24 1062.43 2818
1686.97 1064.31 2823
1693.72 1064.31 2823
1700.47 1064.31 2823
1710.24 1066.2 2828
1717 1066.2 2828
1726.2 1067.71 2832
1732.98 1067.71 2832
1739.75 1067.71 2832
1746.52 1067.71 2832
1753.29 1067.71 2832
1760.07 1067.71 2832
1764.34 1066.2 2828
1761.71 1060.54 2813
1768.44 1060.54 2813
1766.33 1055.26 2799
1758.45 1046.59 2776
1759.37 1043.2 2767
1765.99 1043.2 2767
1760.43 1036.04 2748
1767 1036.04 2748
1773.57 1036.04 2748
1768.48 1029.25 2730
1775.01 1029.25 2730
1778.93 1027.74 2726
1773.66 1020.96 2708
-1739.54 1041.1 2744
-1732.98 1041.1 2744
-1726.41 1041.1 2744
-1719.85 1041.1 2744
-1710.17 1039.21 2739
-1701.13 1037.69 2735
-1694.59 1037.69 2735
-1676.94 1030.86 2717
-1670.44 1030.86 2717
-1671.91 1035.79 2730
-1668.43 1037.69 2735
-1661.89 1037.69 2735
-1655.35 1037.69 2735
-1645.79 1035.79 2730
-1639.27 1035.79 2730
-1627.36 1032.38 2721
-1616.08 1029.34 2713
-1598.92 1022.51 2695
-1592.47 1022.51 2695
-1586.03 1022.51 2695
-1577.24 1020.99 2691
-1570.8 1020.99 2691
-1574.25 1027.44 2708
-1578.2 1034.27 2726
-1571.68 1034.27 2726
-1580.66 1044.52 2753
-1582.08 1049.83 2767
-1575.47 1049.83 2767
-1568.85 1049.83 2767
-1562.23 1049.83 2767
-1229.51 1042.62 2748
-1231.4 1049.83 2767
-1224.78 1049.83 2767
-1238.41 1067.28 2813
-1236.07 1071.08 2823
-1244.12 1083.98 2857
-1237.29 1083.98 2857
-1230.46 1083.98 2857
-1225.77 1085.87 2862
-1227.01 1093.08 2881
-1220.12 1093.08 2881
-1213.24 1093.08 2881
-1206.35 1093.08 2881
-1203.62 1096.88 2891
-1196.71 1096.88 2891
-1195.97 1102.57 2906
-1189.02 1102.57 2906
-1184.1 1104.46 2911
-1177.14 1104.46 2911
-1180.63 1114.33 2937
-1173.61 1114.33 2937
-1166.59 1114.33 2937
-1159.56 1114.33 2937
-1150.58 1112.43 2932
-1050.84 1047.93 2762
-1044.24 1047.93 2762
-1037.63 1047.93 2762
-1029.16 1046.03 2757
-1009.22 1032.38 2721
-997.918 1027.44 2708
-991.442 1027.44 2708
-969.326 1011.13 2665
-946.332 993.676 2619
-937.198 990.641 2611
-930.954 990.641 2611
-924.711 990.641 2611
-914.246 986.088 2599
-906.284 984.191 2594
-903.204 987.605 2603
-901.114 992.158 2615
-894.861 992.158 2615
-897.103 1001.64 2640
-894.839 1006.2 2652
-895.533 1014.16 2673
-889.141 1014.16 2673
-888.693 1020.99 2691
-882.258 1020.99 2691
-875.823 1020.99 2691
-869.388 1020.99 2691
-872.574 1032.38 2721
-866.067 1032.38 2721
-859.56 1032.38 2721
-853.054 1032.38 2721
-844.058 1029.34 2713
-840.04 1032.38 2721
-833.533 1032.38 2721
-827.027 1032.38 2721
-819.314 1030.86 2717
-810.124 1027.44 2708
-803.648 1027.44 2708
-797.173 1027.44 2708
-795.953 1034.27 2726
-789.434 1034.27 2726
-782.915 1034.27 2726
-770.131 1025.93 2704
-757.452 1017.58 2682
-747.398 1012.65 2669
-741.015 1012.65 2669
-734.633 1012.65 2669
-726.068 1009.61 2661
-717.27 1006.2 2652
-710.929 1006.2 2652
-704.587 1006.2 2652
-701.668 1011.13 2665
-695.295 1011.13 2665
-688.922 1011.13 2665
-682.549 1011.13 2665
-678.206 1014.16 2673
-676.338 1020.99 2691
-669.903 1020.99 2691
-663.468 1020.99 2691
-657.033 1020.99 2691
-650.598 1020.99 2691
-644.163 1020.99 2691
-636.544 1019.1 2686
-630.12 1019.1 2686
-627.877 1025.93 2704
-624.399 1030.86 2717
-618.811 1032.38 2721
-612.304 1032.38 2721
-607.801 1035.79 2730
-601.273 1035.79 2730
-594.745 1035.79 2730
-588.217 1035.79 2730
-581.688 1035.79 2730
-572.421 1030.86 2717
-567.799 1034.27 2726
-561.28 1034.27 2726
-555.575 1035.79 2730
-552.667 1042.62 2748
-546.096 1042.62 2748
-539.524 1042.62 2748
-532.953 1042.62 2748
-526.382 1042.62 2748
-519.811 1042.62 2748
-511.558 1039.21 2739
-505.93 1041.1 2744
-500.097 1042.62 2748
-493.525 1042.62 2748
-486.954 1042.62 2748
-480.383 1042.62 2748
-473.811 1042.62 2748
-467.24 1042.62 2748
-459.998 1041.1 2744
-448.975 1030.86 2717
-443.943 1034.27 2726
-438.067 1035.79 2730
-431.538 1035.79 2730
-425.01 1035.79 2730
-418.482 1035.79 2730
-411.954 1035.79 2730
-405.425 1035.79 2730
-396.998 1030.86 2717
-390.5 1030.86 2717
-385.275 1034.27 2726
-380.007 1037.69 2735
-373.467 1037.69 2735
-366.927 1037.69 2735
-360.386 1037.69 2735
-353.846 1037.69 2735
-347.306 1037.69 2735
-340.143 1035.79 2730
-333.126 1034.27 2726
-326.607 1034.27 2726
-319.501 1032.38 2721
-313.57 1034.27 2726
-307.051 1034.27 2726
-300.532 1034.27 2726
-294.014 1034.27 2726
-287.495 1034.27 2726
-281.388 1035.79 2730
-275.364 1037.69 2735
-268.823 1037.69 2735
-262.283 1037.69 2735
-255.275 1035.79 2730
-248.747 1035.79 2730
-240.711 1029.34 2713
-233.791 1027.44 2708
-227.316 1027.44 2708
-220.84 1027.44 2708
-213.335 1022.51 2695
-206.584 1020.99 2691
-200.149 1020.99 2691
-194.002 1022.51 2695
-187.835 1024.03 2699
-181.381 1024.03 2699
-174.927 1024.03 2699
-168.223 1022.51 2695
-161.779 1022.51 2695
-154.815 1019.1 2686
-147.011 1009.61 2661
-139.538 1001.64 2640
-133.225 1001.64 2640
-125.71 992.158 2615
-117.447 975.464 2571
-98.1387 860.123 2267
-92.963 862.4 2273
-87.5276 862.4 2273
-82.0921 862.4 2273
-76.0159 855.191 2254
-70.1559 849.5 2239
-64.5413 846.085 2230
-59.2087 846.085 2230
-53.6587 842.671 2221
-48.217 840.394 2215
-42.9784 841.532 2218
-37.6745 841.532 2218
-32.3706 841.532 2218
-27.03 840.394 2215
-21.7333 840.394 2215
-16.4366 840.394 2215
-11.1298 839.635 2213
-5.83782 839.635 2213
-0.545862 839.635 2213
4.75681 841.532 2218
10.0607 841.532 2218
15.3646 841.532 2218
20.6685 841.532 2218
25.9725 841.532 2218
31.2341 840.394 2215
36.4483 838.497 2210
41.6765 837.359 2207
47.0179 838.497 2210
52.3027 838.497 2210
57.5875 838.497 2210
62.7869 837.359 2207
68.157 838.497 2210
73.4418 838.497 2210
78.7266 838.497 2210
84.2014 840.394 2215
89.4982 840.394 2215
95.1801 843.809 2224
100.498 843.809 2224
106.53 849.5 2239
112.184 851.776 2245
117.553 851.776 2245
122.921 851.776 2245
128.29 851.776 2245
133.837 852.915 2248
139.398 854.053 2251
144.781 854.053 2251
151.031 858.985 2264
156.652 860.123 2267
162.073 860.123 2267
167.494 860.123 2267
172.916 860.123 2267
231.339 1022.51 2695
238.931 1027.44 2708
245.407 1027.44 2708
254.766 1039.21 2739
261.316 1039.21 2739
268.746 1042.62 2748
275.317 1042.62 2748
282.811 1046.03 2757
290.454 1049.83 2767
298.466 1054.76 2780
305.114 1054.76 2780
312.323 1056.66 2785
318.982 1056.66 2785
325.642 1056.66 2785
332.302 1056.66 2785
337.866 1053.24 2776
343.388 1049.83 2767
350.004 1049.83 2767
355.332 1046.03 2757
361.4 1044.52 2753
367.983 1044.52 2753
374.567 1044.52 2753
381.15 1044.52 2753
387.733 1044.52 2753
394.316 1044.52 2753
400.9 1044.52 2753
407.483 1044.52 2753
414.066 1044.52 2753
419.274 1041.1 2744
425.836 1041.1 2744
432.398 1041.1 2744
438.959 1041.1 2744
445.521 1041.1 2744
451.259 1039.21 2739
457.809 1039.21 2739
464.359 1039.21 2739
470.909 1039.21 2739
477.458 1039.21 2739
484.008 1039.21 2739
490.558 1039.21 2739
497.108 1039.21 2739
504.577 1041.1 2744
511.139 1041.1 2744
517.7 1041.1 2744
523.307 1039.21 2739
532.565 1044.52 2753
539.931 1046.03 2757
548.507 1049.83 2767
555.123 1049.83 2767
563.567 1053.24 2776
571.027 1054.76 2780
577.675 1054.76 2780
584.323 1054.76 2780
590.12 1053.24 2776
596.758 1053.24 2776
603.397 1053.24 2776
610.035 1053.24 2776
616.673 1053.24 2776
626.455 1058.56 2790
637.438 1065.76 2809
644.155 1065.76 2809
651.799 1067.28 2813
658.526 1067.28 2813
665.253 1067.28 2813
765.473 1047.93 2762
772.078 1047.93 2762
778.683 1047.93 2762
778.748 1039.21 2739
786.731 1041.1 2744
793.293 1041.1 2744
802.478 1044.52 2753
810.237 1046.03 2757
816.83 1046.03 2757
823.423 1046.03 2757
830.016 1046.03 2757
838.126 1047.93 2762
847.483 1051.35 2771
854.109 1051.35 2771
860.736 1051.35 2771
867.362 1051.35 2771
873.988 1051.35 2771
882.203 1053.24 2776
888.842 1053.24 2776
899.996 1058.56 2790
909.593 1061.97 2799
919.559 1065.76 2809
926.277 1065.76 2809
932.994 1065.76 2809
939.711 1065.76 2809
951.145 1071.08 2823
957.896 1071.08 2823
967.722 1074.49 2832
977.935 1078.28 2842
984.731 1078.28 2842
991.527 1078.28 2842
998.323 1078.28 2842
1005.12 1078.28 2842
1011.92 1078.28 2842
1016.92 1076.39 2837
1018.65 1071.08 2823
1016.68 1061.97 2799
1023.38 1061.97 2799
1028.23 1060.07 2794
1034.91 1060.07 2794
1045.32 1063.87 2804
1077.16 1089.29 2871
1084.03 1089.29 2871
1090.9 1089.29 2871
1088.58 1080.18 2847
1095.39 1080.18 2847
1102.2 1080.18 2847
1101.61 1072.97 2828
1100.92 1065.76 2809
1091.08 1049.83 2767
1097.7 1049.83 2767
1091.54 1037.69 2735
1089.25 1029.34 2713
1090.08 1024.03 2699
1096.54 1024.03 2699
1115.66 1035.79 2730
1122.19 1035.79 2730
1136.16 1042.62 2748
1142.73 1042.62 2748
1153.06 1046.03 2757
1159.66 1046.03 2757
1166.25 1046.03 2757
1172.84 1046.03 2757
1179.44 1046.03 2757
1180.44 1041.1 2744
1184.83 1039.21 2739
1197.47 1044.52 2753
1205.81 1046.03 2757
1212.4 1046.03 2757
1225.18 1051.35 2771
1231.81 1051.35 2771
1238.43 1051.35 2771
1236.97 1044.52 2753
1243.56 1044.52 2753
1251.96 1046.03 2757
1264.94 1051.35 2771
1271.57 1051.35 2771
1278.19 1051.35 2771
1284.82 1051.35 2771
1291.45 1051.35 2771
1298.07 1051.35 2771
1302.81 1049.83 2767
1304.7 1046.03 2757
1316.05 1049.83 2767
1333.66 1058.56 2790
1340.33 1058.56 2790
1360.52 1069.18 2818
1367.26 1069.18 2818
1374 1069.18 2818
1357.71 1051.35 2771
1364.33 1051.35 2771
1344.24 1030.86 2717
1350.74 1030.86 2717
1357.24 1030.86 2717
1379.3 1042.62 2748
1392.93 1047.93 2762
1404.09 1051.35 2771
1413.26 1053.24 2776
1419.9 1053.24 2776
1426.54 1053.24 2776
1433.18 1053.24 2776
1439.82 1053.24 2776
1446.46 1053.24 2776
1448.38 1049.83 2767
1455 1049.83 2767
1475.88 1060.07 2794
1482.56 1060.07 2794
1504.7 1071.08 2823
1518.94 1076.39 2837
1525.73 1076.39 2837
1532.51 1076.39 2837
1539.3 1076.39 2837
1548.81 1078.28 2842
1563.81 1083.98 2857
1570.64 1083.98 2857
1580.24 1085.87 2862
1597.62 1093.08 2881
1604.51 1093.08 2881
1611.4 1093.08 2881
1621.09 1094.98 2886
1628 1094.98 2886
1634.9 1094.98 2886
1636.11 1091.18 2876
1637.27 1087.39 2866
1658.47 1096.88 2891
1665.38 1096.88 2891
1672.3 1096.88 2891
1679.21 1096.88 2891
1686.12 1096.88 2891
1690.11 1094.98 2886
1697.01 1094.98 2886
1692.1 1087.39 2866
1673.46 1071.08 2823
1677.24 1069.18 2818
1686.97 1071.08 2823
1693.72 1071.08 2823
1700.47 1071.08 2823
1710.24 1072.97 2828
1717 1072.97 2828
1726.2 1074.49 2832
1732.98 1074.49 2832
1739.75 1074.49 2832
1746.52 1074.49 2832
1753.29 1074.49 2832
1760.07 1074.49 2832
1764.34 1072.97 2828
1761.71 1067.28 2813
1768.44 1067.28 2813
1766.33 1061.97 2799
1758.45 1053.24 2776
1759.37 1049.83 2767
1765.99 1049.83 2767
1760.43 1042.62 2748
1767 1042.62 2748
1773.57 1042.62 2748
1768.48 1035.79 2730
1775.01 1035.79 2730
1778.93 1034.27 2726
1773.66 1027.44 2708
-1730.66 1042.33 2730
-1729.82 1045.77 2739
-1723.27 1045.77 2739
-1716.72 1045.77 2739
-1707.67 1044.24 2735
-1689.93 1037.37 2717
-1683.44 1037.37 2717
-1676.94 1037.37 2717
-1670.44 1037.37 2717
-1671.91 1042.33 2730
-1668.43 1044.24 2735
-1661.89 1044.24 2735
-1655.35 1044.24 2735
-1645.79 1042.33 2730
-1639.27 1042.33 2730
-1627.36 1038.89 2721
-1616.08 1035.84 2713
-1598.92 1028.97 2695
-1592.47 1028.97 2695
-1586.03 1028.97 2695
-1577.24 1027.44 2691
-1570.8 1027.44 2691
-1574.25 1033.93 2708
-1575.3 1038.89 2721
-1568.79 1038.89 2721
-1570.33 1044.24 2735
-1574.08 1051.11 2753
-1567.49 1051.11 2753
-1560.91 1051.11 2753
-1554.33 1051.11 2753
-1523 1047.68 2744
-1516.44 1047.68 2744
-1509.88 1047.68 2744
-1503.31 1047.68 2744
-1229.51 1049.2 2748
-1231.4 1056.46 2767
-1224.78 1056.46 2767
-1238.41 1074.02 2813
-1236.07 1077.84 2823
-1244.12 1090.82 2857
-1237.29 1090.82 2857
-1230.46 1090.82 2857
-1225.77 1092.73 2862
-1227.01 1099.98 2881
-1220.12 1099.98 2881
-1213.24 1099.98 2881
-1206.35 1099.98 2881
-1203.62 1103.8 2891
-1196.71 1103.8 2891
-1195.97 1109.53 2906
-1189.02 1109.53 2906
-1184.1 1111.44 2911
-1177.14 1111.44 2911
-1180.63 1121.36 2937
-1173.61 1121.36 2937
-1166.59 1121.36 2937
-1159.56 1121.36 2937
-1150.58 1119.45 2932
-1051.72 1042.33 2730
-1045.19 1042.33 2730
-1050.84 1054.55 2762
-1044.24 1054.55 2762
-1037.63 1054.55 2762
-1029.16 1052.64 2757
-1009.22 1038.89 2721
-997.918 1033.93 2708
-991.442 1033.93 2708
-970.781 1019.04 2669
-946.332 999.95 2619
-937.198 996.895 2611
-930.954 996.895 2611
-924.711 996.895 2611
-914.246 992.314 2599
-906.284 990.405 2594
-903.204 993.841 2603
-901.114 998.422 2615
-894.861 998.422 2615
-897.103 1007.97 2640
-894.839 1012.55 2652
-895.533 1020.57 2673
-889.141 1020.57 2673
-888.693 1027.44 2691
-882.258 1027.44 2691
-875.823 1027.44 2691
-869.388 1027.44 2691
-872.574 1038.89 2721
-866.067 1038.89 2721
-859.56 1038.89 2721
-853.054 1038.89 2721
-844.058 1035.84 2713
-840.04 1038.89 2721
-833.533 1038.89 2721
-827.027 1038.89 2721
-819.314 1037.37 2717
-810.124 1033.93 2708
-803.648 1033.93 2708
-797.173 1033.93 2708
-795.953 1040.8 2726
-789.434 1040.8 2726
-782.915 1040.8 2726
-770.131 1032.4 2704
-757.452 1024 2682
-747.398 1019.04 2669
-741.015 1019.04 2669
-734.633 1019.04 2669
-726.068 1015.99 2661
-717.27 1012.55 2652
-710.929 1012.55 2652
-704.587 1012.55 2652
-701.668 1017.51 2665
-695.295 1017.51 2665
-688.922 1017.51 2665
