ply
format ascii 1.0
comment File generated
element vertex 2249
property float x
property float y
property float z
end_header
1031.64 1064.81 2917
1038.62 1064.81 2917
1045.6 1064.81 2917
1050.41 1062.62 2911
1059.55 1064.81 2917
1073.83 1072.11 2937
1080.86 1072.11 2937
1087.88 1072.11 2937
1094.9 1072.11 2937
1101.93 1072.11 2937
1108.95 1072.11 2937
1106.09 1062.62 2911
1109.23 1058.97 2901
1120.02 1062.62 2911
1129.3 1064.81 2917
1136.28 1064.81 2917
1143.25 1064.81 2917
1147.86 1062.62 2911
1154.82 1062.62 2911
1149.81 1051.67 2881
1152.68 1048.02 2871
1159.55 1048.02 2871
1166.42 1048.02 2871
1173.28 1048.02 2871
1186.31 1053.5 2886
1193.21 1053.5 2886
1200.11 1053.5 2886
1202.83 1049.85 2876
1207.61 1048.02 2871
1212.36 1046.2 2866
1219.21 1046.2 2866
1226.07 1046.2 2866
1232.92 1046.2 2866
1239.77 1046.2 2866
1246.63 1046.2 2866
1253.48 1046.2 2866
1260.33 1046.2 2866
1267.19 1046.2 2866
1276.26 1048.02 2871
1283.13 1048.02 2871
1289.99 1048.02 2871
1296.86 1048.02 2871
1303.72 1048.02 2871
1310.59 1048.02 2871
1313.32 1044.74 2862
1320.17 1044.74 2862
1328.87 1046.2 2866
1335.72 1046.2 2866
1342.57 1046.2 2866
1349.43 1046.2 2866
1349.43 1030.5 2823
1356.18 1030.5 2823
1362.93 1030.5 2823
1369.69 1030.5 2823
1376.44 1030.5 2823
1380.74 1028.68 2818
1378.12 1021.74 2799
1387.29 1023.56 2804
1393.99 1023.56 2804
1400.7 1023.56 2804
1404.89 1021.74 2799
1411.59 1021.74 2799
1418.28 1021.74 2799
1424.97 1021.74 2799
1431.67 1021.74 2799
1438.36 1021.74 2799
1445.05 1021.74 2799
1451.75 1021.74 2799
1455.83 1019.91 2794
1460.42 1018.45 2790
1464.46 1016.63 2785
1471.12 1016.63 2785
1473.01 1013.34 2776
1479.65 1013.34 2776
1481.47 1010.06 2767
1488.08 1010.06 2767
1592.5 1013.34 2776
1599.14 1013.34 2776
1605.77 1013.34 2776
1612.41 1013.34 2776
1624.3 1016.63 2785
1647.36 1026.85 2813
1654.08 1026.85 2813
1660.81 1026.85 2813
1667.54 1026.85 2813
1674.26 1026.85 2813
1680.99 1026.85 2813
1687.72 1026.85 2813
1694.44 1026.85 2813
1698.75 1025.39 2809
1699.4 1021.74 2799
1706.09 1021.74 2799
1709.72 1019.91 2794
1710.88 1016.63 2785
1717.54 1016.63 2785
1727.29 1018.45 2790
1733.96 1018.45 2790
1740.63 1018.45 2790
1756.07 1023.56 2804
1762.78 1023.56 2804
1769.48 1023.56 2804
1785.06 1028.68 2818
1798.16 1032.33 2828
1804.92 1032.33 2828
1811.68 1032.33 2828
-2074.72 1018.16 2771
-2117.35 1042.41 2837
-2110.56 1042.41 2837
-2103.78 1042.41 2837
-2096.99 1042.41 2837
-2090.21 1042.41 2837
-2076.82 1039.1 2828
-2052.49 1030.28 2804
-2045.78 1030.28 2804
-1969.27 995.008 2708
-1962.79 995.008 2708
-1918.75 975.902 2656
-1912.4 975.902 2656
-1906.05 975.902 2656
-1899.69 975.902 2656
-1887.64 972.962 2648
-1875.62 970.023 2640
-1869.31 970.023 2640
-1863 970.023 2640
-1856.68 970.023 2640
-1832.85 960.837 2615
-1821.01 957.898 2607
-1814.77 957.898 2607
-1805.77 956.428 2603
-1818.9 966.716 2631
-1836.03 979.209 2665
-1829.66 979.209 2665
-1823.28 979.209 2665
-1794.18 1032.12 2809
-1787.46 1032.12 2809
-1780.74 1032.12 2809
-1774.03 1032.12 2809
-1767.31 1032.12 2809
-1760.59 1032.12 2809
-1733.27 1019.99 2776
-1726.63 1019.99 2776
-1722.47 1021.46 2780
-1715.82 1021.46 2780
-1709.18 1021.46 2780
-1702.53 1021.46 2780
-1695.88 1021.46 2780
-1689.23 1021.46 2780
-1680.16 1019.99 2776
-1673.53 1019.99 2776
-1666.89 1019.99 2776
-1654.87 1016.69 2767
-1645.27 1014.85 2762
-1638.67 1014.85 2762
-1632.06 1014.85 2762
-1617.22 1009.71 2748
-1615.92 1013.01 2757
-1609.33 1013.01 2757
-1605.64 1014.85 2762
-1599.04 1014.85 2762
-1592.43 1014.85 2762
-1580.66 1011.54 2753
-1574.08 1011.54 2753
-1567.49 1011.54 2753
-1560.91 1011.54 2753
-1559.41 1014.85 2762
-1555.62 1016.69 2767
-1549 1016.69 2767
-1542.38 1016.69 2767
-1537.99 1018.16 2771
-1531.36 1018.16 2771
-1535.19 1025.14 2790
-1528.52 1025.14 2790
-1524.03 1026.61 2794
-1520.06 1028.44 2799
-1513.37 1028.44 2799
-1506.67 1028.44 2799
-1497.3 1026.61 2794
-1406.14 1058.57 2881
-1413.82 1069.6 2911
-1414.59 1075.48 2927
-1407.59 1075.48 2927
-1413.03 1085.03 2953
-1420.73 1096.42 2984
-1413.59 1096.42 2984
-1406.46 1096.42 2984
-1399.32 1096.42 2984
-1380.06 1086.87 2958
-1372.98 1086.87 2958
-1365.91 1086.87 2958
-1361.13 1088.7 2963
-1354.05 1088.7 2963
-1346.96 1088.7 2963
-1335.36 1085.03 2953
-1304.9 1065.92 2901
-1291.26 1060.41 2886
-1284.35 1060.41 2886
-1270.81 1054.9 2871
-1261.75 1053.06 2866
-1253.14 1051.59 2862
-1246.3 1051.59 2862
-969.87 1019.99 2776
-964.62 1021.46 2780
-957.972 1021.46 2780
-953.035 1023.3 2785
-946.376 1023.3 2785
-944.44 1028.44 2799
-937.746 1028.44 2799
-934.38 1032.12 2809
-928.983 1033.59 2813
-922.257 1033.59 2813
-915.53 1033.59 2813
-904.28 1028.44 2799
-897.587 1028.44 2799
-890.894 1028.44 2799
-881.357 1025.14 2790
-874.686 1025.14 2790
-872.369 1030.28 2804
-867.208 1032.12 2809
-860.491 1032.12 2809
-853.773 1032.12 2809
-849.77 1035.43 2818
-848.716 1042.41 2837
-849.351 1051.59 2862
-842.507 1051.59 2862
-835.663 1051.59 2862
-831.425 1054.9 2871
-825.996 1056.74 2876
-819.119 1056.74 2876
-812.241 1056.74 2876
-806.764 1058.57 2881
-799.875 1058.57 2881
-792.985 1058.57 2881
-790.189 1064.09 2896
-784.616 1065.92 2901
-777.679 1065.92 2901
-770.741 1065.92 2901
-763.804 1065.92 2901
-755.563 1064.09 2896
-748.637 1064.09 2896
-734.029 1053.06 2866
-722.354 1046.08 2847
-711.776 1040.57 2832
-705.004 1040.57 2832
-697.246 1039.1 2828
-690.483 1039.1 2828
-683.721 1039.1 2828
-676.958 1039.1 2828
-667.826 1035.43 2818
-657.803 1030.28 2804
-648.775 1026.61 2794
-642.094 1026.61 2794
-633.366 1023.3 2785
-623.556 1018.16 2771
-616.93 1018.16 2771
-610.303 1018.16 2771
-599.755 1011.54 2753
-592.095 1009.71 2748
-587.441 1013.01 2757
-582.955 1016.69 2767
-577.172 1018.16 2771
-570.545 1018.16 2771
-563.919 1018.16 2771
-558.298 1019.99 2776
-551.66 1019.99 2776
-545.022 1019.99 2776
-537.414 1018.16 2771
-530.021 1016.69 2767
-523.405 1016.69 2767
-514.92 1013.01 2757
-509.249 1014.85 2762
-502.645 1014.85 2762
-496.04 1014.85 2762
-489.435 1014.85 2762
-484.403 1018.16 2771
-478.639 1019.99 2776
-472.001 1019.99 2776
-465.363 1019.99 2776
-458.724 1019.99 2776
-452.086 1019.99 2776
-445.448 1019.99 2776
-438.81 1019.99 2776
-432.171 1019.99 2776
-425.533 1019.99 2776
-418.895 1019.99 2776
-411.514 1018.16 2771
-402.842 1013.01 2757
-396.249 1013.01 2757
-389.657 1013.01 2757
-383.064 1013.01 2757
-376.471 1013.01 2757
-370.549 1014.85 2762
-366.316 1021.46 2780
-360.962 1025.14 2790
-354.29 1025.14 2790
-348.74 1028.44 2799
-342.047 1028.44 2799
-335.353 1028.44 2799
-328.66 1028.44 2799
-321.392 1026.61 2794
-313.133 1021.46 2780
-307.037 1023.3 2785
-300.377 1023.3 2785
-294.245 1025.14 2790
-287.573 1025.14 2790
-282.311 1030.28 2804
-275.605 1030.28 2804
-270.243 1035.43 2818
-263.504 1035.43 2818
-256.765 1035.43 2818
-250.027 1035.43 2818
-242.511 1032.12 2809
-236.13 1033.59 2813
-229.403 1033.59 2813
-222.676 1033.59 2813
-215.949 1033.59 2813
-209.223 1033.59 2813
-202.496 1033.59 2813
-195.769 1033.59 2813
-189.714 1037.26 2823
-182.964 1037.26 2823
-177.087 1042.41 2837
-170.303 1042.41 2837
-163.519 1042.41 2837
-156.735 1042.41 2837
-149.951 1042.41 2837
-142.712 1039.1 2828
-135.709 1037.26 2823
-128.502 1033.59 2813
-121.169 1028.44 2799
-114.885 1032.12 2809
-108.168 1032.12 2809
-101.775 1035.43 2818
-95.2054 1037.26 2823
-88.4548 1037.26 2823
-81.7041 1037.26 2823
-74.9535 1037.26 2823
-67.9612 1033.59 2813
-61.2345 1033.59 2813
-54.3334 1030.28 2804
-47.4583 1026.61 2794
-40.6456 1023.3 2785
-33.9858 1023.3 2785
-27.1495 1016.69 2767
-20.4585 1013.01 2757
-13.6444 996.845 2713
-7.1568 996.845 2713
15.0668 799.167 2175
20.2678 799.167 2175
25.4689 799.167 2175
30.67 799.167 2175
35.8711 799.167 2175
41.0722 799.167 2175
46.3371 800.269 2178
51.6164 801.371 2181
56.8318 801.371 2181
62.1326 802.473 2184
67.6944 806.515 2195
73.2424 809.822 2204
78.5128 809.822 2204
83.8973 810.924 2207
89.1749 810.924 2207
94.5809 812.027 2210
99.8657 812.027 2210
105.388 813.864 2215
110.985 816.068 2221
116.453 817.171 2224
121.771 817.171 2224
127.261 818.273 2227
132.944 820.478 2233
138.655 822.682 2239
144.009 822.682 2239
149.964 825.989 2248
156.238 830.766 2261
162.073 832.97 2267
167.494 832.97 2267
172.916 832.97 2267
178.809 835.175 2273
184.244 835.175 2273
189.679 835.175 2273
195.115 835.175 2273
200.55 835.175 2273
205.986 835.175 2273
211.142 834.073 2270
215.998 831.868 2264
300.426 1051.59 2862
308.236 1054.9 2871
315.102 1054.9 2871
321.967 1054.9 2871
327.802 1051.59 2862
334.646 1051.59 2862
340.893 1049.76 2857
346.508 1046.08 2847
353.316 1046.08 2847
360.124 1046.08 2847
366.932 1046.08 2847
373.74 1046.08 2847
378.543 1040.57 2832
385.315 1040.57 2832
392.087 1040.57 2832
398.859 1040.57 2832
406.348 1042.41 2837
415.316 1047.92 2852
422.136 1047.92 2852
428.956 1047.92 2852
435.776 1047.92 2852
444.148 1051.59 2862
450.992 1051.59 2862
457.836 1051.59 2862
463.451 1033.59 2813
478.368 1051.59 2862
485.212 1051.59 2862
492.056 1051.59 2862
494.541 1042.41 2837
501.326 1042.41 2837
508.11 1042.41 2837
514.894 1042.41 2837
521.678 1042.41 2837
529.393 1044.24 2842
536.19 1044.24 2842
544.896 1047.92 2852
551.716 1047.92 2852
558.536 1047.92 2852
565.356 1047.92 2852
569.167 1042.41 2837
575.951 1042.41 2837
582.735 1042.41 2837
589.519 1042.41 2837
596.303 1042.41 2837
599.049 1035.43 2818
601.703 1028.44 2799
608.396 1028.44 2799
612.013 1023.3 2785
616.673 1019.99 2776
618.147 1011.54 2753
624.73 1011.54 2753
630.167 1009.71 2748
635.812 1008.24 2744
774.879 1073.64 2922
781.867 1073.64 2922
791.554 1077.31 2932
798.565 1077.31 2932
809.698 1082.82 2947
816.745 1082.82 2947
825.469 1085.03 2953
844.372 1100.46 2995
854.661 1104.5 3006
861.849 1104.5 3006
873.663 1110.38 3022
880.89 1110.38 3022
888.116 1110.38 3022
890.602 1104.5 3006
886.441 1090.54 2968
887.217 1082.82 2947
892.746 1080.99 2942
899.782 1080.99 2942
900.652 1073.64 2922
904.223 1069.6 2911
909.619 1067.76 2906
916.568 1067.76 2906
920.339 1064.09 2896
927.264 1064.09 2896
935.802 1065.92 2901
942.74 1065.92 2901
949.677 1065.92 2901
956.614 1065.92 2901
963.551 1065.92 2901
965.47 1060.41 2886
972.372 1060.41 2886
975.88 1056.74 2876
987.883 1062.25 2891
998.237 1065.92 2901
1008.64 1069.6 2911
1015.6 1069.6 2911
1022.56 1069.6 2911
1031.64 1071.8 2917
1038.62 1071.8 2917
1045.6 1071.8 2917
1050.41 1069.6 2911
1059.55 1071.8 2917
1073.83 1079.15 2937
1080.86 1079.15 2937
1087.88 1079.15 2937
1094.9 1079.15 2937
1101.93 1079.15 2937
1108.95 1079.15 2937
1106.09 1069.6 2911
1109.23 1065.92 2901
1120.02 1069.6 2911
1129.3 1071.8 2917
1136.28 1071.8 2917
1143.25 1071.8 2917
1147.86 1069.6 2911
1154.82 1069.6 2911
1149.81 1058.57 2881
1152.68 1054.9 2871
1159.55 1054.9 2871
1166.42 1054.9 2871
1173.28 1054.9 2871
1186.31 1060.41 2886
1193.21 1060.41 2886
1200.11 1060.41 2886
1202.83 1056.74 2876
1207.61 1054.9 2871
1212.36 1053.06 2866
1219.21 1053.06 2866
1226.07 1053.06 2866
1232.92 1053.06 2866
1239.77 1053.06 2866
1246.63 1053.06 2866
1253.48 1053.06 2866
1260.33 1053.06 2866
1267.19 1053.06 2866
1276.26 1054.9 2871
1283.13 1054.9 2871
1289.99 1054.9 2871
1296.86 1054.9 2871
1299.64 1051.59 2862
1306.48 1051.59 2862
1311.03 1049.76 2857
1315.56 1047.92 2852
1322.38 1047.92 2852
1329.2 1047.92 2852
1336.02 1047.92 2852
1342.84 1047.92 2852
1349.43 1037.26 2823
1356.18 1037.26 2823
1362.93 1037.26 2823
1369.69 1037.26 2823
1376.44 1037.26 2823
1380.74 1035.43 2818
1378.12 1028.44 2799
1384.81 1028.44 2799
1391.51 1028.44 2799
1398.2 1028.44 2799
1404.89 1028.44 2799
1411.59 1028.44 2799
1418.28 1028.44 2799
1420.39 1025.14 2790
1427.06 1025.14 2790
1438.36 1028.44 2799
1445.05 1028.44 2799
1451.75 1028.44 2799
1453.75 1025.14 2790
1455.19 1021.46 2780
1459.73 1019.99 2776
1466.37 1019.99 2776
1473.01 1019.99 2776
1479.65 1019.99 2776
1486.28 1019.99 2776
1492.92 1019.99 2776
1499.56 1019.99 2776
1595.15 1030.28 2804
1601.85 1030.28 2804
1608.56 1030.28 2804
1609.5 1026.61 2794
1616.19 1026.61 2794
1614.74 1021.46 2780
1621.38 1021.46 2780
1625.69 1019.99 2776
1632.33 1019.99 2776
1633.65 1016.69 2767
1642.64 1018.16 2771
1652.24 1019.99 2776
1678.6 1032.12 2809
1685.32 1032.12 2809
1692.03 1032.12 2809
1692.7 1028.44 2799
1687.86 1021.46 2780
1697.56 1023.3 2785
1704.22 1023.3 2785
1710.88 1023.3 2785
1717.54 1023.3 2785
1724.2 1023.3 2785
1730.86 1023.3 2785
1740.63 1025.14 2790
1756.07 1030.28 2804
1762.78 1030.28 2804
1769.48 1030.28 2804
1785.06 1035.43 2818
1798.16 1039.1 2828
1804.92 1039.1 2828
1811.68 1039.1 2828
-2074.72 1024.79 2771
-2117.35 1049.2 2837
-2110.56 1049.2 2837
-2103.78 1049.2 2837
-2096.99 1049.2 2837
-2090.21 1049.2 2837
-2076.82 1045.87 2828
-2052.49 1037 2804
-2045.78 1037 2804
-1969.27 1001.5 2708
-1962.79 1001.5 2708
-1918.75 982.264 2656
-1912.4 982.264 2656
-1906.05 982.264 2656
-1899.69 982.264 2656
-1887.64 979.306 2648
-1875.62 976.347 2640
-1869.31 976.347 2640
-1863 976.347 2640
-1856.68 976.347 2640
-1835.65 968.581 2619
-1823.8 965.622 2611
-1817.56 965.622 2611
-1805.77 962.663 2603
-1818.9 973.018 2631
-1836.03 985.593 2665
-1829.66 985.593 2665
-1823.28 985.593 2665
-1794.18 1038.85 2809
-1787.46 1038.85 2809
-1780.74 1038.85 2809
-1774.03 1038.85 2809
-1767.31 1038.85 2809
-1760.59 1038.85 2809
-1733.27 1026.64 2776
-1726.63 1026.64 2776
-1722.47 1028.12 2780
-1715.82 1028.12 2780
-1709.18 1028.12 2780
-1702.53 1028.12 2780
-1695.88 1028.12 2780
-1689.23 1028.12 2780
-1680.16 1026.64 2776
-1673.53 1026.64 2776
-1666.89 1026.64 2776
-1654.87 1023.32 2767
-1645.27 1021.47 2762
-1638.67 1021.47 2762
-1632.06 1021.47 2762
-1617.22 1016.29 2748
-1615.92 1019.62 2757
-1609.33 1019.62 2757
-1605.64 1021.47 2762
-1599.04 1021.47 2762
-1592.43 1021.47 2762
-1580.66 1018.14 2753
-1574.08 1018.14 2753
-1567.49 1018.14 2753
-1560.91 1018.14 2753
-1559.41 1021.47 2762
-1555.62 1023.32 2767
-1549 1023.32 2767
-1542.38 1023.32 2767
-1537.99 1024.79 2771
-1531.36 1024.79 2771
-1535.19 1031.82 2790
-1528.52 1031.82 2790
-1524.03 1033.3 2794
-1520.06 1035.15 2799
-1513.37 1035.15 2799
-1506.67 1035.15 2799
-1497.3 1033.3 2794
-1406.14 1065.48 2881
-1406.53 1071.02 2896
-1406.86 1076.57 2911
-1399.9 1076.57 2911
-1402.98 1084.34 2932
-1413.11 1097.65 2968
-1406.01 1097.65 2968
-1398.92 1097.65 2968
-1391.82 1097.65 2968
-1367.93 1084.34 2932
-1365.56 1088.04 2942
-1358.52 1088.04 2942
-1353.78 1089.88 2947
-1346.74 1089.88 2947
-1339.69 1089.88 2947
-1330.38 1088.04 2942
-1316.6 1082.49 2927
-1284.54 1061.78 2871
-1277.68 1061.78 2871
-1268.6 1059.93 2866
-1261.75 1059.93 2866
-1254.89 1059.93 2866
-1248.04 1059.93 2866
-1241.19 1059.93 2866
-952.588 1001.5 2708
-958.69 1014.81 2744
-953.516 1016.29 2748
-946.945 1016.29 2748
-946.876 1023.32 2767
-943.317 1026.64 2776
-939.716 1029.97 2785
-933.056 1029.97 2785
-929.39 1033.3 2794
-922.709 1033.3 2794
-916.027 1033.3 2794
-909.346 1033.3 2794
-902.665 1033.3 2794
-893.097 1029.97 2785
-886.438 1029.97 2785
-878.198 1028.12 2780
-870.296 1026.64 2776
-864.903 1028.12 2780
-858.255 1028.12 2780
-857.427 1035.15 2799
-850.734 1035.15 2799
-845.549 1037 2804
-840.339 1038.85 2809
-834.809 1040.33 2813
-828.082 1040.33 2813
-821.356 1040.33 2813
-814.629 1040.33 2813
-809.338 1042.18 2818
-802.599 1042.18 2818
-795.861 1042.18 2818
-789.122 1042.18 2818
-782.383 1042.18 2818
-775.645 1042.18 2818
-776.819 1052.9 2847
-780.559 1067.32 2886
-776.338 1071.02 2896
-769.413 1071.02 2896
-762.488 1071.02 2896
-752.954 1067.32 2886
-746.052 1067.32 2886
-729.163 1052.9 2847
-719.817 1049.2 2837
-705.996 1038.85 2809
-699.279 1038.85 2809
-687.877 1031.82 2790
-681.205 1031.82 2790
-674.534 1031.82 2790
-667.862 1031.82 2790
-660.005 1029.97 2785
-650.061 1024.79 2771
-642.506 1023.32 2767
-635.889 1023.32 2767
-628.135 1021.47 2762
-618.38 1016.29 2748
-609.805 1012.96 2739
-601.273 1009.63 2730
-594.745 1009.63 2730
-588.217 1009.63 2730
-584.671 1014.81 2744
-578.952 1016.29 2748
-572.381 1016.29 2748
-565.81 1016.29 2748
-559.238 1016.29 2748
-553.673 1018.14 2753
-547.089 1018.14 2753
-540.506 1018.14 2753
-533.923 1018.14 2753
-527.34 1018.14 2753
-520.756 1018.14 2753
-514.173 1018.14 2753
-507.59 1018.14 2753
-501.735 1019.62 2757
-495.142 1019.62 2757
-488.549 1019.62 2757
-482.83 1021.47 2762
-477.087 1023.32 2767
-470.471 1023.32 2767
-463.854 1023.32 2767
-457.237 1023.32 2767
-450.621 1023.32 2767
-444.004 1023.32 2767
-436.597 1021.47 2762
-429.992 1021.47 2762
-422.621 1019.62 2757
-416.028 1019.62 2757
-409.435 1019.62 2757
-401.527 1016.29 2748
-394.381 1014.81 2744
-387.819 1014.81 2744
-381.258 1014.81 2744
-374.696 1014.81 2744
-369.341 1018.14 2753
-363.944 1021.47 2762
-359.151 1026.64 2776
-352.512 1026.64 2776
-345.874 1026.64 2776
-339.236 1026.64 2776
-332.598 1026.64 2776
-325.959 1026.64 2776
-319.321 1026.64 2776
-311.106 1021.47 2762
-304.501 1021.47 2762
-296.926 1018.14 2753
-291.819 1023.32 2767
-285.614 1024.79 2771
-280.901 1031.82 2790
-274.229 1031.82 2790
-267.941 1033.3 2794
-261.727 1035.15 2799
-255.034 1035.15 2799
-248.341 1035.15 2799
-241.216 1033.3 2794
-234.954 1035.15 2799
-228.261 1035.15 2799
-221.568 1035.15 2799
-214.875 1035.15 2799
-208.181 1035.15 2799
-201.848 1037 2804
-195.143 1037 2804
-189.042 1040.33 2813
-182.64 1042.18 2818
-176.213 1044.03 2823
-169.463 1044.03 2823
-162.712 1044.03 2823
-155.961 1044.03 2823
-149.211 1044.03 2823
-142.46 1044.03 2823
-135.229 1040.33 2813
-127.862 1035.15 2799
-120.347 1028.12 2780
-114.108 1031.82 2790
-107.436 1031.82 2790
-101.089 1035.15 2799
-94.7333 1038.85 2809
-88.0161 1038.85 2809
-81.2989 1038.85 2809
-74.5817 1038.85 2809
-67.5022 1033.3 2794
-60.8209 1033.3 2794
-53.9652 1029.97 2785
-47.2205 1028.12 2780
-40.237 1019.62 2757
-33.6442 1019.62 2757
-27.0513 1019.62 2757
-20.0949 1001.5 2708
-13.574 998.167 2699
-7.11987 998.167 2699
15.143 808.445 2186
20.3704 808.445 2186
25.5977 808.445 2186
30.8251 808.445 2186
35.9701 806.596 2181
41.1855 806.596 2181
46.4647 807.705 2184
51.6874 807.705 2184
56.91 807.705 2184
62.1895 808.445 2186
67.7869 812.883 2198
73.3421 816.211 2207
78.6197 816.211 2207
84.0114 817.321 2210
89.4174 818.43 2213
94.7949 819.17 2215
100.092 819.17 2215
105.674 821.389 2221
111.285 823.608 2227
116.767 824.717 2230
122.1 824.717 2230
127.604 825.827 2233
133.122 826.936 2236
138.841 829.155 2242
144.202 829.155 2242
149.964 831.374 2248
156.238 836.182 2261
162.073 838.401 2267
167.494 838.401 2267
173.144 839.51 2270
178.809 840.62 2273
184.73 842.839 2279
190.18 842.839 2279
195.63 842.839 2279
201.08 842.839 2279
206.529 842.839 2279
211.142 839.51 2270
215.998 837.291 2264
295.283 1040.33 2813
305.66 1052.9 2847
312.468 1052.9 2847
319.276 1052.9 2847
325.511 1051.05 2842
332.307 1051.05 2842
339.103 1051.05 2842
345.291 1049.2 2837
351.454 1047.35 2832
358.226 1047.35 2832
364.999 1047.35 2832
371.771 1047.35 2832
378.543 1047.35 2832
385.315 1047.35 2832
392.087 1047.35 2832
398.859 1047.35 2832
405.632 1047.35 2832
413.132 1049.2 2837
419.916 1049.2 2837
427.452 1051.05 2842
434.248 1051.05 2842
441.82 1052.9 2847
448.628 1052.9 2847
455.436 1052.9 2847
463.451 1040.33 2813
471.013 1042.18 2818
477.752 1042.18 2818
486.898 1047.35 2832
493.67 1047.35 2832
500.442 1047.35 2832
506.498 1045.87 2828
513.26 1045.87 2828
520.023 1045.87 2828
527.531 1047.35 2832
534.303 1047.35 2832
541.075 1047.35 2832
547.847 1047.35 2832
554.619 1047.35 2832
560.599 1045.87 2828
567.361 1045.87 2828
574.124 1045.87 2828
580.886 1045.87 2828
587.649 1045.87 2828
592.31 1042.18 2818
595.01 1035.15 2799
598.693 1029.97 2785
605.353 1029.97 2785
610.035 1026.64 2776
613.563 1021.47 2762
618.147 1018.14 2753
624.73 1018.14 2753
630.167 1016.29 2748
635.812 1014.81 2744
771.962 1076.57 2911
778.923 1076.57 2911
788.854 1080.64 2922
795.841 1080.64 2922
804.203 1082.49 2927
811.202 1082.49 2927
823.792 1089.88 2947
833.94 1093.95 2958
846.985 1101.72 2979
858.696 1107.64 2995
865.858 1107.64 2995
873.019 1107.64 2995
872.247 1097.65 2968
879.344 1097.65 2968
877.183 1086.19 2937
874.873 1074.72 2906
878.788 1071.02 2896
885.713 1071.02 2896
891.097 1069.17 2891
893.351 1063.63 2876
897.098 1059.93 2866
903.952 1059.93 2866
907.945 1056.6 2857
914.777 1056.6 2857
923.222 1058.45 2862
930.066 1058.45 2862
936.91 1058.45 2862
943.754 1058.45 2862
950.597 1058.45 2862
955.769 1056.6 2857
962.601 1056.6 2857
966.039 1052.9 2847
979.34 1059.93 2866
991.355 1065.48 2881
1005.17 1072.87 2901
1012.11 1072.87 2901
1019.05 1072.87 2901
1025.99 1072.87 2901
1032.92 1072.87 2901
1039.86 1072.87 2901
1048.6 1074.72 2906
1059.55 1078.79 2917
1068.35 1080.64 2922
1075.34 1080.64 2922
1087.88 1086.19 2937
1094.9 1086.19 2937
1101.93 1086.19 2937
1103.29 1080.64 2922
1106.09 1076.57 2911
1109.23 1072.87 2901
1116.17 1072.87 2901
1129.3 1078.79 2917
1136.28 1078.79 2917
1143.25 1078.79 2917
1139.97 1069.17 2891
1146.89 1069.17 2891
1149.81 1065.48 2881
1152.68 1061.78 2871
1159.55 1061.78 2871
1166.42 1061.78 2871
1173.28 1061.78 2871
1186.31 1067.32 2886
1193.21 1067.32 2886
1200.11 1067.32 2886
1202.83 1063.63 2876
1207.61 1061.78 2871
1212.36 1059.93 2866
1219.21 1059.93 2866
1226.07 1059.93 2866
1232.92 1059.93 2866
1239.77 1059.93 2866
1246.63 1059.93 2866
1253.48 1059.93 2866
1260.33 1059.93 2866
1267.19 1059.93 2866
1276.26 1061.78 2871
1283.13 1061.78 2871
1289.99 1061.78 2871
1296.86 1061.78 2871
1299.64 1058.45 2862
1306.48 1058.45 2862
1311.03 1056.6 2857
1315.56 1054.75 2852
1322.38 1054.75 2852
1329.2 1054.75 2852
1336.02 1054.75 2852
1342.84 1054.75 2852
1349.43 1044.03 2823
1356.18 1044.03 2823
1362.93 1044.03 2823
1369.69 1044.03 2823
1376.44 1044.03 2823
1380.74 1042.18 2818
1378.12 1035.15 2799
1384.81 1035.15 2799
1391.51 1035.15 2799
1398.2 1035.15 2799
1404.89 1035.15 2799
1411.59 1035.15 2799
1418.28 1035.15 2799
1420.39 1031.82 2790
1427.06 1031.82 2790
1438.36 1035.15 2799
1445.05 1035.15 2799
1451.75 1035.15 2799
1453.75 1031.82 2790
1455.19 1028.12 2780
1459.73 1026.64 2776
1466.37 1026.64 2776
1473.01 1026.64 2776
1479.65 1026.64 2776
1491.1 1029.97 2785
1497.76 1029.97 2785
1504.42 1029.97 2785
1513.8 1031.82 2790
1520.47 1031.82 2790
1527.14 1031.82 2790
1533.81 1031.82 2790
1540.48 1031.82 2790
1547.15 1031.82 2790
1553.83 1031.82 2790
1557.7 1029.97 2785
1564.36 1029.97 2785
1560.87 1023.32 2767
1567.48 1023.32 2767
1595.15 1037 2804
1601.85 1037 2804
1608.56 1037 2804
1609.5 1033.3 2794
1616.19 1033.3 2794
1617.64 1029.97 2785
1621.38 1028.12 2780
1625.69 1026.64 2776
1632.33 1026.64 2776
1633.65 1023.32 2767
1642.64 1024.79 2771
1652.24 1026.64 2776
1678.6 1038.85 2809
1685.32 1038.85 2809
1692.03 1038.85 2809
1692.7 1035.15 2799
1690.9 1029.97 2785
1697.56 1029.97 2785
1704.22 1029.97 2785
1710.88 1029.97 2785
1717.54 1029.97 2785
1724.2 1029.97 2785
1730.86 1029.97 2785
1743.13 1033.3 2794
1756.07 1037 2804
1762.78 1037 2804
1769.48 1037 2804
1785.06 1042.18 2818
1798.16 1045.87 2828
1804.92 1045.87 2828
1811.68 1045.87 2828
1818.44 1045.87 2828
-1929.05 984.16 2644
-1922.72 984.16 2644
-1916.4 984.16 2644
-1907.19 982.671 2640
-1900.88 982.671 2640
-1890.98 980.81 2635
-1884.67 980.81 2635
-1878.37 980.81 2635
-1875.62 982.671 2640
-1869.31 982.671 2640
-1863 982.671 2640
-1856.68 982.671 2640
-1835.65 974.854 2619
-1823.8 971.877 2611
-1817.56 971.877 2611
-1796.75 964.06 2590
-1790.55 964.06 2590
-1778.85 961.082 2582
-1772.67 961.082 2582
-1721.03 1029.94 2767
-1719.99 1033.29 2776
-1713.36 1033.29 2776
-1706.72 1033.29 2776
-1697.02 1031.43 2771
-1690.39 1031.43 2771
-1683.76 1031.43 2771
-1677.14 1031.43 2771
-1670.51 1031.43 2771
-1663.89 1031.43 2771
-1651.88 1028.08 2762
-1645.27 1028.08 2762
-1630.36 1022.87 2748
-1623.79 1022.87 2748
-1611.92 1019.52 2739
-1605.37 1019.52 2739
-1609.33 1026.22 2757
-1602.74 1026.22 2757
-1596.14 1026.22 2757
-1589.55 1026.22 2757
-1577.79 1022.87 2748
-1566.07 1019.52 2739
-1559.52 1019.52 2739
-1545.6 1014.68 2726
-1539.08 1014.68 2726
-1529.75 1012.82 2721
-1523.25 1012.82 2721
-1516.74 1012.82 2721
-1535.77 1029.94 2767
-1529.15 1029.94 2767
-1535.19 1038.5 2790
-1528.52 1038.5 2790
-1524.03 1039.99 2794
-1517.34 1039.99 2794
-1510.66 1039.99 2794
-1503.98 1039.99 2794
-1472.65 1022.87 2748
-1466.08 1022.87 2748
-1459.51 1022.87 2748
-1452.94 1022.87 2748
-1406.14 1072.38 2881
-1406.53 1077.96 2896
-1406.86 1083.54 2911
-1399.9 1083.54 2911
-1402.98 1091.36 2932
-1413.11 1104.76 2968
-1406.01 1104.76 2968
-1398.92 1104.76 2968
-1391.82 1104.76 2968
-1367.93 1091.36 2932
-1365.56 1095.08 2942
-1358.52 1095.08 2942
-1353.78 1096.94 2947
-1346.74 1096.94 2947
-1339.69 1096.94 2947
-1330.38 1095.08 2942
-1316.6 1089.5 2927
-1284.54 1068.65 2871
-1277.68 1068.65 2871
-1268.6 1066.79 2866
-1261.75 1066.79 2866
-1254.89 1066.79 2866
-1248.04 1066.79 2866
-1241.19 1066.79 2866
-1029.76 994.954 2673
-1023.37 994.954 2673
-1016.98 994.954 2673
-1010.59 994.954 2673
-1004.2 994.954 2673
-991.458 988.627 2656
-994.75 998.305 2682
-989.811 999.793 2686
-985.218 1001.65 2691
-978.783 1001.65 2691
-972.348 1001.65 2691
-965.913 1001.65 2691
-959.478 1001.65 2691
-953.043 1001.65 2691
-952.588 1007.98 2708
-958.69 1021.38 2744
-953.516 1022.87 2748
-946.945 1022.87 2748
-946.876 1029.94 2767
-943.317 1033.29 2776
-939.716 1036.64 2785
-933.056 1036.64 2785
-929.39 1039.99 2794
-922.709 1039.99 2794
-916.027 1039.99 2794
-909.346 1039.99 2794
-902.665 1039.99 2794
-893.097 1036.64 2785
-886.438 1036.64 2785
-878.198 1034.78 2780
-870.296 1033.29 2776
-864.903 1034.78 2780
-858.255 1034.78 2780
-857.427 1041.85 2799
-850.734 1041.85 2799
-845.549 1043.72 2804
-840.339 1045.58 2809
-834.809 1047.07 2813
-828.082 1047.07 2813
-821.356 1047.07 2813
-814.629 1047.07 2813
-809.338 1048.93 2818
-802.599 1048.93 2818
-795.861 1048.93 2818
-789.122 1048.93 2818
-782.383 1048.93 2818
-775.645 1048.93 2818
-776.819 1059.72 2847
-780.559 1074.24 2886
-776.338 1077.96 2896
-769.413 1077.96 2896
-762.488 1077.96 2896
-752.954 1074.24 2886
-746.052 1074.24 2886
-729.163 1059.72 2847
-719.817 1056 2837
-705.996 1045.58 2809
-699.279 1045.58 2809
-687.877 1038.5 2790
-681.205 1038.5 2790
-674.534 1038.5 2790
-667.862 1038.5 2790
-660.005 1036.64 2785
-650.061 1031.43 2771
-642.506 1029.94 2767
-635.889 1029.94 2767
-628.135 1028.08 2762
-618.38 1022.87 2748
-609.805 1019.52 2739
-601.273 1016.17 2730
-594.745 1016.17 2730
-588.217 1016.17 2730
-581.688 1016.17 2730
-577.056 1019.52 2739
-572.381 1022.87 2748
-565.81 1022.87 2748
-559.238 1022.87 2748
-552.667 1022.87 2748
-546.096 1022.87 2748
-539.524 1022.87 2748
-532.177 1021.38 2744
-525.616 1021.38 2744
-519.054 1021.38 2744
-511.558 1019.52 2739
-505.009 1019.52 2739
-501.007 1024.73 2753
-494.423 1024.73 2753
-487.84 1024.73 2753
-481.956 1026.22 2757
-476.225 1028.08 2762
-469.621 1028.08 2762
-463.016 1028.08 2762
-455.585 1026.22 2757
-448.992 1026.22 2757
-442.399 1026.22 2757
-435.806 1026.22 2757
-429.214 1026.22 2757
-421.241 1022.87 2748
-414.67 1022.87 2748
-407.504 1021.38 2744
-400.212 1019.52 2739
-392.369 1016.17 2730
-385.841 1016.17 2730
-379.312 1016.17 2730
-371.555 1012.82 2721
-365.719 1014.68 2726
-360.386 1018.03 2735
-354.364 1019.52 2739
-347.814 1019.52 2739
-341.887 1021.38 2744
-335.814 1022.87 2748
-329.243 1022.87 2748
-322.672 1022.87 2748
-316.1 1022.87 2748
-309.078 1021.38 2744
-302.517 1021.38 2744
-294.445 1016.17 2730
-290.342 1024.73 2753
-285.202 1029.94 2767
-278.988 1031.43 2771
-272.362 1031.43 2771
-266.599 1034.78 2780
-260.418 1036.64 2785
-253.759 1036.64 2785
-247.099 1036.64 2785
-240.439 1036.64 2785
-234.199 1038.5 2790
-227.853 1039.99 2794
-221.172 1039.99 2794
-214.491 1039.99 2794
-207.809 1039.99 2794
-201.488 1041.85 2799
-194.795 1041.85 2799
-188.438 1043.72 2804
-181.732 1043.72 2804
-175.589 1047.07 2813
-168.862 1047.07 2813
-162.136 1047.07 2813
-155.409 1047.07 2813
-148.682 1047.07 2813
-141.955 1047.07 2813
-134.123 1038.5 2790
-126.994 1034.78 2780
-119.784 1029.94 2767
-113.699 1034.78 2780
-107.051 1034.78 2780
-100.764 1038.5 2790
-94.2274 1039.99 2794
-87.5461 1039.99 2794
-80.8648 1039.99 2794
-73.9445 1036.64 2785
-67.0673 1033.29 2776
-60.4291 1033.29 2776
-53.6164 1029.94 2767
-46.8298 1026.22 2757
-39.8429 1016.17 2730
-33.3147 1016.17 2730
-26.6196 1009.84 2713
-19.8352 994.954 2673
-13.4432 994.954 2673
4.74609 823.732 2213
10.038 823.732 2213
15.33 823.732 2213
20.4542 817.031 2195
25.7031 817.031 2195
30.952 817.031 2195
36.0525 813.681 2186
41.2421 812.937 2184
46.5073 813.681 2186
51.7347 813.681 2186
56.9621 813.681 2186
62.3602 815.915 2192
67.7869 818.148 2198
73.4418 822.615 2210
78.7266 822.615 2210
84.1254 823.732 2213
89.4174 823.732 2213
94.7949 824.476 2215
100.092 824.476 2215
105.674 826.709 2221
111.435 830.059 2230
116.767 830.059 2230
122.1 830.059 2230
127.604 831.176 2233
133.301 833.409 2239
139.027 835.643 2245
144.395 835.643 2245
150.164 837.876 2251
156.238 841.598 2261
162.288 844.948 2270
167.716 844.948 2270
173.144 844.948 2270
179.045 847.182 2276
184.73 848.298 2279
190.18 848.298 2279
195.63 848.298 2279
201.08 848.298 2279
206.529 848.298 2279
211.142 844.948 2270
216.57 844.948 2270
221.999 844.948 2270
227.427 844.948 2270
295.283 1047.07 2813
304.049 1054.14 2832
310.821 1054.14 2832
318.154 1056 2837
324.938 1056 2837
331.722 1056 2837
337.91 1054.14 2832
344.682 1054.14 2832
350.958 1052.65 2828
357.721 1052.65 2828
363.839 1050.79 2823
370.589 1050.79 2823
377.34 1050.79 2823
384.091 1050.79 2823
390.841 1050.79 2823
396.184 1047.07 2813
403.626 1048.93 2818
412.404 1054.14 2832
419.176 1054.14 2832
425.948 1054.14 2832
432.72 1054.14 2832
439.493 1054.14 2832
446.265 1054.14 2832
446.958 1039.99 2794
450.717 1033.29 2776
462.792 1045.58 2809
470.178 1047.07 2813
476.904 1047.07 2813
483.631 1047.07 2813
491.229 1048.93 2818
497.968 1048.93 2818
504.707 1048.93 2818
510.538 1047.07 2813
517.265 1047.07 2813
525.854 1050.79 2823
532.605 1050.79 2823
540.311 1052.65 2828
547.073 1052.65 2828
553.836 1052.65 2828
559.607 1050.79 2823
563.549 1045.58 2809
572.094 1048.93 2818
578.832 1048.93 2818
585.571 1048.93 2818
592.31 1048.93 2818
593.947 1039.99 2794
598.693 1036.64 2785
605.353 1036.64 2785
610.035 1033.29 2776
612.452 1026.22 2757
617.024 1022.87 2748
623.596 1022.87 2748
629.25 1021.38 2744
633.726 1018.03 2735
636.989 1012.82 2721
643.496 1012.82 2721
785.884 1083.54 2911
792.845 1083.54 2911
799.807 1083.54 2911
806.768 1083.54 2911
813.729 1083.54 2911
830.839 1096.94 2947
841.014 1101.04 2958
848.087 1101.04 2958
855.161 1101.04 2958
859.028 1096.94 2947
858.728 1087.64 2922
865.715 1087.64 2922
866.431 1079.82 2901
867.347 1072.38 2881
871.202 1068.65 2871
878.067 1068.65 2871
883.391 1066.79 2866
887.449 1063.44 2857
889.586 1057.86 2842
896.382 1057.86 2842
903.178 1057.86 2842
913.176 1061.58 2852
919.996 1061.58 2852
928.441 1063.44 2857
935.273 1063.44 2857
942.105 1063.44 2857
947.276 1061.58 2852
952.423 1059.72 2847
959.231 1059.72 2847
962.646 1056 2837
971.139 1057.86 2842
983.096 1063.44 2857
996.512 1070.52 2876
1003.39 1070.52 2876
1013.78 1074.24 2886
1020.68 1074.24 2886
1027.58 1074.24 2886
1034.48 1074.24 2886
1041.38 1074.24 2886
1048.29 1074.24 2886
1062.5 1081.68 2906
1069.45 1081.68 2906
1082.32 1087.64 2922
1089.31 1087.64 2922
1096.3 1087.64 2922
1099.13 1083.54 2911
1098.49 1076.1 2891
1103.5 1074.24 2886
1110.4 1074.24 2886
1117.3 1074.24 2886
1124.2 1074.24 2886
1131.1 1074.24 2886
1136.03 1072.38 2881
1142.92 1072.38 2881
1145.82 1068.65 2871
1150.68 1066.79 2866
1155.91 1065.3 2862
1164.38 1066.79 2866
1171.24 1066.79 2866
1180.15 1068.65 2871
1187.01 1068.65 2871
1193.88 1068.65 2871
1200.74 1068.65 2871
1207.61 1068.65 2871
1210.67 1065.3 2862
1217.51 1065.3 2862
1222.21 1063.44 2857
1229.05 1063.44 2857
1235.88 1063.44 2857
1244.89 1065.3 2862
1251.73 1065.3 2862
1258.57 1065.3 2862
1263.21 1063.44 2857
1272.26 1065.3 2862
1279.11 1065.3 2862
1285.95 1065.3 2862
1292.79 1065.3 2862
1290.55 1057.86 2842
1297.35 1057.86 2842
1299.56 1054.14 2832
1310.94 1057.86 2842
1317.74 1057.86 2842
1324.54 1057.86 2842
1331.33 1057.86 2842
1338.13 1057.86 2842
1349.43 1050.79 2823
1356.18 1050.79 2823
1362.93 1050.79 2823
1364.83 1047.07 2813
1371.56 1047.07 2813
1378.29 1047.07 2813
1375.66 1039.99 2794
1382.34 1039.99 2794
1391.51 1041.85 2799
1398.2 1041.85 2799
1404.89 1041.85 2799
1404.53 1036.64 2785
1411.19 1036.64 2785
1417.85 1036.64 2785
1424.51 1036.64 2785
1433.73 1038.5 2790
1440.41 1038.5 2790
1447.08 1038.5 2790
1451.14 1036.64 2785
1450.48 1031.43 2771
1457.1 1031.43 2771
1466.37 1033.29 2776
1473.01 1033.29 2776
1479.65 1033.29 2776
1491.1 1036.64 2785
1497.76 1036.64 2785
1504.42 1036.64 2785
1513.8 1038.5 2790
1520.47 1038.5 2790
1527.14 1038.5 2790
1533.81 1038.5 2790
1540.48 1038.5 2790
1547.15 1038.5 2790
1553.83 1038.5 2790
1557.7 1036.64 2785
1564.36 1036.64 2785
1560.87 1029.94 2767
1567.48 1029.94 2767
1595.15 1043.72 2804
1601.85 1043.72 2804
1608.56 1043.72 2804
1609.5 1039.99 2794
1616.19 1039.99 2794
1617.64 1036.64 2785
1621.38 1034.78 2780
1625.69 1033.29 2776
1632.33 1033.29 2776
1630.7 1028.08 2762
1642.64 1031.43 2771
1652.24 1033.29 2776
1667.25 1038.5 2790
1673.92 1038.5 2790
1680.59 1038.5 2790
1684.24 1036.64 2785
1690.9 1036.64 2785
1697.56 1036.64 2785
1704.22 1036.64 2785
1710.88 1036.64 2785
1717.54 1036.64 2785
1724.2 1036.64 2785
1730.86 1036.64 2785
1743.13 1039.99 2794
1749.81 1039.99 2794
1759.64 1041.85 2799
1766.33 1041.85 2799
1776.19 1043.72 2804
1782.9 1043.72 2804
1804.92 1052.65 2828
1811.68 1052.65 2828
1818.44 1052.65 2828
-1886.73 968.766 2586
-1895.82 976.633 2607
-1895.38 979.63 2615
-1889.13 979.63 2615
-1894.4 985.624 2631
-1890.98 987.122 2635
-1884.67 987.122 2635
-1878.37 987.122 2635
-1875.62 988.995 2640
-1869.31 988.995 2640
-1863 988.995 2640
-1856.68 988.995 2640
-1835.65 981.128 2619
-1829.39 981.128 2619
-1823.13 981.128 2619
-1811.31 978.131 2611
-1790.55 970.264 2590
-1778.85 967.267 2582
-1772.67 967.267 2582
-1721.03 1036.57 2767
-1714.42 1036.57 2767
-1707.8 1036.57 2767
-1701.18 1036.57 2767
-1697.02 1038.07 2771
-1690.39 1038.07 2771
-1683.76 1038.07 2771
-1671.69 1034.7 2762
-1665.09 1034.7 2762
-1658.48 1034.7 2762
-1651.88 1034.7 2762
-1642.29 1032.83 2757
-1622.65 1024.58 2735
-1616.11 1024.58 2735
-1604.27 1021.21 2726
-1597.75 1021.21 2726
-1596.49 1024.58 2735
-1592.27 1026.08 2739
-1585.72 1026.08 2739
-1579.17 1026.08 2739
-1565.16 1021.21 2726
-1558.64 1021.21 2726
-1552.12 1021.21 2726
-1538.23 1016.34 2713
-1528.92 1014.47 2708
-1520.2 1012.97 2704
-1513.73 1012.97 2704
-1507.26 1012.97 2704
-1510.23 1019.34 2721
-1506.49 1021.21 2726
-1519.78 1034.7 2762
-1513.18 1034.7 2762
-1506.57 1034.7 2762
-1515.17 1045.19 2790
-1508.5 1045.19 2790
-1501.83 1045.19 2790
-1472.65 1029.45 2748
-1466.08 1029.45 2748
-1459.51 1029.45 2748
-1452.94 1029.45 2748
-1401.26 1075.53 2871
-1401.68 1081.15 2886
-1394.77 1081.15 2886
-1387.87 1081.15 2886
-1395.81 1092.76 2917
-1410.73 1110 2963
-1403.65 1110 2963
-1396.56 1110 2963
-1389.48 1110 2963
-1365.59 1096.51 2927
-1363.24 1100.26 2937
-1356.21 1100.26 2937
-1351.49 1102.13 2942
-1344.45 1102.13 2942
-1337.42 1102.13 2942
-1330.38 1102.13 2942
-1316.6 1096.51 2927
-1282.31 1073.66 2866
-1275.45 1073.66 2866
-1268.6 1073.66 2866
-1261.75 1073.66 2866
-1254.89 1073.66 2866
-1248.04 1073.66 2866
-1241.19 1073.66 2866
-1029.76 1001.36 2673
-1023.37 1001.36 2673
-1016.98 1001.36 2673
-1010.59 1001.36 2673
-1004.2 1001.36 2673
-991.458 994.989 2656
-994.75 1004.73 2682
-989.811 1006.23 2686
-985.218 1008.1 2691
-978.783 1008.1 2691
-972.348 1008.1 2691
-965.913 1008.1 2691
-959.478 1008.1 2691
-953.043 1008.1 2691
-952.588 1014.47 2708
-950.655 1019.34 2721
-949.006 1024.58 2735
-942.465 1024.58 2735
-940.374 1029.45 2748
-936.861 1032.83 2757
-934.992 1038.07 2771
-928.366 1038.07 2771
-921.739 1038.07 2771
-916.764 1039.94 2776
-910.126 1039.94 2776
-903.488 1039.94 2776
-895.234 1038.07 2771
-888.608 1038.07 2771
-881.982 1038.07 2771
-872.512 1034.7 2762
-865.907 1034.7 2762
-860.858 1036.57 2767
-857.02 1039.94 2776
-851.607 1041.44 2780
-844.959 1041.44 2780
-842.533 1046.69 2794
-838.843 1050.43 2804
-832.138 1050.43 2804
-825.433 1050.43 2804
-818.728 1050.43 2804
-812.023 1050.43 2804
-805.317 1050.43 2804
-797.188 1048.56 2799
-787.953 1045.19 2790
-781.281 1045.19 2790
-778.496 1050.43 2804
-771.791 1050.43 2804
-767.542 1053.8 2813
-763.52 1057.55 2823
-768.296 1073.66 2866
-761.443 1073.66 2866
-754.589 1073.66 2866
-742.779 1066.54 2847
-735.971 1066.54 2847
-719.43 1052.31 2809
-705.355 1041.44 2780
-698.707 1041.44 2780
-692.059 1041.44 2780
-679.741 1032.83 2757
-673.148 1032.83 2757
-666.555 1032.83 2757
-659.962 1032.83 2757
-653.37 1032.83 2757
-645.838 1031.33 2753
-638.094 1029.45 2748
-631.523 1029.45 2748
-624.042 1027.96 2744
-613.429 1021.21 2726
-606.911 1021.21 2726
-599.291 1019.34 2721
-592.784 1019.34 2721
-585.416 1017.84 2717
-581.688 1022.71 2730
-577.056 1026.08 2739
-572.381 1029.45 2748
-565.81 1029.45 2748
-559.238 1029.45 2748
-552.667 1029.45 2748
-546.096 1029.45 2748
-539.524 1029.45 2748
-532.177 1027.96 2744
-525.616 1027.96 2744
-519.054 1027.96 2744
-511.558 1026.08 2739
-505.009 1026.08 2739
-501.007 1031.33 2753
-494.423 1031.33 2753
-487.84 1031.33 2753
-481.956 1032.83 2757
-476.225 1034.7 2762
-469.621 1034.7 2762
-463.016 1034.7 2762
-455.585 1032.83 2757
-448.992 1032.83 2757
-442.399 1032.83 2757
-435.806 1032.83 2757
-429.214 1032.83 2757
-421.241 1029.45 2748
-414.67 1029.45 2748
-407.504 1027.96 2744
-400.212 1026.08 2739
-392.369 1022.71 2730
-385.841 1022.71 2730
-379.312 1022.71 2730
-371.555 1019.34 2721
-365.719 1021.21 2726
-360.386 1024.58 2735
-354.364 1026.08 2739
-347.814 1026.08 2739
-341.887 1027.96 2744
-335.814 1029.45 2748
-329.243 1029.45 2748
-322.672 1029.45 2748
-316.1 1029.45 2748
-309.078 1027.96 2744
-302.517 1027.96 2744
-294.445 1022.71 2730
-290.342 1031.33 2753
-285.202 1036.57 2767
-278.988 1038.07 2771
-272.362 1038.07 2771
-266.599 1041.44 2780
-260.418 1043.32 2785
-253.759 1043.32 2785
-247.099 1043.32 2785
-240.439 1043.32 2785
-234.199 1045.19 2790
-227.853 1046.69 2794
-221.172 1046.69 2794
-214.491 1046.69 2794
-207.809 1046.69 2794
-201.488 1048.56 2799
-194.795 1048.56 2799
-188.438 1050.43 2804
-181.732 1050.43 2804
-175.589 1053.8 2813
-168.862 1053.8 2813
-162.136 1053.8 2813
-155.409 1053.8 2813
-148.682 1053.8 2813
-141.955 1053.8 2813
-134.123 1045.19 2790
-126.994 1041.44 2780
-119.784 1036.57 2767
-113.699 1041.44 2780
-107.051 1041.44 2780
-100.764 1045.19 2790
-94.2274 1046.69 2794
-87.5461 1046.69 2794
-80.8648 1046.69 2794
-73.9445 1043.32 2785
-67.0673 1039.94 2776
-60.4291 1039.94 2776
-53.6164 1036.57 2767
-46.8298 1032.83 2757
-39.8429 1022.71 2730
-33.3147 1022.71 2730
-26.6196 1016.34 2713
-19.8352 1001.36 2673
-13.4432 1001.36 2673
-0.548575 833.154 2224
4.76968 833.154 2224
10.0879 833.154 2224
15.33 829.033 2213
20.5381 825.661 2204
25.8085 825.661 2204
30.9943 823.413 2198
36.1515 821.166 2192
41.2799 818.918 2186
46.5073 818.918 2186
51.7347 818.918 2186
56.9621 818.918 2186
62.3602 821.166 2192
67.7869 823.413 2198
73.4418 827.909 2210
78.7266 827.909 2210
84.1254 829.033 2213
89.4174 829.033 2213
94.7949 829.782 2215
100.092 829.782 2215
105.674 832.03 2221
111.435 835.401 2230
116.924 836.525 2233
122.264 836.525 2233
127.604 836.525 2233
133.301 838.773 2239
139.027 841.021 2245
144.395 841.021 2245
150.164 843.268 2251
156.445 848.138 2264
162.288 850.386 2270
167.716 850.386 2270
173.373 851.51 2273
179.045 852.634 2276
184.73 853.758 2279
190.18 853.758 2279
195.63 853.758 2279
201.08 853.758 2279
206.529 853.758 2279
211.142 850.386 2270
216.57 850.386 2270
221.999 850.386 2270
227.427 850.386 2270
295.283 1053.8 2813
302.009 1053.8 2813
308.736 1053.8 2813
317.145 1059.42 2828
323.908 1059.42 2828
330.67 1059.42 2828
337.433 1059.42 2828
342.978 1055.68 2818
349.717 1055.68 2818
356.456 1055.68 2818
363.194 1055.68 2818
368.751 1052.31 2809
374.8 1050.43 2804
381.506 1050.43 2804
388.211 1050.43 2804
394.212 1048.56 2799
402.337 1052.31 2809
409.055 1052.31 2809
415.772 1052.31 2809
422.489 1052.31 2809
428.442 1050.43 2804
435.147 1050.43 2804
441.852 1050.43 2804
446.958 1046.69 2794
450.717 1039.94 2776
460.321 1046.69 2794
467.838 1048.56 2799
474.531 1048.56 2799
482.943 1052.31 2809
489.661 1052.31 2809
496.378 1052.31 2809
503.095 1052.31 2809
509.812 1052.31 2809
516.529 1052.31 2809
523.992 1053.8 2813
530.718 1053.8 2813
538.4 1055.68 2818
545.139 1055.68 2818
551.878 1055.68 2818
556.832 1052.31 2809
562.546 1050.43 2804
570.267 1052.31 2809
576.984 1052.31 2809
583.701 1052.31 2809
589.367 1050.43 2804
592.033 1043.32 2785
596.758 1039.94 2776
603.397 1039.94 2776
608.057 1036.57 2767
612.452 1032.83 2757
616.126 1027.96 2744
622.688 1027.96 2744
626.039 1022.71 2730
631.641 1021.21 2726
636.989 1019.34 2721
643.496 1019.34 2721
786.036 1081.15 2886
792.938 1081.15 2886
799.839 1081.15 2886
806.74 1081.15 2886
813.642 1081.15 2886
826.229 1088.64 2906
833.178 1088.64 2906
840.128 1088.64 2906
847.077 1088.64 2906
846.679 1079.28 2881
853.568 1079.28 2881
853.289 1070.29 2857
858.616 1068.41 2852
865.436 1068.41 2852
872.256 1068.41 2852
879.076 1068.41 2852
882.79 1064.67 2842
886.456 1060.92 2832
893.228 1060.92 2832
901.589 1062.8 2837
908.373 1062.8 2837
916.77 1064.67 2842
926.816 1068.41 2852
933.636 1068.41 2852
940.456 1068.41 2852
943.955 1064.67 2842
950.751 1064.67 2842
957.547 1064.67 2842
960.95 1060.92 2832
967.722 1060.92 2832
979.656 1066.54 2847
989.928 1070.29 2857
996.76 1070.29 2857
1003.59 1070.29 2857
1010.42 1070.29 2857
1017.26 1070.29 2857
1024.09 1070.29 2857
1029.12 1068.41 2852
1042.84 1075.53 2871
1053.36 1079.28 2881
1060.25 1079.28 2881
1068.99 1081.15 2886
1075.89 1081.15 2886
1082.79 1081.15 2886
1084.03 1075.53 2871
1089 1073.66 2866
1092.41 1070.29 2857
1104.63 1075.53 2871
1111.49 1075.53 2871
1118.36 1075.53 2871
1125.22 1075.53 2871
1132.09 1075.53 2871
1138.95 1075.53 2871
1140.23 1070.29 2857
1147.06 1070.29 2857
1151.88 1068.41 2852
1158.7 1068.41 2852
1165.52 1068.41 2852
1178.09 1073.66 2866
1184.94 1073.66 2866
1191.8 1073.66 2866
1198.65 1073.66 2866
1203.82 1072.16 2862
1204.32 1066.54 2847
1211.13 1066.54 2847
1217.94 1066.54 2847
1222.59 1064.67 2842
1229.39 1064.67 2842
1240.54 1068.41 2852
1247.36 1068.41 2852
1254.18 1068.41 2852
1256.57 1064.67 2842
1261.15 1062.8 2837
1267.93 1062.8 2837
1268.43 1057.55 2823
1268.85 1052.31 2809
1271.03 1048.56 2799
1277.72 1048.56 2799
1282.12 1046.69 2794
1293.41 1050.43 2804
1300.12 1050.43 2804
1306.83 1050.43 2804
1313.53 1050.43 2804
1308.94 1041.44 2780
1331.27 1043.32 2785
1337.93 1043.32 2785
1344.59 1043.32 2785
1351.25 1043.32 2785
1357.91 1043.32 2785
1362.12 1041.44 2780
1359.9 1034.7 2762
1366.51 1034.7 2762
1377.59 1038.07 2771
1384.21 1038.07 2771
1393.35 1039.94 2776
1399.99 1039.94 2776
1406.63 1039.94 2776
1413.26 1039.94 2776
1419.9 1039.94 2776
1431.17 1043.32 2785
1437.83 1043.32 2785
1444.49 1043.32 2785
1446.46 1039.94 2776
1450.48 1038.07 2771
1457.1 1038.07 2771
1466.37 1039.94 2776
1473.01 1039.94 2776
1479.65 1039.94 2776
1491.1 1043.32 2785
1497.76 1043.32 2785
1504.42 1043.32 2785
1513.8 1045.19 2790
1520.47 1045.19 2790
1527.14 1045.19 2790
1533.81 1045.19 2790
1540.48 1045.19 2790
1547.15 1045.19 2790
1553.83 1045.19 2790
1557.7 1043.32 2785
1564.36 1043.32 2785
1560.87 1036.57 2767
1567.48 1036.57 2767
1589.46 1046.69 2794
1596.14 1046.69 2794
1602.82 1046.69 2794
1604.32 1043.32 2785
1610.98 1043.32 2785
1617.64 1043.32 2785
1621.38 1041.44 2780
1625.69 1039.94 2776
1632.33 1039.94 2776
1630.7 1034.7 2762
1640.27 1036.57 2767
1652.24 1039.94 2776
1667.25 1045.19 2790
1673.92 1045.19 2790
1680.59 1045.19 2790
1684.24 1043.32 2785
1690.9 1043.32 2785
1697.56 1043.32 2785
1704.22 1043.32 2785
1713.95 1045.19 2790
1720.62 1045.19 2790
1727.29 1045.19 2790
1730.86 1043.32 2785
1743.13 1046.69 2794
1749.81 1046.69 2794
1756.49 1046.69 2794
1763.17 1046.69 2794
1767.32 1045.19 2790
1779.72 1048.56 2799
1804.92 1059.42 2828
1811.68 1059.42 2828
1818.44 1059.42 2828
-1875.55 944.422 2505
-1903.9 961.765 2551
-1897.8 961.765 2551
-1891.7 961.765 2551
-1885.6 961.765 2551
-1889.65 976.469 2590
-1886.36 977.977 2594
-1892.48 984.386 2611
-1886.24 984.386 2611
-1894.4 991.926 2631
-1888.1 991.926 2631
-1881.81 991.926 2631
-1875.52 991.926 2631
-1872.07 993.434 2635
-1865.77 993.434 2635
-1859.47 993.434 2635
-1853.17 993.434 2635
-1835.65 987.402 2619
-1829.39 987.402 2619
-1823.13 987.402 2619
-1811.31 984.386 2611
-1709.22 1036.04 2748
-1708.22 1039.43 2757
-1701.63 1039.43 2757
-1695.04 1039.43 2757
-1688.44 1039.43 2757
-1681.85 1039.43 2757
-1675.26 1039.43 2757
-1668.66 1039.43 2757
-1662.07 1039.43 2757
-1655.48 1039.43 2757
-1648.89 1039.43 2757
-1626.21 1029.25 2730
-1604.26 1019.45 2704
-1584.79 1011.15 2682
-1578.38 1011.15 2682
-1556.72 1001.35 2656
-1575.47 1017.56 2699
-1569.02 1017.56 2699
-1562.56 1017.56 2699
-1556.11 1017.56 2699
-1534.73 1007.76 2673
-1528.34 1007.76 2673
-1521.94 1007.76 2673
-1511.02 1004.74 2665
-1504.64 1004.74 2665
-1502.77 1007.76 2673
-1496.38 1007.76 2673
-1489.98 1007.76 2673
-1500.8 1019.45 2704
-1494.33 1019.45 2704
-1514.83 1037.92 2753
-1508.24 1037.92 2753
-1501.66 1037.92 2753
-1495.08 1037.92 2753
-1488.5 1037.92 2753
-1467.38 1027.74 2726
-1470.51 1034.53 2744
-1466.08 1036.04 2748
-1459.51 1036.04 2748
-1452.94 1036.04 2748
-1394.39 1082.41 2871
-1387.53 1082.41 2871
-1380.66 1082.41 2871
-1385.76 1091.84 2896
-1378.83 1091.84 2896
-1381.85 1099.75 2917
-1374.88 1099.75 2917
-1367.9 1099.75 2917
-1360.93 1099.75 2917
-1358.59 1103.52 2927
-1351.6 1103.52 2927
-1346.89 1105.41 2932
-1339.88 1105.41 2932
-1332.87 1105.41 2932
-1325.86 1105.41 2932
-1271.45 1077.13 2857
-1264.62 1077.13 2857
-1257.78 1077.13 2857
-1253.14 1079.02 2862
-1246.3 1079.02 2862
-1239.45 1079.02 2862
-1033.05 1004.74 2665
-1029.76 1007.76 2673
-1023.37 1007.76 2673
-1016.98 1007.76 2673
-1010.59 1007.76 2673
-1004.2 1007.76 2673
-991.458 1001.35 2656
-994.75 1011.15 2682
-989.811 1012.66 2686
-985.218 1014.55 2691
-978.783 1014.55 2691
-972.348 1014.55 2691
-965.913 1014.55 2691
-959.478 1014.55 2691
-953.043 1014.55 2691
-949.422 1017.56 2699
-942.968 1017.56 2699
-939.637 1020.96 2708
-933.161 1020.96 2708
-935.925 1031.14 2735
-933.803 1036.04 2748
-930.268 1039.43 2757
-923.675 1039.43 2757
-917.082 1039.43 2757
-910.49 1039.43 2757
-903.897 1039.43 2757
-897.304 1039.43 2757
-890.711 1039.43 2757
-884.118 1039.43 2757
-877.525 1039.43 2757
-870.933 1039.43 2757
-864.34 1039.43 2757
-859.303 1041.32 2762
-854.241 1043.2 2767
-850.382 1046.59 2776
-843.743 1046.59 2776
-838.311 1048.1 2780
-835.852 1053.38 2794
-829.17 1053.38 2794
-822.489 1053.38 2794
-815.808 1053.38 2794
-807.968 1051.87 2790
-801.296 1051.87 2790
-793.201 1049.99 2785
-785.129 1048.1 2780
-777.361 1046.59 2776
-770.723 1046.59 2776
-764.084 1046.59 2776
-758.537 1048.1 2780
-751.89 1048.1 2780
-745.242 1048.1 2780
-738.594 1048.1 2780
-725.891 1039.43 2757
-719.298 1039.43 2757
-712.705 1039.43 2757
-699.197 1029.25 2730
-692.669 1029.25 2730
-682.873 1024.35 2717
-676.376 1024.35 2717
-669.879 1024.35 2717
-663.382 1024.35 2717
-656.884 1024.35 2717
-652.542 1027.74 2726
-646.023 1027.74 2726
-639.504 1027.74 2726
-632.986 1027.74 2726
-626.467 1027.74 2726
-619.948 1027.74 2726
-608.479 1019.45 2704
-604.016 1022.84 2713
-597.529 1022.84 2713
-591.041 1022.84 2713
-584.554 1022.84 2713
-578.066 1022.84 2713
-575.16 1029.25 2730
-570.506 1032.64 2739
-563.957 1032.64 2739
-557.407 1032.64 2739
-550.857 1032.64 2739
-544.307 1032.64 2739
-537.758 1032.64 2739
-529.462 1029.25 2730
-522.168 1027.74 2726
-515.649 1027.74 2726
-509.13 1027.74 2726
-503.349 1029.25 2730
-496.821 1029.25 2730
-490.293 1029.25 2730
-483.764 1029.25 2730
-477.236 1029.25 2730
-470.708 1029.25 2730
-464.18 1029.25 2730
-457.651 1029.25 2730
-451.123 1029.25 2730
-443.943 1027.74 2726
-437.425 1027.74 2726
-430.116 1025.86 2721
-423.609 1025.86 2721
-416.489 1024.35 2717
-409.992 1024.35 2717
-401.564 1019.45 2704
-395.098 1019.45 2704
