ply
format ascii 1.0
comment File generated
element vertex 2248
property float x
property float y
property float z
end_header
1206.63 1119.42 2404
1213.89 1120.82 2407
1219.65 1120.82 2407
1225.41 1120.82 2407
1231.16 1120.82 2407
1236.92 1120.82 2407
1232.35 1111.5 2387
1234.43 1108.24 2380
1240.12 1108.24 2380
1240.57 1103.59 2370
1246.24 1103.59 2370
1241.34 1094.27 2350
1246.96 1094.27 2350
1243.52 1086.36 2333
1247.49 1084.96 2330
1253.07 1084.96 2330
1258.64 1084.96 2330
1257.16 1078.91 2317
1259.43 1076.11 2311
1268.24 1078.91 2317
1273.78 1078.91 2317
1279.32 1078.91 2317
1284.86 1078.91 2317
1290.4 1078.91 2317
1290.35 1074.25 2307
1298.11 1076.11 2311
1303.64 1076.11 2311
1312.56 1078.91 2317
1318.1 1078.91 2317
1323.64 1078.91 2317
1329.18 1078.91 2317
1333 1077.51 2314
1342 1080.31 2320
1353.36 1084.96 2330
1358.93 1084.96 2330
1364.5 1084.96 2330
1374.19 1088.22 2337
1383.32 1091.02 2343
1394.85 1095.67 2353
1400.48 1095.67 2353
1410.29 1098.93 2360
1417.73 1100.33 2363
1423.38 1100.33 2363
1429.03 1100.33 2363
1442.57 1106.38 2376
1448.26 1106.38 2376
1456.39 1108.24 2380
1462.08 1108.24 2380
1469.62 1109.64 2383
1481.51 1114.3 2393
1507.12 1129.2 2425
1512.92 1129.2 2425
1545.65 1149.22 2468
1577.32 1168.31 2509
1583.32 1168.31 2509
1589.32 1168.31 2509
1595.32 1168.31 2509
1591.75 1161.33 2494
1611.81 1171.57 2516
1617.82 1171.57 2516
1623.84 1171.57 2516
1629.86 1171.57 2516
1635.87 1171.57 2516
1627.53 1161.33 2494
1633.5 1161.33 2494
1634.2 1157.6 2486
1623.65 1145.96 2461
1629.54 1145.96 2461
1620.8 1135.72 2439
1614.63 1127.34 2421
1620.42 1127.34 2421
1626.21 1127.34 2421
1620.54 1119.42 2404
1607.35 1106.38 2376
1610.99 1104.98 2373
1614.62 1103.59 2370
1627.13 1108.24 2380
1632.82 1108.24 2380
1640.57 1109.64 2383
1646.27 1109.64 2383
1651.97 1109.64 2383
1657.67 1109.64 2383
1661.27 1108.24 2380
1666.96 1108.24 2380
1674.76 1109.64 2383
1680.46 1109.64 2383
1686.16 1109.64 2383
1691.86 1109.64 2383
1697.56 1109.64 2383
1703.26 1109.64 2383
1706.8 1108.24 2380
1707.46 1104.98 2373
1708.08 1101.72 2366
1713.74 1101.72 2366
1712.13 1097.07 2356
1710.47 1092.41 2346
1709.5 1088.22 2337
1715.09 1088.22 2337
1720.67 1088.22 2337
1732.91 1092.41 2346
1738.52 1092.41 2346
1744.13 1092.41 2346
1747.5 1091.02 2343
1753.11 1091.02 2343
1758.71 1091.02 2343
1764.31 1091.02 2343
-1742.68 1110.67 2373
-1761.89 1126.58 2407
-1756.13 1126.58 2407
-1755.47 1129.86 2414
-1788.83 1155.13 2468
-1782.93 1155.13 2468
-1795.75 1167.3 2494
-1805.58 1177.6 2516
-1802.42 1179.47 2520
-1796.39 1179.47 2520
-1790.37 1179.47 2520
-1784.34 1179.47 2520
-1778.32 1179.47 2520
-1764.55 1174.32 2509
-1745.24 1165.43 2490
-1713.44 1148.11 2453
-1692.95 1138.28 2432
-1687.14 1138.28 2432
-1673.72 1133.14 2421
-1667.93 1133.14 2421
-1657.33 1129.86 2414
-1651.56 1129.86 2414
-1636.24 1123.31 2400
-1630.5 1123.31 2400
-1606.49 1110.67 2373
-1600.81 1110.67 2373
-1581.69 1101.31 2353
-1562.67 1091.95 2333
-1542.41 1081.65 2311
-1536.88 1081.65 2311
-1520.75 1074.16 2295
-1510.64 1070.89 2288
-1499.25 1066.67 2279
-1493.8 1066.67 2279
-1488.35 1066.67 2279
-1480.95 1065.27 2276
-1475.51 1065.27 2276
-1475.88 1069.48 2285
-1474.92 1072.76 2292
-1469.44 1072.76 2292
-1467.79 1075.57 2298
-1462.29 1075.57 2298
-1456.8 1075.57 2298
-1443.09 1069.48 2285
-1433.85 1066.67 2279
-1424.64 1063.86 2273
-1426.7 1069.48 2285
-1421.24 1069.48 2285
-1421.97 1074.16 2295
-1426.36 1081.65 2311
-1422.67 1083.05 2314
-1417.14 1083.05 2314
-1411.61 1083.05 2314
-1407.9 1084.46 2317
-1402.36 1084.46 2317
-1396.82 1084.46 2317
-1391.27 1084.46 2317
-1385.73 1084.46 2317
-1380.19 1084.46 2317
-1374.65 1084.46 2317
-1369.11 1084.46 2317
-1363.57 1084.46 2317
-1359.79 1085.86 2320
-1354.24 1085.86 2320
-1348.69 1085.86 2320
-1343.15 1085.86 2320
-1337.6 1085.86 2320
-1332.05 1085.86 2320
-1326.5 1085.86 2320
-1319.25 1084.46 2317
-1339.79 1105.99 2363
-1334.14 1105.99 2363
-1328.49 1105.99 2363
-1315.56 1099.9 2350
-1311.61 1101.31 2353
-1305.98 1101.31 2353
-1307.54 1107.39 2366
-1304.08 1109.26 2370
-1298.42 1109.26 2370
-1292.75 1109.26 2370
-1287.08 1109.26 2370
-1277.63 1105.99 2363
-1271.98 1105.99 2363
-1264.72 1104.58 2360
-1275.08 1118.63 2390
-1276.8 1125.18 2404
-1271.05 1125.18 2404
-1265.31 1125.18 2404
-1252.22 1118.63 2390
-1246.51 1118.63 2390
-1240.79 1118.63 2390
-1209.24 1095.22 2340
-1202.1 1093.82 2337
-1192.93 1090.54 2330
-1187.35 1090.54 2330
-1181.78 1090.54 2330
-1182.77 1096.63 2343
-1183.7 1102.71 2356
-1178.07 1102.71 2356
-1172.43 1102.71 2356
-1176.71 1112.07 2376
-1171.02 1112.07 2376
-1165.34 1112.07 2376
-1149.9 1102.71 2356
-1144.26 1102.71 2356
-1126.07 1090.54 2330
-1123.86 1093.82 2337
-1118.27 1093.82 2337
-1112.68 1093.82 2337
-1107.09 1093.82 2337
-1104.33 1096.63 2343
-1098.73 1096.63 2343
-1093.13 1096.63 2343
-1087.53 1096.63 2343
-1081.92 1096.63 2343
-1079.54 1099.9 2350
-1073.92 1099.9 2350
-1068.3 1099.9 2350
-1062.68 1099.9 2350
-1057.06 1099.9 2350
-1046.96 1095.22 2340
-1032.47 1085.86 2320
-1030.02 1089.14 2327
-1024.45 1089.14 2327
-1018.89 1089.14 2327
-1017.68 1093.82 2337
-1012.09 1093.82 2337
-1009.09 1096.63 2343
-1003.48 1096.63 2343
-1000.86 1099.9 2350
-995.242 1099.9 2350
-993.834 1104.58 2360
-988.19 1104.58 2360
-982.547 1104.58 2360
-975.248 1102.71 2356
-969.614 1102.71 2356
-957.433 1095.22 2340
-951.838 1095.22 2340
-947.455 1096.63 2343
-941.852 1096.63 2343
-936.249 1096.63 2343
-930.647 1096.63 2343
-925.044 1096.63 2343
-920.618 1098.03 2346
-915.008 1098.03 2346
-912.112 1101.31 2353
-906.485 1101.31 2353
-900.858 1101.31 2353
-895.231 1101.31 2353
-888.471 1099.9 2350
-882.851 1099.9 2350
-877.231 1099.9 2350
-871.612 1099.9 2350
-865.992 1099.9 2350
-861.471 1101.31 2353
-856.935 1102.71 2356
-851.302 1102.71 2356
-847.103 1104.58 2360
-841.46 1104.58 2360
-835.816 1104.58 2360
-830.173 1104.58 2360
-824.53 1104.58 2360
-820.968 1107.39 2366
-816.689 1109.26 2370
-811.021 1109.26 2370
-805.354 1109.26 2370
-796.312 1104.58 2360
-789.329 1102.71 2356
-783.695 1102.71 2356
-777.07 1101.31 2353
-771.443 1101.31 2353
-768.095 1104.58 2360
-762.451 1104.58 2360
-756.808 1104.58 2360
-751.164 1104.58 2360
-745.521 1104.58 2360
-739.877 1104.58 2360
-732.989 1102.71 2356
-727.356 1102.71 2356
-720.803 1101.31 2353
-715.176 1101.31 2353
-708.645 1099.9 2350
-700.931 1096.63 2343
-693.547 1093.82 2337
-690.608 1098.03 2346
-684.998 1098.03 2346
-679.388 1098.03 2346
-674.927 1099.9 2350
-669.308 1099.9 2350
-663.688 1099.9 2350
-658.909 1101.31 2353
-654.115 1102.71 2356
-648.481 1102.71 2356
-642.847 1102.71 2356
-637.213 1102.71 2356
-630.775 1101.31 2353
-625.945 1102.71 2356
-620.311 1102.71 2356
-614.677 1102.71 2356
-609.043 1102.71 2356
-605.202 1105.99 2363
-599.552 1105.99 2363
-594.655 1107.39 2366
-592.482 1113.95 2380
-588.517 1117.22 2387
-582.809 1117.22 2387
-577.101 1117.22 2387
-571.393 1117.22 2387
-565.685 1117.22 2387
-559.977 1117.22 2387
-553.34 1115.35 2383
-547.641 1115.35 2383
-541.943 1115.35 2383
-536.244 1115.35 2383
-530.546 1115.35 2383
-522.645 1110.67 2373
-516.971 1110.67 2373
-511.296 1110.67 2373
-504.982 1109.26 2370
-497.84 1105.99 2363
-491.564 1104.58 2360
-485.921 1104.58 2360
-479.464 1102.71 2356
-473.226 1101.31 2353
-467.599 1101.31 2353
-461.973 1101.31 2353
-455.764 1099.9 2350
-449.378 1098.03 2346
-442.633 1095.22 2340
-437.038 1095.22 2340
-431.442 1095.22 2340
-425.847 1095.22 2340
-420.251 1095.22 2340
-415.187 1096.63 2343
-409.584 1096.63 2343
-403.981 1096.63 2343
-398.378 1096.63 2343
-392.776 1096.63 2343
-387.173 1096.63 2343
-382.058 1098.03 2346
-376.448 1098.03 2346
-370.838 1098.03 2346
-365.851 1099.9 2350
-360.232 1099.9 2350
-354.612 1099.9 2350
-348.993 1099.9 2350
-343.373 1099.9 2350
-337.753 1099.9 2350
-331.145 1096.63 2343
-324.708 1093.82 2337
-319.12 1093.82 2337
-312.994 1091.95 2333
-307.416 1091.95 2333
-301.06 1089.14 2327
-295.496 1089.14 2327
-289.433 1087.27 2323
-283.878 1087.27 2323
-278.802 1089.14 2327
-273.238 1089.14 2327
-267.673 1089.14 2327
-262.108 1089.14 2327
-256.875 1090.54 2330
-251.626 1091.95 2333
-246.048 1091.95 2333
-240.469 1091.95 2333
-234.89 1091.95 2333
-229.704 1093.82 2337
-224.115 1093.82 2337
-218.527 1093.82 2337
-213.212 1095.22 2340
-207.616 1095.22 2340
-202.021 1095.22 2340
-196.425 1095.22 2340
-190.829 1095.22 2340
-186.025 1099.9 2350
-180.636 1101.31 2353
-175.009 1101.31 2353
-169.598 1102.71 2356
-163.965 1102.71 2356
-158.331 1102.71 2356
-152.697 1102.71 2356
-38.5577 1062.46 2270
-33.1295 1062.46 2270
-27.8477 1068.08 2282
-22.3907 1068.08 2282
-16.9337 1068.08 2282
-11.4768 1068.08 2282
-6.00401 1065.27 2276
-0.561402 1065.27 2276
4.8812 1065.27 2276
10.2694 1059.65 2264
15.6833 1059.65 2264
21.032 1056.38 2257
26.4291 1056.38 2257
31.5725 1047.95 2239
36.6298 1039.53 2221
41.5632 1030.17 2201
46.8264 1030.17 2201
51.9477 1027.36 2195
57.1184 1025.95 2192
62.3602 1025.95 2192
67.6019 1025.95 2192
72.8436 1025.95 2192
77.8716 1023.14 2186
83.099 1023.14 2186
88.2456 1022.21 2184
93.4682 1022.21 2184
98.2841 1018 2175
102.962 1012.85 2164
108.137 1012.85 2164
113.311 1012.85 2164
118.158 1010.04 2158
123.318 1010.04 2158
127.824 1004.89 2147
133.639 1010.04 2158
138.799 1010.04 2158
143.96 1010.04 2158
246.681 1099.9 2350
253.374 1104.58 2360
259.018 1104.58 2360
264.661 1104.58 2360
270.305 1104.58 2360
275.48 1102.71 2356
281.114 1102.71 2356
286.018 1099.9 2350
290.397 1095.22 2340
296.372 1096.63 2343
303.263 1101.31 2353
309.284 1102.71 2356
314.918 1102.71 2356
320.552 1102.71 2356
326.186 1102.71 2356
332.383 1104.58 2360
338.026 1104.58 2360
344.544 1107.39 2366
350.793 1109.26 2370
356.912 1110.67 2373
362.587 1110.67 2373
368.261 1110.67 2373
373.936 1110.67 2373
379.61 1110.67 2373
385.285 1110.67 2373
390.959 1110.67 2373
399.475 1118.63 2390
405.699 1120.03 2393
411.422 1120.03 2393
419.062 1125.18 2404
426.577 1129.86 2414
432.35 1129.86 2414
438.123 1129.86 2414
443.895 1129.86 2414
449.668 1129.86 2414
455.44 1129.86 2414
459.876 1126.58 2407
463.697 1121.9 2397
468.646 1120.03 2393
473.179 1117.22 2387
478.887 1117.22 2387
482.362 1112.07 2376
487.427 1110.67 2373
491.647 1107.39 2366
497.305 1107.39 2366
502.963 1107.39 2366
508.62 1107.39 2366
517.321 1113.95 2380
523.013 1113.95 2380
528.704 1113.95 2380
534.395 1113.95 2380
540.087 1113.95 2380
545.778 1113.95 2380
549.847 1110.67 2373
554.819 1109.26 2370
563.561 1115.35 2383
569.26 1115.35 2383
574.958 1115.35 2383
580.657 1115.35 2383
586.355 1115.35 2383
592.054 1115.35 2383
597 1113.95 2380
602.691 1113.95 2380
608.382 1113.95 2380
619.234 1123.31 2400
624.973 1123.31 2400
630.712 1123.31 2400
634.595 1120.03 2393
640.317 1120.03 2393
646.04 1120.03 2393
651.762 1120.03 2393
655.836 1117.22 2387
657.664 1110.67 2373
666.134 1115.35 2383
671.832 1115.35 2383
680.374 1120.03 2393
686.096 1120.03 2393
691.819 1120.03 2393
697.541 1120.03 2393
700.325 1115.35 2383
706.023 1115.35 2383
713.812 1118.63 2390
719.527 1118.63 2390
727.367 1121.9 2397
733.099 1121.9 2397
738.831 1121.9 2397
742.388 1118.63 2390
748.104 1118.63 2390
751.611 1115.35 2383
757.309 1115.35 2383
763.008 1115.35 2383
766.448 1112.07 2376
772.13 1112.07 2376
776.83 1110.67 2373
782.504 1110.67 2373
788.179 1110.67 2373
793.853 1110.67 2373
797.169 1107.39 2366
802.827 1107.39 2366
807.46 1105.99 2363
810.702 1102.71 2356
814.257 1099.9 2350
820.923 1101.31 2353
831.116 1107.39 2366
836.774 1107.39 2366
842.432 1107.39 2366
844.505 1102.71 2356
850.139 1102.71 2356
855.773 1102.71 2356
859.213 1099.9 2350
868.513 1104.58 2360
875.268 1105.99 2363
880.918 1105.99 2363
886.569 1105.99 2363
893.352 1107.39 2366
899.01 1107.39 2366
904.668 1107.39 2366
906.478 1102.71 2356
910.951 1101.31 2353
916.578 1101.31 2353
921.029 1099.9 2350
930.591 1104.58 2360
938.615 1107.39 2366
944.273 1107.39 2366
951.537 1109.26 2370
957.204 1109.26 2370
962.871 1109.26 2370
969.765 1110.67 2373
979.55 1115.35 2383
985.248 1115.35 2383
1002.59 1128.45 2411
1015.47 1136.41 2428
1036.41 1153.26 2464
1042.31 1153.26 2464
1048.2 1153.26 2464
1063.5 1163.56 2486
1069.45 1163.56 2486
1075.39 1163.56 2486
1096.13 1179.47 2520
1102.15 1179.47 2520
1108.18 1179.47 2520
1114.2 1179.47 2520
1115.34 1174.32 2509
1114.64 1167.3 2494
1120.6 1167.3 2494
1122.95 1163.56 2486
1122.08 1156.54 2471
1121.6 1149.98 2457
1127.48 1149.98 2457
1130.12 1146.71 2450
1132.74 1143.43 2443
1136.71 1141.56 2439
1139.27 1138.28 2432
1145.08 1138.28 2432
1145.69 1133.14 2421
1151.48 1133.14 2421
1157.27 1133.14 2421
1163.06 1133.14 2421
1165.47 1129.86 2414
1171.24 1129.86 2414
1177.02 1129.86 2414
1182.79 1129.86 2414
1187.08 1128.45 2411
1189.39 1125.18 2404
1191.66 1121.9 2397
1200.88 1125.18 2404
1206.63 1125.18 2404
1213.89 1126.58 2407
1219.65 1126.58 2407
1225.41 1126.58 2407
1231.16 1126.58 2407
1236.92 1126.58 2407
1214.79 1101.31 2353
1215.23 1096.63 2343
1220.84 1096.63 2343
1224.87 1095.22 2340
1228.89 1093.82 2337
1229.19 1089.14 2327
1234.76 1089.14 2327
1233.39 1083.05 2314
1237.32 1081.65 2311
1242.85 1081.65 2311
1244.59 1078.37 2304
1251.73 1079.78 2307
1257.25 1079.78 2307
1262.76 1079.78 2307
1268.28 1079.78 2307
1273.8 1079.78 2307
1279.31 1079.78 2307
1284.83 1079.78 2307
1290.35 1079.78 2307
1295.86 1079.78 2307
1299.69 1078.37 2304
1305.2 1078.37 2304
1310.71 1078.37 2304
1316.22 1078.37 2304
1321.73 1078.37 2304
1331.27 1081.65 2311
1338.53 1083.05 2314
1345.81 1084.46 2317
1351.35 1084.46 2317
1356.89 1084.46 2317
1368.31 1089.14 2327
1375.64 1090.54 2330
1388.92 1096.63 2343
1394.53 1096.63 2343
1400.13 1096.63 2343
1413.53 1102.71 2356
1421.57 1104.58 2360
1427.22 1104.58 2360
1436.5 1107.39 2366
1450.69 1113.95 2380
1460.67 1117.22 2387
1466.38 1117.22 2387
1475.79 1120.03 2393
1496.99 1131.73 2418
1511.47 1138.28 2432
1517.28 1138.28 2432
1545.65 1155.13 2468
1560.98 1162.15 2483
1566.92 1162.15 2483
1572.85 1162.15 2483
1576.25 1160.28 2479
1584.73 1162.15 2483
1597.71 1167.3 2494
1603.68 1167.3 2494
1611.58 1168.71 2497
1617.55 1168.71 2497
1623.52 1168.71 2497
1622.31 1163.56 2486
1628.26 1163.56 2486
1629.6 1160.28 2479
1623.65 1151.86 2461
1629.54 1151.86 2461
1602.2 1128.45 2411
1607.96 1128.45 2411
1613.73 1128.45 2411
1619.49 1128.45 2411
1606.38 1115.35 2383
1607.35 1112.07 2376
1608.95 1109.26 2370
1611.9 1107.39 2366
1622.34 1110.67 2373
1628.01 1110.67 2373
1638.51 1113.95 2380
1646.27 1115.35 2383
1651.97 1115.35 2383
1657.67 1115.35 2383
1661.27 1113.95 2380
1666.96 1113.95 2380
1672.66 1113.95 2380
1675.53 1112.07 2376
1676.96 1109.26 2370
1682.63 1109.26 2370
1688.3 1109.26 2370
1691.11 1107.39 2366
1696.76 1107.39 2366
1702.42 1107.39 2366
1700.86 1102.71 2356
1706.49 1102.71 2356
1704.86 1098.03 2346
1708.28 1096.63 2343
1704.38 1090.54 2330
1709.95 1090.54 2330
1715.52 1090.54 2330
1718.88 1089.14 2327
1724.44 1089.14 2327
1730 1089.14 2327
1735.57 1089.14 2327
1733.65 1084.46 2317
1739.19 1084.46 2317
1728.17 1074.16 2295
1733.65 1074.16 2295
-1761.89 1132.35 2407
-1756.13 1132.35 2407
-1755.47 1135.64 2414
-1788.83 1161.05 2468
-1782.93 1161.05 2468
-1795.75 1173.28 2494
-1789.79 1173.28 2494
-1794.55 1180.33 2509
-1788.55 1180.33 2509
-1782.55 1180.33 2509
-1765.93 1173.28 2494
-1752.21 1168.1 2483
-1746.27 1168.1 2483
-1731.92 1162.46 2471
-1698.77 1144.11 2432
-1683.21 1137.52 2418
-1677.43 1137.52 2418
-1671.64 1137.52 2418
-1663.11 1135.64 2414
-1647.72 1129.06 2400
-1641.98 1129.06 2400
-1624.65 1121.06 2383
-1614.2 1117.76 2376
-1601.75 1113.06 2366
-1596.09 1113.06 2366
-1581.69 1106.94 2353
-1549.94 1088.6 2314
-1542.41 1087.19 2311
-1536.88 1087.19 2311
-1520.75 1079.66 2295
-1510.64 1076.37 2288
-1499.25 1072.13 2279
-1493.8 1072.13 2279
-1488.35 1072.13 2279
-1480.95 1070.72 2276
-1475.51 1070.72 2276
-1472 1072.13 2279
-1474.92 1078.25 2292
-1469.44 1078.25 2292
-1467.79 1081.07 2298
-1462.29 1081.07 2298
-1456.8 1081.07 2298
-1441.2 1073.54 2282
-1430.08 1069.31 2273
-1422.76 1067.9 2270
-1426.7 1074.95 2285
-1421.24 1074.95 2285
-1421.97 1079.66 2295
-1423.89 1085.3 2307
-1422.67 1088.6 2314
-1417.14 1088.6 2314
-1411.61 1088.6 2314
-1407.9 1090.01 2317
-1402.36 1090.01 2317
-1396.82 1090.01 2317
-1391.27 1090.01 2317
-1385.73 1090.01 2317
-1380.19 1090.01 2317
-1374.65 1090.01 2317
-1369.11 1090.01 2317
-1363.57 1090.01 2317
-1359.79 1091.42 2320
-1354.24 1091.42 2320
-1348.69 1091.42 2320
-1343.15 1091.42 2320
-1337.6 1091.42 2320
-1332.05 1091.42 2320
-1326.5 1091.42 2320
-1319.25 1090.01 2317
-1339.79 1111.65 2363
-1334.14 1111.65 2363
-1328.49 1111.65 2363
-1315.56 1105.53 2350
-1309.94 1105.53 2350
-1304.32 1105.53 2350
-1305.88 1111.65 2363
-1300.23 1111.65 2363
-1294.58 1111.65 2363
-1288.93 1111.65 2363
-1283.28 1111.65 2363
-1273.84 1108.36 2356
-1268.21 1108.36 2356
-1262.58 1108.36 2356
-1275.08 1124.35 2390
-1276.8 1130.94 2404
-1271.05 1130.94 2404
-1265.31 1130.94 2404
-1217.12 1092.83 2323
-1220.43 1100.83 2340
-1214.83 1100.83 2340
-1209.24 1100.83 2340
-1202.1 1099.42 2337
-1194.46 1097.54 2333
-1188.88 1097.54 2333
-1181.78 1096.12 2330
-1182.77 1102.24 2343
-1183.7 1108.36 2356
-1178.07 1108.36 2356
-1172.43 1108.36 2356
-1176.71 1117.76 2376
-1171.02 1117.76 2376
-1165.34 1117.76 2376
-1149.9 1108.36 2356
-1144.26 1108.36 2356
-1126.07 1096.12 2330
-1123.86 1099.42 2337
-1118.27 1099.42 2337
-1112.68 1099.42 2337
-1107.09 1099.42 2337
-1104.33 1102.24 2343
-1098.73 1102.24 2343
-1093.13 1102.24 2343
-1087.53 1102.24 2343
-1081.92 1102.24 2343
-1079.54 1105.53 2350
-1073.92 1105.53 2350
-1068.3 1105.53 2350
-1062.68 1105.53 2350
-1057.06 1105.53 2350
-1046.96 1100.83 2340
-1032.47 1091.42 2320
-1030.02 1094.71 2327
-1024.45 1094.71 2327
-1018.89 1094.71 2327
-1017.68 1099.42 2337
-1012.09 1099.42 2337
-1009.09 1102.24 2343
-1003.48 1102.24 2343
-1000.86 1105.53 2350
-995.242 1105.53 2350
-993.834 1110.24 2360
-988.19 1110.24 2360
-982.547 1110.24 2360
-975.248 1108.36 2356
-969.614 1108.36 2356
-957.433 1100.83 2340
-951.838 1100.83 2340
-947.455 1102.24 2343
-941.852 1102.24 2343
-936.249 1102.24 2343
-930.647 1102.24 2343
-925.044 1102.24 2343
-920.618 1103.65 2346
-915.008 1103.65 2346
-912.112 1106.94 2353
-906.485 1106.94 2353
-900.858 1106.94 2353
-895.231 1106.94 2353
-888.471 1105.53 2350
-882.851 1105.53 2350
-877.231 1105.53 2350
-871.612 1105.53 2350
-865.992 1105.53 2350
-861.471 1106.94 2353
-856.935 1108.36 2356
-851.302 1108.36 2356
-847.103 1110.24 2360
-841.46 1110.24 2360
-835.816 1110.24 2360
-830.173 1110.24 2360
-824.53 1110.24 2360
-820.968 1113.06 2366
-816.689 1114.94 2370
-811.021 1114.94 2370
-805.354 1114.94 2370
-796.312 1110.24 2360
-789.329 1108.36 2356
-783.695 1108.36 2356
-777.07 1106.94 2353
-771.443 1106.94 2353
-768.095 1110.24 2360
-762.451 1110.24 2360
-756.808 1110.24 2360
-751.164 1110.24 2360
-745.521 1110.24 2360
-739.877 1110.24 2360
-732.989 1108.36 2356
-727.356 1108.36 2356
-720.803 1106.94 2353
-715.176 1106.94 2353
-708.645 1105.53 2350
-700.931 1102.24 2343
-693.547 1099.42 2337
-690.608 1103.65 2346
-684.998 1103.65 2346
-679.388 1103.65 2346
-674.927 1105.53 2350
-669.308 1105.53 2350
-663.688 1105.53 2350
-658.909 1106.94 2353
-654.115 1108.36 2356
-648.481 1108.36 2356
-642.847 1108.36 2356
-637.213 1108.36 2356
-630.775 1106.94 2353
-625.148 1106.94 2353
-611.623 1092.83 2323
-606.068 1092.83 2323
-600.513 1092.83 2323
-596.75 1096.12 2330
-591.179 1096.12 2330
-585.607 1096.12 2330
-585.014 1105.53 2350
-580.134 1106.94 2353
-574.508 1106.94 2353
-568.881 1106.94 2353
-563.254 1106.94 2353
-557.627 1106.94 2353
-552.704 1108.36 2356
-547.07 1108.36 2356
-541.437 1108.36 2356
-535.803 1108.36 2356
-530.169 1108.36 2356
-524.535 1108.36 2356
-516.698 1103.65 2346
-511.088 1103.65 2346
-505.478 1103.65 2346
-499.229 1102.24 2343
-493.626 1102.24 2343
-486.774 1099.42 2337
-481.803 1100.83 2340
-476.207 1100.83 2340
-470.612 1100.83 2340
-465.016 1100.83 2340
-459.42 1100.83 2340
-453.825 1100.83 2340
-448.229 1100.83 2340
-442.066 1099.42 2337
-436.478 1099.42 2337
-430.152 1097.54 2333
-424.573 1097.54 2333
-418.994 1097.54 2333
-414.124 1099.42 2337
-408.535 1099.42 2337
-402.947 1099.42 2337
-397.358 1099.42 2337
-391.77 1099.42 2337
-386.181 1099.42 2337
-381.081 1100.83 2340
-375.486 1100.83 2340
-370.364 1102.24 2343
-364.761 1102.24 2343
-359.159 1102.24 2343
-353.556 1102.24 2343
-347.953 1102.24 2343
-342.35 1102.24 2343
-336.316 1100.83 2340
-329.731 1097.54 2333
-322.763 1092.83 2323
-317.208 1092.83 2323
-311.653 1092.83 2323
-306.098 1092.83 2323
-299.767 1090.01 2317
-294.226 1090.01 2317
-288.311 1088.6 2314
-282.778 1088.6 2314
-277.963 1091.42 2320
-272.416 1091.42 2320
-266.868 1091.42 2320
-261.658 1092.83 2323
-256.544 1094.71 2327
-251.303 1096.12 2330
-245.731 1096.12 2330
-240.159 1096.12 2330
-234.588 1096.12 2330
-229.016 1096.12 2330
-223.444 1096.12 2330
-218.153 1097.54 2333
-212.939 1099.42 2337
-207.616 1100.83 2340
-202.021 1100.83 2340
-196.425 1100.83 2340
-190.829 1100.83 2340
-185.709 1103.65 2346
-180.636 1106.94 2353
-175.009 1106.94 2353
-169.382 1106.94 2353
-163.547 1105.53 2350
-157.927 1105.53 2350
-27.8477 1073.54 2282
-22.3907 1073.54 2282
-16.9337 1073.54 2282
-11.4768 1073.54 2282
-6.01984 1073.54 2282
-0.562882 1073.54 2282
4.89407 1073.54 2282
10.3374 1072.13 2279
15.7456 1069.31 2273
21.1531 1067.9 2270
26.5814 1067.9 2270
31.8263 1061.78 2257
36.8277 1050.49 2233
41.7898 1041.08 2213
47.0817 1041.08 2213
51.9477 1032.62 2195
57.1184 1031.2 2192
62.5308 1034.03 2198
67.8795 1035.44 2201
73.1427 1035.44 2201
78.406 1035.44 2201
83.4411 1032.62 2195
88.5688 1031.2 2192
93.8106 1031.2 2192
98.4197 1024.62 2178
103.2 1020.38 2169
107.987 1016.62 2161
113.154 1016.62 2161
118.322 1016.62 2161
122.518 1008.62 2144
127.645 1008.62 2144
132.772 1008.62 2144
137.899 1008.62 2144
143.026 1008.62 2144
246.681 1105.53 2350
252.301 1105.53 2350
257.92 1105.53 2350
263.54 1105.53 2350
268.701 1103.65 2346
273.96 1102.24 2343
279.563 1102.24 2343
283.949 1097.54 2333
288.783 1094.71 2327
295.613 1099.42 2337
301.975 1102.24 2343
307.971 1103.65 2346
313.581 1103.65 2346
320.144 1106.94 2353
326.186 1108.36 2356
331.82 1108.36 2356
337.453 1108.36 2356
344.107 1111.65 2363
350.201 1113.06 2366
355.859 1113.06 2366
361.517 1113.06 2366
367.796 1114.94 2370
373.936 1116.35 2373
379.61 1116.35 2373
385.285 1116.35 2373
390.959 1116.35 2373
397.135 1117.76 2376
405.699 1125.76 2393
411.422 1125.76 2393
417.841 1127.64 2397
425.34 1132.35 2407
431.096 1132.35 2407
436.852 1132.35 2407
442.608 1132.35 2407
447.06 1129.06 2400
452.799 1129.06 2400
457.965 1127.64 2397
461.763 1122.94 2387
467.471 1122.94 2387
470.998 1117.76 2376
476.68 1117.76 2376
481.752 1116.35 2373
485.989 1113.06 2366
490.4 1110.24 2360
496.044 1110.24 2360
501.687 1110.24 2360
507.976 1111.65 2363
514.278 1113.06 2366
519.936 1113.06 2366
525.594 1113.06 2366
532.15 1114.94 2370
537.817 1114.94 2370
543.485 1114.94 2370
547.53 1111.65 2363
550.84 1106.94 2353
558.122 1110.24 2360
563.765 1110.24 2360
569.409 1110.24 2360
575.052 1110.24 2360
579.712 1108.36 2356
583.855 1105.53 2350
590.979 1108.36 2356
596.613 1108.36 2356
602.247 1108.36 2356
609.687 1111.65 2363
615.338 1111.65 2363
620.989 1111.65 2363
626.639 1111.65 2363
632.29 1111.65 2363
637.94 1111.65 2363
642.774 1110.24 2360
647.319 1108.36 2356
654.061 1110.24 2360
662.5 1114.94 2370
668.167 1114.94 2370
676.678 1119.65 2380
682.369 1119.65 2380
688.06 1119.65 2380
693.752 1119.65 2380
699.443 1119.65 2380
702.172 1114.94 2370
708.735 1116.35 2373
714.409 1116.35 2373
720.084 1116.35 2373
725.759 1116.35 2373
731.433 1116.35 2373
737.108 1116.35 2373
742.782 1116.35 2373
748.457 1116.35 2373
754.131 1116.35 2373
759.806 1116.35 2373
763.223 1113.06 2366
770.18 1114.94 2370
775.848 1114.94 2370
781.515 1114.94 2370
787.182 1114.94 2370
792.85 1114.94 2370
796.159 1111.65 2363
801.809 1111.65 2363
806.435 1110.24 2360
808.637 1105.53 2350
809.753 1099.42 2337
818.481 1103.65 2346
825.496 1105.53 2350
831.116 1105.53 2350
836.735 1105.53 2350
842.355 1105.53 2350
847.974 1105.53 2350
851.051 1102.24 2343
856.654 1102.24 2343
863.361 1103.65 2346
871.564 1106.94 2353
877.19 1106.94 2353
882.817 1106.94 2353
889.577 1108.36 2356
895.211 1108.36 2356
900.844 1108.36 2356
904.17 1105.53 2350
909.789 1105.53 2350
915.409 1105.53 2350
918.285 1102.24 2343
925.071 1103.65 2346
936.235 1110.24 2360
941.878 1110.24 2360
947.522 1110.24 2360
953.165 1110.24 2360
958.809 1110.24 2360
966.904 1113.06 2366
975.439 1116.35 2373
981.114 1116.35 2373
993.858 1124.35 2390
1003.76 1129.06 2400
1009.49 1129.06 2400
1015.23 1129.06 2400
1020.97 1129.06 2400
1041.68 1145.52 2435
1061.7 1161.05 2468
1067.61 1161.05 2468
1073.51 1161.05 2468
1079.41 1161.05 2468
1094.99 1171.4 2490
1100.94 1171.4 2490
1106.89 1171.4 2490
1111.06 1169.51 2486
1117.01 1169.51 2486
1117.98 1164.34 2475
1115.73 1155.87 2457
1118.41 1152.58 2450
1124.26 1152.58 2450
1121.82 1144.11 2432
1127.64 1144.11 2432
1133.45 1144.11 2432
1130.84 1135.64 2414
1136.61 1135.64 2414
1142.38 1135.64 2414
1148.15 1135.64 2414
1153.93 1135.64 2414
1159.7 1135.64 2414
1165.47 1135.64 2414
1164.45 1129.06 2400
1170.19 1129.06 2400
1175.93 1129.06 2400
1181.67 1129.06 2400
1177.51 1119.65 2380
1181.22 1117.76 2376
1186.9 1117.76 2376
1182.54 1108.36 2356
1188.17 1108.36 2356
1197.35 1111.65 2363
1203.01 1111.65 2363
1208.66 1111.65 2363
1214.31 1111.65 2363
1214.79 1106.94 2353
1215.23 1102.24 2343
1220.84 1102.24 2343
1224.87 1100.83 2340
1228.89 1099.42 2337
1229.19 1094.71 2327
1234.76 1094.71 2327
1233.39 1088.6 2314
1237.32 1087.19 2311
1242.85 1087.19 2311
1244.59 1083.89 2304
1251.73 1085.3 2307
1257.25 1085.3 2307
1262.76 1085.3 2307
1268.28 1085.3 2307
1273.8 1085.3 2307
1279.31 1085.3 2307
1284.83 1085.3 2307
1290.35 1085.3 2307
1295.86 1085.3 2307
1299.69 1083.89 2304
1305.2 1083.89 2304
1312.41 1085.3 2307
1317.93 1085.3 2307
1323.45 1085.3 2307
1331.27 1087.19 2311
1342 1091.42 2320
1347.55 1091.42 2320
1357.18 1094.71 2327
1362.74 1094.71 2327
1368.31 1094.71 2327
1377.42 1097.54 2333
1390.7 1103.65 2346
1396.31 1103.65 2346
1406.1 1106.94 2353
1413.53 1108.36 2356
1425.19 1113.06 2366
1430.85 1113.06 2366
1445 1119.65 2380
1454.96 1122.94 2387
1464.34 1125.76 2393
1470.06 1125.76 2393
1484.42 1132.35 2407
1496.99 1137.52 2418
1511.47 1144.11 2432
1517.28 1144.11 2432
1555.04 1168.1 2483
1562.86 1169.51 2486
1568.81 1169.51 2486
1574.75 1169.51 2486
1580.7 1169.51 2486
1584.73 1168.1 2483
1597.71 1173.28 2494
1603.68 1173.28 2494
1611.58 1174.69 2497
1617.55 1174.69 2497
1623.52 1174.69 2497
1622.31 1169.51 2486
1628.26 1169.51 2486
1629.6 1166.22 2479
1623.65 1157.75 2461
1629.54 1157.75 2461
1602.2 1134.23 2411
1607.96 1134.23 2411
1613.73 1134.23 2411
1619.49 1134.23 2411
1606.38 1121.06 2383
1607.35 1117.76 2376
1608.95 1114.94 2370
1611.9 1113.06 2366
1622.34 1116.35 2373
1628.01 1116.35 2373
1638.51 1119.65 2380
1646.27 1121.06 2383
1651.97 1121.06 2383
1657.67 1121.06 2383
1661.27 1119.65 2380
1666.96 1119.65 2380
1672.66 1119.65 2380
1675.53 1117.76 2376
1676.96 1114.94 2370
1682.63 1114.94 2370
1688.3 1114.94 2370
1691.11 1113.06 2366
1696.76 1113.06 2366
1702.42 1113.06 2366
1700.86 1108.36 2356
1706.49 1108.36 2356
1707.77 1105.53 2350
1708.28 1102.24 2343
1706.57 1097.54 2333
1712.15 1097.54 2333
1715.52 1096.12 2330
1718.88 1094.71 2327
1724.44 1094.71 2327
1730 1094.71 2327
1735.57 1094.71 2327
1733.65 1090.01 2317
1739.19 1090.01 2317
1734.94 1083.89 2304
1740.45 1083.89 2304
-1795.75 1179.25 2494
-1789.79 1179.25 2494
-1783.82 1179.25 2494
-1777.86 1179.25 2494
-1758.4 1170.27 2475
-1752.48 1170.27 2475
-1728.92 1158.45 2450
-1723.06 1158.45 2450
-1714.4 1156.56 2446
-1686.2 1141.42 2414
-1680.42 1141.42 2414
-1674.65 1141.42 2414
-1668.88 1141.42 2414
-1656.22 1136.7 2404
-1636.05 1126.77 2383
-1630.35 1126.77 2383
-1622.61 1125.35 2380
-1612.16 1122.04 2373
-1601.75 1118.73 2366
-1596.09 1118.73 2366
-1581.69 1112.58 2353
-1547.93 1092.72 2311
-1531.73 1085.16 2295
-1526.24 1085.16 2295
-1520.75 1085.16 2295
-1508.66 1080.43 2285
-1499.25 1077.59 2279
-1491.84 1076.17 2276
-1486.39 1076.17 2276
-1479 1074.75 2273
-1471.62 1073.34 2270
-1464.25 1071.92 2267
-1464.62 1076.17 2276
-1459.18 1076.17 2276
-1453.74 1076.17 2276
-1448.29 1076.17 2276
-1442.85 1076.17 2276
-1433.62 1073.34 2270
-1426.3 1071.92 2267
-1420.88 1071.92 2267
-1415.46 1071.92 2267
-1410.04 1071.92 2267
-1417.63 1081.85 2288
-1420.18 1087.99 2301
-1420.83 1092.72 2311
-1415.3 1092.72 2311
-1411.61 1094.14 2314
-1407.9 1095.56 2317
-1402.36 1095.56 2317
-1396.82 1095.56 2317
-1391.27 1095.56 2317
-1385.73 1095.56 2317
-1380.19 1095.56 2317
-1374.65 1095.56 2317
-1369.11 1095.56 2317
-1363.57 1095.56 2317
-1359.79 1096.98 2320
-1354.24 1096.98 2320
-1348.69 1096.98 2320
-1343.15 1096.98 2320
-1337.6 1096.98 2320
-1332.05 1096.98 2320
-1326.5 1096.98 2320
-1319.25 1095.56 2317
-1339.79 1117.31 2363
-1334.14 1117.31 2363
-1328.49 1117.31 2363
-1315.56 1111.16 2350
-1309.94 1111.16 2350
-1304.32 1111.16 2350
-1305.88 1117.31 2363
-1300.23 1117.31 2363
-1294.58 1117.31 2363
-1288.93 1117.31 2363
-1283.28 1117.31 2363
-1273.84 1114 2356
-1268.21 1114 2356
-1260.97 1112.58 2353
-1255.34 1112.58 2353
-1249.72 1112.58 2353
-1244.09 1112.58 2353
-1230.04 1105.02 2337
-1217.12 1098.4 2323
-1216.78 1103.12 2333
-1211.2 1103.12 2333
-1205.62 1103.12 2333
-1200.04 1103.12 2333
-1194.46 1103.12 2333
-1188.88 1103.12 2333
-1181.78 1101.71 2330
-1177.73 1103.12 2333
-1177.17 1107.85 2343
-1171.57 1107.85 2343
-1165.97 1107.85 2343
-1158.88 1106.43 2340
-1153.28 1106.43 2340
-1147.69 1106.43 2340
-1142.09 1106.43 2340
-1131.64 1101.71 2330
-1122.68 1098.4 2323
-1119.05 1100.29 2327
-1113.49 1100.29 2327
-1110.78 1103.12 2333
-1105.2 1103.12 2333
-1099.62 1103.12 2333
-1094.04 1103.12 2333
-1093.13 1107.85 2343
-1087.53 1107.85 2343
-1081.92 1107.85 2343
-1077.7 1109.27 2346
-1072.09 1109.27 2346
-1066.48 1109.27 2346
-1060.87 1109.27 2346
-1055.26 1109.27 2346
-1045.62 1105.02 2337
-1032.47 1096.98 2320
-1028.25 1098.4 2323
-1024.45 1100.29 2327
-1018.89 1100.29 2327
-1015.94 1103.12 2333
-1012.09 1105.02 2337
-1007.79 1106.43 2340
-1002.2 1106.43 2340
-997.88 1107.85 2343
-995.242 1111.16 2350
-992.149 1114 2356
-986.515 1114 2356
-980.881 1114 2356
-971.108 1109.27 2346
-965.498 1109.27 2346
-957.433 1106.43 2340
-951.838 1106.43 2340
-946.242 1106.43 2340
-940.646 1106.43 2340
-935.051 1106.43 2340
-928.263 1105.02 2337
-923.859 1106.43 2340
-920.618 1109.27 2346
-915.008 1109.27 2346
-910.949 1111.16 2350
-905.329 1111.16 2350
-899.71 1111.16 2350
-894.09 1111.16 2350
-886.958 1109.27 2346
-879.094 1106.43 2340
-873.498 1106.43 2340
-867.903 1106.43 2340
-862.307 1106.43 2340
-857.81 1107.85 2343
-852.207 1107.85 2343
-846.604 1107.85 2343
-843.514 1111.16 2350
-837.894 1111.16 2350
-833.337 1112.58 2353
-827.711 1112.58 2353
-822.084 1112.58 2353
-817.498 1114 2356
-811.864 1114 2356
-806.23 1114 2356
-800.596 1114 2356
-794.962 1114 2356
-788.323 1112.58 2353
-782.697 1112.58 2353
-774.758 1109.27 2346
-769.148 1109.27 2346
-765.817 1112.58 2353
-760.19 1112.58 2353
-754.563 1112.58 2353
-749.891 1114 2356
-744.257 1114 2356
-738.623 1114 2356
-732.989 1114 2356
-726.429 1112.58 2353
-719.884 1111.16 2350
-714.264 1111.16 2350
-706.534 1107.85 2343
-699.136 1105.02 2337
-691.47 1101.71 2330
-685.898 1101.71 2330
-680.327 1101.71 2330
-674.755 1101.71 2330
-670.045 1103.12 2333
-664.466 1103.12 2333
-658.887 1103.12 2333
-655.268 1106.43 2340
-649.672 1106.43 2340
-644.077 1106.43 2340
-636.571 1103.12 2333
-630.992 1103.12 2333
-622.733 1098.4 2323
-617.178 1098.4 2323
-611.623 1098.4 2323
-606.068 1098.4 2323
-600.513 1098.4 2323
-596.75 1101.71 2330
-591.179 1101.71 2330
-585.607 1101.71 2330
-585.014 1111.16 2350
-580.134 1112.58 2353
-574.508 1112.58 2353
-568.881 1112.58 2353
-563.254 1112.58 2353
-557.627 1112.58 2353
-552.704 1114 2356
-547.07 1114 2356
-541.437 1114 2356
-535.803 1114 2356
-530.169 1114 2356
-524.535 1114 2356
-516.698 1109.27 2346
-511.088 1109.27 2346
-505.478 1109.27 2346
-499.229 1107.85 2343
-493.626 1107.85 2343
-486.774 1105.02 2337
-481.803 1106.43 2340
-476.207 1106.43 2340
-470.612 1106.43 2340
-465.016 1106.43 2340
-459.42 1106.43 2340
-453.825 1106.43 2340
-448.229 1106.43 2340
-442.066 1105.02 2337
-436.478 1105.02 2337
-430.152 1103.12 2333
-424.573 1103.12 2333
-418.994 1103.12 2333
-414.124 1105.02 2337
-408.535 1105.02 2337
-402.947 1105.02 2337
-397.358 1105.02 2337
-391.77 1105.02 2337
-386.181 1105.02 2337
-381.081 1106.43 2340
-375.486 1106.43 2340
-370.364 1107.85 2343
-364.761 1107.85 2343
-359.159 1107.85 2343
-353.556 1107.85 2343
-347.953 1107.85 2343
-342.35 1107.85 2343
-336.316 1106.43 2340
-329.731 1103.12 2333
-322.763 1098.4 2323
-317.208 1098.4 2323
-311.653 1098.4 2323
-306.098 1098.4 2323
-299.767 1095.56 2317
-294.226 1095.56 2317
-288.311 1094.14 2314
-282.778 1094.14 2314
-277.963 1096.98 2320
-272.416 1096.98 2320
-266.868 1096.98 2320
-261.658 1098.4 2323
-256.544 1100.29 2327
-251.303 1101.71 2330
-245.731 1101.71 2330
-240.159 1101.71 2330
-234.588 1101.71 2330
-229.016 1101.71 2330
-223.444 1101.71 2330
-218.153 1103.12 2333
-212.939 1105.02 2337
-207.616 1106.43 2340
-202.021 1106.43 2340
-196.425 1106.43 2340
-190.829 1106.43 2340
-185.709 1109.27 2346
-180.636 1112.58 2353
-175.009 1112.58 2353
-169.382 1112.58 2353
-163.547 1111.16 2350
-157.927 1111.16 2350
-6.01984 1079.01 2282
-0.565348 1083.74 2292
4.91552 1083.74 2292
10.3964 1083.74 2292
15.8773 1083.74 2292
21.1811 1074.75 2273
26.6165 1074.75 2273
32.0096 1073.34 2270
37.3884 1071.92 2267
42.1674 1055.84 2233
47.5072 1055.84 2233
52.3737 1046.38 2213
57.3529 1040.71 2201
62.8722 1044.97 2210
68.2495 1046.38 2213
73.5415 1046.38 2213
78.8334 1046.38 2213
84.1254 1046.38 2213
89.4174 1046.38 2213
94.7093 1046.38 2213
99.0523 1036.45 2192
103.628 1029.84 2178
108.287 1024.63 2167
113.468 1024.63 2167
118.322 1021.8 2161
122.518 1013.76 2144
127.645 1013.76 2144
132.772 1013.76 2144
137.899 1013.76 2144
229.932 1085.16 2295
235.42 1085.16 2295
246.261 1109.27 2346
251.871 1109.27 2346
257.481 1109.27 2346
263.091 1109.27 2346
268.358 1107.85 2343
271.271 1096.98 2320
276.819 1096.98 2320
282.367 1096.98 2320
287.17 1094.14 2314
293.842 1098.4 2323
300.686 1103.12 2333
307.184 1106.43 2340
312.779 1106.43 2340
319.191 1109.27 2346
325.77 1112.58 2353
331.397 1112.58 2353
337.024 1112.58 2353
343.087 1114 2356
349.757 1117.31 2363
355.859 1118.73 2366
361.517 1118.73 2366
367.175 1118.73 2366
372.833 1118.73 2366
379.61 1122.04 2373
385.285 1122.04 2373
390.959 1122.04 2373
397.135 1123.46 2376
405.191 1130.08 2390
410.906 1130.08 2390
417.144 1131.49 2393
422.866 1131.49 2393
429.843 1134.8 2400
435.582 1134.8 2400
441.321 1134.8 2400
444.638 1128.66 2387
450.346 1128.66 2387
455.29 1126.77 2383
460.408 1125.35 2380
465.316 1123.46 2376
470.403 1122.04 2373
476.078 1122.04 2373
480.331 1118.73 2366
484.757 1115.89 2360
489.569 1114 2356
495.203 1114 2356
500.837 1114 2356
506.471 1114 2356
512.974 1115.89 2360
518.618 1115.89 2360
524.261 1115.89 2360
528.333 1112.58 2353
533.96 1112.58 2353
539.586 1112.58 2353
543.591 1109.27 2346
548.499 1107.85 2343
554.811 1109.27 2346
560.421 1109.27 2346
566.031 1109.27 2346
571.641 1109.27 2346
577.251 1109.27 2346
582.116 1107.85 2343
588.471 1109.27 2346
594.081 1109.27 2346
599.691 1109.27 2346
605.301 1109.27 2346
610.911 1109.27 2346
616.521 1109.27 2346
623.987 1112.58 2353
629.614 1112.58 2353
635.241 1112.58 2353
640.868 1112.58 2353
644.571 1109.27 2346
649.35 1107.85 2343
659.704 1115.89 2360
665.348 1115.89 2360
673.835 1120.62 2370
679.502 1120.62 2370
685.169 1120.62 2370
690.837 1120.62 2370
696.504 1120.62 2370
702.172 1120.62 2370
707.839 1120.62 2370
713.506 1120.62 2370
719.174 1120.62 2370
724.841 1120.62 2370
729.276 1118.73 2366
734.933 1118.73 2366
740.591 1118.73 2366
746.249 1118.73 2366
751.907 1118.73 2366
757.565 1118.73 2366
759.997 1114 2356
764.656 1112.58 2353
770.282 1112.58 2353
775.909 1112.58 2353
781.536 1112.58 2353
787.163 1112.58 2353
788.409 1106.43 2340
794.005 1106.43 2340
798.576 1105.02 2337
800.723 1100.29 2327
803.862 1096.98 2320
812.899 1101.71 2330
818.471 1101.71 2330
824.042 1101.71 2330
830.682 1103.12 2333
836.261 1103.12 2333
841.84 1103.12 2333
847.419 1103.12 2333
852.998 1103.12 2333
861.153 1106.43 2340
868.971 1109.27 2346
874.581 1109.27 2346
880.191 1109.27 2346
888.444 1112.58 2353
894.071 1112.58 2353
899.697 1112.58 2353
902.631 1109.27 2346
907.079 1107.85 2343
912.682 1107.85 2343
918.285 1107.85 2343
923.888 1107.85 2343
932.268 1111.16 2350
939.085 1112.58 2353
945.916 1114 2356
951.55 1114 2356
957.184 1114 2356
964.452 1115.89 2360
971.329 1117.31 2363
976.979 1117.31 2363
985.541 1120.62 2370
996.645 1126.77 2383
1002.34 1126.77 2383
1008.04 1126.77 2383
1013.74 1126.77 2383
1019.44 1126.77 2383
1055.25 1159.86 2453
1061.12 1159.86 2453
1073.51 1166.96 2468
1079.41 1166.96 2468
1085.31 1166.96 2468
1091.21 1166.96 2468
1097.11 1166.96 2468
1094.97 1158.45 2450
1100.83 1158.45 2450
1099.91 1151.35 2435
1104.37 1149.94 2432
1106.99 1146.63 2425
1112.79 1146.63 2425
1116.75 1144.73 2421
1116.04 1138.11 2407
1118.54 1134.8 2400
1124.28 1134.8 2400
1130.02 1134.8 2400
1134.34 1133.39 2397
1140.07 1133.39 2397
1145.8 1133.39 2397
1151.53 1133.39 2397
1157.26 1133.39 2397
1163 1133.39 2397
1163.85 1128.66 2387
1169.56 1128.66 2387
1171.82 1125.35 2380
1172.56 1120.62 2370
1169.78 1112.58 2353
1175.41 1112.58 2353
1179.53 1111.16 2350
1185.15 1111.16 2350
1192.29 1112.58 2353
1197.91 1112.58 2353
1203.54 1112.58 2353
1209.17 1112.58 2353
1208.08 1106.43 2340
1210.05 1103.12 2333
1215.63 1103.12 2333
1221.21 1103.12 2333
1219.95 1096.98 2320
1220.74 1092.72 2311
1226.27 1092.72 2311
1228.06 1089.41 2304
1233.57 1089.41 2304
1237.47 1087.99 2301
1241.35 1086.58 2298
1246.85 1086.58 2298
1252.34 1086.58 2298
1261.12 1089.41 2304
1268.28 1090.83 2307
1273.8 1090.83 2307
1279.31 1090.83 2307
1283.16 1089.41 2304
1286.99 1087.99 2301
1294.18 1089.41 2304
1299.69 1089.41 2304
1305.2 1089.41 2304
1312.41 1090.83 2307
1317.93 1090.83 2307
1323.45 1090.83 2307
1331.27 1092.72 2311
1342 1096.98 2320
1347.55 1096.98 2320
1357.18 1100.29 2327
1362.74 1100.29 2327
1368.31 1100.29 2327
1377.42 1103.12 2333
1390.7 1109.27 2346
1396.31 1109.27 2346
1406.1 1112.58 2353
1413.53 1114 2356
1425.19 1118.73 2366
1430.85 1118.73 2366
1445 1125.35 2380
1454.96 1128.66 2387
1464.34 1131.49 2393
1470.06 1131.49 2393
1484.42 1138.11 2407
1496.99 1143.32 2418
1511.47 1149.94 2432
1517.28 1149.94 2432
1555.04 1174.05 2483
1562.86 1175.47 2486
1568.81 1175.47 2486
1574.75 1175.47 2486
1580.7 1175.47 2486
1582.18 1172.16 2479
1597.71 1179.25 2494
1603.68 1179.25 2494
1609.64 1179.25 2494
1615.6 1179.25 2494
1621.57 1179.25 2494
1617.74 1172.16 2479
1618.43 1168.38 2471
1624.34 1168.38 2471
1621.01 1161.76 2457
1626.89 1161.76 2457
1602.2 1140.01 2411
1603.29 1136.7 2404
1597.66 1128.66 2387
1603.37 1128.66 2387
1606.38 1126.77 2383
1607.35 1123.46 2376
1606.24 1118.73 2366
1611.9 1118.73 2366
1620.29 1120.62 2370
1625.96 1120.62 2370
1635.75 1123.46 2376
1644.2 1125.35 2380
1649.89 1125.35 2380
1655.58 1125.35 2380
1658.48 1123.46 2376
1659.96 1120.62 2370
1665.63 1120.62 2370
1671.29 1120.62 2370
1676.96 1120.62 2370
1677.66 1117.31 2363
1683.31 1117.31 2363
1688.96 1117.31 2363
1694.61 1117.31 2363
1700.26 1117.31 2363
1698.69 1112.58 2353
1704.32 1112.58 2353
1707.77 1111.16 2350
1706.1 1106.43 2340
1709.5 1105.02 2337
1715.09 1105.02 2337
1717.73 1103.12 2333
1718.88 1100.29 2327
1724.44 1100.29 2327
1730 1100.29 2327
1732.59 1098.4 2323
1733.65 1095.56 2317
1729.43 1089.41 2304
1734.94 1089.41 2304
1740.45 1089.41 2304
-1746.49 1164.32 2450
-1740.64 1164.32 2450
-1734.78 1164.32 2450
-1726.1 1162.41 2446
-1720.25 1162.41 2446
-1687.06 1143.88 2407
-1681.31 1143.88 2407
-1675.55 1143.88 2407
-1669.8 1143.88 2407
-1664.04 1143.88 2407
-1641.75 1132.47 2383
-1636.05 1132.47 2383
-1630.35 1132.47 2383
-1622.61 1131.05 2380
-1612.16 1127.72 2373
-1601.75 1124.4 2366
-1596.09 1124.4 2366
-1581.69 1118.22 2353
-1531.73 1090.65 2295
-1526.24 1090.65 2295
-1520.75 1090.65 2295
-1508.66 1085.9 2285
-1499.25 1083.05 2279
-1491.84 1081.63 2276
-1486.39 1081.63 2276
-1479 1080.2 2273
-1473.56 1080.2 2273
-1466.19 1078.77 2270
-1460.76 1078.77 2270
-1455.33 1078.77 2270
-1451.82 1080.2 2273
-1446.39 1080.2 2273
-1440.95 1080.2 2273
-1433.62 1078.77 2270
-1426.3 1077.35 2267
-1417.12 1074.5 2261
-1411.72 1074.5 2261
-1406.31 1074.5 2261
-1415.77 1085.9 2285
-1412.16 1087.33 2288
-1416.53 1094.93 2304
-1411.02 1094.93 2304
-1407.34 1096.36 2307
-1409.72 1102.54 2320
-1404.17 1102.54 2320
-1398.62 1102.54 2320
-1391.27 1101.11 2317
-1385.73 1101.11 2317
-1380.19 1101.11 2317
-1374.65 1101.11 2317
-1369.11 1101.11 2317
-1361.81 1099.68 2314
-1356.27 1099.68 2314
-1350.74 1099.68 2314
-1348.69 1102.54 2320
-1343.15 1102.54 2320
-1337.6 1102.54 2320
-1332.05 1102.54 2320
-1321.36 1098.26 2311
-1315.83 1098.26 2311
-1321.08 1107.29 2330
-1315.5 1107.29 2330
-1311.62 1108.71 2333
-1309.96 1112.04 2340
-1304.36 1112.04 2340
-1298.77 1112.04 2340
-1298.7 1116.79 2350
-1294.73 1118.22 2353
-1289.1 1118.22 2353
-1283.48 1118.22 2353
-1276.22 1116.79 2350
-1270.6 1116.79 2350
-1264.98 1116.79 2350
-1259.36 1116.79 2350
-1251.61 1114.89 2346
-1239.09 1108.71 2333
-1233.51 1108.71 2333
-1224.78 1105.86 2327
-1217.12 1103.96 2323
-1215.21 1107.29 2330
-1209.64 1107.29 2330
-1204.07 1107.29 2330
-1200.04 1108.71 2333
-1194.46 1108.71 2333
-1188.88 1108.71 2333
-1181.78 1107.29 2330
-1177.73 1108.71 2333
-1174.16 1110.61 2337
-1168.57 1110.61 2337
-1162.98 1110.61 2337
-1157.39 1110.61 2337
-1148.35 1107.29 2330
-1142.78 1107.29 2330
-1129.4 1099.68 2314
-1122.41 1098.26 2311
-1114.95 1096.36 2307
-1111.36 1098.26 2311
-1107.27 1099.68 2314
-1101.73 1099.68 2314
-1097.62 1101.11 2317
-1094.91 1103.96 2323
-1089.35 1103.96 2323
-1083.8 1103.96 2323
-1080.1 1105.86 2327
-1074.53 1105.86 2327
-1073.56 1110.61 2337
-1067.98 1110.61 2337
-1062.39 1110.61 2337
-1056.8 1110.61 2337
-1051.21 1110.61 2337
-1038.02 1102.54 2320
-1028.46 1098.26 2311
-1024.26 1099.68 2314
-1022.69 1103.96 2323
-1017.14 1103.96 2323
-1013.32 1105.86 2327
-1010.36 1108.71 2333
-1006.5 1110.61 2337
-1000.91 1110.61 2337
-995.325 1110.61 2337
-989.737 1110.61 2337
-985.411 1112.04 2340
-979.816 1112.04 2340
-974.22 1112.04 2340
-968.625 1112.04 2340
-963.029 1112.04 2340
-953.342 1107.29 2330
-947.77 1107.29 2330
-942.198 1107.29 2330
-936.626 1107.29 2330
-931.055 1107.29 2330
-926.675 1108.71 2333
-922.675 1110.61 2337
-918.264 1112.04 2340
-912.668 1112.04 2340
-909.398 1114.89 2346
-903.788 1114.89 2346
-898.178 1114.89 2346
-890.285 1112.04 2340
-884.69 1112.04 2340
-876.464 1108.71 2333
-870.885 1108.71 2333
-865.307 1108.71 2333
-859.728 1108.71 2333
-854.149 1108.71 2333
-850.025 1110.61 2337
-844.436 1110.61 2337
-841.001 1113.47 2343
-836.468 1114.89 2346
-830.858 1114.89 2346
-825.248 1114.89 2346
-819.638 1114.89 2346
-815.416 1116.79 2350
-810.83 1118.22 2353
-805.204 1118.22 2353
-799.577 1118.22 2353
-790.576 1113.47 2343
-783.968 1112.04 2340
-779.37 1113.47 2343
-773.768 1113.47 2343
-768.165 1113.47 2343
-761.586 1112.04 2340
-759.221 1116.79 2350
-753.601 1116.79 2350
-748.936 1118.22 2353
-743.31 1118.22 2353
-737.683 1118.22 2353
-729.878 1114.89 2346
-723.342 1113.47 2343
-717.739 1113.47 2343
-712.136 1113.47 2343
-704.724 1110.61 2337
-694.948 1103.96 2323
-687.612 1101.11 2317
-682.071 1101.11 2317
-676.531 1101.11 2317
-670.99 1101.11 2317
-666.311 1102.54 2320
-660.763 1102.54 2320
-655.215 1102.54 2320
-649.668 1102.54 2320
-644.12 1102.54 2320
-638.572 1102.54 2320
-632.206 1101.11 2317
-626.665 1101.11 2317
-617.639 1094.93 2304
-612.13 1094.93 2304
-606.62 1094.93 2304
-601.111 1094.93 2304
-595.601 1094.93 2304
-590.86 1096.36 2307
-587.88 1101.11 2317
-582.34 1101.11 2317
-579.288 1105.86 2327
-575.203 1108.71 2333
-569.624 1108.71 2333
-564.045 1108.71 2333
-558.466 1108.71 2333
-553.836 1110.61 2337
-548.951 1112.04 2340
-543.355 1112.04 2340
-537.76 1112.04 2340
-532.164 1112.04 2340
-526.568 1112.04 2340
-520.973 1112.04 2340
-513.835 1108.71 2333
-508.256 1108.71 2333
-502.677 1108.71 2333
-496.459 1107.29 2330
-490.888 1107.29 2330
-484.691 1105.86 2327
-480.362 1108.71 2333
-474.783 1108.71 2333
-469.204 1108.71 2333
-463.625 1108.71 2333
-458.046 1108.71 2333
-452.467 1108.71 2333
-446.888 1108.71 2333
-440.174 1105.86 2327
-434.61 1105.86 2327
-429.045 1105.86 2327
-423.481 1105.86 2327
-417.916 1105.86 2327
-412.352 1105.86 2327
-406.787 1105.86 2327
-401.222 1105.86 2327
-395.658 1105.86 2327
-390.093 1105.86 2327
-384.529 1105.86 2327
-378.313 1103.96 2323
-373.881 1107.29 2330
-368.309 1107.29 2330
-362.738 1107.29 2330
-357.166 1107.29 2330
-351.594 1107.29 2330
-345.577 1105.86 2327
-340.012 1105.86 2327
-334.448 1105.86 2327
-328.318 1103.96 2323
-321.512 1099.68 2314
-315.979 1099.68 2314
-310.043 1098.26 2311
-304.517 1098.26 2311
-298.99 1098.26 2311
-293.464 1098.26 2311
-287.938 1098.26 2311
-282.411 1098.26 2311
-277.245 1099.68 2314
-272.416 1102.54 2320
-266.868 1102.54 2320
-261.32 1102.54 2320
-256.103 1103.96 2323
-250.979 1105.86 2327
-245.415 1105.86 2327
-239.85 1105.86 2327
-233.883 1103.96 2323
-228.328 1103.96 2323
-222.773 1103.96 2323
-217.872 1107.29 2330
-212.939 1110.61 2337
-207.616 1112.04 2340
-202.021 1112.04 2340
-196.425 1112.04 2340
-190.829 1112.04 2340
-185.471 1113.47 2343
-180.406 1116.79 2350
-174.786 1116.79 2350
-169.167 1116.79 2350
-6.01984 1084.48 2282
-0.566828 1092.08 2298
4.92839 1092.08 2298
10.4236 1092.08 2298
15.9188 1092.08 2298
21.414 1092.08 2298
26.9092 1092.08 2298
32.1788 1084.48 2282
37.4379 1078.77 2270
42.6962 1074.5 2261
48.1029 1074.5 2261
52.989 1064.04 2239
58.265 1062.62 2236
63.5266 1061.19 2233
68.8663 1061.19 2233
74.1064 1059.76 2230
79.439 1059.76 2230
84.7716 1059.76 2230
89.8618 1056.91 2224
95.1801 1056.91 2224
100.092 1052.64 2215
104.294 1041.71 2192
108.836 1035.05 2178
114.044 1035.05 2178
118.322 1026.97 2161
122.518 1018.89 2144
127.645 1018.89 2144
132.772 1018.89 2144
137.899 1018.89 2144
229.932 1090.65 2295
235.42 1090.65 2295
246.261 1114.89 2346
251.871 1114.89 2346
257.481 1114.89 2346
263.091 1114.89 2346
268.358 1113.47 2343
271.271 1102.54 2320
276.819 1102.54 2320
282.367 1102.54 2320
287.17 1099.68 2314
293.842 1103.96 2323
300.686 1108.71 2333
307.184 1112.04 2340
312.779 1112.04 2340
319.191 1114.89 2346
325.77 1118.22 2353
331.397 1118.22 2353
337.024 1118.22 2353
343.087 1119.64 2356
349.757 1122.97 2363
355.859 1124.4 2366
361.517 1124.4 2366
367.175 1124.4 2366
372.833 1124.4 2366
379.61 1127.72 2373
385.285 1127.72 2373
390.959 1127.72 2373
397.135 1129.15 2376
405.191 1135.8 2390
410.906 1135.8 2390
417.144 1137.23 2393
422.866 1137.23 2393
429.843 1140.55 2400
435.582 1140.55 2400
441.321 1140.55 2400
444.638 1134.38 2387
450.346 1134.38 2387
455.29 1132.47 2383
460.408 1131.05 2380
465.316 1129.15 2376
470.403 1127.72 2373
476.078 1127.72 2373
480.331 1124.4 2366
484.757 1121.54 2360
489.569 1119.64 2356
495.203 1119.64 2356
500.837 1119.64 2356
506.471 1119.64 2356
512.974 1121.54 2360
518.618 1121.54 2360
524.261 1121.54 2360
528.333 1118.22 2353
533.96 1118.22 2353
539.586 1118.22 2353
542.201 1112.04 2340
547.094 1110.61 2337
552.683 1110.61 2337
558.988 1112.04 2340
564.583 1112.04 2340
570.179 1112.04 2340
573.314 1107.29 2330
578.886 1107.29 2330
585.21 1108.71 2333
590.789 1108.71 2333
596.368 1108.71 2333
603.753 1112.04 2340
609.349 1112.04 2340
614.944 1112.04 2340
620.54 1112.04 2340
627.741 1114.89 2346
633.351 1114.89 2346
638.961 1114.89 2346
639.351 1105.86 2327
644.915 1105.86 2327
654.952 1113.47 2343
660.555 1113.47 2343
671.844 1122.97 2363
678.355 1124.4 2366
684.013 1124.4 2366
689.671 1124.4 2366
695.329 1124.4 2366
700.986 1124.4 2366
706.644 1124.4 2366
711.399 1122.97 2363
717.05 1122.97 2363
722.7 1122.97 2363
727.426 1121.54 2360
733.07 1121.54 2360
738.713 1121.54 2360
743.095 1119.64 2356
