ply
format ascii 1.0
comment File generated
element vertex 2251
property float x
property float y
property float z
end_header
-496.302 773.395 3572
-487.76 773.395 3572
-479.218 773.395 3572
-470.676 773.395 3572
-462.135 773.395 3572
-453.593 773.395 3572
-445.051 773.395 3572
-436.51 773.395 3572
-427.968 773.395 3572
-419.426 773.395 3572
-410.884 773.395 3572
-402.343 773.395 3572
-393.801 773.395 3572
-385.259 773.395 3572
-376.717 773.395 3572
-368.176 773.395 3572
-359.634 773.395 3572
-350.404 771.879 3565
-341.879 771.879 3565
-332.606 770.147 3557
-323.371 768.415 3549
-314.885 768.415 3549
-306.398 768.415 3549
-297.911 768.415 3549
-288.854 766.899 3542
-280.384 766.899 3542
-271.299 765.167 3534
-262.849 765.167 3534
-253.39 762.136 3520
-243.929 758.888 3505
-152.35 490.841 2267
-146.928 490.841 2267
-141.507 490.841 2267
-136.086 490.841 2267
-130.665 490.841 2267
-125.244 490.841 2267
-119.823 490.841 2267
-114.099 489.542 2261
-108.692 489.542 2261
-103.286 489.542 2261
-97.879 489.542 2261
-92.3086 488.676 2257
-86.9115 488.676 2257
-81.4059 488.027 2254
-76.0159 488.027 2254
-70.6259 488.027 2254
-65.2359 488.027 2254
-59.8459 488.027 2254
-54.4559 488.027 2254
-49.0659 488.027 2254
-43.676 488.027 2254
-38.286 488.027 2254
-32.8084 486.728 2248
-27.2863 484.129 2236
-21.9394 484.129 2236
-16.5924 484.129 2236
-11.2454 484.129 2236
-5.86683 481.531 2224
-0.545862 479.15 2213
4.74609 479.15 2213
9.97001 475.902 2198
15.1845 474.603 2192
20.3517 472.871 2184
25.5743 472.871 2184
30.67 470.922 2175
35.7721 469.623 2169
40.8078 467.891 2161
45.9116 467.241 2158
51.072 467.241 2158
56.1022 466.159 2153
61.1653 465.509 2150
66.1216 464.21 2144
71.2485 464.21 2144
76.3042 463.777 2142
81.3123 463.127 2139
86.4273 463.127 2139
91.5423 463.127 2139
96.5218 462.478 2136
101.487 461.828 2133
106.588 461.828 2133
111.845 462.478 2136
116.953 462.478 2136
122.232 463.127 2139
127.347 463.127 2139
132.462 463.127 2139
137.577 463.127 2139
883.631 800.892 3699
892.476 800.892 3699
901.321 800.892 3699
904.262 795.696 3675
908.826 792.015 3658
917.573 792.015 3658
926.321 792.015 3658
930.978 788.551 3642
935.817 785.303 3627
944.49 785.303 3627
953.164 785.303 3627
959.715 783.571 3619
966.229 781.839 3611
970.544 778.374 3595
979.141 778.374 3595
985.814 776.859 3588
992.177 775.127 3580
996.545 771.879 3565
1005.07 771.879 3565
1009.05 768.415 3549
1017.53 768.415 3549
1021.68 765.167 3534
1028.09 763.651 3527
1036.53 763.651 3527
1042.89 762.136 3520
1051.31 762.136 3520
1057.31 760.404 3512
1065.71 760.404 3512
1074.11 760.404 3512
1077.89 757.156 3497
1086.25 757.156 3497
1094.61 757.156 3497
1102.97 757.156 3497
1111.33 757.156 3497
1119.7 757.156 3497
1128.06 757.156 3497
1134.15 755.64 3490
1142.49 755.64 3490
1148.53 754.125 3483
1159.18 755.64 3490
1169.87 757.156 3497
1178.23 757.156 3497
1189.31 758.888 3505
1200.08 760.404 3512
1211.24 762.136 3520
1219.65 762.136 3520
1230.51 763.651 3527
1241.41 765.167 3534
1255.16 768.415 3549
1263.65 768.415 3549
1277.87 771.879 3565
1291.81 775.127 3580
1308.72 780.107 3603
1317.34 780.107 3603
1331.84 783.571 3619
1343.46 785.303 3627
1355.12 787.035 3635
1363.81 787.035 3635
1381.18 792.015 3658
1389.93 792.015 3658
1398.68 792.015 3658
1407.43 792.015 3658
1416.17 792.015 3658
1409.73 783.571 3619
1418.38 783.571 3619
1417.57 778.374 3595
1417.05 773.395 3572
1413.62 766.899 3542
1416.06 763.651 3527
1424.5 763.651 3527
1415.06 754.125 3483
1402.95 743.299 3433
1399.65 737.236 3405
1407.79 737.236 3405
1393.06 725.328 3350
1389.78 719.482 3323
1389.32 715.152 3303
1397.22 715.152 3303
1394.48 709.739 3278
1399.32 708.223 3271
1398.97 704.109 3252
1404.15 702.81 3246
1411.91 702.81 3246
1413.99 699.996 3233
1419.08 698.697 3227
1426.8 698.697 3227
1434.52 698.697 3227
1442.23 698.697 3227
1449.95 698.697 3227
1454.96 697.397 3221
1462.66 697.397 3221
1470.36 697.397 3221
1478.06 697.397 3221
1485.77 697.397 3221
1493.47 697.397 3221
1501.17 697.397 3221
1508.87 697.397 3221
1516.58 697.397 3221
1524.28 697.397 3221
1531.98 697.397 3221
1536.34 695.882 3214
1541.14 694.583 3208
1543.02 691.985 3196
1550.66 691.985 3196
1546.6 686.788 3172
1551.25 685.489 3166
1555.86 684.19 3160
1563.42 684.19 3160
1562.03 680.293 3142
1552.06 672.715 3107
1541.92 665.137 3072
1538.17 660.373 3050
1545.46 660.373 3050
1541.56 655.61 3028
1502.25 635.907 2937
1501.57 632.659 2922
1508.55 632.659 2922
1496.87 624.865 2886
1491.27 619.668 2862
1490.26 616.421 2847
1491.81 614.255 2837
1498.59 614.255 2837
1500.6 612.307 2828
1504.7 611.224 2823
1511.45 611.224 2823
1518.2 611.224 2823
1519.55 609.059 2813
1518.68 606.028 2799
1522.65 604.945 2794
1529.33 604.945 2794
1533.81 604.079 2790
1537.72 602.997 2785
1539.39 601.048 2776
1546.03 601.048 2776
1552.67 601.048 2776
1559.31 601.048 2776
1568.2 601.914 2780
1574.85 601.914 2780
1589.46 604.945 2794
1596.14 604.945 2794
1608.56 607.11 2804
1620.45 609.059 2813
1655.52 619.668 2862
1662.36 619.668 2862
1669.21 619.668 2862
1905.24 698.697 3227
1912.95 698.697 3227
2026.61 737.236 3405
2034.76 737.236 3405
2085.5 752.609 3476
2098.03 754.125 3483
2114.82 757.156 3497
2123.18 757.156 3497
2131.55 757.156 3497
2131.34 754.125 3483
2139.67 754.125 3483
2148 754.125 3483
2134.04 746.33 3447
2133.58 743.299 3433
2133.06 740.268 3419
2141.23 740.268 3419
2123.01 731.174 3377
2118.46 726.844 3357
2109.38 720.998 3330
2117.35 720.998 3330
2104.25 713.853 3297
2128.79 719.482 3323
2136.74 719.482 3323
2144.68 719.482 3323
2152.63 719.482 3323
2156.67 718.183 3317
2146.99 712.337 3290
2154.85 712.337 3290
2162.72 712.337 3290
2158.05 708.223 3271
2165.87 708.223 3271
2173.7 708.223 3271
2186.19 709.739 3278
2194.03 709.739 3278
2201.86 709.739 3278
2200.94 706.924 3265
2225.66 712.337 3290
2233.53 712.337 3290
2241.39 712.337 3290
2254.05 713.853 3297
2261.93 713.853 3297
2269.82 713.853 3297
2264.57 709.739 3278
2254.39 704.109 3252
2244.77 698.697 3227
2252.49 698.697 3227
2251.1 695.882 3214
2246.14 691.985 3196
2249.55 690.685 3190
2257.18 690.685 3190
2252.03 686.788 3172
2221.14 675.096 3118
2220.74 672.715 3107
2228.17 672.715 3107
2235.6 672.715 3107
2230.03 668.817 3089
2149.78 642.619 2968
2156.87 642.619 2968
2163.97 642.619 2968
2155.71 638.072 2947
2155.42 635.907 2937
2139.61 629.195 2906
2146.56 629.195 2906
2146.1 627.03 2896
2153.03 627.03 2896
2206.19 640.454 2958
2213.27 640.454 2958
2314.92 667.735 3084
2322.29 667.735 3084
2329.67 667.735 3084
2337.04 667.735 3084
2344.42 667.735 3084
2351.79 667.735 3084
-2613.05 764.001 3490
-2604.7 764.001 3490
-2591.15 762.468 3483
-2582.82 762.468 3483
-2590.75 767.284 3505
-2582.37 767.284 3505
-2573.99 767.284 3505
-2549.51 762.468 3483
-2541.18 762.468 3483
-2532.85 762.468 3483
-2572.36 776.916 3549
-2563.87 776.916 3549
-2555.38 776.916 3549
-2546.9 776.916 3549
-2527.68 773.633 3534
-2472.18 759.185 3468
-2463.89 759.185 3468
-2410.99 745.393 3405
-2392.96 742.328 3391
-2384.86 742.328 3391
-2366.93 739.264 3377
-2358.86 739.264 3377
-2350.78 739.264 3377
-2381.56 751.523 3433
-2387.86 756.12 3454
-2379.61 756.12 3454
-2380.96 759.185 3468
-2372.66 759.185 3468
-2364.37 759.185 3468
-2356.08 759.185 3468
-2347.79 759.185 3468
-2339.49 759.185 3468
-2326.49 757.652 3461
-2322.91 759.185 3468
-2314.61 759.185 3468
-2320.95 764.001 3490
-2317.24 765.533 3497
-2318.79 768.817 3512
-2310.39 768.817 3512
-2307.23 770.568 3520
-2303.39 772.1 3527
-2294.95 772.1 3527
-2286.52 772.1 3527
-2278.08 772.1 3527
-2269.65 772.1 3527
-2261.22 772.1 3527
-2238.73 767.284 3505
-2230.35 767.284 3505
-2221.97 767.284 3505
-2213.59 767.284 3505
-2200.17 765.533 3497
-2191.81 765.533 3497
-2192.81 768.817 3512
-2184.41 768.817 3512
-2176.01 768.817 3512
-2172.55 770.568 3520
-2164.14 770.568 3520
-2155.72 770.568 3520
-2142.42 768.817 3512
-2134.02 768.817 3512
-2116.55 765.533 3497
-2108.18 765.533 3497
-2095.62 764.001 3490
-2087.27 764.001 3490
-2078.93 764.001 3490
-2070.58 764.001 3490
-2062.24 764.001 3490
-2049.77 762.468 3483
-2032.65 759.185 3468
-2024.36 759.185 3468
-1999.79 753.055 3440
-1983.46 749.99 3426
-1967.19 746.925 3412
-1959.03 746.925 3412
-1946.87 745.393 3405
-1930.76 742.328 3391
-1922.65 742.328 3391
-1914.54 742.328 3391
-1906.43 742.328 3391
-1894.4 740.796 3384
-1874.6 736.199 3363
-1866.56 736.199 3363
-1858.52 736.199 3363
-1850.48 736.199 3363
-1842.44 736.199 3363
-1842.03 739.264 3377
-1833.96 739.264 3377
-1829.67 740.796 3384
-1821.57 740.796 3384
-1813.48 740.796 3384
-1805.39 740.796 3384
-1801.01 742.328 3391
-1796.61 743.861 3398
-1803.22 749.99 3426
-1795.03 749.99 3426
-1794.13 753.055 3440
-1793.18 756.12 3454
-1792.15 759.185 3468
-1783.86 759.185 3468
-1783.25 762.468 3483
-1782.05 765.533 3497
-1781.3 768.817 3512
-1772.9 768.817 3512
-1779.57 775.384 3542
-1774.6 776.916 3549
-1774.08 780.419 3565
-1765.55 780.419 3565
-1760.48 781.951 3572
-1751.94 781.951 3572
-1747.3 783.703 3580
-1738.74 783.703 3580
-1737.43 786.986 3595
-1740.37 792.24 3619
-1739.37 795.743 3635
-1730.68 795.743 3635
-1729.1 799.026 3650
-1728.38 802.748 3667
-1734.62 809.753 3699
-1725.77 809.753 3699
-1728.53 815.226 3724
-1763.03 835.803 3818
-1782.38 849.376 3880
-1773.1 849.376 3880
-1780.19 857.257 3916
-1779.42 861.416 3935
-1770.01 861.416 3935
-1760.6 861.416 3935
-1755.19 863.386 3944
-1749.75 865.357 3953
-1740.29 865.357 3953
-1730.84 865.357 3953
-1713.55 861.416 3935
-1668.63 843.465 3853
-1659.41 843.465 3853
-1620.22 828.142 3783
-1582.64 813.474 3716
-1549.19 800.778 3658
-1524.02 792.24 3619
-1515.36 792.24 3619
-1496.72 786.986 3595
-1478.6 781.951 3572
-1451.54 772.1 3527
-1443.11 772.1 3527
-1434.67 772.1 3527
-1423.41 770.568 3520
-1414.99 770.568 3520
-1406.57 770.568 3520
-1398.15 770.568 3520
-1392.5 772.1 3527
-1384.07 772.1 3527
-1375.63 772.1 3527
-1367.2 772.1 3527
-1361.46 773.633 3534
-1364.88 780.419 3565
-1362.06 783.703 3580
-1353.5 783.703 3580
-1347.94 785.454 3588
-1350.94 792.24 3619
-1348.22 795.743 3635
-1339.52 795.743 3635
-1333.39 797.275 3642
-1330.51 800.778 3658
-1321.76 800.778 3658
-1313.01 800.778 3658
-1307.47 802.748 3667
-1304.37 806.25 3683
-1295.56 806.25 3683
-1286.76 806.25 3683
-1277.95 806.25 3683
-1266.38 804.499 3675
-1257.6 804.499 3675
-1246.09 802.748 3667
-1231.58 799.026 3650
-1222.86 799.026 3650
-1214.13 799.026 3650
-1205.4 799.026 3650
-1194.05 797.275 3642
-1187.94 799.026 3650
-1181.8 800.778 3658
-1175.94 802.748 3667
-1167.17 802.748 3667
-1158.4 802.748 3667
-1152.14 804.499 3675
-1145.84 806.25 3683
-1137.03 806.25 3683
-1128.23 806.25 3683
-1121.85 808.002 3691
-1113.02 808.002 3691
-1104.2 808.002 3691
-1097.75 809.753 3699
-1091.26 811.504 3707
-1089.69 816.977 3732
-1080.77 816.977 3732
-1076.72 820.699 3749
-1077.44 828.142 3783
-1068.4 828.142 3783
-1059.35 828.142 3783
-1050.3 828.142 3783
-1041.26 828.142 3783
-1032.21 828.142 3783
-1020.73 826.171 3774
-1007.15 822.45 3757
-998.165 822.45 3757
-989.181 822.45 3757
-978.109 820.699 3749
-969.144 820.699 3749
-962.228 822.45 3757
-955.528 824.42 3766
-946.522 824.42 3766
-937.516 824.42 3766
-928.511 824.42 3766
-919.505 824.42 3766
-910.499 824.42 3766
-899.339 822.45 3757
-890.355 822.45 3757
-881.371 822.45 3757
-870.529 820.699 3749
-861.564 820.699 3749
-852.599 820.699 3749
-847.46 824.42 3766
-838.454 824.42 3766
-829.448 824.42 3766
-822.186 826.171 3774
-813.161 826.171 3774
-804.136 826.171 3774
-795.111 826.171 3774
-786.087 826.171 3774
-777.062 826.171 3774
-768.037 826.171 3774
-759.012 826.171 3774
-748.398 824.42 3766
-736.054 820.699 3749
-727.089 820.699 3749
-716.4 818.728 3740
-704.43 815.226 3724
-692.35 811.504 3707
-683.486 811.504 3707
-674.621 811.504 3707
-662.883 808.002 3691
-648.209 800.778 3658
-639.462 800.778 3658
-627.955 797.275 3642
-616.696 793.991 3627
-606.681 792.24 3619
-598.027 792.24 3619
-588.07 790.489 3611
-578.152 788.738 3603
-568.271 786.986 3595
-559.674 786.986 3595
-551.078 786.986 3595
-542.481 786.986 3595
-532.845 785.454 3588
-523.096 783.703 3580
-514.535 783.703 3580
-504.843 781.951 3572
-496.302 781.951 3572
-487.76 781.951 3572
-479.218 781.951 3572
-470.676 781.951 3572
-462.135 781.951 3572
-453.593 781.951 3572
-445.051 781.951 3572
-436.51 781.951 3572
-427.968 781.951 3572
-419.426 781.951 3572
-410.884 781.951 3572
-402.343 781.951 3572
-393.801 781.951 3572
-385.259 781.951 3572
-376.717 781.951 3572
-368.176 781.951 3572
-358.929 780.419 3565
-350.404 780.419 3565
-341.879 780.419 3565
-332.606 778.668 3557
-323.371 776.916 3549
-314.885 776.916 3549
-306.398 776.916 3549
-297.911 776.916 3549
-288.854 775.384 3542
-280.384 775.384 3542
-271.299 773.633 3534
-262.849 773.633 3534
-253.39 770.568 3520
-243.929 767.284 3505
-151.946 494.959 2261
-146.54 494.959 2261
-141.507 496.272 2267
-136.086 496.272 2267
-130.665 496.272 2267
-125.244 496.272 2267
-119.823 496.272 2267
-114.099 494.959 2261
-108.692 494.959 2261
-103.286 494.959 2261
-97.879 494.959 2261
-92.3086 494.083 2257
-86.9115 494.083 2257
-81.4059 493.426 2254
-76.0159 493.426 2254
-70.6259 493.426 2254
-65.2359 493.426 2254
-59.8459 493.426 2254
-54.4559 493.426 2254
-49.0006 492.769 2251
-43.6178 492.769 2251
-38.235 492.769 2251
-32.7646 491.456 2245
-27.2863 489.486 2236
-21.9394 489.486 2236
-16.5924 489.486 2236
-11.2304 488.829 2233
-5.86683 486.859 2224
-0.545862 484.451 2213
4.74609 484.451 2213
9.97001 481.167 2198
15.1845 479.854 2192
20.3517 478.102 2184
25.5743 478.102 2184
30.6277 475.475 2172
35.7392 474.381 2167
40.7512 472.411 2158
45.8478 471.754 2155
51.001 471.754 2155
56.024 470.659 2150
61.08 470.003 2147
66.0599 468.908 2142
71.182 468.908 2142
76.1973 468.251 2139
81.1983 467.595 2136
86.3061 467.595 2136
91.414 467.595 2136
96.5218 467.595 2136
101.392 466.5 2131
106.488 466.5 2131
111.583 466.5 2131
116.679 466.5 2131
122.061 467.595 2136
127.347 468.251 2139
132.462 468.251 2139
137.577 468.251 2139
883.631 809.753 3699
892.476 809.753 3699
901.321 809.753 3699
906.23 806.25 3683
911.062 802.748 3667
917.573 800.778 3658
926.321 800.778 3658
930.978 797.275 3642
935.817 793.991 3627
944.49 793.991 3627
953.164 793.991 3627
959.715 792.24 3619
966.229 790.489 3611
970.544 786.986 3595
979.141 786.986 3595
985.814 785.454 3588
992.177 783.703 3580
996.545 780.419 3565
1005.07 780.419 3565
1009.05 776.916 3549
1017.53 776.916 3549
1024 775.384 3542
1028.09 772.1 3527
1036.53 772.1 3527
1042.89 770.568 3520
1051.31 770.568 3520
1057.31 768.817 3512
1065.71 768.817 3512
1074.11 768.817 3512
1080.35 767.284 3505
1088.73 767.284 3505
1097.11 767.284 3505
1102.97 765.533 3497
1111.33 765.533 3497
1119.7 765.533 3497
1128.06 765.533 3497
1136.42 765.533 3497
1142.49 764.001 3490
1150.84 764.001 3490
1161.51 765.533 3497
1169.87 765.533 3497
1178.23 765.533 3497
1191.69 768.817 3512
1202.82 770.568 3520
1211.24 770.568 3520
1219.65 770.568 3520
1232.95 773.633 3534
1244.22 775.384 3542
1255.16 776.916 3549
1263.65 776.916 3549
1277.87 780.419 3565
1291.81 783.703 3580
1308.72 788.738 3603
1317.34 788.738 3603
1334.79 793.991 3627
1343.46 793.991 3627
1355.12 795.743 3635
1363.81 795.743 3635
1381.18 800.778 3658
1389.93 800.778 3658
1398.68 800.778 3658
1407.43 800.778 3658
1416.17 800.778 3658
1412.85 793.991 3627
1421.52 793.991 3627
1417.57 786.986 3595
1417.05 781.951 3572
1413.62 775.384 3542
1416.06 772.1 3527
1424.5 772.1 3527
1415.06 762.468 3483
1402.95 751.523 3433
1399.65 745.393 3405
1407.79 745.393 3405
1393.06 733.353 3350
1389.78 727.442 3323
1389.32 723.064 3303
1397.22 723.064 3303
1394.48 717.591 3278
1399.32 716.059 3271
1398.97 711.9 3252
1404.15 710.586 3246
1411.91 710.586 3246
1413.99 707.74 3233
1419.08 706.427 3227
1426.8 706.427 3227
1434.52 706.427 3227
1442.23 706.427 3227
1449.95 706.427 3227
1454.96 705.113 3221
1462.66 705.113 3221
1470.36 705.113 3221
1478.06 705.113 3221
1485.77 705.113 3221
1493.47 705.113 3221
1501.17 705.113 3221
1508.87 705.113 3221
1516.58 705.113 3221
1524.28 705.113 3221
1531.98 705.113 3221
1536.34 703.581 3214
1541.14 702.268 3208
1543.02 699.641 3196
1550.66 699.641 3196
1546.6 694.387 3172
1551.25 693.073 3166
1558.82 693.073 3166
1566.39 693.073 3166
1565.01 689.133 3148
1557.55 682.566 3118
1547.94 675.123 3084
1543.72 670.088 3061
1551.04 670.088 3061
1552.76 667.68 3050
1512.99 647.54 2958
1501.57 639.659 2922
1508.55 639.659 2922
1496.87 631.778 2886
1491.27 626.524 2862
1490.26 623.241 2847
1491.81 621.051 2837
1498.59 621.051 2837
1500.6 619.081 2828
1504.7 617.987 2823
1511.45 617.987 2823
1518.2 617.987 2823
1519.55 615.798 2813
1518.68 612.733 2799
1522.65 611.638 2794
1529.33 611.638 2794
1533.81 610.763 2790
1537.72 609.668 2785
1539.39 607.698 2776
1546.03 607.698 2776
1552.67 607.698 2776
1559.31 607.698 2776
1568.2 608.573 2780
1577.68 609.668 2785
1589.46 611.638 2794
1596.14 611.638 2794
1608.56 613.827 2804
1620.45 615.798 2813
1655.52 626.524 2862
1662.36 626.524 2862
1669.21 626.524 2862
1889.8 706.427 3227
1897.52 706.427 3227
1920 711.9 3252
1927.77 711.9 3252
2051.61 754.587 3447
2059.86 754.587 3447
2089.7 762.468 3483
2111.28 767.284 3505
2123.89 768.817 3512
2132.29 768.817 3512
2140.69 768.817 3512
2139.91 765.533 3497
2148.27 765.533 3497
2152.32 764.001 3490
2147.04 759.185 3468
2146.63 756.12 3454
2137.42 749.99 3426
2145.62 749.99 3426
2123.01 739.264 3377
2126.66 737.731 3370
2122.05 733.353 3350
2130.06 733.353 3350
2120.84 727.442 3323
2128.79 727.442 3323
2136.74 727.442 3323
2144.68 727.442 3323
2152.63 727.442 3323
2156.67 726.129 3317
2146.99 720.218 3290
2154.85 720.218 3290
2162.72 720.218 3290
2162.67 717.591 3278
2170.51 717.591 3278
2178.35 717.591 3278
2194.19 720.218 3290
2202.06 720.218 3290
2209.92 720.218 3290
2217.79 720.218 3290
2225.66 720.218 3290
2233.53 720.218 3290
2246.16 721.751 3297
2254.05 721.751 3297
2261.93 721.751 3297
2269.82 721.751 3297
2272.86 720.218 3290
2267.56 716.059 3271
2262.16 711.9 3252
2269.94 711.9 3252
2260.21 706.427 3227
2267.92 706.427 3227
2262.24 702.268 3208
2269.91 702.268 3208
2264.81 698.327 3190
2233.97 686.506 3136
2237.18 685.192 3130
2244.66 685.192 3130
2252.15 685.192 3130
2243.03 680.158 3107
2233.8 675.123 3084
2196.12 661.55 3022
2203.34 661.55 3022
2179.11 652.137 2979
2178.17 649.729 2968
2162.44 642.943 2937
2173.16 644.037 2942
2192.05 647.54 2958
2199.12 647.54 2958
2218.13 651.042 2974
2285.85 668.774 3055
2314.92 675.123 3084
2322.29 675.123 3084
2337.98 677.531 3095
2358.26 681.252 3112
2365.7 681.252 3112
2373.15 681.252 3112
-2613.05 772.361 3490
-2604.7 772.361 3490
-2591.15 770.812 3483
-2582.82 770.812 3483
-2590.75 775.68 3505
-2582.37 775.68 3505
-2573.99 775.68 3505
-2549.51 770.812 3483
-2541.18 770.812 3483
-2532.85 770.812 3483
-2572.36 785.418 3549
-2563.87 785.418 3549
-2555.38 785.418 3549
-2546.9 785.418 3549
-2527.68 782.098 3534
-2482.87 770.812 3483
-2474.54 770.812 3483
-2425.86 758.197 3426
-2402.84 753.55 3405
-2379.93 748.902 3384
-2366.93 747.353 3377
-2373.53 752.001 3398
-2365.4 752.001 3398
-2396.12 764.394 3454
-2392.7 765.943 3461
-2384.43 765.943 3461
-2380.96 767.492 3468
-2372.66 767.492 3468
-2364.37 767.492 3468
-2356.08 767.492 3468
-2347.79 767.492 3468
-2339.49 767.492 3468
-2326.49 765.943 3461
-2322.91 767.492 3468
-2314.61 767.492 3468
-2325.61 773.91 3497
-2322.54 775.68 3505
-2324.07 779 3520
-2315.65 779 3520
-2316.41 782.098 3534
-2313.18 783.869 3542
-2304.71 783.869 3542
-2296.24 783.869 3542
-2287.77 783.869 3542
-2269.65 780.549 3527
-2261.22 780.549 3527
-2252.78 780.549 3527
-2234.8 777.23 3512
-2221.97 775.68 3505
-2213.59 775.68 3505
-2205.2 775.68 3505
-2196.82 775.68 3505
-2192.81 777.23 3512
-2189.39 779 3520
-2180.97 779 3520
-2172.55 779 3520
-2164.14 779 3520
-2155.72 779 3520
-2142.42 777.23 3512
-2134.02 777.23 3512
-2116.55 773.91 3497
-2108.18 773.91 3497
-2095.62 772.361 3490
-2087.27 772.361 3490
-2078.93 772.361 3490
-2070.58 772.361 3490
-2062.24 772.361 3490
-2049.77 770.812 3483
-2032.65 767.492 3468
-2024.36 767.492 3468
-2007.93 764.394 3454
-1983.46 758.197 3426
-1971.23 756.648 3419
-1963.05 756.648 3419
-1946.87 753.55 3405
-1930.76 750.451 3391
-1922.65 750.451 3391
-1914.54 750.451 3391
-1906.43 750.451 3391
-1898.32 750.451 3391
-1874.6 744.255 3363
-1866.56 744.255 3363
-1858.52 744.255 3363
-1854.33 745.804 3370
-1846.27 745.804 3370
-1842.03 747.353 3377
-1833.96 747.353 3377
-1829.67 748.902 3384
-1829.11 752.001 3398
-1820.98 752.001 3398
-1812.86 752.001 3398
-1801.01 750.451 3391
-1800.31 753.55 3405
-1803.22 758.197 3426
-1795.03 758.197 3426
-1794.13 761.296 3440
-1793.18 764.394 3454
-1792.15 767.492 3468
-1783.86 767.492 3468
-1783.25 770.812 3483
-1782.05 773.91 3497
-1781.3 777.23 3512
-1772.9 777.23 3512
-1779.57 783.869 3542
-1774.6 785.418 3549
-1774.08 788.959 3565
-1765.55 788.959 3565
-1760.48 790.508 3572
-1751.94 790.508 3572
-1747.3 792.279 3580
-1738.74 792.279 3580
-1737.43 795.598 3595
-1740.37 800.909 3619
-1739.37 804.45 3635
-1730.68 804.45 3635
-1729.1 807.77 3650
-1728.38 811.532 3667
-1734.62 818.614 3699
-1725.77 818.614 3699
-1728.53 824.147 3724
-1754.72 840.966 3800
-1769.98 852.695 3853
-1760.77 852.695 3853
-1751.55 852.695 3853
-1742.34 852.695 3853
-1737.17 854.687 3862
-1727.94 854.687 3862
-1751.19 870.842 3935
-1741.78 870.842 3935
-1732.37 870.842 3935
-1722.96 870.842 3935
-1713.55 870.842 3935
-1676.42 856.679 3871
-1667.17 856.679 3871
-1620.22 837.204 3783
-1582.64 822.376 3716
-1549.19 809.54 3658
-1524.02 800.909 3619
-1515.36 800.909 3619
-1496.72 795.598 3595
-1478.6 790.508 3572
-1451.54 780.549 3527
-1443.11 780.549 3527
-1428.57 777.23 3512
-1414.11 773.91 3497
-1408.96 775.68 3505
-1403.38 777.23 3512
-1394.98 777.23 3512
-1386.58 777.23 3512
-1378.18 777.23 3512
-1369.78 777.23 3512
-1361.38 777.23 3512
-1358.76 780.549 3527
-1361.82 787.188 3557
-1359.02 790.508 3572
-1350.48 790.508 3572
-1347.94 794.049 3588
-1350.94 800.909 3619
-1348.22 804.45 3635
-1339.52 804.45 3635
-1333.39 806 3642
-1330.51 809.54 3658
-1325.01 811.532 3667
-1316.24 811.532 3667
-1310.32 813.303 3675
-1304.37 815.073 3683
-1295.56 815.073 3683
-1286.76 815.073 3683
-1277.95 815.073 3683
-1266.38 813.303 3675
-1257.6 813.303 3675
-1246.09 811.532 3667
-1231.58 807.77 3650
-1222.86 807.77 3650
-1211.47 806 3642
-1202.76 806 3642
-1194.05 806 3642
-1187.94 807.77 3650
-1181.8 809.54 3658
-1173.05 809.54 3658
-1164.3 809.54 3658
-1155.56 809.54 3658
-1149.63 811.532 3667
-1143.35 813.303 3675
-1134.56 813.303 3675
-1128.23 815.073 3683
-1121.85 816.844 3691
-1113.02 816.844 3691
-1104.2 816.844 3691
-1097.75 818.614 3699
-1091.26 820.384 3707
-1089.69 825.917 3732
-1080.77 825.917 3732
-1076.72 829.679 3749
-1077.44 837.204 3783
-1068.4 837.204 3783
-1059.35 837.204 3783
-1050.3 837.204 3783
-1038.78 835.212 3774
-1029.76 835.212 3774
-1016.13 831.45 3757
-1002.59 827.688 3740
-996.039 829.679 3749
-987.074 829.679 3749
-978.109 829.679 3749
-969.144 829.679 3749
-960.179 829.679 3749
-951.214 829.679 3749
-942.249 829.679 3749
-933.284 829.679 3749
-926.292 831.45 3757
-917.308 831.45 3757
-908.323 831.45 3757
-897.424 829.679 3749
-888.459 829.679 3749
-879.494 829.679 3749
-868.439 827.688 3740
-859.496 827.688 3740
-850.552 827.688 3740
-845.435 831.45 3757
-838.454 833.442 3766
-829.448 833.442 3766
-822.186 835.212 3774
-813.161 835.212 3774
-804.136 835.212 3774
-795.111 835.212 3774
-786.087 835.212 3774
-777.062 835.212 3774
-768.037 835.212 3774
-759.012 835.212 3774
-748.398 833.442 3766
-736.054 829.679 3749
-727.089 829.679 3749
-716.4 827.688 3740
-704.43 824.147 3724
-692.35 820.384 3707
-683.486 820.384 3707
-674.621 820.384 3707
-662.883 816.844 3691
-648.209 809.54 3658
-639.462 809.54 3658
-627.955 806 3642
-616.696 802.68 3627
-606.681 800.909 3619
-598.027 800.909 3619
-588.07 799.139 3611
-576.868 795.598 3595
-568.271 795.598 3595
-558.585 794.049 3588
-550.005 794.049 3588
-541.425 794.049 3588
-531.657 792.279 3580
-523.096 792.279 3580
-514.535 792.279 3580
-504.843 790.508 3572
-496.302 790.508 3572
-487.76 790.508 3572
-479.218 790.508 3572
-469.754 788.959 3565
-462.135 790.508 3572
-453.593 790.508 3572
-445.051 790.508 3572
-436.51 790.508 3572
-427.968 790.508 3572
-419.426 790.508 3572
-410.884 790.508 3572
-401.554 788.959 3565
-393.029 788.959 3565
-384.504 788.959 3565
-375.979 788.959 3565
-367.454 788.959 3565
-358.929 788.959 3565
-350.404 788.959 3565
-341.879 788.959 3565
-331.858 785.418 3549
-323.371 785.418 3549
-314.885 785.418 3549
-306.398 785.418 3549
-297.911 785.418 3549
-289.424 785.418 3549
-280.384 783.869 3542
-271.299 782.098 3534
-262.849 782.098 3534
-253.894 780.549 3527
-244.972 779 3520
-151.274 498.162 2251
-145.891 498.162 2251
-141.133 500.375 2261
-135.726 500.375 2261
-130.319 500.375 2261
-124.913 500.375 2261
-119.506 500.375 2261
-114.099 500.375 2261
-108.692 500.375 2261
-103.286 500.375 2261
-97.879 500.375 2261
-92.3086 499.49 2257
-86.9115 499.49 2257
-81.4059 498.826 2254
-75.9148 498.162 2251
-70.5319 498.162 2251
-65.1491 498.162 2251
-59.7663 498.162 2251
-54.3835 498.162 2251
-48.9353 497.498 2248
-43.5016 496.834 2245
-38.1331 496.834 2245
-32.7208 496.17 2242
-27.2497 494.178 2233
-21.8805 493.514 2230
-16.5479 493.514 2230
-11.2002 492.85 2227
-5.85101 490.859 2218
-0.544382 488.424 2207
4.73322 488.424 2207
9.94279 485.105 2192
15.143 483.777 2186
20.2958 482.006 2178
25.5041 482.006 2178
30.5572 479.572 2167
35.6897 478.908 2164
40.6945 476.916 2155
45.8052 476.474 2153
50.9537 476.474 2153
56.024 475.81 2150
60.9946 474.482 2144
66.0599 474.039 2142
71.182 474.039 2142
76.1973 473.375 2139
81.0843 472.047 2133
86.1849 472.047 2133
91.2856 472.047 2133
96.2958 471.605 2131
101.249 470.941 2128
106.338 470.941 2128
111.426 470.941 2128
116.515 470.941 2128
121.604 470.941 2128
126.335 469.613 2122
131.41 469.613 2122
136.355 469.171 2120
139.824 463.859 2096
883.631 818.614 3699
892.476 818.614 3699
901.321 818.614 3699
906.23 815.073 3683
911.062 811.532 3667
917.573 809.54 3658
926.321 809.54 3658
930.978 806 3642
935.817 802.68 3627
944.49 802.68 3627
953.164 802.68 3627
959.715 800.909 3619
966.229 799.139 3611
970.544 795.598 3595
979.141 795.598 3595
985.814 794.049 3588
992.177 792.279 3580
996.545 788.959 3565
1005.07 788.959 3565
1009.05 785.418 3549
1017.53 785.418 3549
1024 783.869 3542
1028.09 780.549 3527
1036.53 780.549 3527
1042.89 779 3520
1051.31 779 3520
1057.31 777.23 3512
1065.71 777.23 3512
1074.11 777.23 3512
1080.35 775.68 3505
1088.73 775.68 3505
1097.11 775.68 3505
1102.97 773.91 3497
1111.33 773.91 3497
1119.7 773.91 3497
1128.06 773.91 3497
1136.42 773.91 3497
1142.49 772.361 3490
1150.84 772.361 3490
1161.51 773.91 3497
1169.87 773.91 3497
1178.23 773.91 3497
1191.69 777.23 3512
1202.82 779 3520
1211.24 779 3520
1219.65 779 3520
1232.95 782.098 3534
1244.22 783.869 3542
1255.16 785.418 3549
1263.65 785.418 3549
1277.87 788.959 3565
1291.81 792.279 3580
1308.72 797.369 3603
1317.34 797.369 3603
1334.79 802.68 3627
1343.46 802.68 3627
1355.12 804.45 3635
1363.81 804.45 3635
1381.18 809.54 3658
1389.93 809.54 3658
1398.68 809.54 3658
1407.43 809.54 3658
1416.17 809.54 3658
1412.85 802.68 3627
1421.52 802.68 3627
1414.81 794.049 3588
1414.27 788.959 3565
1410.42 782.098 3534
1410.04 777.23 3512
1418.44 777.23 3512
1408.96 767.492 3468
1400.09 758.197 3426
1399.65 753.55 3405
1407.79 753.55 3405
1390.15 739.829 3343
1389.78 735.403 3323
1386.79 729.649 3297
1394.68 729.649 3297
1391.5 723.895 3271
1399.32 723.895 3271
1398.97 719.69 3252
1404.15 718.362 3246
1411.91 718.362 3246
1413.99 715.485 3233
1419.08 714.157 3227
1426.8 714.157 3227
1434.52 714.157 3227
1442.23 714.157 3227
1449.95 714.157 3227
1454.96 712.829 3221
1462.66 712.829 3221
1470.36 712.829 3221
1478.06 712.829 3221
1485.77 712.829 3221
1493.47 712.829 3221
1501.17 712.829 3221
1508.87 712.829 3221
1516.58 712.829 3221
1524.28 712.829 3221
1531.98 712.829 3221
1536.34 711.28 3214
1541.14 709.952 3208
1543.02 707.297 3196
1550.66 707.297 3196
1546.6 701.985 3172
1551.25 700.657 3166
1558.82 700.657 3166
1566.39 700.657 3166
1565.01 696.674 3148
1557.55 690.035 3118
1547.94 682.51 3084
1543.72 677.42 3061
1551.04 677.42 3061
1552.76 674.986 3050
1512.99 654.626 2958
1501.57 646.659 2922
1508.55 646.659 2922
1496.87 638.692 2886
1491.27 633.38 2862
1487.64 628.954 2842
1491.81 627.848 2837
1498.59 627.848 2837
1500.6 625.856 2828
1504.7 624.749 2823
1508.77 623.643 2818
1515.51 623.643 2818
1517.39 621.651 2809
1515.97 618.331 2794
1522.65 618.331 2794
1529.33 618.331 2794
1531.06 616.34 2785
1532.75 614.348 2776
1539.39 614.348 2776
1546.03 614.348 2776
1552.67 614.348 2776
1559.31 614.348 2776
1568.2 615.233 2780
1577.68 616.34 2785
1589.46 618.331 2794
1596.14 618.331 2794
1608.56 620.544 2804
1620.45 622.536 2813
1655.52 633.38 2862
1662.36 633.38 2862
1669.21 633.38 2862
1889.8 714.157 3227
1897.52 714.157 3227
1920 719.69 3252
1927.77 719.69 3252
2051.61 762.845 3447
2059.86 762.845 3447
2089.7 770.812 3483
2111.28 775.68 3505
2123.89 777.23 3512
2132.29 777.23 3512
2145.57 779 3520
2153.98 779 3520
2162.4 779 3520
2156.63 773.91 3497
2160.66 772.361 3490
2164.66 770.812 3483
2154.89 764.394 3454
2163.15 764.394 3454
2153.81 758.197 3426
2144.33 752.001 3398
2130.29 744.255 3363
2138.33 744.255 3363
2138.07 741.378 3350
2141.6 739.829 3343
2149.6 739.829 3343
2157.59 739.829 3343
2165.58 739.829 3343
2160.57 735.403 3323
2155.47 730.977 3303
2159.44 729.649 3297
2167.32 729.649 3297
2170.59 728.099 3290
2174.48 726.772 3284
2186.32 728.099 3290
2202.86 730.977 3303
2210.76 730.977 3303
2218.66 730.977 3303
2222.51 729.649 3297
2230.39 729.649 3297
2238.28 729.649 3297
2259.79 734.075 3317
2267.72 734.075 3317
2275.65 734.075 3317
2283.58 734.075 3317
2281.84 730.977 3303
2280.73 728.099 3290
2271.21 722.567 3265
2279.02 722.567 3265
2277.72 719.69 3252
2276.36 716.813 3239
2275.64 714.157 3227
2283.36 714.157 3227
2277.58 709.952 3208
2246.79 698.002 3154
2262.91 700.657 3166
2270.48 700.657 3166
2278.05 700.657 3166
2268.29 695.346 3142
2262.77 691.363 3124
2241.17 682.51 3084
2248.55 682.51 3084
2251.53 681.182 3078
2246.42 677.42 3061
2221.34 667.683 3017
2236.68 670.117 3028
2243.92 670.117 3028
2263.06 673.658 3044
2278.54 676.092 3055
2303.06 681.182 3078
2323.18 684.945 3095
2330.58 684.945 3095
2364.42 692.69 3130
2399.18 700.657 3166
2406.75 700.657 3166
2414.33 700.657 3166
-2613.05 780.721 3490
-2604.7 780.721 3490
-2591.15 779.155 3483
-2582.82 779.155 3483
-2590.75 784.077 3505
-2582.37 784.077 3505
-2573.99 784.077 3505
-2549.51 779.155 3483
-2541.18 779.155 3483
-2532.85 779.155 3483
-2572.36 793.92 3549
-2563.87 793.92 3549
-2555.38 793.92 3549
-2546.9 793.92 3549
-2527.68 790.564 3534
-2482.87 779.155 3483
-2474.54 779.155 3483
-2425.86 766.404 3426
-2402.84 761.706 3405
-2379.93 757.009 3384
-2366.93 755.443 3377
-2373.53 760.141 3398
-2365.4 760.141 3398
-2400.98 774.234 3461
-2397.54 775.8 3468
-2389.25 775.8 3468
-2380.96 775.8 3468
-2382.93 779.155 3483
-2374.6 779.155 3483
-2366.27 779.155 3483
-2357.94 779.155 3483
-2339.49 775.8 3468
-2331.2 775.8 3468
-2342.33 782.287 3497
-2333.97 782.287 3497
-2335.58 785.643 3512
-2332.48 787.432 3520
-2324.07 787.432 3520
-2324.86 790.564 3534
-2321.65 792.354 3542
-2313.18 792.354 3542
-2304.71 792.354 3542
-2296.24 792.354 3542
-2287.77 792.354 3542
-2279.3 792.354 3542
-2270.83 792.354 3542
-2252.78 788.998 3527
-2239.89 787.432 3520
-2226.4 785.643 3512
-2218.01 785.643 3512
-2205.2 784.077 3505
-2196.82 784.077 3505
-2192.81 785.643 3512
-2189.39 787.432 3520
-2180.97 787.432 3520
-2172.55 787.432 3520
-2164.14 787.432 3520
-2155.72 787.432 3520
-2142.42 785.643 3512
-2134.02 785.643 3512
-2116.55 782.287 3497
-2108.18 782.287 3497
-2095.62 780.721 3490
-2087.27 780.721 3490
-2078.93 780.721 3490
-2070.58 780.721 3490
-2062.24 780.721 3490
-2049.77 779.155 3483
-2032.65 775.8 3468
-2024.36 775.8 3468
-2007.93 772.668 3454
-1983.46 766.404 3426
-1971.23 764.838 3419
-1963.05 764.838 3419
-1946.87 761.706 3405
-1930.76 758.575 3391
-1922.65 758.575 3391
-1914.54 758.575 3391
-1906.43 758.575 3391
-1898.32 758.575 3391
-1874.6 752.311 3363
-1870.45 753.877 3370
-1862.39 753.877 3370
-1858.18 755.443 3377
-1850.11 755.443 3377
-1842.03 755.443 3377
-1833.96 755.443 3377
-1837.23 760.141 3398
-1829.11 760.141 3398
-1820.98 760.141 3398
-1812.86 760.141 3398
-1801.01 758.575 3391
-1811.41 766.404 3426
-1810.59 769.536 3440
-1802.36 769.536 3440
-1797.79 771.102 3447
-1796.81 774.234 3461
-1796.29 777.589 3476
-1787.97 777.589 3476
-1783.25 779.155 3483
-1782.05 782.287 3497
-1781.3 785.643 3512
-1772.9 785.643 3512
-1779.57 792.354 3542
-1774.6 793.92 3549
-1774.08 797.499 3565
-1765.55 797.499 3565
-1760.48 799.065 3572
-1751.94 799.065 3572
-1747.3 800.854 3580
-1738.74 800.854 3580
-1737.43 804.21 3595
-1740.37 809.579 3619
-1739.37 813.158 3635
-1730.68 813.158 3635
-1729.1 816.514 3650
-1728.38 820.317 3667
-1734.62 827.475 3699
-1725.77 827.475 3699
-1728.53 833.068 3724
-1754.72 850.069 3800
-1769.98 861.925 3853
-1760.77 861.925 3853
-1751.55 861.925 3853
-1742.34 861.925 3853
-1737.17 863.938 3862
-1727.94 863.938 3862
-1751.19 880.269 3935
-1741.78 880.269 3935
-1732.37 880.269 3935
-1722.96 880.269 3935
-1713.55 880.269 3935
-1692.01 874.005 3907
-1682.67 874.005 3907
-1620.22 846.266 3783
-1582.64 831.278 3716
-1549.19 818.303 3658
-1524.02 809.579 3619
-1515.36 809.579 3619
-1496.72 804.21 3595
-1478.6 799.065 3572
-1451.54 788.998 3527
-1443.11 788.998 3527
-1428.57 785.643 3512
-1414.11 782.287 3497
-1408.96 784.077 3505
-1403.38 785.643 3512
-1394.98 785.643 3512
-1386.58 785.643 3512
-1378.18 785.643 3512
-1369.78 785.643 3512
-1361.38 785.643 3512
-1358.76 788.998 3527
-1361.82 795.709 3557
-1359.02 799.065 3572
-1350.48 799.065 3572
-1347.94 802.644 3588
-1350.94 809.579 3619
-1348.22 813.158 3635
-1339.52 813.158 3635
-1333.39 814.724 3642
-1330.51 818.303 3658
-1325.01 820.317 3667
-1316.24 820.317 3667
-1310.32 822.106 3675
-1304.37 823.896 3683
-1295.56 823.896 3683
-1286.76 823.896 3683
-1277.95 823.896 3683
-1266.38 822.106 3675
-1257.6 822.106 3675
-1246.09 820.317 3667
-1231.58 816.514 3650
-1222.86 816.514 3650
-1211.47 814.724 3642
-1202.76 814.724 3642
-1194.05 814.724 3642
-1187.94 816.514 3650
-1181.8 818.303 3658
-1175.94 820.317 3667
-1167.17 820.317 3667
-1158.4 820.317 3667
-1152.14 822.106 3675
-1143.35 822.106 3675
-1134.56 822.106 3675
-1128.23 823.896 3683
-1121.85 825.685 3691
-1113.02 825.685 3691
-1104.2 825.685 3691
-1097.75 827.475 3699
-1093.9 831.278 3716
-1089.69 834.857 3732
-1080.77 834.857 3732
-1076.72 838.66 3749
-1074.88 844.253 3774
-1065.85 844.253 3774
-1056.83 844.253 3774
-1047.81 844.253 3774
-1038.78 844.253 3774
-1029.76 844.253 3774
-1016.13 840.45 3757
-1005 838.66 3749
-993.648 836.647 3740
-984.705 836.647 3740
-975.761 836.647 3740
-966.818 836.647 3740
-957.874 836.647 3740
-951.214 838.66 3749
-942.249 838.66 3749
-933.284 838.66 3749
-924.319 838.66 3749
-915.354 838.66 3749
-906.389 838.66 3749
-895.27 836.647 3740
-886.326 836.647 3740
-877.383 836.647 3740
-866.582 834.857 3732
-855.819 833.068 3724
-846.914 833.068 3724
-841.609 836.647 3740
-836.45 840.45 3757
-827.466 840.45 3757
-818.482 840.45 3757
-809.498 840.45 3757
-800.514 840.45 3757
-791.53 840.45 3757
-782.546 840.45 3757
-771.914 838.66 3749
-762.949 838.66 3749
-753.984 838.66 3749
-743.231 836.647 3740
-734.287 836.647 3740
-725.344 836.647 3740
-713.336 833.068 3724
-701.215 829.265 3707
-690.856 827.475 3699
-682.01 827.475 3699
-671.709 825.685 3691
-662.883 825.685 3691
-648.209 818.303 3658
-639.462 818.303 3658
-626.748 813.158 3635
-616.696 811.368 3627
-605.34 807.789 3611
-596.705 807.789 3611
-588.07 807.789 3611
-575.745 802.644 3588
-565.9 800.854 3580
-557.339 800.854 3580
-548.778 800.854 3580
-540.218 800.854 3580
-530.469 799.065 3572
-520.904 797.499 3565
-512.379 797.499 3565
-502.723 795.709 3557
-494.218 795.709 3557
-485.712 795.709 3557
-477.206 795.709 3557
-468.7 795.709 3557
-461.229 797.499 3565
-452.704 797.499 3565
-444.179 797.499 3565
-435.654 797.499 3565
-427.129 797.499 3565
-418.604 797.499 3565
-410.079 797.499 3565
-401.554 797.499 3565
-393.029 797.499 3565
-384.504 797.499 3565
-375.979 797.499 3565
-367.454 797.499 3565
-358.929 797.499 3565
-349.618 795.709 3557
-341.112 795.709 3557
-331.858 793.92 3549
-323.371 793.92 3549
-314.885 793.92 3549
-306.398 793.92 3549
-297.911 793.92 3549
-289.424 793.92 3549
-280.384 792.354 3542
-271.914 792.354 3542
-263.444 792.354 3542
-253.894 788.998 3527
-245.46 788.998 3527
-151.274 503.554 2251
-145.891 503.554 2251
-140.509 503.554 2251
-135.486 504.896 2257
-130.319 505.791 2261
-124.913 505.791 2261
-119.506 505.791 2261
-114.099 505.791 2261
-108.692 505.791 2261
-103.286 505.791 2261
-97.7058 504.896 2257
-92.3086 504.896 2257
-86.9115 504.896 2257
-81.4059 504.225 2254
-75.9148 503.554 2251
-70.5319 503.554 2251
-65.0623 502.883 2248
-59.6866 502.883 2248
-54.311 502.883 2248
-48.87 502.212 2245
-43.4434 501.541 2242
-38.0821 501.541 2242
-32.6333 500.198 2236
-27.2131 498.856 2230
-21.851 498.185 2227
-16.5256 498.185 2227
-11.17 496.843 2221
-5.83782 495.053 2213
-0.542162 491.698 2198
4.71392 491.698 2198
9.92918 489.684 2189
15.1083 487.895 2181
20.2678 486.553 2175
25.4689 486.553 2175
30.5572 484.763 2167
35.6402 483.421 2161
40.6945 482.079 2155
45.7414 480.96 2150
50.8827 480.96 2150
55.9458 480.289 2147
60.9377 479.17 2142
65.9674 478.499 2139
71.0824 478.499 2139
76.0905 477.828 2136
81.0843 477.157 2133
86.1849 477.157 2133
91.2856 477.157 2133
96.2958 476.71 2131
101.106 475.367 2125
106.188 475.367 2125
111.269 475.367 2125
116.351 475.367 2125
121.261 474.696 2122
126.216 474.249 2120
131.286 474.249 2120
135.326 470.67 2104
140.157 469.999 2101
883.631 827.475 3699
892.476 827.475 3699
901.321 827.475 3699
906.23 823.896 3683
911.062 820.317 3667
917.573 818.303 3658
926.321 818.303 3658
930.978 814.724 3642
935.817 811.368 3627
944.49 811.368 3627
953.164 811.368 3627
959.715 809.579 3619
966.229 807.789 3611
970.544 804.21 3595
979.141 804.21 3595
985.814 802.644 3588
992.177 800.854 3580
996.545 797.499 3565
1005.07 797.499 3565
1009.05 793.92 3549
1017.53 793.92 3549
1024 792.354 3542
1028.09 788.998 3527
1036.53 788.998 3527
1042.89 787.432 3520
1051.31 787.432 3520
1057.31 785.643 3512
1065.71 785.643 3512
1074.11 785.643 3512
1080.35 784.077 3505
1088.73 784.077 3505
1097.11 784.077 3505
1105.5 784.077 3505
1113.88 784.077 3505
1122.26 784.077 3505
1130.64 784.077 3505
1139.02 784.077 3505
1144.78 782.287 3497
1153.15 782.287 3497
1164.17 784.077 3505
1172.55 784.077 3505
1180.93 784.077 3505
1191.69 785.643 3512
1202.82 787.432 3520
1213.64 788.998 3527
1222.08 788.998 3527
1232.95 790.564 3534
1244.22 792.354 3542
1255.16 793.92 3549
1263.65 793.92 3549
1275 795.709 3557
1291.81 800.854 3580
1308.72 806 3603
1317.34 806 3603
1334.79 811.368 3627
1343.46 811.368 3627
1355.12 813.158 3635
1363.81 813.158 3635
1381.18 818.303 3658
1389.93 818.303 3658
1398.68 818.303 3658
1407.43 818.303 3658
1416.17 818.303 3658
1412.85 811.368 3627
1421.52 811.368 3627
1414.81 802.644 3588
1414.27 797.499 3565
1410.42 790.564 3534
1410.04 785.643 3512
1418.44 785.643 3512
1406.12 774.234 3461
1400.09 766.404 3426
1396.77 760.141 3398
1404.9 760.141 3398
1387.66 746.495 3337
1389.78 743.363 3323
1386.79 737.547 3297
1394.68 737.547 3297
1391.5 731.73 3271
1396.76 730.388 3265
1398.97 727.48 3252
1404.15 726.138 3246
1411.91 726.138 3246
1413.99 723.23 3233
1416.44 720.545 3221
1424.15 720.545 3221
1431.85 720.545 3221
1439.55 720.545 3221
1447.25 720.545 3221
1454.96 720.545 3221
1462.66 720.545 3221
1470.36 720.545 3221
1478.06 720.545 3221
1485.77 720.545 3221
1493.47 720.545 3221
1501.17 720.545 3221
1508.87 720.545 3221
1516.58 720.545 3221
1524.28 720.545 3221
1531.98 720.545 3221
1536.34 718.979 3214
1541.14 717.637 3208
1545.91 716.295 3202
1553.57 716.295 3202
1549.53 710.926 3178
1554.19 709.584 3172
1558.82 708.242 3166
1566.39 708.242 3166
1565.01 704.215 3148
1557.55 697.504 3118
1547.94 689.898 3084
1543.72 684.753 3061
1551.04 684.753 3061
1552.76 682.292 3050
1518.11 663.949 2968
1499 652.54 2917
1505.97 652.54 2917
1496.87 645.605 2886
1488.66 639.118 2857
1487.64 635.762 2842
1489.18 633.525 2832
1495.95 633.525 2832
1500.6 632.63 2828
1504.7 631.512 2823
1508.77 630.393 2818
1515.51 630.393 2818
1517.39 628.38 2809
1515.97 625.024 2794
1522.65 625.024 2794
1529.33 625.024 2794
1531.06 623.011 2785
1532.75 620.998 2776
1539.39 620.998 2776
1546.03 620.998 2776
1552.67 620.998 2776
1559.31 620.998 2776
1568.2 621.893 2780
1580.51 624.13 2790
1595.15 627.261 2804
1601.85 627.261 2804
1613.72 629.275 2813
1620.45 629.275 2813
1627.18 629.275 2813
1633.9 629.275 2813
1904.44 727.48 3252
1912.22 727.48 3252
1920 727.48 3252
2030.92 766.404 3426
2068.87 777.589 3476
2077.19 777.589 3476
2102.9 784.077 3505
2115.49 785.643 3512
2128.73 787.432 3520
2137.15 787.432 3520
2145.57 787.432 3520
2153.98 787.432 3520
2162.4 787.432 3520
2156.63 782.287 3497
2160.66 780.721 3490
2164.66 779.155 3483
2154.89 772.668 3454
2163.15 772.668 3454
2153.81 766.404 3426
2144.33 760.141 3398
2130.29 752.311 3363
2138.33 752.311 3363
2138.07 749.403 3350
2141.6 747.837 3343
2149.6 747.837 3343
2157.59 747.837 3343
2165.58 747.837 3343
2160.57 743.363 3323
2155.47 738.889 3303
2159.44 737.547 3297
2167.32 737.547 3297
2170.59 735.981 3290
2174.48 734.638 3284
2186.32 735.981 3290
2202.86 738.889 3303
2210.76 738.889 3303
2218.66 738.889 3303
2222.51 737.547 3297
2230.39 737.547 3297
2238.28 737.547 3297
2259.79 742.021 3317
2267.72 742.021 3317
2275.65 742.021 3317
2283.58 742.021 3317
2281.84 738.889 3303
2280.73 735.981 3290
2271.21 730.388 3265
2279.02 730.388 3265
2277.72 727.48 3252
2276.36 724.572 3239
2275.64 721.887 3227
2283.36 721.887 3227
2277.58 717.637 3208
2246.79 705.557 3154
2262.91 708.242 3166
2270.48 708.242 3166
2278.05 708.242 3166
2268.29 702.873 3142
2262.77 698.846 3124
2241.17 689.898 3084
2248.55 689.898 3084
2251.53 688.556 3078
2246.42 684.753 3061
2221.34 674.91 3017
2236.68 677.371 3028
2243.92 677.371 3028
2263.06 680.95 3044
2278.54 683.411 3055
2303.06 688.556 3078
2323.18 692.359 3095
2330.58 692.359 3095
2364.42 700.188 3130
2399.18 708.242 3166
2406.75 708.242 3166
2414.33 708.242 3166
-2613.05 789.082 3490
-2604.7 789.082 3490
-2591.15 787.499 3483
-2582.82 787.499 3483
-2590.75 792.473 3505
-2582.37 792.473 3505
-2573.99 792.473 3505
-2549.51 787.499 3483
-2541.18 787.499 3483
-2532.85 787.499 3483
-2561.48 799.03 3534
-2553.03 799.03 3534
-2544.58 799.03 3534
-2536.13 799.03 3534
-2527.68 799.03 3534
-2482.87 787.499 3483
-2474.54 787.499 3483
-2425.86 774.611 3426
-2402.84 769.863 3405
-2379.93 765.115 3384
-2366.93 763.532 3377
-2373.53 768.281 3398
-2365.4 768.281 3398
-2400.98 782.525 3461
-2397.54 784.107 3468
-2389.25 784.107 3468
-2380.96 784.107 3468
-2382.93 787.499 3483
-2374.6 787.499 3483
-2366.27 787.499 3483
-2357.94 787.499 3483
-2339.49 784.107 3468
-2331.2 784.107 3468
-2342.33 790.664 3497
-2333.97 790.664 3497
-2335.58 794.056 3512
-2332.48 795.864 3520
-2324.07 795.864 3520
-2324.86 799.03 3534
-2321.65 800.839 3542
-2313.18 800.839 3542
-2304.71 800.839 3542
-2296.24 800.839 3542
-2287.77 800.839 3542
-2279.3 800.839 3542
-2270.83 800.839 3542
-2252.78 797.447 3527
-2239.89 795.864 3520
-2226.4 794.056 3512
-2218.01 794.056 3512
-2205.2 792.473 3505
-2196.82 792.473 3505
-2192.81 794.056 3512
-2189.39 795.864 3520
-2180.97 795.864 3520
-2172.55 795.864 3520
-2164.14 795.864 3520
-2155.72 795.864 3520
-2142.42 794.056 3512
-2129.77 792.473 3505
-2116.55 790.664 3497
-2108.18 790.664 3497
-2095.62 789.082 3490
-2087.27 789.082 3490
-2078.93 789.082 3490
-2070.58 789.082 3490
-2062.24 789.082 3490
-2049.77 787.499 3483
-2032.65 784.107 3468
-2024.36 784.107 3468
-2007.93 780.942 3454
-1983.46 774.611 3426
-1971.23 773.029 3419
-1963.05 773.029 3419
-1946.87 769.863 3405
-1930.76 766.698 3391
-1922.65 766.698 3391
-1914.54 766.698 3391
-1906.43 766.698 3391
-1898.32 766.698 3391
-1874.6 760.367 3363
-1870.45 761.95 3370
-1862.39 761.95 3370
-1858.18 763.532 3377
-1850.11 763.532 3377
-1842.03 763.532 3377
-1833.96 763.532 3377
-1837.23 768.281 3398
-1829.11 768.281 3398
-1820.98 768.281 3398
-1812.86 768.281 3398
-1801.01 766.698 3391
-1811.41 774.611 3426
-1810.59 777.777 3440
-1802.36 777.777 3440
-1797.79 779.359 3447
-1796.81 782.525 3461
-1796.29 785.916 3476
-1787.97 785.916 3476
-1783.25 787.499 3483
-1778.48 789.082 3490
-1781.3 794.056 3512
-1772.9 794.056 3512
-1779.57 800.839 3542
-1774.6 802.421 3549
-1774.08 806.039 3565
-1765.55 806.039 3565
-1760.48 807.622 3572
-1751.94 807.622 3572
-1743.39 807.622 3572
-1734.85 807.622 3572
-1737.43 812.822 3595
-1736.52 816.439 3611
-1735.55 820.057 3627
-1726.87 820.057 3627
-1729.1 825.257 3650
-1724.14 827.066 3658
-1730.87 834.527 3691
-1722.04 834.527 3691
-1724.82 840.18 3716
-1742.71 853.293 3774
-1753.9 863.242 3818
-1744.77 863.242 3818
-1739.28 865.05 3826
-1730.13 865.05 3826
-1720.98 865.05 3826
-1711.83 865.05 3826
-1718.7 873.19 3862
-1729.39 883.364 3907
-1727.97 887.434 3925
-1718.58 887.434 3925
-1709.2 887.434 3925
-1692.01 883.364 3907
-1682.67 883.364 3907
-1620.22 855.328 3783
-1568.58 832.718 3683
-1549.19 827.066 3658
-1520.65 816.439 3611
-1512.01 816.439 3611
-1487.14 807.622 3572
-1472.39 804.23 3557
-1445.37 794.056 3512
-1436.97 794.056 3512
-1422.47 790.664 3497
-1408.44 787.499 3483
-1397.3 785.916 3476
-1400.58 792.473 3505
-1392.2 792.473 3505
-1383.81 792.473 3505
-1375.43 792.473 3505
-1367.05 792.473 3505
-1355.57 790.664 3497
-1358.76 797.447 3527
-1361.82 804.23 3557
-1359.02 807.622 3572
-1350.48 807.622 3572
-1344.94 809.43 3580
-1347.95 816.439 3611
-1345.25 820.057 3627
-1336.58 820.057 3627
-1330.83 821.866 3635
-1330.51 827.066 3658
-1325.01 829.101 3667
-1316.24 829.101 3667
-1310.32 830.91 3675
-1304.37 832.718 3683
-1295.56 832.718 3683
-1286.76 832.718 3683
-1277.95 832.718 3683
-1266.38 830.91 3675
-1257.6 830.91 3675
-1246.09 829.101 3667
-1231.58 825.257 3650
-1220.18 823.448 3642
-1211.47 823.448 3642
-1202.76 823.448 3642
-1194.05 823.448 3642
-1190.55 827.066 3658
-1184.71 829.101 3667
-1175.94 829.101 3667
-1167.17 829.101 3667
-1158.4 829.101 3667
-1152.14 830.91 3675
-1143.35 830.91 3675
-1134.56 830.91 3675
-1125.78 830.91 3675
-1121.85 834.527 3691
-1113.02 834.527 3691
-1104.2 834.527 3691
-1097.75 836.336 3699
-1093.9 840.18 3716
-1089.69 843.797 3732
-1080.77 843.797 3732
-1076.72 847.641 3749
-1074.88 853.293 3774
-1065.85 853.293 3774
-1056.83 853.293 3774
-1047.81 853.293 3774
-1038.78 853.293 3774
-1029.76 853.293 3774
-1016.13 849.45 3757
-1005 847.641 3749
-993.648 845.606 3740
-984.705 845.606 3740
-975.761 845.606 3740
-966.818 845.606 3740
-957.874 845.606 3740
-951.214 847.641 3749
-942.249 847.641 3749
-933.284 847.641 3749
-924.319 847.641 3749
-915.354 847.641 3749
-906.389 847.641 3749
-895.27 845.606 3740
-886.326 845.606 3740
-877.383 845.606 3740
-866.582 843.797 3732
-855.819 841.988 3724
-846.914 841.988 3724
-841.609 845.606 3740
-836.45 849.45 3757
-827.466 849.45 3757
-818.482 849.45 3757
-809.498 849.45 3757
-800.514 849.45 3757
-791.53 849.45 3757
-782.546 849.45 3757
-771.914 847.641 3749
-762.949 847.641 3749
-753.984 847.641 3749
-743.231 845.606 3740
-734.287 845.606 3740
-725.344 845.606 3740
-713.336 841.988 3724
-701.215 838.145 3707
-690.856 836.336 3699
-682.01 836.336 3699
-671.709 834.527 3691
-662.883 834.527 3691
-648.209 827.066 3658
-639.462 827.066 3658
-626.748 821.866 3635
-616.696 820.057 3627
-605.34 816.439 3611
-596.705 816.439 3611
-588.07 816.439 3611
-575.745 811.239 3588
-565.9 809.43 3580
-557.339 809.43 3580
-548.778 809.43 3580
-540.218 809.43 3580
-530.469 807.622 3572
-520.904 806.039 3565
-512.379 806.039 3565
-502.723 804.23 3557
-494.218 804.23 3557
-485.712 804.23 3557
-477.206 804.23 3557
-468.7 804.23 3557
-461.229 806.039 3565
-452.704 806.039 3565
-444.179 806.039 3565
-435.654 806.039 3565
