ply
format ascii 1.0
comment File generated
element vertex 2146
property float x
property float y
property float z
end_header
-1899.49 -188.587 3642
-1912.06 -190.71 3683
-1907.39 -191.124 3691
-1898.56 -191.124 3691
-1889.74 -191.124 3691
-1876.84 -190.71 3683
-1868.03 -190.71 3683
-1838.52 -188.587 3642
-1822.28 -187.81 3627
-1809.6 -187.396 3619
-1800.95 -187.396 3619
-1792.3 -187.396 3619
-1794.98 -188.587 3642
-1790.19 -189.001 3650
-1789.76 -189.882 3667
-1780.99 -189.882 3667
-1772.22 -189.882 3667
-1767.3 -190.296 3675
-1770 -191.539 3699
-1761.15 -191.539 3699
-1764.15 -192.833 3724
-1759.02 -193.247 3732
-1750.09 -193.247 3732
-1741.17 -193.247 3732
-1728.53 -192.833 3724
-1704.39 -191.124 3691
-1691.89 -190.71 3683
-1690.39 -191.539 3699
-1681.54 -191.539 3699
-1680.39 -192.419 3716
-1678.7 -193.247 3732
-1669.77 -193.247 3732
-1660.85 -193.247 3732
-1651.92 -193.247 3732
-1639.48 -192.833 3724
-1630.57 -192.833 3724
-1618.18 -192.419 3716
-1574.22 -188.225 3635
-1300.5 -163.628 3160
-1292.94 -163.628 3160
-1285.39 -163.628 3160
-1268.13 -162.386 3136
-1253.39 -161.454 3118
-1232.35 -159.693 3084
-1224.97 -159.693 3084
-1195.49 -156.793 3028
-1169.02 -154.256 2979
-1153.71 -153.169 2958
-1138.49 -152.081 2937
-1131.47 -152.081 2937
-1124.45 -152.081 2937
-1117.42 -152.081 2937
-1110.4 -152.081 2937
-1103.38 -152.081 2937
-1096.35 -152.081 2937
-1091.18 -152.34 2942
-1084.15 -152.34 2942
-1077.11 -152.34 2942
-1068.26 -152.081 2937
-1061.24 -152.081 2937
-1050.62 -151.563 2927
-1043.62 -151.563 2927
-1033.08 -151.046 2917
-1024 -150.735 2911
-1015.29 -150.476 2906
-1008.34 -150.476 2906
-1001.39 -150.476 2906
-992.731 -150.217 2901
-982.396 -149.699 2891
-975.482 -149.699 2891
-966.894 -149.44 2886
-959.993 -149.44 2886
-951.44 -149.182 2881
-944.551 -149.182 2881
-937.661 -149.182 2881
-929.157 -148.923 2876
-922.279 -148.923 2876
-915.402 -148.923 2876
-906.945 -148.664 2871
-900.08 -148.664 2871
-893.214 -148.664 2871
-886.349 -148.664 2871
-881.015 -148.923 2876
-874.138 -148.923 2876
-867.26 -148.923 2876
-858.887 -148.664 2871
-852.022 -148.664 2871
-845.156 -148.664 2871
-838.291 -148.664 2871
-829.977 -148.405 2866
-823.124 -148.405 2866
-816.27 -148.405 2866
-809.417 -148.405 2866
-802.563 -148.405 2866
-795.71 -148.405 2866
-788.857 -148.405 2866
-782.003 -148.405 2866
-774.068 -148.198 2862
-767.224 -148.198 2862
-760.38 -148.198 2862
-753.536 -148.198 2862
-745.388 -147.939 2857
-739.848 -148.198 2862
-733.004 -148.198 2862
-726.16 -148.198 2862
-718.06 -147.939 2857
-711.228 -147.939 2857
-704.396 -147.939 2857
-697.564 -147.939 2857
-690.732 -147.939 2857
-683.9 -147.939 2857
-675.883 -147.68 2852
-667.89 -147.421 2847
-661.082 -147.421 2847
-655.423 -147.68 2852
-648.603 -147.68 2852
-641.783 -147.68 2852
-636.076 -147.939 2857
-635.632 -149.44 2886
-628.73 -149.44 2886
-625.061 -150.217 2901
-625.794 -152.081 2937
-629.937 -154.826 2990
-622.787 -154.826 2990
-626.756 -157.622 3044
-627.617 -159.693 3084
-631.907 -162.696 3142
-624.393 -162.696 3142
-627.482 -165.493 3196
-636.906 -170.049 3284
-634.034 -171.396 3310
-626.118 -171.396 3310
-621.938 -172.431 3330
-615.266 -172.794 3337
-610.926 -173.829 3357
-602.898 -173.829 3357
-594.871 -173.829 3357
-586.843 -173.829 3357
-578.816 -173.829 3357
-570.788 -173.829 3357
-562.76 -173.829 3357
-555.724 -174.14 3363
-552.242 -175.59 3391
-544.133 -175.59 3391
-536.024 -175.59 3391
-527.916 -175.59 3391
-519.807 -175.59 3391
-511.698 -175.59 3391
-504.628 -175.952 3398
-497.525 -176.315 3405
-490.389 -176.677 3412
-482.23 -176.677 3412
-474.071 -176.677 3412
-465.912 -176.677 3412
-457.753 -176.677 3412
-449.594 -176.677 3412
-439.623 -175.952 3398
-430.609 -175.59 3391
-422.5 -175.59 3391
-414.391 -175.59 3391
-406.282 -175.59 3391
-398.173 -175.59 3391
-390.064 -175.59 3391
-381.955 -175.59 3391
-372.303 -174.865 3377
-363.472 -174.503 3370
-354.675 -174.14 3363
-346.633 -174.14 3363
-336.578 -173.104 3343
-327.306 -172.431 3330
-318.096 -171.758 3317
-310.164 -171.758 3317
-300.957 -171.033 3303
-293.058 -171.033 3303
-285.16 -171.033 3303
-277.261 -171.033 3303
-269.363 -171.033 3303
-261.464 -171.033 3303
-252.568 -170.36 3290
-244.701 -170.36 3290
-157.577 -113.349 2189
-152.342 -113.349 2189
-147.108 -113.349 2189
-141.549 -113.09 2184
-135.577 -112.469 2172
-130.203 -112.313 2169
-124.901 -112.21 2167
-119.719 -112.21 2167
-114.062 -111.744 2158
-108.75 -111.588 2155
-103.212 -111.174 2147
-98.078 -111.174 2147
-92.7274 -110.915 2142
-87.2372 -110.449 2133
-82.0595 -110.346 2131
-76.9636 -110.346 2131
-71.7666 -110.19 2128
-66.4899 -109.88 2122
-61.2708 -109.621 2117
-56.2085 -109.621 2117
-50.8803 -109.051 2106
-45.6701 -108.637 2098
-40.5562 -108.378 2093
-35.2965 -107.601 2078
-30.3273 -107.601 2078
-25.2606 -107.187 2070
-20.2321 -106.773 2062
-15.1899 -105.996 2047
-10.2949 -105.996 2047
-5.36034 -105.219 2032
-0.49875 -104.702 2022
4.33218 -104.598 2020
9.16261 -104.598 2020
13.993 -104.598 2020
18.7955 -104.443 2017
23.6188 -104.443 2017
28.5125 -104.702 2022
33.3478 -104.702 2022
38.2774 -104.96 2027
43.1884 -105.116 2030
48.2557 -105.582 2039
53.1316 -105.582 2039
58.2351 -105.996 2047
63.4385 -106.514 2057
68.5235 -106.773 2062
73.4544 -106.773 2062
78.9935 -107.601 2078
84.0434 -107.705 2080
89.7021 -108.533 2096
94.9402 -108.792 2101
100.107 -108.948 2104
105.538 -109.362 2112
110.589 -109.362 2112
115.913 -109.621 2117
120.975 -109.621 2117
126.216 -109.776 2120
131.781 -110.19 2128
137.191 -110.449 2133
142.292 -110.449 2133
147.6 -110.605 2136
153.137 -110.915 2142
158.628 -111.174 2147
163.763 -111.174 2147
169.526 -111.588 2155
174.679 -111.588 2155
180.083 -111.744 2158
185.243 -111.744 2158
190.404 -111.744 2158
196.108 -112.054 2164
202.306 -112.624 2175
207.507 -112.624 2175
212.708 -112.624 2175
217.909 -112.624 2175
223.418 -112.779 2178
228.626 -112.779 2178
234.156 -112.935 2181
239.701 -113.09 2184
244.924 -113.09 2184
250.146 -113.09 2184
255.369 -113.09 2184
260.592 -113.09 2184
265.814 -113.09 2184
377.453 -154.515 2984
384.589 -154.515 2984
391.725 -154.515 2984
398.192 -154.256 2979
405.316 -154.256 2979
408.009 -152.599 2947
412.239 -151.563 2927
417.806 -151.046 2917
424.782 -151.046 2917
430.129 -150.476 2906
436.326 -150.217 2901
442.499 -149.958 2896
449.425 -149.958 2896
456.35 -149.958 2896
463.275 -149.958 2896
468.577 -149.44 2886
474.654 -149.182 2881
481.543 -149.182 2881
487.585 -148.923 2876
494.463 -148.923 2876
501.34 -148.923 2876
508.217 -148.923 2876
515.095 -148.923 2876
521.065 -148.664 2871
527.93 -148.664 2871
534.795 -148.664 2871
540.718 -148.405 2866
547.571 -148.405 2866
554.424 -148.405 2866
561.278 -148.405 2866
567.339 -148.198 2862
574.182 -148.198 2862
581.026 -148.198 2862
587.87 -148.198 2862
594.714 -148.198 2862
601.558 -148.198 2862
608.402 -148.198 2862
615.246 -148.198 2862
622.09 -148.198 2862
628.934 -148.198 2862
635.778 -148.198 2862
642.622 -148.198 2862
649.465 -148.198 2862
655.163 -147.939 2857
661.995 -147.939 2857
668.827 -147.939 2857
675.659 -147.939 2857
682.491 -147.939 2857
689.323 -147.939 2857
696.154 -147.939 2857
702.986 -147.939 2857
709.818 -147.939 2857
716.65 -147.939 2857
723.482 -147.939 2857
730.314 -147.939 2857
737.146 -147.939 2857
743.978 -147.939 2857
749.496 -147.68 2852
756.316 -147.68 2852
764.474 -147.939 2857
771.306 -147.939 2857
778.138 -147.939 2857
784.97 -147.939 2857
791.802 -147.939 2857
797.236 -147.68 2852
804.056 -147.68 2852
809.455 -147.421 2847
816.263 -147.421 2847
823.071 -147.421 2847
828.421 -147.162 2842
835.217 -147.162 2842
842.013 -147.162 2842
848.809 -147.162 2842
855.605 -147.162 2842
862.402 -147.162 2842
869.198 -147.162 2842
875.994 -147.162 2842
881.237 -146.903 2837
886.456 -146.644 2832
893.228 -146.644 2832
900 -146.644 2832
903.891 -146.178 2823
913.544 -146.644 2832
921.941 -146.903 2837
930.362 -147.162 2842
937.159 -147.162 2842
945.615 -147.421 2847
955.769 -147.939 2857
962.601 -147.939 2857
969.433 -147.939 2857
976.265 -147.939 2857
1302.03 -193.247 3732
1310.96 -193.247 3732
1319.88 -193.247 3732
1328.81 -193.247 3732
1337.73 -193.247 3732
1340.88 -192.419 3716
1349.77 -192.419 3716
1349.51 -191.124 3691
1352.45 -190.296 3675
1351.98 -189.001 3650
1360.71 -189.001 3650
1366.43 -188.587 3642
1378.16 -189.001 3650
1386.89 -189.001 3650
1395.62 -189.001 3650
1401.27 -188.587 3642
1404.17 -187.81 3627
1406.61 -186.982 3611
1415.25 -186.982 3611
1420.73 -186.568 3603
1423.39 -185.791 3588
1425.59 -184.962 3572
1428.11 -184.186 3557
1436.61 -184.186 3557
1439.03 -183.409 3542
1438.5 -182.27 3520
1443.63 -181.855 3512
1452.03 -181.855 3512
1454.19 -181.079 3497
1456.7 -180.354 3483
1452.83 -178.852 3454
1461.09 -178.852 3454
1460.42 -177.765 3433
1465.63 -177.402 3426
1473.82 -177.402 3426
1478.99 -177.04 3419
1487.16 -177.04 3419
1492.28 -176.677 3412
1494.28 -175.952 3398
1499.31 -175.59 3391
1507.42 -175.59 3391
1503.02 -174.14 3363
1490.39 -171.758 3317
1495.16 -171.396 3310
1503.07 -171.396 3310
1510.99 -171.396 3310
1540.47 -173.829 3357
1573.87 -176.677 3412
1604.75 -179.215 3461
1613.02 -179.215 3461
1628.33 -179.991 3476
1663.95 -182.995 3534
1672.4 -182.995 3534
1680.85 -182.995 3534
1689.3 -182.995 3534
1704.96 -183.771 3549
1717.31 -184.186 3557
1725.81 -184.186 3557
1734.32 -184.186 3557
1798.43 -188.225 3635
1807.12 -188.225 3635
1815.81 -188.225 3635
1836.05 -189.416 3658
1844.8 -189.416 3658
1853.54 -189.416 3658
1862.29 -189.416 3658
1500.83 -141.363 2730
1507.35 -141.363 2730
1516.66 -141.621 2735
1530.44 -142.295 2748
1542.04 -142.761 2757
1548.63 -142.761 2757
1555.23 -142.761 2757
1561.82 -142.761 2757
1568.41 -142.761 2757
1572.72 -142.554 2753
1579.3 -142.554 2753
1585.89 -142.554 2753
1592.47 -142.554 2753
1596.15 -142.295 2748
1597.47 -141.829 2739
1604.02 -141.829 2739
1610.57 -141.829 2739
1614.76 -141.621 2735
1618.33 -141.363 2730
1622.48 -141.155 2726
1626.01 -140.897 2721
1632.52 -140.897 2721
1631.2 -140.223 2708
1637.67 -140.223 2708
1641.72 -140.016 2704
1648.18 -140.016 2704
1649.14 -139.55 2695
1655.59 -139.55 2695
1648.46 -138.411 2673
1660.43 -138.877 2682
1666.84 -138.877 2682
1673.26 -138.877 2682
1679.67 -138.877 2682
1686.08 -138.877 2682
1686.82 -138.411 2673
1690.67 -138.204 2669
1691.97 -137.79 2661
1698.33 -137.79 2661
1704.7 -137.79 2661
1707.84 -137.531 2656
1711.61 -137.324 2652
1712.77 -136.909 2644
1719.1 -136.909 2644
1725.42 -136.909 2644
1731.74 -136.909 2644
1735.43 -136.702 2640
1741.75 -136.702 2640
1744.75 -136.443 2635
1748.39 -136.236 2631
1754.68 -136.236 2631
1758.3 -136.029 2627
1764.58 -136.029 2627
1768.17 -135.822 2623
1771.73 -135.615 2619
1778 -135.615 2619
1786.98 -135.822 2623
1793.26 -135.822 2623
1799.53 -135.822 2623
1803.05 -135.615 2619
1809.31 -135.615 2619
1815.57 -135.615 2619
1824.62 -135.822 2623
1830.89 -135.822 2623
1837.16 -135.822 2623
1843.44 -135.822 2623
1849.71 -135.822 2623
1853.15 -135.615 2619
1859.41 -135.615 2619
1865.68 -135.615 2619
1866.22 -135.201 2611
1872.46 -135.201 2611
1875.83 -134.993 2607
1882.06 -134.993 2607
1888.3 -134.993 2607
1894.53 -134.993 2607
1897.85 -134.786 2603
1904.07 -134.786 2603
1907.36 -134.579 2599
1913.58 -134.579 2599
1916.1 -134.32 2594
1922.3 -134.32 2594
1925.53 -134.113 2590
1928.74 -133.906 2586
1931.93 -133.699 2582
1935.1 -133.492 2578
1941.27 -133.492 2578
1947.43 -133.492 2578
1953.6 -133.492 2578
1956.72 -133.285 2574
1962.88 -133.285 2574
1969.03 -133.285 2574
-2037.28 -134.378 2721
-2047.94 -135.514 2744
-2048.07 -135.959 2753
-2041.49 -135.959 2753
-2034.91 -135.959 2753
-2038.64 -136.65 2767
-2048.91 -137.786 2790
-2042.24 -137.786 2790
-2045.78 -138.477 2804
-2039.08 -138.477 2804
-2032.37 -138.477 2804
-2025.67 -138.477 2804
-2455.59 -171.269 3468
-2447.3 -171.269 3468
-2439.01 -171.269 3468
-2416 -170.232 3447
-2442.68 -172.702 3497
-2434.32 -172.702 3497
-2446.77 -174.183 3527
-2443.17 -174.529 3534
-2434.72 -174.529 3534
-2426.27 -174.529 3534
-2417.82 -174.529 3534
-2409.37 -174.529 3534
-2391.41 -173.838 3520
-2382.99 -173.838 3520
-2374.57 -173.838 3520
-2366.15 -173.838 3520
-2357.74 -173.838 3520
-2349.32 -173.838 3520
-2330.93 -173.097 3505
-2312.61 -172.356 3490
-2304.26 -172.356 3490
-2286.7 -171.665 3476
-2273.15 -171.269 3468
-2270.08 -171.665 3476
-2285.19 -173.442 3512
-2276.79 -173.442 3512
-2273.56 -173.838 3520
-2265.15 -173.838 3520
-2256.73 -173.838 3520
-2243.2 -173.442 3512
-2258.35 -175.27 3549
-2279.02 -177.541 3595
-2275.48 -177.937 3603
-2266.86 -177.937 3603
-2268.27 -178.727 3619
-2259.62 -178.727 3619
-2250.97 -178.727 3619
-2242.31 -178.727 3619
-2233.66 -178.727 3619
-2210.25 -177.541 3595
-2230.43 -179.863 3642
-2221.73 -179.863 3642
-2233.07 -181.492 3675
-2224.28 -181.492 3675
-2229.96 -182.678 3699
-2221.12 -182.678 3699
-2212.27 -182.678 3699
-2189.13 -181.492 3675
-2180.34 -181.492 3675
-2147.92 -179.517 3635
-2139.22 -179.517 3635
-2130.53 -179.517 3635
-2121.84 -179.517 3635
-2108.5 -179.122 3627
-2090.56 -178.332 3611
-2072.7 -177.541 3595
-2064.1 -177.541 3595
-2025.2 -174.924 3542
-1974.6 -171.269 3468
-2047.78 -179.122 3627
-2039.11 -179.122 3627
-2057.31 -181.492 3675
-2048.52 -181.492 3675
-2039.73 -181.492 3675
-2030.94 -181.492 3675
-2008.4 -180.258 3650
-1999.67 -180.258 3650
-1995.31 -180.653 3658
-1986.56 -180.653 3658
-1982.68 -181.097 3667
-1973.91 -181.097 3667
-1965.14 -181.097 3667
-1956.37 -181.097 3667
-1938.57 -180.258 3650
-1925.62 -179.863 3642
-1916.91 -179.863 3642
-1896.15 -178.727 3619
-1899.49 -179.863 3642
-1912.06 -181.887 3683
-1903.26 -181.887 3683
-1894.45 -181.887 3683
-1885.64 -181.887 3683
-1868.68 -181.097 3667
-1859.91 -181.097 3667
-1838.52 -179.863 3642
-1822.28 -179.122 3627
-1809.6 -178.727 3619
-1800.95 -178.727 3619
-1792.3 -178.727 3619
-1794.98 -179.863 3642
-1790.19 -180.258 3650
-1789.76 -181.097 3667
-1780.99 -181.097 3667
-1772.22 -181.097 3667
-1767.3 -181.492 3675
-1770 -182.678 3699
-1761.15 -182.678 3699
-1764.15 -183.912 3724
-1759.02 -184.307 3732
-1750.09 -184.307 3732
-1741.17 -184.307 3732
-1728.53 -183.912 3724
-1704.39 -182.282 3691
-1691.89 -181.887 3683
-1690.39 -182.678 3699
-1681.54 -182.678 3699
-1680.39 -183.517 3716
-1678.7 -184.307 3732
-1669.77 -184.307 3732
-1660.85 -184.307 3732
-1651.92 -184.307 3732
-1639.48 -183.912 3724
-1630.57 -183.912 3724
-1618.18 -183.517 3716
-1574.22 -179.517 3635
-1300.5 -156.059 3160
-1292.94 -156.059 3160
-1285.39 -156.059 3160
-1268.13 -154.873 3136
-1253.39 -153.984 3118
-1232.35 -152.305 3084
-1224.97 -152.305 3084
-1195.49 -149.54 3028
-1169.02 -147.12 2979
-1153.71 -146.083 2958
-1138.49 -145.046 2937
-1131.47 -145.046 2937
-1124.45 -145.046 2937
-1117.42 -145.046 2937
-1110.4 -145.046 2937
-1103.38 -145.046 2937
-1096.35 -145.046 2937
-1091.18 -145.293 2942
-1084.15 -145.293 2942
-1077.11 -145.293 2942
-1068.26 -145.046 2937
-1061.24 -145.046 2937
-1050.62 -144.552 2927
-1043.62 -144.552 2927
-1033.08 -144.058 2917
-1024 -143.762 2911
-1015.29 -143.515 2906
-1008.34 -143.515 2906
-1001.39 -143.515 2906
-992.731 -143.268 2901
-982.396 -142.774 2891
-975.482 -142.774 2891
-966.894 -142.527 2886
-959.993 -142.527 2886
-951.44 -142.28 2881
-944.551 -142.28 2881
-937.661 -142.28 2881
-929.157 -142.033 2876
-922.279 -142.033 2876
-915.402 -142.033 2876
-906.945 -141.786 2871
-900.08 -141.786 2871
-893.214 -141.786 2871
-886.349 -141.786 2871
-881.015 -142.033 2876
-874.138 -142.033 2876
-867.26 -142.033 2876
-858.887 -141.786 2871
-852.022 -141.786 2871
-845.156 -141.786 2871
-838.291 -141.786 2871
-829.977 -141.539 2866
-823.124 -141.539 2866
-816.27 -141.539 2866
-809.417 -141.539 2866
-802.563 -141.539 2866
-795.71 -141.539 2866
-788.857 -141.539 2866
-782.003 -141.539 2866
-774.068 -141.342 2862
-767.224 -141.342 2862
-760.38 -141.342 2862
-753.536 -141.342 2862
-745.388 -141.095 2857
-739.848 -141.342 2862
-733.004 -141.342 2862
-726.16 -141.342 2862
-718.06 -141.095 2857
-711.228 -141.095 2857
-704.396 -141.095 2857
-697.564 -141.095 2857
-690.732 -141.095 2857
-683.9 -141.095 2857
-675.883 -140.848 2852
-667.89 -140.601 2847
-661.082 -140.601 2847
-655.423 -140.848 2852
-648.603 -140.848 2852
-641.783 -140.848 2852
-636.076 -141.095 2857
-632.328 -141.786 2871
-625.462 -141.786 2871
-623.984 -143.021 2896
-621.533 -144.058 2917
-620.878 -145.54 2947
-613.831 -145.54 2947
-617.696 -148.157 3000
-619.477 -150.33 3044
-623.661 -153.145 3101
-616.246 -153.145 3101
-618.058 -155.466 3148
-633.221 -161.244 3265
-629.053 -162.182 3284
-621.2 -162.182 3284
-615.775 -162.825 3297
-611.578 -163.812 3317
-606.012 -164.454 3330
-598.049 -164.454 3330
-590.086 -164.454 3330
-582.123 -164.454 3330
-574.16 -164.454 3330
-566.197 -164.454 3330
-560.413 -165.096 3343
-554.733 -165.788 3357
-549.962 -166.775 3377
-541.887 -166.775 3377
-536.024 -167.467 3391
-527.916 -167.467 3391
-519.807 -167.467 3391
-511.698 -167.467 3391
-503.589 -167.467 3391
-497.525 -168.158 3405
-489.383 -168.158 3405
-481.241 -168.158 3405
-473.098 -168.158 3405
-464.956 -168.158 3405
-456.814 -168.158 3405
-448.671 -168.158 3405
-439.623 -167.812 3398
-430.609 -167.467 3391
-422.5 -167.467 3391
-414.391 -167.467 3391
-406.282 -167.467 3391
-398.173 -167.467 3391
-390.064 -167.467 3391
-381.955 -167.467 3391
-372.303 -166.775 3377
-363.472 -166.43 3370
-354.043 -165.788 3357
-346.015 -165.788 3357
-336.578 -165.096 3343
-326.618 -164.109 3323
-318.096 -163.812 3317
-310.164 -163.812 3317
-300.957 -163.121 3303
-292.526 -162.825 3297
-284.642 -162.825 3297
-276.758 -162.825 3297
-268.303 -162.479 3290
-259.96 -162.182 3284
-252.107 -162.182 3284
-244.254 -162.182 3284
-157.217 -107.858 2184
-151.994 -107.858 2184
-146.772 -107.858 2184
-140.966 -107.414 2175
-135.39 -107.117 2169
-130.083 -107.019 2167
-124.728 -106.871 2164
-119.554 -106.871 2164
-114.062 -106.574 2158
-108.649 -106.327 2153
-103.212 -106.031 2147
-98.078 -106.031 2147
-92.7274 -105.784 2142
-87.2372 -105.34 2133
-81.944 -105.093 2128
-76.8553 -105.093 2128
-71.7666 -105.093 2128
-66.4899 -104.796 2122
-61.2708 -104.549 2117
-56.2085 -104.549 2117
-50.8803 -104.006 2106
-45.6701 -103.611 2098
-40.5562 -103.364 2093
-35.2965 -102.623 2078
-30.3273 -102.623 2078
-25.2606 -102.228 2070
-20.2321 -101.833 2062
-15.1899 -101.092 2047
-10.2949 -101.092 2047
-5.36034 -100.352 2032
-0.49875 -99.8578 2022
4.33218 -99.759 2020
9.16261 -99.759 2020
13.993 -99.759 2020
18.7955 -99.6109 2017
23.6188 -99.6109 2017
28.5125 -99.8578 2022
33.3478 -99.8578 2022
38.2774 -100.105 2027
43.1884 -100.253 2030
48.2557 -100.697 2039
53.1316 -100.697 2039
58.2351 -101.092 2047
63.4385 -101.586 2057
68.5235 -101.833 2062
73.4544 -101.833 2062
78.9935 -102.623 2078
84.0434 -102.722 2080
89.7021 -103.512 2096
94.9402 -103.759 2101
100.107 -103.907 2104
105.538 -104.303 2112
110.589 -104.303 2112
115.913 -104.549 2117
120.975 -104.549 2117
126.216 -104.698 2120
131.595 -104.945 2125
137.191 -105.34 2133
142.292 -105.34 2133
147.6 -105.488 2136
153.137 -105.784 2142
158.628 -106.031 2147
163.763 -106.031 2147
169.369 -106.327 2153
174.679 -106.426 2155
180.083 -106.574 2158
185.243 -106.574 2158
190.404 -106.574 2158
195.836 -106.722 2161
202.027 -107.266 2172
207.221 -107.266 2172
212.708 -107.414 2175
217.909 -107.414 2175
223.11 -107.414 2175
228.311 -107.414 2175
233.834 -107.562 2178
239.701 -107.858 2184
244.924 -107.858 2184
250.146 -107.858 2184
255.369 -107.858 2184
260.592 -107.858 2184
265.814 -107.858 2184
377.453 -147.367 2984
384.589 -147.367 2984
391.725 -147.367 2984
397.524 -146.873 2974
404.635 -146.873 2974
406.624 -145.046 2937
412.239 -144.552 2927
417.806 -144.058 2917
424.782 -144.058 2917
430.129 -143.515 2906
436.326 -143.268 2901
442.499 -143.021 2896
449.425 -143.021 2896
456.35 -143.021 2896
462.475 -142.774 2891
468.577 -142.527 2886
474.654 -142.28 2881
481.543 -142.28 2881
487.585 -142.033 2876
494.463 -142.033 2876
501.34 -142.033 2876
508.217 -142.033 2876
515.095 -142.033 2876
521.065 -141.786 2871
527.93 -141.786 2871
534.795 -141.786 2871
540.718 -141.539 2866
547.571 -141.539 2866
554.424 -141.539 2866
561.278 -141.539 2866
567.339 -141.342 2862
574.182 -141.342 2862
581.026 -141.342 2862
587.87 -141.342 2862
594.714 -141.342 2862
601.558 -141.342 2862
608.402 -141.342 2862
615.246 -141.342 2862
622.09 -141.342 2862
628.934 -141.342 2862
635.778 -141.342 2862
642.622 -141.342 2862
649.465 -141.342 2862
655.163 -141.095 2857
661.995 -141.095 2857
668.827 -141.095 2857
675.659 -141.095 2857
682.491 -141.095 2857
689.323 -141.095 2857
696.154 -141.095 2857
702.986 -141.095 2857
709.818 -141.095 2857
716.65 -141.095 2857
723.482 -141.095 2857
730.314 -141.095 2857
737.146 -141.095 2857
743.978 -141.095 2857
749.496 -140.848 2852
756.316 -140.848 2852
764.474 -141.095 2857
771.306 -141.095 2857
778.138 -141.095 2857
784.97 -141.095 2857
791.802 -141.095 2857
797.236 -140.848 2852
804.056 -140.848 2852
809.455 -140.601 2847
816.263 -140.601 2847
823.071 -140.601 2847
828.421 -140.354 2842
835.217 -140.354 2842
842.013 -140.354 2842
848.809 -140.354 2842
855.605 -140.354 2842
862.402 -140.354 2842
869.198 -140.354 2842
875.994 -140.354 2842
881.237 -140.107 2837
886.456 -139.86 2832
893.228 -139.86 2832
900 -139.86 2832
903.891 -139.416 2823
913.544 -139.86 2832
921.941 -140.107 2837
930.362 -140.354 2842
937.159 -140.354 2842
945.615 -140.601 2847
955.769 -141.095 2857
962.601 -141.095 2857
969.433 -141.095 2857
976.265 -141.095 2857
1310.96 -184.307 3732
1319.88 -184.307 3732
1328.81 -184.307 3732
1337.73 -184.307 3732
1340.88 -183.517 3716
1349.77 -183.517 3716
1349.51 -182.282 3691
1352.45 -181.492 3675
1349.02 -179.863 3642
1357.73 -179.863 3642
1366.43 -179.863 3642
1378.16 -180.258 3650
1386.89 -180.258 3650
1395.62 -180.258 3650
1401.27 -179.863 3642
1401.08 -178.727 3619
1403.5 -177.937 3603
1412.11 -177.937 3603
1417.57 -177.541 3595
1420.22 -176.801 3580
1422.79 -176.06 3565
1424.9 -175.27 3549
1433.38 -175.27 3549
1432.93 -174.183 3527
1435.24 -173.442 3512
1437.47 -172.702 3497
1445.83 -172.702 3497
1451.28 -172.356 3490
1456.7 -172.01 3483
1449.89 -170.232 3447
1458.13 -170.232 3447
1460.42 -169.541 3433
1465.63 -169.195 3426
1473.82 -169.195 3426
1478.99 -168.85 3419
1487.16 -168.85 3419
1492.28 -168.504 3412
1494.28 -167.812 3398
1499.31 -167.467 3391
1507.42 -167.467 3391
1503.02 -166.084 3363
1490.39 -163.812 3317
1495.16 -163.467 3310
1503.07 -163.467 3310
1510.99 -163.467 3310
1540.47 -165.788 3357
1590.01 -170.232 3447
1607.99 -171.269 3468
1616.29 -171.269 3468
1638.17 -172.702 3497
1663.95 -174.529 3534
1676.19 -174.924 3542
1684.66 -174.924 3542
1696.47 -175.27 3549
1708.8 -175.665 3557
1724.55 -176.406 3572
1733.09 -176.406 3572
1741.63 -176.406 3572
1798.43 -179.517 3635
1807.12 -179.517 3635
1815.81 -179.517 3635
1836.05 -180.653 3658
1844.8 -180.653 3658
1853.54 -180.653 3658
1862.29 -180.653 3658
1842.91 -177.937 3603
1851.52 -177.937 3603
1503.57 -135.07 2735
1510.11 -135.07 2735
1528.85 -136.156 2757
1543.24 -136.848 2771
1549.87 -136.848 2771
1556.5 -136.848 2771
1563.12 -136.848 2771
1569.75 -136.848 2771
1576.38 -136.848 2771
1577.86 -136.403 2762
1581.6 -136.156 2757
1585.89 -135.959 2753
1592.47 -135.959 2753
1599.05 -135.959 2753
1605.64 -135.959 2753
1609.29 -135.712 2748
1615.86 -135.712 2748
1620.07 -135.514 2744
1621.3 -135.07 2735
1624.86 -134.823 2730
1629 -134.625 2726
1635.52 -134.625 2726
1636.62 -134.181 2717
1637.67 -133.736 2708
1641.72 -133.539 2704
1648.18 -133.539 2704
1654.65 -133.539 2704
1655.59 -133.094 2695
1654.02 -132.452 2682
1660.43 -132.452 2682
1666.84 -132.452 2682
1673.26 -132.452 2682
1679.67 -132.452 2682
1686.08 -132.452 2682
1692.5 -132.452 2682
1693.21 -132.008 2673
1699.6 -132.008 2673
1698.33 -131.415 2661
1704.7 -131.415 2661
1711.06 -131.415 2661
1717.42 -131.415 2661
1717.96 -130.971 2652
1724.3 -130.971 2652
1728.03 -130.773 2648
1731.74 -130.576 2644
1738.06 -130.576 2644
1744.39 -130.576 2644
1748.06 -130.378 2640
1754.37 -130.378 2640
1760.69 -130.378 2640
1760.98 -129.934 2631
1767.27 -129.934 2631
1773.56 -129.934 2631
1774.44 -129.539 2623
1780.71 -129.539 2623
1789.71 -129.736 2627
1795.99 -129.736 2627
1802.27 -129.736 2627
1808.55 -129.736 2627
1817.6 -129.934 2631
1823.89 -129.934 2631
1830.18 -129.934 2631
1836.47 -129.934 2631
1842.77 -129.934 2631
1843.44 -129.539 2623
1849.71 -129.539 2623
1858.81 -129.736 2627
1865.09 -129.736 2627
1871.37 -129.736 2627
1871.94 -129.341 2619
1878.2 -129.341 2619
1878.71 -128.946 2611
1884.95 -128.946 2611
1891.19 -128.946 2611
1897.44 -128.946 2611
1903.68 -128.946 2611
1909.93 -128.946 2611
1913.23 -128.748 2607
1913.58 -128.353 2599
1919.79 -128.353 2599
1926.01 -128.353 2599
1928.51 -128.106 2594
1931.73 -127.909 2590
1934.93 -127.711 2586
1941.11 -127.711 2586
1947.29 -127.711 2586
1953.48 -127.711 2586
1953.6 -127.316 2578
1959.76 -127.316 2578
1965.93 -127.316 2578
1969.03 -127.119 2574
-2034.28 -127.672 2717
-2047.94 -128.941 2744
-2044.35 -129.129 2748
-2037.78 -129.129 2748
-2031.21 -129.129 2748
-2028.32 -129.364 2753
-2045.24 -130.868 2785
-2038.58 -130.868 2785
-2038.49 -131.29 2794
-2031.8 -131.29 2794
-2025.12 -131.29 2794
-2018.44 -131.29 2794
-2455.59 -162.962 3468
-2447.3 -162.962 3468
-2439.01 -162.962 3468
-2425.81 -162.633 3461
-2432.9 -163.667 3483
-2424.57 -163.667 3483
-2436.36 -165.029 3512
-2438.33 -165.734 3527
-2429.9 -165.734 3527
-2421.46 -165.734 3527
-2408.24 -165.405 3520
-2389.6 -164.7 3505
-2381.22 -164.7 3505
-2372.83 -164.7 3505
-2369.17 -165.029 3512
-2360.78 -165.029 3512
-2352.38 -165.029 3512
-2343.98 -165.029 3512
-2325.61 -164.325 3497
-2298.03 -162.962 3468
-2289.73 -162.962 3468
-2267.63 -161.975 3447
-2259.38 -161.975 3447
-2251.14 -161.975 3447
-2270.88 -163.996 3490
-2262.53 -163.996 3490
-2254.19 -163.996 3490
-2245.84 -163.996 3490
-2247.11 -164.7 3505
-2238.73 -164.7 3505
-2244.35 -165.734 3527
-2254.93 -167.144 3557
-2270.42 -168.93 3595
-2261.83 -168.93 3595
-2258.25 -169.306 3603
-2249.63 -169.306 3603
-2241.01 -169.306 3603
-2223.1 -168.601 3588
-2214.52 -168.601 3588
-2205.94 -168.601 3588
-2201.65 -168.93 3595
-2193.05 -168.93 3595
-2213.02 -171.138 3642
-2219.44 -172.313 3667
-2215.49 -172.689 3675
-2206.7 -172.689 3675
-2197.92 -172.689 3675
-2165.3 -170.809 3635
-2156.61 -170.809 3635
-2143.19 -170.433 3627
-2125.1 -169.681 3611
-2116.46 -169.681 3611
-2107.83 -169.681 3611
-2099.19 -169.681 3611
-2063.93 -167.52 3565
-2042.14 -166.439 3542
-2033.67 -166.439 3542
-2004.05 -164.7 3505
-1974.6 -162.962 3468
-2003.73 -166.063 3534
-2047.78 -170.433 3627
-2039.11 -170.433 3627
-2030.44 -170.433 3627
-2030.12 -171.138 3642
-2021.42 -171.138 3642
-2012.71 -171.138 3642
-2000.15 -170.809 3635
-1991.45 -170.809 3635
-1986.58 -171.138 3642
-1977.87 -171.138 3642
-1977.81 -171.89 3658
-1969.06 -171.89 3658
-1960.32 -171.89 3658
-1947.3 -171.514 3650
-1934.32 -171.138 3642
-1909.22 -169.681 3611
-1900.59 -169.681 3611
-1887.76 -169.306 3603
-1891.66 -170.433 3627
-1899.09 -171.89 3658
-1894.99 -172.313 3667
-1886.22 -172.313 3667
-1877.45 -172.313 3667
-1864.1 -171.89 3658
-1855.35 -171.89 3658
-1830.95 -170.433 3627
-1818.26 -170.057 3619
-1809.6 -170.057 3619
-1800.95 -170.057 3619
-1792.3 -170.057 3619
-1787.59 -170.433 3627
-1790.19 -171.514 3650
-1789.76 -172.313 3667
-1780.99 -172.313 3667
-1772.22 -172.313 3667
-1763.46 -172.313 3667
-1758.51 -172.689 3675
-1749.73 -172.689 3675
-1764.15 -174.991 3724
-1759.02 -175.367 3732
-1750.09 -175.367 3732
-1741.17 -175.367 3732
-1716.93 -173.817 3699
-1700.69 -173.065 3683
-1691.89 -173.065 3683
-1683.08 -173.065 3683
-1674.27 -173.065 3683
-1672.7 -173.817 3699
-1671.5 -174.615 3716
-1662.61 -174.615 3716
-1653.73 -174.615 3716
-1644.84 -174.615 3716
-1628.47 -173.817 3699
-1619.63 -173.817 3699
-1600.33 -172.689 3675
-1574.22 -170.809 3635
-1555.19 -169.681 3611
-1546.55 -169.681 3611
-1514.92 -167.144 3557
-1506.42 -167.144 3557
-1307.91 -149.335 3178
-1300.31 -149.335 3178
-1292.71 -149.335 3178
-1277.83 -148.489 3160
-1255.8 -146.797 3124
-1234.35 -145.153 3089
-1226.96 -145.153 3089
-1201.81 -143.038 3044
-1177.26 -140.97 3000
-1153.71 -138.997 2958
-1138.49 -138.01 2937
-1131.47 -138.01 2937
-1124.45 -138.01 2937
-1117.42 -138.01 2937
-1110.4 -138.01 2937
-1103.38 -138.01 2937
-1096.35 -138.01 2937
-1091.18 -138.245 2942
-1084.15 -138.245 2942
-1077.11 -138.245 2942
-1070.08 -138.245 2942
-1063.04 -138.245 2942
-1048.83 -137.305 2922
-1041.84 -137.305 2922
-1033.08 -137.07 2917
-1024 -136.788 2911
-1017.04 -136.788 2911
-1010.08 -136.788 2911
-1001.39 -136.553 2906
-994.442 -136.553 2906
-982.396 -135.849 2891
-975.482 -135.849 2891
-968.569 -135.849 2891
-959.993 -135.614 2886
-953.091 -135.614 2886
-946.19 -135.614 2886
-937.661 -135.379 2881
-930.772 -135.379 2881
-922.279 -135.144 2876
-915.402 -135.144 2876
-908.525 -135.144 2876
-900.08 -134.909 2871
-893.214 -134.909 2871
-887.892 -135.144 2876
-881.015 -135.144 2876
-874.138 -135.144 2876
-867.26 -135.144 2876
-860.383 -135.144 2876
-853.505 -135.144 2876
-845.156 -134.909 2871
-838.291 -134.909 2871
-831.425 -134.909 2871
-824.56 -134.909 2871
-817.694 -134.909 2871
-810.829 -134.909 2871
-803.964 -134.909 2871
-797.098 -134.909 2871
-788.857 -134.674 2866
-782.003 -134.674 2866
-775.15 -134.674 2866
-768.296 -134.674 2866
-760.38 -134.486 2862
-753.536 -134.486 2862
-746.692 -134.486 2862
-739.848 -134.486 2862
-733.004 -134.486 2862
-726.16 -134.486 2862
-719.316 -134.486 2862
-712.473 -134.486 2862
-705.629 -134.486 2862
-697.564 -134.251 2857
-690.732 -134.251 2857
-683.9 -134.251 2857
-677.068 -134.251 2857
-669.063 -134.016 2852
-662.243 -134.016 2852
-655.423 -134.016 2852
-648.603 -134.016 2852
-641.783 -134.016 2852
-636.076 -134.251 2857
-632.328 -134.909 2871
-625.462 -134.909 2871
-621.829 -135.614 2886
-618.124 -136.318 2901
-614.557 -137.07 2917
-607.582 -137.07 2917
-613.372 -139.984 2979
-612.761 -141.487 3011
-612.197 -143.038 3044
-604.918 -143.038 3044
-618.058 -147.925 3148
-634.385 -153.705 3271
-627.904 -154.034 3278
-620.065 -154.034 3278
-615.775 -154.927 3297
-608.997 -155.208 3303
-603.647 -155.866 3317
-595.715 -155.866 3317
-587.783 -155.866 3317
-579.851 -155.866 3317
-571.919 -155.866 3317
-563.987 -155.866 3317
-557.061 -156.148 3323
-553.576 -157.417 3350
-547.682 -158.028 3363
-539.64 -158.028 3363
-533.811 -158.686 3377
-525.736 -158.686 3377
-518.734 -159.015 3384
-510.641 -159.015 3384
-504.628 -159.673 3398
-496.503 -159.673 3398
-489.383 -160.001 3405
-481.241 -160.001 3405
-473.098 -160.001 3405
-464.956 -160.001 3405
-456.814 -160.001 3405
-448.671 -160.001 3405
-440.529 -160.001 3405
-431.497 -159.673 3398
-423.372 -159.673 3398
-415.246 -159.673 3398
-406.282 -159.344 3391
-398.173 -159.344 3391
-390.064 -159.344 3391
-381.955 -159.344 3391
-372.303 -158.686 3377
-363.472 -158.357 3370
-354.043 -157.746 3357
-346.015 -157.746 3357
-336.578 -157.088 3343
-326.618 -156.148 3323
-318.096 -155.866 3317
-310.164 -155.866 3317
-300.957 -155.208 3303
-292.526 -154.927 3297
-284.037 -154.598 3290
-276.17 -154.598 3290
-268.303 -154.598 3290
-259.485 -154.034 3278
-250.649 -153.423 3265
-242.841 -153.423 3265
-234.098 -152.812 3252
-150.811 -101.828 2167
-145.629 -101.828 2167
-140.447 -101.828 2167
-135.078 -101.687 2164
-129.903 -101.687 2164
-124.383 -101.405 2158
-119.222 -101.405 2158
-113.798 -101.17 2153
-108.346 -100.888 2147
-102.972 -100.653 2142
-97.8496 -100.653 2142
-92.4677 -100.371 2136
-87.1554 -100.136 2131
-81.944 -99.995 2128
-76.8553 -99.995 2128
-71.5642 -99.7131 2122
-66.4899 -99.7131 2122
-61.2708 -99.4781 2117
-56.2085 -99.4781 2117
-50.8803 -98.9613 2106
-45.6701 -98.5853 2098
-40.5562 -98.3504 2093
-35.2965 -97.6455 2078
-30.3273 -97.6455 2078
-25.285 -97.3636 2072
-20.2321 -96.8937 2062
-15.1899 -96.1888 2047
-10.2949 -96.1888 2047
-5.36034 -95.484 2032
-0.49875 -95.0141 2022
4.33218 -94.9201 2020
9.16261 -94.9201 2020
13.9723 -94.7791 2017
18.7955 -94.7791 2017
23.5954 -94.6852 2015
28.4843 -94.9201 2020
33.3148 -94.9201 2020
38.2396 -95.1551 2025
43.1884 -95.39 2030
48.2557 -95.8129 2039
53.2098 -95.9539 2042
58.2351 -96.1888 2047
63.4385 -96.6587 2057
68.5235 -96.8937 2062
73.4544 -96.8937 2062
78.9935 -97.6455 2078
84.0434 -97.7395 2080
89.7021 -98.4913 2096
94.7142 -98.4913 2096
100.107 -98.8673 2104
105.538 -99.2432 2112
110.693 -99.3372 2114
116.077 -99.6191 2120
121.147 -99.6191 2120
126.335 -99.7131 2122
131.595 -99.8541 2125
137.191 -100.23 2133
142.292 -100.23 2133
147.807 -100.512 2139
153.137 -100.653 2142
158.407 -100.747 2144
163.534 -100.747 2144
169.369 -101.17 2153
174.679 -101.264 2155
179.832 -101.264 2155
184.986 -101.264 2155
190.139 -101.264 2155
195.564 -101.405 2158
202.027 -102.063 2172
207.221 -102.063 2172
212.415 -102.063 2172
217.909 -102.204 2175
223.11 -102.204 2175
228.311 -102.204 2175
233.512 -102.204 2175
239.701 -102.626 2184
245.148 -102.72 2186
250.375 -102.72 2186
255.603 -102.72 2186
260.83 -102.72 2186
266.058 -102.72 2186
373.048 -141.252 3006
380.236 -141.252 3006
387.424 -141.252 3006
393.169 -140.735 2995
396.722 -139.467 2968
403.819 -139.467 2968
406.624 -138.01 2937
412.239 -137.54 2927
418.523 -137.305 2922
425.51 -137.305 2922
430.129 -136.553 2906
436.326 -136.318 2901
442.499 -136.083 2896
449.425 -136.083 2896
456.35 -136.083 2896
463.275 -136.083 2896
469.388 -135.849 2891
475.478 -135.614 2886
482.379 -135.614 2886
488.433 -135.379 2881
494.463 -135.144 2876
501.34 -135.144 2876
508.217 -135.144 2876
515.095 -135.144 2876
521.972 -135.144 2876
528.849 -135.144 2876
535.727 -135.144 2876
541.661 -134.909 2871
547.571 -134.674 2866
554.424 -134.674 2866
561.278 -134.674 2866
568.131 -134.674 2866
574.182 -134.486 2862
581.026 -134.486 2862
587.87 -134.486 2862
594.714 -134.486 2862
601.558 -134.486 2862
608.402 -134.486 2862
615.246 -134.486 2862
622.09 -134.486 2862
628.934 -134.486 2862
635.778 -134.486 2862
642.622 -134.486 2862
649.465 -134.486 2862
656.309 -134.486 2862
663.153 -134.486 2862
669.997 -134.486 2862
676.841 -134.486 2862
683.685 -134.486 2862
690.529 -134.486 2862
696.154 -134.251 2857
704.217 -134.486 2862
711.061 -134.486 2862
717.905 -134.486 2862
723.482 -134.251 2857
730.314 -134.251 2857
737.146 -134.251 2857
743.978 -134.251 2857
750.81 -134.251 2857
757.642 -134.251 2857
764.474 -134.251 2857
771.306 -134.251 2857
778.138 -134.251 2857
784.97 -134.251 2857
791.802 -134.251 2857
797.236 -134.016 2852
804.056 -134.016 2852
810.876 -134.016 2852
817.696 -134.016 2852
823.071 -133.781 2847
829.879 -133.781 2847
836.687 -133.781 2847
843.495 -133.781 2847
850.303 -133.781 2847
857.111 -133.781 2847
863.919 -133.781 2847
870.727 -133.781 2847
877.535 -133.781 2847
882.79 -133.546 2842
888.021 -133.311 2837
894.805 -133.311 2837
900 -133.076 2832
903.891 -132.653 2823
915.157 -133.311 2837
923.566 -133.546 2842
933.636 -134.016 2852
940.456 -134.016 2852
948.937 -134.251 2857
957.441 -134.486 2862
964.285 -134.486 2862
971.129 -134.486 2862
977.973 -134.486 2862
1308.15 -174.991 3724
1317.05 -174.991 3724
1325.96 -174.991 3724
1334.86 -174.991 3724
1340.88 -174.615 3716
1349.77 -174.615 3716
1346.59 -173.065 3683
1349.51 -172.313 3667
1349.02 -171.138 3642
1357.73 -171.138 3642
1366.43 -171.138 3642
1375.14 -171.138 3642
1383.85 -171.138 3642
1392.56 -171.138 3642
1398.58 -170.809 3635
1401.08 -170.057 3619
1400.38 -168.93 3595
1408.98 -168.93 3595
1414.81 -168.601 3588
1420.22 -168.225 3580
1416.41 -166.768 3549
1416.06 -165.734 3527
1424.5 -165.734 3527
1430.09 -165.405 3520
1435.24 -165.029 3512
1434.59 -163.996 3490
1442.94 -163.996 3490
1448.37 -163.667 3483
1447.5 -162.633 3461
1446.94 -161.646 3440
1455.17 -161.646 3440
1457.44 -160.988 3426
1465.63 -160.988 3426
1473.82 -160.988 3426
1478.99 -160.659 3419
1487.16 -160.659 3419
1492.28 -160.33 3412
1494.28 -159.673 3398
1499.31 -159.344 3391
1507.42 -159.344 3391
1503.02 -158.028 3363
1490.39 -155.866 3317
1495.16 -155.537 3310
1503.07 -155.537 3310
1510.99 -155.537 3310
1540.47 -157.746 3357
1590.01 -161.975 3447
1607.99 -162.962 3468
1616.29 -162.962 3468
1638.17 -164.325 3497
1663.95 -166.063 3534
1676.19 -166.439 3542
1684.66 -166.439 3542
1696.47 -166.768 3549
1708.8 -167.144 3557
1724.55 -167.849 3572
1733.09 -167.849 3572
1741.63 -167.849 3572
1798.43 -170.809 3635
1807.12 -170.809 3635
1815.81 -170.809 3635
1824.5 -170.809 3635
1833.2 -170.809 3635
1841.89 -170.809 3635
1834.29 -169.306 3603
1842.91 -169.306 3603
1851.52 -169.306 3603
1503.57 -128.518 2735
1510.11 -128.518 2735
1528.85 -129.552 2757
1543.24 -130.21 2771
1549.87 -130.21 2771
1556.5 -130.21 2771
1563.12 -130.21 2771
1569.75 -130.21 2771
1576.38 -130.21 2771
1577.86 -129.787 2762
1581.6 -129.552 2757
1585.89 -129.364 2753
1592.47 -129.364 2753
1599.05 -129.364 2753
1605.64 -129.364 2753
1609.29 -129.129 2748
1615.86 -129.129 2748
1620.07 -128.941 2744
1621.3 -128.518 2735
1624.86 -128.283 2730
1629 -128.095 2726
1635.52 -128.095 2726
1636.62 -127.672 2717
1637.67 -127.249 2708
1641.72 -127.061 2704
1648.18 -127.061 2704
1654.65 -127.061 2704
1655.59 -126.638 2695
1654.02 -126.028 2682
1660.43 -126.028 2682
1666.84 -126.028 2682
1673.26 -126.028 2682
1679.67 -126.028 2682
1686.08 -126.028 2682
1692.5 -126.028 2682
1693.21 -125.605 2673
1699.6 -125.605 2673
1698.33 -125.041 2661
1704.7 -125.041 2661
1711.06 -125.041 2661
1717.42 -125.041 2661
1717.96 -124.618 2652
1724.3 -124.618 2652
1728.03 -124.43 2648
1731.74 -124.242 2644
1738.06 -124.242 2644
1744.39 -124.242 2644
1748.06 -124.054 2640
1754.37 -124.054 2640
1760.69 -124.054 2640
1760.98 -123.631 2631
1767.27 -123.631 2631
1773.56 -123.631 2631
1774.44 -123.255 2623
1780.71 -123.255 2623
1789.71 -123.443 2627
1795.99 -123.443 2627
1802.27 -123.443 2627
1808.55 -123.443 2627
1817.6 -123.631 2631
1823.89 -123.631 2631
1830.18 -123.631 2631
1836.47 -123.631 2631
1842.77 -123.631 2631
1843.44 -123.255 2623
1849.71 -123.255 2623
1858.81 -123.443 2627
1865.09 -123.443 2627
1871.37 -123.443 2627
1871.94 -123.067 2619
1878.2 -123.067 2619
1878.71 -122.691 2611
1884.95 -122.691 2611
1891.19 -122.691 2611
1897.44 -122.691 2611
1903.68 -122.691 2611
1909.93 -122.691 2611
1913.23 -122.503 2607
1913.58 -122.127 2599
1919.79 -122.127 2599
1926.01 -122.127 2599
1928.51 -121.892 2594
1931.73 -121.704 2590
1934.93 -121.517 2586
1941.11 -121.517 2586
1947.29 -121.517 2586
1953.48 -121.517 2586
1953.6 -121.141 2578
1959.76 -121.141 2578
1965.93 -121.141 2578
1969.03 -120.953 2574
-2034.28 -121.164 2717
-2047.94 -122.368 2744
-2044.35 -122.546 2748
-2037.78 -122.546 2748
-2031.21 -122.546 2748
-2024.64 -122.546 2748
-2048.91 -124.419 2790
-2042.24 -124.419 2790
-2038.49 -124.597 2794
-2031.8 -124.597 2794
-2025.12 -124.597 2794
-2018.44 -124.597 2794
-2455.59 -154.654 3468
-2447.3 -154.654 3468
-2439.01 -154.654 3468
-2425.81 -154.342 3461
-2432.9 -155.323 3483
-2424.57 -155.323 3483
-2436.36 -156.616 3512
-2438.33 -157.285 3527
-2429.9 -157.285 3527
-2421.46 -157.285 3527
-2408.24 -156.973 3520
-2389.6 -156.304 3505
-2381.22 -156.304 3505
-2372.83 -156.304 3505
-2369.17 -156.616 3512
-2360.78 -156.616 3512
-2352.38 -156.616 3512
-2343.98 -156.616 3512
-2325.61 -155.947 3497
-2293.39 -154.342 3461
-2285.11 -154.342 3461
-2272.23 -154.03 3454
-2259.38 -153.718 3447
-2246.57 -153.406 3440
-2270.88 -155.635 3490
-2262.53 -155.635 3490
-2254.19 -155.635 3490
-2245.84 -155.635 3490
-2237.49 -155.635 3490
-2229.15 -155.635 3490
-2230.35 -156.304 3505
-2240.35 -157.597 3534
-2255.9 -159.292 3572
-2247.36 -159.292 3572
-2243.83 -159.649 3580
-2235.27 -159.649 3580
-2226.71 -159.649 3580
-2218.15 -159.649 3580
-2190.45 -158.266 3549
-2191.8 -158.98 3565
-2197.36 -160.006 3588
-2188.78 -160.006 3588
-2184.46 -160.318 3595
-2200.07 -162.102 3635
-2191.38 -162.102 3635
-2182.69 -162.102 3635
-2173.99 -162.102 3635
-2151 -161.031 3611
-2142.37 -161.031 3611
-2110.69 -159.292 3572
-2102.15 -159.292 3572
-2093.61 -159.292 3572
-2085.06 -159.292 3572
-2067.8 -158.623 3557
-2050.61 -157.954 3542
-2020.81 -156.304 3505
-2012.43 -156.304 3505
-1978.89 -154.342 3461
-1974.6 -154.654 3468
-2003.73 -157.597 3534
-2029.72 -160.318 3595
-2021.12 -160.318 3595
-2021.48 -161.031 3611
-2021.76 -161.745 3627
-2013.09 -161.745 3627
-2004.42 -161.745 3627
-1986.94 -161.031 3611
-1982.69 -161.388 3619
-1986.58 -162.414 3642
-1977.87 -162.414 3642
-1969.16 -162.414 3642
-1960.45 -162.414 3642
-1951.74 -162.414 3642
-1943.03 -162.414 3642
-1922.11 -161.388 3619
-1904.99 -160.674 3603
-1896.38 -160.674 3603
-1887.76 -160.674 3603
-1883.32 -161.031 3611
-1890.78 -162.414 3642
-1882.07 -162.414 3642
-1873.36 -162.414 3642
-1864.65 -162.414 3642
-1848.3 -161.745 3627
-1839.62 -161.745 3627
-1826.91 -161.388 3619
-1802.68 -160.006 3588
-1790.1 -159.649 3580
-1781.54 -159.649 3580
-1780.41 -160.318 3595
-1771.81 -160.318 3595
-1774.99 -161.388 3619
-1766.33 -161.388 3619
-1757.68 -161.388 3619
-1749.03 -161.388 3619
-1744.22 -161.745 3627
-1746.55 -162.77 3650
-1737.82 -162.77 3650
-1729.1 -162.77 3650
-1720.37 -162.77 3650
-1711.64 -162.77 3650
-1702.91 -162.77 3650
-1694.18 -162.77 3650
-1674.83 -161.745 3627
-1662.48 -161.388 3619
-1661.14 -162.102 3635
-1652.45 -162.102 3635
-1654.16 -163.127 3658
-1653.06 -163.885 3675
-1644.27 -163.885 3675
-1635.48 -163.885 3675
-1626.69 -163.885 3675
-1610.42 -163.127 3658
-1601.67 -163.127 3658
-1582.91 -162.102 3635
-1563.82 -161.031 3611
-1555.19 -161.031 3611
-1546.55 -161.031 3611
-1537.92 -161.031 3611
-1525.9 -160.674 3603
-1497.91 -158.623 3557
-1489.4 -158.623 3557
-1307.91 -141.722 3178
-1300.31 -141.722 3178
-1292.71 -141.722 3178
-1277.83 -140.919 3160
-1255.8 -139.314 3124
-1234.35 -137.753 3089
-1226.96 -137.753 3089
-1201.81 -135.746 3044
-1177.26 -133.784 3000
-1153.71 -131.911 2958
-1138.49 -130.974 2937
-1131.47 -130.974 2937
-1124.45 -130.974 2937
-1117.42 -130.974 2937
-1110.4 -130.974 2937
-1103.38 -130.974 2937
-1096.35 -130.974 2937
-1091.18 -131.197 2942
-1084.15 -131.197 2942
-1077.11 -131.197 2942
-1070.08 -131.197 2942
-1063.04 -131.197 2942
-1050.62 -130.529 2927
-1043.62 -130.529 2927
-1034.85 -130.306 2922
-1026.11 -130.083 2917
-1017.04 -129.815 2911
-1010.08 -129.815 2911
-1003.11 -129.815 2911
-994.442 -129.592 2906
-984.095 -129.146 2896
-977.169 -129.146 2896
-968.569 -128.923 2891
-959.993 -128.7 2886
-953.091 -128.7 2886
-946.19 -128.7 2886
-939.289 -128.7 2886
-932.387 -128.7 2886
-923.883 -128.477 2881
-916.993 -128.477 2881
-908.525 -128.254 2876
-901.647 -128.254 2876
-894.77 -128.254 2876
-887.892 -128.254 2876
-881.015 -128.254 2876
-874.138 -128.254 2876
-867.26 -128.254 2876
-860.383 -128.254 2876
-853.505 -128.254 2876
-845.156 -128.031 2871
-838.291 -128.031 2871
-831.425 -128.031 2871
-824.56 -128.031 2871
-817.694 -128.031 2871
-810.829 -128.031 2871
-803.964 -128.031 2871
-797.098 -128.031 2871
-790.233 -128.031 2871
-782.003 -127.808 2866
-775.15 -127.808 2866
-768.296 -127.808 2866
-760.38 -127.63 2862
-753.536 -127.63 2862
-746.692 -127.63 2862
-739.848 -127.63 2862
-733.004 -127.63 2862
-726.16 -127.63 2862
-719.316 -127.63 2862
-712.473 -127.63 2862
-705.629 -127.63 2862
-698.785 -127.63 2862
-691.941 -127.63 2862
-685.097 -127.63 2862
-677.068 -127.407 2857
-670.236 -127.407 2857
-662.243 -127.184 2852
-655.423 -127.184 2852
-648.603 -127.184 2852
-642.908 -127.407 2857
-636.076 -127.407 2857
-632.328 -128.031 2871
-625.462 -128.031 2871
-621.829 -128.7 2886
-618.124 -129.369 2901
-613.293 -129.815 2911
-606.332 -129.815 2911
-609.048 -131.911 2958
-609.505 -133.561 2995
-609.985 -135.256 3033
-602.732 -135.256 3033
-618.058 -140.384 3148
-634.385 -145.869 3271
-627.904 -146.181 3278
-620.065 -146.181 3278
-615.775 -147.029 3297
-608.997 -147.296 3303
-603.647 -147.92 3317
-595.715 -147.92 3317
-587.783 -147.92 3317
-579.851 -147.92 3317
-571.919 -147.92 3317
-563.987 -147.92 3317
-556.055 -147.92 3317
-551.428 -148.812 3337
-545.565 -149.392 3350
-537.554 -149.392 3350
-532.705 -150.284 3370
-524.646 -150.284 3370
-516.588 -150.284 3370
-508.529 -150.284 3370
-504.628 -151.533 3398
-496.503 -151.533 3398
-489.383 -151.845 3405
-481.241 -151.845 3405
-473.098 -151.845 3405
-464.956 -151.845 3405
-456.814 -151.845 3405
-448.671 -151.845 3405
-440.529 -151.845 3405
-431.497 -151.533 3398
-423.372 -151.533 3398
-415.246 -151.533 3398
-406.282 -151.22 3391
-398.173 -151.22 3391
-389.259 -150.908 3384
-381.167 -150.908 3384
-372.303 -150.596 3377
-362.717 -149.972 3363
-353.304 -149.392 3350
-345.294 -149.392 3350
-337.283 -149.392 3350
-326.028 -147.92 3317
-317.425 -147.608 3310
-309.51 -147.608 3310
-300.957 -147.296 3303
-291.905 -146.716 3290
-284.037 -146.716 3290
-276.17 -146.716 3290
-267.813 -146.449 3284
-258.456 -145.602 3265
-250.649 -145.602 3265
-242.841 -145.602 3265
-235.033 -145.602 3265
-149.211 -95.6109 2144
-144.285 -95.7447 2147
-139.151 -95.7447 2147
-134.017 -95.7447 2147
-128.703 -95.6109 2144
-123.576 -95.6109 2144
-118.449 -95.6109 2144
-113.216 -95.5217 2142
-107.943 -95.3879 2139
-102.683 -95.2542 2136
-97.5755 -95.2542 2136
-92.3378 -95.1204 2133
-86.91 -94.7636 2125
-81.8285 -94.7636 2125
-76.7469 -94.7636 2125
-71.5642 -94.6298 2122
-66.4899 -94.6298 2122
-61.2708 -94.4069 2117
-56.2085 -94.4069 2117
-50.9528 -94.0501 2109
-45.7354 -93.6933 2101
-40.6144 -93.4704 2096
-35.3304 -92.7569 2080
-30.3565 -92.7569 2080
-25.3216 -92.5339 2075
-20.2321 -91.9541 2062
-15.1899 -91.2852 2047
-10.2949 -91.2852 2047
-5.36034 -90.6163 2032
-0.498256 -90.0812 2020
4.32574 -89.9474 2017
9.149 -89.9474 2017
13.9723 -89.9474 2017
18.7769 -89.8582 2015
23.5954 -89.8582 2015
28.442 -89.9474 2017
33.2653 -89.9474 2017
38.1452 -90.0812 2020
43.1246 -90.3933 2027
48.0901 -90.6163 2032
53.2098 -91.0623 2042
58.0928 -91.0623 2042
63.1917 -91.3744 2049
68.6232 -92.0879 2065
73.5613 -92.0879 2065
78.9935 -92.6677 2078
84.1646 -92.8906 2083
89.7021 -93.4704 2096
94.7142 -93.4704 2096
100.107 -93.8271 2104
105.538 -94.1839 2112
110.693 -94.2731 2114
116.077 -94.5406 2120
121.147 -94.5406 2120
126.335 -94.6298 2122
131.781 -94.8974 2128
137.191 -95.1204 2133
142.292 -95.1204 2133
147.807 -95.3879 2139
153.137 -95.5217 2142
158.407 -95.6109 2144
163.534 -95.6109 2144
169.133 -95.8785 2150
174.679 -96.1014 2155
179.832 -96.1014 2155
184.986 -96.1014 2155
190.139 -96.1014 2155
195.564 -96.2352 2158
201.748 -96.7258 2169
206.934 -96.7258 2169
212.415 -96.8596 2172
217.608 -96.8596 2172
222.802 -96.8596 2172
227.996 -96.8596 2172
233.512 -96.9933 2175
239.701 -97.3947 2184
245.484 -97.6177 2189
250.719 -97.6177 2189
255.954 -97.6177 2189
260.83 -97.4839 2186
366.468 -134.274 3011
373.668 -134.274 3011
380.869 -134.274 3011
387.424 -134.051 3006
393.169 -133.561 2995
396.722 -132.357 2968
403.819 -132.357 2968
407.317 -131.197 2942
413.648 -130.974 2937
418.523 -130.306 2922
425.51 -130.306 2922
430.869 -129.815 2911
437.078 -129.592 2906
443.263 -129.369 2901
450.201 -129.369 2901
457.138 -129.369 2901
463.275 -129.146 2896
470.2 -129.146 2896
476.302 -128.923 2891
483.215 -128.923 2891
489.28 -128.7 2886
496.182 -128.7 2886
502.211 -128.477 2881
509.101 -128.477 2881
515.99 -128.477 2881
521.972 -128.254 2876
528.849 -128.254 2876
535.727 -128.254 2876
542.604 -128.254 2876
549.482 -128.254 2876
555.392 -128.031 2871
562.257 -128.031 2871
569.123 -128.031 2871
574.985 -127.808 2866
581.838 -127.808 2866
588.692 -127.808 2866
595.545 -127.808 2866
602.399 -127.808 2866
609.252 -127.808 2866
616.106 -127.808 2866
622.959 -127.808 2866
629.813 -127.808 2866
636.666 -127.808 2866
643.52 -127.808 2866
650.373 -127.808 2866
656.309 -127.63 2862
663.153 -127.63 2862
669.997 -127.63 2862
676.841 -127.63 2862
683.685 -127.63 2862
690.529 -127.63 2862
697.373 -127.63 2862
704.217 -127.63 2862
711.061 -127.63 2862
717.905 -127.63 2862
724.748 -127.63 2862
731.592 -127.63 2862
738.436 -127.63 2862
745.28 -127.63 2862
750.81 -127.407 2857
757.642 -127.407 2857
764.474 -127.407 2857
771.306 -127.407 2857
778.138 -127.407 2857
784.97 -127.407 2857
791.802 -127.407 2857
798.634 -127.407 2857
805.466 -127.407 2857
810.876 -127.184 2852
817.696 -127.184 2852
824.516 -127.184 2852
829.879 -126.961 2847
836.687 -126.961 2847
