ply
format ascii 1.0
comment File generated
element vertex 2260
property float x
property float y
property float z
end_header
52.5583 141.976 2017
57.3247 141.835 2015
61.989 141.483 2010
67.0281 141.976 2017
72.2076 142.68 2027
77.0548 142.68 2027
82.306 143.384 2037
87.3911 143.736 2042
93.0875 145.003 2060
98.0136 145.003 2060
103.439 145.707 2070
109.07 146.622 2083
114.489 147.185 2091
119.489 147.185 2091
125.561 148.452 2109
131.1 149.015 2117
137.384 150.353 2136
142.492 150.353 2136
148.015 150.775 2142
153.494 151.127 2147
158.85 151.338 2150
163.991 151.338 2150
169.369 151.549 2153
174.922 151.901 2158
180.083 151.901 2158
185.243 151.901 2158
190.668 152.112 2161
196.108 152.323 2164
202.027 152.887 2172
207.221 152.887 2172
212.708 153.098 2175
217.909 153.098 2175
225.162 154.506 2195
230.411 154.506 2195
235.982 154.717 2198
241.567 154.928 2201
249.073 156.336 2221
254.384 156.336 2221
259.695 156.336 2221
444.21 222.009 3154
451.752 222.009 3154
459.294 222.009 3154
465.06 221.165 3142
469.867 219.898 3124
468.628 215.885 3067
475.962 215.885 3067
483.296 215.885 3067
487.91 214.689 3050
491.632 213.14 3028
498.873 213.14 3028
504.275 212.366 3017
506.912 210.465 2990
511.311 209.339 2974
517.377 208.917 2968
524.475 208.917 2968
531.572 208.917 2968
536.854 208.213 2958
543.928 208.213 2958
551.001 208.213 2958
558.075 208.213 2958
564.193 207.861 2953
570.094 207.439 2947
577.141 207.439 2947
583.197 207.087 2942
590.232 207.087 2942
597.268 207.087 2942
604.303 207.087 2942
611.338 207.087 2942
618.373 207.087 2942
624.345 206.735 2937
631.369 206.735 2937
638.392 206.735 2937
645.415 206.735 2937
652.438 206.735 2937
658.339 206.383 2932
665.35 206.383 2932
672.362 206.383 2932
678.214 206.031 2927
685.214 206.031 2927
692.213 206.031 2927
699.212 206.031 2927
706.212 206.031 2927
713.211 206.031 2927
720.21 206.031 2927
727.21 206.031 2927
735.463 206.383 2932
742.475 206.383 2932
749.486 206.383 2932
756.497 206.383 2932
762.207 206.031 2927
769.206 206.031 2927
776.205 206.031 2927
783.205 206.031 2927
790.204 206.031 2927
797.203 206.031 2927
804.203 206.031 2927
811.202 206.031 2927
818.201 206.031 2927
823.791 205.679 2922
832.2 206.031 2927
839.199 206.031 2927
846.199 206.031 2927
853.198 206.031 2927
860.197 206.031 2927
867.197 206.031 2927
874.196 206.031 2927
881.195 206.031 2927
888.195 206.031 2927
895.194 206.031 2927
900.652 205.679 2922
906.087 205.327 2917
914.627 205.679 2922
923.191 206.031 2927
930.191 206.031 2927
943.594 207.439 2947
950.641 207.439 2947
957.688 207.439 2947
964.735 207.439 2947
965.188 206.031 2927
966.873 204.905 2911
1431.35 282.967 4020
1440.96 282.967 4020
1450.58 282.967 4020
1432.58 277.617 3944
1418.62 273.112 3880
1414.65 270.578 3844
1414.21 268.748 3818
1423.34 268.748 3818
1419.34 266.285 3783
1412.15 263.258 3740
1411.97 261.568 3716
1420.86 261.568 3716
1426.28 260.935 3707
1425.85 259.246 3683
1428.43 258.119 3667
1437.2 258.119 3667
1439.26 256.923 3650
1442.04 255.867 3635
1447.54 255.304 3627
1434.13 251.432 3572
1442.67 251.432 3572
1423.99 246.716 3505
1394.37 240.17 3412
1382.39 236.721 3363
1390.43 236.721 3363
1387.66 234.891 3337
1373.47 231.16 3284
1370.39 229.33 3258
1362.53 226.725 3221
1377.89 227.993 3239
1385.63 227.993 3239
1426.93 233.483 3317
1443.52 234.891 3337
1474.98 238.692 3391
1483.09 238.692 3391
1509.67 241.648 3433
1520.98 242.141 3440
1529.2 242.141 3440
1537.43 242.141 3440
1545.66 242.141 3440
1576.47 245.66 3490
1584.81 245.66 3490
1593.16 245.66 3490
1444.07 215.885 3067
1451.4 215.885 3067
1458.73 215.885 3067
1463.2 215.463 3061
1449.38 212.366 3017
1430.53 208.565 2963
1425 206.735 2937
1432.02 206.735 2937
1436.59 206.383 2932
1443.6 206.383 2932
1448.14 206.031 2927
1455.14 206.031 2927
1459.64 205.679 2922
1464.12 205.327 2917
1463.03 204.201 2901
1469.96 204.201 2901
1474.36 203.849 2896
1478.72 203.497 2891
1483.07 203.145 2886
1489.97 203.145 2886
1494.28 202.793 2881
1495.96 202.089 2871
1502.82 202.089 2871
1507.06 201.737 2866
1513.91 201.737 2866
1518.64 201.456 2862
1525.49 201.456 2862
1529.65 201.104 2857
1536.48 201.104 2857
1543.32 201.104 2857
1550.15 201.104 2857
1554.26 200.752 2852
1561.08 200.752 2852
1565.15 200.4 2847
1571.95 200.4 2847
1578.76 200.4 2847
1588.36 200.752 2852
1595.18 200.752 2852
1602 200.752 2852
1608.82 200.752 2852
1615.64 200.752 2852
1622.46 200.752 2852
1629.28 200.752 2852
1636.1 200.752 2852
1642.92 200.752 2852
1649.74 200.752 2852
1653.65 200.4 2847
1663.38 200.752 2852
1670.2 200.752 2852
1677.02 200.752 2852
1680.88 200.4 2847
1687.69 200.4 2847
1691.52 200.048 2842
1698.32 200.048 2842
1705.12 200.048 2842
1708.9 199.696 2837
1715.68 199.696 2837
1719.43 199.344 2832
1726.2 199.344 2832
1727.47 198.71 2823
1731.15 198.358 2818
1734.8 198.006 2813
1741.53 198.006 2813
1745.77 197.725 2809
1752.49 197.725 2809
1752.94 197.021 2799
1759.64 197.021 2799
1763.17 196.669 2794
1769.86 196.669 2794
1776.54 196.669 2794
1783.22 196.669 2794
1784.13 196.036 2785
1790.79 196.036 2785
1794.23 195.684 2780
1800.87 195.684 2780
1807.52 195.684 2780
1811.56 195.402 2776
1818.2 195.402 2776
1821.55 195.05 2771
1828.18 195.05 2771
1832.15 194.769 2767
1838.77 194.769 2767
1848.05 195.05 2771
1854.68 195.05 2771
1861.31 195.05 2771
1867.93 195.05 2771
1874.56 195.05 2771
1881.19 195.05 2771
1887.81 195.05 2771
1894.44 195.05 2771
1901.06 195.05 2771
1907.69 195.05 2771
1914.32 195.05 2771
1920.94 195.05 2771
1924.79 194.769 2767
1931.4 194.769 2767
1938.02 194.769 2767
1944.64 194.769 2767
1951.25 194.769 2767
1954.33 194.417 2762
1960.94 194.417 2762
1967.54 194.417 2762
1970.57 194.065 2757
1977.17 194.065 2757
1983.76 194.065 2757
1983.86 193.431 2748
1987.53 193.15 2744
1994.09 193.15 2744
2003.57 193.431 2748
2013.8 193.783 2753
2020.38 193.783 2753
2026.96 193.783 2753
2033.55 193.783 2753
2040.13 193.783 2753
2043 193.431 2748
2046.58 193.15 2744
2049.41 192.798 2739
2055.96 192.798 2739
2042.93 190.967 2713
2049.41 190.967 2713
2055.9 190.967 2713
2062.39 190.967 2713
2068.88 190.967 2713
2075.36 190.967 2713
-2124.13 206.492 2837
-2121.08 206.856 2842
-2114.28 206.856 2842
-2107.49 206.856 2842
-2100.69 206.856 2842
-2093.89 206.856 2842
-2087.1 206.856 2842
-2080.3 206.856 2842
-2073.51 206.856 2842
-2066.71 206.856 2842
-2059.91 206.856 2842
-2045.89 206.128 2832
-2032.64 205.473 2823
-2022.3 205.109 2818
-2015.56 205.109 2818
-2005.26 204.745 2813
-2002.09 205.109 2818
-1995.35 205.109 2818
-1988.61 205.109 2818
-1978.35 204.745 2813
-1961.81 203.726 2799
-1955.12 203.726 2799
-1948.43 203.726 2799
-1941.73 203.726 2799
-1935.04 203.726 2799
-1922.15 203.071 2790
-1915.48 203.071 2790
-1908.8 203.071 2790
-1902.13 203.071 2790
-2037.34 253.002 3476
-2029.03 253.002 3476
-2020.71 253.002 3476
-2012.4 253.002 3476
-2008.13 253.511 3483
-2003.82 254.021 3490
-1995.47 254.021 3490
-1987.12 254.021 3490
-1978.78 254.021 3490
-1995.28 257.223 3534
-1986.82 257.223 3534
-1986.77 258.315 3549
-1982.74 258.897 3557
-1974.24 258.897 3557
-1965.73 258.897 3557
-1952.82 258.315 3549
-1956.94 259.989 3572
-1960.94 261.663 3595
-1952.35 261.663 3595
-1943.75 261.663 3595
-1939.46 262.245 3603
-1930.84 262.245 3603
-1922.23 262.245 3603
-1909.36 261.663 3595
-1897.06 261.154 3588
-1888.48 261.154 3588
-1879.9 261.154 3588
-1871.32 261.154 3588
-1866.38 261.663 3595
-1861.92 262.245 3603
-1853.3 262.245 3603
-1844.68 262.245 3603
-1836.07 262.245 3603
-1827.45 262.245 3603
-1818.84 262.245 3603
-1798.66 260.571 3580
-1450.79 243.831 3350
-1442.78 243.831 3350
-1434.77 243.831 3350
-1426.76 243.831 3350
-1413.24 242.885 3337
-1393.89 240.919 3310
-1385.98 240.919 3310
-1375.15 240.41 3303
-1367.25 240.41 3303
-1362.23 240.919 3310
-1354.32 240.919 3310
-1346.4 240.919 3310
-1338.49 240.919 3310
-1338.61 242.375 3330
-1330.65 242.375 3330
-1322.69 242.375 3330
-1314.72 242.375 3330
-1298.91 240.919 3310
-1278.52 238.59 3278
-1270.68 238.59 3278
-1245.5 235.315 3233
-1233.18 234.441 3221
-1206.83 230.875 3172
-1199.25 230.875 3172
-1184.9 229.565 3154
-1170.64 228.255 3136
-1152.38 226.144 3107
-1144.95 226.144 3107
-1130.93 224.834 3089
-1113.36 222.796 3061
-1091.95 219.957 3022
-1076.83 218.356 3000
-1069.65 218.356 3000
-1055.04 216.827 2979
-1053.55 217.992 2995
-1051.97 219.157 3011
-1046.86 219.593 3017
-1039.64 219.593 3017
-1032.43 219.593 3017
-1038.12 222.359 3055
-1036.56 223.596 3072
-1029.21 223.596 3072
-1021.86 223.596 3072
-1014.52 223.596 3072
-1007.17 223.596 3072
-979.972 219.157 3011
-967.602 217.992 2995
-958.837 217.628 2990
-951.687 217.628 2990
-941.062 216.827 2979
-928.922 215.663 2963
-918.726 214.935 2953
-924.631 217.992 2995
-917.469 217.992 2995
-915.17 219.157 3011
-907.97 219.157 3011
-900.769 219.157 3011
-888.821 217.992 2995
-878.421 217.191 2984
-869.825 216.827 2979
-862.702 216.827 2979
-849.547 215.299 2958
-833.644 213.043 2927
-825.232 212.679 2922
-813.765 211.514 2906
-808.204 211.878 2911
-801.243 211.878 2911
-794.282 211.878 2911
-788.943 212.315 2917
-781.968 212.315 2917
-774.992 212.315 2917
-768.017 212.315 2917
-763.651 213.043 2927
-756.651 213.043 2927
-749.652 213.043 2927
-741.384 212.679 2922
-733.14 212.315 2917
-726.164 212.315 2917
-719.189 212.315 2917
-710.749 211.878 2911
-702.579 211.514 2906
-696.826 211.878 2911
-689.865 211.878 2911
-682.904 211.878 2911
-675.943 211.878 2911
-668.982 211.878 2911
-660.884 211.514 2906
-657.535 212.679 2922
-650.548 212.679 2922
-643.56 212.679 2922
-636.573 212.679 2922
-629.586 212.679 2922
-622.598 212.679 2922
-615.611 212.679 2922
-608.623 212.679 2922
-601.636 212.679 2922
-683.795 296.891 4079
-674.041 296.891 4079
-664.287 296.891 4079
-652.928 296.163 4069
-637.033 293.325 4030
-628.797 293.98 4039
-619.139 293.98 4039
-609.48 293.98 4039
-599.822 293.98 4039
-590.163 293.98 4039
-580.505 293.98 4039
-576.5 296.891 4079
-566.745 296.891 4079
-556.991 296.891 4079
-547.237 296.891 4079
-538.801 297.619 4089
-529.023 297.619 4089
-519.245 297.619 4089
-509.467 297.619 4089
-498.467 296.891 4079
-487.514 296.163 4069
-477.784 296.163 4069
-464.603 293.98 4039
-453.931 293.325 4030
-444.294 293.325 4030
-434.657 293.325 4030
-425.02 293.325 4030
-415.383 293.325 4030
-402.826 291.214 4001
-391.391 289.831 3982
-381.869 289.831 3982
-363.651 283.062 3889
-355.171 283.717 3898
-346.648 284.372 3907
-337.305 284.372 3907
-327.962 284.372 3907
-317.886 283.717 3898
-302.865 278.477 3826
-293.716 278.477 3826
-281.368 275.347 3783
-272.322 275.347 3783
-128.703 156.052 2144
-123.576 156.052 2144
-118.449 156.052 2144
-112.635 155.105 2131
-107.236 154.669 2125
-102.01 154.45 2122
-96.936 154.45 2122
-91.6452 154.086 2117
-86.4601 153.868 2114
-81.2123 153.504 2109
-76.1691 153.504 2109
-71.1258 153.504 2109
-66.0826 153.504 2109
-60.9525 153.286 2106
-55.9164 153.286 2106
-50.832 153.14 2104
-45.7354 152.922 2101
-40.7113 152.922 2101
-35.6871 152.922 2101
-30.6192 152.704 2098
-25.5779 152.558 2096
-20.4872 151.976 2088
-15.457 151.612 2083
-10.476 151.612 2083
-5.48697 151.393 2080
-0.512563 151.248 2078
4.45657 151.248 2078
9.42569 151.248 2078
14.3533 150.811 2072
19.2428 150.302 2065
24.1223 149.938 2060
29.0484 149.938 2060
33.7106 148.773 2044
38.4662 148.264 2037
43.1884 147.754 2030
48.0427 147.754 2030
52.8189 147.536 2027
57.6092 147.39 2025
62.359 147.172 2022
67.4601 147.754 2030
72.6351 148.409 2039
77.5109 148.409 2039
82.9121 149.355 2052
88.247 150.083 2062
93.5394 150.666 2070
98.4894 150.666 2070
103.839 151.248 2078
109.175 151.757 2085
114.599 152.34 2093
119.604 152.34 2093
125.561 153.504 2109
131.1 154.086 2117
137.384 155.469 2136
142.492 155.469 2136
148.015 155.906 2142
153.494 156.27 2147
158.85 156.488 2150
163.991 156.488 2150
169.526 156.852 2155
174.922 157.071 2158
180.083 157.071 2158
185.243 157.071 2158
190.668 157.289 2161
195.836 157.289 2161
201.748 157.871 2169
206.934 157.871 2169
212.415 158.09 2172
217.909 158.308 2175
224.854 159.545 2192
230.096 159.545 2192
235.66 159.764 2195
242.884 161.074 2213
248.176 161.074 2213
253.468 161.074 2213
258.76 161.074 2213
444.21 229.565 3154
451.752 229.565 3154
459.294 229.565 3154
463.284 227.818 3130
469.867 227.381 3124
468.628 223.232 3067
475.962 223.232 3067
482.35 222.796 3061
487.91 221.995 3050
491.632 220.394 3028
498.873 220.394 3028
504.275 219.593 3017
506.912 217.628 2990
511.311 216.463 2974
517.377 216.027 2968
524.475 216.027 2968
531.572 216.027 2968
536.854 215.299 2958
543.928 215.299 2958
551.001 215.299 2958
558.075 215.299 2958
565.148 215.299 2958
570.094 214.498 2947
577.141 214.498 2947
584.188 214.498 2947
590.232 214.134 2942
597.268 214.134 2942
604.303 214.134 2942
610.299 213.77 2937
617.322 213.77 2937
624.345 213.77 2937
631.369 213.77 2937
638.392 213.77 2937
644.316 213.406 2932
651.328 213.406 2932
658.339 213.406 2932
665.35 213.406 2932
672.362 213.406 2932
678.214 213.043 2927
685.214 213.043 2927
692.213 213.043 2927
699.212 213.043 2927
706.212 213.043 2927
713.211 213.043 2927
720.21 213.043 2927
727.21 213.043 2927
735.463 213.406 2932
742.475 213.406 2932
749.486 213.406 2932
756.497 213.406 2932
762.207 213.043 2927
769.206 213.043 2927
776.205 213.043 2927
783.205 213.043 2927
790.204 213.043 2927
797.203 213.043 2927
804.203 213.043 2927
811.202 213.043 2927
818.201 213.043 2927
825.201 213.043 2927
832.2 213.043 2927
839.199 213.043 2927
846.199 213.043 2927
853.198 213.043 2927
860.197 213.043 2927
867.197 213.043 2927
874.196 213.043 2927
881.195 213.043 2927
888.195 213.043 2927
895.194 213.043 2927
900.652 212.679 2922
906.087 212.315 2917
914.627 212.679 2922
923.191 213.043 2927
930.191 213.043 2927
943.594 214.498 2947
950.641 214.498 2947
957.688 214.498 2947
964.735 214.498 2947
965.188 213.043 2927
966.873 211.878 2911
1427.79 291.869 4010
1437.38 291.869 4010
1446.97 291.869 4010
1432.58 287.065 3944
1418.62 282.407 3880
1417.96 280.442 3853
1417.17 278.477 3826
1426.32 278.477 3826
1429.09 277.239 3809
1415.54 272.872 3749
1411.97 270.47 3716
1420.86 270.47 3716
1426.28 269.815 3707
1425.85 268.068 3683
1428.43 266.904 3667
1437.2 266.904 3667
1439.26 265.666 3650
1442.04 264.575 3635
1447.54 263.992 3627
1434.13 259.989 3572
1442.67 259.989 3572
1423.99 255.112 3505
1394.37 248.343 3412
1382.39 244.777 3363
1390.43 244.777 3363
1387.66 242.885 3337
1373.47 239.027 3284
1370.39 237.134 3258
1359.57 233.932 3214
1377.89 235.752 3239
1385.63 235.752 3239
1426.93 241.429 3317
1443.52 242.885 3337
1474.98 246.815 3391
1483.09 246.815 3391
1509.67 249.872 3433
1520.98 250.381 3440
1529.2 250.381 3440
1537.43 250.381 3440
1545.66 250.381 3440
1576.47 254.021 3490
1584.81 254.021 3490
1593.16 254.021 3490
1444.07 223.232 3067
1451.4 223.232 3067
1458.73 223.232 3067
1463.2 222.796 3061
1449.38 219.593 3017
1430.53 215.663 2963
1425 213.77 2937
1432.02 213.77 2937
1434.14 213.043 2927
1441.14 213.043 2927
1443.19 212.315 2917
1450.17 212.315 2917
1457.15 212.315 2917
1461.11 211.878 2911
1463.03 211.15 2901
1469.96 211.15 2901
1471.81 210.422 2891
1476.17 210.058 2886
1480.5 209.694 2881
1487.39 209.694 2881
1489.09 208.967 2871
1495.96 208.967 2871
1500.2 208.603 2866
1507.06 208.603 2866
1513.91 208.603 2866
1518.64 208.312 2862
1522.82 207.948 2857
1529.65 207.948 2857
1536.48 207.948 2857
1540.62 207.584 2852
1547.44 207.584 2852
1554.26 207.584 2852
1561.08 207.584 2852
1562.4 206.856 2842
1569.19 206.856 2842
1575.99 206.856 2842
1585.57 207.22 2847
1592.38 207.22 2847
1599.19 207.22 2847
1606 207.22 2847
1612.8 207.22 2847
1619.61 207.22 2847
1626.42 207.22 2847
1633.23 207.22 2847
1640.04 207.22 2847
1646.84 207.22 2847
1653.65 207.22 2847
1660.46 207.22 2847
1667.27 207.22 2847
1674.08 207.22 2847
1680.88 207.22 2847
1687.69 207.22 2847
1691.52 206.856 2842
1698.32 206.856 2842
1705.12 206.856 2842
1708.9 206.492 2837
1715.68 206.492 2837
1719.43 206.128 2832
1726.2 206.128 2832
1727.47 205.473 2823
1728.08 204.745 2813
1734.8 204.745 2813
1741.53 204.745 2813
1745.77 204.454 2809
1752.49 204.454 2809
1752.94 203.726 2799
1759.64 203.726 2799
1763.17 203.362 2794
1769.86 203.362 2794
1776.54 203.362 2794
1783.22 203.362 2794
1784.13 202.707 2785
1790.79 202.707 2785
1794.23 202.343 2780
1800.87 202.343 2780
1807.52 202.343 2780
1811.56 202.052 2776
1818.2 202.052 2776
1821.55 201.688 2771
1828.18 201.688 2771
1832.15 201.397 2767
1838.77 201.397 2767
1848.05 201.688 2771
1854.68 201.688 2771
1861.31 201.688 2771
1867.93 201.688 2771
1874.56 201.688 2771
1881.19 201.688 2771
1887.81 201.688 2771
1894.44 201.688 2771
1901.06 201.688 2771
1907.69 201.688 2771
1914.32 201.688 2771
1920.94 201.688 2771
1924.79 201.397 2767
1931.4 201.397 2767
1938.02 201.397 2767
1944.64 201.397 2767
1951.25 201.397 2767
1954.33 201.033 2762
1960.94 201.033 2762
1967.54 201.033 2762
1970.57 200.669 2757
1977.17 200.669 2757
1983.76 200.669 2757
1983.86 200.014 2748
1987.53 199.723 2744
1994.09 199.723 2744
2003.57 200.014 2748
2013.8 200.378 2753
2020.38 200.378 2753
2026.96 200.378 2753
2033.55 200.378 2753
2040.13 200.378 2753
2043 200.014 2748
2046.58 199.723 2744
2049.41 199.359 2739
2055.96 199.359 2739
2042.93 197.467 2713
2049.41 197.467 2713
2055.9 197.467 2713
2062.39 197.467 2713
2068.88 197.467 2713
2071.54 197.103 2708
-2124.13 213.288 2837
-2121.08 213.664 2842
-2114.28 213.664 2842
-2107.49 213.664 2842
-2100.69 213.664 2842
-2093.89 213.664 2842
-2087.1 213.664 2842
-2080.3 213.664 2842
-2073.51 213.664 2842
-2066.71 213.664 2842
-2059.91 213.664 2842
-2045.89 212.912 2832
-2032.64 212.235 2823
-2025.89 212.235 2823
-2019.14 212.235 2823
-2012.39 212.235 2823
-2005.64 212.235 2823
-1998.89 212.235 2823
-1992.14 212.235 2823
-1981.87 211.859 2818
-1968.82 211.183 2809
-1964.9 211.484 2813
-1958.17 211.484 2813
-1951.45 211.484 2813
-1944.72 211.484 2813
-1935.24 211.183 2809
-1931.27 211.484 2813
-1924.54 211.484 2813
-1917.81 211.484 2813
-1911.09 211.484 2813
-1904.36 211.484 2813
-1897.63 211.484 2813
-2062.72 263.509 3505
-2054.34 263.509 3505
-2045.95 263.509 3505
-2037.57 263.509 3505
-2029.19 263.509 3505
-2016.2 262.907 3497
-2021.04 264.636 3520
-2012.62 264.636 3520
-2004.21 264.636 3520
-1987.28 263.509 3505
-1995.28 265.689 3534
-1986.82 265.689 3534
-1986.77 266.817 3549
-1982.74 267.418 3557
-1974.24 267.418 3557
-1965.73 267.418 3557
-1952.82 266.817 3549
-1956.94 268.546 3572
-1960.94 270.275 3595
-1952.35 270.275 3595
-1943.75 270.275 3595
-1931.38 269.749 3588
-1922.8 269.749 3588
-1914.22 269.749 3588
-1901.4 269.147 3580
-1892.83 269.147 3580
-1888.48 269.749 3588
-1879.9 269.749 3588
-1871.32 269.749 3588
-1858.59 269.147 3580
-1861.92 270.876 3603
-1853.3 270.876 3603
-1844.68 270.876 3603
-1836.07 270.876 3603
-1827.45 270.876 3603
-1818.84 270.876 3603
-1798.66 269.147 3580
-1782.6 268.02 3565
-1774.08 268.02 3565
-1487.83 255.464 3398
-1479.71 255.464 3398
-1471.58 255.464 3398
-1457.43 254.412 3384
-1449.33 254.412 3384
-1435.28 253.359 3370
-1415.78 251.329 3343
-1399.37 249.826 3323
-1391.42 249.826 3323
-1375.15 248.322 3303
-1367.25 248.322 3303
-1362.23 248.848 3310
-1354.32 248.848 3310
-1346.4 248.848 3310
-1338.49 248.848 3310
-1338.61 250.352 3330
-1330.65 250.352 3330
-1322.69 250.352 3330
-1314.72 250.352 3330
-1304.01 249.826 3323
-1280.86 246.894 3284
-1273 246.894 3284
-1250.51 244.037 3246
-1233.18 242.157 3221
-1213.68 239.827 3190
-1206.05 239.827 3190
-1184.9 237.12 3154
-1172.88 236.218 3142
-1152.38 233.587 3107
-1144.95 233.587 3107
-1130.93 232.233 3089
-1113.36 230.128 3061
-1098.09 228.474 3039
-1084.72 227.196 3022
-1077.5 227.196 3022
-1064.6 225.993 3006
-1055.3 225.542 3000
-1054.07 226.82 3017
-1058.31 229.301 3050
-1051.01 229.301 3050
-1043.72 229.301 3050
-1038.12 229.677 3055
-1042.29 232.233 3089
-1034.9 232.233 3089
-1027.52 232.233 3089
-1020.13 232.233 3089
-1012.74 232.233 3089
-987.132 228.023 3033
-971.156 225.993 3006
-963.968 225.993 3006
-956.78 225.993 3006
-941.062 223.964 2979
-927.355 222.385 2958
-916.859 221.558 2947
-931.423 226.82 3017
-924.208 226.82 3017
-925.2 228.85 3044
-919.73 229.301 3050
-912.437 229.301 3050
-905.143 229.301 3050
-888.135 226.82 3017
-874.497 225.167 2995
-867.335 225.167 2995
-854.142 223.588 2974
-841.049 222.009 2953
-828.057 220.43 2932
-818.245 219.678 2922
-811.258 219.678 2922
-801.243 218.851 2911
-795.919 219.302 2917
-788.943 219.302 2917
-781.968 219.302 2917
-774.992 219.302 2917
-770.65 220.054 2927
-764.955 220.43 2932
-757.944 220.43 2932
-750.932 220.43 2932
-742.652 220.054 2927
-733.14 219.302 2917
-726.164 219.302 2917
-719.189 219.302 2917
-710.749 218.851 2911
-702.579 218.475 2906
-695.629 218.475 2906
-688.68 218.475 2906
-681.731 218.475 2906
-674.782 218.475 2906
-667.833 218.475 2906
-660.884 218.475 2906
-657.535 219.678 2922
-650.548 219.678 2922
-643.56 219.678 2922
-636.573 219.678 2922
-629.586 219.678 2922
-622.598 219.678 2922
-615.611 219.678 2922
-608.623 219.678 2922
-601.636 219.678 2922
-693.549 306.662 4079
-683.795 306.662 4079
-674.041 306.662 4079
-664.287 306.662 4079
-646.67 302.979 4030
-633.871 301.475 4010
-624.282 301.475 4010
-611.781 300.047 3991
-603.746 300.798 4001
-599.822 303.655 4039
-590.163 303.655 4039
-580.505 303.655 4039
-569.574 302.979 4030
-563.967 305.159 4059
-555.626 305.911 4069
-545.896 305.911 4069
-536.165 305.911 4069
-526.435 305.911 4069
-516.705 305.911 4069
-506.975 305.911 4069
-497.245 305.911 4069
-485.118 304.407 4049
-472.03 302.227 4020
-462.417 302.227 4020
-451.678 301.475 4010
-441.097 300.798 4001
-430.451 300.047 3991
-420.907 300.047 3991
-411.363 300.047 3991
-400.913 299.37 3982
-390.408 298.618 3972
-380.91 298.618 3972
-363.651 292.378 3889
-355.171 293.055 3898
-346.648 293.731 3907
-337.305 293.731 3907
-327.962 293.731 3907
-317.886 293.055 3898
-302.865 287.642 3826
-293.716 287.642 3826
-281.368 284.409 3783
-272.322 284.409 3783
-263.276 284.409 3783
-230.212 288.318 3835
-221.041 288.318 3835
-211.871 288.318 3835
-112.74 160.361 2133
-107.236 159.759 2125
-101.914 159.383 2120
-96.8446 159.383 2120
-91.6452 159.158 2117
-86.4601 158.932 2114
-81.2123 158.556 2109
-76.1691 158.556 2109
-71.1258 158.556 2109
-65.9886 158.331 2106
-60.9525 158.331 2106
-55.9164 158.331 2106
-50.832 158.18 2104
-45.7354 157.955 2101
-40.7113 157.955 2101
-35.6871 157.955 2101
-30.6192 157.729 2098
-25.5779 157.579 2096
-20.4872 156.978 2088
-15.4719 156.752 2085
-10.486 156.752 2085
-5.49488 156.602 2083
-0.513796 156.602 2083
4.46085 156.376 2080
9.43476 156.376 2080
14.3948 156.226 2078
19.308 155.775 2072
24.2043 155.399 2067
29.1471 155.399 2067
33.925 154.647 2057
38.6551 153.895 2047
43.4862 153.67 2044
48.3741 153.67 2044
53.2098 153.519 2042
58.0075 153.294 2039
62.8833 153.294 2039
67.8589 153.519 2042
73.205 154.497 2055
78.1192 154.497 2055
83.4373 155.248 2065
88.5894 155.624 2070
93.7653 156 2075
98.7273 156 2075
104.189 156.752 2085
109.332 156.978 2088
114.763 157.579 2096
119.775 157.579 2096
125.561 158.556 2109
131.1 159.158 2117
137.384 160.586 2136
142.492 160.586 2136
148.015 161.037 2142
153.28 161.188 2144
158.85 161.639 2150
163.991 161.639 2150
169.526 162.015 2155
174.922 162.24 2158
180.083 162.24 2158
185.243 162.24 2158
190.668 162.466 2161
195.836 162.466 2161
201.748 163.067 2169
206.934 163.067 2169
212.415 163.293 2172
217.909 163.518 2175
224.854 164.796 2192
230.096 164.796 2192
235.66 165.022 2195
242.884 166.375 2213
248.176 166.375 2213
253.468 166.375 2213
443.365 236.669 3148
450.893 236.669 3148
458.421 236.669 3148
462.396 234.865 3124
467.31 233.587 3107
468.628 230.58 3067
475.962 230.58 3067
480.617 229.301 3050
486.951 228.85 3044
490.658 227.196 3022
497.884 227.196 3022
503.272 226.369 3011
506.912 224.791 2990
511.311 223.588 2974
517.377 223.137 2968
524.475 223.137 2968
531.572 223.137 2968
536.854 222.385 2958
543.928 222.385 2958
551.001 222.385 2958
558.075 222.385 2958
565.148 222.385 2958
570.094 221.558 2947
577.141 221.558 2947
584.188 221.558 2947
590.232 221.182 2942
597.268 221.182 2942
604.303 221.182 2942
610.299 220.806 2937
617.322 220.806 2937
624.345 220.806 2937
631.369 220.806 2937
638.392 220.806 2937
644.316 220.43 2932
651.328 220.43 2932
658.339 220.43 2932
665.35 220.43 2932
671.215 220.054 2927
678.214 220.054 2927
685.214 220.054 2927
692.213 220.054 2927
699.212 220.054 2927
706.212 220.054 2927
713.211 220.054 2927
720.21 220.054 2927
727.21 220.054 2927
735.463 220.43 2932
742.475 220.43 2932
749.486 220.43 2932
756.497 220.43 2932
762.207 220.054 2927
769.206 220.054 2927
776.205 220.054 2927
783.205 220.054 2927
790.204 220.054 2927
797.203 220.054 2927
804.203 220.054 2927
811.202 220.054 2927
818.201 220.054 2927
825.201 220.054 2927
832.2 220.054 2927
839.199 220.054 2927
846.199 220.054 2927
853.198 220.054 2927
860.197 220.054 2927
867.197 220.054 2927
874.196 220.054 2927
881.195 220.054 2927
888.195 220.054 2927
895.194 220.054 2927
900.652 219.678 2922
906.087 219.302 2917
914.627 219.678 2922
923.191 220.054 2927
930.191 220.054 2927
941.993 221.182 2942
949.028 221.182 2942
956.063 221.182 2942
963.099 221.182 2942
965.188 220.054 2927
966.873 218.851 2911
1417.82 299.37 3982
1427.34 299.37 3982
1436.87 299.37 3982
1422.41 294.408 3916
1418.62 291.702 3880
1417.96 289.672 3853
1417.17 287.642 3826
1426.32 287.642 3826
1429.09 286.364 3809
1415.54 281.853 3749
1411.97 279.372 3716
1420.86 279.372 3716
1426.28 278.695 3707
1425.85 276.891 3683
1428.43 275.688 3667
1437.2 275.688 3667
1445.97 275.688 3667
1447.99 274.41 3650
1447.54 272.681 3627
1437.34 269.147 3580
1445.9 269.147 3580
1423.99 263.509 3505
1394.37 256.517 3412
1382.39 252.833 3363
1390.43 252.833 3363
1387.66 250.878 3337
1373.47 246.894 3284
1370.39 244.939 3258
1359.57 241.631 3214
1377.89 243.511 3239
1385.63 243.511 3239
1432.53 250.352 3330
1443.52 250.878 3337
1474.98 254.938 3391
1483.09 254.938 3391
1512.75 258.622 3440
1520.98 258.622 3440
1529.2 258.622 3440
1537.43 258.622 3440
1545.66 258.622 3440
1553.88 258.622 3440
1562.11 258.622 3440
1532.44 252.382 3357
1446.42 230.955 3072
1453.77 230.955 3072
1461.11 230.955 3072
1463.2 230.128 3061
1449.38 226.82 3017
1430.53 222.761 2963
1422.57 220.43 2932
1429.58 220.43 2932
1431.69 219.678 2922
1438.68 219.678 2922
1443.19 219.302 2917
1450.17 219.302 2917
1457.15 219.302 2917
1461.11 218.851 2911
1457.98 217.348 2891
1464.9 217.348 2891
1469.27 216.972 2886
1476.17 216.972 2886
1477.93 216.22 2876
1484.81 216.22 2876
1486.5 215.468 2866
1493.35 215.468 2866
1495.49 214.792 2857
1502.32 214.792 2857
1509.16 214.792 2857
1515.99 214.792 2857
1520.16 214.416 2852
1526.98 214.416 2852
1533.8 214.416 2852
1540.62 214.416 2852
1547.44 214.416 2852
1548.81 213.664 2842
1555.6 213.664 2842
1562.4 213.664 2842
1566.43 213.288 2837
1575.99 213.664 2842
1582.79 213.664 2842
1592.38 214.04 2847
1599.19 214.04 2847
1606 214.04 2847
1612.8 214.04 2847
1619.61 214.04 2847
1626.42 214.04 2847
1633.23 214.04 2847
1640.04 214.04 2847
1646.84 214.04 2847
1653.65 214.04 2847
1660.46 214.04 2847
1667.27 214.04 2847
1674.08 214.04 2847
1680.88 214.04 2847
1687.69 214.04 2847
1691.52 213.664 2842
1698.32 213.664 2842
1705.12 213.664 2842
1711.91 213.664 2842
1715.68 213.288 2837
1719.43 212.912 2832
1726.2 212.912 2832
1727.47 212.235 2823
1728.08 211.484 2813
1734.8 211.484 2813
1741.53 211.484 2813
1745.77 211.183 2809
1749.37 210.807 2804
1752.94 210.431 2799
1759.64 210.431 2799
1763.17 210.055 2794
1769.86 210.055 2794
1773.99 209.754 2790
1780.67 209.754 2790
1784.13 209.379 2785
1790.79 209.379 2785
1794.23 209.003 2780
1800.87 209.003 2780
1807.52 209.003 2780
1811.56 208.702 2776
1818.2 208.702 2776
1821.55 208.326 2771
1828.18 208.326 2771
1834.8 208.326 2771
1841.43 208.326 2771
1848.05 208.326 2771
1854.68 208.326 2771
1861.31 208.326 2771
1867.93 208.326 2771
1877.94 208.702 2776
1884.58 208.702 2776
1891.22 208.702 2776
1894.44 208.326 2771
1901.06 208.326 2771
1907.69 208.326 2771
1914.32 208.326 2771
1920.94 208.326 2771
1927.57 208.326 2771
1934.2 208.326 2771
1940.82 208.326 2771
1947.45 208.326 2771
1954.08 208.326 2771
1957.87 208.025 2767
1964.49 208.025 2767
1971.1 208.025 2767
1977.72 208.025 2767
1977.17 207.273 2757
1983.76 207.273 2757
1987.46 206.973 2753
1990.43 206.597 2748
1997 206.597 2748
2007.21 206.973 2753
2020.38 207.649 2762
2026.99 207.649 2762
2033.59 207.649 2762
2040.2 207.649 2762
2046.8 207.649 2762
2046.71 206.973 2753
2046.58 206.296 2744
2049.41 205.92 2739
2055.96 205.92 2739
2048.95 204.567 2721
2049.41 203.966 2713
2052.11 203.59 2708
2058.59 203.59 2708
2065.06 203.59 2708
2071.54 203.59 2708
-2124.13 220.084 2837
-2121.08 220.472 2842
-2114.28 220.472 2842
-2107.49 220.472 2842
-2100.69 220.472 2842
-2093.89 220.472 2842
-2087.1 220.472 2842
-2080.3 220.472 2842
-2073.51 220.472 2842
-2066.71 220.472 2842
-2059.91 220.472 2842
-2045.89 219.696 2832
-2032.64 218.998 2823
-2025.89 218.998 2823
-2019.14 218.998 2823
-2012.39 218.998 2823
-2005.64 218.998 2823
-1998.89 218.998 2823
-1992.14 218.998 2823
-1981.87 218.61 2818
-1968.82 217.912 2809
-1964.9 218.222 2813
-1958.17 218.222 2813
-1951.45 218.222 2813
-1944.72 218.222 2813
-1935.24 217.912 2809
-1931.27 218.222 2813
-1924.54 218.222 2813
-1917.81 218.222 2813
-1911.09 218.222 2813
-1904.36 218.222 2813
-1897.63 218.222 2813
-2075.67 273.612 3527
-2067.23 273.612 3527
-2058.8 273.612 3527
-2050.36 273.612 3527
-2033.24 272.448 3512
-2029.46 273.069 3520
-2025.06 273.612 3527
-2016.63 273.612 3527
-2008.19 273.612 3527
-1995.79 273.069 3520
-1987.37 273.069 3520
-1966.02 271.284 3497
-1982.85 274.775 3542
-1978.28 275.318 3549
-1969.8 275.318 3549
-1961.31 275.318 3549
-1952.82 275.318 3549
-1944.34 275.318 3549
-1948.4 277.103 3572
-1939.85 277.103 3572
-1935.64 277.723 3580
-1931.38 278.344 3588
-1922.8 278.344 3588
-1914.22 278.344 3588
-1901.4 277.723 3580
-1892.83 277.723 3580
-1888.48 278.344 3588
-1879.9 278.344 3588
-1871.32 278.344 3588
-1858.59 277.723 3580
-1861.92 279.507 3603
-1853.3 279.507 3603
-1844.68 279.507 3603
-1836.07 279.507 3603
-1827.45 279.507 3603
-1818.84 279.507 3603
-1810.22 279.507 3603
-1782.6 276.56 3565
-1774.08 276.56 3565
-1487.83 263.604 3398
-1479.71 263.604 3398
-1495.83 267.949 3454
-1487.57 267.949 3454
-1479.31 267.949 3454
-1462.11 266.319 3433
-1433.15 262.518 3384
-1416.21 260.889 3363
-1408.17 260.889 3363
-1383.48 257.786 3323
-1367.25 256.235 3303
-1362.23 256.778 3310
-1357.18 257.321 3317
-1354.54 258.329 3330
-1346.58 258.329 3330
-1341.43 258.872 3337
-1333.45 258.872 3337
-1325.47 258.872 3337
-1314.72 258.329 3330
-1304.01 257.786 3323
-1280.86 254.761 3284
-1273 254.761 3284
-1250.51 251.813 3246
-1237.77 250.804 3233
-1213.68 247.468 3190
-1206.05 247.468 3190
-1184.9 244.676 3154
-1172.88 243.745 3142
-1152.38 241.03 3107
-1144.95 241.03 3107
-1130.93 239.633 3089
-1113.36 237.461 3061
-1098.09 235.754 3039
-1084.72 234.436 3022
-1077.5 234.436 3022
-1064.6 233.194 3006
-1055.3 232.729 3000
-1061.76 235.754 3039
-1058.31 236.608 3050
-1051.01 236.608 3050
-1043.72 236.608 3050
-1038.12 236.996 3055
-1044.32 240.099 3095
-1036.92 240.099 3095
-1029.51 240.099 3095
-1022.11 240.099 3095
-1014.71 240.099 3095
-987.132 235.289 3033
-971.156 233.194 3006
-963.968 233.194 3006
-956.78 233.194 3006
-944.537 231.953 2990
-927.355 229.471 2958
-916.859 228.617 2947
-939.758 236.142 3044
-932.479 236.142 3044
-927.024 236.608 3050
-921.238 236.996 3055
-913.932 236.996 3055
-906.627 236.996 3055
-897.85 236.608 3050
-880.921 234.048 3017
-873.706 234.048 3017
-858.737 231.953 2990
-845.321 230.246 2968
-832.293 228.617 2947
-821.045 227.454 2932
-814.034 227.454 2932
-804.27 226.678 2922
-798.647 227.066 2927
-791.648 227.066 2927
-784.648 227.066 2927
-777.649 227.066 2927
-771.966 227.454 2932
-766.259 227.842 2937
-759.236 227.842 2937
-752.213 227.842 2937
-743.921 227.454 2932
-735.653 227.066 2927
-728.654 227.066 2927
-719.189 226.29 2917
-712.214 226.29 2917
-702.579 225.437 2906
-695.629 225.437 2906
-688.68 225.437 2906
-681.731 225.437 2906
-674.782 225.437 2906
-667.833 225.437 2906
-660.884 225.437 2906
-657.535 226.678 2922
-650.548 226.678 2922
-643.56 226.678 2922
-636.573 226.678 2922
-629.586 226.678 2922
-622.598 226.678 2922
-615.611 226.678 2922
-608.623 226.678 2922
-601.636 226.678 2922
-594.649 226.678 2922
-587.661 226.678 2922
-686.136 304.487 3925
-676.75 304.487 3925
-693.549 316.434 4079
-683.795 316.434 4079
-674.041 316.434 4079
-664.287 316.434 4079
-646.67 312.633 4030
-633.871 311.081 4010
-624.282 311.081 4010
-611.781 309.607 3991
-603.746 310.383 4001
-599.822 313.331 4039
-590.163 313.331 4039
-580.505 313.331 4039
-569.574 312.633 4030
-563.967 314.882 4059
-555.626 315.658 4069
-545.896 315.658 4069
-536.165 315.658 4069
-526.435 315.658 4069
-516.705 315.658 4069
-506.975 315.658 4069
-497.245 315.658 4069
-485.118 314.106 4049
-472.03 311.857 4020
-462.417 311.857 4020
-451.678 311.081 4010
-441.097 310.383 4001
-430.451 309.607 3991
-420.907 309.607 3991
-411.363 309.607 3991
-400.913 308.909 3982
-390.408 308.133 3972
-380.91 308.133 3972
-363.651 301.694 3889
-355.171 302.392 3898
-346.648 303.091 3907
-337.305 303.091 3907
-327.962 303.091 3907
-317.886 302.392 3898
-302.865 296.807 3826
-293.716 296.807 3826
-282.038 294.169 3792
-272.322 293.471 3783
-263.276 293.471 3783
-254.23 293.471 3783
-245.183 293.471 3783
-242.192 300.996 3880
-232.913 300.996 3880
-223.635 300.996 3880
-211.871 297.505 3835
-112.74 165.47 2133
-107.236 164.85 2125
-101.914 164.462 2120
-96.8446 164.462 2120
-91.6452 164.229 2117
-86.4601 163.996 2114
-81.2123 163.608 2109
-76.1691 163.608 2109
-71.1258 163.608 2109
-65.9886 163.376 2106
-60.9525 163.376 2106
-55.9164 163.376 2106
-50.832 163.221 2104
-45.7354 162.988 2101
-40.7113 162.988 2101
-35.6871 162.988 2101
-30.6192 162.755 2098
-25.5779 162.6 2096
-20.4872 161.979 2088
-15.4942 161.979 2088
-10.5011 161.979 2088
-5.50807 161.979 2088
-0.513796 161.591 2083
4.46729 161.591 2083
9.44837 161.591 2083
14.4087 161.359 2080
19.3639 161.204 2078
24.2628 160.738 2072
29.2176 160.738 2072
34.0899 160.35 2067
38.9006 159.807 2060
43.7628 159.574 2057
48.6817 159.574 2057
53.6006 159.574 2057
58.5195 159.574 2057
63.4385 159.574 2057
68.3574 159.574 2057
73.2763 159.574 2057
78.5753 160.35 2067
83.8414 160.971 2075
88.9317 161.204 2078
94.2172 161.747 2085
99.203 161.747 2085
104.339 161.979 2088
109.594 162.367 2093
115.037 162.988 2101
120.061 162.988 2101
125.561 163.608 2109
131.1 164.229 2117
137.384 165.703 2136
142.492 165.703 2136
148.015 166.168 2142
153.28 166.324 2144
158.85 166.789 2150
163.991 166.789 2150
169.526 167.177 2155
174.922 167.41 2158
180.083 167.41 2158
185.243 167.41 2158
190.668 167.642 2161
195.836 167.642 2161
202.027 168.496 2172
207.221 168.496 2172
212.415 168.496 2172
217.909 168.728 2175
225.162 170.28 2195
230.411 170.28 2195
235.66 170.28 2195
242.884 171.676 2213
248.176 171.676 2213
253.468 171.676 2213
443.365 244.21 3148
450.893 244.21 3148
458.421 244.21 3148
462.396 242.348 3124
467.31 241.03 3107
468.628 237.927 3067
475.962 237.927 3067
480.617 236.608 3050
486.951 236.142 3044
490.658 234.436 3022
497.884 234.436 3022
503.272 233.582 3011
506.912 231.953 2990
511.311 230.712 2974
517.377 230.246 2968
524.475 230.246 2968
531.572 230.246 2968
536.854 229.471 2958
543.928 229.471 2958
551.001 229.471 2958
558.075 229.471 2958
565.148 229.471 2958
570.094 228.617 2947
577.141 228.617 2947
584.188 228.617 2947
590.232 228.23 2942
597.268 228.23 2942
604.303 228.23 2942
610.299 227.842 2937
617.322 227.842 2937
624.345 227.842 2937
631.369 227.842 2937
638.392 227.842 2937
644.316 227.454 2932
651.328 227.454 2932
658.339 227.454 2932
665.35 227.454 2932
671.215 227.066 2927
678.214 227.066 2927
685.214 227.066 2927
692.213 227.066 2927
699.212 227.066 2927
706.212 227.066 2927
713.211 227.066 2927
720.21 227.066 2927
727.21 227.066 2927
735.463 227.454 2932
742.475 227.454 2932
749.486 227.454 2932
756.497 227.454 2932
762.207 227.066 2927
770.52 227.454 2932
777.531 227.454 2932
784.542 227.454 2932
791.554 227.454 2932
798.565 227.454 2932
805.576 227.454 2932
812.588 227.454 2932
819.599 227.454 2932
826.61 227.454 2932
833.622 227.454 2932
840.633 227.454 2932
847.644 227.454 2932
853.198 227.066 2927
860.197 227.066 2927
867.197 227.066 2927
874.196 227.066 2927
881.195 227.066 2927
888.195 227.066 2927
895.194 227.066 2927
900.652 226.678 2922
906.087 226.29 2917
914.627 226.678 2922
923.191 227.066 2927
930.191 227.066 2927
941.993 228.23 2942
949.028 228.23 2942
956.063 228.23 2942
963.099 228.23 2942
968.485 227.842 2937
966.873 225.825 2911
1379.14 306.659 3953
1388.59 306.659 3953
1398.04 306.659 3953
1417.82 308.909 3982
1427.34 308.909 3982
1436.87 308.909 3982
1422.41 303.789 3916
1418.62 300.996 3880
1417.96 298.902 3853
1417.17 296.807 3826
1426.32 296.807 3826
1429.09 295.488 3809
1415.54 290.834 3749
1411.97 288.274 3716
1420.86 288.274 3716
1426.28 287.575 3707
1425.85 285.714 3683
1428.43 284.472 3667
1437.2 284.472 3667
1445.97 284.472 3667
1454.73 284.472 3667
1447.54 281.369 3627
1437.34 277.723 3580
1445.9 277.723 3580
1423.99 271.905 3505
1394.37 264.69 3412
1382.39 260.889 3363
1390.43 260.889 3363
1387.66 258.872 3337
1373.47 254.761 3284
1370.39 252.744 3258
1359.57 249.33 3214
1377.89 251.27 3239
1385.63 251.27 3239
1432.53 258.329 3330
1443.52 258.872 3337
1474.98 263.061 3391
1483.09 263.061 3391
1512.75 266.863 3440
1520.98 266.863 3440
1529.2 266.863 3440
1537.43 266.863 3440
1536.22 265.233 3419
1544.4 265.233 3419
1552.57 265.233 3419
1526.05 259.338 3343
1448.04 241.03 3107
1455.47 241.03 3107
1462.9 241.03 3107
1453.77 238.314 3072
1461.11 238.314 3072
1455.07 236.142 3044
1438.81 232.341 2995
1430.53 229.859 2963
1420.14 227.066 2927
1427.14 227.066 2927
1431.69 226.678 2922
1438.68 226.678 2922
1443.19 226.29 2917
1450.17 226.29 2917
1454.15 225.825 2911
1458.6 225.437 2906
1455.46 223.885 2886
1462.36 223.885 2886
1469.27 223.885 2886
1473.61 223.497 2881
1477.93 223.109 2876
1484.81 223.109 2876
1486.5 222.334 2866
1488.66 221.636 2857
1495.49 221.636 2857
1499.7 221.248 2852
1506.52 221.248 2852
1510.68 220.86 2847
1517.49 220.86 2847
1521.62 220.472 2842
1528.42 220.472 2842
1535.21 220.472 2842
1542.01 220.472 2842
1546.08 220.084 2837
1552.87 220.084 2837
1556.9 219.696 2832
1563.67 219.696 2832
1573.22 220.084 2837
1582.79 220.472 2842
1592.38 220.86 2847
1599.19 220.86 2847
1606 220.86 2847
1612.8 220.86 2847
1619.61 220.86 2847
1626.42 220.86 2847
1633.23 220.86 2847
1640.04 220.86 2847
1646.84 220.86 2847
1653.65 220.86 2847
1660.46 220.86 2847
1667.27 220.86 2847
1674.08 220.86 2847
1680.88 220.86 2847
1687.69 220.86 2847
1691.52 220.472 2842
1698.32 220.472 2842
1705.12 220.472 2842
1711.91 220.472 2842
1712.66 219.696 2832
1719.43 219.696 2832
1726.2 219.696 2832
1727.47 218.998 2823
1728.08 218.222 2813
1734.8 218.222 2813
1741.53 218.222 2813
1745.77 217.912 2809
1749.37 217.524 2804
1752.94 217.136 2799
1759.64 217.136 2799
1763.17 216.748 2794
1769.86 216.748 2794
1773.99 216.438 2790
1780.67 216.438 2790
1784.13 216.05 2785
1787.58 215.662 2780
1794.23 215.662 2780
1800.87 215.662 2780
1807.52 215.662 2780
1814.17 215.662 2780
1818.2 215.352 2776
1821.55 214.964 2771
1828.18 214.964 2771
1834.8 214.964 2771
1841.43 214.964 2771
1848.05 214.964 2771
1854.68 214.964 2771
1861.31 214.964 2771
1871.3 215.352 2776
1877.94 215.352 2776
1884.58 215.352 2776
1891.22 215.352 2776
1897.86 215.352 2776
1901.06 214.964 2771
1907.69 214.964 2771
1914.32 214.964 2771
1920.94 214.964 2771
1927.57 214.964 2771
1934.2 214.964 2771
1940.82 214.964 2771
1947.45 214.964 2771
1954.08 214.964 2771
1957.87 214.654 2767
1964.49 214.654 2767
1971.1 214.654 2767
1977.72 214.654 2767
1984.34 214.654 2767
1990.95 214.654 2767
1987.46 213.568 2753
1990.43 213.18 2748
1997 213.18 2748
2007.21 213.568 2753
2020.38 214.266 2762
2026.99 214.266 2762
2033.59 214.266 2762
2040.2 214.266 2762
2046.8 214.266 2762
2046.71 213.568 2753
2046.58 212.869 2744
2049.41 212.482 2739
2055.96 212.482 2739
2048.95 211.085 2721
2045.64 210.077 2708
2049.08 209.766 2704
2055.55 209.766 2704
2062.01 209.766 2704
2061.59 209.068 2695
-2124.13 226.88 2837
-2121.08 227.28 2842
-2114.28 227.28 2842
-2107.49 227.28 2842
-2100.69 227.28 2842
-2097.58 227.68 2847
-2090.77 227.68 2847
-2083.96 227.68 2847
-2077.15 227.68 2847
-2066.71 227.28 2842
-2059.91 227.28 2842
-2049.51 226.88 2837
-2036.24 226.16 2828
-2025.89 225.76 2823
-2022.72 226.16 2828
-2015.95 226.16 2828
-2012.03 226.48 2832
-2005.26 226.48 2832
-1998.49 226.48 2832
-1988.9 226.16 2828
-1971.63 224.961 2813
-1971.89 225.76 2823
-1968.62 226.16 2828
-1961.85 226.16 2828
-1955.09 226.16 2828
-1948.33 226.16 2828
-1941.57 226.16 2828
-1934.8 226.16 2828
-1921.22 225.361 2818
-1911.09 224.961 2813
-1957.16 231.199 2891
-1950.25 231.199 2891
-1956.78 232.798 2911
-1960.54 234.078 2927
-1963.55 235.277 2942
-1956.52 235.277 2942
-1960.08 236.557 2958
-1953.01 236.557 2958
-1945.94 236.557 2958
-2075.67 282.061 3527
-2067.23 282.061 3527
-2058.8 282.061 3527
-2050.36 282.061 3527
-2033.24 280.861 3512
-2029.46 281.501 3520
-2025.06 282.061 3527
-2016.63 282.061 3527
-2008.19 282.061 3527
-1995.79 281.501 3520
-1987.37 281.501 3520
-1966.02 279.661 3497
-1978.37 282.62 3534
-1969.92 282.62 3534
-1961.47 282.62 3534
-1953.02 282.62 3534
-1944.57 282.62 3534
-1944.34 283.82 3549
-1944.58 285.1 3565
-1936.05 285.1 3565
-1931.31 285.659 3572
-1922.77 285.659 3572
-1914.23 285.659 3572
-1905.69 285.659 3572
-1893.43 285.1 3565
-1884.9 285.1 3565
-1880.06 285.659 3572
-1871.52 285.659 3572
-1862.98 285.659 3572
-1854.44 285.659 3572
-1854.16 286.939 3588
-1845.58 286.939 3588
-1844.68 288.138 3603
-1836.07 288.138 3603
-1827.45 288.138 3603
-1818.84 288.138 3603
-1810.22 288.138 3603
-1782.6 285.1 3565
-1774.08 285.1 3565
-1487.83 271.744 3398
-1479.71 271.744 3398
-1495.83 276.223 3454
-1487.57 276.223 3454
-1479.31 276.223 3454
-1462.11 274.543 3433
-1433.15 270.625 3384
-1416.21 268.945 3363
-1408.17 268.945 3363
-1383.48 265.746 3323
-1367.25 264.147 3303
-1362.23 264.707 3310
-1357.18 265.267 3317
-1354.54 266.306 3330
-1346.58 266.306 3330
-1341.43 266.866 3337
-1333.45 266.866 3337
-1325.47 266.866 3337
-1314.72 266.306 3330
-1304.01 265.746 3323
-1280.86 262.627 3284
-1273 262.627 3284
-1250.51 259.589 3246
-1237.77 258.549 3233
-1213.68 255.11 3190
-1206.05 255.11 3190
-1184.9 252.231 3154
-1172.88 251.271 3142
-1152.38 248.472 3107
-1144.95 248.472 3107
-1130.93 247.033 3089
-1113.36 244.794 3061
-1098.09 243.034 3039
-1084.72 241.675 3022
-1077.5 241.675 3022
-1064.6 240.395 3006
-1055.3 239.915 3000
-1061.76 243.034 3039
-1058.31 243.914 3050
-1051.01 243.914 3050
-1043.72 243.914 3050
-1038.12 244.314 3055
-1044.32 247.513 3095
-1036.92 247.513 3095
-1029.51 247.513 3095
-1022.11 247.513 3095
-1014.71 247.513 3095
-987.132 242.555 3033
-971.156 240.395 3006
-963.968 240.395 3006
-956.78 240.395 3006
-944.537 239.116 2990
-925.787 236.157 2953
-916.859 235.677 2947
-939.758 243.434 3044
-932.479 243.434 3044
-927.024 243.914 3050
-921.238 244.314 3055
-913.932 244.314 3055
-906.627 244.314 3055
-897.85 243.914 3050
-880.921 241.275 3017
-873.706 241.275 3017
-858.737 239.116 2990
-845.321 237.356 2968
-832.293 235.677 2947
-821.045 234.477 2932
-814.034 234.477 2932
-804.27 233.678 2922
-798.647 234.078 2927
-791.648 234.078 2927
-784.648 234.078 2927
-777.649 234.078 2927
-771.966 234.477 2932
-766.259 234.877 2937
-759.236 234.877 2937
-752.213 234.877 2937
-743.921 234.477 2932
-735.653 234.078 2927
-728.654 234.078 2927
-719.189 233.278 2917
-712.214 233.278 2917
-701.37 231.998 2901
-694.433 231.998 2901
-687.495 231.998 2901
-680.558 231.998 2901
-673.621 231.998 2901
-667.833 232.398 2906
-660.884 232.398 2906
-657.535 233.678 2922
-650.548 233.678 2922
-643.56 233.678 2922
-636.573 233.678 2922
-629.586 233.678 2922
-622.598 233.678 2922
-615.611 233.678 2922
-608.623 233.678 2922
-601.636 233.678 2922
-594.649 233.678 2922
-587.661 233.678 2922
-686.136 313.889 3925
-676.75 313.889 3925
-693.549 326.205 4079
-683.795 326.205 4079
-674.041 326.205 4079
-657.772 323.006 4039
-645.065 321.487 4020
-627.865 317.648 3972
-618.366 317.648 3972
-605.956 316.129 3953
-596.503 316.129 3953
-591.357 318.448 3982
-581.835 318.448 3982
-572.312 318.448 3982
-564.062 319.168 3991
-557.158 320.687 4010
-550.3 322.286 4030
-540.663 322.286 4030
-531.026 322.286 4030
-521.389 322.286 4030
-511.752 322.286 4030
-502.116 322.286 4030
-492.479 322.286 4030
-481.643 321.487 4020
-469.799 319.967 4001
-460.232 319.967 4001
-448.524 318.448 3982
-439.002 318.448 3982
-427.431 316.928 3963
-417.954 316.928 3963
-408.477 316.928 3963
-399 316.928 3963
-382.25 311.01 3889
-372.95 311.01 3889
-361.967 309.571 3871
-352.711 309.571 3871
-345.85 311.73 3898
-336.528 311.73 3898
-327.207 311.73 3898
-313.482 307.412 3844
-302.232 305.332 3818
-293.102 305.332 3818
-282.038 303.253 3792
-272.322 302.533 3783
-263.276 302.533 3783
-254.23 302.533 3783
-245.183 302.533 3783
-242.192 310.291 3880
-232.913 310.291 3880
-223.635 310.291 3880
-211.871 306.692 3835
-112.74 170.58 2133
-107.236 169.94 2125
-101.914 169.54 2120
-96.8446 169.54 2120
-91.6452 169.3 2117
-86.4601 169.06 2114
-81.0968 168.421 2106
-76.0607 168.421 2106
-71.0247 168.421 2106
-65.9886 168.421 2106
-60.9525 168.421 2106
-55.9164 168.421 2106
-50.7595 168.021 2101
-45.7354 168.021 2101
-40.6531 167.781 2098
-35.6362 167.781 2098
-30.6192 167.781 2098
-25.5779 167.621 2096
-20.4872 166.981 2088
-15.4942 166.981 2088
-10.5011 166.981 2088
-5.50807 166.981 2088
-0.513796 166.581 2083
4.46729 166.581 2083
9.44837 166.581 2083
14.4087 166.341 2080
19.3639 166.181 2078
24.2628 165.702 2072
29.2176 165.702 2072
34.0899 165.302 2067
38.9006 164.742 2060
43.7628 164.502 2057
48.6817 164.502 2057
53.6006 164.502 2057
58.5195 164.502 2057
63.4385 164.502 2057
68.3574 164.502 2057
73.2763 164.502 2057
78.5753 165.302 2067
83.8414 165.942 2075
88.9317 166.181 2078
94.2172 166.741 2085
99.203 166.741 2085
104.339 166.981 2088
109.594 167.381 2093
115.037 168.021 2101
120.061 168.021 2101
125.561 168.661 2109
131.1 169.3 2117
137.384 170.82 2136
142.492 170.82 2136
148.015 171.3 2142
153.28 171.46 2144
158.85 171.939 2150
163.991 171.939 2150
169.526 172.339 2155
174.922 172.579 2158
180.083 172.579 2158
185.243 172.579 2158
190.668 172.819 2161
195.836 172.819 2161
202.027 173.699 2172
207.221 173.699 2172
212.415 173.699 2172
217.909 173.939 2175
225.162 175.538 2195
230.411 175.538 2195
235.66 175.538 2195
242.225 176.498 2207
247.503 176.498 2207
252.781 176.498 2207
439.985 249.832 3124
447.455 249.832 3124
454.926 249.832 3124
459.88 248.472 3107
466.407 247.993 3101
466.794 244.314 3055
474.099 244.314 3055
477.938 242.555 3033
485.191 242.555 3033
489.846 241.275 3017
497.061 241.275 3017
503.272 240.795 3011
505.895 238.636 2984
511.311 237.836 2974
517.377 237.356 2968
524.475 237.356 2968
531.572 237.356 2968
536.854 236.557 2958
543.928 236.557 2958
551.001 236.557 2958
558.075 236.557 2958
565.148 236.557 2958
570.094 235.677 2947
577.141 235.677 2947
584.188 235.677 2947
590.232 235.277 2942
597.268 235.277 2942
604.303 235.277 2942
610.299 234.877 2937
617.322 234.877 2937
624.345 234.877 2937
631.369 234.877 2937
638.392 234.877 2937
644.316 234.477 2932
651.328 234.477 2932
658.339 234.477 2932
665.35 234.477 2932
671.215 234.078 2927
678.214 234.078 2927
684.043 233.678 2922
691.031 233.678 2922
698.018 233.678 2922
705.005 233.678 2922
713.211 234.078 2927
720.21 234.078 2927
727.21 234.078 2927
734.209 234.078 2927
741.208 234.078 2927
748.208 234.078 2927
755.207 234.078 2927
762.207 234.078 2927
770.52 234.477 2932
777.531 234.477 2932
784.542 234.477 2932
791.554 234.477 2932
798.565 234.477 2932
805.576 234.477 2932
812.588 234.477 2932
819.599 234.477 2932
826.61 234.477 2932
833.622 234.477 2932
840.633 234.477 2932
847.644 234.477 2932
853.198 234.078 2927
860.197 234.078 2927
867.197 234.078 2927
874.196 234.078 2927
881.195 234.078 2927
