ply
format ascii 1.0
comment File generated
element vertex 2253
property float x
property float y
property float z
end_header
-499.87 1128.8 2198
-494.614 1128.8 2198
-489.358 1128.8 2198
-484.102 1128.8 2198
-478.192 1127.26 2195
-472.943 1127.26 2195
-467.694 1127.26 2195
-462.446 1127.26 2195
-456.572 1125.72 2192
-451.33 1125.72 2192
-446.699 1127.26 2195
-441.45 1127.26 2195
-436.201 1127.26 2195
-430.363 1125.72 2192
-425.121 1125.72 2192
-419.88 1125.72 2192
-414.638 1125.72 2192
-409.396 1125.72 2192
-404.154 1125.72 2192
-398.367 1124.18 2189
-392.593 1122.64 2186
-387.366 1122.64 2186
-382.139 1122.64 2186
-376.049 1120.07 2181
-369.303 1115.45 2172
-364.612 1116.99 2175
-359.907 1118.53 2178
-354.699 1118.53 2178
-349.491 1118.53 2178
-344.282 1118.53 2178
-339.074 1118.53 2178
-332.486 1113.91 2169
-327.299 1113.91 2169
-321.37 1111.34 2164
-316.634 1112.88 2167
-311.452 1112.88 2167
-306.976 1115.45 2172
-302.616 1118.53 2178
-297.818 1120.07 2181
-292.602 1120.07 2181
-287.782 1121.61 2184
-283.206 1124.18 2189
-277.972 1124.18 2189
-272.737 1124.18 2189
-267.503 1124.18 2189
-262.628 1125.72 2192
-258.09 1128.8 2198
-253.179 1130.34 2201
-247.916 1130.34 2201
-242.653 1130.34 2201
-237.713 1131.88 2204
-233.075 1134.97 2210
-227.791 1134.97 2210
-222.808 1136.51 2213
-218.302 1140.61 2221
-213.567 1143.7 2227
-208.241 1143.7 2227
-202.916 1143.7 2227
-197.59 1143.7 2227
-192.265 1143.7 2227
-186.939 1143.7 2227
-181.614 1143.7 2227
-175.576 1139.07 2218
-170.272 1139.07 2218
-164.968 1139.07 2218
-159.448 1137.53 2215
-154.013 1136.51 2213
-148.721 1136.51 2213
-143.04 1133.42 2207
-137.388 1130.34 2201
-130.744 1118.53 2178
-125.535 1118.53 2178
-120.659 1121.61 2184
-115.436 1121.61 2184
-110.213 1121.61 2184
-104.702 1118.53 2178
-99.4941 1118.53 2178
-93.8963 1113.91 2169
-88.6277 1112.88 2167
-83.3303 1111.34 2164
-78.1555 1111.34 2164
-72.8795 1109.8 2161
-67.4612 1105.69 2153
-62.1391 1102.61 2147
-57.005 1102.61 2147
-51.7984 1101.07 2144
-46.7367 1102.61 2147
-41.6026 1102.61 2147
-36.4685 1102.61 2147
-31.2906 1101.07 2144
-25.9318 1091.31 2125
107.987 1109.8 2161
113.311 1111.34 2164
118.486 1111.34 2164
123.661 1111.34 2164
128.657 1109.8 2161
133.825 1109.8 2161
138.799 1108.26 2158
143.76 1106.72 2155
149.535 1111.34 2164
155.496 1116.99 2175
160.697 1116.99 2175
165.898 1116.99 2175
171.335 1118.53 2178
177.03 1121.61 2184
182.253 1121.61 2184
187.475 1121.61 2184
192.168 1118.53 2178
197.92 1121.61 2184
203.329 1122.64 2186
208.556 1122.64 2186
214.371 1125.72 2192
219.612 1125.72 2192
225.777 1130.34 2201
231.04 1130.34 2201
236.304 1130.34 2201
242.884 1136.51 2213
248.4 1137.53 2215
253.697 1137.53 2215
258.994 1137.53 2215
262.978 1131.88 2204
268.248 1131.88 2204
273.147 1130.34 2201
276.892 1124.18 2189
283.286 1128.8 2198
290.774 1137.53 2215
296.071 1137.53 2215
301.776 1139.07 2218
307.08 1139.07 2218
312.384 1139.07 2218
317.688 1139.07 2218
322.555 1137.53 2215
327.851 1137.53 2215
333.148 1137.53 2215
338.139 1136.51 2213
343.431 1136.51 2213
348.25 1134.97 2210
354.335 1137.53 2215
360.119 1139.07 2218
365.423 1139.07 2218
371.729 1142.16 2224
377.048 1142.16 2224
385.461 1151.4 2242
390.822 1151.4 2242
396.183 1151.4 2242
401.545 1151.4 2242
406.906 1151.4 2242
411.164 1148.32 2236
416.511 1148.32 2236
421.292 1146.78 2233
427.778 1149.86 2239
433.132 1149.86 2239
438.486 1149.86 2239
443.84 1149.86 2239
449.194 1149.86 2239
453.94 1148.32 2236
459.286 1148.32 2236
464.633 1148.32 2236
469.98 1148.32 2236
475.327 1148.32 2236
479.384 1145.24 2230
484.065 1143.7 2227
489.39 1143.7 2227
492.717 1139.07 2218
497.347 1137.53 2215
502.644 1137.53 2215
509.316 1140.61 2221
515.322 1142.16 2224
520.641 1142.16 2224
525.959 1142.16 2224
529.844 1139.07 2218
535.148 1139.07 2218
540.452 1139.07 2218
544.525 1136.51 2213
548.327 1133.42 2207
553.604 1133.42 2207
557.362 1130.34 2201
562.626 1130.34 2201
567.889 1130.34 2201
573.933 1131.88 2204
579.204 1131.88 2204
584.474 1131.88 2204
589.745 1131.88 2204
595.015 1131.88 2204
603.282 1137.53 2215
608.578 1137.53 2215
613.875 1137.53 2215
621.688 1142.16 2224
627.852 1143.7 2227
633.177 1143.7 2227
638.503 1143.7 2227
648.164 1151.4 2242
653.526 1151.4 2242
658.887 1151.4 2242
662.471 1148.32 2236
667.818 1148.32 2236
673.165 1148.32 2236
676.691 1145.24 2230
682.023 1145.24 2230
685.507 1142.16 2224
690.825 1142.16 2224
693.326 1137.53 2215
694.207 1130.34 2201
697.564 1127.26 2195
702.813 1127.26 2195
707.094 1125.72 2192
711.361 1124.18 2189
714.958 1121.61 2184
720.181 1121.61 2184
725.404 1121.61 2184
730.626 1121.61 2184
734.838 1120.07 2181
738.017 1116.99 2175
743.219 1116.99 2175
745.667 1112.88 2167
750.849 1112.88 2167
756.031 1112.88 2167
761.213 1112.88 2167
766.395 1112.88 2167
771.577 1112.88 2167
775.683 1111.34 2164
782.662 1113.91 2169
788.939 1115.45 2172
794.133 1115.45 2172
800.43 1116.99 2175
805.632 1116.99 2175
810.833 1116.99 2175
816.034 1116.99 2175
821.235 1116.99 2175
825.296 1115.45 2172
830.49 1115.45 2172
835.684 1115.45 2172
839.716 1113.91 2169
848.409 1118.53 2178
854.793 1120.07 2181
860.008 1120.07 2181
865.224 1120.07 2181
870.439 1120.07 2181
875.655 1120.07 2181
880.87 1120.07 2181
882.429 1115.45 2172
891.301 1120.07 2181
896.516 1120.07 2181
901.732 1120.07 2181
909.026 1122.64 2186
914.254 1122.64 2186
923.267 1127.26 2195
934.861 1134.97 2210
940.146 1134.97 2210
946.714 1136.51 2213
955.447 1140.61 2221
960.758 1140.61 2221
966.069 1140.61 2221
974.005 1143.7 2227
979.33 1143.7 2227
984.656 1143.7 2227
989.981 1143.7 2227
996.647 1145.24 2230
1004.68 1148.32 2236
1014.09 1152.94 2245
1019.46 1152.94 2245
1033.5 1162.7 2264
1038.91 1162.7 2264
1048.48 1167.32 2273
1053.91 1167.32 2273
1060.75 1168.86 2276
1066.19 1168.86 2276
1071.63 1168.86 2276
1077.07 1168.86 2276
1082.52 1168.86 2276
1087.96 1168.86 2276
1093.4 1168.86 2276
1095.95 1165.78 2270
1101.38 1165.78 2270
1108.27 1167.32 2273
1113.7 1167.32 2273
1125.05 1173.48 2285
1130.51 1173.48 2285
1139.45 1177.08 2292
1144.94 1177.08 2292
1150.42 1177.08 2292
1155.9 1177.08 2292
1161.38 1177.08 2292
1161.77 1171.94 2282
1167.23 1171.94 2282
1166.52 1165.78 2270
1170.4 1164.24 2267
1175.82 1164.24 2267
1181.24 1164.24 2267
1186.66 1164.24 2267
1185.24 1157.56 2254
1185.88 1152.94 2245
1191.25 1152.94 2245
1196.62 1152.94 2245
1200.38 1151.4 2242
1205.74 1151.4 2242
1211.1 1151.4 2242
1216.46 1151.4 2242
1221.82 1151.4 2242
1217.33 1142.16 2224
1217.7 1137.53 2215
1223 1137.53 2215
1225.52 1134.97 2210
1229.14 1133.42 2207
1226.03 1125.72 2192
1231.27 1125.72 2192
1233.12 1122.64 2186
1235.52 1120.07 2181
1233.91 1113.91 2169
1239.09 1113.91 2169
1244.28 1113.91 2169
1249.47 1113.91 2169
1259.86 1118.53 2178
1265.07 1118.53 2178
1270.28 1118.53 2178
1275.49 1118.53 2178
1280.69 1118.53 2178
1280.59 1113.91 2169
1285.78 1113.91 2169
1290.96 1113.91 2169
1278.22 1098.5 2139
1283.34 1098.5 2139
1291.46 1101.07 2144
1296.59 1101.07 2144
1301.72 1101.07 2144
1315.38 1108.26 2158
1322.37 1109.8 2161
1329.38 1111.34 2164
1334.56 1111.34 2164
1341.59 1112.88 2167
1346.77 1112.88 2167
1351.96 1112.88 2167
1353.38 1109.8 2161
1356.66 1108.26 2158
1359.93 1106.72 2155
1365.08 1106.72 2155
1367.06 1104.15 2150
1372.2 1104.15 2150
1380.54 1106.72 2155
1398.56 1116.99 2175
1409.56 1121.61 2184
1414.79 1121.61 2184
1429.11 1128.8 2198
1436.33 1130.34 2201
1443.55 1131.88 2204
1448.83 1131.88 2204
1463.33 1139.07 2218
1468.64 1139.07 2218
1473.94 1139.07 2218
1479.24 1139.07 2218
1484.55 1139.07 2218
1484.48 1134.97 2210
1489.76 1134.97 2210
1495.05 1134.97 2210
1496.26 1131.88 2204
1501.53 1131.88 2204
1506.8 1131.88 2204
1510.01 1130.34 2201
1515.28 1130.34 2201
1516.39 1127.26 2195
1514.02 1121.61 2184
1519.24 1121.61 2184
1520.27 1118.53 2178
1519.18 1113.91 2169
1524.37 1113.91 2169
1531.67 1115.45 2172
1536.86 1115.45 2172
1542.06 1115.45 2172
1547.25 1115.45 2172
1552.44 1115.45 2172
1555.49 1113.91 2169
1562.83 1115.45 2172
1578.13 1122.64 2186
1585.53 1124.18 2189
1597.31 1128.8 2198
1602.56 1128.8 2198
1607.82 1128.8 2198
1615.28 1130.34 2201
1620.54 1130.34 2201
1625.8 1130.34 2201
1635.51 1133.42 2207
1640.79 1133.42 2207
1646.07 1133.42 2207
1651.35 1133.42 2207
1656.62 1133.42 2207
1659.64 1131.88 2204
1664.91 1131.88 2204
1670.18 1131.88 2204
1683.82 1137.53 2215
1695.98 1142.16 2224
1701.29 1142.16 2224
-1628.48 1122.2 2175
-1631.48 1127.88 2186
-1626.26 1127.88 2186
-1621.03 1127.88 2186
-1615.8 1127.88 2186
-1610.57 1127.88 2186
-1603.88 1126.84 2184
-1584.02 1116.53 2164
-1578.84 1116.53 2164
-1573.67 1116.53 2164
-1568.49 1116.53 2164
-1563.32 1116.53 2164
-1558.14 1116.53 2164
-1552.97 1116.53 2164
-1545.65 1114.98 2161
-1552.6 1123.75 2178
-1549.52 1125.3 2181
-1544.31 1125.3 2181
-1542.62 1127.88 2186
-1537.39 1127.88 2186
-1532.16 1127.88 2186
-1526.94 1127.88 2186
-1521.71 1127.88 2186
-1510.93 1123.75 2178
-1505.72 1123.75 2178
-1496.38 1120.65 2172
-1495.31 1123.75 2178
-1490.1 1123.75 2178
-1486.94 1125.3 2181
-1481.72 1125.3 2181
-1488.01 1134.07 2198
-1486.81 1137.16 2204
-1485.57 1140.26 2210
-1480.28 1140.26 2210
-1475 1140.26 2210
-1461.73 1134.07 2198
-1456.48 1134.07 2198
-1449.24 1132.52 2195
-1443.99 1132.52 2195
-1438.74 1132.52 2195
-1433.49 1132.52 2195
-1428.24 1132.52 2195
-1421.05 1130.97 2192
-1415.81 1130.97 2192
-1410.57 1130.97 2192
-1403.4 1129.42 2189
-1394.97 1126.84 2184
-1385.93 1123.75 2178
-1380.73 1123.75 2178
-1375.52 1123.75 2178
-1374.08 1126.84 2184
-1368.86 1126.84 2184
-1363.64 1126.84 2184
-1356.55 1125.3 2181
-1343.9 1119.11 2169
-1335.63 1116.53 2164
-1333.53 1119.11 2169
-1328.34 1119.11 2169
-1323.15 1119.11 2169
-1313.1 1114.98 2161
-1307.94 1114.98 2161
-1302.77 1114.98 2161
-1295.8 1113.43 2158
-1288.85 1111.88 2155
-1285.48 1113.43 2158
-1280.32 1113.43 2158
-1280.48 1118.07 2167
-1276.47 1119.11 2169
-1274.8 1122.2 2175
-1269.6 1122.2 2175
-1266.14 1123.75 2178
-1260.94 1123.75 2178
-1255.73 1123.75 2178
-1250.52 1123.75 2178
-1245.31 1123.75 2178
-1240.1 1123.75 2178
-1234.89 1123.75 2178
-1229.69 1123.75 2178
-1224.48 1123.75 2178
-1219.27 1123.75 2178
-1214.06 1123.75 2178
-1208.85 1123.75 2178
-1201.99 1122.2 2175
-1195.14 1120.65 2172
-1188.3 1119.11 2169
-1183.11 1119.11 2169
-1175.21 1116.53 2164
-1170.03 1116.53 2164
-1163.24 1114.98 2161
-1161.29 1118.07 2167
-1156.11 1118.07 2167
-1150.93 1118.07 2167
-1146.8 1119.11 2169
-1141.62 1119.11 2169
-1136.43 1119.11 2169
-1130.2 1118.07 2167
-1123.46 1116.53 2164
-1118.29 1116.53 2164
-1111.57 1114.98 2161
-1106.4 1114.98 2161
-1102.76 1116.53 2164
-1097.59 1116.53 2164
-1092.41 1116.53 2164
-1087.24 1116.53 2164
-1082.06 1116.53 2164
-1076.89 1116.53 2164
-1070.23 1114.98 2161
-1063.58 1113.43 2158
-1061.36 1116.53 2164
-1057.65 1118.07 2167
-1052.47 1118.07 2167
-1049.71 1120.65 2172
-1047.4 1123.75 2178
-1042.19 1123.75 2178
-1036.98 1123.75 2178
-1028.93 1120.65 2172
-1025.15 1122.2 2175
-1022.76 1125.3 2181
-1017.55 1125.3 2181
-1020.22 1134.07 2198
-1014.97 1134.07 2198
-1009.71 1134.07 2198
-1004.45 1134.07 2198
-999.198 1134.07 2198
-991.229 1130.97 2192
-985.987 1130.97 2192
-980.745 1130.97 2192
-975.504 1130.97 2192
-970.262 1130.97 2192
-965.02 1130.97 2192
-958.465 1129.42 2189
-951.053 1126.84 2184
-945.83 1126.84 2184
-940.608 1126.84 2184
-934.1 1125.3 2181
-928.885 1125.3 2181
-923.669 1125.3 2181
-918.454 1125.3 2181
-913.239 1125.3 2181
-906.774 1123.75 2178
-901.566 1123.75 2178
-896.358 1123.75 2178
-891.149 1123.75 2178
-884.721 1122.2 2175
-878.307 1120.65 2172
-869.897 1116.53 2164
-864.722 1116.53 2164
-859.547 1116.53 2164
-853.188 1114.98 2161
-845.666 1111.88 2155
-840.513 1111.88 2155
-835.359 1111.88 2155
-832.518 1114.98 2161
-827.35 1114.98 2161
-822.182 1114.98 2161
-817.015 1114.98 2161
-814.101 1118.07 2167
-808.919 1118.07 2167
-803.737 1118.07 2167
-798.555 1118.07 2167
-793.373 1118.07 2167
-786.009 1114.98 2161
-780.842 1114.98 2161
-775.674 1114.98 2161
-770.506 1114.98 2161
-765.339 1114.98 2161
-760.171 1114.98 2161
-755.004 1114.98 2161
-749.836 1114.98 2161
-745.702 1116.53 2164
-740.527 1116.53 2164
-735.353 1116.53 2164
-730.178 1116.53 2164
-725.003 1116.53 2164
-719.828 1116.53 2164
-713.663 1114.98 2161
-708.495 1114.98 2161
-703.327 1114.98 2161
-698.16 1114.98 2161
-692.992 1114.98 2161
-687.825 1114.98 2161
-682.657 1114.98 2161
-677.489 1114.98 2161
-672.322 1114.98 2161
-667.154 1114.98 2161
-661.068 1113.43 2158
-655.907 1113.43 2158
-650.747 1113.43 2158
-645.586 1113.43 2158
-641.316 1114.98 2161
-636.149 1114.98 2161
-630.981 1114.98 2161
-625.813 1114.98 2161
-620.646 1114.98 2161
-615.478 1114.98 2161
-612.57 1119.11 2169
-607.383 1119.11 2169
-602.196 1119.11 2169
-597.01 1119.11 2169
-591.823 1119.11 2169
-586.095 1118.07 2167
-581.449 1119.11 2169
-576.263 1119.11 2169
-571.866 1120.65 2172
-566.672 1120.65 2172
-562.254 1122.2 2175
-557.821 1123.75 2178
-554.642 1127.88 2186
-549.415 1127.88 2186
-544.934 1129.42 2189
-539.7 1129.42 2189
-534.465 1129.42 2189
-529.231 1129.42 2189
-523.278 1127.88 2186
-518.051 1127.88 2186
-514.935 1132.52 2195
-509.686 1132.52 2195
-504.437 1132.52 2195
-499.188 1132.52 2195
-493.939 1132.52 2195
-488.69 1132.52 2195
-482.78 1130.97 2192
-477.539 1130.97 2192
-472.297 1130.97 2192
-467.055 1130.97 2192
-460.128 1126.84 2184
-455.322 1127.88 2186
-450.095 1127.88 2186
-444.867 1127.88 2186
-439.64 1127.88 2186
-434.412 1127.88 2186
-429.185 1127.88 2186
-423.958 1127.88 2186
-418.73 1127.88 2186
-413.125 1126.84 2184
-407.902 1126.84 2184
-402.679 1126.84 2184
-396.365 1123.75 2178
-390.618 1122.2 2175
-384.885 1120.65 2172
-379.691 1120.65 2172
-373.635 1118.07 2167
-367.943 1116.53 2164
-362.265 1114.98 2161
-357.098 1114.98 2161
-351.93 1114.98 2161
-346.763 1114.98 2161
-341.595 1114.98 2161
-336.427 1114.98 2161
-330.34 1111.88 2155
-324.885 1110.85 2153
-319.737 1110.85 2153
-314.588 1110.85 2153
-309.008 1109.3 2150
-304.998 1113.43 2158
-300.254 1114.98 2161
-295.496 1116.53 2164
-290.724 1118.07 2167
-285.542 1118.07 2167
-281.007 1120.65 2172
-275.813 1120.65 2172
-270.993 1122.2 2175
-265.792 1122.2 2175
-260.95 1123.75 2178
-255.742 1123.75 2178
-250.879 1125.3 2181
-245.663 1125.3 2181
-240.779 1126.84 2184
-235.556 1126.84 2184
-230.333 1126.84 2184
-225.111 1126.84 2184
-220.694 1130.97 2192
-215.747 1132.52 2195
-211.073 1135.62 2201
-205.81 1135.62 2201
-200.547 1135.62 2201
-195.283 1135.62 2201
-190.02 1135.62 2201
-184.505 1134.07 2198
-179.004 1132.52 2195
-173.755 1132.52 2195
-168.507 1132.52 2195
-162.811 1129.42 2189
-157.577 1129.42 2189
-151.785 1125.3 2181
-146.57 1125.3 2181
-140.577 1119.11 2169
-135.39 1119.11 2169
-130.203 1119.11 2169
-125.017 1119.11 2169
-119.719 1118.07 2167
-114.537 1118.07 2167
-109.356 1118.07 2167
-104.174 1118.07 2167
-98.9916 1118.07 2167
-93.6798 1116.53 2164
-88.2596 1113.43 2158
-82.9067 1110.85 2153
-77.7582 1110.85 2153
-72.6097 1110.85 2153
-67.2732 1107.75 2147
-61.8208 1102.08 2136
-56.7926 1103.63 2139
-51.6776 1103.63 2139
-46.6714 1106.21 2144
-41.5445 1106.21 2144
-36.4175 1106.21 2144
-31.2906 1106.21 2144
-25.9318 1096.4 2125
107.987 1114.98 2161
113.154 1114.98 2161
118.322 1114.98 2161
123.032 1110.85 2153
128.181 1110.85 2153
133.329 1110.85 2153
138.285 1109.3 2150
143.626 1110.85 2153
148.913 1111.88 2155
154.71 1116.53 2164
159.884 1116.53 2164
165.441 1119.11 2169
170.863 1120.65 2172
176.3 1122.2 2175
181.752 1123.75 2178
186.96 1123.75 2178
192.168 1123.75 2178
197.92 1126.84 2184
203.329 1127.88 2186
208.556 1127.88 2186
214.371 1130.97 2192
219.612 1130.97 2192
225.777 1135.62 2201
231.04 1135.62 2201
236.304 1135.62 2201
242.884 1141.81 2213
248.4 1142.84 2215
253.697 1142.84 2215
258.994 1142.84 2215
262.978 1137.16 2204
268.248 1137.16 2204
273.147 1135.62 2201
276.892 1129.42 2189
283.286 1134.07 2198
290.774 1142.84 2215
296.071 1142.84 2215
301.776 1144.39 2218
307.08 1144.39 2218
312.384 1144.39 2218
317.688 1144.39 2218
322.555 1142.84 2215
327.851 1142.84 2215
333.148 1142.84 2215
338.139 1141.81 2213
343.431 1141.81 2213
348.25 1140.26 2210
354.335 1142.84 2215
360.119 1144.39 2218
365.423 1144.39 2218
371.729 1147.48 2224
377.048 1147.48 2224
385.461 1156.77 2242
390.822 1156.77 2242
396.183 1156.77 2242
401.545 1156.77 2242
406.906 1156.77 2242
411.164 1153.67 2236
416.511 1153.67 2236
421.292 1152.13 2233
427.778 1155.22 2239
433.132 1155.22 2239
438.486 1155.22 2239
443.84 1155.22 2239
449.194 1155.22 2239
453.94 1153.67 2236
459.286 1153.67 2236
464.633 1153.67 2236
469.98 1153.67 2236
475.327 1153.67 2236
479.384 1150.58 2230
484.065 1149.03 2227
489.39 1149.03 2227
492.717 1144.39 2218
497.347 1142.84 2215
502.644 1142.84 2215
509.316 1145.93 2221
515.322 1147.48 2224
520.641 1147.48 2224
525.959 1147.48 2224
529.844 1144.39 2218
535.148 1144.39 2218
540.452 1144.39 2218
544.525 1141.81 2213
548.327 1138.71 2207
553.604 1138.71 2207
557.362 1135.62 2201
562.626 1135.62 2201
567.889 1135.62 2201
573.933 1137.16 2204
579.204 1137.16 2204
584.474 1137.16 2204
589.745 1137.16 2204
595.015 1137.16 2204
603.282 1142.84 2215
608.578 1142.84 2215
613.875 1142.84 2215
621.688 1147.48 2224
627.852 1149.03 2227
633.177 1149.03 2227
638.503 1149.03 2227
648.164 1156.77 2242
653.526 1156.77 2242
658.887 1156.77 2242
662.471 1153.67 2236
667.818 1153.67 2236
673.165 1153.67 2236
676.691 1150.58 2230
682.023 1150.58 2230
685.507 1147.48 2224
690.825 1147.48 2224
693.326 1142.84 2215
694.207 1135.62 2201
694.068 1126.84 2184
699.29 1126.84 2184
704.513 1126.84 2184
708.761 1125.3 2181
712.994 1123.75 2178
717.213 1122.2 2175
722.414 1122.2 2175
727.615 1122.2 2175
731.806 1120.65 2172
735.303 1118.07 2167
740.485 1118.07 2167
743.602 1114.98 2161
748.77 1114.98 2161
754.984 1116.53 2164
760.159 1116.53 2164
765.334 1116.53 2164
769.44 1114.98 2161
773.533 1113.43 2158
778.693 1113.43 2158
786.033 1116.53 2164
791.208 1116.53 2164
798.222 1119.11 2169
804.52 1120.65 2172
809.714 1120.65 2172
814.908 1120.65 2172
820.102 1120.65 2172
823.396 1118.07 2167
828.578 1118.07 2167
833.76 1118.07 2167
837.781 1116.53 2164
842.955 1116.53 2164
851.266 1120.65 2172
856.459 1120.65 2172
861.653 1120.65 2172
866.847 1120.65 2172
872.041 1120.65 2172
876.023 1119.11 2169
880.398 1118.07 2167
885.58 1118.07 2167
892.817 1120.65 2172
898.011 1120.65 2172
906.947 1125.3 2181
912.163 1125.3 2181
918.64 1126.84 2184
925.978 1129.42 2189
931.212 1129.42 2189
939.014 1132.52 2195
952.006 1141.81 2213
957.298 1141.81 2213
962.59 1141.81 2213
967.882 1141.81 2213
969.216 1137.16 2204
974.486 1137.16 2204
979.757 1137.16 2204
985.027 1137.16 2204
987.602 1134.07 2198
999.633 1141.81 2213
1004.93 1141.81 2213
1020.72 1153.67 2236
1027.44 1155.22 2239
1039.71 1162.96 2254
1045.1 1162.96 2254
1051.89 1164.51 2257
1059.16 1166.57 2261
1064.57 1166.57 2261
1069.98 1166.57 2261
1075.38 1166.57 2261
1080.79 1166.57 2261
1086.2 1166.57 2261
1086.78 1161.41 2251
1092.16 1161.41 2251
1097.54 1161.41 2251
1109.29 1168.12 2264
1119.14 1172.76 2273
1124.57 1172.76 2273
1132.99 1175.86 2279
1141.44 1178.96 2285
1146.9 1178.96 2285
1152.37 1178.96 2285
1151.75 1172.76 2273
1154.13 1169.67 2267
1159.55 1169.67 2267
1161.89 1166.57 2261
1167.3 1166.57 2261
1170.63 1164.51 2257
1176.03 1164.51 2257
1179.85 1162.96 2254
1182.09 1159.87 2248
1185.88 1158.32 2245
1189.66 1156.77 2242
1195.02 1156.77 2242
1195.56 1152.13 2233
1200.9 1152.13 2233
1204.62 1150.58 2230
1209.95 1150.58 2230
1212.01 1147.48 2224
1212.41 1142.84 2215
1214.95 1140.26 2210
1220.24 1140.26 2210
1223.86 1138.71 2207
1220.78 1130.97 2192
1222.67 1127.88 2186
1227.9 1127.88 2186
1230.3 1125.3 2181
1227.59 1118.07 2167
1231.06 1116.53 2164
1236.24 1116.53 2164
1241.41 1116.53 2164
1246.59 1116.53 2164
1251.76 1116.53 2164
1256.94 1116.53 2164
1263.86 1118.07 2167
1269.04 1118.07 2167
1274.23 1118.07 2167
1269.37 1109.3 2150
1274.51 1109.3 2150
1273.11 1103.63 2139
1274.64 1100.53 2133
1279.74 1100.53 2133
1286.64 1102.08 2136
1293.57 1103.63 2139
1298.68 1103.63 2139
1306.84 1106.21 2144
1318.7 1111.88 2155
1327.54 1114.98 2161
1332.71 1114.98 2161
1337.88 1114.98 2161
1343.04 1114.98 2161
1348.21 1114.98 2161
1351.5 1113.43 2158
1353.52 1110.85 2153
1354.88 1107.75 2147
1360.01 1107.75 2147
1365.15 1107.75 2147
1370.28 1107.75 2147
1379.26 1110.85 2153
1393.41 1118.07 2167
1405.69 1123.75 2178
1410.9 1123.75 2178
1420.01 1126.84 2184
1426.54 1127.88 2186
1439.62 1134.07 2198
1444.88 1134.07 2198
1452.12 1135.62 2201
1459.37 1137.16 2204
1466.63 1138.71 2207
1471.91 1138.71 2207
1477.19 1138.71 2207
1478.43 1135.62 2201
1483.7 1135.62 2201
1488.96 1135.62 2201
1490.15 1132.52 2195
1491.31 1129.42 2189
1496.54 1129.42 2189
1499.72 1127.88 2186
1503.57 1126.84 2184
1502.58 1122.2 2175
1503.62 1119.11 2169
1508.81 1119.11 2169
1510.5 1116.53 2164
1511.47 1113.43 2158
1516.63 1113.43 2158
1526.03 1116.53 2164
1531.2 1116.53 2164
1536.38 1116.53 2164
1539.41 1114.98 2161
1544.58 1114.98 2161
1549.75 1114.98 2161
1554.92 1114.98 2161
1565.86 1119.11 2169
1571.05 1119.11 2169
1580.59 1122.2 2175
1585.79 1122.2 2175
1591 1122.2 2175
1600.6 1125.3 2181
1609.5 1127.88 2186
1614.72 1127.88 2186
1624.4 1130.97 2192
1636.33 1135.62 2201
1643.83 1137.16 2204
1649.1 1137.16 2204
1654.37 1137.16 2204
1650.61 1130.97 2192
1655.85 1130.97 2192
1661.09 1130.97 2192
1673.17 1135.62 2201
1680.72 1137.16 2204
1685.99 1137.16 2204
-1617.99 1120.15 2161
-1612.83 1120.15 2161
-1607.66 1120.15 2161
-1602.49 1120.15 2161
-1597.32 1120.15 2161
-1592.16 1120.15 2161
-1584.78 1118.6 2158
-1581.82 1120.15 2161
-1578.84 1121.71 2164
-1573.67 1121.71 2164
-1568.49 1121.71 2164
-1563.32 1121.71 2164
-1558.14 1121.71 2164
-1552.97 1121.71 2164
-1539.93 1116.01 2153
-1550.46 1127.41 2175
-1545.26 1127.41 2175
-1540.06 1127.41 2175
-1532.74 1125.86 2172
-1527.55 1125.86 2172
-1522.35 1125.86 2172
-1517.16 1125.86 2172
-1511.96 1125.86 2172
-1503.3 1123.26 2167
-1498.12 1123.26 2167
-1492.94 1123.26 2167
-1489.13 1124.3 2169
-1483.94 1124.3 2169
-1482.85 1127.41 2175
-1477.64 1127.41 2175
-1474.47 1128.97 2178
-1482.76 1139.33 2198
-1477.5 1139.33 2198
-1472.25 1139.33 2198
-1466.99 1139.33 2198
-1457.74 1136.22 2192
-1452.5 1136.22 2192
-1447.26 1136.22 2192
-1442.02 1136.22 2192
-1436.78 1136.22 2192
-1431.53 1136.22 2192
-1426.29 1136.22 2192
-1421.05 1136.22 2192
-1415.81 1136.22 2192
-1410.57 1136.22 2192
-1403.4 1134.67 2189
-1394.97 1132.08 2184
-1385.93 1128.97 2178
-1380.73 1128.97 2178
-1375.52 1128.97 2178
-1374.08 1132.08 2184
-1368.86 1132.08 2184
-1363.64 1132.08 2184
-1356.55 1130.52 2181
-1343.9 1124.3 2169
-1335.63 1121.71 2164
-1333.53 1124.3 2169
-1328.34 1124.3 2169
-1323.15 1124.3 2169
-1313.1 1120.15 2161
-1307.94 1120.15 2161
-1302.77 1120.15 2161
-1295.8 1118.6 2158
-1288.85 1117.04 2155
-1285.48 1118.6 2158
-1280.32 1118.6 2158
-1280.48 1123.26 2167
-1276.47 1124.3 2169
-1274.8 1127.41 2175
-1269.6 1127.41 2175
-1266.14 1128.97 2178
-1260.94 1128.97 2178
-1255.73 1128.97 2178
-1250.52 1128.97 2178
-1245.31 1128.97 2178
-1240.1 1128.97 2178
-1234.89 1128.97 2178
-1229.69 1128.97 2178
-1224.48 1128.97 2178
-1219.27 1128.97 2178
-1214.06 1128.97 2178
-1208.85 1128.97 2178
-1201.99 1127.41 2175
-1195.14 1125.86 2172
-1188.3 1124.3 2169
-1183.11 1124.3 2169
-1175.21 1121.71 2164
-1170.03 1121.71 2164
-1163.24 1120.15 2161
-1161.29 1123.26 2167
-1156.11 1123.26 2167
-1150.93 1123.26 2167
-1146.8 1124.3 2169
-1141.62 1124.3 2169
-1136.43 1124.3 2169
-1130.2 1123.26 2167
-1123.46 1121.71 2164
-1118.29 1121.71 2164
-1111.57 1120.15 2161
-1106.4 1120.15 2161
-1102.76 1121.71 2164
-1097.59 1121.71 2164
-1092.41 1121.71 2164
-1088.74 1123.26 2167
-1083.56 1123.26 2167
-1078.38 1123.26 2167
-1070.23 1120.15 2161
-1063.58 1118.6 2158
-1061.36 1121.71 2164
-1057.65 1123.26 2167
-1052.47 1123.26 2167
-1049.71 1125.86 2172
-1047.4 1128.97 2178
-1042.19 1128.97 2178
-1036.98 1128.97 2178
-1028.93 1125.86 2172
-1025.15 1127.41 2175
-1022.76 1130.52 2181
-1017.55 1130.52 2181
-1020.22 1139.33 2198
-1014.97 1139.33 2198
-1009.71 1139.33 2198
-1004.45 1139.33 2198
-999.198 1139.33 2198
-991.229 1136.22 2192
-985.987 1136.22 2192
-980.745 1136.22 2192
-975.504 1136.22 2192
-970.262 1136.22 2192
-965.02 1136.22 2192
-958.465 1134.67 2189
-951.053 1132.08 2184
-945.83 1132.08 2184
-940.608 1132.08 2184
-934.1 1130.52 2181
-928.885 1130.52 2181
-923.669 1130.52 2181
-918.454 1130.52 2181
-913.239 1130.52 2181
-906.774 1128.97 2178
-901.566 1128.97 2178
-896.358 1128.97 2178
-891.149 1128.97 2178
-884.721 1127.41 2175
-878.307 1125.86 2172
-869.897 1121.71 2164
-864.722 1121.71 2164
-855.178 1116.01 2153
-848.845 1114.45 2150
-841.349 1111.34 2144
-836.222 1111.34 2144
-831.095 1111.34 2144
-827.124 1112.9 2147
-823.139 1114.45 2150
-817.997 1114.45 2150
-812.856 1114.45 2150
-807.715 1114.45 2150
-802.573 1114.45 2150
-797.432 1114.45 2150
-792.291 1114.45 2150
-787.149 1114.45 2150
-780.917 1112.9 2147
-775.783 1112.9 2147
-769.572 1111.34 2144
-764.445 1111.34 2144
-760.38 1112.9 2147
-756.302 1114.45 2150
-751.16 1114.45 2150
-747.754 1117.04 2155
-743.635 1118.6 2158
-738.474 1118.6 2158
-733.314 1118.6 2158
-728.153 1118.6 2158
-722.993 1118.6 2158
-717.832 1118.6 2158
-712.672 1118.6 2158
-707.511 1118.6 2158
-702.351 1118.6 2158
-697.191 1118.6 2158
-692.03 1118.6 2158
-685.915 1117.04 2155
-680.762 1117.04 2155
-676.549 1118.6 2158
-671.388 1118.6 2158
-666.228 1118.6 2158
-660.149 1117.04 2155
-654.387 1116.01 2153
-649.239 1116.01 2153
-644.091 1116.01 2153
-639.536 1117.04 2155
-635.265 1118.6 2158
-630.105 1118.6 2158
-624.945 1118.6 2158
-619.784 1118.6 2158
-614.624 1118.6 2158
-610.311 1120.15 2161
-605.143 1120.15 2161
-600.808 1121.71 2164
-595.633 1121.71 2164
-590.459 1121.71 2164
-584.473 1120.15 2161
-579.305 1120.15 2161
-574.934 1121.71 2164
-569.76 1121.71 2164
-564.585 1121.71 2164
-559.41 1121.71 2164
-557.052 1127.41 2175
-552.613 1128.97 2178
-547.404 1128.97 2178
-544.934 1134.67 2189
-539.7 1134.67 2189
-534.465 1134.67 2189
-529.231 1134.67 2189
-523.278 1133.11 2186
-518.051 1133.11 2186
-512.823 1133.11 2186
-507.596 1133.11 2186
-504.437 1137.78 2195
-499.188 1137.78 2195
-493.939 1137.78 2195
-488.022 1136.22 2192
-482.78 1136.22 2192
-477.539 1136.22 2192
-472.297 1136.22 2192
-465.351 1132.08 2184
-459.496 1130.52 2181
-454.905 1132.08 2184
-449.683 1132.08 2184
-444.46 1132.08 2184
-439.238 1132.08 2184
-433.419 1130.52 2181
-428.203 1130.52 2181
-422.988 1130.52 2181
-417.773 1130.52 2181
-411.99 1128.97 2178
-406.781 1128.97 2178
-401.573 1128.97 2178
-395.273 1125.86 2172
-389.54 1124.3 2169
-383.999 1123.26 2167
-378.817 1123.26 2167
-372.601 1120.15 2161
-366.073 1116.01 2153
-360.924 1116.01 2153
-355.776 1116.01 2153
-350.627 1116.01 2153
-345.479 1116.01 2153
-340.33 1116.01 2153
-335.182 1116.01 2153
-330.034 1116.01 2153
-323.98 1112.9 2147
-318.845 1112.9 2147
-313.711 1112.9 2147
-309.008 1114.45 2150
-303.867 1114.45 2150
-299.143 1116.01 2153
-294.267 1117.04 2155
-289.114 1117.04 2155
-283.961 1117.04 2155
-279.584 1120.15 2161
-274.797 1121.71 2164
-269.622 1121.71 2164
-264.448 1121.71 2164
-259.273 1121.71 2164
-254.098 1121.71 2164
-248.923 1121.71 2164
-243.748 1121.71 2164
-238.574 1121.71 2164
-233.722 1123.26 2167
-228.54 1123.26 2167
-223.359 1123.26 2167
-218.378 1124.3 2169
-213.486 1125.86 2172
-208.58 1127.41 2175
-203.379 1127.41 2175
-198.178 1127.41 2175
-192.977 1127.41 2175
-187.776 1127.41 2175
-182.574 1127.41 2175
-177.373 1127.41 2175
-172.172 1127.41 2175
-166.971 1127.41 2175
-161.324 1124.3 2169
-156.137 1124.3 2169
-150.602 1121.71 2164
-145.428 1121.71 2164
-139.67 1117.04 2155
-134.391 1116.01 2153
-129.363 1117.04 2155
-124.21 1117.04 2155
-119.056 1117.04 2155
-113.903 1117.04 2155
-108.75 1117.04 2155
-103.597 1117.04 2155
-98.4435 1117.04 2155
-93.2036 1116.01 2153
-87.9324 1114.45 2150
-82.7911 1114.45 2150
-77.6498 1114.45 2150
-72.2387 1110.31 2142
-66.9286 1107.2 2136
-61.676 1104.6 2131
-56.5802 1104.6 2131
-51.3393 1101.49 2125
-46.2578 1101.49 2125
-41.1763 1101.49 2125
-36.0948 1101.49 2125
-31.0133 1101.49 2125
-25.9318 1101.49 2125
107.587 1116.01 2153
112.735 1116.01 2153
117.884 1116.01 2153
123.032 1116.01 2153
128.002 1114.45 2150
133.144 1114.45 2150
138.285 1114.45 2150
143.426 1114.45 2150
148.775 1116.01 2153
154.066 1117.04 2155
159.219 1117.04 2155
164.83 1120.15 2161
169.998 1120.15 2161
175.166 1120.15 2161
180.584 1121.71 2164
185.758 1121.71 2164
190.933 1121.71 2164
196.561 1124.3 2169
202.027 1125.86 2172
207.221 1125.86 2172
213.001 1128.97 2178
218.21 1128.97 2178
223.726 1130.52 2181
228.941 1130.52 2181
235.337 1136.22 2192
241.567 1140.89 2201
247.167 1142.44 2204
252.437 1142.44 2204
257.708 1142.44 2204
262.62 1140.89 2201
267.883 1140.89 2201
271.285 1133.11 2186
275.88 1130.52 2181
281.74 1133.11 2186
288.149 1137.78 2195
293.398 1137.78 2195
299.055 1139.33 2198
305.141 1142.44 2204
310.412 1142.44 2204
315.682 1142.44 2204
320.953 1142.44 2204
326.223 1142.44 2204
331.494 1142.44 2204
336.306 1140.89 2201
341.569 1140.89 2201
345.887 1137.78 2195
351.615 1139.33 2198
357.359 1140.89 2201
362.622 1140.89 2201
367.885 1140.89 2201
373.148 1140.89 2201
380.475 1147.11 2213
385.767 1147.11 2213
391.059 1147.11 2213
396.351 1147.11 2213
401.643 1147.11 2213
405.831 1144 2207
411.109 1144 2207
415.82 1142.44 2204
421.091 1142.44 2204
426.361 1142.44 2204
431.632 1142.44 2204
436.902 1142.44 2204
442.173 1142.44 2204
446.834 1140.89 2201
451.481 1139.33 2198
456.737 1139.33 2198
461.993 1139.33 2198
466.612 1137.78 2195
471.216 1136.22 2192
475.153 1133.11 2186
479.941 1132.08 2184
485.164 1132.08 2184
490.386 1132.08 2184
498.105 1137.78 2195
504.042 1139.33 2198
509.993 1140.89 2201
515.256 1140.89 2201
520.52 1140.89 2201
526.5 1142.44 2204
531.77 1142.44 2204
537.04 1142.44 2204
541.573 1140.89 2201
546.836 1140.89 2201
552.099 1140.89 2201
555.843 1137.78 2195
561.092 1137.78 2195
566.341 1137.78 2195
572.371 1139.33 2198
577.627 1139.33 2198
582.883 1139.33 2198
587.337 1137.78 2195
592.585 1137.78 2195
600.286 1142.44 2204
605.556 1142.44 2204
611.658 1144 2207
619.172 1148.15 2215
624.469 1148.15 2215
629.765 1148.15 2215
635.062 1148.15 2215
640.359 1148.15 2215
645.655 1148.15 2215
650.952 1148.15 2215
654.768 1145.55 2210
660.052 1145.55 2210
665.337 1145.55 2210
667.891 1140.89 2201
673.154 1140.89 2201
677.493 1139.33 2198
682.749 1139.33 2198
686.127 1136.22 2192
689.476 1133.11 2186
694.068 1132.08 2184
699.29 1132.08 2184
704.513 1132.08 2184
708.761 1130.52 2181
712.994 1128.97 2178
717.213 1127.41 2175
722.414 1127.41 2175
727.615 1127.41 2175
731.806 1125.86 2172
735.303 1123.26 2167
740.485 1123.26 2167
743.602 1120.15 2161
748.77 1120.15 2161
754.984 1121.71 2164
760.159 1121.71 2164
765.334 1121.71 2164
769.44 1120.15 2161
773.533 1118.6 2158
778.693 1118.6 2158
786.033 1121.71 2164
791.208 1121.71 2164
798.222 1124.3 2169
804.52 1125.86 2172
809.714 1125.86 2172
814.908 1125.86 2172
820.102 1125.86 2172
823.396 1123.26 2167
828.578 1123.26 2167
833.76 1123.26 2167
837.781 1121.71 2164
842.955 1121.71 2164
851.266 1125.86 2172
856.459 1125.86 2172
861.653 1125.86 2172
866.847 1125.86 2172
872.041 1125.86 2172
876.023 1124.3 2169
880.398 1123.26 2167
885.58 1123.26 2167
892.817 1125.86 2172
898.011 1125.86 2172
906.947 1130.52 2181
912.163 1130.52 2181
918.64 1132.08 2184
925.978 1134.67 2189
931.212 1134.67 2189
939.014 1137.78 2195
952.006 1147.11 2213
957.298 1147.11 2213
962.59 1147.11 2213
967.882 1147.11 2213
969.216 1142.44 2204
974.486 1142.44 2204
979.757 1142.44 2204
985.027 1142.44 2204
987.602 1139.33 2198
999.633 1147.11 2213
1004.93 1147.11 2213
1020.72 1159.03 2236
1027.44 1160.59 2239
1039.71 1168.36 2254
1045.1 1168.36 2254
1051.89 1169.92 2257
1059.16 1171.99 2261
1064.57 1171.99 2261
1069.98 1171.99 2261
1075.38 1171.99 2261
1080.79 1171.99 2261
1086.2 1171.99 2261
1086.78 1166.81 2251
1092.16 1166.81 2251
1097.54 1166.81 2251
1109.29 1173.54 2264
1119.14 1178.21 2273
1124.57 1178.21 2273
1132.99 1181.32 2279
1141.44 1184.43 2285
1146.9 1184.43 2285
1152.37 1184.43 2285
1151.75 1178.21 2273
1154.13 1175.1 2267
1159.55 1175.1 2267
1161.89 1171.99 2261
1167.3 1171.99 2261
1170.63 1169.92 2257
1176.03 1169.92 2257
1179.85 1168.36 2254
1182.09 1165.25 2248
1185.88 1163.7 2245
1189.66 1162.14 2242
1195.02 1162.14 2242
1195.56 1157.48 2233
1200.9 1157.48 2233
1204.62 1155.92 2230
1209.95 1155.92 2230
1207.11 1148.15 2215
1209.67 1145.55 2210
1213.3 1144 2207
1218.58 1144 2207
1215.54 1136.22 2192
1217.44 1133.11 2186
1219.87 1130.52 2181
1217.22 1123.26 2167
1222.41 1123.26 2167
1224.19 1120.15 2161
1229.36 1120.15 2161
1234.52 1120.15 2161
1239.69 1120.15 2161
1244.86 1120.15 2161
1248.29 1118.6 2158
1253.45 1118.6 2158
1258.61 1118.6 2158
1262.02 1117.04 2155
1264.23 1114.45 2150
1261.11 1107.2 2136
1266.21 1107.2 2136
1269.54 1105.64 2133
1268.06 1099.94 2122
1273.14 1099.94 2122
1281.83 1103.05 2128
1289.94 1105.64 2133
1295.04 1105.64 2133
1305.63 1110.31 2142
1311.97 1111.34 2144
1320.78 1114.45 2150
1325.93 1114.45 2150
1331.07 1114.45 2150
1336.21 1114.45 2150
1341.35 1114.45 2150
1344.61 1112.9 2147
1347.86 1111.34 2144
1349.83 1108.75 2139
1354.95 1108.75 2139
1363.24 1111.34 2144
1368.37 1111.34 2144
1375.42 1112.9 2147
1391.48 1121.71 2164
1403.76 1127.41 2175
1408.96 1127.41 2175
1418.06 1130.52 2181
1423.28 1130.52 2181
1431.77 1133.11 2186
1436.99 1133.11 2186
1450.14 1139.33 2198
1455.39 1139.33 2198
1460.65 1139.33 2198
1465.91 1139.33 2198
1471.16 1139.33 2198
1472.39 1136.22 2192
1477.63 1136.22 2192
1480.84 1134.67 2189
1482.68 1132.08 2184
1483.82 1128.97 2178
1489.02 1128.97 2178
1492.17 1127.41 2175
1497.38 1127.41 2175
1497.05 1123.26 2167
1500.15 1121.71 2164
1505.33 1121.71 2164
1506.31 1118.6 2158
1511.47 1118.6 2158
1513.12 1116.01 2153
1521.8 1118.6 2158
1526.96 1118.6 2158
1532.12 1118.6 2158
1537.28 1118.6 2158
1542.44 1118.6 2158
1544.01 1116.01 2153
1549.16 1116.01 2153
1557.92 1118.6 2158
1563.08 1118.6 2158
1568.24 1118.6 2158
1573.4 1118.6 2158
1580.75 1120.15 2161
1591.79 1124.3 2169
1599.19 1125.86 2172
1604.38 1125.86 2172
1619.95 1133.11 2186
1625.18 1133.11 2186
1630.41 1133.11 2186
1635.63 1133.11 2186
1640.86 1133.11 2186
1646.09 1133.11 2186
1651.32 1133.11 2186
1652.75 1130.52 2181
1655.69 1128.97 2178
1660.9 1128.97 2178
1666.11 1128.97 2178
-1609.76 1119.6 2150
-1604.62 1119.6 2150
-1601.71 1121.16 2153
-1596.56 1121.16 2153
-1595.11 1123.77 2158
-1589.95 1123.77 2158
-1584.78 1123.77 2158
-1584.02 1126.89 2164
-1578.84 1126.89 2164
-1573.67 1126.89 2164
-1570.67 1128.46 2167
-1565.48 1128.46 2167
-1560.3 1128.46 2167
-1552.97 1126.89 2164
-1547.79 1126.89 2164
-1550.46 1132.62 2175
-1545.26 1132.62 2175
-1540.06 1132.62 2175
-1532.74 1131.06 2172
-1527.55 1131.06 2172
-1522.35 1131.06 2172
-1515.06 1129.5 2169
-1500.13 1122.21 2155
-1493.59 1121.16 2153
-1488.44 1121.16 2153
-1483.29 1121.16 2153
-1478.14 1121.16 2153
-1473 1121.16 2153
-1478.75 1129.5 2169
-1473.57 1129.5 2169
-1472.44 1132.62 2175
-1467.24 1132.62 2175
-1464.06 1134.18 2178
-1458.85 1134.18 2178
-1453.64 1134.18 2178
-1450.43 1135.75 2181
-1445.21 1135.75 2181
-1440 1135.75 2181
-1434.78 1135.75 2181
-1432.84 1138.35 2186
-1431.53 1141.47 2192
-1426.29 1141.47 2192
-1421.05 1141.47 2192
-1415.81 1141.47 2192
-1410.57 1141.47 2192
-1403.4 1139.91 2189
-1394.97 1137.31 2184
-1384.02 1132.62 2175
-1378.82 1132.62 2175
-1371.73 1131.06 2172
-1368.42 1132.62 2175
-1363.22 1132.62 2175
-1358.02 1132.62 2175
-1349.09 1129.5 2169
-1338.94 1125.33 2161
-1330.07 1122.21 2155
-1324.92 1122.21 2155
-1319.77 1122.21 2155
-1314.61 1122.21 2155
-1306.42 1119.6 2150
-1301.28 1119.6 2150
-1296.14 1119.6 2150
-1287.39 1116.48 2144
-1282.27 1116.48 2144
-1278.93 1118.04 2147
-1273.79 1118.04 2147
-1270.43 1119.6 2150
-1265.29 1119.6 2150
-1261.91 1121.16 2153
-1256.76 1121.16 2153
-1252.77 1122.21 2155
-1247.62 1122.21 2155
-1242.47 1122.21 2155
-1237.31 1122.21 2155
-1235.59 1125.33 2161
-1233.84 1128.46 2167
-1229.79 1129.5 2169
-1224.6 1129.5 2169
-1219.42 1129.5 2169
-1215.91 1131.06 2172
-1210.72 1131.06 2172
-1205.52 1131.06 2172
-1200.33 1131.06 2172
-1195.14 1131.06 2172
-1187.2 1128.46 2167
-1182.02 1128.46 2167
-1175.21 1126.89 2164
-1168.41 1125.33 2161
-1163.24 1125.33 2161
-1161.29 1128.46 2167
-1156.11 1128.46 2167
-1150.93 1128.46 2167
-1146.8 1129.5 2169
-1141.62 1129.5 2169
-1136.43 1129.5 2169
-1130.2 1128.46 2167
-1123.46 1126.89 2164
-1118.29 1126.89 2164
-1110.03 1123.77 2158
-1106.4 1125.33 2161
-1102.76 1126.89 2164
-1097.59 1126.89 2164
-1092.41 1126.89 2164
-1088.74 1128.46 2167
-1083.56 1128.46 2167
-1078.38 1128.46 2167
-1068.74 1123.77 2158
-1063.58 1123.77 2158
-1059.89 1125.33 2161
-1057.65 1128.46 2167
-1052.47 1128.46 2167
-1048.26 1129.5 2169
-1043.07 1129.5 2169
-1037.88 1129.5 2169
-1032.7 1129.5 2169
-1023.72 1125.33 2161
-1021.38 1128.46 2167
-1019.95 1132.62 2175
-1014.75 1132.62 2175
-1012.33 1135.75 2181
-1012.2 1141.47 2192
-1006.95 1141.47 2192
-1001.71 1141.47 2192
-996.471 1141.47 2192
-988.516 1138.35 2186
-983.288 1138.35 2186
-978.061 1138.35 2186
-972.833 1138.35 2186
-966.721 1137.31 2184
-961.498 1137.31 2184
-956.276 1137.31 2184
-948.44 1134.18 2178
-943.232 1134.18 2178
-938.024 1134.18 2178
-932.815 1134.18 2178
-927.607 1134.18 2178
-921.128 1132.62 2175
-915.927 1132.62 2175
-910.726 1132.62 2175
-904.276 1131.06 2172
-899.082 1131.06 2172
-893.888 1131.06 2172
-888.694 1131.06 2172
-882.28 1129.5 2169
-875.072 1126.89 2164
-869.897 1126.89 2164
-864.722 1126.89 2164
-855.178 1121.16 2153
-848.845 1119.6 2150
-841.349 1116.48 2144
-836.222 1116.48 2144
-831.095 1116.48 2144
-827.124 1118.04 2147
-823.139 1119.6 2150
-817.997 1119.6 2150
-812.856 1119.6 2150
-807.715 1119.6 2150
-802.573 1119.6 2150
-797.432 1119.6 2150
-792.291 1119.6 2150
-787.149 1119.6 2150
-780.917 1118.04 2147
-775.783 1118.04 2147
-769.572 1116.48 2144
-764.445 1116.48 2144
-760.38 1118.04 2147
-756.302 1119.6 2150
-751.16 1119.6 2150
-747.754 1122.21 2155
-743.635 1123.77 2158
-738.474 1123.77 2158
-733.314 1123.77 2158
-728.153 1123.77 2158
-722.993 1123.77 2158
-717.832 1123.77 2158
-712.672 1123.77 2158
-707.511 1123.77 2158
-702.351 1123.77 2158
-697.191 1123.77 2158
-692.03 1123.77 2158
-685.915 1122.21 2155
-680.762 1122.21 2155
-676.549 1123.77 2158
-671.388 1123.77 2158
-666.228 1123.77 2158
-660.149 1122.21 2155
-654.387 1121.16 2153
-649.239 1121.16 2153
-644.091 1121.16 2153
-639.536 1122.21 2155
-635.265 1123.77 2158
-630.105 1123.77 2158
-624.945 1123.77 2158
-619.784 1123.77 2158
-614.624 1123.77 2158
-610.311 1125.33 2161
-605.143 1125.33 2161
-600.808 1126.89 2164
-595.633 1126.89 2164
-590.459 1126.89 2164
-584.473 1125.33 2161
-579.305 1125.33 2161
-574.934 1126.89 2164
-569.76 1126.89 2164
-564.585 1126.89 2164
-559.41 1126.89 2164
-557.052 1132.62 2175
-552.613 1134.18 2178
-547.404 1134.18 2178
-544.934 1139.91 2189
-539.7 1139.91 2189
-534.465 1139.91 2189
-529.231 1139.91 2189
-523.278 1138.35 2186
-518.051 1138.35 2186
-512.823 1138.35 2186
-507.596 1138.35 2186
-504.437 1143.04 2195
-499.188 1143.04 2195
-493.939 1143.04 2195
-488.022 1141.47 2192
-482.78 1141.47 2192
-477.539 1141.47 2192
-472.297 1141.47 2192
-465.351 1137.31 2184
-459.496 1135.75 2181
-454.905 1137.31 2184
-449.683 1137.31 2184
-444.46 1137.31 2184
-439.238 1137.31 2184
-433.419 1135.75 2181
-428.203 1135.75 2181
-422.988 1135.75 2181
-417.773 1135.75 2181
-411.99 1134.18 2178
-406.781 1134.18 2178
-401.573 1134.18 2178
-395.273 1131.06 2172
-389.54 1129.5 2169
-383.999 1128.46 2167
-378.817 1128.46 2167
-372.601 1125.33 2161
-365.563 1119.6 2150
-359.416 1116.48 2144
-354.289 1116.48 2144
-349.162 1116.48 2144
-344.035 1116.48 2144
-338.908 1116.48 2144
-333.781 1116.48 2144
-328.654 1116.48 2144
-323.527 1116.48 2144
-318.103 1115.44 2142
-313.273 1116.48 2144
-308.146 1116.48 2144
-303.019 1116.48 2144
-297.892 1116.48 2144
-293.175 1118.04 2147
-288.041 1118.04 2147
-282.907 1118.04 2147
-277.772 1118.04 2147
-272.638 1118.04 2147
-267.504 1118.04 2147
-262.37 1118.04 2147
-257.236 1118.04 2147
-252.102 1118.04 2147
-246.968 1118.04 2147
-241.834 1118.04 2147
-236.699 1118.04 2147
-231.565 1118.04 2147
-226.748 1119.6 2150
-221.606 1119.6 2150
-216.767 1121.16 2153
-211.815 1122.21 2155
-206.662 1122.21 2155
-201.509 1122.21 2155
-196.355 1122.21 2155
-191.025 1121.16 2153
-186.049 1122.21 2155
-180.896 1122.21 2155
-175.742 1122.21 2155
-170.589 1122.21 2155
-165.436 1122.21 2155
-160.283 1122.21 2155
-155.129 1122.21 2155
-149.628 1119.6 2150
-144.487 1119.6 2150
-139.345 1119.6 2150
-134.204 1119.6 2150
-129.063 1119.6 2150
-123.922 1119.6 2150
-118.946 1121.16 2153
-113.798 1121.16 2153
-108.649 1121.16 2153
-103.356 1119.6 2150
-98.2151 1119.6 2150
-93.0738 1119.6 2150
-87.6053 1115.44 2142
-82.4831 1115.44 2142
-77.3609 1115.44 2142
-72.0364 1112.31 2136
-66.9286 1112.31 2136
-61.5024 1106.58 2125
-56.4209 1106.58 2125
-51.2669 1105.02 2122
-46.1925 1105.02 2122
-41.2344 1108.15 2128
-36.1457 1108.15 2128
-31.0571 1108.15 2128
-25.9684 1108.15 2128
-20.8797 1108.15 2128
-15.791 1108.15 2128
-10.6872 1106.58 2125
107.587 1121.16 2153
112.735 1121.16 2153
117.884 1121.16 2153
123.032 1121.16 2153
128.181 1121.16 2153
133.329 1121.16 2153
138.478 1121.16 2153
143.626 1121.16 2153
148.775 1121.16 2153
154.066 1122.21 2155
159.219 1122.21 2155
164.602 1123.77 2158
169.998 1125.33 2161
175.166 1125.33 2161
180.333 1125.33 2161
185.501 1125.33 2161
190.668 1125.33 2161
195.836 1125.33 2161
201.562 1128.46 2167
206.744 1128.46 2167
211.926 1128.46 2167
217.108 1128.46 2167
223.418 1134.18 2178
228.626 1134.18 2178
233.834 1134.18 2178
239.372 1135.75 2181
245.148 1138.35 2186
250.375 1138.35 2186
255.603 1138.35 2186
260.83 1138.35 2186
266.058 1138.35 2186
270.292 1134.18 2178
274.362 1129.5 2169
280.322 1132.62 2175
286.311 1135.75 2181
291.526 1135.75 2181
297.83 1139.91 2189
303.48 1141.47 2192
308.722 1141.47 2192
313.964 1141.47 2192
319.205 1141.47 2192
324.447 1141.47 2192
329.689 1141.47 2192
334.472 1139.91 2189
339.707 1139.91 2189
344.468 1138.35 2186
349.696 1138.35 2186
354.923 1138.35 2186
360.151 1138.35 2186
365.378 1138.35 2186
371.114 1139.91 2189
376.864 1141.47 2192
382.106 1141.47 2192
387.348 1141.47 2192
392.59 1141.47 2192
397.831 1141.47 2192
401.97 1138.35 2186
406.825 1137.31 2184
411.481 1135.75 2181
416.697 1135.75 2181
421.912 1135.75 2181
427.127 1135.75 2181
432.343 1135.75 2181
437.558 1135.75 2181
442.165 1134.18 2178
447.373 1134.18 2178
451.958 1132.62 2175
456.528 1131.06 2172
461.722 1131.06 2172
466.916 1131.06 2172
472.11 1131.06 2172
477.963 1132.62 2175
483.831 1134.18 2178
489.039 1134.18 2178
495.609 1137.31 2184
501.29 1138.35 2186
507.213 1139.91 2189
512.447 1139.91 2189
518.391 1141.47 2192
525.066 1144.6 2198
530.322 1144.6 2198
535.578 1144.6 2198
539.358 1141.47 2192
544.6 1141.47 2192
549.842 1141.47 2192
554.324 1139.91 2189
559.558 1139.91 2189
564.793 1139.91 2189
570.809 1141.47 2192
576.05 1141.47 2192
581.292 1141.47 2192
586.534 1141.47 2192
591.776 1141.47 2192
597.017 1141.47 2192
602.259 1141.47 2192
609.995 1146.16 2201
616.935 1149.29 2207
623.059 1150.85 2210
628.344 1150.85 2210
633.628 1150.85 2210
637.179 1147.72 2204
642.449 1147.72 2204
646.838 1146.16 2201
649.435 1141.47 2192
654.676 1141.47 2192
659.918 1141.47 2192
664.25 1139.91 2189
669.484 1139.91 2189
673.794 1138.35 2186
679.021 1138.35 2186
683.623 1137.31 2184
687.899 1135.75 2181
691.208 1132.62 2175
696.409 1132.62 2175
701.61 1132.62 2175
705.836 1131.06 2172
711.03 1131.06 2172
714.575 1128.46 2167
719.757 1128.46 2167
724.939 1128.46 2167
729.11 1126.89 2164
733.267 1125.33 2161
738.435 1125.33 2161
741.538 1122.21 2155
748.77 1125.33 2161
753.937 1125.33 2161
759.105 1125.33 2161
764.273 1125.33 2161
768.372 1123.77 2158
772.457 1122.21 2155
777.61 1122.21 2155
783.853 1123.77 2158
789.014 1123.77 2158
795.278 1125.33 2161
800.446 1125.33 2161
805.614 1125.33 2161
810.781 1125.33 2161
814.816 1123.77 2158
818.836 1122.21 2155
823.99 1122.21 2155
829.143 1122.21 2155
833.522 1121.16 2153
840.618 1123.77 2158
848.13 1126.89 2164
853.305 1126.89 2164
859.67 1128.46 2167
864.852 1128.46 2167
870.034 1128.46 2167
872.792 1125.33 2161
876.741 1123.77 2158
881.902 1123.77 2158
889.528 1126.89 2164
894.703 1126.89 2164
899.878 1126.89 2164
905.053 1126.89 2164
910.227 1126.89 2164
920.055 1132.62 2175
925.257 1132.62 2175
935.163 1138.35 2186
944.262 1143.04 2195
949.511 1143.04 2195
954.76 1143.04 2195
960.009 1143.04 2195
962.62 1139.91 2189
967.854 1139.91 2189
970.866 1137.31 2184
974.748 1135.75 2181
978.615 1134.18 2178
988.792 1139.91 2189
994.027 1139.91 2189
1006.11 1147.72 2204
1011.38 1147.72 2204
1018.03 1149.29 2207
1023.31 1149.29 2207
1029.99 1150.85 2210
1035.27 1150.85 2210
1041.97 1152.41 2213
1052.47 1158.14 2224
1057.78 1158.14 2224
1063.1 1158.14 2224
1065.54 1155.01 2218
1070.84 1155.01 2218
1076.15 1155.01 2218
1081.45 1155.01 2218
1098.51 1167.51 2242
1105.35 1169.07 2245
1110.72 1169.07 2245
1127.03 1180.53 2267
1132.45 1180.53 2267
1137.87 1180.53 2267
1143.29 1180.53 2267
1148.71 1180.53 2267
1145.99 1172.2 2251
1151.37 1172.2 2251
1153.67 1169.07 2245
1162.13 1172.2 2251
1167.52 1172.2 2251
1172.9 1172.2 2251
1178.28 1172.2 2251
1178.93 1167.51 2242
1184.29 1167.51 2242
1183.29 1161.26 2230
1188.62 1161.26 2230
1192.35 1159.7 2227
1197.67 1159.7 2227
1201.38 1158.14 2224
1206.7 1158.14 2224
1207.11 1153.45 2215
1209.67 1150.85 2210
1213.3 1149.29 2207
1218.58 1149.29 2207
1215.54 1141.47 2192
1217.44 1138.35 2186
1219.87 1135.75 2181
1217.22 1128.46 2167
1222.41 1128.46 2167
1224.19 1125.33 2161
1229.36 1125.33 2161
1234.52 1125.33 2161
1239.69 1125.33 2161
1244.86 1125.33 2161
1248.29 1123.77 2158
1253.45 1123.77 2158
1258.61 1123.77 2158
1262.02 1122.21 2155
1264.23 1119.6 2150
1261.11 1112.31 2136
1266.21 1112.31 2136
1269.54 1110.75 2133
1268.06 1105.02 2122
1273.14 1105.02 2122
1281.83 1108.15 2128
1289.94 1110.75 2133
1295.04 1110.75 2133
1305.63 1115.44 2142
1311.97 1116.48 2144
1320.78 1119.6 2150
1325.93 1119.6 2150
1331.07 1119.6 2150
1336.21 1119.6 2150
1341.35 1119.6 2150
1344.61 1118.04 2147
1347.86 1116.48 2144
1349.83 1113.87 2139
1354.95 1113.87 2139
1363.24 1116.48 2144
1368.37 1116.48 2144
1375.42 1118.04 2147
1391.48 1126.89 2164
1403.76 1132.62 2175
1408.96 1132.62 2175
1418.06 1135.75 2181
1423.28 1135.75 2181
1431.77 1138.35 2186
1436.99 1138.35 2186
1450.14 1144.6 2198
1455.39 1144.6 2198
1460.65 1144.6 2198
1465.91 1144.6 2198
1471.16 1144.6 2198
1472.39 1141.47 2192
1477.63 1141.47 2192
1480.84 1139.91 2189
1482.68 1137.31 2184
1483.82 1134.18 2178
1489.02 1134.18 2178
1492.17 1132.62 2175
1497.38 1132.62 2175
1497.05 1128.46 2167
1500.15 1126.89 2164
1505.33 1126.89 2164
1506.31 1123.77 2158
1511.47 1123.77 2158
1513.12 1121.16 2153
1521.8 1123.77 2158
1526.96 1123.77 2158
1532.12 1123.77 2158
1537.28 1123.77 2158
1542.44 1123.77 2158
1544.01 1121.16 2153
1549.16 1121.16 2153
1557.92 1123.77 2158
1563.08 1123.77 2158
1568.24 1123.77 2158
1573.4 1123.77 2158
1580.75 1125.33 2161
1591.79 1129.5 2169
1599.19 1131.06 2172
1604.38 1131.06 2172
1619.95 1138.35 2186
1625.18 1138.35 2186
1630.41 1138.35 2186
1635.63 1138.35 2186
1640.86 1138.35 2186
1646.09 1138.35 2186
1651.32 1138.35 2186
1652.75 1135.75 2181
1655.69 1134.18 2178
1660.9 1134.18 2178
1666.11 1134.18 2178
-1599.28 1117.43 2136
-1594.17 1117.43 2136
-1599.48 1124.75 2150
-1596.56 1126.32 2153
-1595.11 1128.94 2158
-1589.95 1128.94 2158
-1584.78 1128.94 2158
-1584.02 1132.08 2164
-1578.84 1132.08 2164
-1573.67 1132.08 2164
-1570.67 1133.65 2167
-1565.48 1133.65 2167
-1560.3 1133.65 2167
-1552.97 1132.08 2164
-1547.79 1132.08 2164
-1546.18 1134.69 2169
-1541 1134.69 2169
-1535.81 1134.69 2169
-1530.62 1134.69 2169
-1525.44 1134.69 2169
-1520.25 1134.69 2169
-1511.57 1132.08 2164
-1498.74 1126.32 2153
-1485.96 1120.57 2142
-1482.22 1121.61 2144
-1477.09 1121.61 2144
-1474.02 1123.18 2147
-1468.89 1123.18 2147
-1465.8 1124.75 2150
-1460.66 1124.75 2150
-1460.93 1128.94 2158
-1465.22 1136.26 2172
