ply
format ascii 1.0
comment File generated
element vertex 2154
property float x
property float y
property float z
end_header
-1757.63 -107.256 3549
-1745.69 -107.045 3542
-1733.3 -106.803 3534
-1718.02 -106.38 3520
-1709.6 -106.38 3520
-1697.31 -106.138 3512
-1692.76 -106.38 3520
-1684.35 -106.38 3520
-1675.93 -106.38 3520
-1667.51 -106.38 3520
-1662.39 -106.592 3527
-1653.96 -106.592 3527
-1645.52 -106.592 3527
-1637.09 -106.592 3527
-1628.66 -106.592 3527
-1610.12 -105.927 3505
-1611.79 -106.592 3527
-1603.35 -106.592 3527
-1601.7 -107.045 3542
-1603.58 -107.74 3565
-1601.76 -108.193 3580
-1593.2 -108.193 3580
-1584.64 -108.193 3580
-1576.08 -108.193 3580
-1567.52 -108.193 3580
-1555.48 -107.952 3572
-1546.94 -107.952 3572
-1538.39 -107.952 3572
-1529.85 -107.952 3572
-1521.31 -107.952 3572
-1509.8 -107.74 3565
-1491.59 -107.045 3542
-1483.12 -107.045 3542
-1459.25 -105.927 3505
-1441.76 -105.262 3483
-1356.88 -99.6406 3297
-1330.59 -98.2806 3252
-1322.81 -98.2806 3252
-1297.24 -96.9509 3208
-1272.69 -95.6815 3166
-1245.93 -94.2309 3118
-1238.48 -94.2309 3118
-1221.94 -93.5358 3095
-1203.55 -92.6896 3067
-1187.25 -91.9945 3044
-1179.97 -91.9945 3044
-1164.21 -91.3296 3022
-1148.57 -90.6648 3000
-1139.49 -90.5136 2995
-1124.39 -89.879 2974
-1117.28 -89.879 2974
-1106.06 -89.5466 2963
-1098.97 -89.5466 2963
-1091.89 -89.5466 2963
-1084.8 -89.5466 2963
-1077.72 -89.5466 2963
-1070.63 -89.5466 2963
-1061.75 -89.3955 2958
-1054.68 -89.3955 2958
-1043.71 -89.063 2947
-1036.66 -89.063 2947
-1027.87 -88.9119 2942
-1020.83 -88.9119 2942
-1012.07 -88.7608 2937
-999.917 -88.3075 2922
-992.93 -88.3075 2922
-985.942 -88.3075 2922
-975.27 -87.975 2911
-968.309 -87.975 2911
-961.348 -87.975 2911
-954.386 -87.975 2911
-947.425 -87.975 2911
-938.849 -87.8239 2906
-931.9 -87.8239 2906
-924.951 -87.8239 2906
-918.002 -87.8239 2906
-911.052 -87.8239 2906
-902.548 -87.6728 2901
-895.611 -87.6728 2901
-888.673 -87.6728 2901
-881.736 -87.6728 2901
-874.799 -87.6728 2901
-867.862 -87.6728 2901
-860.925 -87.6728 2901
-853.987 -87.6728 2901
-847.05 -87.6728 2901
-840.113 -87.6728 2901
-833.176 -87.6728 2901
-824.815 -87.5217 2896
-817.89 -87.5217 2896
-810.964 -87.5217 2896
-804.039 -87.5217 2896
-797.114 -87.5217 2896
-788.824 -87.3706 2891
-781.911 -87.3706 2891
-774.998 -87.3706 2891
-768.085 -87.3706 2891
-761.171 -87.3706 2891
-754.258 -87.3706 2891
-747.345 -87.3706 2891
-740.432 -87.3706 2891
-733.518 -87.3706 2891
-726.605 -87.3706 2891
-719.692 -87.3706 2891
-711.546 -87.2195 2886
-703.424 -87.0684 2881
-695.326 -86.9173 2876
-688.448 -86.9173 2876
-681.571 -86.9173 2876
-673.52 -86.7662 2871
-665.494 -86.6151 2866
-658.641 -86.6151 2866
-651.787 -86.6151 2866
-644.934 -86.6151 2866
-637.19 -86.4942 2862
-630.346 -86.4942 2862
-623.502 -86.4942 2862
-619.674 -86.9173 2876
-612.797 -86.9173 2876
-608.026 -87.2195 2886
-603.208 -87.5217 2896
-596.283 -87.5217 2896
-596.684 -88.6097 2932
-602.343 -90.5136 2995
-595.181 -90.5136 2995
-602.155 -92.6896 3067
-634.385 -98.8548 3271
-634.034 -100.033 3310
-626.118 -100.033 3310
-619.51 -100.245 3317
-611.578 -100.245 3317
-603.647 -100.245 3317
-595.715 -100.245 3317
-586.542 -100.033 3310
-577.403 -99.8219 3303
-569.505 -99.8219 3303
-560.586 -99.6406 3297
-550.523 -99.2477 3284
-541.678 -99.0664 3278
-537.911 -99.8219 3303
-530.013 -99.8219 3303
-522.114 -99.8219 3303
-514.216 -99.8219 3303
-506.317 -99.8219 3303
-497.513 -99.6406 3297
-488.59 -99.429 3290
-306.565 -64.4626 2133
-301.464 -64.4626 2133
-296.364 -64.4626 2133
-291.263 -64.4626 2133
-286.565 -64.5533 2136
-281.457 -64.5533 2136
-276.349 -64.5533 2136
-271.622 -64.644 2139
-266.507 -64.644 2139
-261.392 -64.644 2139
-256.277 -64.644 2139
-251.162 -64.644 2139
-246.047 -64.644 2139
-240.932 -64.644 2139
-235.817 -64.644 2139
-230.702 -64.644 2139
-225.587 -64.644 2139
-167.816 -66.0644 2186
-162.588 -66.0644 2186
-157.361 -66.0644 2186
-151.994 -66.0039 2184
-146.772 -66.0039 2184
-140.577 -65.5506 2169
-135.078 -65.3995 2164
-129.903 -65.3995 2164
-124.728 -65.3995 2164
-119.554 -65.3995 2164
-114.062 -65.2182 2158
-108.75 -65.1275 2155
-103.597 -65.1275 2155
-98.4435 -65.1275 2155
-93.2902 -65.1275 2155
-88.0551 -65.0671 2153
-82.6756 -64.8857 2147
-77.5415 -64.8857 2147
-72.3062 -64.7951 2144
-67.1792 -64.7951 2144
-61.9944 -64.7346 2142
-56.8722 -64.7346 2142
-51.6776 -64.644 2139
-46.5626 -64.644 2139
-41.3895 -64.5533 2136
-36.2816 -64.5533 2136
-31.1738 -64.5533 2136
-26.066 -64.5533 2136
-20.9582 -64.5533 2136
-15.8503 -64.5533 2136
-10.7174 -64.4022 2131
-5.6215 -64.4022 2131
-0.525636 -64.4022 2131
4.57023 -64.4022 2131
9.6661 -64.4022 2131
14.762 -64.4022 2131
19.8578 -64.4022 2131
24.9537 -64.4022 2131
30.0496 -64.4022 2131
35.096 -64.3115 2128
40.1846 -64.3115 2128
45.3372 -64.4022 2131
50.433 -64.4022 2131
55.5289 -64.4022 2131
60.6248 -64.4022 2131
65.7206 -64.4022 2131
70.8165 -64.4022 2131
75.9124 -64.4022 2131
81.0082 -64.4022 2131
86.1041 -64.4022 2131
91.2 -64.4022 2131
96.2958 -64.4022 2131
101.392 -64.4022 2131
106.588 -64.4626 2133
111.845 -64.5533 2136
116.953 -64.5533 2136
122.061 -64.5533 2136
127.347 -64.644 2139
132.462 -64.644 2139
137.77 -64.7346 2142
142.892 -64.7346 2142
148.36 -64.8857 2147
153.494 -64.8857 2147
158.85 -64.9764 2150
163.991 -64.9764 2150
169.133 -64.9764 2150
174.517 -65.0671 2153
179.832 -65.1275 2155
184.986 -65.1275 2155
190.404 -65.2182 2158
196.38 -65.4902 2167
201.748 -65.5506 2169
206.934 -65.5506 2169
212.415 -65.6413 2172
217.909 -65.7319 2175
223.11 -65.7319 2175
228.311 -65.7319 2175
233.834 -65.8226 2178
239.372 -65.9133 2181
245.484 -66.1551 2189
250.719 -66.1551 2189
256.655 -66.3364 2195
262.262 -66.427 2198
268.614 -66.699 2207
273.891 -66.699 2207
280.56 -67.0315 2218
287.797 -67.4848 2233
295.5 -68.0288 2251
300.883 -68.0288 2251
307.626 -68.331 2261
313.864 -68.5123 2267
319.285 -68.5123 2267
324.706 -68.5123 2267
331.001 -68.6937 2273
336.88 -68.7843 2276
342.774 -68.875 2279
348.224 -68.875 2279
353.674 -68.875 2279
359.596 -68.9657 2282
365.053 -68.9657 2282
370.51 -68.9657 2282
374.978 -68.7843 2276
379.92 -68.6937 2273
383.829 -68.4217 2264
389.243 -68.4217 2264
393.437 -68.2101 2257
529.413 -88.1564 2917
536.389 -88.1564 2917
543.364 -88.1564 2917
550.34 -88.1564 2917
557.315 -88.1564 2917
562.162 -87.8239 2906
569.112 -87.8239 2906
572.096 -87.2195 2886
577.994 -87.0684 2881
583.869 -86.9173 2876
590.746 -86.9173 2876
596.584 -86.7662 2871
603.45 -86.7662 2871
609.252 -86.6151 2866
616.106 -86.6151 2866
622.959 -86.6151 2866
629.813 -86.6151 2866
636.666 -86.6151 2866
643.52 -86.6151 2866
650.373 -86.6151 2866
657.227 -86.6151 2866
664.08 -86.6151 2866
672.104 -86.7662 2871
678.97 -86.7662 2871
685.835 -86.7662 2871
692.7 -86.7662 2871
699.566 -86.7662 2871
706.431 -86.7662 2871
713.297 -86.7662 2871
720.162 -86.7662 2871
727.028 -86.7662 2871
733.893 -86.7662 2871
740.758 -86.7662 2871
747.624 -86.7662 2871
754.489 -86.7662 2871
761.355 -86.7662 2871
768.22 -86.7662 2871
775.086 -86.7662 2871
781.951 -86.7662 2871
788.816 -86.7662 2871
795.682 -86.7662 2871
802.547 -86.7662 2871
809.413 -86.7662 2871
814.857 -86.6151 2866
821.71 -86.6151 2866
827.407 -86.4942 2862
834.251 -86.4942 2862
841.095 -86.4942 2862
849.124 -86.6151 2866
855.977 -86.6151 2866
862.831 -86.6151 2866
869.684 -86.6151 2866
876.538 -86.6151 2866
883.391 -86.6151 2866
890.245 -86.6151 2866
898.663 -86.7662 2871
907.106 -86.9173 2876
915.572 -87.0684 2881
922.461 -87.0684 2881
932.577 -87.3706 2891
941.115 -87.5217 2896
949.677 -87.6728 2901
956.614 -87.6728 2901
968.865 -88.1564 2917
980.859 -88.6097 2932
989.555 -88.7608 2937
996.578 -88.7608 2937
1019.66 -90.1812 2984
1026.8 -90.1812 2984
1033.93 -90.1812 2984
1115.03 -96.5882 3196
1155.69 -99.429 3290
1252.69 -107.045 3542
1261.16 -107.045 3542
1275 -107.498 3557
1283.51 -107.498 3557
1303.27 -108.435 3588
1311.85 -108.435 3588
1323.01 -108.647 3595
1331.61 -108.647 3595
1352.13 -109.614 3627
1360.81 -109.614 3627
1369.48 -109.614 3627
1365.99 -108.647 3595
1374.59 -108.647 3595
1380.49 -108.435 3588
1377.07 -107.498 3557
1376.62 -106.803 3534
1376.45 -106.138 3512
1384.85 -106.138 3512
1384.52 -105.473 3490
1384.08 -104.808 3468
1381.13 -103.962 3440
1389.36 -103.962 3440
1397.59 -103.962 3440
1405.81 -103.962 3440
1405.41 -103.328 3419
1413.58 -103.328 3419
1415.94 -102.905 3405
1412.37 -102.058 3377
1409.09 -101.242 3350
1417.1 -101.242 3350
1416.6 -100.638 3330
1416.01 -100.033 3310
1423.92 -100.033 3310
1437.46 -100.426 3323
1445.41 -100.426 3323
1453.35 -100.426 3323
1455.58 -100.033 3310
1463.5 -100.033 3310
1471.41 -100.033 3310
1473.52 -99.6406 3297
1481.4 -99.6406 3297
1492 -99.8219 3303
1499.9 -99.8219 3303
1507.79 -99.8219 3303
1528.08 -100.638 3330
1560.95 -102.27 3384
1595.01 -103.962 3440
1603.24 -103.962 3440
1624.58 -104.808 3468
1646.53 -105.685 3497
1658.68 -105.927 3505
1667.06 -105.927 3505
1682.61 -106.38 3520
1691.03 -106.38 3520
1699.44 -106.38 3520
1707.86 -106.38 3520
1716.28 -106.38 3520
1724.7 -106.38 3520
1729.17 -106.138 3512
1737.57 -106.138 3512
1742.49 -105.927 3505
1750.87 -105.927 3505
1751.73 -105.473 3490
1760.07 -105.473 3490
1768.42 -105.473 3490
1773.2 -105.262 3483
1766.69 -104.385 3454
1774.95 -104.385 3454
1739.85 -101.847 3370
1737.53 -101.242 3350
1714.28 -99.429 3290
1702.26 -98.2806 3252
1710.03 -98.2806 3252
1710.94 -97.8877 3239
1715.5 -97.7064 3233
1723.23 -97.7064 3233
1730.97 -97.7064 3233
1738.7 -97.7064 3233
1746.43 -97.7064 3233
1750.9 -97.5251 3227
1758.62 -97.5251 3227
1742.8 -96.2255 3184
1730.62 -95.1376 3148
1702.81 -93.2034 3084
1623.13 -88.4586 2927
1630.13 -88.4586 2927
1637.12 -88.4586 2927
1632.33 -87.8239 2906
1625.17 -87.0684 2881
1632.06 -87.0684 2881
1625.3 -86.3431 2857
1623.56 -85.8897 2842
1619.46 -85.3155 2823
1620.45 -85.0133 2813
1627.18 -85.0133 2813
1628.68 -84.7413 2804
1629.55 -84.4391 2794
1633.89 -84.3182 2790
1640.56 -84.3182 2790
1644.28 -84.1671 2785
1647.97 -84.016 2780
1649.27 -83.744 2771
1655.89 -83.744 2771
1657.12 -83.472 2762
1663.72 -83.472 2762
1667.3 -83.3209 2757
1673.9 -83.3209 2757
1680.49 -83.3209 2757
1684.63 -83.2 2753
1688.15 -83.0489 2748
1686.7 -82.656 2735
1693.24 -82.656 2735
1699.78 -82.656 2735
1703.2 -82.5049 2730
1707.22 -82.384 2726
1713.74 -82.384 2726
1717.11 -82.2329 2721
1723.61 -82.2329 2721
1725.03 -81.9912 2713
1728.33 -81.8401 2708
1734.81 -81.8401 2708
1738.71 -81.7192 2704
1741.95 -81.5681 2699
1745.81 -81.4472 2695
1752.26 -81.4472 2695
1756.09 -81.3263 2691
1754.01 -80.9334 2678
1757.13 -80.7823 2673
1763.52 -80.7823 2673
1767.26 -80.6614 2669
1765.01 -80.2685 2656
1768.69 -80.1477 2652
1775.03 -80.1477 2652
1781.37 -80.1477 2652
1787.72 -80.1477 2652
1794.06 -80.1477 2652
1797.68 -80.0268 2648
1804.02 -80.0268 2648
1810.35 -80.0268 2648
1816.68 -80.0268 2648
1820.26 -79.9059 2644
1826.58 -79.9059 2644
1832.9 -79.9059 2644
1839.23 -79.9059 2644
1845.55 -79.9059 2644
1851.87 -79.9059 2644
1851.87 -79.6339 2635
1858.17 -79.6339 2635
1864.47 -79.6339 2635
1870.77 -79.6339 2635
1877.07 -79.6339 2635
1877.66 -79.3921 2627
1881.07 -79.2712 2623
1887.34 -79.2712 2623
1893.61 -79.2712 2623
1899.89 -79.2712 2623
1903.25 -79.1503 2619
1909.51 -79.1503 2619
1915.78 -79.1503 2619
1919.11 -79.0294 2615
1922.41 -78.9086 2611
1925.7 -78.7877 2607
1931.94 -78.7877 2607
1938.17 -78.7877 2607
1941.42 -78.6668 2603
1944.65 -78.5459 2599
1950.87 -78.5459 2599
1957.08 -78.5459 2599
1963.3 -78.5459 2599
1969.51 -78.5459 2599
1975.73 -78.5459 2599
1981.94 -78.5459 2599
1981.27 -78.2739 2590
-2071.72 -76.9948 2767
-2065.1 -76.9948 2767
-2058.49 -76.9948 2767
-2051.87 -76.9948 2767
-2045.25 -76.9948 2767
-2031.27 -76.7165 2757
-2024.68 -76.7165 2757
-2015.16 -76.6052 2753
-2002.01 -76.3548 2744
-1982.35 -75.8539 2726
-1975.84 -75.8539 2726
-1965.71 -75.7148 2721
-1956.32 -75.6035 2717
-1949.82 -75.6035 2717
-1943.32 -75.6035 2717
-1936.83 -75.6035 2717
-1939.57 -75.9652 2730
-1968.44 -77.3565 2780
-2012.6 -79.36 2852
-2005.78 -79.36 2852
-2044.52 -81.1687 2917
-2037.55 -81.1687 2917
-2030.57 -81.1687 2917
-2183.84 -87.5965 3148
-2192.91 -88.2643 3172
-2258.35 -91.2139 3278
-2250.51 -91.2139 3278
-2300.83 -93.5791 3363
-2292.79 -93.5791 3363
-2289.5 -93.7739 3370
-2281.44 -93.7739 3370
-2315.88 -95.5269 3433
-2312.38 -95.7217 3440
-2304.15 -95.7217 3440
-2295.93 -95.7217 3440
-2278.39 -95.3321 3426
-2270.2 -95.3321 3426
-2266.63 -95.5269 3433
-2258.42 -95.5269 3433
-2250.21 -95.5269 3433
-2242 -95.5269 3433
-2233.79 -95.5269 3433
-2225.58 -95.5269 3433
-2230.93 -96.1113 3454
-2222.67 -96.1113 3454
-2223.39 -96.5008 3468
-2215.1 -96.5008 3468
-2206.8 -96.5008 3468
-2198.51 -96.5008 3468
-2208.53 -97.3078 3497
-2200.17 -97.3078 3497
-2191.81 -97.3078 3497
-2188.44 -97.5304 3505
-2180.06 -97.5304 3505
-2171.68 -97.5304 3505
-2163.3 -97.5304 3505
-2168.44 -98.1426 3527
-2160.01 -98.1426 3527
-2151.57 -98.1426 3527
-2152.25 -98.56 3542
-2152.86 -98.9774 3557
-2153.4 -99.3948 3572
-2144.86 -99.3948 3572
-2136.31 -99.3948 3572
-2127.77 -99.3948 3572
-2132.88 -100.035 3595
-2124.28 -100.035 3595
-2120.39 -100.257 3603
-2116.46 -100.48 3611
-2112.5 -100.703 3619
-2103.85 -100.703 3619
-2095.19 -100.703 3619
-2086.54 -100.703 3619
-2077.88 -100.703 3619
-2060.08 -100.257 3603
-2060.57 -100.703 3619
-2056.46 -100.925 3627
-2047.78 -100.925 3627
-2039.11 -100.925 3627
-2025.96 -100.703 3619
-2017.3 -100.703 3619
-2008.65 -100.703 3619
-1995.57 -100.48 3611
-1982.54 -100.257 3603
-1969.54 -100.035 3595
-1969.67 -100.48 3611
-1961.03 -100.48 3611
-1952.4 -100.48 3611
-1943.76 -100.48 3611
-1935.13 -100.48 3611
-1926.49 -100.48 3611
-1909.36 -100.035 3595
-1892.83 -99.6174 3580
-1884.27 -99.6174 3580
-1867.85 -99.2 3565
-1855.16 -98.9774 3557
-1862.74 -99.84 3588
-1857.78 -100.035 3595
-1849.18 -100.035 3595
-1840.59 -100.035 3595
-1828.42 -99.84 3588
-1819.84 -99.84 3588
-1803.19 -99.3948 3572
-1783.09 -98.7548 3549
-1774.6 -98.7548 3549
-1766.12 -98.7548 3549
-1757.63 -98.7548 3549
-1745.69 -98.56 3542
-1729.87 -98.1426 3527
-1714.11 -97.7252 3512
-1705.71 -97.7252 3512
-1683.3 -96.9182 3483
-1678.34 -97.113 3490
-1673.34 -97.3078 3497
-1668.79 -97.5304 3505
-1660.41 -97.5304 3505
-1655.32 -97.7252 3512
-1646.92 -97.7252 3512
-1638.53 -97.7252 3512
-1626.88 -97.5304 3505
-1618.5 -97.5304 3505
-1606.44 -97.3078 3497
-1601.73 -97.5304 3505
-1593.35 -97.5304 3505
-1601.7 -98.56 3542
-1599.98 -98.9774 3557
-1595.05 -99.2 3565
-1586.53 -99.2 3565
-1578 -99.2 3565
-1569.48 -99.2 3565
-1560.95 -99.2 3565
-1552.43 -99.2 3565
-1543.9 -99.2 3565
-1535.38 -99.2 3565
-1526.85 -99.2 3565
-1518.33 -99.2 3565
-1506.42 -98.9774 3557
-1491.59 -98.56 3542
-1483.12 -98.56 3542
-1459.25 -97.5304 3505
-1441.76 -96.9182 3483
-1356.88 -91.7426 3297
-1330.59 -90.4904 3252
-1322.81 -90.4904 3252
-1297.24 -89.2661 3208
-1272.69 -88.0974 3166
-1245.93 -86.7617 3118
-1238.48 -86.7617 3118
-1221.94 -86.1217 3095
-1203.55 -85.3426 3067
-1187.25 -84.7026 3044
-1179.97 -84.7026 3044
-1164.21 -84.0904 3022
-1148.57 -83.4782 3000
-1139.49 -83.3391 2995
-1124.39 -82.7548 2974
-1117.28 -82.7548 2974
-1106.06 -82.4487 2963
-1098.97 -82.4487 2963
-1091.89 -82.4487 2963
-1084.8 -82.4487 2963
-1077.72 -82.4487 2963
-1070.63 -82.4487 2963
-1061.75 -82.3095 2958
-1054.68 -82.3095 2958
-1043.71 -82.0034 2947
-1036.66 -82.0034 2947
-1027.87 -81.8643 2942
-1020.83 -81.8643 2942
-1012.07 -81.7252 2937
-999.917 -81.3078 2922
-992.93 -81.3078 2922
-985.942 -81.3078 2922
-975.27 -81.0017 2911
-968.309 -81.0017 2911
-961.348 -81.0017 2911
-954.386 -81.0017 2911
-947.425 -81.0017 2911
-938.849 -80.8626 2906
-931.9 -80.8626 2906
-924.951 -80.8626 2906
-918.002 -80.8626 2906
-911.052 -80.8626 2906
-902.548 -80.7234 2901
-895.611 -80.7234 2901
-888.673 -80.7234 2901
-881.736 -80.7234 2901
-874.799 -80.7234 2901
-867.862 -80.7234 2901
-860.925 -80.7234 2901
-853.987 -80.7234 2901
-847.05 -80.7234 2901
-840.113 -80.7234 2901
-833.176 -80.7234 2901
-824.815 -80.5843 2896
-817.89 -80.5843 2896
-810.964 -80.5843 2896
-804.039 -80.5843 2896
-797.114 -80.5843 2896
-788.824 -80.4452 2891
-781.911 -80.4452 2891
-774.998 -80.4452 2891
-768.085 -80.4452 2891
-761.171 -80.4452 2891
-754.258 -80.4452 2891
-747.345 -80.4452 2891
-740.432 -80.4452 2891
-733.518 -80.4452 2891
-726.605 -80.4452 2891
-719.692 -80.4452 2891
-711.546 -80.3061 2886
-703.424 -80.1669 2881
-695.326 -80.0278 2876
-688.448 -80.0278 2876
-681.571 -80.0278 2876
-673.52 -79.8887 2871
-665.494 -79.7495 2866
-658.641 -79.7495 2866
-651.787 -79.7495 2866
-644.934 -79.7495 2866
-637.19 -79.6382 2862
-630.346 -79.6382 2862
-623.502 -79.6382 2862
-619.674 -80.0278 2876
-612.797 -80.0278 2876
-606.973 -80.1669 2881
-601.125 -80.3061 2886
-594.224 -80.3061 2886
-591.393 -80.8626 2906
-602.343 -83.3391 2995
-595.181 -83.3391 2995
-599.799 -85.0087 3055
-634.385 -91.0191 3271
-632.693 -91.9095 3303
-624.794 -91.9095 3303
-618.203 -92.1043 3310
-610.288 -92.1043 3310
-602.373 -92.1043 3310
-594.457 -92.1043 3310
-585.302 -91.9095 3303
-576.354 -91.7426 3297
-568.47 -91.7426 3297
-559.396 -91.5478 3290
-550.523 -91.3808 3284
-540.522 -91.0191 3271
-537.911 -91.9095 3303
-530.013 -91.9095 3303
-522.114 -91.9095 3303
-514.216 -91.9095 3303
-506.317 -91.9095 3303
-497.513 -91.7426 3297
-487.698 -91.3808 3284
-306.565 -59.353 2133
-301.464 -59.353 2133
-296.364 -59.353 2133
-291.263 -59.353 2133
-286.163 -59.353 2133
-281.062 -59.353 2133
-276.349 -59.4365 2136
-271.622 -59.52 2139
-266.507 -59.52 2139
-261.392 -59.52 2139
-256.277 -59.52 2139
-251.162 -59.52 2139
-246.047 -59.52 2139
-240.932 -59.52 2139
-235.817 -59.52 2139
-230.702 -59.52 2139
-225.587 -59.52 2139
-167.816 -60.8278 2186
-162.588 -60.8278 2186
-157.361 -60.8278 2186
-151.994 -60.7722 2184
-146.772 -60.7722 2184
-140.577 -60.3548 2169
-135.078 -60.2156 2164
-129.903 -60.2156 2164
-124.728 -60.2156 2164
-119.554 -60.2156 2164
-114.062 -60.0487 2158
-108.75 -59.9652 2155
-103.597 -59.9652 2155
-98.4435 -59.9652 2155
-93.2902 -59.9652 2155
-88.0551 -59.9095 2153
-82.6756 -59.7426 2147
-77.5415 -59.7426 2147
-72.3062 -59.6591 2144
-67.1166 -59.6035 2142
-61.9944 -59.6035 2142
-56.8722 -59.6035 2142
-51.6776 -59.52 2139
-46.5626 -59.52 2139
-41.3895 -59.4365 2136
-36.2816 -59.4365 2136
-31.1738 -59.4365 2136
-26.066 -59.4365 2136
-20.9582 -59.4365 2136
-15.8503 -59.4365 2136
-10.7174 -59.2974 2131
-5.6215 -59.2974 2131
-0.525636 -59.2974 2131
4.57023 -59.2974 2131
9.6661 -59.2974 2131
14.762 -59.2974 2131
19.8578 -59.2974 2131
24.9537 -59.2974 2131
30.0496 -59.2974 2131
35.096 -59.2139 2128
40.1846 -59.2139 2128
45.3372 -59.2974 2131
50.433 -59.2974 2131
55.5289 -59.2974 2131
60.6248 -59.2974 2131
65.7206 -59.2974 2131
70.8165 -59.2974 2131
75.9124 -59.2974 2131
81.0082 -59.2974 2131
86.1041 -59.2974 2131
91.2 -59.2974 2131
96.2958 -59.2974 2131
101.392 -59.2974 2131
106.488 -59.2974 2131
111.845 -59.4365 2136
116.953 -59.4365 2136
122.061 -59.4365 2136
127.347 -59.52 2139
132.462 -59.52 2139
137.77 -59.6035 2142
142.892 -59.6035 2142
148.36 -59.7426 2147
153.494 -59.7426 2147
158.85 -59.8261 2150
163.991 -59.8261 2150
169.133 -59.8261 2150
174.517 -59.9095 2153
179.832 -59.9652 2155
184.986 -59.9652 2155
190.404 -60.0487 2158
196.38 -60.2991 2167
201.748 -60.3548 2169
206.934 -60.3548 2169
212.415 -60.4382 2172
217.909 -60.5217 2175
223.11 -60.5217 2175
228.311 -60.5217 2175
233.834 -60.6052 2178
239.372 -60.6887 2181
245.484 -60.9113 2189
250.719 -60.9113 2189
256.655 -61.0782 2195
262.262 -61.1617 2198
268.614 -61.4122 2207
273.891 -61.4122 2207
280.56 -61.7182 2218
287.797 -62.1356 2233
295.5 -62.6365 2251
300.883 -62.6365 2251
307.626 -62.9148 2261
313.864 -63.0817 2267
319.285 -63.0817 2267
324.706 -63.0817 2267
331.001 -63.2487 2273
336.88 -63.3322 2276
342.774 -63.4156 2279
348.224 -63.4156 2279
353.674 -63.4156 2279
359.596 -63.4991 2282
365.053 -63.4991 2282
370.51 -63.4991 2282
374.978 -63.3322 2276
379.92 -63.2487 2273
383.829 -62.9982 2264
389.243 -62.9982 2264
393.437 -62.8035 2257
529.413 -81.1687 2917
536.389 -81.1687 2917
543.364 -81.1687 2917
550.34 -81.1687 2917
557.315 -81.1687 2917
562.162 -80.8626 2906
569.112 -80.8626 2906
572.096 -80.3061 2886
577.994 -80.1669 2881
583.869 -80.0278 2876
590.746 -80.0278 2876
596.584 -79.8887 2871
603.45 -79.8887 2871
609.252 -79.7495 2866
616.106 -79.7495 2866
622.959 -79.7495 2866
629.813 -79.7495 2866
636.666 -79.7495 2866
643.52 -79.7495 2866
650.373 -79.7495 2866
657.227 -79.7495 2866
664.08 -79.7495 2866
672.104 -79.8887 2871
678.97 -79.8887 2871
685.835 -79.8887 2871
692.7 -79.8887 2871
699.566 -79.8887 2871
706.431 -79.8887 2871
713.297 -79.8887 2871
720.162 -79.8887 2871
727.028 -79.8887 2871
733.893 -79.8887 2871
740.758 -79.8887 2871
747.624 -79.8887 2871
754.489 -79.8887 2871
761.355 -79.8887 2871
768.22 -79.8887 2871
775.086 -79.8887 2871
781.951 -79.8887 2871
788.816 -79.8887 2871
795.682 -79.8887 2871
802.547 -79.8887 2871
809.413 -79.8887 2871
814.857 -79.7495 2866
821.71 -79.7495 2866
827.407 -79.6382 2862
834.251 -79.6382 2862
841.095 -79.6382 2862
849.124 -79.7495 2866
855.977 -79.7495 2866
862.831 -79.7495 2866
869.684 -79.7495 2866
876.538 -79.7495 2866
883.391 -79.7495 2866
890.245 -79.7495 2866
898.663 -79.8887 2871
907.106 -80.0278 2876
915.572 -80.1669 2881
922.461 -80.1669 2881
932.577 -80.4452 2891
941.115 -80.5843 2896
949.677 -80.7234 2901
956.614 -80.7234 2901
968.865 -81.1687 2917
980.859 -81.5861 2932
989.555 -81.7252 2937
996.578 -81.7252 2937
1019.66 -83.033 2984
1026.8 -83.033 2984
1033.93 -83.033 2984
1115.03 -88.9321 3196
1155.69 -91.5478 3290
1194.33 -93.9687 3377
1202.41 -93.9687 3377
1253.5 -97.3078 3497
1270.16 -97.9478 3520
1289.11 -98.7548 3549
1297.59 -98.7548 3549
1309.03 -98.9774 3557
1317.53 -98.9774 3557
1337.59 -99.84 3588
1346.17 -99.84 3588
1354.75 -99.84 3588
1354.59 -99.2 3565
1363.12 -99.2 3565
1357.02 -98.1426 3527
1362.75 -97.9478 3520
1365.32 -97.5304 3505
1362.34 -96.7234 3476
1370.65 -96.7234 3476
1370.24 -96.1113 3454
1367.32 -95.3321 3426
1372.7 -95.1374 3419
1380.88 -95.1374 3419
1386.21 -94.9426 3412
1391.51 -94.7478 3405
1396.77 -94.553 3398
1404.9 -94.553 3398
1401.38 -93.7739 3370
1401.08 -93.2174 3350
1403.62 -92.8556 3337
1411.6 -92.8556 3337
1408.09 -92.1043 3310
1413.01 -91.9095 3303
1420.91 -91.9095 3303
1431.84 -92.1043 3310
1439.75 -92.1043 3310
1447.67 -92.1043 3310
1455.58 -92.1043 3310
1460.4 -91.9095 3303
1468.3 -91.9095 3303
1473.52 -91.7426 3297
1478.26 -91.5478 3290
1489.29 -91.7426 3297
1497.17 -91.7426 3297
1505.05 -91.7426 3297
1522.12 -92.2991 3317
1545.27 -93.2174 3350
1575.54 -94.553 3398
1583.66 -94.553 3398
1611.46 -95.7217 3440
1629.58 -96.3061 3461
1651.58 -97.113 3490
1659.92 -97.113 3490
1668.27 -97.113 3490
1676.61 -97.113 3490
1684.96 -97.113 3490
1682.63 -96.5008 3468
1687.51 -96.3061 3461
1695.79 -96.3061 3461
1697.17 -95.9165 3447
1705.41 -95.9165 3447
1713.66 -95.9165 3447
1721.9 -95.9165 3447
1730.14 -95.9165 3447
1738.39 -95.9165 3447
1746.63 -95.9165 3447
1740.62 -95.1374 3419
1748.79 -95.1374 3419
1756.97 -95.1374 3419
1739.85 -93.7739 3370
1737.53 -93.2174 3350
1714.28 -91.5478 3290
1702.26 -90.4904 3252
1710.03 -90.4904 3252
1710.94 -90.1287 3239
1715.5 -89.9617 3233
1723.23 -89.9617 3233
1730.97 -89.9617 3233
1738.7 -89.9617 3233
1746.43 -89.9617 3233
1750.9 -89.7948 3227
1758.62 -89.7948 3227
1742.8 -88.5982 3184
1730.62 -87.5965 3148
1702.81 -85.8156 3084
1623.13 -81.4469 2927
1630.13 -81.4469 2927
1637.12 -81.4469 2927
1632.33 -80.8626 2906
1625.17 -80.1669 2881
1632.06 -80.1669 2881
1625.3 -79.4991 2857
1623.56 -79.0817 2842
1619.46 -78.553 2823
1620.45 -78.2748 2813
1627.18 -78.2748 2813
1628.68 -78.0243 2804
1629.55 -77.7461 2794
1633.89 -77.6348 2790
1640.56 -77.6348 2790
1644.28 -77.4956 2785
1647.97 -77.3565 2780
1649.27 -77.1061 2771
1655.89 -77.1061 2771
1657.12 -76.8556 2762
1663.72 -76.8556 2762
1667.3 -76.7165 2757
1673.9 -76.7165 2757
1680.49 -76.7165 2757
1684.63 -76.6052 2753
1688.15 -76.4661 2748
1686.7 -76.1043 2735
1693.24 -76.1043 2735
1699.78 -76.1043 2735
1703.2 -75.9652 2730
1707.22 -75.8539 2726
1713.74 -75.8539 2726
1717.11 -75.7148 2721
1723.61 -75.7148 2721
1725.03 -75.4921 2713
1728.33 -75.353 2708
1734.81 -75.353 2708
1738.71 -75.2417 2704
1741.95 -75.1026 2699
1745.81 -74.9913 2695
1752.26 -74.9913 2695
1756.09 -74.88 2691
1754.01 -74.5182 2678
1757.13 -74.3791 2673
1763.52 -74.3791 2673
1767.26 -74.2678 2669
1765.01 -73.9061 2656
1768.69 -73.7948 2652
1775.03 -73.7948 2652
1781.37 -73.7948 2652
1787.72 -73.7948 2652
1794.06 -73.7948 2652
1797.68 -73.6835 2648
1804.02 -73.6835 2648
1810.35 -73.6835 2648
1816.68 -73.6835 2648
1820.26 -73.5722 2644
1826.58 -73.5722 2644
1832.9 -73.5722 2644
1839.23 -73.5722 2644
1845.55 -73.5722 2644
1851.87 -73.5722 2644
1851.87 -73.3217 2635
1858.17 -73.3217 2635
1864.47 -73.3217 2635
1870.77 -73.3217 2635
1877.07 -73.3217 2635
1877.66 -73.0991 2627
1881.07 -72.9878 2623
1887.34 -72.9878 2623
1893.61 -72.9878 2623
1899.89 -72.9878 2623
1903.25 -72.8765 2619
1909.51 -72.8765 2619
1915.78 -72.8765 2619
1919.11 -72.7652 2615
1922.41 -72.6539 2611
1925.7 -72.5426 2607
1931.94 -72.5426 2607
1938.17 -72.5426 2607
1941.42 -72.4313 2603
1944.65 -72.32 2599
1950.87 -72.32 2599
1957.08 -72.32 2599
1963.3 -72.32 2599
1969.51 -72.32 2599
1975.73 -72.32 2599
1981.94 -72.32 2599
1981.27 -72.0695 2590
-2071.72 -70.3664 2767
-2065.1 -70.3664 2767
-2058.49 -70.3664 2767
-2051.87 -70.3664 2767
-2045.25 -70.3664 2767
-2031.27 -70.1121 2757
-2024.68 -70.1121 2757
-2018.08 -70.1121 2757
-2004.92 -69.8832 2748
-1985.26 -69.4255 2730
-1978.74 -69.4255 2730
-1965.71 -69.1966 2721
-1953.44 -68.9931 2713
-1946.95 -68.9931 2713
-1940.46 -68.9931 2713
-1933.98 -68.9931 2713
-1939.57 -69.4255 2730
-1962.07 -70.4681 2771
-2005.55 -72.2737 2842
-1998.75 -72.2737 2842
-2033.31 -73.7741 2901
-2026.37 -73.7741 2901
-2019.43 -73.7741 2901
-2192.91 -80.6658 3172
-2258.35 -83.3614 3278
-2250.51 -83.3614 3278
-2300.83 -85.523 3363
-2292.79 -85.523 3363
-2294.26 -85.879 3377
-2286.18 -85.879 3377
-2320.6 -87.4812 3440
-2317.08 -87.6592 3447
-2308.84 -87.6592 3447
-2300.6 -87.6592 3447
-2287.7 -87.4812 3440
-2274.83 -87.3031 3433
-2280.49 -87.8372 3454
-2272.23 -87.8372 3454
-2263.97 -87.8372 3454
-2260.28 -88.0152 3461
-2256.56 -88.1932 3468
-2248.27 -88.1932 3468
-2245.14 -88.3967 3476
-2245.84 -88.7527 3490
-2241.98 -88.9307 3497
-2233.62 -88.9307 3497
-2225.26 -88.9307 3497
-2203.58 -88.3967 3476
-2204.11 -88.7527 3490
-2195.77 -88.7527 3490
-2191.81 -88.9307 3497
-2188.44 -89.1341 3505
-2180.06 -89.1341 3505
-2171.68 -89.1341 3505
-2154.04 -88.7527 3490
-2154.91 -89.1341 3505
-2155.72 -89.5156 3520
-2147.3 -89.5156 3520
-2147.39 -89.8716 3534
-2152.86 -90.4565 3557
-2144.36 -90.4565 3557
-2135.85 -90.4565 3557
-2132.13 -90.66 3565
-2127.77 -90.838 3572
-2137.62 -91.6263 3603
-2129.01 -91.6263 3603
-2125.1 -91.8298 3611
-2121.15 -92.0332 3619
-2117.17 -92.2367 3627
-2108.5 -92.2367 3627
-2099.82 -92.2367 3627
-2091.15 -92.2367 3627
-2082.48 -92.2367 3627
-2073.8 -92.2367 3627
-2065.13 -92.2367 3627
-2060.99 -92.4401 3635
-2052.3 -92.4401 3635
-2043.61 -92.4401 3635
-2034.92 -92.4401 3635
-2026.22 -92.4401 3635
-2017.53 -92.4401 3635
-2000 -92.0332 3619
-1986.94 -91.8298 3611
-1978.3 -91.8298 3611
-1974.03 -92.0332 3619
-1965.38 -92.0332 3619
-1956.73 -92.0332 3619
-1943.76 -91.8298 3611
-1935.13 -91.8298 3611
-1926.49 -91.8298 3611
-1909.36 -91.4229 3595
-1897.06 -91.2449 3588
-1888.48 -91.2449 3588
-1875.71 -91.0414 3580
-1859.33 -90.66 3565
-1862.74 -91.2449 3588
-1857.78 -91.4229 3595
-1849.18 -91.4229 3595
-1840.59 -91.4229 3595
-1828.42 -91.2449 3588
-1819.84 -91.2449 3588
-1807.23 -91.0414 3580
-1794.65 -90.838 3572
-1782.6 -90.66 3565
-1774.08 -90.66 3565
-1765.55 -90.66 3565
-1757.03 -90.66 3565
-1740.66 -90.2531 3549
-1721.43 -89.6936 3527
-1713 -89.6936 3527
-1701.18 -89.5156 3520
-1688.92 -89.3122 3512
-1673.34 -88.9307 3497
-1664.98 -88.9307 3497
-1656.62 -88.9307 3497
-1652.02 -89.1341 3505
-1643.64 -89.1341 3505
-1635.26 -89.1341 3505
-1626.88 -89.1341 3505
-1618.5 -89.1341 3505
-1610.12 -89.1341 3505
-1608.59 -89.5156 3520
-1600.17 -89.5156 3520
-1601.7 -90.0751 3542
-1599.98 -90.4565 3557
-1595.05 -90.66 3565
-1586.53 -90.66 3565
-1578 -90.66 3565
-1569.48 -90.66 3565
-1560.95 -90.66 3565
-1548.94 -90.4565 3557
-1540.44 -90.4565 3557
-1531.93 -90.4565 3557
-1523.43 -90.4565 3557
-1514.92 -90.4565 3557
-1500.06 -90.0751 3542
-1482.33 -89.5156 3520
-1473.91 -89.5156 3520
-1459.25 -89.1341 3505
-1438.86 -88.3967 3476
-1375.81 -85.0144 3343
-1343.68 -83.514 3284
-1335.83 -83.514 3284
-1307.35 -82.217 3233
-1284.75 -81.2761 3196
-1260.32 -80.208 3154
-1252.78 -80.208 3154
-1228.65 -79.1399 3112
-1210.22 -78.4279 3084
-1196.22 -77.9956 3067
-1188.89 -77.9956 3067
-1170.76 -77.2835 3039
-1156.99 -76.8512 3022
-1141.39 -76.2917 3000
-1130.44 -76.0374 2990
-1123.29 -76.0374 2990
-1106.06 -75.3508 2963
-1098.97 -75.3508 2963
-1091.89 -75.3508 2963
-1084.8 -75.3508 2963
-1077.72 -75.3508 2963
-1070.63 -75.3508 2963
-1061.75 -75.2236 2958
-1054.68 -75.2236 2958
-1043.71 -74.9439 2947
-1036.66 -74.9439 2947
-1027.87 -74.8167 2942
-1020.83 -74.8167 2942
-1012.07 -74.6896 2937
-1003.34 -74.5624 2932
-992.93 -74.3081 2922
-985.942 -74.3081 2922
-978.955 -74.3081 2922
-968.309 -74.0284 2911
-961.348 -74.0284 2911
-954.386 -74.0284 2911
-947.425 -74.0284 2911
-940.464 -74.0284 2911
-933.503 -74.0284 2911
-926.542 -74.0284 2911
-919.581 -74.0284 2911
-912.62 -74.0284 2911
-904.103 -73.9012 2906
-897.154 -73.9012 2906
-890.205 -73.9012 2906
-883.256 -73.9012 2906
-876.307 -73.9012 2906
-869.358 -73.9012 2906
-862.409 -73.9012 2906
-855.459 -73.9012 2906
-848.51 -73.9012 2906
-841.561 -73.9012 2906
-834.612 -73.9012 2906
-827.663 -73.9012 2906
-819.302 -73.7741 2901
-812.365 -73.7741 2901
-805.427 -73.7741 2901
-797.114 -73.6469 2896
-790.189 -73.6469 2896
-783.263 -73.6469 2896
-776.338 -73.6469 2896
-768.085 -73.5198 2891
-761.171 -73.5198 2891
-755.563 -73.6469 2896
-748.637 -73.6469 2896
-741.712 -73.6469 2896
-733.518 -73.5198 2891
-726.605 -73.5198 2891
-719.692 -73.5198 2891
-712.779 -73.5198 2891
-704.645 -73.3926 2886
-696.534 -73.2655 2881
-689.645 -73.2655 2881
-681.571 -73.1383 2876
-673.52 -73.0112 2871
-665.494 -72.884 2866
-658.641 -72.884 2866
-651.787 -72.884 2866
-644.934 -72.884 2866
-637.19 -72.7823 2862
-630.346 -72.7823 2862
-622.412 -72.6551 2857
-619.674 -73.1383 2876
-613.862 -73.2655 2881
-608.026 -73.3926 2886
-603.208 -73.6469 2896
-596.283 -73.6469 2896
-592.41 -74.0284 2911
-602.343 -76.1646 2995
-595.181 -76.1646 2995
-599.799 -77.6904 3055
-624.688 -81.9119 3221
-632.693 -83.9972 3303
-624.794 -83.9972 3303
-616.896 -83.9972 3303
-608.997 -83.9972 3303
-601.099 -83.9972 3303
-593.2 -83.9972 3303
-585.302 -83.9972 3303
-576.354 -83.8446 3297
-568.47 -83.8446 3297
-559.396 -83.6666 3290
-550.523 -83.514 3284
-541.678 -83.3614 3278
-537.911 -83.9972 3303
-530.013 -83.9972 3303
-522.114 -83.9972 3303
-514.216 -83.9972 3303
-506.317 -83.9972 3303
-496.457 -83.6666 3290
-487.698 -83.514 3284
-312.104 -54.3197 2136
-306.996 -54.3197 2136
-301.888 -54.3197 2136
-296.364 -54.2434 2133
-291.263 -54.2434 2133
-286.565 -54.3197 2136
-281.457 -54.3197 2136
-276.349 -54.3197 2136
-271.622 -54.396 2139
-266.507 -54.396 2139
-261.392 -54.396 2139
-256.277 -54.396 2139
-251.162 -54.396 2139
-246.047 -54.396 2139
-240.932 -54.396 2139
-236.148 -54.4723 2142
-231.026 -54.4723 2142
-225.904 -54.4723 2142
-168.046 -55.6675 2189
-162.811 -55.6675 2189
-157.577 -55.6675 2189
-152.133 -55.5912 2186
-146.906 -55.5912 2186
-140.966 -55.3115 2175
-135.39 -55.1589 2169
-130.083 -55.108 2167
-124.728 -55.0317 2164
-119.554 -55.0317 2164
-114.062 -54.8792 2158
-108.901 -54.8792 2158
-103.741 -54.8792 2158
-98.5805 -54.8792 2158
-93.2902 -54.8029 2155
-88.1369 -54.8029 2155
-82.7911 -54.6757 2150
-77.6498 -54.6757 2150
-72.3062 -54.5231 2144
-67.1792 -54.5231 2144
-61.9944 -54.4723 2142
-56.8722 -54.4723 2142
-51.6776 -54.396 2139
-46.5626 -54.396 2139
-41.3895 -54.3197 2136
-36.2816 -54.3197 2136
-31.1738 -54.3197 2136
-26.066 -54.3197 2136
-20.9582 -54.3197 2136
-15.8503 -54.3197 2136
-10.7274 -54.2434 2133
-5.6215 -54.1925 2131
-0.525636 -54.1925 2131
4.57023 -54.1925 2131
9.6661 -54.1925 2131
14.762 -54.1925 2131
19.8578 -54.1925 2131
24.9537 -54.1925 2131
30.0496 -54.1925 2131
35.096 -54.1163 2128
40.1846 -54.1163 2128
45.2733 -54.1163 2128
50.433 -54.1925 2131
55.5289 -54.1925 2131
60.6248 -54.1925 2131
65.7206 -54.1925 2131
70.8165 -54.1925 2131
75.9124 -54.1925 2131
81.0082 -54.1925 2131
86.1041 -54.1925 2131
91.2 -54.1925 2131
96.2958 -54.1925 2131
101.392 -54.1925 2131
106.488 -54.1925 2131
111.845 -54.3197 2136
116.953 -54.3197 2136
122.061 -54.3197 2136
127.347 -54.396 2139
132.648 -54.4723 2142
137.77 -54.4723 2142
142.892 -54.4723 2142
148.36 -54.5994 2147
153.709 -54.6757 2150
158.85 -54.6757 2150
163.991 -54.6757 2150
169.369 -54.752 2153
174.679 -54.8029 2155
180.083 -54.8792 2158
185.243 -54.8792 2158
190.668 -54.9555 2161
196.38 -55.108 2167
202.027 -55.2352 2172
207.221 -55.2352 2172
212.708 -55.3115 2175
217.909 -55.3115 2175
223.418 -55.3878 2178
228.626 -55.3878 2178
234.156 -55.4641 2181
239.921 -55.5912 2186
245.821 -55.7438 2192
251.063 -55.7438 2192
256.655 -55.8201 2195
262.62 -55.9727 2201
268.614 -56.1253 2207
273.891 -56.1253 2207
280.94 -56.4813 2221
287.797 -56.7865 2233
295.5 -57.2442 2251
300.883 -57.2442 2251
307.626 -57.4985 2261
313.864 -57.6511 2267
319.285 -57.6511 2267
324.706 -57.6511 2267
331.001 -57.8037 2273
336.88 -57.88 2276
343.225 -58.0326 2282
348.682 -58.0326 2282
354.139 -58.0326 2282
360.069 -58.1088 2285
365.533 -58.1088 2285
370.997 -58.1088 2285
376.461 -58.1088 2285
379.92 -57.8037 2273
384.846 -57.7274 2270
390.275 -57.7274 2270
394.657 -57.5748 2264
530.321 -74.3081 2922
537.308 -74.3081 2922
544.295 -74.3081 2922
551.283 -74.3081 2922
557.315 -74.181 2917
562.162 -73.9012 2906
569.112 -73.9012 2906
573.087 -73.5198 2891
578.997 -73.3926 2886
583.869 -73.1383 2876
590.746 -73.1383 2876
597.623 -73.1383 2876
603.45 -73.0112 2871
610.315 -73.0112 2871
616.106 -72.884 2866
622.959 -72.884 2866
629.813 -72.884 2866
636.666 -72.884 2866
643.52 -72.884 2866
650.373 -72.884 2866
657.227 -72.884 2866
664.08 -72.884 2866
672.104 -73.0112 2871
680.152 -73.1383 2876
687.029 -73.1383 2876
693.907 -73.1383 2876
699.566 -73.0112 2871
706.431 -73.0112 2871
713.297 -73.0112 2871
720.162 -73.0112 2871
727.028 -73.0112 2871
733.893 -73.0112 2871
740.758 -73.0112 2871
747.624 -73.0112 2871
754.489 -73.0112 2871
761.355 -73.0112 2871
768.22 -73.0112 2871
775.086 -73.0112 2871
781.951 -73.0112 2871
788.816 -73.0112 2871
795.682 -73.0112 2871
802.547 -73.0112 2871
809.413 -73.0112 2871
814.857 -72.884 2866
821.71 -72.884 2866
828.563 -72.884 2866
835.417 -72.884 2866
842.27 -72.884 2866
850.605 -73.0112 2871
857.471 -73.0112 2871
864.336 -73.0112 2871
871.202 -73.0112 2871
878.067 -73.0112 2871
884.932 -73.0112 2871
893.351 -73.1383 2876
900.228 -73.1383 2876
910.26 -73.3926 2886
917.161 -73.3926 2886
925.663 -73.5198 2891
939.028 -74.0284 2911
945.989 -74.0284 2911
956.551 -74.3081 2922
963.539 -74.3081 2922
973.848 -74.5624 2932
989.557 -75.2236 2958
1005.39 -75.8848 2984
1012.53 -75.8848 2984
1061.69 -79.0128 3107
1097.68 -81.1235 3190
1105.31 -81.1235 3190
1130.03 -82.3696 3239
1155.69 -83.6666 3290
1194.33 -85.879 3377
1202.41 -85.879 3377
1233.06 -87.4812 3440
1251.39 -88.1932 3468
1259.69 -88.1932 3468
1267.98 -88.1932 3468
1276.27 -88.1932 3468
1287.53 -88.3967 3476
1312.24 -89.5156 3520
1320.66 -89.5156 3520
1329.08 -89.5156 3520
1337.5 -89.5156 3520
1345.91 -89.5156 3520
1342.79 -88.7527 3490
1337.2 -87.8372 3454
1337.28 -87.3031 3433
1342.74 -87.1251 3426
1350.93 -87.1251 3426
1359.13 -87.1251 3426
1353.35 -86.2351 3391
1350.22 -85.523 3363
1358.26 -85.523 3363
1363.86 -85.3704 3357
1371.89 -85.3704 3357
1379.92 -85.3704 3357
1387.95 -85.3704 3357
1390.15 -85.0144 3343
1395.64 -84.8618 3337
1395.21 -84.3532 3317
1397.22 -83.9972 3303
1405.11 -83.9972 3303
1407.45 -83.6666 3290
1415.32 -83.6666 3290
1426.21 -83.8446 3297
1434.1 -83.8446 3297
1441.98 -83.8446 3297
1449.87 -83.8446 3297
1457.75 -83.8446 3297
1465.63 -83.8446 3297
1467.71 -83.514 3284
1475.56 -83.514 3284
1483.41 -83.514 3284
1491.27 -83.514 3284
1499.12 -83.514 3284
1506.97 -83.514 3284
1520.82 -83.8446 3297
1553.28 -85.1924 3350
1561.29 -85.1924 3350
1578.67 -85.701 3370
1596.62 -86.2351 3391
1627.92 -87.4812 3440
1636.14 -87.4812 3440
1644.37 -87.4812 3440
1652.59 -87.4812 3440
1647.3 -86.7691 3412
1655.46 -86.7691 3412
1649.97 -86.057 3384
1661.49 -86.2351 3391
1669.6 -86.2351 3391
1677.71 -86.2351 3391
1685.82 -86.2351 3391
1686.93 -85.879 3377
1681.46 -85.1924 3350
1689.47 -85.1924 3350
1693.93 -85.0144 3343
1709.05 -85.3704 3357
1717.08 -85.3704 3357
1725.11 -85.3704 3357
1733.13 -85.3704 3357
1716.78 -84.1752 3310
1714.28 -83.6666 3290
1702.26 -82.7002 3252
1710.03 -82.7002 3252
1710.94 -82.3696 3239
1718.69 -82.3696 3239
1723.23 -82.217 3233
1730.97 -82.217 3233
1738.7 -82.217 3233
1746.43 -82.217 3233
1750.9 -82.0644 3227
1758.62 -82.0644 3227
1742.8 -80.9709 3184
1730.62 -80.0554 3148
1705.57 -78.555 3089
1691.33 -77.5632 3050
1698.63 -77.5632 3050
1669.01 -75.8848 2984
1661.54 -75.2236 2958
1651.12 -74.4353 2927
1658.12 -74.4353 2927
1636.11 -73.1383 2876
1626.42 -72.4008 2847
1627.49 -72.1465 2837
1626.21 -71.7905 2823
1632.96 -71.7905 2823
1631.58 -71.4345 2809
1635.38 -71.3073 2804
1639.16 -71.1802 2799
1645.85 -71.1802 2799
1649.59 -71.053 2794
1650.94 -70.8241 2785
1654.62 -70.697 2780
1661.27 -70.697 2780
1662.52 -70.4681 2771
1663.72 -70.2392 2762
1670.33 -70.2392 2762
1676.93 -70.2392 2762
1683.54 -70.2392 2762
1687.08 -70.1121 2757
1691.22 -70.0104 2753
1692.25 -69.7815 2744
1698.81 -69.7815 2744
1699.78 -69.5526 2735
1706.32 -69.5526 2735
1709.73 -69.4255 2730
1716.26 -69.4255 2730
1720.26 -69.3237 2726
1723.61 -69.1966 2721
1725.03 -68.9931 2713
1731.52 -68.9931 2713
1738.01 -68.9931 2713
1741.28 -68.866 2708
1741.95 -68.6371 2699
1745.81 -68.5354 2695
1752.26 -68.5354 2695
1756.09 -68.4337 2691
1756.63 -68.2048 2682
1757.13 -67.9759 2673
1763.52 -67.9759 2673
1767.26 -67.8742 2669
1765.01 -67.5436 2656
1771.36 -67.5436 2656
1777.71 -67.5436 2656
1784.06 -67.5436 2656
1787.72 -67.4419 2652
1794.06 -67.4419 2652
1800.4 -67.4419 2652
1806.74 -67.4419 2652
1813.08 -67.4419 2652
1816.68 -67.3401 2648
1823.01 -67.3401 2648
1829.34 -67.3401 2648
1835.68 -67.3401 2648
1842.01 -67.3401 2648
1848.34 -67.3401 2648
1854.67 -67.3401 2648
1855.38 -67.1367 2640
1858.17 -67.0096 2635
1864.47 -67.0096 2635
1870.77 -67.0096 2635
1877.07 -67.0096 2635
1877.66 -66.8061 2627
1883.94 -66.8061 2627
1887.34 -66.7044 2623
1893.61 -66.7044 2623
1899.89 -66.7044 2623
1906.16 -66.7044 2623
1909.51 -66.6027 2619
1915.78 -66.6027 2619
1922.04 -66.6027 2619
1925.36 -66.5009 2615
1928.66 -66.3992 2611
1934.9 -66.3992 2611
1938.17 -66.2975 2607
1944.4 -66.2975 2607
1950.64 -66.2975 2607
1956.87 -66.2975 2607
1963.11 -66.2975 2607
1969.34 -66.2975 2607
1972.54 -66.1958 2603
1978.77 -66.1958 2603
1984.99 -66.1958 2603
1984.33 -65.9669 2594
-2074.72 -63.8302 2771
-2068.09 -63.8302 2771
-2061.46 -63.8302 2771
-2054.84 -63.8302 2771
-2048.21 -63.8302 2771
-2031.27 -63.5077 2757
-2024.68 -63.5077 2757
-2018.08 -63.5077 2757
-2004.92 -63.3003 2748
-1991.81 -63.093 2739
-1985.26 -63.093 2739
-1965.71 -62.6784 2721
-1953.44 -62.4941 2713
-1946.95 -62.4941 2713
-1940.46 -62.4941 2713
-1933.98 -62.4941 2713
-1939.57 -62.8857 2730
-1962.07 -63.8302 2771
-2005.55 -65.4656 2842
-1998.75 -65.4656 2842
-2033.31 -66.8247 2901
-2026.37 -66.8247 2901
-2019.43 -66.8247 2901
-2192.91 -73.0672 3172
-2258.35 -75.5089 3278
-2250.51 -75.5089 3278
-2300.83 -77.4669 3363
-2292.79 -77.4669 3363
-2294.26 -77.7894 3377
-2286.18 -77.7894 3377
-2320.6 -79.2406 3440
-2317.08 -79.4019 3447
-2308.84 -79.4019 3447
-2300.6 -79.4019 3447
-2287.7 -79.2406 3440
-2279.47 -79.2406 3440
-2280.49 -79.5631 3454
-2272.23 -79.5631 3454
-2268.56 -79.7243 3461
-2264.86 -79.8856 3468
-2256.56 -79.8856 3468
-2248.27 -79.8856 3468
-2249.66 -80.2311 3483
-2250.34 -80.5536 3497
-2241.98 -80.5536 3497
-2233.62 -80.5536 3497
-2225.26 -80.5536 3497
-2216.9 -80.5536 3497
-2208.53 -80.5536 3497
-2195.77 -80.3924 3490
-2196.82 -80.7379 3505
-2188.44 -80.7379 3505
-2180.06 -80.7379 3505
-2171.68 -80.7379 3505
-2163.3 -80.7379 3505
-2159.22 -80.8991 3512
-2155.72 -81.0834 3520
-2147.3 -81.0834 3520
-2152.25 -81.5902 3542
-2157.7 -82.12 3565
-2149.18 -82.12 3565
-2140.65 -82.12 3565
-2132.13 -82.12 3565
-2141.47 -82.811 3595
-2142.37 -83.1796 3611
-2133.73 -83.1796 3611
-2139.22 -83.7324 3635
-2130.53 -83.7324 3635
-2130.59 -84.078 3650
-2121.87 -84.078 3650
-2113.14 -84.078 3650
-2099.8 -83.8937 3642
-2091.09 -83.8937 3642
-2078.38 -83.7324 3635
-2069.68 -83.7324 3635
-2060.99 -83.7324 3635
-2052.3 -83.7324 3635
-2043.61 -83.7324 3635
-2038.83 -83.8937 3642
-2030.12 -83.8937 3642
-2021.42 -83.8937 3642
-2008.84 -83.7324 3635
-1991.34 -83.3639 3619
-1987.07 -83.5482 3627
-1978.4 -83.5482 3627
-1969.72 -83.5482 3627
-1961.05 -83.5482 3627
-1952.38 -83.5482 3627
-1943.7 -83.5482 3627
-1926.49 -83.1796 3611
-1909.36 -82.811 3595
-1897.06 -82.6498 3588
-1888.48 -82.6498 3588
-1879.9 -82.6498 3588
-1859.33 -82.12 3565
-1858.59 -82.4655 3580
-1854.16 -82.6498 3588
-1845.58 -82.6498 3588
-1837 -82.6498 3588
-1828.42 -82.6498 3588
-1819.84 -82.6498 3588
-1807.23 -82.4655 3580
-1794.65 -82.2812 3572
-1782.6 -82.12 3565
-1774.08 -82.12 3565
-1765.55 -82.12 3565
-1757.03 -82.12 3565
-1748.5 -82.12 3565
-1728.75 -81.5902 3542
-1720.28 -81.5902 3542
-1707.95 -81.4059 3534
-1692.76 -81.0834 3520
-1684.35 -81.0834 3520
-1675.93 -81.0834 3520
-1667.51 -81.0834 3520
-1659.09 -81.0834 3520
-1653.96 -81.2447 3527
-1645.52 -81.2447 3527
-1637.09 -81.2447 3527
-1628.66 -81.2447 3527
-1620.22 -81.2447 3527
-1614.99 -81.4059 3534
-1606.54 -81.4059 3534
-1601.7 -81.5902 3542
-1599.98 -81.9357 3557
-1595.05 -82.12 3565
-1586.53 -82.12 3565
-1578 -82.12 3565
-1565.96 -81.9357 3557
-1557.45 -81.9357 3557
-1542.41 -81.5902 3542
-1533.94 -81.5902 3542
-1525.47 -81.5902 3542
-1517 -81.5902 3542
-1508.53 -81.5902 3542
-1496.67 -81.4059 3534
-1482.33 -81.0834 3520
-1473.91 -81.0834 3520
-1450.09 -80.2311 3483
-1438.86 -80.0699 3476
-1381.58 -77.3287 3357
-1357.18 -76.4073 3317
-1349.25 -76.4073 3317
-1325.55 -75.5089 3278
-1291.98 -74.0347 3214
-1267.51 -73.0672 3172
-1259.93 -73.0672 3172
-1235.76 -72.0997 3130
-1214.54 -71.2935 3095
-1198.17 -70.7637 3072
-1190.82 -70.7637 3072
-1175 -70.2569 3050
-1156.99 -69.612 3022
-1141.39 -69.1052 3000
-1130.44 -68.8748 2990
-1123.29 -68.8748 2990
-1106.06 -68.2529 2963
-1098.97 -68.2529 2963
-1091.89 -68.2529 2963
-1084.8 -68.2529 2963
-1077.72 -68.2529 2963
-1070.63 -68.2529 2963
-1061.75 -68.1377 2958
-1054.68 -68.1377 2958
-1043.71 -67.8843 2947
-1036.66 -67.8843 2947
-1027.87 -67.7691 2942
-1020.83 -67.7691 2942
-1012.07 -67.654 2937
-1003.34 -67.5388 2932
-992.93 -67.3084 2922
-985.942 -67.3084 2922
-978.955 -67.3084 2922
-970.304 -67.1933 2917
-961.348 -67.0551 2911
-954.386 -67.0551 2911
-947.425 -67.0551 2911
-940.464 -67.0551 2911
-933.503 -67.0551 2911
-926.542 -67.0551 2911
-919.581 -67.0551 2911
-912.62 -67.0551 2911
-905.659 -67.0551 2911
-898.698 -67.0551 2911
-890.205 -66.9399 2906
-883.256 -66.9399 2906
-876.307 -66.9399 2906
-869.358 -66.9399 2906
-862.409 -66.9399 2906
-855.459 -66.9399 2906
-848.51 -66.9399 2906
-841.561 -66.9399 2906
-834.612 -66.9399 2906
-827.663 -66.9399 2906
-820.714 -66.9399 2906
-812.365 -66.8247 2901
-805.427 -66.8247 2901
-798.49 -66.8247 2901
-791.553 -66.8247 2901
-784.616 -66.8247 2901
-777.679 -66.8247 2901
-769.413 -66.7095 2896
-762.488 -66.7095 2896
-755.563 -66.7095 2896
-748.637 -66.7095 2896
-741.712 -66.7095 2896
-734.787 -66.7095 2896
-726.605 -66.5944 2891
-719.692 -66.5944 2891
-712.779 -66.5944 2891
-704.645 -66.4792 2886
-696.534 -66.364 2881
-689.645 -66.364 2881
-681.571 -66.2488 2876
-673.52 -66.1337 2871
-665.494 -66.0185 2866
-658.641 -66.0185 2866
-651.787 -66.0185 2866
-644.934 -66.0185 2866
-638.08 -66.0185 2866
-631.227 -66.0185 2866
-622.412 -65.8112 2857
-619.674 -66.2488 2876
-613.862 -66.364 2881
-609.08 -66.5944 2891
-603.208 -66.7095 2896
-596.283 -66.7095 2896
-593.631 -67.1933 2917
-603.348 -69.1052 3000
-596.174 -69.1052 3000
-600.977 -70.5103 3061
-623.33 -74.0347 3214
-631.543 -75.9466 3297
-623.659 -75.9466 3297
-616.896 -76.0848 3303
-608.997 -76.0848 3303
-601.099 -76.0848 3303
-593.2 -76.0848 3303
-585.302 -76.0848 3303
-576.354 -75.9466 3297
-568.47 -75.9466 3297
-559.396 -75.7853 3290
-551.529 -75.7853 3290
-542.67 -75.6471 3284
-537.911 -76.0848 3303
-530.013 -76.0848 3303
-524.327 -76.4073 3317
-516.395 -76.4073 3317
-508.463 -76.4073 3317
-495.552 -75.6471 3284
-487.698 -75.6471 3284
-312.104 -49.2029 2136
-306.996 -49.2029 2136
-301.888 -49.2029 2136
-296.364 -49.1338 2133
-291.263 -49.1338 2133
-286.565 -49.2029 2136
-281.457 -49.2029 2136
-276.349 -49.2029 2136
-271.622 -49.272 2139
-266.507 -49.272 2139
-261.392 -49.272 2139
-256.277 -49.272 2139
-251.515 -49.3411 2142
-246.393 -49.3411 2142
-241.27 -49.3411 2142
-236.148 -49.3411 2142
-231.026 -49.3411 2142
-225.904 -49.3411 2142
-168.276 -50.4929 2192
-163.035 -50.4929 2192
-157.793 -50.4929 2192
-152.342 -50.4237 2189
-147.108 -50.4237 2189
-141.16 -50.1704 2178
-135.577 -50.0322 2172
-130.203 -49.963 2169
-124.901 -49.917 2167
-119.719 -49.917 2167
-114.062 -49.7097 2158
-108.901 -49.7097 2158
-103.741 -49.7097 2158
-98.5805 -49.7097 2158
-93.2902 -49.6406 2155
-88.1369 -49.6406 2155
-82.7911 -49.5254 2150
-77.6498 -49.5254 2150
-72.4074 -49.4563 2147
-67.1792 -49.3872 2144
-61.9944 -49.3411 2142
-56.8722 -49.3411 2142
-51.7501 -49.3411 2142
-46.5626 -49.272 2139
-41.3895 -49.2029 2136
-36.2816 -49.2029 2136
-31.1738 -49.2029 2136
-26.066 -49.2029 2136
-20.9582 -49.2029 2136
-15.8503 -49.2029 2136
-10.7274 -49.1338 2133
-5.62678 -49.1338 2133
-0.525636 -49.0877 2131
4.57023 -49.0877 2131
9.6661 -49.0877 2131
14.762 -49.0877 2131
19.8578 -49.0877 2131
24.9537 -49.0877 2131
30.0496 -49.0877 2131
35.096 -49.0186 2128
40.1846 -49.0186 2128
45.3372 -49.0877 2131
50.433 -49.0877 2131
55.5289 -49.0877 2131
60.6248 -49.0877 2131
65.7206 -49.0877 2131
70.8165 -49.0877 2131
75.9124 -49.0877 2131
81.0082 -49.0877 2131
86.1041 -49.0877 2131
91.2 -49.0877 2131
96.2958 -49.0877 2131
101.392 -49.0877 2131
106.588 -49.1338 2133
111.845 -49.2029 2136
116.953 -49.2029 2136
122.232 -49.272 2139
127.526 -49.3411 2142
132.648 -49.3411 2142
138.092 -49.4563 2147
143.226 -49.4563 2147
148.36 -49.4563 2147
153.709 -49.5254 2150
158.85 -49.5254 2150
163.991 -49.5254 2150
169.369 -49.5945 2153
174.679 -49.6406 2155
180.333 -49.7788 2161
185.501 -49.7788 2161
190.933 -49.8479 2164
196.561 -49.963 2169
202.027 -50.0322 2172
207.221 -50.0322 2172
212.708 -50.1013 2175
218.21 -50.1704 2178
223.418 -50.1704 2178
228.626 -50.1704 2178
234.156 -50.2395 2181
240.25 -50.4237 2189
246.157 -50.562 2195
251.406 -50.562 2195
257.006 -50.6311 2198
262.62 -50.7002 2201
268.614 -50.8384 2207
273.891 -50.8384 2207
280.94 -51.1609 2221
287.797 -51.4373 2233
295.5 -51.8519 2251
300.883 -51.8519 2251
307.626 -52.0823 2261
313.448 -52.1514 2264
319.285 -52.2205 2267
324.706 -52.2205 2267
331.001 -52.3587 2273
336.88 -52.4278 2276
343.225 -52.566 2282
348.682 -52.566 2282
354.139 -52.566 2282
360.069 -52.6351 2285
365.533 -52.6351 2285
370.997 -52.6351 2285
376.461 -52.6351 2285
379.92 -52.3587 2273
384.846 -52.2896 2270
390.275 -52.2896 2270
394.657 -52.1514 2264
532.136 -67.5388 2932
539.147 -67.5388 2932
546.158 -67.5388 2932
552.226 -67.4236 2927
558.27 -67.3084 2922
564.29 -67.1933 2917
571.266 -67.1933 2917
573.087 -66.5944 2891
578.997 -66.4792 2886
584.884 -66.364 2881
591.773 -66.364 2881
597.623 -66.2488 2876
604.501 -66.2488 2876
611.378 -66.2488 2876
617.181 -66.1337 2871
624.046 -66.1337 2871
630.911 -66.1337 2871
637.777 -66.1337 2871
644.642 -66.1337 2871
651.508 -66.1337 2871
658.373 -66.1337 2871
665.239 -66.1337 2871
673.275 -66.2488 2876
680.152 -66.2488 2876
687.029 -66.2488 2876
