ply
format ascii 1.0
comment File generated
element vertex 2161
property float x
property float y
property float z
end_header
-1293.25 -793.766 3916
-1283.88 -793.766 3916
-1277.45 -795.591 3925
-1274.2 -799.442 3944
-1264.77 -799.442 3944
-1255.34 -799.442 3944
-1245.9 -799.442 3944
-1236.47 -799.442 3944
-1227.04 -799.442 3944
-1211.74 -795.591 3925
-1196.84 -791.942 3907
-193.428 -408.842 2017
-190.942 -413.91 2042
-186.059 -413.91 2042
-181.176 -413.91 2042
-176.293 -413.91 2042
-171.41 -413.91 2042
-166.527 -413.91 2042
-162.04 -414.923 2047
-157.298 -415.329 2049
-152.622 -415.937 2052
-147.715 -415.937 2052
-143.156 -416.95 2057
-138.438 -417.558 2060
-133.512 -417.558 2060
-128.586 -417.558 2060
-123.78 -417.964 2062
-118.849 -417.964 2062
-114.084 -418.572 2065
-109.146 -418.572 2065
-104.208 -418.572 2065
-99.2702 -418.572 2065
-94.5605 -419.585 2070
-89.6105 -419.585 2070
-84.9877 -421.207 2078
-80.0956 -421.612 2080
-75.3023 -422.626 2085
-70.3164 -422.626 2085
-65.5186 -423.842 2091
-60.5183 -423.842 2091
-55.6509 -424.855 2096
-50.687 -425.261 2098
-45.6701 -425.261 2098
-40.7113 -425.869 2101
-35.7381 -426.477 2104
-30.736 -426.882 2106
-25.6999 -426.882 2106
-20.6932 -427.491 2109
-15.65 -427.491 2109
-10.6218 -428.099 2112
-5.57138 -428.099 2112
-0.520949 -428.099 2112
4.52948 -428.099 2112
9.57992 -428.099 2112
14.6303 -428.099 2112
19.6528 -427.491 2109
24.6961 -427.491 2109
29.7393 -427.491 2109
34.7826 -427.491 2109
39.8259 -427.491 2109
44.8691 -427.491 2109
49.9124 -427.491 2109
54.9556 -427.491 2109
60.0842 -428.099 2112
65.1964 -428.504 2114
70.3513 -429.112 2117
75.4137 -429.112 2117
80.476 -429.112 2117
85.6596 -429.72 2120
90.9432 -430.734 2125
96.0247 -430.734 2125
101.106 -430.734 2125
106.488 -431.95 2131
111.845 -432.963 2136
116.953 -432.963 2136
122.061 -432.963 2136
127.347 -433.572 2139
132.648 -434.18 2142
137.77 -434.18 2142
142.892 -434.18 2142
148.567 -435.801 2150
153.923 -436.409 2153
159.219 -436.815 2155
164.373 -436.815 2155
169.998 -438.031 2161
175.166 -438.031 2161
180.584 -438.639 2164
185.758 -438.639 2164
191.374 -439.652 2169
197.648 -442.085 2181
202.864 -442.085 2181
208.079 -442.085 2181
214.077 -443.706 2189
219.913 -444.923 2195
225.777 -446.139 2201
231.04 -446.139 2201
236.948 -447.355 2207
243.104 -448.977 2215
251.765 -455.057 2245
257.133 -455.057 2245
264.372 -458.301 2261
270.853 -460.125 2270
278.472 -463.774 2288
283.943 -463.774 2288
291.439 -467.017 2304
300.299 -472.287 2330
307.971 -475.53 2346
485.877 -736.808 3635
494.569 -736.808 3635
503.262 -736.808 3635
330.975 -476.341 2350
572.894 -772.078 3809
582.003 -772.078 3809
591.111 -772.078 3809
594.704 -764.983 3774
603.729 -764.983 3774
615.677 -768.632 3792
624.744 -768.632 3792
636.654 -772.078 3809
645.762 -772.078 3809
654.871 -772.078 3809
719.523 -763.362 3766
735.106 -770.253 3800
744.193 -770.253 3800
781.825 -799.442 3944
796.874 -805.117 3972
808.402 -807.144 3982
817.924 -807.144 3982
829.317 -808.969 3991
838.86 -808.969 3991
850.53 -810.996 4001
860.097 -810.996 4001
869.665 -810.996 4001
875.057 -807.144 3982
884.58 -807.144 3982
877.261 -791.942 3907
882.52 -788.293 3889
891.819 -788.293 3889
901.119 -788.293 3889
904.098 -782.821 3862
909.077 -779.172 3844
933.318 -791.942 3907
944.833 -793.766 3916
954.197 -793.766 3916
963.561 -793.766 3916
1343.25 -739.849 3650
1354.94 -741.47 3658
1363.69 -741.47 3658
1372.44 -741.47 3658
1381.18 -741.47 3658
1389.93 -741.47 3658
1398.68 -741.47 3658
1407.43 -741.47 3658
1413.08 -739.849 3650
1437.78 -748.159 3691
1449.74 -749.781 3699
1458.58 -749.781 3699
1480.52 -756.47 3732
1489.44 -756.47 3732
1498.37 -756.47 3732
1507.29 -756.47 3732
1509.72 -753.227 3716
1514.93 -751.402 3707
1523.79 -751.402 3707
1532.65 -751.402 3707
1541.52 -751.402 3707
1550.38 -751.402 3707
1559.25 -751.402 3707
1568.11 -751.402 3707
1573.57 -749.781 3699
-2946.75 -817.035 4079
-2937 -817.035 4079
-2927.24 -817.035 4079
-2910.34 -815.032 4069
-2886.35 -811.026 4049
-2876.67 -811.026 4049
-2839.37 -803.214 4010
-2829.78 -803.214 4010
-2813.86 -801.411 4001
-2804.29 -801.411 4001
-2774.47 -795.602 3972
-2764.97 -795.602 3972
-2755.47 -795.602 3972
-2745.98 -795.602 3972
-2717.19 -789.994 3944
-2682.35 -782.583 3907
-2692.17 -788.191 3935
-2688.89 -789.994 3944
-2679.46 -789.994 3944
-2670.03 -789.994 3944
-2660.6 -789.994 3944
-2663.94 -793.8 3963
-2654.46 -793.8 3963
-2644.99 -793.8 3963
-2641.49 -795.602 3972
-2663.8 -805.217 4020
-2654.19 -805.217 4020
-2651.16 -807.22 4030
-2641.52 -807.22 4030
-2631.88 -807.22 4030
-1361.69 -775.372 3871
-1352.44 -775.372 3871
-1343.18 -775.372 3871
-1333.92 -775.372 3871
-1324.67 -775.372 3871
-1309.29 -771.766 3853
-1303.12 -773.569 3862
-1302.93 -778.977 3889
-1296.62 -780.78 3898
-1293.25 -784.385 3916
-1283.88 -784.385 3916
-1277.45 -786.188 3925
-1268.06 -786.188 3925
-1258.67 -786.188 3925
-1249.29 -786.188 3925
-1239.9 -786.188 3925
-1227.69 -784.385 3916
-1218.33 -784.385 3916
-1206.19 -782.583 3907
-1196.84 -782.583 3907
-193.428 -404.011 2017
-190.942 -409.018 2042
-186.059 -409.018 2042
-181.176 -409.018 2042
-176.293 -409.018 2042
-171.41 -409.018 2042
-166.527 -409.018 2042
-162.04 -410.02 2047
-157.298 -410.42 2049
-152.622 -411.021 2052
-147.715 -411.021 2052
-143.156 -412.023 2057
-138.438 -412.624 2060
-133.512 -412.624 2060
-128.586 -412.624 2060
-123.78 -413.024 2062
-118.849 -413.024 2062
-114.084 -413.625 2065
-109.146 -413.625 2065
-104.208 -413.625 2065
-99.5105 -414.627 2070
-94.926 -416.229 2078
-89.9569 -416.229 2078
-85.0695 -416.63 2080
-80.2111 -417.231 2083
-75.4106 -418.232 2088
-70.4176 -418.232 2088
-65.5812 -419.234 2093
-60.7209 -420.235 2098
-55.704 -420.235 2098
-50.7595 -420.836 2101
-45.7354 -420.836 2101
-40.7694 -421.437 2104
-35.7721 -421.838 2106
-30.7798 -422.438 2109
-25.7365 -422.438 2109
-20.7227 -423.039 2112
-15.6722 -423.039 2112
-10.6218 -423.039 2112
-5.57138 -423.039 2112
-0.520949 -423.039 2112
4.52948 -423.039 2112
9.57992 -423.039 2112
14.6303 -423.039 2112
19.6808 -423.039 2112
24.7312 -423.039 2112
29.7816 -423.039 2112
34.7826 -422.438 2109
39.8259 -422.438 2109
44.8691 -422.438 2109
49.9124 -422.438 2109
54.9556 -422.438 2109
60.0842 -423.039 2112
65.1964 -423.44 2114
70.3513 -424.041 2117
75.4137 -424.041 2117
80.476 -424.041 2117
85.6596 -424.642 2120
90.9432 -425.643 2125
96.0247 -425.643 2125
101.249 -426.244 2128
106.488 -426.845 2131
111.845 -427.847 2136
117.117 -428.448 2139
122.232 -428.448 2139
127.347 -428.448 2139
132.648 -429.048 2142
137.77 -429.048 2142
142.892 -429.048 2142
148.567 -430.651 2150
153.923 -431.252 2153
159.219 -431.652 2155
164.373 -431.652 2155
169.998 -432.854 2161
175.409 -433.455 2164
180.834 -434.056 2167
186.016 -434.056 2167
191.374 -434.457 2169
197.648 -436.86 2181
202.864 -436.86 2181
208.079 -436.86 2181
214.077 -438.463 2189
219.913 -439.664 2195
225.777 -440.866 2201
231.04 -440.866 2201
236.948 -442.068 2207
243.104 -443.671 2215
251.765 -449.68 2245
257.133 -449.68 2245
264.372 -452.884 2261
270.853 -454.687 2270
278.472 -458.293 2288
283.943 -458.293 2288
291.439 -461.497 2304
300.299 -466.705 2330
477.185 -728.1 3635
485.877 -728.1 3635
494.569 -728.1 3635
503.262 -728.1 3635
330.975 -470.711 2350
572.894 -762.953 3809
582.003 -762.953 3809
591.111 -762.953 3809
594.704 -755.942 3774
603.729 -755.942 3774
615.677 -759.548 3792
624.744 -759.548 3792
640.999 -768.161 3835
651.696 -769.964 3844
660.888 -769.964 3844
670.08 -769.964 3844
719.523 -754.34 3766
735.106 -761.15 3800
744.193 -761.15 3800
781.825 -789.994 3944
796.874 -795.602 3972
808.402 -797.605 3982
817.924 -797.605 3982
829.317 -799.408 3991
838.86 -799.408 3991
850.53 -801.411 4001
860.097 -801.411 4001
869.665 -801.411 4001
875.057 -797.605 3982
884.58 -797.605 3982
877.261 -782.583 3907
882.52 -778.977 3889
891.819 -778.977 3889
901.119 -778.977 3889
904.098 -773.569 3862
909.077 -769.964 3844
933.318 -782.583 3907
944.833 -784.385 3916
954.197 -784.385 3916
963.561 -784.385 3916
961.746 -775.372 3871
971.002 -775.372 3871
1328.7 -732.707 3658
1337.45 -732.707 3658
1346.2 -732.707 3658
1354.94 -732.707 3658
1363.69 -732.707 3658
1372.44 -732.707 3658
1381.18 -732.707 3658
1389.93 -732.707 3658
1398.68 -732.707 3658
1407.43 -732.707 3658
1413.08 -731.105 3650
1437.78 -739.317 3691
1449.74 -740.92 3699
1458.58 -740.92 3699
1480.52 -747.53 3732
1489.44 -747.53 3732
1498.37 -747.53 3732
1507.29 -747.53 3732
1509.72 -744.325 3716
1514.93 -742.522 3707
1523.79 -742.522 3707
1532.65 -742.522 3707
1541.52 -742.522 3707
1550.38 -742.522 3707
1559.25 -742.522 3707
1568.11 -742.522 3707
1573.57 -740.92 3699
-2946.75 -807.263 4079
-2937 -807.263 4079
-2927.24 -807.263 4079
-2910.34 -805.284 4069
-2886.35 -801.326 4049
-2876.67 -801.326 4049
-2839.37 -793.608 4010
-2829.78 -793.608 4010
-2813.86 -791.827 4001
-2804.29 -791.827 4001
-2774.47 -786.087 3972
-2764.97 -786.087 3972
-2755.47 -786.087 3972
-2745.98 -786.087 3972
-2717.19 -780.546 3944
-2682.35 -773.223 3907
-2692.17 -778.765 3935
-2688.89 -780.546 3944
-2679.46 -780.546 3944
-2670.03 -780.546 3944
-2660.6 -780.546 3944
-2663.94 -784.306 3963
-2654.46 -784.306 3963
-2644.99 -784.306 3963
-2641.49 -786.087 3972
-2663.8 -795.587 4020
-2654.19 -795.587 4020
-2651.16 -797.566 4030
-2641.52 -797.566 4030
-2631.88 -797.566 4030
-1361.69 -766.099 3871
-1352.44 -766.099 3871
-1343.18 -766.099 3871
-1333.92 -766.099 3871
-1324.67 -766.099 3871
-1309.29 -762.536 3853
-1303.12 -764.318 3862
-1302.93 -769.661 3889
-1296.62 -771.442 3898
-1293.25 -775.005 3916
-1283.88 -775.005 3916
-1277.45 -776.786 3925
-1268.06 -776.786 3925
-1258.67 -776.786 3925
-1249.29 -776.786 3925
-1239.9 -776.786 3925
-1227.69 -775.005 3916
-1218.33 -775.005 3916
-1206.19 -773.223 3907
-1196.84 -773.223 3907
-193.428 -399.179 2017
-190.194 -402.543 2034
-185.33 -402.543 2034
-180.466 -402.543 2034
-175.602 -402.543 2034
-170.739 -402.543 2034
-165.875 -402.543 2034
-161.407 -403.533 2039
-156.761 -404.127 2042
-152.399 -405.512 2049
-147.499 -405.512 2049
-142.808 -406.106 2052
-138.237 -407.095 2057
-133.512 -407.689 2060
-128.586 -407.689 2060
-123.78 -408.085 2062
-118.849 -408.085 2062
-114.084 -408.678 2065
-109.146 -408.678 2065
-104.208 -408.678 2065
-99.5105 -409.668 2070
-94.926 -411.251 2078
-89.9569 -411.251 2078
-85.0695 -411.647 2080
-80.2111 -412.241 2083
-75.4106 -413.23 2088
-70.4176 -413.23 2088
-65.5812 -414.22 2093
-60.7209 -415.209 2098
-55.704 -415.209 2098
-50.7595 -415.803 2101
-45.7354 -415.803 2101
-40.7694 -416.397 2104
-35.7721 -416.793 2106
-30.7798 -417.386 2109
-25.7365 -417.386 2109
-20.7227 -417.98 2112
-15.6722 -417.98 2112
-10.6218 -417.98 2112
-5.57138 -417.98 2112
-0.520949 -417.98 2112
4.52948 -417.98 2112
9.57992 -417.98 2112
14.6303 -417.98 2112
19.6808 -417.98 2112
24.7312 -417.98 2112
29.7816 -417.98 2112
34.7826 -417.386 2109
39.8259 -417.386 2109
44.8691 -417.386 2109
49.9124 -417.386 2109
54.9556 -417.386 2109
60.0842 -417.98 2112
65.1964 -418.376 2114
70.3513 -418.97 2117
75.4137 -418.97 2117
80.476 -418.97 2117
85.6596 -419.563 2120
90.9432 -420.553 2125
96.0247 -420.553 2125
101.249 -421.147 2128
106.488 -421.74 2131
111.845 -422.73 2136
117.117 -423.324 2139
122.232 -423.324 2139
127.347 -423.324 2139
132.648 -423.917 2142
137.77 -423.917 2142
142.892 -423.917 2142
148.567 -425.5 2150
153.923 -426.094 2153
159.219 -426.49 2155
164.373 -426.49 2155
169.998 -427.677 2161
175.409 -428.271 2164
180.834 -428.865 2167
186.016 -428.865 2167
191.374 -429.261 2169
197.377 -431.042 2178
202.864 -431.636 2181
208.079 -431.636 2181
213.784 -432.625 2186
219.612 -433.813 2192
225.162 -434.406 2195
230.411 -434.406 2195
236.304 -435.594 2201
242.225 -436.781 2207
250.419 -441.927 2233
255.759 -441.927 2233
262.852 -444.895 2248
269.779 -447.468 2261
276.281 -449.249 2270
281.71 -449.249 2270
289.921 -453.603 2292
300.299 -461.124 2330
477.185 -719.393 3635
485.877 -719.393 3635
494.569 -719.393 3635
503.262 -719.393 3635
568.984 -748.683 3783
578.03 -748.683 3783
587.076 -748.683 3783
594.704 -746.902 3774
601.01 -743.537 3757
615.677 -750.464 3792
624.744 -750.464 3792
640.999 -758.974 3835
651.696 -760.755 3844
660.888 -760.755 3844
670.08 -760.755 3844
719.523 -745.319 3766
735.106 -752.047 3800
744.193 -752.047 3800
781.825 -780.546 3944
796.874 -786.087 3972
808.402 -788.066 3982
817.924 -788.066 3982
829.317 -789.848 3991
838.86 -789.848 3991
850.53 -791.827 4001
860.097 -791.827 4001
869.665 -791.827 4001
856.598 -771.442 3898
865.919 -771.442 3898
871.199 -767.88 3880
874.35 -762.536 3853
883.564 -762.536 3853
892.778 -762.536 3853
899.884 -760.755 3844
906.948 -758.974 3835
916.119 -758.974 3835
933.975 -766.099 3871
943.232 -766.099 3871
952.489 -766.099 3871
961.746 -766.099 3871
971.002 -766.099 3871
1328.7 -723.945 3658
1337.45 -723.945 3658
1346.2 -723.945 3658
1351.98 -722.361 3650
1360.71 -722.361 3650
1369.44 -722.361 3650
1381.18 -723.945 3658
1389.93 -723.945 3658
1398.68 -723.945 3658
1407.43 -723.945 3658
1413.08 -722.361 3650
1437.78 -730.475 3691
1449.74 -732.059 3699
1458.58 -732.059 3699
1474.17 -735.423 3716
1483.06 -735.423 3716
1491.95 -735.423 3716
1500.83 -735.423 3716
1506.06 -733.642 3707
1514.93 -733.642 3707
1523.79 -733.642 3707
1532.65 -733.642 3707
1541.52 -733.642 3707
1550.38 -733.642 3707
1559.25 -733.642 3707
1568.11 -733.642 3707
1573.57 -732.059 3699
-2946.75 -797.492 4079
-2937 -797.492 4079
-2927.24 -797.492 4079
-2910.34 -795.537 4069
-2886.35 -791.627 4049
-2876.67 -791.627 4049
-2839.37 -784.002 4010
-2829.78 -784.002 4010
-2813.86 -782.242 4001
-2804.29 -782.242 4001
-2774.47 -776.572 3972
-2764.97 -776.572 3972
-2755.47 -776.572 3972
-2745.98 -776.572 3972
-2717.19 -771.098 3944
-2682.35 -763.864 3907
-2679.17 -765.624 3916
-2688.89 -771.098 3944
-2679.46 -771.098 3944
-2670.03 -771.098 3944
-2660.6 -771.098 3944
-2651.17 -771.098 3944
-2641.74 -771.098 3944
-2644.99 -774.813 3963
-2641.49 -776.572 3972
-2632 -776.572 3972
-2622.5 -776.572 3972
-2632.08 -782.242 4001
-2622.51 -782.242 4001
-2612.94 -782.242 4001
-1324.79 -746.464 3818
-1324.62 -751.547 3844
-1315.43 -751.547 3844
-1306.24 -751.547 3844
-1303.12 -755.066 3862
-1302.93 -760.345 3889
-1293.63 -760.345 3889
-1290.27 -763.864 3907
-1280.93 -763.864 3907
-1277.45 -767.383 3925
-1268.06 -767.383 3925
-1258.67 -767.383 3925
-1249.29 -767.383 3925
-1237.06 -765.624 3916
-1224.87 -763.864 3907
-1215.53 -763.864 3907
-1206.19 -763.864 3907
-1196.84 -763.864 3907
-192.565 -392.587 2008
-189.82 -396.889 2030
-184.966 -396.889 2030
-180.111 -396.889 2030
-175.257 -396.889 2030
-170.403 -396.889 2030
-165.548 -396.889 2030
-161.407 -398.648 2039
-156.761 -399.235 2042
-152.399 -400.603 2049
-147.499 -400.603 2049
-143.156 -402.168 2057
-138.438 -402.754 2060
-133.642 -403.145 2062
-128.711 -403.145 2062
-124.08 -404.123 2067
-119.138 -404.123 2067
-114.195 -404.123 2067
-109.252 -404.123 2067
-104.309 -404.123 2067
-99.6067 -405.1 2072
-95.0174 -406.664 2080
-90.0434 -406.664 2080
-85.1922 -407.251 2083
-80.2882 -407.642 2085
-75.4106 -408.228 2088
-70.4176 -408.228 2088
-65.7379 -410.184 2098
-60.7209 -410.184 2098
-55.7836 -410.77 2101
-50.832 -411.357 2104
-45.8007 -411.357 2104
-40.8081 -411.748 2106
-35.823 -412.334 2109
-30.8235 -412.921 2112
-25.7731 -412.921 2112
-20.7227 -412.921 2112
-15.6722 -412.921 2112
-10.6319 -413.312 2114
-5.57666 -413.312 2114
-0.521442 -413.312 2114
4.52948 -412.921 2112
9.57992 -412.921 2112
14.6303 -412.921 2112
19.6808 -412.921 2112
24.7312 -412.921 2112
29.7816 -412.921 2112
34.7826 -412.334 2109
39.8259 -412.334 2109
44.8691 -412.334 2109
49.9124 -412.334 2109
54.9556 -412.334 2109
60.0842 -412.921 2112
65.1964 -413.312 2114
70.3513 -413.898 2117
75.4137 -413.898 2117
80.5901 -414.485 2120
85.6596 -414.485 2120
90.9432 -415.462 2125
96.0247 -415.462 2125
101.249 -416.049 2128
106.488 -416.635 2131
111.845 -417.613 2136
117.117 -418.2 2139
122.232 -418.2 2139
127.347 -418.2 2139
132.648 -418.786 2142
137.899 -419.177 2144
143.026 -419.177 2144
148.567 -420.35 2150
153.923 -420.937 2153
159.219 -421.328 2155
164.373 -421.328 2155
170.234 -423.087 2164
175.409 -423.087 2164
180.834 -423.674 2167
186.016 -423.674 2167
191.374 -424.065 2169
197.377 -425.824 2178
202.864 -426.411 2181
208.079 -426.411 2181
213.295 -426.411 2181
219.312 -427.975 2189
224.854 -428.562 2192
230.096 -428.562 2192
235.66 -429.148 2195
241.567 -430.321 2201
250.419 -436.578 2233
255.759 -436.578 2233
262.151 -438.337 2242
269.302 -441.27 2257
275.916 -443.225 2267
281.337 -443.225 2267
289.921 -448.113 2292
295.401 -448.113 2292
477.185 -710.685 3635
490.154 -716.941 3667
498.923 -716.941 3667
507.692 -716.941 3667
516.461 -716.941 3667
525.23 -716.941 3667
550.021 -726.521 3716
568.984 -739.621 3783
578.03 -739.621 3783
587.076 -739.621 3783
594.704 -737.861 3774
601.01 -734.537 3757
615.677 -741.38 3792
624.744 -741.38 3792
640.999 -749.787 3835
651.696 -751.547 3844
660.888 -751.547 3844
670.08 -751.547 3844
668.493 -739.621 3783
672.883 -734.537 3757
681.867 -734.537 3757
719.523 -736.297 3766
735.106 -742.944 3800
744.193 -742.944 3800
774.49 -763.864 3907
791.256 -771.098 3944
800.688 -771.098 3944
810.119 -771.098 3944
808.121 -760.345 3889
819.313 -762.105 3898
828.634 -762.105 3898
837.955 -762.105 3898
847.277 -762.105 3898
852.643 -758.585 3880
861.921 -758.585 3880
863.116 -751.547 3844
858.465 -739.621 3783
867.512 -739.621 3783
876.558 -739.621 3783
885.604 -739.621 3783
898.671 -742.944 3800
909.908 -744.704 3809
923.118 -748.028 3826
932.267 -748.028 3826
952.489 -756.826 3871
961.746 -756.826 3871
971.002 -756.826 3871
980.259 -756.826 3871
975.968 -746.464 3818
978.389 -741.38 3792
1297.22 -702.865 3595
1328.7 -715.182 3658
1337.45 -715.182 3658
1346.2 -715.182 3658
1351.98 -713.618 3650
1360.71 -713.618 3650
1369.44 -713.618 3650
1378.16 -713.618 3650
1386.89 -713.618 3650
1395.62 -713.618 3650
1404.35 -713.618 3650
1413.08 -713.618 3650
1428.43 -716.941 3667
1446.6 -721.634 3691
1455.43 -721.634 3691
1464.26 -721.634 3691
1479.47 -724.762 3707
1488.33 -724.762 3707
1497.2 -724.762 3707
1506.06 -724.762 3707
1514.93 -724.762 3707
1523.79 -724.762 3707
1532.65 -724.762 3707
1534.87 -721.634 3691
1543.69 -721.634 3691
1552.52 -721.634 3691
1561.34 -721.634 3691
1570.17 -721.634 3691
-2922.6 -783.859 4059
-2912.89 -783.859 4059
-2903.18 -783.859 4059
-2879.22 -779.996 4039
-2869.56 -779.996 4039
-2839.37 -774.396 4010
-2823.43 -772.658 4001
-2800.5 -768.989 3982
-2790.98 -768.989 3982
-2774.47 -767.057 3972
-2758.71 -765.319 3963
-2742.29 -763.388 3953
-2732.84 -763.388 3953
-2717.19 -761.65 3944
-2682.35 -754.505 3907
-2666.85 -752.767 3898
-2688.89 -761.65 3944
-2679.46 -761.65 3944
-2670.03 -761.65 3944
-2654.53 -759.912 3935
-2645.12 -759.912 3935
-2635.71 -759.912 3935
-2619.62 -757.981 3925
-2610.24 -757.981 3925
-2619.41 -763.388 3953
-2609.95 -763.388 3953
-2600.5 -763.388 3953
-2591.05 -763.388 3953
-2581.6 -763.388 3953
-1333.81 -742.339 3844
-1324.62 -742.339 3844
-1315.43 -742.339 3844
-1306.24 -742.339 3844
-1306.15 -747.553 3871
-1299.91 -749.291 3880
-1293.63 -751.029 3889
-1284.33 -751.029 3889
-1275.03 -751.029 3889
-1277.45 -757.981 3925
-1268.06 -757.981 3925
-1258.67 -757.981 3925
-1249.29 -757.981 3925
-1225.69 -749.291 3880
-1216.41 -749.291 3880
-1207.13 -749.291 3880
-1197.85 -749.291 3880
-190.194 -392.798 2034
-185.33 -392.798 2034
-180.466 -392.798 2034
-175.257 -392.026 2030
-170.403 -392.026 2030
-165.548 -392.026 2030
-161.011 -392.798 2034
-157.145 -395.309 2047
-152.399 -395.695 2049
-147.499 -395.695 2049
-143.156 -397.24 2057
-138.573 -398.206 2062
-133.836 -398.785 2065
-128.898 -398.785 2065
-124.08 -399.171 2067
-119.138 -399.171 2067
-114.361 -399.751 2070
-109.411 -399.751 2070
-104.561 -400.137 2072
-99.6067 -400.137 2072
-95.0174 -401.682 2080
-90.0434 -401.682 2080
-85.1922 -402.261 2083
-80.4037 -403.227 2088
-75.4106 -403.227 2088
-70.4176 -403.227 2088
-65.7379 -405.158 2098
-60.7209 -405.158 2098
-55.7836 -405.737 2101
-50.8803 -406.703 2106
-45.8442 -406.703 2106
-40.8081 -406.703 2106
-35.823 -407.282 2109
-30.8235 -407.861 2112
-25.7731 -407.861 2112
-20.7227 -407.861 2112
-15.6871 -408.248 2114
-10.6319 -408.248 2114
-5.57666 -408.248 2114
-0.521442 -408.248 2114
4.53377 -408.248 2114
9.58899 -408.248 2114
14.6442 -408.248 2114
19.6808 -407.861 2112
24.7312 -407.861 2112
29.7816 -407.861 2112
34.7826 -407.282 2109
39.8259 -407.282 2109
44.8691 -407.282 2109
49.9124 -407.282 2109
54.9556 -407.282 2109
60.0842 -407.861 2112
65.1964 -408.248 2114
70.3513 -408.827 2117
75.4137 -408.827 2117
80.5901 -409.406 2120
85.6596 -409.406 2120
90.9432 -410.372 2125
96.0247 -410.372 2125
101.249 -410.951 2128
106.488 -411.531 2131
111.845 -412.496 2136
117.117 -413.076 2139
122.232 -413.076 2139
127.526 -413.655 2142
132.648 -413.655 2142
137.899 -414.041 2144
143.026 -414.041 2144
148.567 -415.2 2150
153.923 -415.779 2153
159.219 -416.165 2155
164.373 -416.165 2155
170.234 -417.903 2164
175.409 -417.903 2164
180.834 -418.483 2167
186.016 -418.483 2167
191.374 -418.869 2169
197.377 -420.607 2178
202.864 -421.186 2181
208.079 -421.186 2181
213.295 -421.186 2181
219.312 -422.731 2189
224.854 -423.311 2192
230.096 -423.311 2192
235.66 -423.89 2195
241.567 -425.049 2201
250.419 -431.228 2233
255.759 -431.228 2233
262.151 -432.966 2242
268.944 -435.284 2254
274.699 -435.863 2257
280.096 -435.863 2257
287.138 -438.374 2270
292.566 -438.374 2270
477.185 -701.977 3635
490.154 -708.157 3667
498.923 -708.157 3667
507.692 -708.157 3667
516.461 -708.157 3667
525.23 -708.157 3667
532.688 -706.419 3658
550.021 -717.62 3716
567.63 -728.82 3774
576.655 -728.82 3774
585.68 -728.82 3774
589.347 -722.255 3740
598.29 -722.255 3740
612.754 -728.82 3774
621.779 -728.82 3774
635.149 -733.841 3800
644.236 -733.841 3800
653.323 -733.841 3800
662.41 -733.841 3800
668.493 -730.559 3783
675.927 -728.82 3774
684.952 -728.82 3774
693.977 -728.82 3774
699.835 -725.538 3757
696.367 -712.792 3691
719.523 -727.276 3766
735.106 -733.841 3800
744.193 -733.841 3800
762.002 -742.339 3844
776.611 -747.553 3871
785.868 -747.553 3871
795.124 -747.553 3871
804.381 -747.553 3871
815.529 -749.291 3880
824.808 -749.291 3880
834.086 -749.291 3880
843.364 -749.291 3880
846.709 -744.077 3853
855.923 -744.077 3853
843.581 -725.538 3757
854.608 -727.276 3766
863.613 -727.276 3766
872.619 -727.276 3766
881.625 -727.276 3766
888.502 -725.538 3757
909.908 -735.58 3809
923.118 -738.863 3826
932.267 -738.863 3826
954.703 -749.291 3880
963.982 -749.291 3880
973.26 -749.291 3880
982.538 -749.291 3880
975.968 -737.318 3818
978.389 -732.297 3792
978.343 -725.538 3757
987.327 -725.538 3757
991.803 -722.255 3740
991.916 -715.882 3707
996.461 -712.792 3691
1005.29 -712.792 3691
1014.11 -712.792 3691
1013.79 -706.419 3658
1068.9 -708.157 3667
1077.67 -708.157 3667
1086.44 -708.157 3667
1092.52 -706.419 3658
1091.94 -700.432 3627
1100.61 -700.432 3627
1288.62 -694.253 3595
1300.11 -695.798 3603
1322.89 -703.329 3642
1331.6 -703.329 3642
1340.31 -703.329 3642
1349.02 -703.329 3642
1357.73 -703.329 3642
1366.43 -703.329 3642
1375.14 -703.329 3642
1383.85 -703.329 3642
1392.56 -703.329 3642
1401.27 -703.329 3642
1407.27 -701.977 3635
1421.81 -704.874 3650
1437.2 -708.157 3667
1445.97 -708.157 3667
1454.73 -708.157 3667
1463.5 -708.157 3667
1472.27 -708.157 3667
1484.27 -709.702 3675
1493.06 -709.702 3675
1505.12 -711.247 3683
1513.92 -711.247 3683
1522.73 -711.247 3683
1531.54 -711.247 3683
1540.35 -711.247 3683
1549.15 -711.247 3683
1557.96 -711.247 3683
1566.77 -711.247 3683
-2922.6 -774.135 4059
-2912.89 -774.135 4059
-2903.18 -774.135 4059
-2872.81 -768.604 4030
-2863.17 -768.604 4030
-2839.37 -764.79 4010
-2810.02 -759.45 3982
-2793.47 -757.543 3972
-2783.97 -757.543 3972
-2768.18 -755.826 3963
-2751.75 -753.919 3953
-2742.29 -753.919 3953
-2732.84 -753.919 3953
-2717.19 -752.202 3944
-2688.53 -746.862 3916
-2666.85 -743.429 3898
-2663.67 -745.146 3907
-2654.32 -745.146 3907
-2657.17 -748.579 3925
-2654.53 -750.486 3935
-2645.12 -750.486 3935
-2635.71 -750.486 3935
-2619.62 -748.579 3925
-2610.24 -748.579 3925
-2626.03 -755.826 3963
-2616.56 -755.826 3963
-2613 -757.543 3972
-2603.5 -757.543 3972
-2594 -757.543 3972
-1333.81 -733.13 3844
-1330.82 -736.563 3862
-1321.59 -736.563 3862
-1312.35 -736.563 3862
-1306.15 -738.28 3871
-1299.91 -739.996 3880
-1290.63 -739.996 3880
-1281.36 -739.996 3880
-1272.08 -739.996 3880
-190.194 -387.926 2034
-185.33 -387.926 2034
-180.466 -387.926 2034
-175.257 -387.163 2030
-170.403 -387.163 2030
-165.548 -387.163 2030
-161.011 -387.926 2034
-157.145 -390.405 2047
-152.399 -390.787 2049
-147.499 -390.787 2049
-143.156 -392.312 2057
-138.573 -393.266 2062
-133.836 -393.838 2065
-128.898 -393.838 2065
-124.261 -394.792 2070
-119.311 -394.792 2070
-114.471 -395.173 2072
-109.516 -395.173 2072
-104.561 -395.173 2072
-99.7509 -395.745 2075
-95.0174 -396.699 2080
-90.0434 -396.699 2080
-85.1922 -397.271 2083
-80.4037 -398.225 2088
-75.5912 -399.178 2093
-70.5862 -399.178 2093
-65.7379 -400.132 2098
-60.8078 -400.704 2101
-55.7836 -400.704 2101
-50.8803 -401.658 2106
-45.8442 -401.658 2106
-40.8663 -402.23 2109
-35.874 -402.802 2112
-30.8235 -402.802 2112
-25.7731 -402.802 2112
-20.7423 -403.184 2114
-15.6871 -403.184 2114
-10.6319 -403.184 2114
-5.57666 -403.184 2114
-0.521442 -403.184 2114
4.53377 -403.184 2114
9.58899 -403.184 2114
14.6442 -403.184 2114
19.6994 -403.184 2114
24.7546 -403.184 2114
29.8098 -403.184 2114
34.8321 -402.802 2112
39.8259 -402.23 2109
44.8691 -402.23 2109
49.9834 -402.802 2112
55.0338 -402.802 2112
60.0842 -402.802 2112
65.1964 -403.184 2114
70.3513 -403.756 2117
75.4137 -403.756 2117
80.5901 -404.328 2120
85.6596 -404.328 2120
90.9432 -405.281 2125
96.0247 -405.281 2125
101.249 -405.854 2128
106.588 -406.807 2133
111.845 -407.379 2136
117.117 -407.952 2139
122.232 -407.952 2139
127.526 -408.524 2142
132.648 -408.524 2142
137.899 -408.905 2144
143.026 -408.905 2144
148.567 -410.049 2150
153.923 -410.622 2153
159.219 -411.003 2155
164.373 -411.003 2155
170.234 -412.72 2164
175.409 -412.72 2164
180.834 -413.292 2167
186.016 -413.292 2167
191.374 -413.673 2169
197.377 -415.39 2178
202.864 -415.962 2181
208.079 -415.962 2181
213.295 -415.962 2181
219.312 -417.488 2189
224.854 -418.06 2192
230.096 -418.06 2192
235.66 -418.632 2195
241.567 -419.776 2201
250.419 -425.879 2233
255.759 -425.879 2233
262.151 -427.596 2242
268.944 -429.884 2254
274.699 -430.457 2257
280.096 -430.457 2257
287.138 -432.936 2270
467.461 -691.744 3627
477.185 -693.27 3635
490.154 -699.373 3667
498.923 -699.373 3667
507.692 -699.373 3667
516.461 -699.373 3667
525.23 -699.373 3667
532.688 -697.656 3658
550.021 -708.718 3716
567.63 -719.78 3774
576.655 -719.78 3774
585.68 -719.78 3774
589.347 -713.295 3740
598.29 -713.295 3740
612.754 -719.78 3774
621.779 -719.78 3774
635.149 -724.739 3800
644.236 -724.739 3800
653.323 -724.739 3800
662.41 -724.739 3800
668.493 -721.496 3783
675.927 -719.78 3774
684.952 -719.78 3774
693.977 -719.78 3774
699.835 -716.538 3757
696.367 -703.95 3691
719.523 -718.254 3766
735.106 -724.739 3800
744.193 -724.739 3800
762.002 -733.13 3844
776.611 -738.28 3871
785.868 -738.28 3871
795.124 -738.28 3871
808.121 -741.713 3889
817.421 -741.713 3889
826.721 -741.713 3889
834.086 -739.996 3880
843.364 -739.996 3880
846.709 -734.847 3853
855.923 -734.847 3853
843.581 -716.538 3757
854.608 -718.254 3766
863.613 -718.254 3766
872.619 -718.254 3766
881.625 -718.254 3766
888.502 -716.538 3757
909.908 -726.455 3809
923.118 -729.697 3826
932.267 -729.697 3826
954.703 -739.996 3880
963.982 -739.996 3880
973.26 -739.996 3880
982.538 -739.996 3880
975.968 -728.172 3818
978.389 -723.213 3792
978.343 -716.538 3757
987.327 -716.538 3757
991.803 -713.295 3740
991.916 -707.002 3707
996.461 -703.95 3691
1005.29 -703.95 3691
1014.11 -703.95 3691
1020.72 -702.424 3683
1029.53 -702.424 3683
1040.59 -703.95 3691
1049.42 -703.95 3691
1058.25 -703.95 3691
1067.07 -703.95 3691
1075.9 -703.95 3691
1080.02 -700.898 3675
1086.44 -699.373 3667
1092.52 -697.656 3658
1091.94 -691.744 3627
1100.61 -691.744 3627
1104.39 -688.692 3611
1288.62 -685.641 3595
1300.11 -687.167 3603
1322.89 -694.605 3642
1331.6 -694.605 3642
1340.31 -694.605 3642
1349.02 -694.605 3642
1357.73 -694.605 3642
1366.43 -694.605 3642
1375.14 -694.605 3642
1383.85 -694.605 3642
1392.56 -694.605 3642
1401.27 -694.605 3642
1407.27 -693.27 3635
1421.81 -696.13 3650
1437.2 -699.373 3667
1445.97 -699.373 3667
1454.73 -699.373 3667
1463.5 -699.373 3667
1472.27 -699.373 3667
1484.27 -700.898 3675
1493.06 -700.898 3675
1505.12 -702.424 3683
1513.92 -702.424 3683
1522.73 -702.424 3683
1531.54 -702.424 3683
1540.35 -702.424 3683
1549.15 -702.424 3683
1557.96 -702.424 3683
1566.77 -702.424 3683
-2932.3 -764.412 4059
-2922.6 -764.412 4059
-2912.89 -764.412 4059
-2903.18 -764.412 4059
-2872.81 -758.95 4030
-2863.17 -758.95 4030
-2839.37 -755.184 4010
-2810.02 -749.911 3982
-2793.47 -748.028 3972
-2783.97 -748.028 3972
-2768.18 -746.333 3963
-2751.75 -744.449 3953
-2742.29 -744.449 3953
-2732.84 -744.449 3953
-2717.19 -742.754 3944
-2688.53 -737.481 3916
-2679.17 -737.481 3916
-2675.94 -739.176 3925
-2666.55 -739.176 3925
-2663.94 -741.06 3935
-2654.53 -741.06 3935
-2645.12 -741.06 3935
-2635.71 -741.06 3935
-2626.3 -741.06 3935
-2628.86 -744.449 3953
-2632 -748.028 3972
-2622.5 -748.028 3972
-2613 -748.028 3972
-2603.5 -748.028 3972
-2594 -748.028 3972
-1333.81 -723.922 3844
-1330.82 -727.312 3862
-1321.59 -727.312 3862
-1312.35 -727.312 3862
-1306.15 -729.007 3871
-1299.91 -730.702 3880
-1290.63 -730.702 3880
-1281.36 -730.702 3880
-1272.08 -730.702 3880
-190.194 -383.053 2034
-185.33 -383.053 2034
-180.466 -383.053 2034
-175.43 -382.677 2032
-170.571 -382.677 2032
-165.712 -382.677 2032
-161.011 -383.053 2034
-157.145 -385.502 2047
-152.399 -385.878 2049
-147.499 -385.878 2049
-143.365 -387.95 2060
-138.775 -388.891 2065
-133.966 -389.268 2067
-129.023 -389.268 2067
-124.261 -389.833 2070
-119.311 -389.833 2070
-114.471 -390.21 2072
-109.516 -390.21 2072
-104.713 -390.775 2075
-99.8951 -391.34 2078
-95.1544 -392.281 2083
-90.1733 -392.281 2083
-85.3967 -393.223 2088
-80.5192 -393.788 2091
-75.5912 -394.165 2093
-70.5862 -394.165 2093
-65.7379 -395.106 2098
-60.8078 -395.671 2101
-55.8633 -396.236 2104
-50.8803 -396.613 2106
-45.8442 -396.613 2106
-40.9244 -397.743 2112
-35.874 -397.743 2112
-30.8527 -398.119 2114
-25.7975 -398.119 2114
-20.7717 -398.684 2117
-15.7093 -398.684 2117
-10.647 -398.684 2117
-5.58457 -398.684 2117
-0.522182 -398.684 2117
4.54021 -398.684 2117
9.6026 -398.684 2117
14.6442 -398.119 2114
19.6994 -398.119 2114
24.7546 -398.119 2114
29.8098 -398.119 2114
34.8321 -397.743 2112
39.8259 -397.178 2109
44.8691 -397.178 2109
49.9834 -397.743 2112
55.0338 -397.743 2112
60.0842 -397.743 2112
65.1964 -398.119 2114
70.3513 -398.684 2117
75.4137 -398.684 2117
80.5901 -399.249 2120
85.6596 -399.249 2120
90.9432 -400.191 2125
96.0247 -400.191 2125
101.249 -400.756 2128
106.588 -401.698 2133
111.845 -402.263 2136
117.117 -402.828 2139
122.232 -402.828 2139
127.526 -403.393 2142
132.648 -403.393 2142
137.899 -403.769 2144
143.026 -403.769 2144
148.567 -404.899 2150
153.923 -405.464 2153
159.219 -405.841 2155
164.373 -405.841 2155
170.234 -407.536 2164
175.409 -407.536 2164
180.584 -407.536 2164
185.758 -407.536 2164
191.374 -408.477 2169
197.105 -409.607 2175
202.585 -410.172 2178
207.793 -410.172 2178
213.295 -410.737 2181
219.011 -411.679 2186
224.546 -412.244 2189
229.781 -412.244 2189
235.66 -413.374 2195
241.238 -413.939 2198
250.082 -419.965 2230
255.415 -419.965 2230
261.8 -421.66 2239
267.87 -422.79 2245
273.969 -423.92 2251
279.352 -423.92 2251
286.758 -426.933 2267
467.461 -683.055 3627
477.185 -684.562 3635
490.154 -690.588 3667
498.923 -690.588 3667
507.692 -690.588 3667
516.461 -690.588 3667
525.23 -690.588 3667
532.688 -688.893 3658
548.688 -698.121 3707
558.907 -699.816 3716
567.793 -699.816 3716
576.679 -699.816 3716
585.565 -699.816 3716
597.01 -702.83 3732
611.455 -709.233 3766
620.461 -709.233 3766
635.149 -715.636 3800
644.236 -715.636 3800
653.323 -715.636 3800
662.41 -715.636 3800
668.493 -712.434 3783
675.927 -710.739 3774
684.952 -710.739 3774
693.977 -710.739 3774
699.835 -707.538 3757
696.367 -695.108 3691
719.523 -709.233 3766
735.106 -715.636 3800
744.193 -715.636 3800
758.434 -720.532 3826
773 -725.617 3853
782.213 -725.617 3853
791.427 -725.617 3853
808.121 -732.397 3889
817.421 -732.397 3889
826.721 -732.397 3889
834.086 -730.702 3880
841.408 -729.007 3871
842.754 -722.227 3835
851.924 -722.227 3835
841.785 -706.031 3749
852.565 -707.538 3757
861.549 -707.538 3757
870.534 -707.538 3757
879.518 -707.538 3757
888.502 -707.538 3757
909.908 -717.331 3809
923.118 -720.532 3826
932.267 -720.532 3826
954.703 -730.702 3880
963.982 -730.702 3880
973.26 -730.702 3880
982.538 -730.702 3880
971.367 -715.636 3800
976.067 -712.434 3783
978.343 -707.538 3757
987.327 -707.538 3757
991.803 -704.336 3740
991.916 -698.121 3707
996.461 -695.108 3691
1005.29 -695.108 3691
1014.11 -695.108 3691
1020.72 -693.602 3683
1029.53 -693.602 3683
1040.59 -695.108 3691
1049.42 -695.108 3691
1058.25 -695.108 3691
1067.07 -695.108 3691
1075.9 -695.108 3691
1080.02 -692.095 3675
1086.44 -690.588 3667
1092.52 -688.893 3658
1091.94 -683.055 3627
1100.61 -683.055 3627
1104.39 -680.042 3611
1288.62 -677.029 3595
1300.11 -678.536 3603
1320.35 -684.562 3635
1329.04 -684.562 3635
1340.31 -685.88 3642
1349.02 -685.88 3642
1357.73 -685.88 3642
1366.43 -685.88 3642
1375.14 -685.88 3642
1383.85 -685.88 3642
1392.56 -685.88 3642
1398.58 -684.562 3635
1407.27 -684.562 3635
1415.96 -684.562 3635
1433.67 -688.893 3658
1442.42 -688.893 3658
1451.16 -688.893 3658
1459.91 -688.893 3658
1468.66 -688.893 3658
1481.04 -690.588 3667
1489.81 -690.588 3667
1501.85 -692.095 3675
1510.64 -692.095 3675
1519.42 -692.095 3675
1528.21 -692.095 3675
1537 -692.095 3675
1549.15 -693.602 3683
1557.96 -693.602 3683
1566.77 -693.602 3683
-2932.3 -754.688 4059
-2922.6 -754.688 4059
-2912.89 -754.688 4059
-2896.03 -752.829 4049
-2865.68 -747.437 4020
-2856.06 -747.437 4020
-2833 -743.905 4001
-2802.97 -738.513 3972
-2793.47 -738.513 3972
-2783.97 -738.513 3972
-2761.2 -734.98 3953
-2751.75 -734.98 3953
-2742.29 -734.98 3953
-2732.84 -734.98 3953
-2717.19 -733.307 3944
-2688.53 -728.101 3916
-2679.17 -728.101 3916
-2675.94 -729.774 3925
-2666.55 -729.774 3925
-2663.94 -731.633 3935
-2654.53 -731.633 3935
-2645.12 -731.633 3935
-2635.71 -731.633 3935
-2626.3 -731.633 3935
-2628.86 -734.98 3953
-2632 -738.513 3972
-2622.5 -738.513 3972
-2613 -738.513 3972
-2603.5 -738.513 3972
-2594 -738.513 3972
-1333.81 -714.714 3844
-1330.82 -718.06 3862
-1321.59 -718.06 3862
-1312.35 -718.06 3862
-1306.15 -719.734 3871
-1296.9 -719.734 3871
-1287.64 -719.734 3871
-1278.38 -719.734 3871
-179.224 -375.578 2020
-175.43 -377.809 2032
-170.571 -377.809 2032
-165.712 -377.809 2032
-160.852 -377.809 2032
-157.145 -380.598 2047
-152.399 -380.97 2049
-147.499 -380.97 2049
-143.365 -383.015 2060
-138.775 -383.945 2065
-133.966 -384.317 2067
-129.023 -384.317 2067
-124.261 -384.874 2070
-119.311 -384.874 2070
-114.471 -385.246 2072
-109.516 -385.246 2072
-104.713 -385.804 2075
-99.8951 -386.362 2078
-95.1544 -387.291 2083
-90.1733 -387.291 2083
-85.3967 -388.221 2088
-80.5192 -388.779 2091
-75.5912 -389.151 2093
-70.5862 -389.151 2093
-65.7379 -390.08 2098
-60.8078 -390.638 2101
-55.8633 -391.196 2104
-50.8803 -391.568 2106
-45.8442 -391.568 2106
-40.9244 -392.683 2112
-35.874 -392.683 2112
-30.8527 -393.055 2114
-25.7975 -393.055 2114
-20.7717 -393.613 2117
-15.7093 -393.613 2117
-10.647 -393.613 2117
-5.58457 -393.613 2117
-0.522182 -393.613 2117
4.54021 -393.613 2117
9.6026 -393.613 2117
14.665 -393.613 2117
19.6994 -393.055 2114
24.7546 -393.055 2114
29.8098 -393.055 2114
34.8321 -392.683 2112
39.8825 -392.683 2112
44.9329 -392.683 2112
49.9834 -392.683 2112
55.0338 -392.683 2112
60.1411 -393.055 2114
65.1964 -393.055 2114
70.3513 -393.613 2117
75.4137 -393.613 2117
80.5901 -394.171 2120
85.7405 -394.543 2122
91.0716 -395.658 2128
96.1603 -395.658 2128
101.249 -395.658 2128
106.588 -396.588 2133
111.845 -397.146 2136
117.117 -397.704 2139
122.232 -397.704 2139
127.526 -398.261 2142
132.772 -398.633 2144
137.899 -398.633 2144
143.026 -398.633 2144
148.567 -399.749 2150
153.923 -400.307 2153
159.219 -400.678 2155
164.373 -400.678 2155
169.998 -401.794 2161
175.409 -402.352 2164
180.584 -402.352 2164
185.758 -402.352 2164
191.374 -403.281 2169
196.561 -403.281 2169
202.306 -404.397 2175
207.507 -404.397 2175
213.001 -404.955 2178
218.51 -405.513 2181
224.239 -406.442 2186
229.466 -406.442 2186
235.015 -407 2189
240.908 -408.116 2195
248.737 -412.392 2218
254.041 -412.392 2218
261.8 -416.297 2239
267.87 -417.412 2245
273.969 -418.528 2251
279.352 -418.528 2251
284.734 -418.528 2251
467.461 -674.367 3627
477.185 -675.854 3635
490.154 -681.804 3667
498.923 -681.804 3667
507.692 -681.804 3667
516.461 -681.804 3667
525.23 -681.804 3667
532.688 -680.131 3658
546.32 -686.266 3691
557.553 -689.241 3707
566.417 -689.241 3707
575.282 -689.241 3707
581.625 -686.266 3691
589.172 -684.779 3683
607.234 -695.377 3740
616.177 -695.377 3740
629.466 -700.211 3766
641.354 -703.372 3783
650.4 -703.372 3783
659.447 -703.372 3783
666.903 -701.699 3774
672.883 -698.538 3757
681.867 -698.538 3757
689.38 -697.05 3749
698.345 -697.05 3749
696.367 -686.266 3691
706.722 -687.754 3699
728.529 -700.211 3766
737.534 -700.211 3766
760.218 -713.04 3835
774.805 -718.06 3862
789.522 -723.08 3889
798.822 -723.08 3889
817.68 -731.633 3935
827.09 -731.633 3935
836.5 -731.633 3935
837.955 -724.754 3898
843.364 -721.407 3880
844.731 -714.714 3844
853.924 -714.714 3844
843.581 -698.538 3757
852.565 -698.538 3757
861.549 -698.538 3757
870.534 -698.538 3757
879.518 -698.538 3757
888.502 -698.538 3757
907.758 -706.533 3800
923.118 -711.367 3826
932.267 -711.367 3826
943.631 -713.04 3835
952.801 -713.04 3835
961.972 -713.04 3835
971.143 -713.04 3835
967.021 -703.372 3783
969.359 -698.538 3757
976.26 -697.05 3749
985.225 -697.05 3749
991.803 -695.377 3740
991.916 -689.241 3707
996.461 -686.266 3691
1005.29 -686.266 3691
1014.11 -686.266 3691
1022.94 -686.266 3691
1031.77 -686.266 3691
1047.64 -690.915 3716
1056.53 -690.915 3716
1065.41 -690.915 3716
1074.3 -690.915 3716
1083.19 -690.915 3716
1092.07 -690.915 3716
1088.81 -683.292 3675
1092.52 -680.131 3658
1091.94 -674.367 3627
1100.61 -674.367 3627
1104.39 -671.392 3611
1110.56 -669.905 3603
1266.12 -665.628 3580
1274.69 -665.628 3580
1288.62 -668.417 3595
1297.22 -668.417 3595
1317.44 -674.367 3627
1326.11 -674.367 3627
1337.73 -675.854 3635
1346.42 -675.854 3635
1355.12 -675.854 3635
1363.81 -675.854 3635
1372.5 -675.854 3635
1381.19 -675.854 3635
1389.89 -675.854 3635
1395.5 -674.367 3627
1404.17 -674.367 3627
1415.96 -675.854 3635
1433.67 -680.131 3658
1442.42 -680.131 3658
1451.16 -680.131 3658
1453.53 -677.156 3642
1465.45 -678.643 3650
1481.04 -681.804 3667
1489.81 -681.804 3667
1501.85 -683.292 3675
1510.64 -683.292 3675
1519.42 -683.292 3675
1528.21 -683.292 3675
1537 -683.292 3675
1549.15 -684.779 3683
1557.96 -684.779 3683
1566.77 -684.779 3683
1561.46 -678.643 3650
-2942.01 -744.965 4059
-2932.3 -744.965 4059
-2922.6 -744.965 4059
-2912.89 -744.965 4059
-2888.88 -741.294 4039
-2858.55 -735.972 4010
-2848.96 -735.972 4010
-2819.54 -730.833 3982
-2802.97 -728.998 3972
-2787.14 -727.346 3963
-2777.66 -727.346 3963
-2761.2 -725.51 3953
-2745.48 -723.859 3944
-2736.05 -723.859 3944
-2726.62 -723.859 3944
-2717.19 -723.859 3944
-2688.53 -718.72 3916
-2679.17 -718.72 3916
-2682.76 -722.207 3935
-2673.35 -722.207 3935
-2663.94 -722.207 3935
-2660.6 -723.859 3944
-2651.17 -723.859 3944
-2641.74 -723.859 3944
-2632.31 -723.859 3944
-2641.49 -728.998 3972
-2663.8 -737.807 4020
-2654.19 -737.807 4020
-2644.58 -737.807 4020
-2634.96 -737.807 4020
-2625.35 -737.807 4020
-1333.81 -705.505 3844
-1330.82 -708.809 3862
-1321.59 -708.809 3862
-1312.35 -708.809 3862
-1306.15 -710.461 3871
-1296.9 -710.461 3871
-1287.64 -710.461 3871
-1278.38 -710.461 3871
-181.176 -374.777 2042
-176.293 -374.777 2042
-171.41 -374.777 2042
-166.527 -374.777 2042
-161.644 -374.777 2042
-156.915 -375.144 2044
-152.622 -376.612 2052
-147.715 -376.612 2052
-143.365 -378.08 2060
-138.775 -378.998 2065
-134.161 -379.916 2070
-129.211 -379.916 2070
-124.261 -379.916 2070
-119.311 -379.916 2070
-114.637 -380.833 2075
-109.675 -380.833 2075
-104.713 -380.833 2075
-99.8951 -381.384 2078
-95.1544 -382.302 2083
-90.1733 -382.302 2083
-85.3967 -383.219 2088
-80.5962 -384.137 2093
-75.5912 -384.137 2093
-70.5862 -384.137 2093
-65.8319 -385.605 2101
-60.8078 -385.605 2101
-55.9164 -386.523 2106
-51.0253 -387.624 2112
-45.9748 -387.624 2112
-40.9244 -387.624 2112
-35.9079 -387.991 2114
-30.8965 -388.542 2117
-25.8341 -388.542 2117
-20.7717 -388.542 2117
-15.7316 -389.092 2120
-10.662 -389.092 2120
-5.59248 -389.092 2120
-0.522922 -389.092 2120
4.54664 -389.092 2120
9.6162 -389.092 2120
14.665 -388.542 2117
19.7274 -388.542 2117
24.7546 -387.991 2114
29.8098 -387.991 2114
34.8651 -387.991 2114
39.9203 -387.991 2114
44.9329 -387.624 2112
50.0307 -387.991 2114
55.0859 -387.991 2114
60.1411 -387.991 2114
65.2889 -388.542 2117
70.451 -389.092 2120
75.5205 -389.092 2120
80.6661 -389.459 2122
85.8617 -390.01 2125
91.0716 -390.561 2128
96.1603 -390.561 2128
101.392 -391.111 2131
106.588 -391.478 2133
111.845 -392.029 2136
117.117 -392.58 2139
122.232 -392.58 2139
127.526 -393.13 2142
132.772 -393.497 2144
138.092 -394.048 2147
143.226 -394.048 2147
148.567 -394.598 2150
153.923 -395.149 2153
159.441 -396.067 2158
164.602 -396.067 2158
169.998 -396.617 2161
175.409 -397.168 2164
180.584 -397.168 2164
185.758 -397.168 2164
191.198 -397.719 2167
196.561 -398.086 2169
201.748 -398.086 2169
206.934 -398.086 2169
212.708 -399.187 2175
218.21 -399.737 2178
223.726 -400.288 2181
228.941 -400.288 2181
234.693 -401.206 2186
240.25 -401.756 2189
248.4 -406.528 2215
253.697 -406.528 2215
260.748 -409.281 2230
267.87 -412.034 2245
273.969 -413.135 2251
279.352 -413.135 2251
284.734 -413.135 2251
468.492 -667.147 3635
477.185 -667.147 3635
485.877 -667.147 3635
494.569 -667.147 3635
506.446 -671.368 3658
515.194 -671.368 3658
523.941 -671.368 3658
531.523 -669.9 3650
541.436 -671.368 3658
555.146 -677.425 3691
563.973 -677.425 3691
572.799 -677.425 3691
579.104 -674.488 3675
587.892 -674.488 3675
604.636 -683.481 3724
613.541 -683.481 3724
627.962 -689.538 3757
636.946 -689.538 3757
645.93 -689.538 3757
654.914 -689.538 3757
660.895 -686.418 3740
669.838 -686.418 3740
678.781 -686.418 3740
687.725 -686.418 3740
693.688 -683.481 3724
696.367 -677.425 3691
706.722 -678.893 3699
728.529 -691.19 3766
737.534 -691.19 3766
763.786 -707.157 3853
774.805 -708.809 3862
796.83 -720.372 3925
806.216 -720.372 3925
821.42 -725.51 3953
830.873 -725.51 3953
840.326 -725.51 3953
843.76 -720.372 3925
845.32 -713.764 3889
844.731 -705.505 3844
853.924 -705.505 3844
847.398 -692.658 3774
854.608 -691.19 3766
863.613 -691.19 3766
872.619 -691.19 3766
881.625 -691.19 3766
888.502 -689.538 3757
907.758 -697.43 3800
923.118 -702.202 3826
932.267 -702.202 3826
943.631 -703.853 3835
952.801 -703.853 3835
961.972 -703.853 3835
971.143 -703.853 3835
962.675 -691.19 3766
969.359 -689.538 3757
973.916 -686.418 3740
982.86 -686.418 3740
991.803 -686.418 3740
991.916 -680.361 3707
1000.78 -680.361 3707
1009.65 -680.361 3707
1018.51 -680.361 3707
1029.87 -682.013 3716
1038.76 -682.013 3716
1049.9 -683.481 3724
1058.8 -683.481 3724
1067.71 -683.481 3724
1076.61 -683.481 3724
1085.52 -683.481 3724
1094.42 -683.481 3724
1093.55 -677.425 3691
1095.21 -673.02 3667
1094.34 -667.147 3635
1103.04 -667.147 3635
1111.73 -667.147 3635
1120.42 -667.147 3635
1129.11 -667.147 3635
1137.81 -667.147 3635
1141.45 -664.21 3619
1212.05 -655.584 3572
1233.91 -662.742 3611
1242.55 -662.742 3611
1251.18 -662.742 3611
1257.03 -661.274 3603
1260.37 -658.521 3588
1268.95 -658.521 3588
1274.69 -657.052 3580
1283.25 -657.052 3580
1297.22 -659.805 3595
1308.72 -661.274 3603
1317.34 -661.274 3603
1331.84 -664.21 3619
1343.46 -665.678 3627
1352.13 -665.678 3627
1360.81 -665.678 3627
1369.48 -665.678 3627
1378.15 -665.678 3627
1386.83 -665.678 3627
1392.42 -664.21 3619
1404.17 -665.678 3627
1415.96 -667.147 3635
1427.4 -668.431 3642
1436.11 -668.431 3642
1444.82 -668.431 3642
1450.73 -667.147 3635
1459.42 -667.147 3635
1474.18 -669.9 3650
1482.9 -669.9 3650
1494.9 -671.368 3658
1503.65 -671.368 3658
1512.4 -671.368 3658
1521.14 -671.368 3658
1533.65 -673.02 3667
1542.42 -673.02 3667
1551.19 -673.02 3667
1559.96 -673.02 3667
1561.46 -669.9 3650
-2942.01 -735.242 4059
-2932.3 -735.242 4059
-2922.6 -735.242 4059
-2905.71 -733.43 4049
-2868.14 -726.366 4010
-2838.59 -721.294 3982
-2829.07 -721.294 3982
-2812.46 -719.483 3972
-2796.61 -717.852 3963
-2767.45 -712.781 3935
-2758.04 -712.781 3935
-2748.63 -712.781 3935
-2745.48 -714.411 3944
-2736.05 -714.411 3944
-2726.62 -714.411 3944
-2704.1 -710.969 3925
-2688.53 -709.339 3916
-2679.17 -709.339 3916
-2682.76 -712.781 3935
-2673.35 -712.781 3935
-2670.03 -714.411 3944
-2660.6 -714.411 3944
-2657.22 -716.041 3953
-2647.76 -716.041 3953
-2644.99 -717.852 3963
-2673.42 -728.177 4020
-2683.02 -733.43 4049
-2673.34 -733.43 4049
-2663.66 -733.43 4049
-2653.97 -733.43 4049
-2644.29 -733.43 4049
-1333.81 -696.297 3844
-1324.62 -696.297 3844
-1321.59 -699.557 3862
-1312.35 -699.557 3862
-1306.15 -701.188 3871
-1296.9 -701.188 3871
-1287.64 -701.188 3871
-1278.38 -701.188 3871
-191.597 -371.153 2049
-186.697 -371.153 2049
-181.797 -371.153 2049
-176.897 -371.153 2049
-171.998 -371.153 2049
-167.098 -371.153 2049
-161.802 -370.247 2044
-157.298 -371.153 2049
-152.994 -372.602 2057
-148.075 -372.602 2057
-143.365 -373.146 2060
-138.775 -374.051 2065
-134.161 -374.957 2070
-129.211 -374.957 2070
-124.381 -375.319 2072
-119.426 -375.319 2072
-114.637 -375.863 2075
-109.675 -375.863 2075
-104.713 -375.863 2075
-99.8951 -376.406 2078
-95.1544 -377.312 2083
-90.1733 -377.312 2083
-85.3967 -378.217 2088
-80.5962 -379.123 2093
-75.6996 -379.667 2096
-70.6874 -379.667 2096
-65.8319 -380.572 2101
-60.8078 -380.572 2101
-55.9164 -381.478 2106
-51.0253 -382.565 2112
-45.9748 -382.565 2112
-40.9632 -382.927 2114
-35.9589 -383.471 2117
-30.8965 -383.471 2117
-25.8341 -383.471 2117
-20.8012 -384.014 2120
-15.7316 -384.014 2120
-10.662 -384.014 2120
-5.59248 -384.014 2120
-0.522922 -384.014 2120
4.54664 -384.014 2120
9.6162 -384.014 2120
14.6858 -384.014 2120
19.7274 -383.471 2117
24.7898 -383.471 2117
29.8521 -383.471 2117
34.8651 -382.927 2114
39.9203 -382.927 2114
44.9755 -382.927 2114
50.0307 -382.927 2114
55.0859 -382.927 2114
60.2265 -383.471 2117
65.3814 -384.014 2120
70.5174 -384.376 2122
75.5918 -384.376 2122
80.6661 -384.376 2122
85.8617 -384.92 2125
91.2 -386.006 2131
96.2958 -386.006 2131
101.487 -386.369 2133
106.588 -386.369 2133
112.002 -387.456 2139
117.282 -387.999 2142
122.404 -387.999 2142
127.526 -387.999 2142
132.772 -388.361 2144
138.092 -388.905 2147
143.226 -388.905 2147
148.775 -389.991 2153
154.066 -390.354 2155
159.441 -390.897 2158
164.602 -390.897 2158
170.234 -391.984 2164
175.409 -391.984 2164
180.834 -392.527 2167
186.016 -392.527 2167
191.198 -392.527 2167
196.561 -392.89 2169
202.027 -393.433 2172
207.221 -393.433 2172
212.708 -393.977 2175
218.21 -394.52 2178
224.239 -395.969 2186
229.466 -395.969 2186
235.015 -396.512 2189
240.908 -397.599 2195
248.4 -401.222 2215
253.697 -401.222 2215
260.748 -403.939 2230
267.87 -406.656 2245
274.699 -408.83 2257
280.096 -408.83 2257
285.493 -408.83 2257
468.492 -658.439 3635
477.185 -658.439 3635
485.877 -658.439 3635
494.569 -658.439 3635
506.446 -662.605 3658
515.194 -662.605 3658
523.941 -662.605 3658
531.523 -661.156 3650
541.436 -662.605 3658
555.146 -668.583 3691
563.973 -668.583 3691
572.799 -668.583 3691
579.104 -665.685 3675
587.892 -665.685 3675
604.636 -674.56 3724
613.541 -674.56 3724
627.962 -680.538 3757
636.946 -680.538 3757
645.93 -680.538 3757
