ply
format ascii 1.0
comment File generated
element vertex 2261
property float x
property float y
property float z
end_header
71.4479 599.418 2150
76.5892 599.418 2150
82.2627 603.321 2164
87.5587 604.158 2167
92.8262 604.715 2169
98.013 604.715 2169
103.771 608.061 2181
109.386 610.291 2189
114.935 611.964 2195
120.184 611.964 2195
125.947 614.473 2204
132.051 618.376 2218
137.355 618.376 2218
142.658 618.376 2218
148.163 619.213 2221
154.096 621.722 2230
159.643 622.558 2233
164.982 622.558 2233
170.322 622.558 2233
175.662 622.558 2233
181.002 622.558 2233
185.59 620.049 2224
190.394 618.376 2218
194.992 616.146 2210
200.548 616.982 2213
206.305 618.376 2218
211.609 618.376 2218
217.207 619.213 2221
223.119 620.885 2227
228.444 620.885 2227
233.77 620.885 2227
239.095 620.885 2227
244.421 620.885 2227
249.746 620.885 2227
254.384 619.213 2221
258.409 616.146 2210
262.978 614.473 2204
268.248 614.473 2204
513.186 894.387 3208
520.857 894.387 3208
528.528 894.387 3208
536.2 894.387 3208
543.871 894.387 3208
551.542 894.387 3208
562.526 899.685 3227
570.242 899.685 3227
577.959 899.685 3227
671.751 881.005 3160
679.307 881.005 3160
686.864 881.005 3160
694.42 881.005 3160
700.644 879.332 3154
708.186 879.332 3154
714.367 877.659 3148
719.143 874.314 3136
721.081 867.623 3112
728.522 867.623 3112
733.363 864.556 3101
739.345 862.883 3095
748.194 864.556 3101
758.289 867.623 3112
765.731 867.623 3112
773.173 867.623 3112
780.615 867.623 3112
788.056 867.623 3112
795.498 867.623 3112
802.94 867.623 3112
807.517 864.556 3101
816.509 866.229 3107
825.265 867.623 3112
832.707 867.623 3112
841.768 869.295 3118
852.493 872.641 3130
863.275 875.987 3142
870.788 875.987 3142
881.656 879.332 3154
895.964 886.023 3178
910.388 892.715 3202
918.044 892.715 3202
931.194 898.012 3221
944.144 903.03 3239
955.71 906.655 3252
963.486 906.655 3252
976.937 911.952 3271
986.867 913.903 3278
994.705 913.903 3278
1002.54 913.903 3278
1010.38 913.903 3278
1025.99 920.873 3303
1036.08 922.825 3310
1043.99 922.825 3310
1056.04 926.449 3323
1068.47 930.352 3337
1082.9 935.928 3357
1095.15 939.553 3370
1103.21 939.553 3370
1111.27 939.553 3370
1117 937.601 3363
1125.04 937.601 3363
1133.09 937.601 3363
1134.34 932.025 3343
1142.34 932.025 3343
1150.33 932.025 3343
1149.31 924.776 3317
1157.25 924.776 3317
1167.29 926.449 3323
1177.71 928.401 3330
1185.67 928.401 3330
1200.8 933.977 3350
1216.03 939.553 3370
1229.18 943.456 3384
1237.27 943.456 3384
1245.36 943.456 3384
1253.45 943.456 3384
1261.54 943.456 3384
1264.38 939.553 3370
1272.44 939.553 3370
1296.46 951.262 3412
1304.62 951.262 3412
1312.78 951.262 3412
1320.94 951.262 3412
1326.37 949.311 3405
1337.26 951.262 3412
1348.17 953.214 3419
1356.35 953.214 3419
1364.53 953.214 3419
1369.89 951.262 3412
1378.05 951.262 3412
1377.68 945.408 3391
1377.2 939.553 3370
1379.92 935.928 3357
1387.95 935.928 3357
1393.06 933.977 3350
1389.78 926.449 3323
1397.73 926.449 3323
1405.68 926.449 3323
1413.62 926.449 3323
1421.57 926.449 3323
1426.93 924.776 3317
1428.81 920.873 3303
1436.71 920.873 3303
1438.92 917.249 3290
1441.51 913.903 3278
1446.25 911.952 3271
1454.08 911.952 3271
1461.9 911.952 3271
1469.72 911.952 3271
1477.54 911.952 3271
1485.36 911.952 3271
1487.25 908.327 3258
1495.04 908.327 3258
1502.83 908.327 3258
1510.62 908.327 3258
1518.42 908.327 3258
1523.4 906.655 3252
1531.17 906.655 3252
1536.11 904.982 3246
1543.87 904.982 3246
1548.29 903.03 3239
1550.27 899.685 3227
1551.71 896.06 3214
1559.39 896.06 3214
1567.08 896.06 3214
1568.89 892.715 3202
1573.59 891.042 3196
1581.23 891.042 3196
1582.91 887.696 3184
1581.53 882.678 3166
1580.07 877.659 3148
1587.59 877.659 3148
1574.35 866.229 3107
1578.72 864.556 3101
1571.3 856.471 3072
1561.69 847.27 3039
1568.96 847.27 3039
1559.11 838.07 3006
1546.5 827.476 2968
1539.99 820.227 2942
1547.02 820.227 2942
1540.85 813.257 2917
1531.38 804.614 2886
1527.62 799.038 2866
1526.98 795.135 2852
1533.8 795.135 2852
1532.51 790.953 2837
1534.41 788.444 2828
1541.18 788.444 2828
1547.94 788.444 2828
1551.95 787.05 2823
1555.94 785.656 2818
1562.68 785.656 2818
1572.2 787.05 2823
1578.96 787.05 2823
1585.71 787.05 2823
1592.46 787.05 2823
1599.21 787.05 2823
1605.96 787.05 2823
1604.71 783.147 2809
1611.43 783.147 2809
1609.5 778.965 2794
1616.19 778.965 2794
1604.28 770.043 2762
1610.88 770.043 2762
2086.13 977.191 3505
2094.51 977.191 3505
2102.9 977.191 3505
2111.28 977.191 3505
2119.66 977.191 3505
2118.93 973.009 3490
2127.28 973.009 3490
2135.62 973.009 3490
2143.97 973.009 3490
2148 971.057 3483
2147.04 966.875 3468
2160.31 969.106 3476
2177.35 973.009 3490
2185.7 973.009 3490
2194.04 973.009 3490
2206.81 974.96 3497
2224.67 979.142 3512
2233.07 979.142 3512
2241.47 979.142 3512
2249.87 979.142 3512
2235.12 969.106 3476
2243.43 969.106 3476
2251.74 969.106 3476
2260.05 969.106 3476
2235.74 955.166 3426
2243.93 955.166 3426
2247.52 953.214 3419
2275.55 951.262 3412
2283.71 951.262 3412
2291.87 951.262 3412
2300.03 951.262 3412
2308.19 951.262 3412
2287.84 939.553 3370
2295.9 939.553 3370
2295.07 935.928 3357
2303.09 935.928 3357
2283.58 924.776 3317
2281.84 920.873 3303
2285.58 919.201 3297
2280.25 913.903 3278
2288.09 913.903 3278
2295.93 913.903 3278
2294.63 910.279 3265
2293.27 906.655 3252
2301.05 906.655 3252
2299.59 903.03 3239
2312.33 904.982 3246
2320.09 904.982 3246
2327.85 904.982 3246
2330.58 903.03 3239
2325.33 898.012 3221
2310.57 889.369 3190
2309.48 886.023 3178
2317.08 886.023 3178
2320.29 884.351 3172
2327.88 884.351 3172
2335.46 884.351 3172
2343.05 884.351 3172
2346.19 882.678 3166
2353.76 882.678 3166
2370.28 886.023 3178
2377.88 886.023 3178
2385.48 886.023 3178
2393.08 886.023 3178
-2533.68 951.562 3384
-2525.59 951.562 3384
-2517.5 951.562 3384
-2464.17 934.41 3323
-2456.23 934.41 3323
-2415.13 921.756 3278
-2402.15 919.787 3271
-2389.93 918.1 3265
-2391.61 921.756 3278
-2383.77 921.756 3278
-2375.93 921.756 3278
-2368.09 921.756 3278
-2360.25 921.756 3278
-2352.42 921.756 3278
-2325.98 914.445 3252
-2345.29 925.13 3290
-2346.66 928.786 3303
-2357.88 936.378 3330
-2349.92 936.378 3330
-2356.02 942.002 3350
-2348.01 942.002 3350
-2340 942.002 3350
-2331.99 942.002 3350
-2314.96 938.346 3337
-2320.81 943.97 3357
-2312.78 943.97 3357
-2304.75 943.97 3357
-2296.72 943.97 3357
-2292.79 945.657 3363
-2318.03 959.436 3412
-2309.87 959.436 3412
-2320.6 967.309 3440
-2312.38 967.309 3440
-2304.15 967.309 3440
-2295.93 967.309 3440
-2287.7 967.309 3440
-2293.39 973.214 3461
-2285.11 973.214 3461
-2276.84 973.214 3461
-2273.15 975.183 3468
-2264.86 975.183 3468
-2256.56 975.183 3468
-2028.58 969.278 3447
-2020.34 969.278 3447
-2012.1 969.278 3447
-1939.91 938.346 3337
-1931.93 938.346 3337
-1938.94 945.657 3363
-1934.92 947.626 3370
-1926.86 947.626 3370
-1918.8 947.626 3370
-1910.74 947.626 3370
-1902.68 947.626 3370
-1887.32 943.97 3357
-1879.29 943.97 3357
-1867.36 942.002 3350
-1859.35 942.002 3350
-1847.47 940.033 3343
-1825.17 932.722 3317
-1806.28 927.098 3297
-1798.39 927.098 3297
-1790.51 927.098 3297
-1782.63 927.098 3297
-1774.74 927.098 3297
-1763.11 925.13 3290
-1755.24 925.13 3290
-1747.37 925.13 3290
-1739.5 925.13 3290
-1728.48 923.443 3284
-1720.63 923.443 3284
-1699.21 916.132 3258
-1685.19 912.758 3246
-1670.71 909.102 3233
-1662.98 909.102 3233
-1652.18 907.415 3227
-1644.46 907.415 3227
-1639.79 909.102 3233
-1632.06 909.102 3233
-1624.32 909.102 3233
-1616.59 909.102 3233
-1611.85 910.789 3239
-1604.1 910.789 3239
-1596.36 910.789 3239
-1585.67 909.102 3233
-1575.01 907.415 3227
-1567.29 907.415 3227
-1547.49 900.385 3202
-1545.61 903.759 3214
-1553.23 912.758 3246
-1545.47 912.758 3246
-1537.71 912.758 3246
-1529.95 912.758 3246
-1522.19 912.758 3246
-1526.09 919.787 3271
-1518.27 919.787 3271
-1519.22 925.13 3290
-1514.57 927.098 3297
-1506.68 927.098 3297
-1498.8 927.098 3297
-1485.03 923.443 3284
-1474.48 921.756 3278
-1466.64 921.756 3278
-1444.56 912.758 3246
-1428.39 907.415 3227
-1414.95 903.759 3214
-1407.27 903.759 3214
-1399.58 903.759 3214
-1408.35 914.445 3252
-1414.36 923.443 3284
-1412.07 927.098 3297
-1404.19 927.098 3297
-1404.77 932.722 3317
-1413.69 943.97 3357
-1414.03 949.594 3377
-1405.96 949.594 3377
-1400.78 951.562 3384
-1392.69 951.562 3384
-1384.6 951.562 3384
-1367.96 945.657 3363
-1354.66 942.002 3350
-1351.88 945.657 3363
-1357.82 955.499 3398
-1349.7 955.499 3398
-1347.1 959.436 3412
-1338.94 959.436 3412
-1330.78 959.436 3412
-1322.62 959.436 3412
-1314.46 959.436 3412
-1306.3 959.436 3412
-1298.14 959.436 3412
-1289.98 959.436 3412
-1281.82 959.436 3412
-1268.44 955.499 3398
-1260.31 955.499 3398
-1252.19 955.499 3398
-1209.28 928.786 3303
-1196.65 925.13 3290
-1179.75 918.1 3265
-1171.95 918.1 3265
-1161.64 916.132 3258
-1147.12 910.789 3239
-1126.36 900.385 3202
-1118.7 900.385 3202
-1108.97 898.698 3196
-1088.92 888.575 3160
-1083.41 890.262 3166
-1081.96 895.323 3184
-1074.35 895.323 3184
-1076.78 903.759 3214
-1071.43 905.728 3221
-1075.94 916.132 3258
-1068.15 916.132 3258
-1060.36 916.132 3258
-560.711 914.445 3252
-552.935 914.445 3252
-552.702 927.098 3297
-552.419 940.033 3343
-544.425 940.033 3343
-536.431 940.033 3343
-531.598 945.657 3363
-524.646 947.626 3370
-524.099 961.404 3419
-515.923 961.404 3419
-507.747 961.404 3419
-498.548 959.436 3412
-493.407 965.341 3433
-485.198 965.341 3433
-478.934 969.278 3447
-478.611 985.587 3505
-470.23 985.587 3505
-461.848 985.587 3505
-451.526 981.369 3490
-438.609 971.246 3454
-430.349 971.246 3454
-420.379 967.309 3440
-411.314 965.341 3433
-400.639 959.436 3412
-392.48 959.436 3412
-250.192 1010.89 3595
-241.595 1010.89 3595
-232.999 1010.89 3595
-222.966 1004.43 3572
-213.524 1000.21 3557
-203.692 993.742 3534
-195.242 993.742 3534
-186.791 993.742 3534
-178.34 993.742 3534
-170.61 997.959 3549
-162.123 997.959 3549
-153.637 997.959 3549
-145.15 997.959 3549
-136.086 993.742 3534
-127.635 993.742 3534
-57.0846 604.568 2150
-51.9433 604.568 2150
-46.9109 605.974 2155
-41.7576 605.974 2155
-36.6044 605.974 2155
-31.4511 605.974 2155
-26.1392 602.319 2142
-21.017 602.319 2142
-15.8949 602.319 2142
-10.7576 601.475 2139
-5.63469 600.632 2136
-0.526129 599.788 2133
4.57452 599.788 2133
9.67517 599.788 2133
14.7758 599.788 2133
19.8578 599.226 2131
24.9537 599.226 2131
30.0496 599.226 2131
35.1454 599.226 2131
40.2413 599.226 2131
45.3372 599.226 2131
50.4804 599.788 2133
55.581 599.788 2133
60.8524 601.475 2139
66.1216 602.881 2144
71.4479 604.568 2150
76.5892 604.568 2150
82.2627 608.505 2164
87.5587 609.349 2167
92.8262 609.911 2169
98.013 609.911 2169
103.771 613.285 2181
109.386 615.535 2189
114.935 617.222 2195
120.184 617.222 2195
125.947 619.753 2204
131.574 621.44 2210
137.355 623.69 2218
142.658 623.69 2218
148.163 624.533 2221
154.096 627.064 2230
159.428 627.064 2230
164.761 627.064 2230
170.093 627.064 2230
175.426 627.064 2230
180.759 627.064 2230
185.59 625.377 2224
190.136 622.846 2215
194.727 620.596 2207
200.548 622.284 2213
206.305 623.69 2218
211.609 623.69 2218
217.207 624.533 2221
223.419 627.064 2230
228.752 627.064 2230
234.085 627.064 2230
240.383 629.595 2239
245.738 629.595 2239
251.092 629.595 2239
255.071 626.22 2227
258.409 621.44 2210
262.978 619.753 2204
268.248 619.753 2204
492.158 905.728 3221
499.861 905.728 3221
507.563 905.728 3221
515.265 905.728 3221
521.831 903.759 3214
529.517 903.759 3214
536.2 902.072 3208
544.888 903.759 3214
552.574 903.759 3214
562.526 907.415 3227
570.242 907.415 3227
577.959 907.415 3227
585.676 907.415 3227
593.393 907.415 3227
671.751 888.575 3160
679.307 888.575 3160
686.864 888.575 3160
694.42 888.575 3160
700.644 886.888 3154
708.186 886.888 3154
714.367 885.201 3148
719.143 881.826 3136
721.081 875.077 3112
728.522 875.077 3112
733.363 871.984 3101
739.345 870.297 3095
746.746 870.297 3095
757.071 873.672 3107
765.731 875.077 3112
773.173 875.077 3112
780.615 875.077 3112
788.056 875.077 3112
795.498 875.077 3112
802.94 875.077 3112
807.517 871.984 3101
814.932 871.984 3101
823.939 873.672 3107
831.369 873.672 3107
840.148 875.077 3112
849.224 876.765 3118
858.329 878.452 3124
865.799 878.452 3124
876.624 881.826 3136
889.198 886.888 3154
905.27 895.323 3184
912.884 895.323 3184
925.701 900.385 3202
938.897 905.728 3221
951.889 910.789 3239
959.634 910.789 3239
971.263 914.445 3252
982.953 918.1 3265
992.581 919.787 3271
1000.4 919.787 3271
1010.38 921.756 3278
1024.12 927.098 3297
1036.08 930.754 3310
1043.99 930.754 3310
1056.04 934.41 3323
1066.23 936.378 3330
1082.9 943.97 3357
1095.15 947.626 3370
1103.21 947.626 3370
1111.27 947.626 3370
1115.01 943.97 3357
1123.04 943.97 3357
1131.06 943.97 3357
1134.34 940.033 3343
1133.45 932.722 3317
1141.38 932.722 3317
1142.39 927.098 3297
1150.27 927.098 3297
1158.15 927.098 3297
1173.11 932.722 3317
1181.04 932.722 3317
1191.13 934.41 3323
1206.29 940.033 3343
1214.28 940.033 3343
1222.28 940.033 3343
1237.63 945.657 3363
1245.67 945.657 3363
1253.72 945.657 3363
1254.25 940.033 3343
1262.25 940.033 3343
1288.48 953.531 3391
1301.94 957.467 3405
1310.08 957.467 3405
1318.23 957.467 3405
1323.64 955.499 3398
1337.26 959.436 3412
1348.17 961.404 3419
1356.35 961.404 3419
1364.53 961.404 3419
1369.89 959.436 3412
1378.05 959.436 3412
1377.68 953.531 3391
1377.2 947.626 3370
1379.92 943.97 3357
1387.95 943.97 3357
1393.06 942.002 3350
1389.78 934.41 3323
1397.73 934.41 3323
1405.68 934.41 3323
1413.62 934.41 3323
1421.57 934.41 3323
1426.93 932.722 3317
1426.21 927.098 3297
1434.1 927.098 3297
1438.92 925.13 3290
1441.51 921.756 3278
1446.25 919.787 3271
1454.08 919.787 3271
1461.9 919.787 3271
1469.72 919.787 3271
1477.54 919.787 3271
1485.36 919.787 3271
1487.25 916.132 3258
1495.04 916.132 3258
1502.83 916.132 3258
1510.62 916.132 3258
1518.42 916.132 3258
1523.4 914.445 3252
1531.17 914.445 3252
1536.11 912.758 3246
1543.87 912.758 3246
1548.29 910.789 3239
1550.27 907.415 3227
1551.71 903.759 3214
1559.39 903.759 3214
1567.08 903.759 3214
1568.89 900.385 3202
1573.59 898.698 3196
1581.23 898.698 3196
1582.91 895.323 3184
1581.53 890.262 3166
1580.07 885.201 3148
1587.59 885.201 3148
1574.35 873.672 3107
1578.72 871.984 3101
1571.3 863.83 3072
1561.69 854.55 3039
1568.96 854.55 3039
1559.11 845.271 3006
1546.5 834.585 2968
1539.99 827.274 2942
1547.02 827.274 2942
1540.85 820.245 2917
1531.38 811.528 2886
1527.62 805.904 2866
1526.98 801.967 2852
1533.8 801.967 2852
1532.51 797.749 2837
1534.41 795.218 2828
1541.18 795.218 2828
1547.94 795.218 2828
1551.95 793.812 2823
1555.94 792.406 2818
1562.68 792.406 2818
1572.2 793.812 2823
1578.96 793.812 2823
1585.71 793.812 2823
1592.46 793.812 2823
1599.21 793.812 2823
1605.96 793.812 2823
1604.71 789.876 2809
1611.43 789.876 2809
1609.5 785.658 2794
1616.19 785.658 2794
2102.24 981.369 3490
2110.59 981.369 3490
2118.93 981.369 3490
2123.01 979.401 3483
2127.06 977.432 3476
2135.37 977.432 3476
2130.11 971.246 3454
2138.37 971.246 3454
2146.63 971.246 3454
2168.62 977.432 3476
2176.93 977.432 3476
2185.24 977.432 3476
2206.81 983.337 3497
2224.67 987.555 3512
2233.07 987.555 3512
2241.47 987.555 3512
2249.87 987.555 3512
2235.12 977.432 3476
2243.43 977.432 3476
2251.74 977.432 3476
2260.05 977.432 3476
2235.74 963.373 3426
2243.93 963.373 3426
2247.52 961.404 3419
2099.93 888.575 3160
2275.55 959.436 3412
2283.71 959.436 3412
2291.87 959.436 3412
2300.03 959.436 3412
2308.19 959.436 3412
2287.84 947.626 3370
2295.9 947.626 3370
2295.07 943.97 3357
2303.09 943.97 3357
2283.58 932.722 3317
2281.84 928.786 3303
2285.58 927.098 3297
2280.25 921.756 3278
2288.09 921.756 3278
2295.93 921.756 3278
2294.63 918.1 3265
2293.27 914.445 3252
2301.05 914.445 3252
2299.59 910.789 3239
2312.33 912.758 3246
2320.09 912.758 3246
2327.85 912.758 3246
2330.58 910.789 3239
2325.33 905.728 3221
2310.57 897.011 3190
2309.48 893.636 3178
2317.08 893.636 3178
2320.29 891.949 3172
2327.88 891.949 3172
2335.46 891.949 3172
2343.05 891.949 3172
2346.19 890.262 3166
2353.76 890.262 3166
2370.28 893.636 3178
2377.88 893.636 3178
2385.48 893.636 3178
2393.08 893.636 3178
-2374.32 925.922 3265
-2366.51 925.922 3265
-2363.04 927.623 3271
-2355.21 927.623 3271
-2347.39 927.623 3271
-2325.98 922.235 3252
-2345.29 933.011 3290
-2346.66 936.698 3303
-2357.88 944.355 3330
-2349.92 944.355 3330
-2356.02 950.027 3350
-2348.01 950.027 3350
-2340 950.027 3350
-2331.99 950.027 3350
-2305.25 942.37 3323
-2302.14 944.355 3330
-2294.18 944.355 3330
-2286.21 944.355 3330
-2296.72 952.012 3357
-2288.7 952.012 3357
-2284.74 953.713 3363
-2276.7 953.713 3363
-2292.27 963.639 3398
-2298.26 969.594 3419
-2290.09 969.594 3419
-2281.91 969.594 3419
-2250.46 959.669 3384
-2260.92 967.609 3412
-2252.76 967.609 3412
-2244.6 967.609 3412
-2236.44 967.609 3412
-1951.39 948.042 3343
-1943.4 948.042 3343
-1935.4 948.042 3343
-1912.42 940.668 3317
-1904.49 940.668 3317
-1896.55 940.668 3317
-1896.02 944.355 3330
-1899.4 950.027 3350
-1895.34 952.012 3357
-1887.32 952.012 3357
-1879.29 952.012 3357
-1867.36 950.027 3350
-1859.35 950.027 3350
-1847.47 948.042 3343
-1825.17 940.668 3317
-1806.28 934.996 3297
-1798.39 934.996 3297
-1790.51 934.996 3297
-1782.63 934.996 3297
-1774.74 934.996 3297
-1763.11 933.011 3290
-1755.24 933.011 3290
-1747.37 933.011 3290
-1739.5 933.011 3290
-1728.48 931.31 3284
-1720.63 931.31 3284
-1699.21 923.936 3258
-1685.19 920.533 3246
-1670.71 916.847 3233
-1662.98 916.847 3233
-1652.18 915.145 3227
-1644.46 915.145 3227
-1639.79 916.847 3233
-1632.06 916.847 3233
-1624.32 916.847 3233
-1616.59 916.847 3233
-1611.85 918.548 3239
-1604.1 918.548 3239
-1596.36 918.548 3239
-1585.67 916.847 3233
-1575.01 915.145 3227
-1567.29 915.145 3227
-1547.49 908.055 3202
-1545.61 911.458 3214
-1553.23 920.533 3246
-1545.47 920.533 3246
-1537.71 920.533 3246
-1529.95 920.533 3246
-1522.19 920.533 3246
-1526.09 927.623 3271
-1518.27 927.623 3271
-1519.22 933.011 3290
-1514.57 934.996 3297
-1506.68 934.996 3297
-1498.8 934.996 3297
-1485.03 931.31 3284
-1474.48 929.608 3278
-1466.64 929.608 3278
-1444.56 920.533 3246
-1428.39 915.145 3227
-1414.95 911.458 3214
-1410.33 913.444 3221
-1402.63 913.444 3221
-1408.35 922.235 3252
-1414.36 931.31 3284
-1412.07 934.996 3297
-1404.19 934.996 3297
-1404.77 940.668 3317
-1413.69 952.012 3357
-1414.03 957.684 3377
-1405.96 957.684 3377
-1400.78 959.669 3384
-1392.69 959.669 3384
-1384.6 959.669 3384
-1367.96 953.713 3363
-1354.66 950.027 3350
-1351.88 953.713 3363
-1357.82 963.639 3398
-1349.7 963.639 3398
-1347.1 967.609 3412
-1338.94 967.609 3412
-1330.78 967.609 3412
-1322.62 967.609 3412
-1314.46 967.609 3412
-1306.3 967.609 3412
-1298.14 967.609 3412
-1289.98 967.609 3412
-1281.82 967.609 3412
-1268.44 963.639 3398
-1260.31 963.639 3398
-1252.19 963.639 3398
-1209.28 936.698 3303
-1196.65 933.011 3290
-1179.75 925.922 3265
-1171.95 925.922 3265
-1161.64 923.936 3258
-1147.12 918.548 3239
-1126.36 908.055 3202
-1118.7 908.055 3202
-1108.97 906.354 3196
-1088.92 896.145 3160
-1083.41 897.846 3166
-1081.96 902.951 3184
-1074.35 902.951 3184
-1076.78 911.458 3214
-1071.43 913.444 3221
-1075.94 923.936 3258
-1068.15 923.936 3258
-1060.36 923.936 3258
-558.47 918.548 3239
-550.725 918.548 3239
-548.344 927.623 3271
-544.818 934.996 3297
-544.425 948.042 3343
-536.431 948.042 3343
-528.437 948.042 3343
-520.443 948.042 3343
-516.588 955.699 3370
-508.529 955.699 3370
-500.47 955.699 3370
-493.434 957.684 3377
-485.359 957.684 3377
-477.283 957.684 3377
-476.989 973.565 3433
-476.563 989.729 3490
-468.217 989.729 3490
-459.871 989.729 3490
-444.151 973.565 3433
-435.942 973.565 3433
-427.733 973.565 3433
-417.812 969.594 3419
-408.798 967.609 3412
-400.639 967.609 3412
-392.48 967.609 3412
-237.025 1000.22 3527
-228.591 1000.22 3527
-220.157 1000.22 3527
-211.723 1000.22 3527
-202.886 998.237 3520
-194.468 998.237 3520
-186.051 998.237 3520
-177.633 998.237 3520
-169.889 1002.21 3534
-161.438 1002.21 3534
-152.987 1002.21 3534
-144.25 1000.22 3527
-135.546 998.237 3520
-127.129 998.237 3520
-62.0523 608.017 2144
-56.9253 608.017 2144
-51.7984 608.017 2144
-46.9109 611.137 2155
-41.7576 611.137 2155
-36.6044 611.137 2155
-31.4511 611.137 2155
-26.1392 607.45 2142
-21.017 607.45 2142
-15.8949 607.45 2142
-10.7425 605.748 2136
-5.63469 605.748 2136
-0.526129 604.898 2133
4.57452 604.898 2133
9.67517 604.898 2133
14.7758 604.898 2133
19.8765 604.898 2133
24.9771 604.898 2133
30.0778 604.898 2133
35.1784 604.898 2133
40.2791 604.898 2133
45.3372 604.33 2131
50.4804 604.898 2133
55.581 604.898 2133
60.8524 606.599 2139
66.1216 608.017 2144
71.4479 609.719 2150
76.5892 609.719 2150
82.2627 613.689 2164
87.5587 614.54 2167
92.8262 615.107 2169
98.013 615.107 2169
103.771 618.51 2181
109.386 620.779 2189
114.778 621.629 2192
120.019 621.629 2192
125.775 624.182 2201
131.574 626.734 2210
137.169 628.152 2215
142.466 628.152 2215
147.962 629.003 2218
153.888 631.555 2227
159.428 632.406 2230
164.761 632.406 2230
170.093 632.406 2230
175.426 632.406 2230
180.759 632.406 2230
185.34 629.854 2221
190.136 628.152 2215
194.992 626.734 2210
200.277 626.734 2210
206.305 629.003 2218
211.609 629.003 2218
217.793 631.555 2227
223.419 632.406 2230
229.983 635.809 2242
235.344 635.809 2242
240.706 635.809 2242
246.067 635.809 2242
251.428 635.809 2242
255.071 631.555 2227
492.158 913.444 3221
499.861 913.444 3221
507.563 913.444 3221
515.265 913.444 3221
521.831 911.458 3214
529.517 911.458 3214
536.2 909.757 3208
544.888 911.458 3214
552.574 911.458 3214
562.526 915.145 3227
570.242 915.145 3227
577.959 915.145 3227
585.676 915.145 3227
593.393 915.145 3227
611.766 908.055 3202
619.423 908.055 3202
627.08 908.055 3202
634.737 908.055 3202
637.579 901.249 3178
641.525 896.145 3160
649.081 896.145 3160
656.638 896.145 3160
664.194 896.145 3160
673.026 897.846 3166
680.597 897.846 3166
688.168 897.846 3166
695.739 897.846 3166
700.644 894.443 3154
708.186 894.443 3154
715.728 894.443 3154
720.519 891.04 3142
722.471 884.234 3118
729.927 884.234 3118
734.782 881.114 3107
740.778 879.413 3101
748.194 879.413 3101
757.071 881.114 3107
764.501 881.114 3107
771.931 881.114 3107
782.12 884.234 3118
789.576 884.234 3118
797.032 884.234 3118
802.94 882.532 3112
807.517 879.413 3101
813.356 877.711 3095
823.939 881.114 3107
831.369 881.114 3107
838.799 881.114 3107
847.59 882.532 3112
856.68 884.234 3118
864.137 884.234 3118
874.947 887.637 3130
884.123 889.338 3136
900.152 897.846 3166
907.723 897.846 3166
922.232 904.652 3190
935.107 909.757 3208
948.362 915.145 3227
956.079 915.145 3227
969.471 920.533 3246
979.039 922.235 3252
986.816 922.235 3252
994.592 922.235 3252
1008.23 927.623 3271
1020.09 931.31 3284
1036.08 938.683 3310
1043.99 938.683 3310
1056.04 942.37 3323
1066.23 944.355 3330
1082.9 952.012 3357
1095.15 955.699 3370
1103.21 955.699 3370
1111.27 955.699 3370
1117 953.713 3363
1125.04 953.713 3363
1128.71 950.027 3350
1134.34 948.042 3343
1126.62 934.996 3297
1134.5 934.996 3297
1139.96 933.011 3290
1145.73 931.31 3284
1149.02 927.623 3271
1161.44 931.31 3284
1169.29 931.31 3284
1181.81 934.996 3297
1191.85 936.698 3303
1207.02 942.37 3323
1214.96 942.37 3323
1225.49 944.355 3330
1233.45 944.355 3330
1241.41 944.355 3330
1244.5 940.668 3317
1252.43 940.668 3317
1275.56 952.012 3357
1296.59 961.654 3391
1304.7 961.654 3391
1312.81 961.654 3391
1329.1 967.609 3412
1340 969.594 3419
1348.17 969.594 3419
1356.35 969.594 3419
1364.53 969.594 3419
1372.7 969.594 3419
1380.88 969.594 3419
1386.21 967.609 3412
1385.79 961.654 3391
1391.02 959.669 3384
1399.11 959.669 3384
1401.38 955.699 3370
1398.15 948.042 3343
1406.14 948.042 3343
1414.14 948.042 3343
1422.13 948.042 3343
1421.57 942.37 3323
1426.93 940.668 3317
1426.21 934.996 3297
1434.1 934.996 3297
1438.92 933.011 3290
1441.51 929.608 3278
1446.25 927.623 3271
1454.08 927.623 3271
1461.9 927.623 3271
1469.72 927.623 3271
1474.83 925.922 3265
1482.64 925.922 3265
1487.25 923.936 3258
1492.29 922.235 3252
1500.07 922.235 3252
1507.84 922.235 3252
1515.62 922.235 3252
1523.4 922.235 3252
1528.35 920.533 3246
1532.8 918.548 3239
1540.54 918.548 3239
1545.42 916.847 3233
1550.27 915.145 3227
1555.09 913.444 3221
1562.79 913.444 3221
1567.08 911.458 3214
1574.77 911.458 3214
1576.54 908.055 3202
1584.2 908.055 3202
1585.89 904.652 3190
1587.52 901.249 3178
1583.08 894.443 3154
1590.62 894.443 3154
1595.12 892.742 3148
1581.78 881.114 3107
1586.14 879.413 3101
1578.65 871.189 3072
1586 871.189 3072
1576.23 861.83 3039
1566.3 852.472 3006
1559.35 844.815 2979
1566.48 844.815 2979
1554.06 834.322 2942
1544.64 825.531 2911
1535.61 817.023 2881
1534.47 812.769 2866
1541.32 812.769 2866
1535.21 805.963 2842
1539.3 804.545 2837
1546.08 804.545 2837
1552.87 804.545 2837
1556.9 803.127 2832
1563.67 803.127 2832
1568.23 801.993 2828
1577.22 803.127 2832
1583.99 803.127 2832
1590.76 803.127 2832
1597.53 803.127 2832
1602.04 801.993 2828
1608.8 801.993 2828
1612.71 800.575 2823
1611.43 796.604 2809
2102.12 985.759 3476
2110.43 985.759 3476
2118.75 985.759 3476
2105.03 975.55 3440
2113.25 975.55 3440
2108.53 969.594 3419
2116.71 969.594 3419
2137.93 975.55 3440
2146.16 975.55 3440
2154.39 975.55 3440
2162.61 975.55 3440
2206.81 991.714 3497
2224.67 995.968 3512
2233.07 995.968 3512
2241.47 995.968 3512
2249.87 995.968 3512
2099.93 896.145 3160
2119.49 901.249 3178
2127.09 901.249 3178
2209.92 933.011 3290
2226.55 936.698 3303
2234.45 936.698 3303
2242.35 936.698 3303
2250.25 936.698 3303
2254.05 934.996 3297
2261.93 934.996 3297
2269.82 934.996 3297
2259.74 927.623 3271
2263.4 925.922 3265
2266.34 923.936 3258
2274.13 923.936 3258
2281.92 923.936 3258
2281.28 920.533 3246
2279.87 916.847 3233
2287.6 916.847 3233
2286.81 913.444 3221
2303.07 916.847 3233
2310.8 916.847 3233
2318.53 916.847 3233
2317.62 913.444 3221
2315.94 909.757 3208
2301.88 901.249 3178
2305.12 899.548 3172
2312.71 899.548 3172
2307.13 894.443 3154
2323.47 897.846 3166
2331.05 897.846 3166
2338.62 897.846 3166
2346.19 897.846 3166
2353.76 897.846 3166
2343.43 891.04 3142
2350.94 891.04 3142
2358.46 891.04 3142
2365.97 891.04 3142
-2333.76 930.025 3252
-2325.98 930.025 3252
-2345.29 940.893 3290
-2346.66 944.61 3303
-2357.88 952.332 3330
-2349.92 952.332 3330
-2356.02 958.052 3350
-2348.01 958.052 3350
-2340 958.052 3350
-2331.99 958.052 3350
-2305.25 950.33 3323
-2297.3 950.33 3323
-2289.35 950.33 3323
-2281.41 950.33 3323
-2273.46 950.33 3323
-2265.52 950.33 3323
-2271.16 956.05 3343
-2263.16 956.05 3343
-2282.83 967.775 3384
-2274.73 967.775 3384
-2266.64 967.775 3384
-2258.55 967.775 3384
-2250.46 967.775 3384
-2233.09 963.771 3370
-2225.03 963.771 3370
-1951.39 956.05 3343
-1943.4 956.05 3343
-1935.4 956.05 3343
-1904.35 944.61 3303
-1896.45 944.61 3303
-1888.55 944.61 3303
-1880.65 944.61 3303
-1888.06 952.332 3330
-1880.1 952.332 3330
-1872.14 952.332 3330
-1871.45 956.05 3343
-1863.46 956.05 3343
-1855.46 956.05 3343
-1836.42 950.33 3323
-1817.46 944.61 3303
-1802.44 940.893 3290
-1794.58 940.893 3290
-1786.71 940.893 3290
-1778.84 940.893 3290
-1770.97 940.893 3290
-1763.11 940.893 3290
-1755.24 940.893 3290
-1744.18 939.177 3284
-1736.33 939.177 3284
-1728.48 939.177 3284
-1720.63 939.177 3284
-1699.21 931.741 3258
-1685.19 928.309 3246
-1670.71 924.591 3233
-1662.98 924.591 3233
-1645.52 919.158 3214
-1633.7 921.16 3221
-1626 921.16 3221
-1618.3 921.16 3221
-1607.09 919.158 3214
-1602.89 921.16 3221
-1595.19 921.16 3221
-1587.49 921.16 3221
-1579.78 921.16 3221
-1539.38 901.999 3154
-1531.84 901.999 3154
-1506.9 891.703 3118
-1528.3 908.862 3178
-1537.92 919.158 3214
-1530.24 919.158 3214
-1522.55 919.158 3214
-1523.82 924.591 3233
-1516.09 924.591 3233
-1517.22 930.025 3252
-1509.45 930.025 3252
-1510.44 935.459 3271
-1505.84 937.461 3278
-1498 937.461 3278
-1490.16 937.461 3278
-1482.32 937.461 3278
-1454.24 924.591 3233
-1446.51 924.591 3233
-1436.11 922.875 3227
-1428.39 922.875 3227
-1414.95 919.158 3214
-1410.33 921.16 3221
-1402.63 921.16 3221
-1400.12 924.591 3233
-1397.99 928.309 3246
-1409.07 940.893 3290
-1401.21 940.893 3290
-1396.3 942.894 3297
-1399.37 950.33 3323
-1397.28 954.334 3337
-1389.3 954.334 3337
-1389.6 960.054 3357
-1381.58 960.054 3357
-1373.55 960.054 3357
-1357.39 954.334 3337
-1349.41 954.334 3337
-1346.65 958.052 3350
-1341.44 960.054 3357
-1341.35 965.773 3377
-1333.28 965.773 3377
-1325.2 965.773 3377
-1322.59 969.777 3391
-1314.48 969.777 3391
-1306.37 969.777 3391
-1298.26 969.777 3391
-1287.49 967.775 3384
-1279.4 967.775 3384
-1271.31 967.775 3384
-1263.21 967.775 3384
-1255.12 967.775 3384
-1247.03 967.775 3384
-1207.08 942.894 3297
-1189.74 935.459 3271
-1175.06 930.025 3252
-1167.28 930.025 3252
-1159.5 930.025 3252
-1147.12 926.307 3239
-1126.36 915.726 3202
-1118.7 915.726 3202
-1108.97 914.01 3196
-1086.85 901.999 3154
-1083.41 905.43 3166
-1077.88 907.146 3172
-1070.3 907.146 3172
-1068.74 912.294 3190
-1069.1 919.158 3214
-1063.72 921.16 3221
-1056.02 921.16 3221
-1048.32 921.16 3221
-558.47 926.307 3239
-550.725 926.307 3239
-548.344 935.459 3271
-544.818 942.894 3297
-544.425 956.05 3343
-536.431 956.05 3343
-528.437 956.05 3343
-520.443 956.05 3343
-516.588 963.771 3370
-508.529 963.771 3370
-500.47 963.771 3370
-493.434 965.773 3377
-485.359 965.773 3377
-477.283 965.773 3377
-476.989 981.789 3433
-476.563 998.09 3490
-468.217 998.09 3490
-459.871 998.09 3490
-444.151 981.789 3433
-435.942 981.789 3433
-427.733 981.789 3433
-417.812 977.785 3419
-408.798 975.783 3412
-400.639 975.783 3412
-392.48 975.783 3412
-237.025 1008.67 3527
-228.591 1008.67 3527
-220.157 1008.67 3527
-211.723 1008.67 3527
-202.886 1006.67 3520
-194.468 1006.67 3520
-186.051 1006.67 3520
-177.633 1006.67 3520
-169.889 1010.67 3534
-161.438 1010.67 3534
-152.987 1010.67 3534
-144.25 1008.67 3527
-135.546 1006.67 3520
-127.129 1006.67 3520
-67.2732 614.011 2147
-62.1391 614.011 2147
-57.005 614.011 2147
-51.7984 613.153 2144
-46.9109 616.299 2155
-41.7576 616.299 2155
-36.6044 616.299 2155
-31.4511 616.299 2155
-26.1636 613.153 2144
-21.017 612.581 2142
-15.8949 612.581 2142
-10.7425 610.865 2136
-5.63469 610.865 2136
-0.526869 610.865 2136
4.58095 610.865 2136
9.68878 610.865 2136
14.7758 610.007 2133
19.8765 610.007 2133
24.9771 610.007 2133
30.0778 610.007 2133
35.1784 610.007 2133
40.2791 610.007 2133
45.3797 610.007 2133
50.4804 610.007 2133
55.581 610.007 2133
60.9377 612.581 2142
66.2141 614.011 2147
71.5476 615.727 2153
76.6961 615.727 2153
82.2627 618.873 2164
87.5587 619.731 2167
92.8262 620.303 2169
98.013 620.303 2169
103.771 623.735 2181
109.386 626.022 2189
114.778 626.88 2192
120.019 626.88 2192
125.775 629.454 2201
131.574 632.028 2210
137.169 633.458 2215
142.466 633.458 2215
147.962 634.316 2218
153.888 636.89 2227
159.428 637.748 2230
164.761 637.748 2230
170.093 637.748 2230
175.426 637.748 2230
180.759 637.748 2230
185.34 635.174 2221
190.136 633.458 2215
194.992 632.028 2210
200.277 632.028 2210
206.305 634.316 2218
211.609 634.316 2218
218.087 637.748 2230
224.321 640.322 2239
230.291 642.038 2245
235.659 642.038 2245
241.028 642.038 2245
246.396 642.038 2245
251.765 642.038 2245
255.071 636.89 2227
493.075 922.875 3227
500.792 922.875 3227
508.509 922.875 3227
515.265 921.16 3221
521.831 919.158 3214
529.517 919.158 3214
537.203 919.158 3214
544.888 919.158 3214
552.574 919.158 3214
562.526 922.875 3227
570.242 922.875 3227
577.959 922.875 3227
585.676 922.875 3227
593.393 922.875 3227
604.109 915.726 3202
611.766 915.726 3202
619.423 915.726 3202
627.08 915.726 3202
634.737 915.726 3202
637.579 908.862 3178
641.525 903.714 3160
649.081 903.714 3160
656.638 903.714 3160
664.194 903.714 3160
673.026 905.43 3166
680.597 905.43 3166
688.168 905.43 3166
695.739 905.43 3166
701.977 903.714 3160
709.533 903.714 3160
717.09 903.714 3160
720.519 898.567 3142
725.251 895.135 3130
732.736 895.135 3130
735.964 889.987 3112
740.778 886.841 3101
748.194 886.841 3101
757.071 888.557 3107
764.501 888.557 3107
771.931 888.557 3107
782.12 891.703 3118
789.576 891.703 3118
797.032 891.703 3118
802.94 889.987 3112
807.517 886.841 3101
811.779 883.409 3089
822.348 886.841 3101
829.763 886.841 3101
837.179 886.841 3101
847.59 889.987 3112
856.68 891.703 3118
864.137 891.703 3118
873.27 893.419 3124
884.123 896.851 3136
900.152 905.43 3166
907.723 905.43 3166
922.232 912.294 3190
933.358 915.726 3202
948.362 922.875 3227
956.079 922.875 3227
967.38 926.307 3239
977.233 928.309 3246
984.995 928.309 3246
992.757 928.309 3246
1002.37 930.025 3252
1016.05 935.459 3271
1036.08 946.612 3310
1043.99 946.612 3310
1056.04 950.33 3323
1063.98 950.33 3323
1082.9 960.054 3357
1095.15 963.771 3370
1103.21 963.771 3370
1111.27 963.771 3370
1117 961.77 3363
1125.04 961.77 3363
1128.71 958.052 3350
1132.31 954.334 3337
1124.22 940.893 3290
1132.09 940.893 3290
1133.38 935.459 3271
1139.1 933.743 3265
1140.24 928.309 3246
1152.24 931.741 3258
1160.04 931.741 3258
1167.83 931.741 3258
1185 939.177 3284
1197.57 942.894 3297
1205.46 942.894 3297
1213.34 942.894 3297
1234.37 940.893 3290
1242.24 940.893 3290
1257.7 946.612 3310
1291.24 965.773 3377
1310.08 973.781 3405
1318.23 973.781 3405
1331.82 977.785 3419
1340 977.785 3419
1370.65 994.086 3476
1378.96 994.086 3476
1387.27 994.086 3476
1395.59 994.086 3476
1403.9 994.086 3476
1403.27 987.794 3454
1402.95 981.789 3433
1405.41 977.785 3419
1413.58 977.785 3419
1407.2 967.775 3384
1409.44 963.771 3370
1409.09 958.052 3350
1417.1 958.052 3350
1422.13 956.05 3343
1430.12 956.05 3343
1423.92 946.612 3310
1423.19 940.893 3290
1431.05 940.893 3290
1436.3 939.177 3284
1438.43 935.459 3271
1446.25 935.459 3271
1454.08 935.459 3271
1461.9 935.459 3271
1467.02 933.743 3265
1474.83 933.743 3265
1482.64 933.743 3265
1484.51 930.025 3252
1492.29 930.025 3252
1500.07 930.025 3252
1507.84 930.025 3252
1515.62 930.025 3252
1520.58 928.309 3246
1525.05 926.307 3239
1532.8 926.307 3239
1540.54 926.307 3239
1545.42 924.591 3233
1550.27 922.875 3227
1557.98 922.875 3227
1565.7 922.875 3227
1570.49 921.16 3221
1578.19 921.16 3221
1582.45 919.158 3214
1590.14 919.158 3214
1594.84 917.442 3208
1593.52 912.294 3190
1592.11 907.146 3172
1599.7 907.146 3172
1598.16 901.999 3154
1602.65 900.283 3148
1607.11 898.567 3142
1602.29 891.703 3118
1609.74 891.703 3118
1602.16 883.409 3089
1603.81 880.264 3078
1599.14 873.686 3055
1606.44 873.686 3055
1590.5 861.103 3011
1561.09 841.37 2942
1551.6 832.504 2911
1542.5 823.924 2881
1549.39 823.924 2881
1543.32 817.061 2857
1544.72 814.201 2847
1551.53 814.201 2847
1558.34 814.201 2847
1562.4 812.771 2842
1566.43 811.341 2837
1570.44 809.911 2832
1582.79 812.771 2842
1589.58 812.771 2842
1596.38 812.771 2842
1603.17 812.771 2842
1607.14 811.341 2837
1613.92 811.341 2837
1612.71 807.337 2823
1611.43 803.333 2809
2099.93 903.714 3160
2119.49 908.862 3178
2127.09 908.862 3178
2167.61 922.875 3227
2183.41 926.307 3239
2199.95 930.025 3252
2207.73 930.025 3252
2215.51 930.025 3252
2223.28 930.025 3252
2231.06 930.025 3252
2238.83 930.025 3252
2237.63 926.307 3239
2245.38 926.307 3239
2253.12 926.307 3239
2260.87 926.307 3239
2264.41 924.591 3233
2263.71 921.16 3221
2266.47 919.158 3214
2274.16 919.158 3214
2281.84 919.158 3214
2289.53 919.158 3214
2297.22 919.158 3214
2304.9 919.158 3214
2308.27 917.442 3208
2311.61 915.726 3202
2297.54 907.146 3172
2287.68 900.283 3148
2299.58 901.999 3154
2307.13 901.999 3154
2327.88 907.146 3172
2339.88 908.862 3178
2347.48 908.862 3178
2355.08 908.862 3178
2358.22 907.146 3172
2352.38 901.999 3154
2359.92 901.999 3154
2367.46 901.999 3154
2375.01 901.999 3154
-2345.29 948.774 3290
-2337.43 948.774 3290
-2343.72 954.541 3310
-2335.8 954.541 3310
-2351.1 964.058 3343
-2343.1 964.058 3343
-2335.11 964.058 3343
-2327.12 964.058 3343
-2301.08 956.56 3317
-2293.15 956.56 3317
-2285.22 956.56 3317
-2277.29 956.56 3317
-2273.46 958.29 3323
-2265.52 958.29 3323
-2271.16 964.058 3343
-2263.16 964.058 3343
-2264.61 968.095 3357
-2256.58 968.095 3357
-2248.56 968.095 3357
-1876.74 923.396 3202
-1951.39 964.058 3343
-1943.4 964.058 3343
-1935.4 964.058 3343
-1885.9 943.295 3271
-1878.08 943.295 3271
-1870.25 943.295 3271
-1859.02 941.564 3265
-1854.61 943.295 3271
-1876.15 958.29 3323
-1868.2 958.29 3323
-1860.25 958.29 3323
-1852.31 958.29 3323
-1844.36 958.29 3323
-1833.1 956.56 3317
-1814.16 950.792 3297
-1795.87 945.313 3278
-1780.94 941.564 3265
-1776.39 943.295 3271
-1768.57 943.295 3271
-1760.75 943.295 3271
-1752.92 943.295 3271
-1745.1 943.295 3271
-1737.28 943.295 3271
-1729.46 943.295 3271
-1714.79 939.546 3258
-1707 939.546 3258
-1601.26 914.745 3172
-1593.68 914.745 3172
-1592.09 918.205 3184
-1584.48 918.205 3184
-1576.86 918.205 3184
-1569.25 918.205 3184
-1561.64 918.205 3184
-1539.38 909.554 3154
-1531.84 909.554 3154
-1506.9 899.172 3118
-1522.52 913.015 3166
-1520.7 916.475 3178
-1524.52 923.396 3202
-1516.87 923.396 3202
-1509.21 923.396 3202
-1501.55 923.396 3202
-1493.9 923.396 3202
-1486.24 923.396 3202
-1481.35 925.127 3208
-1491.14 936.085 3246
-1483.38 936.085 3246
-1475.61 936.085 3246
-1461.97 932.336 3233
-1451.54 930.606 3227
-1443.83 930.606 3227
-1436.11 930.606 3227
-1428.39 930.606 3227
-1414.95 926.857 3214
-1410.33 928.875 3221
-1402.63 928.875 3221
-1400.12 932.336 3233
-1397.99 936.085 3246
-1395.37 939.546 3258
-1387.58 939.546 3258
-1396.3 950.792 3297
-1393.89 954.541 3310
-1397.28 962.328 3337
-1389.3 962.328 3337
-1381.32 962.328 3337
-1373.34 962.328 3337
-1365.37 962.328 3337
-1351.69 958.29 3323
-1338.49 954.541 3310
-1330.57 954.541 3310
-1338.64 966.077 3350
-1333.41 968.095 3357
-1325.38 968.095 3357
-1317.36 968.095 3357
-1309.33 968.095 3357
-1306.34 971.844 3370
-1298.28 971.844 3370
-1290.22 971.844 3370
-1287.49 975.882 3384
-1279.4 975.882 3384
-1271.31 975.882 3384
-1263.21 975.882 3384
-1247.33 969.826 3363
-1239.29 969.826 3363
-1204.52 948.774 3290
-1185.02 939.546 3258
-1175.06 937.815 3252
-1167.28 937.815 3252
-1159.5 937.815 3252
-1147.12 934.066 3239
-1126.36 923.396 3202
-1118.7 923.396 3202
-1106.88 919.936 3190
-1084.78 907.824 3148
-1079.31 909.554 3154
-1075.84 913.015 3166
-1068.27 913.015 3166
-1064.72 916.475 3178
-1061.11 919.936 3190
-1055.47 921.666 3196
-1047.83 921.666 3196
-1040.18 921.666 3196
-554.159 926.857 3214
-546.474 926.857 3214
-541.973 932.336 3233
-540.522 943.295 3271
-532.7 943.295 3271
-524.878 943.295 3271
-522.114 952.523 3303
-514.216 952.523 3303
-509.383 958.29 3323
-501.437 958.29 3323
-493.49 958.29 3323
-482.622 952.523 3303
-479.61 962.328 3337
-471.63 962.328 3337
-463.65 962.328 3337
-455.67 962.328 3337
-447.691 962.328 3337
-430.609 977.9 3391
-422.5 977.9 3391
-414.391 977.9 3391
-406.282 977.9 3391
-235.547 1010.78 3505
-227.166 1010.78 3505
-218.784 1010.78 3505
-209.922 1008.47 3497
-201.56 1008.47 3497
-193.639 1010.78 3505
-185.258 1010.78 3505
-176.876 1010.78 3505
-168.495 1010.78 3505
-160.113 1010.78 3505
-151.732 1010.78 3505
-143.023 1008.47 3497
-134.391 1006.45 3490
-126.046 1006.45 3490
-67.2732 619.154 2147
-62.1391 619.154 2147
-57.005 619.154 2147
-51.7984 618.289 2144
-46.8673 620.884 2153
-41.7189 620.884 2153
-36.5704 620.884 2153
-31.4219 620.884 2153
-26.1636 618.289 2144
-21.017 617.712 2142
-15.8949 617.712 2142
-10.7425 615.982 2136
-5.63469 615.982 2136
-0.526869 615.982 2136
4.58095 615.982 2136
9.68878 615.982 2136
14.7758 615.117 2133
19.8765 615.117 2133
24.9771 615.117 2133
30.0778 615.117 2133
35.1784 615.117 2133
40.2791 615.117 2133
45.3797 615.117 2133
50.4804 615.117 2133
55.581 615.117 2133
60.9377 617.712 2142
66.2141 619.154 2147
71.5476 620.884 2153
76.6961 620.884 2153
82.1487 623.192 2161
87.4375 624.057 2164
92.8262 625.499 2169
98.013 625.499 2169
103.771 628.959 2181
109.386 631.266 2189
114.62 631.266 2189
119.855 631.266 2189
125.775 634.727 2201
131.574 637.322 2210
136.859 637.322 2210
142.144 637.322 2210
147.762 638.764 2215
153.888 642.225 2227
159.428 643.09 2230
164.761 643.09 2230
170.093 643.09 2230
175.426 643.09 2230
180.759 643.09 2230
185.34 640.494 2221
190.136 638.764 2215
194.992 637.322 2210
200.277 637.322 2210
206.305 639.629 2218
211.609 639.629 2218
218.087 643.09 2230
224.321 645.685 2239
230.291 647.416 2245
235.659 647.416 2245
241.028 647.416 2245
246.396 647.416 2245
251.765 647.416 2245
493.075 930.606 3227
500.792 930.606 3227
508.509 930.606 3227
515.265 928.875 3221
521.831 926.857 3214
529.517 926.857 3214
537.203 926.857 3214
544.888 926.857 3214
552.574 926.857 3214
562.526 930.606 3227
570.242 930.606 3227
577.959 930.606 3227
585.676 930.606 3227
593.393 930.606 3227
597.57 925.127 3208
605.241 925.127 3208
611.766 923.396 3202
619.423 923.396 3202
627.08 923.396 3202
634.737 923.396 3202
639.987 919.936 3190
645.179 916.475 3178
652.778 916.475 3178
656.638 911.284 3160
664.194 911.284 3160
673.026 913.015 3166
680.597 913.015 3166
688.168 913.015 3166
695.739 913.015 3166
703.31 913.015 3166
710.88 913.015 3166
718.451 913.015 3166
724.646 911.284 3160
726.642 904.363 3136
734.141 904.363 3136
737.383 899.172 3118
742.211 896 3107
748.194 894.27 3101
757.071 896 3107
764.501 896 3107
771.931 896 3107
782.12 899.172 3118
789.576 899.172 3118
797.032 899.172 3118
802.94 897.442 3112
807.517 894.27 3101
811.779 890.809 3089
822.348 894.27 3101
829.763 894.27 3101
837.179 894.27 3101
847.59 897.442 3112
856.68 899.172 3118
864.137 899.172 3118
873.27 900.903 3124
885.815 906.093 3142
900.152 913.015 3166
907.723 913.015 3166
922.232 919.936 3190
933.358 923.396 3202
948.362 930.606 3227
956.079 930.606 3227
967.38 934.066 3239
977.233 936.085 3246
984.995 936.085 3246
992.757 936.085 3246
1002.37 937.815 3252
1016.05 943.295 3271
1036.08 954.541 3310
1043.99 954.541 3310
1056.04 958.29 3323
1063.98 958.29 3323
1082.9 968.095 3357
1095.15 971.844 3370
1103.21 971.844 3370
1111.27 971.844 3370
1117 969.826 3363
1125.04 969.826 3363
1128.71 966.077 3350
1132.31 962.328 3337
1124.22 948.774 3290
1132.09 948.774 3290
1133.38 943.295 3271
1139.1 941.564 3265
1140.24 936.085 3246
1152.24 939.546 3258
1160.04 939.546 3258
1167.83 939.546 3258
1185 947.044 3284
1204.84 956.56 3317
1212.77 956.56 3317
1220.7 956.56 3317
1234.37 948.774 3290
1242.24 948.774 3290
1257.7 954.541 3310
1291.24 973.863 3377
1312.78 983.956 3412
1320.94 983.956 3412
1331.82 985.975 3419
1362.34 1002.41 3476
1370.65 1002.41 3476
1378.96 1002.41 3476
1387.27 1002.41 3476
1395.59 1002.41 3476
1403.9 1002.41 3476
1412.21 1002.41 3476
1411.53 996.068 3454
1411.16 990.012 3433
1419.37 990.012 3433
1418.85 983.956 3412
1415.3 975.882 3384
1412.03 968.095 3357
1420.06 968.095 3357
1425.11 966.077 3350
1430.12 964.058 3343
1423.92 954.541 3310
1423.19 948.774 3290
1431.05 948.774 3290
1436.3 947.044 3284
1438.43 943.295 3271
1446.25 943.295 3271
1454.08 943.295 3271
1461.9 943.295 3271
1467.02 941.564 3265
1474.83 941.564 3265
1482.64 941.564 3265
1484.51 937.815 3252
1492.29 937.815 3252
1500.07 937.815 3252
1507.84 937.815 3252
1515.62 937.815 3252
1520.58 936.085 3246
1528.35 936.085 3246
1532.8 934.066 3239
1540.54 934.066 3239
1545.42 932.336 3233
1553.15 932.336 3233
1560.88 932.336 3233
1571.52 934.066 3239
1579.27 934.066 3239
1587.01 934.066 3239
1591.81 932.336 3233
1599.54 932.336 3233
1597.82 926.857 3214
1602.51 925.127 3208
1601.15 919.936 3190
1608.78 919.936 3190
1610.32 916.475 3178
1614.87 914.745 3172
1610.18 907.824 3148
1614.62 906.093 3142
1622.14 906.093 3142
1617.2 899.172 3118
1606.94 889.367 3084
1611.18 887.637 3078
1618.54 887.637 3078
1611.11 879.562 3050
1597.7 868.315 3011
1562.8 845.533 2932
1547.86 833.71 2891
1554.77 833.71 2891
1550.88 827.942 2871
1552.86 825.347 2862
1559.71 825.347 2862
1566.55 825.347 2862
1567.9 822.463 2852
1571.95 821.021 2847
1578.76 821.021 2847
1585.57 821.021 2847
1592.38 821.021 2847
1599.19 821.021 2847
1606 821.021 2847
1612.8 821.021 2847
1619.61 821.021 2847
1615.57 815.542 2828
1616.59 812.658 2818
2060.72 894.27 3101
2079.48 899.172 3118
2086.93 899.172 3118
2122.6 911.284 3160
2146.34 918.205 3184
2166.13 923.396 3202
2173.78 923.396 3202
2181.44 923.396 3202
2189.1 923.396 3202
2200.87 925.127 3208
2212.67 926.857 3214
2220.36 926.857 3214
2228.05 926.857 3214
2235.73 926.857 3214
2243.42 926.857 3214
2251.1 926.857 3214
2250.35 923.396 3202
2253.78 921.666 3196
2265.67 923.396 3202
2273.33 923.396 3202
2285.26 925.127 3208
2292.93 925.127 3208
2300.6 925.127 3208
2308.27 925.127 3208
2307.28 921.666 3196
2297.54 914.745 3172
2287.68 907.824 3148
2303.96 911.284 3160
2311.51 911.284 3160
2332.28 916.475 3178
2339.88 916.475 3178
2347.48 916.475 3178
2355.08 916.475 3178
2362.68 916.475 3178
2365.8 914.745 3172
2373.39 914.745 3172
2380.97 914.745 3172
2379.52 911.284 3160
-2345.29 956.655 3290
-2337.43 956.655 3290
-2343.72 962.471 3310
-2335.8 962.471 3310
-2351.1 972.066 3343
-2343.1 972.066 3343
-2335.11 972.066 3343
-2327.12 972.066 3343
-2301.08 964.506 3317
-2293.15 964.506 3317
-2285.22 964.506 3317
-2277.29 964.506 3317
-2273.46 966.251 3323
-2265.52 966.251 3323
-2271.16 972.066 3343
-2263.16 972.066 3343
-2264.61 976.137 3357
-2256.58 976.137 3357
-2248.56 976.137 3357
-1876.74 931.067 3202
-1876.09 934.556 3214
-1868.41 934.556 3214
-1860.72 934.556 3214
-1863.99 940.081 3233
-1856.26 940.081 3233
-1848.53 940.081 3233
-1859.02 949.386 3265
-1854.61 951.13 3271
-1846.79 951.13 3271
-1838.97 951.13 3271
-1852.98 962.471 3310
-1845.06 962.471 3310
-1837.15 962.471 3310
-1829.23 962.471 3310
-1807.01 954.91 3284
-1792.03 951.13 3271
-1780.94 949.386 3265
-1773.13 949.386 3265
-1765.32 949.386 3265
-1757.52 949.386 3265
-1745.96 947.35 3258
-1738.17 947.35 3258
-1730.38 947.35 3258
-1592.18 917.109 3154
-1584.63 917.109 3154
-1577.09 917.109 3154
-1569.55 917.109 3154
-1562.01 917.109 3154
-1554.46 917.109 3154
-1543.98 915.365 3148
-1524.74 908.386 3124
-1517.27 908.386 3124
-1504 904.897 3112
-1505.21 910.131 3130
-1517.83 922.343 3172
-1513.1 924.088 3178
-1505.5 924.088 3178
-1497.9 924.088 3178
-1490.3 924.088 3178
-1485.5 925.833 3184
-1477.88 925.833 3184
-1478.58 931.067 3202
-1470.92 931.067 3202
-1463.27 931.067 3202
-1455.61 931.067 3202
-1417.33 931.067 3202
-1414.95 934.556 3214
-1421.28 943.861 3246
-1413.52 943.861 3246
-1405.75 943.861 3246
-1400.58 945.605 3252
-1395.37 947.35 3258
-1387.58 947.35 3258
-1385.29 951.13 3271
-1388.42 958.69 3297
-1399.8 972.066 3343
-1391.8 972.066 3343
-1383.81 972.066 3343
-1375.81 972.066 3343
-1367.82 972.066 3343
-1351.69 966.251 3323
-1338.49 962.471 3310
-1327.76 960.435 3303
-1322.66 962.471 3310
-1317.52 964.506 3317
-1309.59 964.506 3317
-1301.66 964.506 3317
-1303.87 972.066 3343
-1298.59 974.102 3350
-1290.58 974.102 3350
-1282.56 974.102 3350
-1271.89 972.066 3343
-1263.9 972.066 3343
-1255.9 972.066 3343
-1247.91 972.066 3343
-1225.08 960.435 3303
-1217.18 960.435 3303
-1192.81 947.35 3258
-1180.65 943.861 3246
-1170.36 941.825 3239
-1162.61 941.825 3239
-1154.87 941.825 3239
-1129.77 927.577 3190
-1122.14 927.577 3190
-1114.51 927.577 3190
-1096.47 918.854 3160
-1082.72 913.62 3142
-1075.2 913.62 3142
-1071.77 917.109 3154
-1064.22 917.109 3154
-1062.71 922.343 3172
-1059.12 925.833 3184
-1055.47 929.322 3196
-1047.83 929.322 3196
-1040.18 929.322 3196
-552.09 931.067 3202
-544.433 931.067 3202
-541.973 940.081 3233
-540.522 951.13 3271
-532.7 951.13 3271
-524.878 951.13 3271
-521.166 958.69 3297
-513.281 958.69 3297
-506.317 960.435 3303
-498.419 960.435 3303
-490.52 960.435 3303
-478.969 953.166 3278
-471.13 953.166 3278
-463.291 953.166 3278
-457.12 956.655 3290
-449.253 956.655 3290
-441.385 956.655 3290
-425.402 974.102 3350
-417.391 974.102 3350
-409.38 974.102 3350
-401.37 974.102 3350
-234.069 1012.77 3483
-225.74 1012.77 3483
-217.411 1012.77 3483
-208.662 1010.74 3476
-200.349 1010.74 3476
-192.424 1012.77 3483
-184.095 1012.77 3483
-176.119 1014.81 3490
-168.11 1016.85 3497
-159.748 1016.85 3497
-151.386 1016.85 3497
-142.737 1014.81 3490
-134.122 1012.77 3483
-125.793 1012.77 3483
-67.2732 624.297 2147
-62.1391 624.297 2147
-57.005 624.297 2147
-51.7984 623.425 2144
-46.6714 623.425 2144
-41.6026 624.297 2147
-36.4685 624.297 2147
-31.3343 624.297 2147
-26.2002 624.297 2147
-21.017 622.843 2142
-15.8949 622.843 2142
-10.7425 621.099 2136
