ply
format ascii 1.0
comment File generated
element vertex 2262
property float x
property float y
property float z
end_header
1997.72 971.844 3370
2005.78 971.844 3370
2013.84 971.844 3370
2021.9 971.844 3370
2010.08 962.328 3337
2018.06 962.328 3337
2017.54 958.29 3323
2021.83 956.56 3317
2029.76 956.56 3317
2033.39 954.541 3310
2041.31 954.541 3310
2029.41 945.313 3278
2024.82 939.546 3258
2032.61 939.546 3258
2040.4 939.546 3258
2028.71 930.606 3227
2024.43 925.127 3208
2080 902.633 3130
2087.48 902.633 3130
2094.97 902.633 3130
2110.51 906.093 3142
2122.07 907.824 3148
2149.89 916.475 3178
2173.78 923.396 3202
2181.44 923.396 3202
2189.1 923.396 3202
2196.76 923.396 3202
2204.41 923.396 3202
2207.92 921.666 3196
2211.41 919.936 3190
2219.04 919.936 3190
2230.85 921.666 3196
2238.49 921.666 3196
2246.14 921.666 3196
2249.55 919.936 3190
2257.18 919.936 3190
2260.55 918.205 3184
2268.16 918.205 3184
2275.77 918.205 3184
2283.39 918.205 3184
2286.68 916.475 3178
2276.96 909.554 3154
2271.46 904.363 3136
2270.24 900.903 3124
2282.09 902.633 3130
2289.57 902.633 3130
2310.26 907.824 3148
2317.79 907.824 3148
2325.32 907.824 3148
2332.85 907.824 3148
2340.38 907.824 3148
2343.43 906.093 3142
2350.94 906.093 3142
2358.46 906.093 3142
2384.04 913.015 3166
2391.61 913.015 3166
2399.18 913.015 3166
2406.75 913.015 3166
2414.33 913.015 3166
2412.72 909.554 3154
-2276.35 922.343 3172
-2268.76 922.343 3172
-2269.73 925.833 3184
-2270.64 929.322 3196
-2271.5 932.811 3208
-2263.82 932.811 3208
-2265.3 936.591 3221
-2279.32 945.605 3252
-2275.74 947.35 3258
-2267.95 947.35 3258
-2278.19 954.91 3284
-2274.49 956.655 3290
-2266.62 956.655 3290
-2258.75 956.655 3290
-2246.78 954.91 3284
-2238.93 954.91 3284
-2231.07 954.91 3284
-2214.42 951.13 3271
-2206.6 951.13 3271
-2114.54 996.201 3426
-2106.34 996.201 3426
-2098.15 996.201 3426
-2072.88 988.059 3398
-2039.84 976.137 3357
-2023.34 972.066 3343
-2023.78 976.137 3357
-2015.76 976.137 3357
-2007.73 976.137 3357
-1999.7 976.137 3357
-1991.67 976.137 3357
-1971.83 970.321 3337
-1963.85 970.321 3337
-1959.39 972.066 3343
-1951.39 972.066 3343
-1943.4 972.066 3343
-1935.4 972.066 3343
-1927.41 972.066 3343
-1919.41 972.066 3343
-1899.99 966.251 3323
-1888.62 964.506 3317
-1880.69 964.506 3317
-1872.76 964.506 3317
-1835.59 949.386 3265
-1817.15 943.861 3246
-1791.55 934.556 3214
-1750.52 945.605 3252
-1745.96 947.35 3258
-1738.17 947.35 3258
-1730.38 947.35 3258
-1722.58 947.35 3258
-1325.96 813.884 2799
-1319.26 813.884 2799
-1314.91 815.338 2804
-1308.21 815.338 2804
-1308 819.408 2818
-1301.26 819.408 2818
-1299.12 822.316 2828
-1292.36 822.316 2828
-1285.59 822.316 2828
-1270.24 816.791 2809
-1256.77 812.43 2794
-1232.25 813.884 2799
-1250.95 830.749 2857
-1246.3 832.203 2862
-1239.45 832.203 2862
-1232.61 832.203 2862
-1211.2 822.316 2828
-1204.44 822.316 2828
-1197.68 822.316 2828
-1205.23 832.203 2862
-1198.39 832.203 2862
-1191.55 832.203 2862
-1178.49 827.841 2847
-1183.62 836.273 2876
-1176.74 836.273 2876
-1169.87 836.273 2876
-1162.99 836.273 2876
-1178.62 852.557 2932
-1175.61 855.465 2942
-1168.57 855.465 2942
-1161.54 855.465 2942
-1232.98 913.62 3142
-1239.51 924.088 3178
-1234.24 925.833 3184
-1226.62 925.833 3184
-1219.01 925.833 3184
-1211.4 925.833 3184
-1203.78 925.833 3184
-1193.92 924.088 3178
-1181.84 920.599 3166
-1174.27 920.599 3166
-1166.69 920.599 3166
-1156.93 918.854 3160
-1149.37 918.854 3160
-1139.65 917.109 3154
-1134.26 918.854 3160
-1126.7 918.854 3160
-1125.52 924.088 3178
-1117.92 924.088 3178
-1110.32 924.088 3178
-1102.72 924.088 3178
-1090.99 920.599 3166
-1108.4 941.825 3239
-1100.65 941.825 3239
-1092.9 941.825 3239
-1085.16 941.825 3239
-1077.41 941.825 3239
-1069.67 941.825 3239
-1056.02 936.591 3221
-1048.32 936.591 3221
-1038.36 934.556 3214
-1030.67 934.556 3214
-689.372 910.131 3130
-681.887 910.131 3130
-674.402 910.131 3130
-664.36 906.641 3118
-656.904 906.641 3118
-647.157 903.443 3107
-639.727 903.443 3107
-631.077 901.698 3101
-623.661 901.698 3101
-615.053 899.954 3095
-612.168 906.641 3118
-604.712 906.641 3118
-599.554 910.131 3130
-592.07 910.131 3130
-586.826 913.62 3142
-579.313 913.62 3142
-571.799 913.62 3142
-564.286 913.62 3142
-555.709 911.875 3136
-545.063 906.641 3118
-537.607 906.641 3118
-530.151 906.641 3118
-522.695 906.641 3118
-509.62 896.755 3084
-502.246 896.755 3084
-135.306 655.41 2254
-130.089 656.283 2257
-124.692 656.283 2257
-119.823 659.191 2267
-114.402 659.191 2267
-108.981 659.191 2267
-103.56 659.191 2267
-98.2686 660.063 2270
-92.963 660.935 2273
-87.6431 661.808 2276
-82.2005 661.808 2276
-76.8591 662.68 2279
-71.5973 664.424 2285
-66.22 665.297 2288
-60.7487 665.297 2288
-55.2774 665.297 2288
-49.8061 665.297 2288
-44.3348 665.297 2288
-38.8635 665.297 2288
-33.3484 664.424 2285
-27.8477 663.552 2282
-22.3907 663.552 2282
-16.9337 663.552 2282
-11.4768 663.552 2282
-6.01984 663.552 2282
-0.562882 663.552 2282
4.90051 664.424 2285
10.3646 664.424 2285
15.8495 665.297 2288
21.442 669.077 2301
26.9795 669.949 2304
32.4891 669.949 2304
38.0481 670.822 2307
43.8103 674.602 2320
49.3582 674.602 2320
54.906 674.602 2320
60.4538 674.602 2320
66.0016 674.602 2320
71.5494 674.602 2320
76.9976 673.729 2317
82.5382 673.729 2317
88.307 675.474 2323
94.0236 676.637 2327
99.5881 676.637 2327
105.153 676.637 2327
110.86 677.509 2330
116.432 677.509 2330
122.003 677.509 2330
127.411 676.637 2327
132.976 676.637 2327
138.123 674.602 2320
143.671 674.602 2320
149.026 673.729 2317
154.567 673.729 2317
160.107 673.729 2317
165.648 673.729 2317
171.189 673.729 2317
176.5 672.857 2314
182.034 672.857 2314
187.567 672.857 2314
192.851 671.985 2311
198.033 670.822 2307
506.467 920.599 3166
517.935 927.577 3190
526.551 929.322 3196
534.194 929.322 3196
542.854 931.067 3202
550.511 931.067 3202
558.168 931.067 3202
620.173 943.861 3246
627.935 943.861 3246
635.697 943.861 3246
642.072 941.825 3239
648.614 940.081 3233
656.345 940.081 3233
660.173 934.556 3214
664.118 929.322 3196
717.617 929.322 3196
725.259 929.322 3196
732.902 929.322 3196
740.544 929.322 3196
748.187 929.322 3196
750.154 922.343 3172
756.306 920.599 3166
760.981 917.109 3154
768.523 917.109 3154
776.066 917.109 3154
846.468 936.591 3221
854.17 936.591 3221
861.873 936.591 3221
867.685 934.556 3214
872.103 931.067 3202
879.76 931.067 3202
877.439 920.599 3166
883.333 918.854 3160
890.89 918.854 3160
903.564 924.088 3178
911.163 924.088 3178
920.498 925.833 3184
933.358 931.067 3202
942.779 932.811 3208
950.45 932.811 3208
959.913 934.556 3214
967.599 934.556 3214
975.285 934.556 3214
982.97 934.556 3214
988.806 932.811 3208
994.614 931.067 3202
1004.15 932.811 3208
1019.71 940.081 3233
1027.44 940.081 3233
1049.58 953.166 3278
1070 964.506 3317
1086.38 972.066 3343
1094.37 972.066 3343
1122.81 990.094 3405
1135.6 994.165 3419
1143.78 994.165 3419
1151.95 994.165 3419
1157.75 992.13 3412
1158.74 986.023 3391
1166.85 986.023 3391
1170.1 981.953 3377
1173.3 977.882 3363
1174.31 972.066 3343
1182.31 972.066 3343
1178.55 962.471 3310
1186.47 962.471 3310
1199.07 966.251 3323
1207.02 966.251 3323
1214.96 966.251 3323
1222.91 966.251 3323
1230.86 966.251 3323
1238.8 966.251 3323
1246.75 966.251 3323
1270.84 960.435 3303
1278.74 960.435 3303
1294.43 966.251 3323
1310.21 972.066 3343
1323.73 976.137 3357
1331.75 976.137 3357
1342.18 977.882 3363
1350.22 977.882 3363
1358.26 977.882 3363
1363.86 976.137 3357
1371.89 976.137 3357
1374.17 972.066 3343
1382.16 972.066 3343
1384.75 968.286 3330
1387.27 964.506 3317
1395.21 964.506 3317
1403.14 964.506 3317
1411.07 964.506 3317
1419 964.506 3317
1415.32 956.655 3290
1412.37 949.386 3265
1420.18 949.386 3265
1424.92 947.35 3258
1432.72 947.35 3258
1437.85 945.605 3252
1445.63 945.605 3252
1453.41 945.605 3252
1458.49 943.861 3246
1466.25 943.861 3246
1474.01 943.861 3246
1475.84 940.081 3233
1483.57 940.081 3233
1491.3 940.081 3233
1499.03 940.081 3233
1509.56 941.825 3239
1517.31 941.825 3239
1525.05 941.825 3239
1532.8 941.825 3239
1540.54 941.825 3239
1545.42 940.081 3233
1556.03 941.825 3239
1563.78 941.825 3239
1571.52 941.825 3239
1579.27 941.825 3239
1587.01 941.825 3239
1591.81 940.081 3233
1599.54 940.081 3233
1601.3 936.591 3221
1602.51 932.811 3208
1604.16 929.322 3196
1611.8 929.322 3196
1610.32 924.088 3178
1611.81 920.599 3166
1616.32 918.854 3160
1620.79 917.109 3154
1628.33 917.109 3154
1626.54 911.875 3136
1621.53 904.897 3112
1623.21 901.698 3101
1630.63 901.698 3101
1629.07 896.755 3084
1621.05 888.323 3055
1608.1 877.273 3017
1615.32 877.273 3017
1599.41 864.77 2974
1589.23 855.465 2942
1593.55 854.011 2937
1600.58 854.011 2937
1607.6 854.011 2937
1614.62 854.011 2937
1618.89 852.557 2932
1611.48 844.997 2906
1632.91 852.557 2932
1639.92 852.557 2932
1646.93 852.557 2932
1653.94 852.557 2932
1660.96 852.557 2932
1667.97 852.557 2932
1666.41 848.195 2917
1669.94 846.451 2911
1989.67 979.917 3370
1997.72 979.917 3370
2005.78 979.917 3370
2013.84 979.917 3370
2021.9 979.917 3370
2010.08 970.321 3337
2018.06 970.321 3337
2017.54 966.251 3323
2021.83 964.506 3317
2029.76 964.506 3317
2033.39 962.471 3310
2041.31 962.471 3310
2029.41 953.166 3278
2024.82 947.35 3258
2032.61 947.35 3258
2040.4 947.35 3258
2028.71 938.336 3227
2024.43 932.811 3208
2015.57 885.124 3044
2080 910.131 3130
2087.48 910.131 3130
2094.97 910.131 3130
2110.51 913.62 3142
2122.07 915.365 3148
2149.89 924.088 3178
2173.78 931.067 3202
2181.44 931.067 3202
2189.1 931.067 3202
2196.76 931.067 3202
2204.41 931.067 3202
2207.92 929.322 3196
2211.41 927.577 3190
2219.04 927.577 3190
2230.85 929.322 3196
2238.49 929.322 3196
2246.14 929.322 3196
2249.55 927.577 3190
2257.18 927.577 3190
2260.55 925.833 3184
2268.16 925.833 3184
2275.77 925.833 3184
2283.39 925.833 3184
2286.68 924.088 3178
2276.96 917.109 3154
2271.46 911.875 3136
2270.24 908.386 3124
2282.09 910.131 3130
2289.57 910.131 3130
2310.26 915.365 3148
2317.79 915.365 3148
2325.32 915.365 3148
2332.85 915.365 3148
2340.38 915.365 3148
2343.43 913.62 3142
2350.94 913.62 3142
2358.46 913.62 3142
2384.04 920.599 3166
2391.61 920.599 3166
2399.18 920.599 3166
2406.75 920.599 3166
2414.33 920.599 3166
2412.72 917.109 3154
-2204.58 900.625 3072
-2197.24 900.625 3072
-2261.18 929.942 3172
-2262.12 933.46 3184
-2267.25 938.737 3202
-2259.59 938.737 3202
-2256.15 940.496 3208
-2279.32 953.396 3252
-2271.55 953.396 3252
-2263.77 953.396 3252
-2101.58 998.251 3405
-2093.43 998.251 3405
-2085.29 998.251 3405
-2068.61 994.147 3391
-2039.84 984.179 3357
-2031.81 984.179 3357
-2023.78 984.179 3357
-2015.76 984.179 3357
-2007.73 984.179 3357
-1999.7 984.179 3357
-1991.67 984.179 3357
-1975.37 980.074 3343
-1963.85 978.315 3337
-1959.39 980.074 3343
-1951.39 980.074 3343
-1943.4 980.074 3343
-1935.4 980.074 3343
-1927.41 980.074 3343
-1919.41 980.074 3343
-1899.99 974.211 3323
-1888.62 972.452 3317
-1880.69 972.452 3317
-1872.76 972.452 3317
-1835.59 957.207 3265
-1817.15 951.637 3246
-1791.55 942.255 3214
-1750.52 953.396 3252
-1745.96 955.155 3258
-1738.17 955.155 3258
-1730.38 955.155 3258
-1722.58 955.155 3258
-1325.96 820.589 2799
-1319.26 820.589 2799
-1314.91 822.055 2804
-1308.21 822.055 2804
-1308 826.159 2818
-1301.26 826.159 2818
-1299.12 829.091 2828
-1292.36 829.091 2828
-1285.59 829.091 2828
-1270.24 823.52 2809
-1256.77 819.123 2794
-1236.65 823.52 2809
-1250.95 837.593 2857
-1246.3 839.059 2862
-1239.45 839.059 2862
-1232.61 839.059 2862
-1211.2 829.091 2828
-1204.44 829.091 2828
-1197.68 829.091 2828
-1205.23 839.059 2862
-1198.39 839.059 2862
-1191.55 839.059 2862
-1178.49 834.661 2847
-1183.62 843.163 2876
-1176.74 843.163 2876
-1169.87 843.163 2876
-1162.99 843.163 2876
-1178.62 859.581 2932
-1175.61 862.512 2942
-1168.57 862.512 2942
-1161.54 862.512 2942
-1232.98 921.147 3142
-1239.51 931.701 3178
-1234.24 933.46 3184
-1226.62 933.46 3184
-1219.01 933.46 3184
-1211.4 933.46 3184
-1203.78 933.46 3184
-1193.92 931.701 3178
-1181.84 928.183 3166
-1174.27 928.183 3166
-1166.69 928.183 3166
-1156.93 926.424 3160
-1149.37 926.424 3160
-1139.65 924.665 3154
-1134.26 926.424 3160
-1126.7 926.424 3160
-1125.52 931.701 3178
-1117.92 931.701 3178
-1110.32 931.701 3178
-1102.72 931.701 3178
-1090.99 928.183 3166
-1108.4 949.584 3239
-1100.65 949.584 3239
-1092.9 949.584 3239
-1085.16 949.584 3239
-1077.41 949.584 3239
-1069.67 949.584 3239
-1056.02 944.307 3221
-1048.32 944.307 3221
-1038.36 942.255 3214
-1030.67 942.255 3214
-949.777 874.826 2984
-703.536 926.424 3160
-695.979 926.424 3160
-688.423 926.424 3160
-676.988 921.147 3142
-666.917 917.629 3130
-659.433 917.629 3130
-649.448 914.111 3118
-640.757 912.352 3112
-632.298 910.886 3107
-624.868 910.886 3107
-617.438 910.886 3107
-612.168 914.111 3118
-605.875 915.87 3124
-599.554 917.629 3130
-592.07 917.629 3130
-585.705 919.388 3136
-578.206 919.388 3136
-570.707 919.388 3136
-563.208 919.388 3136
-552.519 914.111 3118
-544.014 912.352 3112
-536.573 912.352 3112
-528.281 910.886 3107
-518.839 907.368 3095
-509.62 904.143 3084
-502.246 904.143 3084
-129.916 660.81 2254
-124.526 660.81 2254
-119.506 662.862 2261
-114.402 664.621 2267
-109.125 665.501 2270
-103.697 665.501 2270
-98.2686 665.501 2270
-92.963 666.38 2273
-87.6431 667.26 2276
-82.2005 667.26 2276
-76.8591 668.139 2279
-71.5973 669.898 2285
-66.22 670.778 2288
-60.7487 670.778 2288
-55.2774 670.778 2288
-49.8061 670.778 2288
-44.3348 670.778 2288
-38.8635 670.778 2288
-33.3484 669.898 2285
-27.8477 669.019 2282
-22.3907 669.019 2282
-16.9337 669.019 2282
-11.4768 669.019 2282
-6.01984 669.019 2282
-0.562882 669.019 2282
4.90051 669.898 2285
10.3646 669.898 2285
15.8495 670.778 2288
21.442 674.589 2301
26.9795 675.469 2304
32.4891 675.469 2304
38.1141 677.521 2311
43.8103 680.159 2320
49.3582 680.159 2320
54.906 680.159 2320
60.4538 680.159 2320
66.0016 680.159 2320
71.5494 680.159 2320
77.0973 680.159 2320
82.5382 679.28 2317
88.307 681.039 2323
94.0236 682.211 2327
99.5881 682.211 2327
105.153 682.211 2327
111.003 683.971 2333
116.582 683.971 2333
122.161 683.971 2333
127.575 683.091 2330
133.147 683.091 2330
138.302 681.039 2323
143.857 681.039 2323
149.219 680.159 2320
154.767 680.159 2320
160.315 680.159 2320
165.862 680.159 2320
171.41 680.159 2320
176.729 679.28 2317
182.27 679.28 2317
187.811 679.28 2317
193.101 678.4 2314
488.532 922.906 3148
496.06 922.906 3148
506.467 928.183 3166
517.935 935.219 3190
526.551 936.978 3196
534.194 936.978 3196
542.854 938.737 3202
550.511 938.737 3202
558.168 938.737 3202
565.825 938.737 3202
572.407 936.978 3196
580.05 936.978 3196
595.599 949.584 3239
603.345 949.584 3239
613.543 953.396 3252
623.803 957.207 3265
631.611 957.207 3265
639.418 957.207 3265
644.649 953.396 3252
651.222 951.637 3246
658.984 951.637 3246
664.076 947.825 3233
669.313 944.307 3221
732.902 936.978 3196
740.544 936.978 3196
748.187 936.978 3196
750.154 929.942 3172
756.306 928.183 3166
850.723 940.496 3208
858.394 940.496 3208
866.066 940.496 3208
870.469 936.978 3196
878.111 936.978 3196
877.439 928.183 3166
883.333 926.424 3160
890.89 926.424 3160
903.564 931.701 3178
911.163 931.701 3178
920.498 933.46 3184
928.112 933.46 3184
941.015 938.737 3202
948.672 938.737 3202
956.329 938.737 3202
963.986 938.737 3202
971.643 938.737 3202
979.3 938.737 3202
981.409 933.46 3184
989.023 933.46 3184
1002.27 938.737 3202
1009.93 938.737 3202
1017.58 938.737 3202
1033.25 946.066 3227
1057.41 961.018 3278
1075.65 970.4 3310
1083.57 970.4 3310
1102.36 980.074 3343
1119.33 987.99 3370
1127.39 987.99 3370
1135.44 987.99 3370
1143.5 987.99 3370
1147.12 984.179 3357
1155.15 984.179 3357
1163.17 984.179 3357
1154.8 970.4 3310
1158.15 966.588 3297
1166.04 966.588 3297
1169.29 962.777 3284
1177.15 962.777 3284
1189.69 966.588 3297
1204.84 972.452 3317
1212.77 972.452 3317
1220.7 972.452 3317
1218.63 964.536 3290
1226.5 964.536 3290
1234.37 964.536 3290
1286.64 968.347 3303
1302.37 974.211 3323
1320.97 982.127 3350
1328.98 982.127 3350
1342.18 985.938 3363
1350.22 985.938 3363
1358.26 985.938 3363
1363.86 984.179 3357
1371.89 984.179 3357
1374.17 980.074 3343
1382.16 980.074 3343
1384.75 976.263 3330
1387.27 972.452 3317
1395.21 972.452 3317
1403.14 972.452 3317
1411.07 972.452 3317
1419 972.452 3317
1415.32 964.536 3290
1412.37 957.207 3265
1420.18 957.207 3265
1424.92 955.155 3258
1430.08 953.396 3252
1437.85 953.396 3252
1445.63 953.396 3252
1450.73 951.637 3246
1458.49 951.637 3246
1463.09 949.584 3239
1470.83 949.584 3239
1475.84 947.825 3233
1483.57 947.825 3233
1491.3 947.825 3233
1499.03 947.825 3233
1509.56 949.584 3239
1517.31 949.584 3239
1525.05 949.584 3239
1532.8 949.584 3239
1540.54 949.584 3239
1545.42 947.825 3233
1556.03 949.584 3239
1563.78 949.584 3239
1571.52 949.584 3239
1579.27 949.584 3239
1587.01 949.584 3239
1591.81 947.825 3233
1599.54 947.825 3233
1601.3 944.307 3221
1602.51 940.496 3208
1604.16 936.978 3196
1611.8 936.978 3196
1610.32 931.701 3178
1614.87 929.942 3172
1616.32 926.424 3160
1620.79 924.665 3154
1628.33 924.665 3154
1626.54 919.388 3136
1621.53 912.352 3112
1623.21 909.127 3101
1630.63 909.127 3101
1629.07 904.143 3084
1621.05 895.641 3055
1608.1 884.5 3017
1615.32 884.5 3017
1599.41 871.894 2974
1589.23 862.512 2942
1593.55 861.046 2937
1600.58 861.046 2937
1607.6 861.046 2937
1614.62 861.046 2937
1618.89 859.581 2932
1611.48 851.958 2906
1632.91 859.581 2932
1639.92 859.581 2932
1646.93 859.581 2932
1653.94 859.581 2932
1660.96 859.581 2932
1667.97 859.581 2932
1666.41 855.183 2917
1669.94 853.424 2911
1973.72 980.074 3343
1981.72 980.074 3343
1989.71 980.074 3343
1997.71 980.074 3343
2002.1 978.315 3337
2001.65 974.211 3323
2009.59 974.211 3323
2005.4 968.347 3303
2013.3 968.347 3303
2021.19 968.347 3303
2029.09 968.347 3303
2036.99 968.347 3303
2021.36 957.207 3265
2021.09 953.396 3252
2028.87 953.396 3252
2036.65 953.396 3252
2028.71 946.066 3227
2024.43 940.496 3208
2015.57 892.416 3044
2026.83 894.175 3050
2041.46 897.4 3061
2048.78 897.4 3061
2078.94 907.368 3095
2109.94 917.629 3130
2121.48 919.388 3136
2133.05 921.147 3142
2140.57 921.147 3142
2148.08 921.147 3142
2151.48 919.388 3136
2158.97 919.388 3136
2166.47 919.388 3136
2173.97 919.388 3136
2206.51 929.942 3172
2214.1 929.942 3172
2221.69 929.942 3172
2229.27 929.942 3172
2236.86 929.942 3172
2244.44 929.942 3172
2252.03 929.942 3172
2259.61 929.942 3172
2267.2 929.942 3172
2274.78 929.942 3172
2282.37 929.942 3172
2268.29 921.147 3142
2262.77 915.87 3124
2261.52 912.352 3112
2273.34 914.111 3118
2280.79 914.111 3118
2297.05 917.629 3130
2317.79 922.906 3148
2325.32 922.906 3148
2332.85 922.906 3148
2335.92 921.147 3142
2334.48 917.629 3130
2341.96 917.629 3130
2349.45 917.629 3130
2370.49 922.906 3148
2378.02 922.906 3148
2390.09 924.665 3154
2397.63 924.665 3154
2405.17 924.665 3154
2398.95 919.388 3136
-2175.93 893.205 3022
-2204.58 907.984 3072
-2197.24 907.984 3072
-2210.56 916.555 3101
-2228.01 926.9 3136
-2233.26 932.22 3154
-2225.72 932.22 3154
-2218.18 932.22 3154
-2210.63 932.22 3154
-2203.09 932.22 3154
-2059.62 990.151 3350
-2051.61 990.151 3350
-2043.6 990.151 3350
-2035.59 990.151 3350
-2031.81 992.22 3357
-2023.78 992.22 3357
-2015.76 992.22 3357
-2007.73 992.22 3357
-1999.7 992.22 3357
-1991.67 992.22 3357
-1975.37 988.083 3343
-1959.73 984.24 3330
-1955.87 986.309 3337
-1947.89 986.309 3337
-1939.91 986.309 3337
-1931.93 986.309 3337
-1923.95 986.309 3337
-1915.97 986.309 3337
-1892.55 978.329 3310
-1880.65 976.26 3303
-1851.21 965.028 3265
-1843.4 965.028 3265
-1824.91 959.412 3246
-1799.23 949.954 3214
-1747.29 959.412 3246
-1742.74 961.186 3252
-1734.97 961.186 3252
-1727.19 961.186 3252
-1325.96 827.294 2799
-1319.26 827.294 2799
-1312.57 827.294 2799
-1308.21 828.772 2804
-1305.68 831.432 2813
-1298.95 831.432 2813
-1294.52 832.91 2818
-1287.79 832.91 2818
-1281.05 832.91 2818
-1263.46 825.816 2794
-1254.97 824.634 2790
-1236.65 830.249 2809
-1229.94 830.249 2809
-1224.96 831.432 2813
-1218.23 831.432 2813
-1211.51 831.432 2813
-1204.78 831.432 2813
-1198.05 831.432 2813
-1187.51 828.772 2804
-1178.7 827.294 2799
-1179.97 832.91 2818
-1177.39 835.865 2828
-1170.63 835.865 2828
-1171.69 841.481 2847
-1176.74 850.052 2876
-1169.87 850.052 2876
-1162.99 850.052 2876
-1178.62 866.604 2932
-1175.61 869.56 2942
-1168.57 869.56 2942
-1161.54 869.56 2942
-1232.98 928.673 3142
-1234.83 935.767 3166
-1227.26 935.767 3166
-1219.69 935.767 3166
-1212.12 935.767 3166
-1204.55 935.767 3166
-1196.98 935.767 3166
-1182.64 930.447 3148
-1175.12 930.447 3148
-1172.04 933.994 3160
-1164.48 933.994 3160
-1156.93 933.994 3160
-1145.01 930.447 3148
-1137.48 930.447 3148
-1129.95 930.447 3148
-1122.42 930.447 3148
-1121.27 935.767 3166
-1113.7 935.767 3166
-1106.13 935.767 3166
-1098.56 935.767 3166
-1086.85 932.22 3154
-1079.31 932.22 3154
-1088.08 946.407 3202
-1080.42 946.407 3202
-1072.76 946.407 3202
-1065.11 946.407 3202
-1061.41 949.954 3214
-1053.73 949.954 3214
-1046.04 949.954 3214
-1034.48 946.407 3202
-1026.82 946.407 3202
-949.777 881.974 2984
-848.443 961.186 3252
-840.666 961.186 3252
-832.89 961.186 3252
-825.113 961.186 3252
-817.336 961.186 3252
-715.143 939.314 3178
-707.543 939.314 3178
-699.944 939.314 3178
-688.423 933.994 3160
-676.988 928.673 3142
-666.917 925.127 3130
-659.433 925.127 3130
-649.448 921.58 3118
-640.757 919.806 3112
-632.298 918.329 3107
-624.868 918.329 3107
-617.438 918.329 3107
-612.168 921.58 3118
-605.875 923.353 3124
-599.554 925.127 3130
-592.07 925.127 3130
-585.705 926.9 3136
-578.206 926.9 3136
-570.707 926.9 3136
-563.208 926.9 3136
-552.519 921.58 3118
-544.014 919.806 3112
-536.573 919.806 3112
-528.281 918.329 3107
-518.839 914.782 3095
-509.62 911.531 3084
-502.246 911.531 3084
-251.503 911.531 3084
-244.128 911.531 3084
-236.754 911.531 3084
-229.379 911.531 3084
-222.004 911.531 3084
-129.916 666.209 2254
-124.526 666.209 2254
-119.506 668.278 2261
-114.402 670.052 2267
-109.125 670.938 2270
-103.697 670.938 2270
-98.2686 670.938 2270
-93.0857 672.712 2276
-87.6431 672.712 2276
-82.2005 672.712 2276
-76.8591 673.599 2279
-71.5973 675.372 2285
-66.22 676.259 2288
-60.8549 677.441 2292
-55.374 677.441 2292
-49.8931 677.441 2292
-44.3348 676.259 2288
-38.8635 676.259 2288
-33.3922 676.259 2288
-27.8843 675.372 2285
-22.4201 675.372 2285
-16.956 675.372 2285
-11.4919 675.372 2285
-6.02775 675.372 2285
-0.563622 675.372 2285
4.90051 675.372 2285
10.3646 675.372 2285
15.8495 676.259 2288
21.442 680.101 2301
26.9795 680.988 2304
32.4891 680.988 2304
38.1141 683.057 2311
43.8103 685.717 2320
49.3582 685.717 2320
54.906 685.717 2320
60.4538 685.717 2320
66.0016 685.717 2320
71.5494 685.717 2320
77.0973 685.717 2320
82.6451 685.717 2320
88.459 687.786 2327
94.1448 688.673 2330
99.7165 688.673 2330
105.288 688.673 2330
111.003 689.559 2333
116.582 689.559 2333
122.161 689.559 2333
127.575 688.673 2330
133.147 688.673 2330
138.302 686.604 2323
143.857 686.604 2323
149.412 686.604 2323
154.967 686.604 2323
160.522 686.604 2323
166.077 686.604 2323
171.632 686.604 2323
177.187 686.604 2323
182.742 686.604 2323
188.297 686.604 2323
193.101 683.943 2314
488.532 930.447 3148
496.06 930.447 3148
506.467 935.767 3166
517.935 942.861 3190
527.54 946.407 3202
535.197 946.407 3202
542.854 946.407 3202
550.511 946.407 3202
558.168 946.407 3202
565.825 946.407 3202
572.407 944.634 3196
580.05 944.634 3196
597.99 961.186 3252
605.766 961.186 3252
613.543 961.186 3252
624.949 966.802 3271
632.771 966.802 3271
640.593 966.802 3271
648.415 966.802 3271
656.237 966.802 3271
664.059 966.802 3271
666.746 959.412 3246
673.054 957.344 3239
852.314 949.954 3214
860 949.954 3214
867.685 949.954 3214
870.469 944.634 3196
878.111 944.634 3196
879.102 937.54 3172
885.01 935.767 3166
890.89 933.994 3160
901.858 937.54 3172
909.443 937.54 3172
918.763 939.314 3178
928.112 941.087 3184
935.725 941.087 3184
943.339 941.087 3184
950.953 941.087 3184
960.374 942.861 3190
968.002 942.861 3190
975.63 942.861 3190
981.409 941.087 3184
985.295 937.54 3172
994.759 939.314 3178
1009.93 946.407 3202
1017.58 946.407 3202
1029.08 949.954 3214
1040.96 953.797 3227
1069.15 972.417 3290
1077.02 972.417 3290
1093.79 980.398 3317
1110.36 988.083 3343
1118.35 988.083 3343
1126.35 988.083 3343
1134.34 988.083 3343
1142.34 988.083 3343
1150.33 988.083 3343
1146.89 978.329 3310
1150.27 974.486 3297
1151.48 968.871 3278
1159.32 968.871 3278
1155.76 959.412 3246
1161.02 957.344 3239
1171.29 959.412 3246
1181.23 961.186 3252
1189.01 961.186 3252
1196.78 961.186 3252
1204.56 961.186 3252
1212.33 961.186 3252
1220.11 961.186 3252
1276.9 968.871 3278
1300.02 980.398 3317
1320.97 990.151 3350
1328.98 990.151 3350
1342.18 993.994 3363
1350.22 993.994 3363
1358.26 993.994 3363
1363.86 992.22 3357
1371.89 992.22 3357
1371.7 986.309 3337
1379.68 986.309 3337
1384.75 984.24 3330
1381.42 976.26 3303
1389.32 976.26 3303
1397.22 976.26 3303
1405.11 976.26 3303
1410.45 974.486 3297
1415.32 972.417 3290
1412.37 965.028 3265
1420.18 965.028 3265
1422.3 961.186 3252
1427.44 959.412 3246
1435.2 959.412 3246
1442.96 959.412 3246
1450.73 959.412 3246
1455.34 957.344 3239
1460.38 955.57 3233
1468.11 955.57 3233
1473.1 953.797 3227
1480.82 953.797 3227
1488.53 953.797 3227
1496.25 953.797 3227
1506.76 955.57 3233
1514.49 955.57 3233
1522.23 955.57 3233
1529.96 955.57 3233
1537.69 955.57 3233
1545.42 955.57 3233
1553.15 955.57 3233
1560.88 955.57 3233
1571.52 957.344 3239
1579.27 957.344 3239
1587.01 957.344 3239
1591.81 955.57 3233
1599.54 955.57 3233
1601.3 952.023 3221
1602.51 948.181 3208
1601.15 942.861 3190
1608.78 942.861 3190
1610.32 939.314 3178
1614.87 937.54 3172
1616.32 933.994 3160
1620.79 932.22 3154
1628.33 932.22 3154
1626.54 926.9 3136
1624.66 921.58 3118
1623.21 916.555 3101
1630.63 916.555 3101
1638.05 916.555 3101
1630.07 907.984 3072
1628.36 902.959 3055
1635.66 902.959 3055
1622.53 891.727 3017
1609.22 880.496 2979
1616.34 880.496 2979
1626.19 881.974 2984
1633.33 881.974 2984
1640.46 881.974 2984
1636 875.767 2963
1634.22 871.038 2947
1644.61 872.811 2953
1651.67 872.811 2953
1667.15 877.245 2968
1674.25 877.245 2968
1681.35 877.245 2968
1688.45 877.245 2968
1689.83 874.289 2958
1715.26 883.747 2990
1722.41 883.747 2990
1729.56 883.747 2990
1935.48 965.028 3265
1946.86 966.802 3271
1954.68 966.802 3271
1962.5 966.802 3271
1974.54 968.871 3278
1993.87 974.486 3297
2001.75 974.486 3297
2009.64 974.486 3297
2017.52 974.486 3297
1989.78 957.344 3239
1997.52 957.344 3239
2005.27 957.344 3239
1916.68 911.531 3084
2001.42 948.181 3208
2009.09 948.181 3208
2016.76 948.181 3208
2024.43 948.181 3208
1850.94 863.649 2922
2015.57 899.708 3044
2022.85 899.708 3044
2030.13 899.708 3044
2048.78 904.732 3061
2056.1 904.732 3061
2086.34 914.782 3095
2117.42 925.127 3130
2128.98 926.9 3136
2136.48 926.9 3136
2143.98 926.9 3136
2151.48 926.9 3136
2158.97 926.9 3136
2154.04 921.58 3118
2165.65 923.353 3124
2181.47 926.9 3136
2193.16 928.673 3142
2200.67 928.673 3142
2212.4 930.447 3148
2219.93 930.447 3148
2227.46 930.447 3148
2230.73 928.673 3142
2246.79 932.22 3154
2254.33 932.22 3154
2261.87 932.22 3154
2256.46 926.9 3136
2255.3 923.353 3124
2250.46 918.329 3107
2249.17 914.782 3095
2265.32 918.329 3107
2272.75 918.329 3107
2288.25 921.58 3118
2300.12 923.353 3124
2307.59 923.353 3124
2315.06 923.353 3124
2322.53 923.353 3124
2330 923.353 3124
2337.47 923.353 3124
2344.94 923.353 3124
2356.93 925.127 3130
2368.95 926.9 3136
2385.54 930.447 3148
2393.07 930.447 3148
2400.6 930.447 3148
2389.77 923.353 3124
-2199.05 907 3044
-2191.77 907 3044
-2184.49 907 3044
-2173.63 905.51 3039
-2174.21 908.788 3050
-2194.62 920.408 3089
-2195.73 923.984 3101
-2188.32 923.984 3101
-2180.9 923.984 3101
-2059.62 998.176 3350
-2051.61 998.176 3350
-2043.6 998.176 3350
-2035.59 998.176 3350
-2031.81 1000.26 3357
-2023.78 1000.26 3357
-2015.76 1000.26 3357
-2007.73 1000.26 3357
-1999.7 1000.26 3357
-1991.67 1000.26 3357
-1975.37 996.091 3343
-1959.73 992.217 3330
-1955.87 994.303 3337
-1959.56 1000.26 3357
-1951.54 1000.26 3357
-1943.51 1000.26 3357
-1935.48 1000.26 3357
-1927.45 1000.26 3357
-1892.55 986.258 3310
-1880.65 984.172 3303
-1851.21 972.85 3265
-1843.4 972.85 3265
-1810.86 959.739 3221
-1785.8 950.502 3190
-1306 829.827 2785
-1314.74 839.66 2818
-1316.82 845.321 2837
-1310.04 845.321 2837
-1303.25 845.321 2837
-1296.47 845.321 2837
-1289.68 845.321 2837
-1265.72 833.999 2799
-1246.43 825.656 2771
-1240.61 839.66 2818
-1233.88 839.66 2818
-1233.23 843.832 2832
-1226.46 843.832 2832
-1219.69 843.832 2832
-1215.06 845.321 2837
-1208.27 845.321 2837
-1201.49 845.321 2837
-1192.6 843.832 2832
-1185.83 843.832 2832
-1189.46 851.281 2857
-1182.63 851.281 2857
-1175.8 851.281 2857
-1168.97 851.281 2857
-1162.14 851.281 2857
-1173.61 875.118 2937
-1168.57 876.607 2942
-1161.54 876.607 2942
-1225.92 930.837 3124
-1225.47 936.2 3142
-1220.28 937.988 3148
-1212.76 937.988 3148
-1205.23 937.988 3148
-1195.42 936.2 3142
-1187.9 936.2 3142
-1175.88 932.625 3130
-1168.4 932.625 3130
-1165.36 936.2 3142
-1157.85 936.2 3142
-1150.34 936.2 3142
-1142.82 936.2 3142
-1130.97 932.625 3130
-1127.8 936.2 3142
-1120.28 936.2 3142
-1114.89 937.988 3148
-1107.37 937.988 3148
-1099.84 937.988 3148
-1092.31 937.988 3148
-1076.51 930.837 3124
-1064.94 927.261 3112
-1057.49 927.261 3112
-1048.37 925.771 3107
-1018.15 905.51 3039
-999.909 895.677 3006
-992.721 895.677 3006
-985.533 895.677 3006
-978.344 895.677 3006
-964.049 889.122 2984
-956.913 889.122 2984
-949.777 889.122 2984
-934.428 881.375 2958
-848.443 968.976 3252
-840.666 968.976 3252
-832.89 968.976 3252
-825.113 968.976 3252
-817.336 968.976 3252
-715.143 946.927 3178
-707.543 946.927 3178
-699.944 946.927 3178
-688.423 941.563 3160
-676.988 936.2 3142
-666.917 932.625 3130
-659.433 932.625 3130
-649.448 929.049 3118
-640.757 927.261 3112
-632.298 925.771 3107
-624.868 925.771 3107
-617.438 925.771 3107
-612.168 929.049 3118
-605.875 930.837 3124
-599.554 932.625 3130
-592.07 932.625 3130
-585.705 934.412 3136
-578.206 934.412 3136
-570.707 934.412 3136
-562.13 932.625 3130
-552.519 929.049 3118
-543.14 925.771 3107
-535.71 925.771 3107
-526.24 922.196 3095
-516.995 918.918 3084
-509.62 918.918 3084
-502.246 918.918 3084
-251.503 918.918 3084
-244.128 918.918 3084
-236.754 918.918 3084
-229.379 918.918 3084
-222.004 918.918 3084
-129.916 671.609 2254
-124.526 671.609 2254
-119.506 673.695 2261
-114.402 675.482 2267
-109.125 676.376 2270
-103.697 676.376 2270
-98.2686 676.376 2270
-93.0857 678.164 2276
-87.6431 678.164 2276
-82.2005 678.164 2276
-76.8591 679.058 2279
-71.5973 680.846 2285
-66.22 681.74 2288
-60.8549 682.931 2292
-55.374 682.931 2292
-49.8931 682.931 2292
-44.3348 681.74 2288
-38.8635 681.74 2288
-33.3922 681.74 2288
-27.8843 680.846 2285
-22.4201 680.846 2285
-16.956 680.846 2285
-11.4919 680.846 2285
-6.02775 680.846 2285
-0.563622 680.846 2285
4.90051 680.846 2285
10.3646 680.846 2285
15.8495 681.74 2288
21.442 685.613 2301
26.9795 686.507 2304
32.4891 686.507 2304
38.1141 688.593 2311
43.8103 691.274 2320
49.3582 691.274 2320
54.906 691.274 2320
60.4538 691.274 2320
66.0016 691.274 2320
71.5494 691.274 2320
77.0973 691.274 2320
82.6451 691.274 2320
88.459 693.36 2327
94.1448 694.254 2330
99.7165 694.254 2330
105.288 694.254 2330
111.003 695.148 2333
116.582 695.148 2333
122.161 695.148 2333
127.575 694.254 2330
133.147 694.254 2330
138.302 692.168 2323
143.857 692.168 2323
149.412 692.168 2323
154.967 692.168 2323
160.522 692.168 2323
166.077 692.168 2323
171.632 692.168 2323
177.187 692.168 2323
182.742 692.168 2323
188.297 692.168 2323
193.101 689.487 2314
491.325 943.351 3166
498.896 943.351 3166
506.467 943.351 3166
517.935 950.502 3190
528.528 955.866 3208
536.2 955.866 3208
544.888 957.654 3214
552.574 957.654 3214
560.26 957.654 3214
565.825 954.078 3202
572.407 952.29 3196
580.05 952.29 3196
597.99 968.976 3252
605.766 968.976 3252
615.995 972.85 3265
626.287 976.723 3278
634.125 976.723 3278
641.964 976.723 3278
649.803 976.723 3278
657.642 976.723 3278
665.48 976.723 3278
669.211 970.764 3258
673.054 965.103 3239
852.314 957.654 3214
860 957.654 3214
867.685 957.654 3214
873.737 955.866 3208
881.408 955.866 3208
879.102 945.139 3172
885.01 943.351 3166
890.89 941.563 3160
901.858 945.139 3172
909.443 945.139 3172
918.763 946.927 3178
928.112 948.715 3184
935.725 948.715 3184
943.339 948.715 3184
950.953 948.715 3184
960.374 950.502 3190
968.002 950.502 3190
975.63 950.502 3190
981.409 948.715 3184
985.295 945.139 3172
994.759 946.927 3178
1009.93 954.078 3202
1017.58 954.078 3202
1029.08 957.654 3214
1040.96 961.527 3227
1069.15 980.299 3290
1077.02 980.299 3290
1093.79 988.344 3317
1110.36 996.091 3343
1118.35 996.091 3343
1126.35 996.091 3343
1134.34 996.091 3343
1142.34 996.091 3343
1150.33 996.091 3343
1146.89 986.258 3310
1150.27 982.384 3297
1151.48 976.723 3278
1159.32 976.723 3278
1155.76 967.188 3246
1161.02 965.103 3239
1171.29 967.188 3246
1181.23 968.976 3252
1189.01 968.976 3252
1196.78 968.976 3252
1204.56 968.976 3252
1212.33 968.976 3252
1220.11 968.976 3252
1276.9 976.723 3278
1300.02 988.344 3317
1320.97 998.176 3350
1328.98 998.176 3350
1342.18 1002.05 3363
1350.22 1002.05 3363
1358.26 1002.05 3363
1363.86 1000.26 3357
1371.89 1000.26 3357
1371.7 994.303 3337
1379.68 994.303 3337
1384.75 992.217 3330
1381.42 984.172 3303
1389.32 984.172 3303
1397.22 984.172 3303
1405.11 984.172 3303
1410.45 982.384 3297
1415.32 980.299 3290
1412.37 972.85 3265
1420.18 972.85 3265
1422.3 968.976 3252
1427.44 967.188 3246
1435.2 967.188 3246
1442.96 967.188 3246
1450.73 967.188 3246
1455.34 965.103 3239
1460.38 963.315 3233
1468.11 963.315 3233
1473.1 961.527 3227
1480.82 961.527 3227
1488.53 961.527 3227
1496.25 961.527 3227
1506.76 963.315 3233
1514.49 963.315 3233
1522.23 963.315 3233
1529.96 963.315 3233
1537.69 963.315 3233
1545.42 963.315 3233
1553.15 963.315 3233
1560.88 963.315 3233
1571.52 965.103 3239
1579.27 965.103 3239
1587.01 965.103 3239
1591.81 963.315 3233
1599.54 963.315 3233
1601.3 959.739 3221
1602.51 955.866 3208
1601.15 950.502 3190
1608.78 950.502 3190
1616.4 950.502 3190
1614.87 945.139 3172
1622.45 945.139 3172
1630.04 945.139 3172
1637.62 945.139 3172
1626.54 934.412 3136
1634.04 934.412 3136
1638.39 932.625 3130
1645.88 932.625 3130
1653.36 932.625 3130
1654.48 929.049 3118
1643.81 918.918 3084
1651.19 918.918 3084
1646.2 912.065 3061
1635.69 902.232 3028
1642.93 902.232 3028
1650.17 902.232 3028
1657.41 902.232 3028
1664.65 902.232 3028
1659.75 895.677 3006
1663.61 893.889 3000
1670.78 893.889 3000
1675.16 892.4 2995
1682.32 892.4 2995
1689.48 892.4 2995
1696.64 892.4 2995
1700.96 890.91 2990
1708.11 890.91 2990
1715.26 890.91 2990
1722.41 890.91 2990
1729.56 890.91 2990
1920.07 965.103 3239
1927.81 965.103 3239
1935.56 965.103 3239
1943.3 965.103 3239
1958.88 968.976 3252
1966.66 968.976 3252
1974.43 968.976 3252
1901.93 918.918 3084
1909.31 918.918 3084
1916.68 918.918 3084
1924.06 918.918 3084
1931.43 918.918 3084
1931.26 915.343 3072
1920.94 907 3044
1850.94 870.648 2922
1810.24 848.301 2847
1817.04 848.301 2847
1823.85 848.301 2847
2015.57 907 3044
2022.85 907 3044
2030.13 907 3044
2037.4 907 3044
2044.68 907 3044
2048.59 905.51 3039
2124.15 925.771 3107
2131.58 925.771 3107
2139.01 925.771 3107
2146.44 925.771 3107
2157.34 927.261 3112
2173.12 930.837 3124
2184.78 932.625 3130
2192.27 932.625 3130
2199.75 932.625 3130
2207.24 932.625 3130
2214.72 932.625 3130
2209.43 927.261 3112
2225.42 930.837 3124
2232.89 930.837 3124
2240.36 930.837 3124
2247.83 930.837 3124
2246.64 927.261 3112
2241.76 922.196 3095
2244.81 920.408 3089
2252.19 920.408 3089
2259.58 920.408 3089
2280.18 925.771 3107
2287.61 925.771 3107
2295.04 925.771 3107
2302.47 925.771 3107
2309.89 925.771 3107
2312.85 923.984 3101
2320.26 923.984 3101
2327.68 923.984 3101
2326.06 920.408 3089
2342.51 923.984 3101
2367.36 930.837 3124
2374.83 930.837 3124
2382.3 930.837 3124
2372.17 923.984 3101
-2269.89 931.412 3101
-2262.47 931.412 3101
-2255.06 931.412 3101
-2247.64 931.412 3101
-2240.23 931.412 3101
-2191.77 914.292 3044
-2184.49 914.292 3044
-2173.63 912.79 3039
-2174.21 916.094 3050
-2194.62 927.808 3089
-2195.73 931.412 3101
-2188.32 931.412 3101
-2180.9 931.412 3101
-2055.31 1004.1 3343
-2047.32 1004.1 3343
-2039.33 1004.1 3343
-2023.43 1000.19 3330
-2019.71 1002.3 3337
-2019.56 1006.2 3350
-2011.55 1006.2 3350
-2007.73 1008.3 3357
-1999.7 1008.3 3357
-1991.67 1008.3 3357
-1979.51 1006.2 3350
-1943.84 992.085 3303
-1963.49 1006.2 3350
-1975.32 1016.41 3384
-1967.23 1016.41 3384
-1959.14 1016.41 3384
-1951.05 1016.41 3384
-1942.96 1016.41 3384
-1911.42 1004.1 3343
-1892.04 998.092 3323
-1851.21 980.671 3265
-1843.4 980.671 3265
-1810.86 967.455 3221
-1782.44 956.342 3184
-1741.38 938.32 3124
-1314.74 846.411 2818
-1339.56 866.835 2886
-1332.66 866.835 2886
-1325.76 866.835 2886
-1318.86 866.835 2886
-1311.96 866.835 2886
-1265.72 840.704 2799
-1251.18 853.619 2842
-1244.38 853.619 2842
-1241.94 856.623 2852
-1235.12 856.623 2852
-1232.61 859.626 2862
-1225.77 859.626 2862
-1218.92 859.626 2862
-1212.08 859.626 2862
-1196.81 853.619 2842
-1196.3 858.125 2857
-1191.55 859.626 2862
-1184.7 859.626 2862
-1177.86 859.626 2862
-1171.01 859.626 2862
-1164.17 859.626 2862
-1157.33 859.626 2862
-1160.13 866.835 2886
-1173.61 882.153 2937
-1168.57 883.655 2942
-1161.54 883.655 2942
-1210.22 926.306 3084
-1218.45 938.32 3124
-1210.98 938.32 3124
-1203.51 938.32 3124
-1196.04 938.32 3124
-1182.1 933.214 3107
-1174.67 933.214 3107
-1164.99 931.412 3101
-1159.81 933.214 3107
-1152.38 933.214 3107
-1144.95 933.214 3107
-1137.52 933.214 3107
-1130.09 933.214 3107
-1118.33 929.61 3095
-1113.08 931.412 3101
-1105.66 931.412 3101
-1100.37 933.214 3107
-1092.94 933.214 3107
-1085.51 933.214 3107
-1078.08 933.214 3107
-1070.65 933.214 3107
-1049.54 921.2 3067
-1028.95 909.486 3028
-1021.71 909.486 3028
-992.691 889.963 2963
-975.294 880.651 2932
-969.934 882.153 2937
-962.911 882.153 2937
-955.887 882.153 2937
-955.649 888.461 2958
-948.575 888.461 2958
-941.502 888.461 2958
-934.428 888.461 2958
-923.906 885.157 2947
-848.443 976.766 3252
-840.666 976.766 3252
-832.89 976.766 3252
-825.113 976.766 3252
-817.336 976.766 3252
-715.143 954.54 3178
-707.543 954.54 3178
-699.944 954.54 3178
-688.423 949.133 3160
-676.988 943.727 3142
-666.917 940.122 3130
-659.433 940.122 3130
-649.448 936.518 3118
-640.757 934.716 3112
-632.298 933.214 3107
-624.868 933.214 3107
-617.438 933.214 3107
-610.008 933.214 3107
-604.712 936.518 3118
-598.405 938.32 3124
-590.935 938.32 3124
-583.464 938.32 3124
-575.994 938.32 3124
-568.523 938.32 3124
-561.053 938.32 3124
-551.456 934.716 3112
-541.042 929.61 3095
-533.641 929.61 3095
-524.37 926.306 3084
-514.145 921.2 3067
-508.629 924.504 3078
-501.269 924.504 3078
-493.908 924.504 3078
-325.251 926.306 3084
-317.876 926.306 3084
-310.501 926.306 3084
-303.127 926.306 3084
-295.176 924.504 3078
-287.816 924.504 3078
-258.878 926.306 3084
-251.503 926.306 3084
-244.128 926.306 3084
-236.754 926.306 3084
-229.379 926.306 3084
-222.004 926.306 3084
-212.263 916.094 3050
-204.97 916.094 3050
-197.676 916.094 3050
-190.383 916.094 3050
-119.506 679.111 2261
-114.251 680.012 2264
-109.125 681.814 2270
-103.697 681.814 2270
-98.2686 681.814 2270
-93.0857 683.616 2276
-87.6431 683.616 2276
-82.2005 683.616 2276
-76.8591 684.517 2279
-71.5973 686.319 2285
-66.22 687.221 2288
-60.8549 688.422 2292
-55.374 688.422 2292
-49.8931 688.422 2292
-44.4123 688.422 2292
-38.9314 688.422 2292
-33.3922 687.221 2288
-27.9209 687.221 2288
-22.4496 687.221 2288
-16.9783 687.221 2288
-11.507 687.221 2288
-6.02775 686.319 2285
-0.563622 686.319 2285
4.90051 686.319 2285
10.3646 686.319 2285
15.8495 687.221 2288
21.442 691.125 2301
26.9795 692.026 2304
32.4891 692.026 2304
38.1141 694.129 2311
43.8103 696.832 2320
49.422 697.733 2323
54.977 697.733 2323
60.532 697.733 2323
66.087 697.733 2323
71.642 697.733 2323
77.0973 696.832 2320
82.8945 698.935 2327
88.459 698.935 2327
94.266 700.737 2333
99.8449 700.737 2333
105.424 700.737 2333
111.003 700.737 2333
116.582 700.737 2333
122.161 700.737 2333
127.575 699.836 2330
133.147 699.836 2330
138.302 697.733 2323
143.857 697.733 2323
149.412 697.733 2323
154.967 697.733 2323
160.798 698.935 2327
166.363 698.935 2327
171.927 698.935 2327
177.187 697.733 2323
182.742 697.733 2323
188.297 697.733 2323
193.101 695.03 2314
491.325 950.935 3166
498.896 950.935 3166
506.467 950.935 3166
517.935 958.144 3190
528.528 963.55 3208
536.2 963.55 3208
544.888 965.353 3214
552.574 965.353 3214
560.26 965.353 3214
565.825 961.748 3202
571.332 958.144 3190
580.05 959.946 3196
597.99 976.766 3252
605.766 976.766 3252
615.995 980.671 3265
626.287 984.576 3278
634.125 984.576 3278
641.964 984.576 3278
649.803 984.576 3278
657.642 984.576 3278
665.48 984.576 3278
669.211 978.568 3258
673.054 972.862 3239
852.314 965.353 3214
860 965.353 3214
867.685 965.353 3214
873.737 963.55 3208
881.408 963.55 3208
879.102 952.738 3172
885.01 950.935 3166
890.89 949.133 3160
901.858 952.738 3172
909.443 952.738 3172
918.763 954.54 3178
926.363 954.54 3178
935.725 956.342 3184
943.339 956.342 3184
950.953 956.342 3184
960.374 958.144 3190
968.002 958.144 3190
975.63 958.144 3190
981.409 956.342 3184
985.295 952.738 3172
994.759 954.54 3178
1008.04 959.946 3196
1015.68 959.946 3196
1025.24 961.748 3202
1039.03 967.455 3221
1058.75 978.568 3258
1066.54 978.568 3258
1084.89 988.18 3290
1099.4 994.187 3310
1107.31 994.187 3310
1115.23 994.187 3310
1123.14 994.187 3310
1124.22 988.18 3290
1132.09 988.18 3290
1137.88 986.378 3284
1136.66 978.568 3258
1140.24 974.964 3246
1148 974.964 3246
1144.37 965.353 3214
1152.05 965.353 3214
1166.6 971.059 3233
1176.51 972.862 3239
1186.81 974.964 3246
1194.57 974.964 3246
1202.34 974.964 3246
1271.83 980.671 3265
1284.74 984.576 3278
1307.95 996.29 3317
1315.89 996.29 3317
1331.8 1002.3 3337
1339.78 1002.3 3337
1347.76 1002.3 3337
1355.74 1002.3 3337
1360.86 1000.19 3330
1357.72 992.085 3303
1365.62 992.085 3303
1373.52 992.085 3303
1375.98 988.18 3290
1383.85 988.18 3290
1391.72 988.18 3290
1399.58 988.18 3290
1407.45 988.18 3290
1404.56 980.671 3265
1406.75 976.766 3252
1414.52 976.766 3252
1419.68 974.964 3246
1424.36 972.862 3239
1432.11 972.862 3239
1439.85 972.862 3239
1447.6 972.862 3239
1452.65 971.059 3233
1457.67 969.257 3227
1465.38 969.257 3227
1470.36 967.455 3221
1478.06 967.455 3221
1482.54 965.353 3214
1490.22 965.353 3214
1501.17 967.455 3221
1508.87 967.455 3221
1516.58 967.455 3221
1524.28 967.455 3221
1531.98 967.455 3221
1536.34 965.353 3214
1547.39 967.455 3221
1557.98 969.257 3227
1571.52 972.862 3239
1579.27 972.862 3239
1587.01 972.862 3239
1591.81 971.059 3233
1599.54 971.059 3233
1597.82 965.353 3214
1602.51 963.55 3208
1607.17 961.748 3202
1614.83 961.748 3202
1622.48 961.748 3202
1630.14 961.748 3202
1634.73 959.946 3196
1630.04 952.738 3172
1637.62 952.738 3172
1626.54 941.925 3136
1649.67 950.935 3166
1657.24 950.935 3166
1664.81 950.935 3166
1669.21 949.133 3160
1660.85 940.122 3130
1665.14 938.32 3124
1672.61 938.32 3124
1676.85 936.518 3118
1671.88 929.61 3095
1676.03 927.808 3089
1683.41 927.808 3089
1690.8 927.808 3089
1695.44 926.306 3084
1699.5 924.504 3078
1679.13 909.486 3028
1686.37 909.486 3028
1681.31 902.878 3006
1694.68 906.182 3017
1701.89 906.182 3017
1709.11 906.182 3017
1716.32 906.182 3017
1723.54 906.182 3017
1730.75 906.182 3017
1737.97 906.182 3017
1745.18 906.182 3017
1920.07 972.862 3239
1927.81 972.862 3239
1935.56 972.862 3239
1943.3 972.862 3239
1958.88 976.766 3252
1966.66 976.766 3252
1974.43 976.766 3252
1901.93 926.306 3084
1909.31 926.306 3084
1916.68 926.306 3084
1924.06 926.306 3084
1931.43 926.306 3084
1931.26 922.702 3072
1920.94 914.292 3044
1850.94 877.648 2922
1819.77 859.626 2862
1826.62 859.626 2862
1823.85 855.121 2847
2015.57 914.292 3044
2022.85 914.292 3044
2030.13 914.292 3044
2037.4 914.292 3044
2044.68 914.292 3044
2048.59 912.79 3039
2124.15 933.214 3107
2131.58 933.214 3107
2139.01 933.214 3107
2146.44 933.214 3107
2157.34 934.716 3112
2173.12 938.32 3124
2184.78 940.122 3130
2192.27 940.122 3130
2199.75 940.122 3130
2207.24 940.122 3130
2214.72 940.122 3130
2209.43 934.716 3112
2225.42 938.32 3124
2232.89 938.32 3124
2240.36 938.32 3124
2247.83 938.32 3124
2246.64 934.716 3112
2241.76 929.61 3095
2244.81 927.808 3089
2252.19 927.808 3089
2259.58 927.808 3089
2280.18 933.214 3107
2287.61 933.214 3107
2295.04 933.214 3107
2302.47 933.214 3107
2309.89 933.214 3107
2312.85 931.412 3101
2320.26 931.412 3101
2327.68 931.412 3101
2326.06 927.808 3089
2342.51 931.412 3101
2367.36 938.32 3124
2374.83 938.32 3124
2382.3 938.32 3124
2372.17 931.412 3101
-2269.89 938.841 3101
-2262.47 938.841 3101
-2255.06 938.841 3101
-2247.64 938.841 3101
-2240.23 938.841 3101
-2191.77 921.584 3044
-2184.49 921.584 3044
-2161.47 914.923 3022
-2150.68 913.409 3017
-2166.91 923.4 3050
-2187.24 935.208 3089
-2179.85 935.208 3089
-2172.46 935.208 3089
-2055.31 1012.11 3343
-2047.32 1012.11 3343
-2039.33 1012.11 3343
-2023.43 1008.17 3330
-2019.71 1010.29 3337
-2019.56 1014.23 3350
-2011.55 1014.23 3350
-2007.73 1016.35 3357
-1999.7 1016.35 3357
-1991.67 1016.35 3357
-1979.51 1014.23 3350
-1943.84 999.997 3303
-1963.49 1014.23 3350
-1975.32 1024.52 3384
-1967.23 1024.52 3384
-1959.14 1024.52 3384
-1951.05 1024.52 3384
-1942.96 1024.52 3384
-1911.42 1012.11 3343
-1892.04 1006.05 3323
-1851.21 988.492 3265
-1843.4 988.492 3265
-1810.86 975.171 3221
-1782.44 963.969 3184
-1741.38 945.804 3124
-1705.05 930.061 3072
-1697.7 930.061 3072
-1363.26 884.648 2922
-1358.59 886.161 2927
-1351.6 886.161 2927
-1356.54 894.033 2953
-1349.48 894.033 2953
-1342.42 894.033 2953
-1335.36 894.033 2953
-1267 861.941 2847
-1260.19 861.941 2847
-1255.58 863.455 2852
-1248.76 863.455 2852
-1246.3 866.482 2862
-1239.45 866.482 2862
-1242.95 873.748 2886
-1236.04 873.748 2886
-1229.14 873.748 2886
-1222.24 873.748 2886
-1205.23 866.482 2862
-1198.39 866.482 2862
-1191.55 866.482 2862
-1184.7 866.482 2862
-1177.86 866.482 2862
-1171.01 866.482 2862
-1164.17 866.482 2862
-1157.33 866.482 2862
-1160.13 873.748 2886
-1173.61 889.189 2937
-1168.57 890.703 2942
-1161.54 890.703 2942
-1210.22 933.694 3084
-1218.45 945.804 3124
-1210.98 945.804 3124
-1203.51 945.804 3124
-1196.04 945.804 3124
-1182.1 940.657 3107
-1174.67 940.657 3107
-1164.99 938.841 3101
-1159.81 940.657 3107
-1152.38 940.657 3107
-1144.95 940.657 3107
-1137.52 940.657 3107
-1130.09 940.657 3107
-1118.33 937.024 3095
-1113.08 938.841 3101
-1105.66 938.841 3101
-1100.37 940.657 3107
-1092.94 940.657 3107
-1085.51 940.657 3107
-1078.08 940.657 3107
-1070.65 940.657 3107
-1049.54 928.547 3067
-1028.95 916.74 3028
-1021.71 916.74 3028
-992.691 897.061 2963
-975.294 887.675 2932
-969.934 889.189 2937
-962.911 889.189 2937
-955.887 889.189 2937
-955.649 895.547 2958
-948.575 895.547 2958
-941.502 895.547 2958
-934.428 895.547 2958
-923.906 892.216 2947
-916.859 892.216 2947
-909.812 892.216 2947
-879.783 935.208 3089
-877.48 940.657 3107
-873.131 943.987 3118
-865.675 943.987 3118
-866.476 953.07 3148
-858.948 953.07 3148
-851.42 953.07 3148
-843.893 953.07 3148
-834.771 951.254 3142
-827.257 951.254 3142
-841.92 976.988 3227
-834.203 976.988 3227
-826.487 976.988 3227
-818.77 976.988 3227
-811.053 976.988 3227
-711.092 956.703 3160
-703.536 956.703 3160
-695.979 956.703 3160
-688.423 956.703 3160
-675.695 949.437 3136
-664.36 943.987 3118
-656.904 943.987 3118
-647.157 940.657 3107
-639.727 940.657 3107
-632.298 940.657 3107
-624.868 940.657 3107
-615.053 937.024 3095
-610.008 940.657 3107
-602.578 940.657 3107
-597.256 943.987 3118
-589.8 943.987 3118
-582.344 943.987 3118
-574.888 943.987 3118
-567.431 943.987 3118
-558 940.657 3107
-548.444 937.024 3095
-539.12 933.694 3084
-531.745 933.694 3084
-524.37 933.694 3084
-513.14 926.73 3061
-508.629 931.877 3078
-502.246 933.694 3084
-495.673 935.208 3089
-488.286 935.208 3089
-480.9 935.208 3089
-457.344 947.62 3130
-449.859 947.62 3130
-442.374 947.62 3130
-434.889 947.62 3130
-426.585 945.804 3124
-347.939 935.208 3089
-340.552 935.208 3089
-333.165 935.208 3089
-325.251 933.694 3084
-317.876 933.694 3084
-310.501 933.694 3084
