ply
format ascii 1.0
comment File generated
element vertex 2259
property float x
property float y
property float z
end_header
-370.947 563.992 3774
-364.415 567.878 3800
-355.328 567.878 3800
-347.882 570.568 3818
-340.26 573.108 3835
-331.866 574.453 3844
-322.674 574.453 3844
-314.216 575.798 3853
-305.715 577.143 3862
-296.479 577.143 3862
-287.244 577.143 3862
-278.009 577.143 3862
-268.147 575.798 3853
-258.934 575.798 3853
-249.137 574.453 3844
-238.322 570.568 3818
-228.651 569.223 3809
-219.024 567.878 3800
-209.937 567.878 3800
-199.952 565.337 3783
-190.048 562.797 3766
-180.609 561.452 3757
-171.625 561.452 3757
-96.9266 334.6 2239
-91.5724 334.6 2239
-85.9873 333.703 2233
-80.6475 333.703 2233
-74.903 331.91 2221
-69.3413 330.714 2213
-63.6152 328.473 2198
-58.3591 328.473 2198
-52.958 327.576 2192
-47.7163 327.576 2192
-42.4746 327.576 2192
-37.2328 327.576 2192
-31.9473 327.128 2189
-26.7128 327.128 2189
-21.4291 326.38 2184
-16.2065 326.38 2184
-10.9387 325.035 2175
-5.71647 323.84 2167
-0.533776 323.392 2164
4.641 323.392 2164
9.77496 322.047 2155
14.8728 320.851 2147
19.9603 320.104 2142
25.0474 319.656 2139
30.1624 319.656 2139
35.2774 319.656 2139
40.3924 319.656 2139
45.4435 319.207 2136
50.5514 319.207 2136
55.6592 319.207 2136
60.767 319.207 2136
65.9674 319.656 2139
71.0824 319.656 2139
76.1973 319.656 2139
81.3123 319.656 2139
86.4273 319.656 2139
91.5423 319.656 2139
96.6573 319.656 2139
101.915 320.104 2142
107.137 320.403 2144
112.578 321.299 2150
117.72 321.299 2150
123.147 322.047 2155
128.657 322.943 2161
134.01 323.392 2164
139.185 323.392 2164
144.36 323.392 2164
149.535 323.392 2164
154.71 323.392 2164
313.249 595.076 3982
322.772 595.076 3982
332.294 595.076 3982
341.816 595.076 3982
351.338 595.076 3982
360.86 595.076 3982
370.382 595.076 3982
378.951 593.582 3972
388.449 593.582 3972
402.756 600.755 4020
413.395 602.25 4030
423.032 602.25 4030
432.669 602.25 4030
442.306 602.25 4030
451.943 602.25 4030
460.434 600.755 4020
468.878 599.261 4010
471.616 454.153 3039
478.884 454.153 3039
486.951 454.9 3044
494.23 454.9 3044
501.509 454.9 3044
506.949 453.256 3033
512.337 451.612 3022
519.564 451.612 3022
527.836 452.509 3028
535.077 452.509 3028
542.318 452.509 3028
547.562 450.865 3017
551.651 448.325 3000
558.825 448.325 3000
564.112 446.83 2990
569.161 445.186 2979
576.284 445.186 2979
585.562 446.83 2990
592.712 446.83 2990
599.862 446.83 2990
604.779 445.186 2979
611.903 445.186 2979
617.987 444.439 2974
625.099 444.439 2974
630.935 443.543 2968
638.033 443.543 2968
642.957 442.048 2958
647.613 440.404 2947
654.66 440.404 2947
661.707 440.404 2947
668.754 440.404 2947
675.801 440.404 2947
680.531 438.91 2937
687.555 438.91 2937
694.578 438.91 2937
701.601 438.91 2937
708.625 438.91 2937
714.429 438.163 2932
721.441 438.163 2932
728.452 438.163 2932
734.209 437.415 2927
741.208 437.415 2927
748.208 437.415 2927
753.917 436.668 2922
759.602 435.921 2917
765.001 435.024 2911
771.962 435.024 2911
778.923 435.024 2911
785.884 435.024 2911
794.48 435.921 2917
801.455 435.921 2917
809.816 436.668 2922
816.804 436.668 2922
823.791 436.668 2922
830.778 436.668 2922
837.766 436.668 2922
844.753 436.668 2922
851.741 436.668 2922
858.728 436.668 2922
865.715 436.668 2922
872.703 436.668 2922
879.69 436.668 2922
886.677 436.668 2922
893.665 436.668 2922
899.111 435.921 2917
921.928 443.543 2968
989.124 472.235 3160
996.681 472.235 3160
1004.24 472.235 3160
1007.95 470.442 3148
998.383 462.522 3095
1021.06 469.545 3142
1028.57 469.545 3142
1049.93 475.822 3184
1063.53 478.512 3202
1100.62 491.663 3290
1108.49 491.663 3290
1129.93 497.64 3330
1173.09 513.033 3433
1198.5 520.505 3483
1206.83 520.505 3483
1220.05 522.597 3497
1231.22 523.793 3505
1239.6 523.793 3505
1247.98 523.793 3505
1253.5 522.597 3497
1270.16 526.034 3520
1286.57 529.322 3542
1295.04 529.322 3542
1306.08 530.368 3549
1326.05 535.001 3580
1334.61 535.001 3580
1343.17 535.001 3580
1354.75 536.196 3588
1363.33 536.196 3588
1371.91 536.196 3588
1380.49 536.196 3588
1389.07 536.196 3588
1394.54 535.001 3580
1403.1 535.001 3580
1402.59 531.564 3557
1396.42 526.034 3520
1398.85 523.793 3505
1395.59 519.459 3476
1403.9 519.459 3476
1397.59 514.079 3440
1382.93 505.71 3384
1388.14 504.664 3377
1396.22 504.664 3377
1387.66 498.687 3337
1389.78 496.594 3323
1392.26 494.652 3310
1400.18 494.652 3310
1402.56 492.709 3297
1407.45 491.663 3290
1415.32 491.663 3290
1423.19 491.663 3290
1434.1 492.709 3297
1441.98 492.709 3297
1452.5 493.606 3303
1463.5 494.652 3310
1474.53 495.698 3317
1482.46 495.698 3317
1493.08 496.594 3323
1501.03 496.594 3323
1508.98 496.594 3323
1510.99 494.652 3310
1518.9 494.652 3310
1520.82 492.709 3297
1528.71 492.709 3297
1521.68 487.927 3265
1517.31 484.041 3239
1519.4 482.248 3227
1509.61 476.719 3190
1517.24 476.719 3190
1507.66 471.339 3154
1500.79 466.855 3124
1486.05 459.981 3078
1493.41 459.981 3078
1481.75 454.153 3039
1462.07 445.934 2984
1443.6 438.163 2932
1440.23 435.024 2911
1447.19 435.024 2911
1444.16 432.036 2891
1443.54 429.794 2876
1445.38 428.3 2866
1452.23 428.3 2866
1457.05 427.702 2862
1461.33 426.955 2857
1465.6 426.207 2852
1472.42 426.207 2852
1479.24 426.207 2852
1483.45 425.46 2847
1487.64 424.713 2842
1494.44 424.713 2842
1501.23 424.713 2842
1505.38 423.966 2837
1509.5 423.219 2832
1516.27 423.219 2832
1523.04 423.219 2832
1527.65 422.621 2828
1531.7 421.874 2823
1535.73 421.126 2818
1542.47 421.126 2818
1546.46 420.379 2813
1550.97 419.781 2809
1549.37 417.54 2794
1556.05 417.54 2794
1562.74 417.54 2794
1569.42 417.54 2794
1576.1 417.54 2794
1585.61 418.287 2799
1592.3 418.287 2799
1599 418.287 2799
1605.69 418.287 2799
1612.38 418.287 2799
1621.97 419.034 2804
1628.68 419.034 2804
1635.38 419.034 2804
1642.09 419.034 2804
1651.73 419.781 2809
1658.45 419.781 2809
1667.54 420.379 2813
1677.24 421.126 2818
1683.98 421.126 2818
1690.72 421.126 2818
1697.46 421.126 2818
1707.22 421.874 2823
1713.97 421.874 2823
1720.72 421.874 2823
1727.47 421.874 2823
1728.08 420.379 2813
1734.8 420.379 2813
1741.53 420.379 2813
1748.26 420.379 2813
1754.98 420.379 2813
1761.71 420.379 2813
1768.44 420.379 2813
1775.16 420.379 2813
1781.89 420.379 2813
1782.9 419.034 2804
1789.6 419.034 2804
1793.1 418.287 2799
1796.58 417.54 2794
1803.26 417.54 2794
1807.35 416.942 2790
1814.02 416.942 2790
1820.7 416.942 2790
1820.82 415.448 2780
1827.47 415.448 2780
1834.11 415.448 2780
1838.11 414.85 2776
1841.43 414.103 2771
1848.05 414.103 2771
1854.68 414.103 2771
1861.31 414.103 2771
1867.93 414.103 2771
1874.56 414.103 2771
1881.19 414.103 2771
1885.09 413.505 2767
1884.87 412.01 2757
1891.46 412.01 2757
1901.5 412.758 2762
1908.1 412.758 2762
1914.7 412.758 2762
1921.31 412.758 2762
1927.91 412.758 2762
1934.52 412.758 2762
1941.12 412.758 2762
1947.73 412.758 2762
1954.33 412.758 2762
1960.94 412.758 2762
1967.54 412.758 2762
1974.15 412.758 2762
1980.75 412.758 2762
1987.36 412.758 2762
1990.35 412.01 2757
1990.43 410.665 2748
1987.55 408.723 2735
1994.09 408.723 2735
2007.21 410.068 2744
2013.78 410.068 2744
2020.34 410.068 2744
2026.9 410.068 2744
2033.46 410.068 2744
2022.92 406.631 2721
2029.43 406.631 2721
2035.94 406.631 2721
2042.44 406.631 2721
2048.95 406.631 2721
2066.03 408.723 2735
2072.57 408.723 2735
2079.11 408.723 2735
2085.65 408.723 2735
2092.19 408.723 2735
-2113.65 428.636 2823
-2106.9 428.636 2823
-2100.15 428.636 2823
-2085.98 427.118 2813
-2076.3 426.51 2809
-2079.9 428.636 2823
-2073.15 428.636 2823
-2066.39 428.636 2823
-2059.64 428.636 2823
-2042.71 426.51 2809
-2038.89 427.118 2813
-2032.17 427.118 2813
-2025.44 427.118 2813
-2018.71 427.118 2813
-2019.14 428.636 2823
-2012.39 428.636 2823
-2026.24 433.039 2852
-2043.5 438.202 2886
-2036.6 438.202 2886
-2029.69 438.202 2886
-2022.79 438.202 2886
-2015.89 438.202 2886
-2008.99 438.202 2886
-1981.97 433.799 2857
-1984.82 435.924 2871
-1977.95 435.924 2871
-1971.09 435.924 2871
-1964.22 435.924 2871
-1953.95 435.165 2866
-1947.09 435.165 2866
-1943.63 435.924 2871
-1936.76 435.924 2871
-1933.26 436.683 2876
-1926.38 436.683 2876
-1919.5 436.683 2876
-1909.3 435.924 2871
-1902.43 435.924 2871
-1898.87 436.683 2876
-1891.99 436.683 2876
-1885.11 436.683 2876
-1878.24 436.683 2876
-1871.36 436.683 2876
-1867.72 437.443 2881
-1860.83 437.443 2881
-1860.38 438.961 2891
-1853.47 438.961 2891
-1852.94 440.479 2901
-1846 440.479 2901
-1849.21 442.909 2917
-1848.55 444.427 2927
-1854.13 447.464 2947
-1847.09 447.464 2947
-1840.04 447.464 2947
-1832.99 447.464 2947
-1825.94 447.464 2947
-1815.81 446.705 2942
-1808.78 446.705 2942
-1811.54 449.134 2958
-1817.28 452.323 2979
-1810.15 452.323 2979
-1806.06 453.082 2984
-1802.54 453.993 2990
-1814.6 458.852 3022
-1807.37 458.852 3022
-1806.7 460.522 3033
-1853.44 474.339 3124
-1870.78 480.716 3166
-1863.21 480.716 3166
-1880.26 487.093 3208
-1894.77 492.863 3246
-1887.01 492.863 3246
-1904.72 499.544 3290
-1927.41 507.591 3343
-1946.97 514.88 3391
-1938.87 514.88 3391
-1954.67 521.257 3433
-1962.34 525.508 3461
-1962.53 527.786 3476
-1954.22 527.786 3476
-1949.82 528.849 3483
-1949.3 530.974 3497
-1961.47 536.592 3534
-1953.02 536.592 3534
-1948.97 537.807 3542
-1944.34 538.87 3549
-1940.21 540.085 3557
-1931.71 540.085 3557
-1927.53 541.299 3565
-1919 541.299 3565
-1918.52 543.577 3580
-1909.96 543.577 3580
-1901.4 543.577 3580
-1892.83 543.577 3580
-1884.27 543.577 3580
-1875.71 543.577 3580
-1874.97 545.854 3595
-1874.68 548.284 3611
-1878.45 551.928 3635
-1869.76 551.928 3635
-1861.07 551.928 3635
-1852.38 551.928 3635
-1843.68 551.928 3635
-1834.99 551.928 3635
-1826.3 551.928 3635
-1817.61 551.928 3635
-1808.91 551.928 3635
-1792.3 549.498 3619
-1791.53 551.928 3635
-1790.19 554.205 3650
-1785.37 555.42 3658
-1776.62 555.42 3658
-1767.87 555.42 3658
-1763.46 556.787 3667
-1770 561.645 3699
-1761.15 561.645 3699
-1764.15 565.441 3724
-1767.03 569.237 3749
-1761.82 570.452 3757
-1752.83 570.452 3757
-1743.85 570.452 3757
-1734.86 570.452 3757
-1730.01 571.818 3766
-1721.01 571.818 3766
-1715.64 573.033 3774
-1722.44 578.347 3809
-1720.98 580.929 3826
-1711.83 580.929 3826
-1702.68 580.929 3826
-1693.53 580.929 3826
-1684.38 580.929 3826
-1641.52 569.237 3749
-1625.15 566.656 3732
-1595.01 559.216 3683
-1571.99 554.205 3650
-1563.26 554.205 3650
-1537.92 548.284 3611
-1519.54 544.791 3588
-1497.91 540.085 3557
-1489.4 540.085 3557
-1468.41 535.529 3527
-1453.76 533.252 3512
-1430.55 527.786 3476
-1422.24 527.786 3476
-1404.98 524.445 3454
-1388.23 521.257 3433
-1363.13 514.88 3391
-1355.02 514.88 3391
-1327.85 507.591 3343
-1306.83 502.581 3310
-1296.16 501.518 3303
-1285.93 500.607 3297
-1278.04 500.607 3297
-1260.14 496.659 3271
-1242.75 492.863 3246
-1227.76 489.978 3227
-1220.04 489.978 3227
-1205.19 487.093 3208
-1188.56 483.449 3184
-1169.81 478.894 3154
-1162.27 478.894 3154
-1145.94 475.25 3130
-1130.09 471.758 3107
-1116.16 469.025 3089
-1108.77 469.025 3089
-1099.6 468.266 3084
-1087.98 466.444 3072
-1080.63 466.444 3072
-1077.48 468.266 3084
-1070.1 468.266 3084
-1062.73 468.266 3084
-1055.35 468.266 3084
-1036.43 463.103 3050
-1029.13 463.103 3050
-1014.47 459.763 3028
-831.74 439.72 2896
-824.815 439.72 2896
-820.714 441.239 2906
-815.165 441.998 2911
-808.204 441.998 2911
-801.243 441.998 2911
-794.282 441.998 2911
-787.32 441.998 2911
-780.359 441.998 2911
-773.398 441.998 2911
-766.437 441.998 2911
-759.476 441.998 2911
-752.515 441.998 2911
-745.554 441.998 2911
-738.593 441.998 2911
-731.632 441.998 2911
-728.654 444.427 2927
-721.654 444.427 2927
-714.655 444.427 2927
-707.656 444.427 2927
-700.656 444.427 2927
-688.68 441.239 2906
-675.866 437.443 2881
-673.621 440.479 2901
-671.51 443.668 2922
-664.523 443.668 2922
-665.636 449.134 2958
-660.789 450.652 2968
-653.692 450.652 2968
-646.594 450.652 2968
-640.79 451.563 2974
-638.153 454.752 2995
-636.679 458.852 3022
-629.452 458.852 3022
-632.521 466.444 3072
-627.617 468.266 3084
-622.454 469.936 3095
-615.053 469.936 3095
-607.652 469.936 3095
-601.415 470.847 3101
-595.149 471.758 3107
-587.719 471.758 3107
-582.344 473.428 3118
-580.419 477.983 3148
-575.075 479.805 3160
-567.518 479.805 3160
-562.088 481.627 3172
-558.698 485.271 3196
-555.366 489.067 3221
-547.664 489.067 3221
-540.967 489.978 3227
-537.382 493.774 3252
-531.722 495.748 3265
-523.915 495.748 3265
-517.056 496.659 3271
-509.234 496.659 3271
-537.282 532.189 3505
-528.9 532.189 3505
-523.786 535.529 3527
-520.904 541.299 3565
-520.14 549.498 3619
-511.486 549.498 3619
-503.944 550.713 3627
-495.27 550.713 3627
-486.597 550.713 3627
-477.924 550.713 3627
-469.25 550.713 3627
-461.593 551.928 3635
-455.766 555.42 3658
-447.019 555.42 3658
-439.35 556.787 3667
-433.399 560.431 3691
-426.413 562.86 3707
-417.549 562.86 3707
-409.676 564.227 3716
-401.653 565.441 3724
-392.748 565.441 3724
-383.843 565.441 3724
-376.548 567.871 3740
-369.276 570.452 3757
-362.785 574.4 3783
-353.739 574.4 3783
-345.513 575.766 3792
-338.752 579.714 3818
-330.312 580.929 3826
-321.163 580.929 3826
-313.482 583.662 3844
-305.002 585.028 3853
-295.788 585.028 3853
-286.575 585.028 3853
-277.361 585.028 3853
-267.521 583.662 3844
-258.329 583.662 3844
-247.452 579.714 3818
-237.76 578.347 3809
-228.651 578.347 3809
-218.044 574.4 3783
-208.998 574.4 3783
-198.577 570.452 3757
-189.19 569.237 3749
-180.225 569.237 3749
-171.26 569.237 3749
-96.9266 339.963 2239
-91.5724 339.963 2239
-85.8717 338.597 2230
-80.5391 338.597 2230
-75.2065 338.597 2230
-69.5919 337.23 2221
-63.9625 335.56 2210
-58.6777 335.56 2210
-53.1755 334.193 2201
-47.8469 333.738 2198
-42.5327 333.282 2195
-37.2838 333.282 2195
-32.0349 333.282 2195
-26.7128 332.371 2189
-21.3997 331.157 2181
-16.1843 331.157 2181
-10.9387 330.246 2175
-5.72175 329.335 2169
-0.533776 328.575 2164
4.641 328.575 2164
9.77496 327.209 2155
14.8936 326.45 2150
19.979 325.539 2144
25.0825 325.235 2142
30.2047 325.235 2142
35.3269 325.235 2142
40.449 325.235 2142
45.5074 324.78 2139
50.6224 324.78 2139
55.7374 324.78 2139
60.8524 324.78 2139
65.9674 324.78 2139
71.0824 324.78 2139
76.1973 324.78 2139
81.3123 324.78 2139
86.4273 324.78 2139
91.5423 324.78 2139
96.6573 324.78 2139
101.915 325.235 2142
107.137 325.539 2144
112.578 326.45 2150
117.72 326.45 2150
123.147 327.209 2155
129.133 329.335 2169
134.32 329.335 2169
139.507 329.335 2169
144.694 329.335 2169
149.535 328.575 2164
154.71 328.575 2164
313.249 604.615 3982
322.772 604.615 3982
332.294 604.615 3982
341.816 604.615 3982
352.132 605.982 3991
361.676 605.982 3991
371.22 605.982 3991
380.763 605.982 3991
390.307 605.982 3991
402.756 610.385 4020
414.318 613.27 4039
423.977 613.27 4039
433.635 613.27 4039
443.293 613.27 4039
452.952 613.27 4039
462.61 613.27 4039
470.047 610.385 4020
479.66 610.385 4020
489.273 610.385 4020
470.685 460.522 3033
477.938 460.522 3033
486.951 462.192 3044
494.23 462.192 3044
501.509 462.192 3044
506.949 460.522 3033
512.337 458.852 3022
519.564 458.852 3022
527.836 459.763 3028
535.077 459.763 3028
542.318 459.763 3028
547.562 458.092 3017
551.651 455.511 3000
558.825 455.511 3000
564.112 453.993 2990
569.161 452.323 2979
576.284 452.323 2979
585.562 453.993 2990
592.712 453.993 2990
599.862 453.993 2990
604.779 452.323 2979
611.903 452.323 2979
617.987 451.563 2974
625.099 451.563 2974
630.935 450.652 2968
638.033 450.652 2968
642.957 449.134 2958
646.514 446.705 2942
652.438 445.946 2937
659.462 445.946 2937
666.485 445.946 2937
673.508 445.946 2937
680.531 445.946 2937
686.384 445.186 2932
693.396 445.186 2932
699.212 444.427 2927
706.212 444.427 2927
713.211 444.427 2927
720.21 444.427 2927
727.21 444.427 2927
732.955 443.668 2922
739.942 443.668 2922
746.93 443.668 2922
752.627 442.909 2917
759.602 442.909 2917
765.001 441.998 2911
771.962 441.998 2911
778.923 441.998 2911
785.884 441.998 2911
794.48 442.909 2917
801.455 442.909 2917
809.816 443.668 2922
816.804 443.668 2922
823.791 443.668 2922
830.778 443.668 2922
837.766 443.668 2922
844.753 443.668 2922
851.741 443.668 2922
858.728 443.668 2922
865.715 443.668 2922
872.703 443.668 2922
879.69 443.668 2922
886.677 443.668 2922
893.665 443.668 2922
899.111 442.909 2917
921.928 450.652 2968
989.124 479.805 3160
996.681 479.805 3160
1004.24 479.805 3160
1007.95 477.983 3148
998.383 469.936 3095
1021.06 477.072 3142
1028.57 477.072 3142
1049.93 483.449 3184
1063.53 486.182 3202
1100.62 499.544 3290
1108.49 499.544 3290
1129.93 505.617 3330
1173.09 521.257 3433
1198.5 528.849 3483
1206.83 528.849 3483
1220.05 530.974 3497
1231.22 532.189 3505
1239.6 532.189 3505
1247.98 532.189 3505
1253.5 530.974 3497
1270.16 534.467 3520
1286.57 537.807 3542
1295.04 537.807 3542
1306.08 538.87 3549
1320.49 541.299 3565
1331.63 542.362 3572
1340.17 542.362 3572
1351.73 543.577 3580
1363.33 544.791 3588
1371.91 544.791 3588
1380.49 544.791 3588
1385.98 543.577 3580
1391.42 542.362 3572
1399.96 542.362 3572
1396.68 537.807 3542
1396.42 534.467 3520
1392.86 529.911 3490
1389.56 525.508 3461
1397.84 525.508 3461
1394.74 521.257 3433
1380.07 512.754 3377
1379.92 509.717 3357
1387.95 509.717 3357
1384.75 505.617 3330
1387.27 503.644 3317
1386.79 500.607 3297
1391.72 499.544 3290
1399.58 499.544 3290
1404.88 498.633 3284
1412.74 498.633 3284
1420.59 498.633 3284
1431.05 499.544 3290
1438.92 499.544 3290
1449.87 500.607 3297
1457.75 500.607 3297
1471.41 502.581 3310
1479.33 502.581 3310
1487.24 502.581 3310
1495.16 502.581 3310
1503.07 502.581 3310
1507.79 501.518 3303
1512.94 500.607 3297
1517.59 499.544 3290
1525.46 499.544 3290
1521.68 495.748 3265
1517.31 491.8 3239
1519.4 489.978 3227
1509.61 484.36 3190
1517.24 484.36 3190
1507.66 478.894 3154
1500.79 474.339 3124
1486.05 467.355 3078
1493.41 467.355 3078
1481.75 461.433 3039
1462.07 453.082 2984
1443.6 445.186 2932
1440.23 441.998 2911
1447.19 441.998 2911
1444.16 438.961 2891
1443.54 436.683 2876
1445.38 435.165 2866
1452.23 435.165 2866
1457.05 434.558 2862
1461.33 433.799 2857
1465.6 433.039 2852
1472.42 433.039 2852
1479.24 433.039 2852
1483.45 432.28 2847
1487.64 431.521 2842
1494.44 431.521 2842
1501.23 431.521 2842
1505.38 430.762 2837
1509.5 430.003 2832
1516.27 430.003 2832
1523.04 430.003 2832
1527.65 429.395 2828
1531.7 428.636 2823
1535.73 427.877 2818
1542.47 427.877 2818
1546.46 427.118 2813
1550.97 426.51 2809
1549.37 424.233 2794
1556.05 424.233 2794
1562.74 424.233 2794
1569.42 424.233 2794
1576.1 424.233 2794
1585.61 424.992 2799
1592.3 424.992 2799
1599 424.992 2799
1605.69 424.992 2799
1612.38 424.992 2799
1619.08 424.992 2799
1625.77 424.992 2799
1635.38 425.751 2804
1642.09 425.751 2804
1648.79 425.751 2804
1655.5 425.751 2804
1665.17 426.51 2809
1674.26 427.118 2813
1680.99 427.118 2813
1690.72 427.877 2818
1697.46 427.877 2818
1707.22 428.636 2823
1713.97 428.636 2823
1720.72 428.636 2823
1724.41 427.877 2818
1728.08 427.118 2813
1734.8 427.118 2813
1741.53 427.118 2813
1745.77 426.51 2809
1754.98 427.118 2813
1761.71 427.118 2813
1768.44 427.118 2813
1775.16 427.118 2813
1779.36 426.51 2809
1782.9 425.751 2804
1789.6 425.751 2804
1789.9 424.233 2794
1796.58 424.233 2794
1803.26 424.233 2794
1807.35 423.625 2790
1814.02 423.625 2790
1820.7 423.625 2790
1820.82 422.107 2780
1824.84 421.5 2776
1831.47 421.5 2776
1838.11 421.5 2776
1841.43 420.741 2771
1848.05 420.741 2771
1854.68 420.741 2771
1861.31 420.741 2771
1867.93 420.741 2771
1874.56 420.741 2771
1881.19 420.741 2771
1885.09 420.133 2767
1884.87 418.615 2757
1891.46 418.615 2757
1901.5 419.374 2762
1908.1 419.374 2762
1914.7 419.374 2762
1921.31 419.374 2762
1927.91 419.374 2762
1934.52 419.374 2762
1941.12 419.374 2762
1947.73 419.374 2762
1954.33 419.374 2762
1960.94 419.374 2762
1967.54 419.374 2762
1974.15 419.374 2762
1980.75 419.374 2762
1987.36 419.374 2762
1990.35 418.615 2757
1990.43 417.248 2748
1987.55 415.274 2735
1994.09 415.274 2735
2007.21 416.641 2744
2013.78 416.641 2744
2020.34 416.641 2744
2026.9 416.641 2744
2033.46 416.641 2744
2019.95 412.541 2717
2023.46 411.934 2713
2029.95 411.934 2713
2036.44 411.934 2713
2042.93 411.934 2713
2049.41 411.934 2713
2065.75 413.908 2726
2072.27 413.908 2726
2078.79 413.908 2726
2078.42 412.541 2717
-2113.65 435.399 2823
-2106.9 435.399 2823
-2100.15 435.399 2823
-2085.98 433.856 2813
-2082.95 434.627 2818
-2083.58 436.17 2828
-2076.82 436.17 2828
-2070.05 436.17 2828
-2063.29 436.17 2828
-2042.71 433.239 2809
-2038.89 433.856 2813
-2032.17 433.856 2813
-2025.44 433.856 2813
-2018.71 433.856 2813
-2019.14 435.399 2823
-2012.39 435.399 2823
-2026.24 439.871 2852
-2043.5 445.115 2886
-2036.6 445.115 2886
-2029.69 445.115 2886
-2022.79 445.115 2886
-2015.89 445.115 2886
-2008.99 445.115 2886
-1981.97 440.643 2857
-1984.82 442.802 2871
-1977.95 442.802 2871
-1971.09 442.802 2871
-1964.22 442.802 2871
-1953.95 442.031 2866
-1947.09 442.031 2866
-1943.63 442.802 2871
-1936.76 442.802 2871
-1933.26 443.573 2876
-1926.38 443.573 2876
-1919.5 443.573 2876
-1909.3 442.802 2871
-1902.43 442.802 2871
-1898.87 443.573 2876
-1891.99 443.573 2876
-1885.11 443.573 2876
-1878.24 443.573 2876
-1871.36 443.573 2876
-1867.72 444.344 2881
-1860.83 444.344 2881
-1860.38 445.886 2891
-1853.47 445.886 2891
-1852.94 447.429 2901
-1846 447.429 2901
-1849.21 449.896 2917
-1848.55 451.439 2927
-1854.13 454.523 2947
-1847.09 454.523 2947
-1840.04 454.523 2947
-1832.99 454.523 2947
-1825.94 454.523 2947
-1815.81 453.752 2942
-1808.78 453.752 2942
-1821.34 458.688 2974
-1823.99 461.155 2990
-1816.84 461.155 2990
-1819.37 463.623 3006
-1821.83 466.091 3022
-1818.2 467.016 3028
-1810.96 467.016 3028
-1810.27 468.713 3039
-1857 482.748 3130
-1870.78 488.3 3166
-1863.21 488.3 3166
-1880.26 494.778 3208
-1901.77 502.49 3258
-1893.98 502.49 3258
-1904.72 507.425 3290
-1931.44 516.679 3350
-1950.99 524.082 3398
-1942.87 524.082 3398
-1958.66 530.56 3440
-1970.84 536.112 3476
-1966.48 537.192 3483
-1958.15 537.192 3483
-1949.82 537.192 3483
-1949.3 539.351 3497
-1965.91 546.292 3542
-1957.44 546.292 3542
-1952.82 547.371 3549
-1948.72 548.605 3557
-1940.21 548.605 3557
-1931.71 548.605 3557
-1927.53 549.839 3565
-1919 549.839 3565
-1918.52 552.153 3580
-1909.96 552.153 3580
-1901.4 552.153 3580
-1892.83 552.153 3580
-1884.27 552.153 3580
-1875.71 552.153 3580
-1874.97 554.466 3595
-1874.68 556.934 3611
-1878.45 560.635 3635
-1869.76 560.635 3635
-1861.07 560.635 3635
-1852.38 560.635 3635
-1843.68 560.635 3635
-1834.99 560.635 3635
-1826.3 560.635 3635
-1817.61 560.635 3635
-1808.91 560.635 3635
-1792.3 558.168 3619
-1791.53 560.635 3635
-1790.19 562.949 3650
-1785.37 564.183 3658
-1776.62 564.183 3658
-1767.87 564.183 3658
-1763.46 565.571 3667
-1770 570.506 3699
-1761.15 570.506 3699
-1764.15 574.362 3724
-1767.03 578.218 3749
-1761.82 579.452 3757
-1752.83 579.452 3757
-1743.85 579.452 3757
-1734.86 579.452 3757
-1730.01 580.84 3766
-1721.01 580.84 3766
-1715.64 582.074 3774
-1722.44 587.472 3809
-1720.98 590.094 3826
-1711.83 590.094 3826
-1702.68 590.094 3826
-1693.53 590.094 3826
-1684.38 590.094 3826
-1645.02 579.452 3757
-1628.63 576.83 3740
-1598.47 569.273 3691
-1571.99 562.949 3650
-1563.26 562.949 3650
-1537.92 556.934 3611
-1519.54 553.387 3588
-1497.91 548.605 3557
-1489.4 548.605 3557
-1471.32 545.058 3534
-1453.76 541.665 3512
-1436.31 538.272 3490
-1427.97 538.272 3490
-1413.93 536.112 3476
-1393.89 531.64 3447
-1368.76 525.162 3405
-1360.62 525.162 3405
-1330.63 516.679 3350
-1317.49 514.674 3337
-1298.91 510.51 3310
-1285.93 508.505 3297
-1278.04 508.505 3297
-1265.15 506.5 3284
-1250.02 503.569 3265
-1234.99 500.639 3246
-1227.22 500.639 3246
-1210.07 496.783 3221
-1193.03 492.927 3196
-1169.81 486.45 3154
-1162.27 486.45 3154
-1152.53 485.524 3148
-1138.46 482.748 3130
-1128.81 481.823 3124
-1121.34 481.823 3124
-1109.59 479.972 3112
-1098.25 478.275 3101
-1090.83 478.275 3101
-1083.42 478.275 3101
-1076 478.275 3101
-1068.59 478.275 3101
-1055.35 475.653 3084
-1047.98 475.653 3084
-1040.6 475.653 3084
-1014.47 467.016 3028
-828.868 445.115 2886
-821.967 445.115 2886
-819.302 447.429 2901
-815.165 448.971 2911
-808.204 448.971 2911
-801.243 448.971 2911
-794.282 448.971 2911
-787.32 448.971 2911
-780.359 448.971 2911
-773.398 448.971 2911
-768.017 449.896 2917
-761.042 449.896 2917
-754.066 449.896 2917
-745.554 448.971 2911
-738.593 448.971 2911
-733.14 449.896 2917
-729.898 452.21 2932
-722.887 452.21 2932
-715.876 452.21 2932
-708.865 452.21 2932
-701.853 452.21 2932
-691.287 449.896 2917
-675.866 444.344 2881
-673.621 447.429 2901
-671.51 450.668 2922
-664.523 450.668 2922
-667.887 457.762 2968
-665.687 461.155 2990
-658.537 461.155 2990
-651.387 461.155 2990
-640.79 458.688 2974
-639.218 462.698 3000
-643.631 471.181 3055
-636.326 471.181 3055
-633.756 474.728 3078
-628.634 476.424 3089
-624.868 479.201 3107
-617.438 479.201 3107
-610.008 479.201 3107
-602.578 479.201 3107
-597.256 480.897 3118
-589.8 480.897 3118
-583.464 481.823 3124
-582.631 487.375 3160
-577.259 489.226 3172
-569.673 489.226 3172
-567.404 493.853 3202
-563.069 496.783 3221
-559.677 500.639 3246
-551.915 500.639 3246
-544.153 500.639 3246
-537.382 501.564 3252
-531.722 503.569 3265
-523.915 503.569 3265
-516.107 503.569 3265
-545.663 540.585 3505
-541.727 545.058 3534
-533.276 545.058 3534
-529.429 549.839 3565
-523.096 552.153 3580
-520.14 558.168 3619
-511.486 558.168 3619
-506.028 561.715 3642
-497.319 561.715 3642
-488.609 561.715 3642
-478.978 560.635 3635
-470.285 560.635 3635
-461.593 560.635 3635
-453.773 561.715 3642
-445.064 561.715 3642
-439.35 565.571 3667
-433.399 569.273 3691
-425.493 570.506 3699
-416.648 570.506 3699
-409.676 573.128 3716
-400.79 573.128 3716
-392.748 574.362 3724
-383.843 574.362 3724
-376.548 576.83 3740
-368.49 578.218 3749
-362.785 583.462 3783
-353.739 583.462 3783
-345.513 584.85 3792
-337.953 587.472 3809
-329.622 588.86 3818
-320.492 588.86 3818
-312.014 590.094 3826
-302.865 590.094 3826
-293.716 590.094 3826
-284.567 590.094 3826
-275.418 590.094 3826
-266.268 590.094 3826
-257.119 590.094 3826
-247.452 588.86 3818
-237.76 587.472 3809
-227.631 584.85 3792
-217.064 580.84 3766
-208.059 580.84 3766
-197.679 576.83 3740
-187.928 574.362 3724
-177.821 570.506 3699
-168.976 570.506 3699
-97.3162 346.715 2248
-91.6951 345.789 2242
-85.9873 344.401 2233
-80.6475 344.401 2233
-75.2065 343.939 2230
-69.6859 343.013 2224
-64.3677 343.013 2224
-59.0494 343.013 2224
-53.4654 341.317 2213
-48.1081 340.854 2210
-42.7071 339.929 2204
-37.4367 339.929 2204
-32.1662 339.929 2204
-26.786 338.541 2195
-21.4291 336.844 2184
-16.2065 336.844 2184
-10.9537 335.919 2178
-5.72175 334.53 2169
-0.534516 334.222 2167
4.64744 334.222 2167
9.77496 332.371 2155
14.9144 332.063 2153
19.979 330.675 2144
25.1059 330.675 2144
30.2329 330.675 2144
35.3598 330.675 2144
40.449 330.366 2142
45.5712 330.366 2142
50.6934 330.366 2142
55.7374 329.904 2139
60.8524 329.904 2139
65.9674 329.904 2139
71.0824 329.904 2139
76.1973 329.904 2139
81.3123 329.904 2139
86.4273 329.904 2139
91.5423 329.904 2139
96.6573 329.904 2139
101.915 330.366 2142
107.137 330.675 2144
112.578 331.6 2150
117.72 331.6 2150
123.318 332.834 2158
129.133 334.53 2169
134.32 334.53 2169
139.507 334.53 2169
144.694 334.53 2169
149.88 334.53 2169
155.067 334.53 2169
313.957 615.542 3991
323.501 615.542 3991
333.045 615.542 3991
342.588 615.542 3991
352.132 615.542 3991
361.676 615.542 3991
371.22 615.542 3991
380.763 615.542 3991
390.307 615.542 3991
402.756 620.015 4020
415.344 624.488 4049
425.026 624.488 4049
436.856 627.572 4069
447.684 629.115 4079
458.559 630.657 4089
468.337 630.657 4089
478.115 630.657 4089
479.66 620.015 4020
489.273 620.015 4020
470.685 467.787 3033
477.938 467.787 3033
485.191 467.787 3033
492.444 467.787 3033
499.697 467.787 3033
506.949 467.787 3033
511.49 465.32 3017
518.704 465.32 3017
526.79 466.091 3022
534.017 466.091 3022
541.243 466.091 3022
546.474 464.394 3011
550.732 461.927 2995
557.894 461.927 2995
562.98 460.23 2984
569.161 459.459 2979
576.284 459.459 2979
584.387 460.23 2984
591.523 460.23 2984
598.658 460.23 2984
603.764 458.688 2974
610.876 458.688 2974
617.987 458.688 2974
623.838 457.762 2968
629.872 456.991 2963
636.958 456.991 2963
642.957 456.22 2958
646.514 453.752 2942
653.549 453.752 2942
660.584 453.752 2942
667.62 453.752 2942
674.655 453.752 2942
681.69 453.752 2942
687.555 452.981 2937
694.578 452.981 2937
700.407 452.21 2932
707.418 452.21 2932
714.429 452.21 2932
721.441 452.21 2932
728.452 452.21 2932
734.209 451.439 2927
741.208 451.439 2927
748.208 451.439 2927
755.207 451.439 2927
760.904 450.668 2922
765.001 448.971 2911
771.962 448.971 2911
778.923 448.971 2911
785.884 448.971 2911
794.48 449.896 2917
802.829 450.668 2922
809.816 450.668 2922
816.804 450.668 2922
825.201 451.439 2927
832.2 451.439 2927
843.5 453.752 2942
850.535 453.752 2942
857.57 453.752 2942
861.667 452.21 2932
868.678 452.21 2932
875.689 452.21 2932
884.206 452.981 2937
891.229 452.981 2937
904.675 456.22 2958
911.749 456.22 2958
926.898 460.23 2984
989.124 487.375 3160
996.681 487.375 3160
1004.24 487.375 3160
1007.95 485.524 3148
1007.74 481.823 3124
1028.86 488.3 3166
1036.43 488.3 3166
1053.89 492.927 3196
1069.84 496.783 3221
1100.62 507.425 3290
1108.49 507.425 3290
1132.31 514.674 3337
1175.48 530.56 3440
1198.5 537.192 3483
1206.83 537.192 3483
1220.05 539.351 3497
1231.22 540.585 3505
1239.6 540.585 3505
1247.98 540.585 3505
1253.5 539.351 3497
1270.16 542.899 3520
1281.12 543.978 3527
1289.55 543.978 3527
1303.51 546.292 3542
1317.53 548.605 3557
1329.02 549.839 3565
1337.54 549.839 3565
1348.71 550.919 3572
1357.25 550.919 3572
1365.8 550.919 3572
1374.34 550.919 3572
1382.88 550.919 3572
1385.58 548.605 3557
1394.08 548.605 3557
1390.76 543.978 3527
1390.47 540.585 3505
1384.08 534.879 3468
1381.13 530.56 3440
1389.36 530.56 3440
1383.37 525.162 3405
1371.89 517.759 3357
1371.7 514.674 3337
1379.68 514.674 3337
1379.34 511.59 3317
1381.42 509.43 3303
1383.85 507.425 3290
1386.64 505.574 3278
1394.48 505.574 3278
1399.32 504.495 3271
1407.14 504.495 3271
1417.99 505.574 3278
1428.44 506.5 3284
1436.3 506.5 3284
1444.15 506.5 3284
1454.66 507.425 3290
1465.63 508.505 3297
1473.52 508.505 3297
1484.1 509.43 3303
1492 509.43 3303
1499.9 509.43 3303
1505.05 508.505 3297
1509.73 507.425 3290
1512.06 505.574 3278
1519.9 505.574 3278
1521.68 503.569 3265
1517.31 499.559 3239
1519.4 497.709 3227
1509.61 492.002 3190
1517.24 492.002 3190
1513.39 488.3 3166
1506.55 483.673 3136
1488.94 475.653 3084
1496.32 475.653 3084
1481.75 468.713 3039
1467.46 461.927 2995
1448.53 453.752 2942
1450.62 452.21 2932
1457.63 452.21 2932
1446.66 446.658 2896
1446.05 444.344 2881
1447.9 442.802 2871
1454.76 442.802 2871
1457.05 441.414 2862
1463.89 441.414 2862
1465.6 439.871 2852
1472.42 439.871 2852
1479.24 439.871 2852
1483.45 439.1 2847
1490.26 439.1 2847
1494.44 438.329 2842
1501.23 438.329 2842
1505.38 437.558 2837
1512.16 437.558 2837
1516.27 436.787 2832
1523.04 436.787 2832
1527.65 436.17 2828
1531.7 435.399 2823
1535.73 434.627 2818
1542.47 434.627 2818
1546.46 433.856 2813
1550.97 433.239 2809
1549.37 430.926 2794
1556.05 430.926 2794
1562.74 430.926 2794
1569.42 430.926 2794
1576.1 430.926 2794
1585.61 431.697 2799
1592.3 431.697 2799
1599 431.697 2799
1605.69 431.697 2799
1612.38 431.697 2799
1619.08 431.697 2799
1625.77 431.697 2799
1632.46 431.697 2799
1642.09 432.468 2804
1648.79 432.468 2804
1655.5 432.468 2804
1662.2 432.468 2804
1671.88 433.239 2809
1678.6 433.239 2809
1687.72 433.856 2813
1694.44 433.856 2813
1704.19 434.627 2818
1710.93 434.627 2818
1717.67 434.627 2818
1724.41 434.627 2818
1728.08 433.856 2813
1732.34 433.239 2809
1739.05 433.239 2809
1745.77 433.239 2809
1749.37 432.468 2804
1756.07 432.468 2804
1762.78 432.468 2804
1769.48 432.468 2804
1776.19 432.468 2804
1779.72 431.697 2799
1786.41 431.697 2799
1789.9 430.926 2794
1796.58 430.926 2794
1803.26 430.926 2794
1807.35 430.309 2790
1814.02 430.309 2790
1820.7 430.309 2790
1824.09 429.538 2785
1824.84 428.15 2776
1831.47 428.15 2776
1838.11 428.15 2776
1844.75 428.15 2776
1851.39 428.15 2776
1858.03 428.15 2776
1864.67 428.15 2776
1871.3 428.15 2776
1874.56 427.379 2771
1881.19 427.379 2771
1887.81 427.379 2771
1884.87 425.219 2757
1891.46 425.219 2757
1901.5 425.99 2762
1908.1 425.99 2762
1914.7 425.99 2762
1921.31 425.99 2762
1927.91 425.99 2762
1934.52 425.99 2762
1941.12 425.99 2762
1947.73 425.99 2762
1954.33 425.99 2762
1960.94 425.99 2762
1967.54 425.99 2762
1974.15 425.99 2762
1980.75 425.99 2762
1987.36 425.99 2762
1990.35 425.219 2757
1990.43 423.831 2748
1987.55 421.826 2735
1994.09 421.826 2735
2007.21 423.214 2744
2013.78 423.214 2744
2020.34 423.214 2744
2026.9 423.214 2744
2033.46 423.214 2744
2016.98 418.433 2713
2019.73 417.662 2708
2026.21 417.662 2708
2032.69 417.662 2708
2036.15 417.045 2704
2035.82 415.657 2695
2049.08 417.045 2704
2062.39 418.433 2713
2071.93 419.05 2717
2078.42 419.05 2717
-2113.65 442.161 2823
-2106.9 442.161 2823
-2100.15 442.161 2823
-2083.02 439.968 2809
-2082.95 441.378 2818
-2083.58 442.944 2828
-2076.82 442.944 2828
-2070.05 442.944 2828
-2063.29 442.944 2828
-2042.71 439.968 2809
-2036 439.968 2809
-2029.28 439.968 2809
-2022.56 439.968 2809
-2015.84 439.968 2809
-2015.56 441.378 2818
-2008.83 441.378 2818
-2022.69 445.92 2847
-2032.88 449.679 2871
-2036.6 452.029 2886
-2029.69 452.029 2886
-2022.79 452.029 2886
-2005.41 449.679 2871
-1998.55 449.679 2871
-1981.97 447.486 2857
-1978.6 448.27 2862
-1974.51 448.896 2866
-1967.65 448.896 2866
-1960.8 448.896 2866
-1953.95 448.896 2866
-1944.38 448.27 2862
-1940.24 448.896 2866
-1933.39 448.896 2866
-1926.53 448.896 2866
-1919.68 448.896 2866
-1912.83 448.896 2866
-1905.97 448.896 2866
-1902.43 449.679 2871
-1895.57 449.679 2871
-1888.7 449.679 2871
-1881.84 449.679 2871
-1871.71 448.896 2866
-1864.85 448.896 2866
-1864.48 450.462 2876
-1857.6 450.462 2876
-1850.73 450.462 2876
-1853.47 452.812 2891
-1849.75 453.595 2896
-1842.82 453.595 2896
-1842.24 455.161 2906
-1848.55 458.45 2927
-1844.7 459.234 2932
-1837.68 459.234 2932
-1833.79 460.017 2937
-1826.77 460.017 2937
-1819.75 460.017 2937
-1812.72 460.017 2937
-1808.78 460.8 2942
-1821.34 465.812 2974
-1823.99 468.318 2990
-1816.84 468.318 2990
-1819.37 470.824 3006
-1821.83 473.33 3022
-1818.2 474.27 3028
-1810.96 474.27 3028
-1810.27 475.993 3039
-1857 490.246 3130
-1870.78 495.885 3166
-1863.21 495.885 3166
-1880.26 502.463 3208
-1901.77 510.294 3258
-1893.98 510.294 3258
-1904.72 515.306 3290
-1931.44 524.704 3350
-1950.99 532.222 3398
-1942.87 532.222 3398
-1958.66 538.801 3440
-1970.84 544.439 3476
-1966.48 545.536 3483
-1958.15 545.536 3483
-1949.82 545.536 3483
-1949.3 547.728 3497
-1965.91 554.777 3542
-1957.44 554.777 3542
-1952.82 555.873 3549
-1948.72 557.126 3557
-1940.21 557.126 3557
-1931.71 557.126 3557
-1927.53 558.379 3565
-1919 558.379 3565
-1918.52 560.729 3580
-1909.96 560.729 3580
-1901.4 560.729 3580
-1892.83 560.729 3580
-1884.27 560.729 3580
-1875.71 560.729 3580
-1874.97 563.078 3595
-1874.68 565.584 3611
-1878.45 569.343 3635
-1869.76 569.343 3635
-1861.07 569.343 3635
-1852.38 569.343 3635
-1843.68 569.343 3635
-1834.99 569.343 3635
-1822.28 568.09 3627
-1813.61 568.09 3627
-1804.93 568.09 3627
-1792.3 566.837 3619
-1783.64 566.837 3619
-1782.84 569.343 3635
-1781.46 571.693 3650
-1772.74 571.693 3650
-1764.01 571.693 3650
-1759.13 572.946 3658
-1758.51 575.608 3675
-1749.73 575.608 3675
-1760.36 582.03 3716
-1755.25 583.283 3724
-1746.34 583.283 3724
-1737.44 583.283 3724
-1732.24 584.536 3732
-1727.01 585.789 3740
-1718.07 585.789 3740
-1709.13 585.789 3740
-1704.27 587.199 3749
-1706.61 591.114 3774
-1717.38 598.006 3818
-1708.25 598.006 3818
-1699.12 598.006 3818
-1689.99 598.006 3818
-1680.86 598.006 3818
-1645.02 588.452 3757
-1628.63 585.789 3740
-1598.47 578.114 3691
-1568.54 570.44 3642
-1559.83 570.44 3642
-1534.51 564.331 3603
-1519.54 561.982 3588
-1497.91 557.126 3557
-1489.4 557.126 3557
-1474.65 554.777 3542
-1459.97 552.427 3527
-1445.37 550.078 3512
-1436.97 550.078 3512
-1416.77 545.536 3483
-1402.38 543.186 3468
-1380.02 537.704 3433
-1371.81 537.704 3433
-1341.35 528.933 3377
-1322.62 524.704 3350
-1311.86 523.608 3343
-1293.73 519.535 3317
-1285.79 519.535 3317
-1272.47 517.343 3303
-1257.3 514.367 3284
-1242.21 511.391 3265
-1234.41 511.391 3265
-1219.46 508.415 3246
-1204.61 505.439 3227
-1185.39 500.583 3196
-1177.75 500.583 3196
-1154.73 494.005 3154
-1145.01 493.065 3148
-1137.48 493.065 3148
-1129.95 493.065 3148
-1120.28 492.125 3142
-1106.39 489.306 3124
-1101.03 490.246 3130
-1093.55 490.246 3130
-1086.06 490.246 3130
-1078.58 490.246 3130
-1071.1 490.246 3130
-1063.61 490.246 3130
-1056.13 490.246 3130
-1014.47 474.27 3028
-828.868 452.029 2886
-821.967 452.029 2886
-819.302 454.378 2901
-815.165 455.944 2911
-808.204 455.944 2911
-801.243 455.944 2911
-794.282 455.944 2911
-787.32 455.944 2911
-780.359 455.944 2911
-773.398 455.944 2911
-768.017 456.884 2917
-761.042 456.884 2917
-754.066 456.884 2917
-745.554 455.944 2911
-738.593 455.944 2911
-733.14 456.884 2917
-729.898 459.234 2932
-722.887 459.234 2932
-715.876 459.234 2932
-708.865 459.234 2932
-701.853 459.234 2932
-691.287 456.884 2917
-678.212 452.812 2891
-673.621 454.378 2901
-671.51 457.667 2922
-664.523 457.667 2922
-667.887 464.872 2968
-665.687 468.318 2990
-658.537 468.318 2990
-651.387 468.318 2990
-640.79 465.812 2974
-639.218 469.884 3000
-643.631 478.499 3055
-636.326 478.499 3055
-633.756 482.101 3078
-628.634 483.824 3089
-624.868 486.644 3107
-617.438 486.644 3107
-610.008 486.644 3107
-604.712 488.366 3118
-598.405 489.306 3124
-590.935 489.306 3124
-587.947 493.065 3148
-584.844 496.824 3172
-577.259 496.824 3172
-569.673 496.824 3172
-567.404 501.523 3202
-563.069 504.499 3221
-559.677 508.415 3246
-551.915 508.415 3246
-574.327 536.608 3426
-567.292 537.704 3433
-563.642 542.09 3461
-555.366 542.09 3461
-552.78 547.728 3497
-550.178 553.524 3534
-546.479 558.379 3565
-537.954 558.379 3565
-531.657 560.729 3580
-523.096 560.729 3580
-522.44 569.343 3635
-513.747 569.343 3635
-506.028 570.44 3642
-497.319 570.44 3642
-488.609 570.44 3642
-478.978 569.343 3635
-470.285 569.343 3635
-461.593 569.343 3635
-453.773 570.44 3642
-445.064 570.44 3642
-439.35 574.355 3667
-433.399 578.114 3691
-425.493 579.367 3699
-416.648 579.367 3699
-409.676 582.03 3716
-400.79 582.03 3716
-392.748 583.283 3724
-383.843 583.283 3724
-376.548 585.789 3740
-368.49 587.199 3749
-362.785 592.524 3783
-353.739 592.524 3783
-345.513 593.934 3792
-337.953 596.596 3809
-329.622 598.006 3818
-320.492 598.006 3818
-312.014 599.259 3826
-302.865 599.259 3826
-293.716 599.259 3826
-284.567 599.259 3826
-275.418 599.259 3826
-266.268 599.259 3826
-257.119 599.259 3826
-247.452 598.006 3818
-237.76 596.596 3809
-227.631 593.934 3792
-217.064 589.861 3766
-208.059 589.861 3766
-197.679 585.789 3740
-187.928 583.283 3724
-177.821 579.367 3699
-168.976 579.367 3699
-97.3162 352.1 2248
-91.9405 352.1 2248
-85.9873 349.751 2233
-80.6475 349.751 2233
-75.3077 349.751 2233
-69.8739 349.281 2230
-64.3677 348.341 2224
-59.0494 348.341 2224
-53.5137 346.931 2215
-48.1734 346.618 2213
-42.8815 346.618 2213
-37.5895 346.618 2213
-32.21 345.678 2207
-26.8592 344.738 2201
-21.4291 342.076 2184
-16.2065 342.076 2184
-10.9688 341.606 2181
-5.72966 340.196 2172
-0.534516 339.413 2167
4.64744 339.413 2167
9.77496 337.534 2155
14.9144 337.22 2153
20.0069 336.281 2147
25.1411 336.281 2147
30.2752 336.281 2147
35.4093 336.281 2147
40.4868 335.811 2144
45.5712 335.497 2142
50.6934 335.497 2142
55.8155 335.497 2142
60.8524 335.027 2139
66.0599 335.497 2142
71.182 335.497 2142
76.3042 335.497 2142
81.4264 335.497 2142
86.5486 335.497 2142
91.6707 335.497 2142
96.6573 335.027 2139
101.915 335.497 2142
107.287 336.281 2147
112.84 337.534 2155
117.993 337.534 2155
123.661 338.943 2164
129.133 339.726 2169
134.692 340.666 2175
139.893 340.666 2175
145.094 340.666 2175
150.295 340.666 2175
155.496 340.666 2175
313.957 625.103 3991
323.501 625.103 3991
333.045 625.103 3991
343.447 626.669 4001
353.809 628.079 4010
363.398 628.079 4010
372.987 628.079 4010
382.576 628.079 4010
390.307 625.103 3991
405.661 634.187 4049
417.395 637.32 4069
427.126 637.32 4069
437.93 638.886 4079
448.781 640.452 4089
458.559 640.452 4089
468.337 640.452 4089
478.115 640.452 4089
479.66 629.645 4020
489.273 629.645 4020
470.685 475.053 3033
477.938 475.053 3033
485.191 475.053 3033
492.444 475.053 3033
499.697 475.053 3033
506.949 475.053 3033
511.49 472.547 3017
518.704 472.547 3017
526.79 473.33 3022
534.017 473.33 3022
541.243 473.33 3022
546.474 471.607 3011
550.732 469.101 2995
557.894 469.101 2995
562.98 467.378 2984
569.161 466.595 2979
576.284 466.595 2979
583.408 466.595 2979
590.532 466.595 2979
596.652 465.812 2974
603.764 465.812 2974
610.876 465.812 2974
617.987 465.812 2974
623.838 464.872 2968
629.872 464.089 2963
636.958 464.089 2963
642.957 463.306 2958
647.613 461.583 2947
654.66 461.583 2947
664.177 463.306 2958
671.25 463.306 2958
678.324 463.306 2958
684.239 462.523 2953
691.3 462.523 2953
698.362 462.523 2953
703.99 461.583 2947
709.831 460.8 2942
716.866 460.8 2942
723.901 460.8 2942
730.937 460.8 2942
737.972 460.8 2942
745.007 460.8 2942
752.042 460.8 2942
757.787 460.017 2937
762.207 458.45 2927
767.892 457.667 2922
774.879 457.667 2922
781.867 457.667 2922
788.854 457.667 2922
795.841 457.667 2922
802.829 457.667 2922
811.202 458.45 2927
818.201 458.45 2927
829.43 460.8 2942
836.465 460.8 2942
843.5 460.8 2942
850.535 460.8 2942
857.57 460.8 2942
867.838 462.523 2953
874.9 462.523 2953
881.961 462.523 2953
889.023 462.523 2953
900.636 464.872 2968
911.098 466.595 2979
918.221 466.595 2979
933.732 470.824 3006
985.368 493.065 3148
992.896 493.065 3148
1000.42 493.065 3148
1000.27 489.306 3124
1015.48 493.065 3148
1038.61 500.583 3196
1046.25 500.583 3196
1057.85 502.463 3208
1069.84 504.499 3221
1107.31 518.439 3310
1115.23 518.439 3310
1143.5 527.837 3370
1175.48 538.801 3440
1196.09 544.439 3476
1204.41 544.439 3476
1215.16 545.536 3483
1223.49 545.536 3483
1231.82 545.536 3483
1240.15 545.536 3483
1250.99 546.632 3490
1261.86 547.728 3497
1278.57 551.331 3520
1286.99 551.331 3520
1300.56 553.524 3534
1311.98 554.777 3542
1323.06 555.873 3549
1331.54 555.873 3549
1343.05 557.126 3557
1354.59 558.379 3565
1363.12 558.379 3565
1371.64 558.379 3565
1380.17 558.379 3565
1382.46 555.873 3549
1390.95 555.873 3549
1388 551.331 3520
1384.52 546.632 3490
1378.49 540.993 3454
1375.51 536.608 3426
1383.71 536.608 3426
1371.99 528.933 3377
1371.89 525.801 3357
1371.7 522.668 3337
1379.68 522.668 3337
1379.34 519.535 3317
1381.42 517.343 3303
1383.85 515.306 3290
1383.68 512.331 3271
1391.5 512.331 3271
1399.32 512.331 3271
1407.14 512.331 3271
1414.97 512.331 3271
1422.79 512.331 3271
1430.61 512.331 3271
1438.43 512.331 3271
1449.35 513.427 3278
1459.86 514.367 3284
1467.71 514.367 3284
1475.56 514.367 3284
1483.41 514.367 3284
1491.27 514.367 3284
1499.12 514.367 3284
1504.22 513.427 3278
1506.06 511.391 3265
1513.87 511.391 3265
1515.62 509.355 3252
1517.31 507.318 3239
1519.4 505.439 3227
1509.61 499.644 3190
1517.24 499.644 3190
1513.39 495.885 3166
1506.55 491.186 3136
1494.26 484.764 3095
1501.66 484.764 3095
1492.48 479.439 3061
1475.3 471.607 3011
1453.94 462.523 2953
1450.62 459.234 2932
1457.63 459.234 2932
1446.66 453.595 2896
1446.05 451.246 2881
1447.9 449.679 2871
1454.76 449.679 2871
1457.05 448.27 2862
1463.89 448.27 2862
1465.6 446.703 2852
1472.42 446.703 2852
1479.24 446.703 2852
1483.45 445.92 2847
1490.26 445.92 2847
1494.44 445.137 2842
1501.23 445.137 2842
1505.38 444.354 2837
1512.16 444.354 2837
1516.27 443.571 2832
1523.04 443.571 2832
1527.65 442.944 2828
1531.7 442.161 2823
1535.73 441.378 2818
1542.47 441.378 2818
1546.46 440.595 2813
1550.97 439.968 2809
1549.37 437.619 2794
1556.05 437.619 2794
1560.5 436.992 2790
1567.17 436.992 2790
1576.1 437.619 2794
1585.61 438.402 2799
1592.3 438.402 2799
1599 438.402 2799
1605.69 438.402 2799
1612.38 438.402 2799
1619.08 438.402 2799
1625.77 438.402 2799
1632.46 438.402 2799
1639.16 438.402 2799
1648.79 439.185 2804
1655.5 439.185 2804
1665.17 439.968 2809
1671.88 439.968 2809
1678.6 439.968 2809
1687.72 440.595 2813
1694.44 440.595 2813
1704.19 441.378 2818
1710.93 441.378 2818
1717.67 441.378 2818
1724.41 441.378 2818
1728.08 440.595 2813
1732.34 439.968 2809
1739.05 439.968 2809
1742.66 439.185 2804
1749.37 439.185 2804
1756.07 439.185 2804
1762.78 439.185 2804
1769.48 439.185 2804
1776.19 439.185 2804
1779.72 438.402 2799
1786.41 438.402 2799
1793.1 438.402 2799
1796.58 437.619 2794
1800.68 436.992 2790
1807.35 436.992 2790
1814.02 436.992 2790
1820.7 436.992 2790
1824.09 436.209 2785
1827.47 435.426 2780
1834.11 435.426 2780
1838.11 434.8 2776
1844.75 434.8 2776
1851.39 434.8 2776
1858.03 434.8 2776
1864.67 434.8 2776
1871.3 434.8 2776
1874.56 434.016 2771
1881.19 434.016 2771
1887.81 434.016 2771
1884.87 431.824 2757
1891.46 431.824 2757
1901.5 432.607 2762
1908.1 432.607 2762
1914.7 432.607 2762
1921.31 432.607 2762
1927.91 432.607 2762
1934.52 432.607 2762
1941.12 432.607 2762
1947.73 432.607 2762
1950.8 431.824 2757
1960.94 432.607 2762
1967.54 432.607 2762
1974.15 432.607 2762
1980.75 432.607 2762
1987.36 432.607 2762
1990.35 431.824 2757
1990.43 430.414 2748
1987.55 428.378 2735
1994.09 428.378 2735
2010.14 430.414 2748
2016.71 430.414 2748
2023.28 430.414 2748
2029.85 430.414 2748
2036.43 430.414 2748
2022.92 426.185 2721
2029.43 426.185 2721
2035.94 426.185 2721
2042.44 426.185 2721
2039.16 424.149 2708
2042.62 423.522 2704
2049.08 423.522 2704
2062.39 424.932 2713
2071.93 425.559 2717
2078.42 425.559 2717
-2117.39 449.719 2828
-2110.63 449.719 2828
-2103.87 449.719 2828
-2085.98 447.333 2813
-2086.65 448.924 2823
-2086.53 450.355 2832
-2079.75 450.355 2832
-2072.98 450.355 2832
-2066.21 450.355 2832
-2042.71 446.697 2809
-2036 446.697 2809
-2029.28 446.697 2809
-2022.56 446.697 2809
-2015.84 446.697 2809
-2015.56 448.129 2818
-2008.83 448.129 2818
-2019.14 451.945 2842
-2032.88 456.557 2871
-2029.54 457.352 2876
-2022.66 457.352 2876
-2015.78 457.352 2876
-2005.41 456.557 2871
-1998.55 456.557 2871
-1981.97 454.33 2857
-1975.14 454.33 2857
-1971.75 455.126 2862
-1964.91 455.126 2862
-1958.06 455.126 2862
-1944.4 453.535 2852
-1940.98 454.33 2857
-1934.15 454.33 2857
-1927.32 454.33 2857
-1926.53 455.762 2866
-1919.68 455.762 2866
-1912.83 455.762 2866
-1903.31 455.126 2862
-1896.47 455.126 2862
-1889.62 455.126 2862
-1882.78 455.126 2862
-1875.94 455.126 2862
-1869.09 455.126 2862
-1859 454.33 2857
-1858 455.762 2866
-1851.15 455.762 2866
-1847.51 456.557 2871
-1847.05 458.147 2881
-1849.75 460.532 2896
-1842.82 460.532 2896
-1842.24 462.123 2906
-1851.71 466.257 2932
-1847.84 467.052 2937
-1840.82 467.052 2937
-1833.79 467.052 2937
-1826.77 467.052 2937
-1822.85 467.847 2942
-1815.81 467.847 2942
-1818.61 470.392 2958
-1847.67 479.774 3017
-1847.17 481.523 3028
-1839.93 481.523 3028
-1832.69 481.523 3028
-1825.45 481.523 3028
-1824.81 483.273 3039
-1817.54 483.273 3039
-1829.93 488.521 3072
-1857 497.744 3130
-1874.33 504.423 3172
-1866.74 504.423 3172
-1880.26 510.148 3208
-1901.77 518.099 3258
-1893.98 518.099 3258
-1904.72 523.188 3290
-1931.44 532.729 3350
-1950.99 540.362 3398
-1942.87 540.362 3398
-1958.66 547.041 3440
-1970.84 552.766 3476
-1966.48 553.879 3483
-1958.15 553.879 3483
-1949.82 553.879 3483
-1953.76 557.378 3505
-1969.8 564.375 3549
-1961.31 564.375 3549
-1957.23 565.647 3557
-1948.72 565.647 3557
-1940.21 565.647 3557
-1931.71 565.647 3557
-1927.53 566.919 3565
-1919 566.919 3565
-1918.52 569.305 3580
-1909.96 569.305 3580
-1901.4 569.305 3580
-1892.83 569.305 3580
-1884.27 569.305 3580
-1875.71 569.305 3580
-1874.97 571.69 3595
-1874.68 574.234 3611
-1878.45 578.051 3635
-1869.76 578.051 3635
-1861.07 578.051 3635
-1852.38 578.051 3635
-1843.68 578.051 3635
-1834.99 578.051 3635
-1822.28 576.779 3627
-1809.6 575.506 3619
-1800.95 575.506 3619
-1792.3 575.506 3619
-1783.64 575.506 3619
-1782.84 578.051 3635
-1777.56 579.164 3642
-1768.85 579.164 3642
-1764.01 580.436 3650
-1755.28 580.436 3650
-1754.69 583.14 3667
