ply
format ascii 1.0
comment File generated
element vertex 2256
property float x
property float y
property float z
end_header
2188.7 989.458 3549
2192.86 987.506 3542
2192 983.324 3527
2200.44 983.324 3527
2204.49 981.373 3520
2207.88 979.142 3512
2211.86 977.191 3505
2215.17 974.96 3497
2223.53 974.96 3497
2213.39 966.875 3468
2208.23 961.02 3447
2193.96 951.262 3412
2215.68 957.117 3433
2223.89 957.117 3433
2232.09 957.117 3433
2212.9 945.408 3391
2221 945.408 3391
2219.91 941.504 3377
2179.16 920.873 3303
2187.06 920.873 3303
2199.61 922.825 3310
2212.2 924.776 3317
2220.13 924.776 3317
2245.52 932.025 3343
2253.52 932.025 3343
2261.51 932.025 3343
2247.1 922.825 3310
2228.45 911.952 3271
2227.38 908.327 3258
2239.98 910.279 3265
2247.78 910.279 3265
2255.59 910.279 3265
2254.39 906.655 3252
2248.95 901.357 3233
2256.68 901.357 3233
2260.21 899.685 3227
2258.79 896.06 3214
2262.24 894.387 3208
2269.91 894.387 3208
2273.33 892.715 3202
2285.26 894.387 3208
2292.93 894.387 3208
2300.6 894.387 3208
2308.27 894.387 3208
2311.61 892.715 3202
2301.88 886.023 3178
2300.76 882.678 3166
2312.71 884.351 3172
2320.29 884.351 3172
2327.88 884.351 3172
2335.46 884.351 3172
2347.48 886.023 3178
2355.08 886.023 3178
2362.68 886.023 3178
2374.75 887.696 3184
2391.35 891.042 3196
2398.99 891.042 3196
2415.67 894.387 3208
2433.16 898.012 3221
2449.96 901.357 3233
2457.69 901.357 3233
2465.42 901.357 3233
-2425.12 910.789 3239
-2422.6 912.758 3246
-2414.84 912.758 3246
-2407.07 912.758 3246
-2394.14 910.789 3239
-2395.97 914.445 3252
-2388.19 914.445 3252
-2389.93 918.1 3265
-2386.5 919.787 3271
-2378.68 919.787 3271
-2370.86 919.787 3271
-2363.04 919.787 3271
-2341.53 914.445 3252
-2333.76 914.445 3252
-2316.68 910.789 3239
-2286.84 902.072 3208
-2279.17 902.072 3208
-2271.5 902.072 3208
-2246.89 895.323 3184
-2239.27 895.323 3184
-2223.25 891.949 3172
-2215.66 891.949 3172
-2208.08 891.949 3172
-2208.82 895.323 3184
-2201.21 895.323 3184
-2193.59 895.323 3184
-2185.98 895.323 3184
-2170.15 891.949 3172
-2154.39 888.575 3160
-2146.83 888.575 3160
-2139.27 888.575 3160
-2147.91 895.323 3184
-2152.39 900.385 3202
-2157.46 905.728 3221
-2149.76 905.728 3221
-2166.66 916.132 3258
-2193.33 930.754 3310
-2194 934.41 3323
-2186.05 934.41 3323
-2178.11 934.41 3323
-2142.45 932.722 3317
-2134.51 932.722 3317
-2126.58 932.722 3317
-2109.71 928.786 3303
-2127.26 940.033 3343
-2131.95 945.657 3363
-2137.17 951.562 3384
-2129.08 951.562 3384
-2129.76 955.499 3398
-2121.63 955.499 3398
-2113.51 955.499 3398
-2105.38 955.499 3398
-2075.65 945.657 3363
-2047.32 936.378 3330
-2039.36 936.378 3330
-2003.34 923.443 3284
-1964.49 909.102 3233
-1960.39 910.789 3239
-1956.87 912.758 3246
-1949.11 912.758 3246
-1948.52 916.132 3258
-1944.9 918.1 3265
-1944.8 921.756 3278
-1936.97 921.756 3278
-1947.96 930.754 3310
-1940.04 930.754 3310
-1932.13 930.754 3310
-1924.21 930.754 3310
-1882.72 914.445 3252
-1885.9 919.787 3271
-1878.08 919.787 3271
-1870.25 919.787 3271
-1862.43 919.787 3271
-1861.98 923.443 3284
-1861.47 927.098 3297
-1853.58 927.098 3297
-1852.98 930.754 3310
-1848.96 932.722 3317
-1841.03 932.722 3317
-1833.1 932.722 3317
-1825.17 932.722 3317
-1813.4 930.754 3310
-1834.39 945.657 3363
-1826.35 945.657 3363
-1825.88 949.594 3377
-1817.8 949.594 3377
-1809.73 949.594 3377
-1797.92 947.626 3370
-1782.96 943.97 3357
-1767.53 940.033 3343
-1821.64 973.214 3461
-1813.36 973.214 3461
-1816.56 979.401 3483
-1819.65 985.587 3505
-1814.89 987.555 3512
-1806.49 987.555 3512
-1798.09 987.555 3512
-1482.41 907.415 3227
-1474.69 907.415 3227
-1466.98 907.415 3227
-1459.26 907.415 3227
-1451.54 907.415 3227
-1449.19 910.789 3239
-1441.45 910.789 3239
-1433.7 910.789 3239
-1425.96 910.789 3239
-1418.21 910.789 3239
-1402.63 905.728 3221
-1400.12 909.102 3233
-1392.39 909.102 3233
-1387.23 910.789 3239
-1379.49 910.789 3239
-1379.79 916.132 3258
-1382.94 923.443 3284
-1377.6 925.13 3290
-1369.74 925.13 3290
-1367.25 928.786 3303
-1359.35 928.786 3303
-1351.45 928.786 3303
-1346.4 930.754 3310
-1338.49 930.754 3310
-1330.57 930.754 3310
-1322.66 930.754 3310
-1322.69 936.378 3330
-1314.72 936.378 3330
-1306.76 936.378 3330
-1301.53 938.346 3337
-1293.55 938.346 3337
-1285.57 938.346 3337
-1282.56 942.002 3350
-1274.55 942.002 3350
-1266.54 942.002 3350
-1258.53 942.002 3350
-1253.13 943.97 3357
-1245.11 943.97 3357
-1237.08 943.97 3357
-920.331 893.636 3178
-912.731 893.636 3178
-905.132 893.636 3178
-897.532 893.636 3178
-945.658 949.594 3377
-937.583 949.594 3377
-939.141 959.436 3412
-930.982 959.436 3412
-932.289 969.278 3447
-924.046 969.278 3447
-915.803 969.278 3447
-907.561 969.278 3447
-899.318 969.278 3447
-559.194 951.562 3384
-551.102 951.562 3384
-543.01 951.562 3384
-534.918 951.562 3384
-522.622 943.97 3357
-514.595 943.97 3357
-504.455 940.033 3343
-492.599 932.722 3317
-481.745 927.098 3297
-478.604 936.378 3330
-470.641 936.378 3330
-466.429 943.97 3357
-461.133 949.594 3377
-453.057 949.594 3377
-444.982 949.594 3377
-436.906 949.594 3377
-426.291 943.97 3357
-418.263 943.97 3357
-410.236 943.97 3357
-398.135 934.41 3323
-394.181 943.97 3357
-386.153 943.97 3357
-378.125 943.97 3357
-357.973 1024.11 3642
-349.263 1024.11 3642
-340.554 1024.11 3642
-333.303 1028.61 3658
-324.556 1028.61 3658
-315.808 1028.61 3658
-306.389 1026.36 3650
-293.176 1010.89 3595
-284.579 1010.89 3595
-275.445 1008.93 3588
-266.865 1008.93 3588
-143.63 647.029 2301
-138.127 647.029 2301
-132.625 647.029 2301
-126.957 646.185 2298
-120.457 640.842 2279
-114.402 637.468 2267
-108.981 637.468 2267
-103.103 634.656 2257
-97.5759 633.813 2254
-91.9405 632.125 2248
-86.5649 632.125 2248
-80.8642 629.595 2239
-74.903 624.533 2221
-69.2473 621.44 2210
-63.8757 620.596 2207
-58.598 620.596 2207
-53.248 619.753 2204
-47.8469 618.066 2198
-42.5327 617.222 2195
-37.2838 617.222 2195
-31.8306 613.285 2181
-26.5053 610.755 2172
-21.2035 607.661 2161
-16.0359 607.661 2161
-10.8682 607.661 2161
-5.68481 605.974 2155
-0.531556 605.974 2155
4.6217 605.974 2155
9.77496 605.974 2155
14.9282 605.974 2155
20.0815 605.974 2155
25.2347 605.974 2155
30.4303 606.818 2158
35.5907 606.818 2158
40.7512 606.818 2158
45.9116 606.818 2158
51.072 606.818 2158
56.2325 606.818 2158
61.6489 609.349 2167
66.8926 609.911 2169
72.0793 609.911 2169
77.266 609.911 2169
82.4528 609.911 2169
490.394 888.575 3160
497.951 888.575 3160
511.266 898.698 3196
519.883 900.385 3202
527.54 900.385 3202
535.197 900.385 3202
544.888 903.759 3214
552.574 903.759 3214
560.26 903.759 3214
567.945 903.759 3214
574.556 902.072 3208
577.872 895.323 3184
585.486 895.323 3184
591.982 893.636 3178
743.973 893.636 3178
751.573 893.636 3178
759.172 893.636 3178
766.772 893.636 3178
774.371 893.636 3178
780.495 891.949 3172
782.117 885.201 3148
789.645 885.201 3148
798.692 886.888 3154
809.302 890.262 3166
816.873 890.262 3166
826.006 891.949 3172
836.745 895.323 3184
844.359 895.323 3184
851.972 895.323 3184
859.586 895.323 3184
863.932 891.949 3172
871.517 891.949 3172
877.439 890.262 3166
886.688 891.949 3172
895.964 893.636 3178
908.682 898.698 3196
916.324 898.698 3196
931.194 905.728 3221
942.395 909.102 3233
955.71 914.445 3252
963.486 914.445 3252
982.612 925.13 3290
994.393 928.786 3303
1002.29 928.786 3303
1010.19 928.786 3303
1020.25 930.754 3310
1028.16 930.754 3310
1036.08 930.754 3310
1043.99 930.754 3310
1051.91 930.754 3310
1062.06 932.722 3317
1071.93 934.41 3323
1082.15 936.378 3330
1090.11 936.378 3330
1106.98 943.97 3357
1115.01 943.97 3357
1123.04 943.97 3357
1128.71 942.002 3350
1132.31 938.346 3337
1135.5 934.41 3323
1143.45 934.41 3323
1144.46 928.786 3303
1150.27 927.098 3297
1146.91 918.1 3265
1154.72 918.1 3265
1157.9 914.445 3252
1170.34 918.1 3265
1178.14 918.1 3265
1188.13 919.787 3271
1198.51 921.756 3278
1206.35 921.756 3278
1216.41 923.443 3284
1229.11 927.098 3297
1244.5 932.722 3317
1252.43 932.722 3317
1272.9 942.002 3350
1288.56 947.626 3370
1296.62 947.626 3370
1304.68 947.626 3370
1312.74 947.626 3370
1315.7 943.97 3357
1323.73 943.97 3357
1328.98 942.002 3350
1336.99 942.002 3350
1345 942.002 3350
1353.01 942.002 3350
1361.02 942.002 3350
1369.03 942.002 3350
1377.04 942.002 3350
1385.05 942.002 3350
1387.66 938.346 3337
1395.64 938.346 3337
1403.62 938.346 3337
1411.6 938.346 3337
1419.58 938.346 3337
1421.57 934.41 3323
1426.93 932.722 3317
1428.81 928.786 3303
1436.71 928.786 3303
1438.92 925.13 3290
1441.51 921.756 3278
1446.25 919.787 3271
1454.08 919.787 3271
1459.22 918.1 3265
1463.88 916.132 3258
1471.67 916.132 3258
1479.46 916.132 3258
1487.25 916.132 3258
1492.29 914.445 3252
1500.07 914.445 3252
1507.84 914.445 3252
1512.82 912.758 3246
1520.58 912.758 3246
1528.35 912.758 3246
1532.8 910.789 3239
1540.54 910.789 3239
1542.55 907.415 3227
1550.27 907.415 3227
1555.09 905.728 3221
1562.79 905.728 3221
1564.15 902.072 3208
1568.89 900.385 3202
1573.59 898.698 3196
1581.23 898.698 3196
1582.91 895.323 3184
1584.53 891.949 3172
1589.1 890.262 3166
1596.67 890.262 3166
1589.04 881.826 3136
1590.43 878.452 3124
1589.21 873.672 3107
1584.82 867.204 3084
1592.19 867.204 3084
1578.82 855.956 3044
1568.9 846.677 3011
1561.97 839.085 2984
1569.11 839.085 2984
1562.51 831.773 2958
1550.48 821.651 2922
1546.27 815.745 2901
1542.5 810.122 2881
1549.39 810.122 2881
1550.88 807.31 2871
1552.86 804.779 2862
1559.71 804.779 2862
1566.55 804.779 2862
1570.64 803.373 2857
1577.48 803.373 2857
1578.76 800.561 2847
1588.36 801.967 2852
1595.18 801.967 2852
1602 801.967 2852
1616.71 805.904 2866
1623.57 805.904 2866
1630.42 805.904 2866
1629.28 801.967 2852
1624.62 796.343 2832
2069.59 993.742 3534
2078.04 993.742 3534
2086.49 993.742 3534
2090.79 991.773 3527
2103.39 993.742 3534
2111.84 993.742 3534
2125.1 995.991 3542
2133.57 995.991 3542
2142.04 995.991 3542
2150.51 995.991 3542
2168.12 1000.21 3557
2176.62 1000.21 3557
2185.13 1000.21 3557
2188.7 997.959 3549
2192.86 995.991 3542
2187.65 989.805 3520
2196.07 989.805 3520
2199.48 987.555 3512
2207.88 987.555 3512
2206.81 983.337 3497
2210.74 981.369 3490
2219.08 981.369 3490
2208.92 973.214 3461
2208.23 969.278 3447
2193.96 959.436 3412
2215.68 965.341 3433
2223.89 965.341 3433
2232.09 965.341 3433
2212.9 953.531 3391
2221 953.531 3391
2219.91 949.594 3377
2179.16 928.786 3303
2187.06 928.786 3303
2199.61 930.754 3310
2212.2 932.722 3317
2220.13 932.722 3317
2245.52 940.033 3343
2253.52 940.033 3343
2261.51 940.033 3343
2247.1 930.754 3310
2228.45 919.787 3271
2227.38 916.132 3258
2239.98 918.1 3265
2247.78 918.1 3265
2255.59 918.1 3265
2254.39 914.445 3252
2248.95 909.102 3233
2256.68 909.102 3233
2260.21 907.415 3227
2258.79 903.759 3214
2262.24 902.072 3208
2269.91 902.072 3208
2273.33 900.385 3202
2285.26 902.072 3208
2292.93 902.072 3208
2300.6 902.072 3208
2308.27 902.072 3208
2311.61 900.385 3202
2301.88 893.636 3178
2300.76 890.262 3166
2312.71 891.949 3172
2320.29 891.949 3172
2327.88 891.949 3172
2335.46 891.949 3172
2347.48 893.636 3178
2355.08 893.636 3178
2362.68 893.636 3178
2374.75 895.323 3184
2391.35 898.698 3196
2398.99 898.698 3196
2415.67 902.072 3208
2433.16 905.728 3221
2449.96 909.102 3233
2457.69 909.102 3233
2465.42 909.102 3233
-2425.12 918.548 3239
-2417.37 918.548 3239
-2409.63 918.548 3239
-2401.88 918.548 3239
-2389.7 916.847 3233
-2395.97 922.235 3252
-2388.19 922.235 3252
-2389.93 925.922 3265
-2386.5 927.623 3271
-2378.68 927.623 3271
-2370.86 927.623 3271
-2363.04 927.623 3271
-2332.17 918.548 3239
-2324.43 918.548 3239
-2294.51 909.757 3208
-2286.84 909.757 3208
-2274.9 908.055 3202
-2267.25 908.055 3202
-2246.89 902.951 3184
-2230.84 899.548 3172
-2223.25 899.548 3172
-2215.66 899.548 3172
-2208.08 899.548 3172
-2200.49 899.548 3172
-2192.91 899.548 3172
-2185.32 899.548 3172
-2169.5 896.145 3160
-2141.42 887.637 3130
-2114.16 879.413 3101
-2106.75 879.413 3101
-2099.33 879.413 3101
-2123.62 892.742 3148
-2132.23 899.548 3172
-2144.74 908.055 3202
-2137.08 908.055 3202
-2142.06 913.444 3221
-2158.87 923.936 3258
-2151.08 923.936 3258
-2143.29 923.936 3258
-2117.61 936.698 3303
-2109.71 936.698 3303
-2106.26 938.683 3310
-2119.27 948.042 3343
-2132.75 957.684 3377
-2124.67 957.684 3377
-2116.6 957.684 3377
-2108.52 957.684 3377
-2100.44 957.684 3377
-2092.37 957.684 3377
-2075.65 953.713 3363
-2047.32 944.355 3330
-2039.36 944.355 3330
-1885.9 927.623 3271
-1878.08 927.623 3271
-1870.25 927.623 3271
-1862.43 927.623 3271
-1861.98 931.31 3284
-1861.47 934.996 3297
-1853.58 934.996 3297
-1852.98 938.683 3310
-1848.96 940.668 3317
-1841.03 940.668 3317
-1833.1 940.668 3317
-1825.17 940.668 3317
-1813.4 938.683 3310
-1834.39 953.713 3363
-1826.35 953.713 3363
-1825.88 957.684 3377
-1817.8 957.684 3377
-1809.73 957.684 3377
-1797.92 955.699 3370
-1782.96 952.012 3357
-1767.53 948.042 3343
-1821.64 981.505 3461
-1813.36 981.505 3461
-1816.56 987.744 3483
-1819.65 993.983 3505
-1814.89 995.968 3512
-1806.49 995.968 3512
-1798.09 995.968 3512
-1482.41 915.145 3227
-1474.69 915.145 3227
-1466.98 915.145 3227
-1459.26 915.145 3227
-1451.54 915.145 3227
-1449.19 918.548 3239
-1441.45 918.548 3239
-1433.7 918.548 3239
-1425.96 918.548 3239
-1418.21 918.548 3239
-1402.63 913.444 3221
-1400.12 916.847 3233
-1392.39 916.847 3233
-1387.23 918.548 3239
-1379.49 918.548 3239
-1379.79 923.936 3258
-1382.94 931.31 3284
-1377.6 933.011 3290
-1369.74 933.011 3290
-1367.25 936.698 3303
-1359.35 936.698 3303
-1351.45 936.698 3303
-1346.4 938.683 3310
-1338.49 938.683 3310
-1330.57 938.683 3310
-1322.66 938.683 3310
-1322.69 944.355 3330
-1314.72 944.355 3330
-1306.76 944.355 3330
-1301.53 946.34 3337
-1293.55 946.34 3337
-1285.57 946.34 3337
-1282.56 950.027 3350
-1274.55 950.027 3350
-1266.54 950.027 3350
-1258.53 950.027 3350
-1253.13 952.012 3357
-1245.11 952.012 3357
-1237.08 952.012 3357
-1216.6 942.37 3323
-1208.66 942.37 3323
-1220.22 957.684 3377
-1222.2 965.624 3405
-1214.06 965.624 3405
-1205.91 965.624 3405
-920.331 901.249 3178
-912.731 901.249 3178
-905.132 901.249 3178
-897.532 901.249 3178
-945.658 957.684 3377
-937.583 957.684 3377
-939.141 967.609 3412
-930.982 967.609 3412
-932.289 977.535 3447
-924.046 977.535 3447
-915.803 977.535 3447
-907.561 977.535 3447
-899.318 977.535 3447
-552.419 948.042 3343
-544.425 948.042 3343
-536.431 948.042 3343
-528.437 948.042 3343
-516.395 940.668 3317
-508.463 940.668 3317
-499.475 938.683 3310
-487.698 931.31 3284
-477.946 927.623 3271
-473.861 934.996 3297
-465.977 934.996 3297
-460.871 940.668 3317
-454.715 944.355 3330
-446.752 944.355 3330
-438.789 944.355 3330
-430.826 944.355 3330
-421.974 942.37 3323
-414.027 942.37 3323
-406.081 942.37 3323
-396.577 938.683 3310
-388.662 938.683 3310
-349.263 1032.84 3642
-340.554 1032.84 3642
-333.303 1037.37 3658
-324.556 1037.37 3658
-315.808 1037.37 3658
-305.718 1032.84 3642
-293.176 1019.51 3595
-284.025 1017.52 3588
-143.442 651.69 2298
-137.947 651.69 2298
-132.452 651.69 2298
-126.791 650.839 2295
-120.299 645.451 2276
-114.099 641.197 2261
-108.692 641.197 2261
-103.103 640.063 2257
-97.3162 637.51 2248
-91.6951 635.809 2242
-86.3338 635.809 2242
-80.4308 631.555 2227
-74.903 629.854 2221
-69.2473 626.734 2210
-63.8757 625.883 2207
-58.598 625.883 2207
-53.248 625.033 2204
-47.8469 623.331 2198
-42.4746 621.629 2192
-37.2328 621.629 2192
-31.8306 618.51 2181
-26.5053 615.958 2172
-21.2035 612.838 2161
-16.0359 612.838 2161
-10.8682 612.838 2161
-5.68481 611.137 2155
-0.531556 611.137 2155
4.6217 611.137 2155
9.77496 611.137 2155
14.9282 611.137 2155
20.0815 611.137 2155
25.2699 611.987 2158
30.4303 611.987 2158
35.5907 611.987 2158
40.7512 611.987 2158
45.9116 611.987 2158
51.072 611.987 2158
56.2325 611.987 2158
61.6489 614.54 2167
66.8926 615.107 2169
72.0793 615.107 2169
77.266 615.107 2169
209.164 922.235 3252
216.94 922.235 3252
224.717 922.235 3252
233.852 927.623 3271
241.674 927.623 3271
249.496 927.623 3271
256.295 923.936 3258
262.546 918.548 3239
270.291 918.548 3239
278.037 918.548 3239
285.782 918.548 3239
497.843 909.757 3208
505.515 909.757 3208
513.186 909.757 3208
519.883 908.055 3202
527.54 908.055 3202
535.197 908.055 3202
544.888 911.458 3214
552.574 911.458 3214
560.26 911.458 3214
567.945 911.458 3214
574.556 909.757 3208
582.228 909.757 3208
589.899 909.757 3208
591.982 901.249 3178
743.973 901.249 3178
751.573 901.249 3178
759.172 901.249 3178
766.772 901.249 3178
774.371 901.249 3178
780.495 899.548 3172
786.589 897.846 3166
791.15 894.443 3154
801.731 897.846 3166
810.835 899.548 3172
818.421 899.548 3172
827.568 901.249 3178
836.745 902.951 3184
844.359 902.951 3184
851.972 902.951 3184
859.586 902.951 3184
863.932 899.548 3172
871.517 899.548 3172
877.439 897.846 3166
885.01 897.846 3166
894.273 899.548 3172
906.976 904.652 3190
914.604 904.652 3190
931.194 913.444 3221
942.395 916.847 3233
955.71 922.235 3252
963.486 922.235 3252
976.937 927.623 3271
990.479 933.011 3290
1000.47 934.996 3297
1008.35 934.996 3297
1018.09 936.698 3303
1025.99 936.698 3303
1033.89 936.698 3303
1041.78 936.698 3303
1047.78 934.996 3297
1055.66 934.996 3297
1071.93 942.37 3323
1086.38 948.042 3343
1094.37 948.042 3343
1106.98 952.012 3357
1115.01 952.012 3357
1123.04 952.012 3357
1128.71 950.027 3350
1132.31 946.34 3337
1135.5 942.37 3323
1143.45 942.37 3323
1146.89 938.683 3310
1147.83 933.011 3290
1144.45 923.936 3258
1152.24 923.936 3258
1155.76 920.533 3246
1165.68 922.235 3252
1173.45 922.235 3252
1181.23 922.235 3252
1189.01 922.235 3252
1196.78 922.235 3252
1214.19 929.608 3278
1224.26 931.31 3284
1234.37 933.011 3290
1242.24 933.011 3290
1260.36 940.668 3317
1280.91 950.027 3350
1288.92 950.027 3350
1296.93 950.027 3350
1304.94 950.027 3350
1312.96 950.027 3350
1320.97 950.027 3350
1326.2 948.042 3343
1334.19 948.042 3343
1339.78 946.34 3337
1347.76 946.34 3337
1355.74 946.34 3337
1366.17 948.042 3343
1374.17 948.042 3343
1382.16 948.042 3343
1387.66 946.34 3337
1395.64 946.34 3337
1403.62 946.34 3337
1411.6 946.34 3337
1419.58 946.34 3337
1421.57 942.37 3323
1426.93 940.668 3317
1428.81 936.698 3303
1436.71 936.698 3303
1438.92 933.011 3290
1441.51 929.608 3278
1446.25 927.623 3271
1454.08 927.623 3271
1459.22 925.922 3265
1463.88 923.936 3258
1471.67 923.936 3258
1479.46 923.936 3258
1484.51 922.235 3252
1492.29 922.235 3252
1500.07 922.235 3252
1507.84 922.235 3252
1512.82 920.533 3246
1520.58 920.533 3246
1525.05 918.548 3239
1532.8 918.548 3239
1540.54 918.548 3239
1542.55 915.145 3227
1550.27 915.145 3227
1555.09 913.444 3221
1562.79 913.444 3221
1567.08 911.458 3214
1571.83 909.757 3208
1576.54 908.055 3202
1584.2 908.055 3202
1585.89 904.652 3190
1581.53 897.846 3166
1586.09 896.145 3160
1593.65 896.145 3160
1595.12 892.742 3148
1590.43 885.935 3124
1594.83 884.234 3118
1596.64 881.114 3107
1604.07 881.114 3107
1599.57 874.592 3084
1586.1 863.248 3044
1576.1 853.89 3011
1583.3 853.89 3011
1579.41 847.934 2990
1569.58 838.859 2958
1557.47 828.65 2922
1553.21 822.695 2901
1560.15 822.695 2901
1556.28 817.023 2881
1560.46 815.605 2876
1567.33 815.605 2876
1574.21 815.605 2876
1581.09 815.605 2876
1585.21 814.187 2871
1584.31 810.217 2857
1596.15 812.769 2866
1603.01 812.769 2866
1618.29 817.023 2881
1630.82 819.859 2891
1637.73 819.859 2891
1644.64 819.859 2891
1651.56 819.859 2891
2073.5 995.968 3512
2081.9 995.968 3512
2090.3 995.968 3512
2098.7 995.968 3512
2125.1 1004.48 3542
2133.57 1004.48 3542
2142.04 1004.48 3542
2150.51 1004.48 3542
2168.12 1008.73 3557
2176.62 1008.73 3557
2185.13 1008.73 3557
2188.7 1006.46 3549
2179.23 998.237 3520
2182.68 995.968 3512
2191.08 995.968 3512
2199.48 995.968 3512
2194.04 989.729 3490
2202.39 989.729 3490
2201.87 985.759 3476
2210.18 985.759 3476
2208.92 981.505 3461
2208.23 977.535 3447
2186.14 950.027 3350
2194.15 950.027 3350
2202.16 950.027 3350
2092.74 899.548 3172
2112.24 904.652 3190
2123.86 906.354 3196
2156.17 916.847 3233
2163.91 916.847 3233
2184.4 922.235 3252
2192.18 922.235 3252
2199.95 922.235 3252
2207.73 922.235 3252
2211.42 920.533 3246
2189.1 908.055 3202
2204.99 911.458 3214
2212.67 911.458 3214
2220.36 911.458 3214
2228.05 911.458 3214
2235.73 911.458 3214
2243.42 911.458 3214
2246.9 909.757 3208
2250.35 908.055 3202
2258.01 908.055 3202
2265.67 908.055 3202
2264.81 904.652 3190
2276.71 906.354 3196
2284.35 906.354 3196
2291.99 906.354 3196
2299.64 906.354 3196
2298.62 902.951 3184
2288.85 896.145 3160
2287.68 892.742 3148
2295.21 892.742 3148
2293.96 889.338 3136
2314.67 894.443 3154
2326.63 896.145 3160
2338.62 897.846 3166
2346.19 897.846 3166
2353.76 897.846 3166
2370.28 901.249 3178
2391.35 906.354 3196
2398.99 906.354 3196
2411.15 908.055 3202
2418.81 908.055 3202
2426.46 908.055 3202
-2412.9 924.591 3233
-2405.16 924.591 3233
-2397.43 924.591 3233
-2394.14 926.307 3239
-2395.97 930.025 3252
-2388.19 930.025 3252
-2389.93 933.743 3265
-2386.5 935.459 3271
-2378.68 935.459 3271
-2370.86 935.459 3271
-2363.04 935.459 3271
-2297.88 915.726 3202
-2290.22 915.726 3202
-2282.56 915.726 3202
-2266.38 912.294 3190
-2258.75 912.294 3190
-2238.42 907.146 3172
-2226.62 905.43 3166
-2219.04 905.43 3166
-2211.47 905.43 3166
-2203.9 905.43 3166
-2192.17 903.714 3160
-2184.61 903.714 3160
-2177.06 903.714 3160
-2165.38 901.999 3154
-2121.58 886.841 3101
-2086.89 875.402 3061
-2079.57 875.402 3061
-2124.16 903.714 3160
-2124.64 907.146 3172
-2117.06 907.146 3172
-2133.41 917.442 3208
-2125.74 917.442 3208
-2118.07 917.442 3208
-2122.09 946.612 3310
-2114.18 946.612 3310
-2106.26 946.612 3310
-2106.59 950.33 3323
-2111.27 956.05 3343
-2103.28 956.05 3343
-2107.82 961.77 3363
-2108.52 965.773 3377
-2100.44 965.773 3377
-2092.37 965.773 3377
-1870.61 931.741 3258
-1862.82 931.741 3258
-1855.03 931.741 3258
-1847.24 931.741 3258
-1854.13 939.177 3284
-1846.27 939.177 3284
-1838.42 939.177 3284
-1845.06 946.612 3310
-1837.15 946.612 3310
-1829.23 946.612 3310
-1821.32 946.612 3310
-1813.4 946.612 3310
-1834.39 961.77 3363
-1826.35 961.77 3363
-1825.88 965.773 3377
-1817.8 965.773 3377
-1809.73 965.773 3377
-1794.18 961.77 3363
-1782.96 960.054 3357
-1767.53 956.05 3343
-1821.64 989.796 3461
-1813.36 989.796 3461
-1812.91 994.086 3476
-1819.65 1002.38 3505
-1814.89 1004.38 3512
-1806.49 1004.38 3512
-1798.09 1004.38 3512
-1482.41 922.875 3227
-1474.69 922.875 3227
-1466.98 922.875 3227
-1459.26 922.875 3227
-1451.54 922.875 3227
-1446.51 924.591 3233
-1438.78 924.591 3233
-1431.05 924.591 3233
-1409.67 915.726 3202
-1402.01 915.726 3202
-1394.36 915.726 3202
-1394.93 921.16 3221
-1389.81 922.875 3227
-1384.66 924.591 3233
-1376.93 924.591 3233
-1369.2 924.591 3233
-1372 931.741 3258
-1367.14 933.743 3265
-1359.33 933.743 3265
-1351.52 933.743 3265
-1343.71 933.743 3265
-1338.36 935.459 3271
-1330.54 935.459 3271
-1322.72 935.459 3271
-1314.89 935.459 3271
-1307.07 935.459 3271
-1302.03 937.461 3278
-1294.19 937.461 3278
-1291.06 940.893 3290
-1301.53 954.334 3337
-1293.55 954.334 3337
-1285.57 954.334 3337
-1277.59 954.334 3337
-1269.61 954.334 3337
-1266.54 958.052 3350
-1258.53 958.052 3350
-1253.13 960.054 3357
-1245.11 960.054 3357
-1237.08 960.054 3357
-1216.6 950.33 3323
-1208.66 950.33 3323
-1220.22 965.773 3377
-1222.2 973.781 3405
-1214.06 973.781 3405
-1205.91 973.781 3405
-906.43 895.135 3130
-898.945 895.135 3130
-891.461 895.135 3130
-882.281 893.419 3124
-891.613 910.578 3184
-883.999 910.578 3184
-918.498 954.334 3337
-930.982 975.783 3412
-930.396 983.79 3440
-922.17 983.79 3440
-913.944 983.79 3440
-898.345 975.783 3412
-890.186 975.783 3412
-552.419 956.05 3343
-544.425 956.05 3343
-536.431 956.05 3343
-528.437 956.05 3343
-516.395 948.614 3317
-508.463 948.614 3317
-499.475 946.612 3310
-487.698 939.177 3284
-477.946 935.459 3271
-473.861 942.894 3297
-465.977 942.894 3297
-460.871 948.614 3317
-454.715 952.332 3330
-446.752 952.332 3330
-438.789 952.332 3330
-430.826 952.332 3330
-421.974 950.33 3323
-414.027 950.33 3323
-406.081 950.33 3323
-396.577 946.612 3310
-388.662 946.612 3310
-349.263 1041.56 3642
-340.554 1041.56 3642
-333.303 1046.14 3658
-324.556 1046.14 3658
-315.808 1046.14 3658
-305.718 1041.56 3642
-293.176 1028.12 3595
-284.025 1026.12 3588
-143.442 657.195 2298
-137.947 657.195 2298
-132.452 657.195 2298
-126.791 656.337 2295
-120.299 650.903 2276
-114.099 646.613 2261
-108.692 646.613 2261
-103.103 645.469 2257
-97.3162 642.896 2248
-91.6951 641.18 2242
-86.3338 641.18 2242
-80.4308 636.89 2227
-74.903 635.174 2221
-69.2473 632.028 2210
-63.8757 631.17 2207
-58.598 631.17 2207
-53.248 630.312 2204
-47.8469 628.596 2198
-42.4746 626.88 2192
-37.2328 626.88 2192
-31.8306 623.735 2181
-26.5053 621.161 2172
-21.2035 618.015 2161
-16.0359 618.015 2161
-10.8682 618.015 2161
-5.69273 617.157 2158
-0.531556 616.299 2155
4.6217 616.299 2155
9.77496 616.299 2155
14.9282 616.299 2155
20.0815 616.299 2155
25.2699 617.157 2158
30.4726 618.015 2161
35.6402 618.015 2161
40.8078 618.015 2161
45.9754 618.015 2161
51.143 618.015 2161
56.2325 617.157 2158
61.6489 619.731 2167
66.8926 620.303 2169
72.0793 620.303 2169
77.266 620.303 2169
82.4528 620.303 2169
200.211 924.591 3233
209.164 930.025 3252
216.94 930.025 3252
225.131 931.741 3258
233.852 935.459 3271
241.674 935.459 3271
249.496 935.459 3271
256.295 931.741 3258
262.546 926.307 3239
270.291 926.307 3239
278.037 926.307 3239
285.782 926.307 3239
492.158 921.16 3221
499.861 921.16 3221
507.563 921.16 3221
513.186 917.442 3208
519.883 915.726 3202
527.54 915.726 3202
535.197 915.726 3202
544.888 919.158 3214
552.574 919.158 3214
560.26 919.158 3214
567.945 919.158 3214
574.556 917.442 3208
582.228 917.442 3208
589.899 917.442 3208
591.982 908.862 3178
743.973 908.862 3178
751.573 908.862 3178
759.172 908.862 3178
766.772 908.862 3178
774.371 908.862 3178
781.971 908.862 3178
788.08 907.146 3172
795.665 907.146 3172
804.77 908.862 3178
812.369 908.862 3178
819.969 908.862 3178
829.131 910.578 3184
836.745 910.578 3184
844.359 910.578 3184
851.972 910.578 3184
859.586 910.578 3184
863.932 907.146 3172
871.517 907.146 3172
877.439 905.43 3166
885.01 905.43 3166
894.273 907.146 3172
903.564 908.862 3178
911.163 908.862 3178
929.171 919.158 3214
938.897 921.16 3221
951.889 926.307 3239
959.634 926.307 3239
973.055 931.741 3258
984.759 935.459 3271
992.581 935.459 3271
1000.4 935.459 3271
1008.23 935.459 3271
1016.05 935.459 3271
1026.06 937.461 3278
1037.68 940.893 3290
1045.55 940.893 3290
1053.42 940.893 3290
1071.93 950.33 3323
1086.38 956.05 3343
1094.37 956.05 3343
1106.98 960.054 3357
1115.01 960.054 3357
1123.04 960.054 3357
1128.71 958.052 3350
1132.31 954.334 3337
1135.5 950.33 3323
1143.45 950.33 3323
1146.89 946.612 3310
1143.64 937.461 3278
1140.24 928.309 3246
1148 928.309 3246
1151.13 924.591 3233
1158.86 924.591 3233
1166.6 924.591 3233
1179.05 928.309 3246
1186.81 928.309 3246
1194.57 928.309 3246
1202.34 928.309 3246
1210.1 928.309 3246
1217.86 928.309 3246
1222.98 926.307 3239
1240.6 933.743 3265
1250.71 935.459 3271
1261.22 937.461 3278
1269.06 937.461 3278
1279.24 939.177 3284
1289.44 940.893 3290
1302.43 944.61 3303
1310.33 944.61 3303
1318.23 944.61 3303
1331.75 948.614 3317
1344.93 952.332 3330
1352.9 952.332 3330
1360.86 952.332 3330
1368.82 952.332 3330
1376.78 952.332 3330
1384.75 952.332 3330
1395.64 954.334 3337
1403.62 954.334 3337
1411.6 954.334 3337
1416.6 952.332 3330
1421.57 950.33 3323
1426.93 948.614 3317
1426.21 942.894 3297
1434.1 942.894 3297
1436.3 939.177 3284
1441.51 937.461 3278
1446.25 935.459 3271
1454.08 935.459 3271
1459.22 933.743 3265
1463.88 931.741 3258
1471.67 931.741 3258
1479.46 931.741 3258
1484.51 930.025 3252
1489.54 928.309 3246
1497.3 928.309 3246
1505.06 928.309 3246
1512.82 928.309 3246
1517.31 926.307 3239
1525.05 926.307 3239
1527.12 922.875 3227
1534.83 922.875 3227
1542.55 922.875 3227
1547.39 921.16 3221
1555.09 921.16 3221
1562.79 921.16 3221
1567.08 919.158 3214
1574.77 919.158 3214
1579.5 917.442 3208
1587.17 917.442 3208
1585.89 912.294 3190
1590.52 910.578 3184
1589.1 905.43 3166
1596.67 905.43 3166
1598.16 901.999 3154
1602.65 900.283 3148
1610.18 900.283 3148
1608.46 895.135 3130
1615.94 895.135 3130
1614.09 889.987 3112
1618.93 888.557 3107
1614.32 881.98 3084
1621.69 881.98 3084
1622.73 878.548 3072
1597.7 861.103 3011
1585.18 850.521 2974
1569.81 838.51 2932
1576.82 838.51 2932
1567.08 829.644 2901
1571.31 828.214 2896
1578.23 828.214 2896
1585.16 828.214 2896
1592.08 828.214 2896
1596.25 826.784 2891
1594.84 822.495 2876
1610.08 826.784 2891
1616.99 826.784 2891
1632.33 831.074 2906
1642.1 832.504 2911
1649.06 832.504 2911
1656.02 832.504 2911
1662.98 832.504 2911
2039.26 987.794 3454
2047.52 987.794 3454
2081.37 1000.09 3497
2089.73 1000.09 3497
2107.1 1004.38 3512
2120.31 1006.67 3520
2132.96 1008.67 3527
2141.4 1008.67 3527
2149.83 1008.67 3527
2158.27 1008.67 3527
2166.7 1008.67 3527
2165.88 1004.38 3512
2065.78 901.999 3154
2085.15 907.146 3172
2092.74 907.146 3172
2100.32 907.146 3172
2119.87 912.294 3190
2131.5 914.01 3196
2139.14 914.01 3196
2171.64 924.591 3233
2179.37 924.591 3233
2187.1 924.591 3233
2173.78 915.726 3202
2181.44 915.726 3202
2176.79 910.578 3184
2192.64 914.01 3196
2208.54 917.442 3208
2216.21 917.442 3208
2223.89 917.442 3208
2227.38 915.726 3202
2235.04 915.726 3202
2242.7 915.726 3202
2246.14 914.01 3196
2245.32 910.578 3184
2252.93 910.578 3184
2260.55 910.578 3184
2272.43 912.294 3190
2280.06 912.294 3190
2287.69 912.294 3190
2291 910.578 3184
2285.62 905.43 3166
2280.15 900.283 3148
2270.24 893.419 3124
2282.09 895.135 3130
2289.57 895.135 3130
2301.46 896.851 3136
2313.38 898.567 3142
2334.18 903.714 3160
2341.74 903.714 3160
2353.76 905.43 3166
2370.28 908.862 3178
2377.88 908.862 3178
2385.48 908.862 3178
2388.56 907.146 3172
2396.15 907.146 3172
2403.73 907.146 3172
-2412.9 932.336 3233
-2405.16 932.336 3233
-2397.43 932.336 3233
-2403.75 937.815 3252
-2395.97 937.815 3252
-2388.19 937.815 3252
-2384.81 939.546 3258
-2382.12 941.564 3265
-2374.32 941.564 3265
-2366.51 941.564 3265
-2287.18 913.015 3166
-2246.21 902.633 3130
-2238.72 902.633 3130
-2256.9 913.015 3166
-2249.33 913.015 3166
-2241.76 913.015 3166
-2225.72 909.554 3154
-2213.96 907.824 3148
-2202.22 906.093 3142
-2194.71 906.093 3142
-2187.2 906.093 3142
-2188.01 909.554 3154
-2180.47 909.554 3154
-2172.92 909.554 3154
-2136.55 897.442 3112
-2121.58 894.27 3101
-2082.8 881.004 3055
-2075.5 881.004 3055
-2131.72 911.284 3160
-2132.23 914.745 3172
-2124.64 914.745 3172
-2117.06 914.745 3172
-2133.41 925.127 3208
-2125.74 925.127 3208
-2118.07 925.127 3208
-2122.09 954.541 3310
-2114.18 954.541 3310
-2106.26 954.541 3310
-2106.59 958.29 3323
-2098.64 958.29 3323
-2090.7 958.29 3323
-1842.66 921.666 3196
-1845.35 926.857 3214
-1841.67 928.875 3221
-1833.96 928.875 3221
-1840.43 936.085 3246
-1839.45 939.546 3258
-1831.66 939.546 3258
-1838.42 947.044 3284
-1830.57 947.044 3284
-1826.05 948.774 3290
-1818.18 948.774 3290
-1814.16 950.792 3297
-1813.4 954.541 3310
-1816.39 960.309 3330
-1808.43 960.309 3330
-1818.31 969.826 3363
-1810.27 969.826 3363
-1802.23 969.826 3363
-1794.18 969.826 3363
-1782.96 968.095 3357
-1764.35 962.328 3337
-1806.9 990.012 3433
-1798.69 990.012 3433
-1812.91 1002.41 3476
-1808.23 1004.43 3483
-1799.9 1004.43 3483
-1791.57 1004.43 3483
-1783.25 1004.43 3483
-1425.9 885.907 3072
-1418.55 885.907 3072
-1451.63 911.284 3160
-1452.3 916.475 3178
-1444.7 916.475 3178
-1437.1 916.475 3178
-1432.2 918.205 3184
-1427.27 919.936 3190
-1419.64 919.936 3190
-1412.01 919.936 3190
-1401.74 918.205 3184
-1394.13 918.205 3184
-1383.9 916.475 3178
-1376.3 916.475 3178
-1371.29 918.205 3184
-1366.24 919.936 3190
-1371.82 928.875 3221
-1364.12 928.875 3221
-1363.99 934.066 3239
-1356.25 934.066 3239
-1351.42 936.085 3246
-1343.66 936.085 3246
-1338.36 937.815 3252
-1330.59 937.815 3252
-1322.81 937.815 3252
-1315.03 937.815 3252
-1307.26 937.815 3252
-1299.48 937.815 3252
-1291.7 937.815 3252
-1283.93 937.815 3252
-1286.35 945.313 3278
-1283.2 948.774 3290
-1275.33 948.774 3290
-1267.46 948.774 3290
-1267.25 954.541 3310
-1259.34 954.541 3310
-1256.34 958.29 3323
-1248.39 958.29 3323
-1240.44 958.29 3323
-1232.5 958.29 3323
-1224.55 958.29 3323
-1216.6 958.29 3323
-1228.3 973.863 3377
-1220.22 973.863 3377
-1222.2 981.938 3405
-1214.06 981.938 3405
-1205.91 981.938 3405
-901.218 897.442 3112
-893.776 897.442 3112
-889.752 900.903 3124
-882.281 900.903 3124
-891.613 918.205 3184
-883.999 918.205 3184
-916.571 960.309 3330
-919.522 971.844 3370
-930.396 992.031 3440
-922.17 992.031 3440
-913.944 992.031 3440
-889.13 973.863 3377
-881.055 973.863 3377
-541.678 945.313 3278
-533.84 945.313 3278
-526.001 945.313 3278
-518.162 945.313 3278
-510.324 945.313 3278
-502.485 945.313 3278
-494.646 945.313 3278
-484.877 941.564 3265
-475.17 937.815 3252
-469.262 941.564 3265
-461.454 941.564 3265
-456.286 947.044 3284
-449.253 948.774 3290
-441.385 948.774 3290
-433.518 948.774 3290
-425.65 948.774 3290
-420.323 954.541 3310
-412.408 954.541 3310
-404.492 954.541 3310
-143.255 661.835 2295
-137.767 661.835 2295
-132.279 661.835 2295
-125.907 657.221 2279
-119.664 652.895 2264
-113.595 649.146 2251
-108.212 649.146 2251
-102.281 645.685 2239
-96.9266 645.685 2239
-91.0817 642.225 2227
-85.5252 640.494 2221
-80.2141 640.494 2221
-74.6332 638.187 2213
-69.1533 636.457 2207
-63.7888 635.592 2204
-58.5184 635.592 2204
-53.1755 634.727 2201
-47.7816 632.996 2195
-42.4164 631.266 2189
-37.1819 631.266 2189
-31.8306 628.959 2181
-26.5053 626.364 2172
-21.2035 623.192 2161
-16.0359 623.192 2161
-10.8682 623.192 2161
-5.69273 622.326 2158
-0.531556 621.461 2155
4.6217 621.461 2155
9.77496 621.461 2155
14.9282 621.461 2155
20.0815 621.461 2155
25.2699 622.326 2158
30.4726 623.192 2161
35.6402 623.192 2161
40.8078 623.192 2161
45.9754 623.192 2161
51.143 623.192 2161
56.2325 622.326 2158
61.6489 624.922 2167
66.8926 625.499 2169
72.0793 625.499 2169
77.266 625.499 2169
82.4528 625.499 2169
200.211 932.336 3233
209.164 937.815 3252
216.94 937.815 3252
225.131 939.546 3258
233.852 943.295 3271
241.674 943.295 3271
249.496 943.295 3271
256.295 939.546 3258
262.546 934.066 3239
270.291 934.066 3239
278.037 934.066 3239
285.782 934.066 3239
490.021 939.546 3258
497.812 939.546 3258
505.603 939.546 3258
509.454 932.336 3233
513.186 925.127 3208
519.883 923.396 3202
528.528 925.127 3208
536.2 925.127 3208
543.871 925.127 3208
551.542 925.127 3208
559.214 925.127 3208
566.885 925.127 3208
574.556 925.127 3208
582.228 925.127 3208
589.899 925.127 3208
743.973 916.475 3178
751.573 916.475 3178
764.905 923.396 3202
772.562 923.396 3202
780.219 923.396 3202
784.924 919.936 3190
789.57 916.475 3178
797.17 916.475 3178
804.77 916.475 3178
813.903 918.205 3184
821.517 918.205 3184
829.131 918.205 3184
836.745 918.205 3184
844.359 918.205 3184
851.972 918.205 3184
859.586 918.205 3184
863.932 914.745 3172
871.517 914.745 3172
877.439 913.015 3166
885.01 913.015 3166
894.273 914.745 3172
903.564 916.475 3178
911.163 916.475 3178
929.171 926.857 3214
938.897 928.875 3221
951.889 934.066 3239
959.634 934.066 3239
973.055 939.546 3258
984.759 943.295 3271
992.581 943.295 3271
1000.4 943.295 3271
1008.23 943.295 3271
1016.05 943.295 3271
1026.06 945.313 3278
1037.68 948.774 3290
1045.55 948.774 3290
1053.42 948.774 3290
1071.93 958.29 3323
1086.38 964.058 3343
1094.37 964.058 3343
1106.98 968.095 3357
1115.01 968.095 3357
1123.04 968.095 3357
1128.71 966.077 3350
1132.31 962.328 3337
1135.5 958.29 3323
1143.45 958.29 3323
1146.89 954.541 3310
1143.64 945.313 3278
1140.24 936.085 3246
1148 936.085 3246
1151.13 932.336 3233
1158.86 932.336 3233
1166.6 932.336 3233
1179.05 936.085 3246
1186.81 936.085 3246
1194.57 936.085 3246
1202.34 936.085 3246
1210.1 936.085 3246
1217.86 936.085 3246
1222.98 934.066 3239
1240.6 941.564 3265
1250.71 943.295 3271
1261.22 945.313 3278
1269.06 945.313 3278
1279.24 947.044 3284
1289.44 948.774 3290
1305.19 954.541 3310
1313.11 954.541 3310
1321.02 954.541 3310
1331.75 956.56 3317
1347.76 962.328 3337
1355.74 962.328 3337
1363.72 962.328 3337
1371.7 962.328 3337
1379.68 962.328 3337
1384.75 960.309 3330
1395.64 962.328 3337
1403.62 962.328 3337
1411.6 962.328 3337
1416.6 960.309 3330
1421.57 958.29 3323
1426.93 956.56 3317
1426.21 950.792 3297
1434.1 950.792 3297
1436.3 947.044 3284
1441.51 945.313 3278
1446.25 943.295 3271
1454.08 943.295 3271
1459.22 941.564 3265
1463.88 939.546 3258
1471.67 939.546 3258
1479.46 939.546 3258
1484.51 937.815 3252
1489.54 936.085 3246
1497.3 936.085 3246
1505.06 936.085 3246
1512.82 936.085 3246
1517.31 934.066 3239
1525.05 934.066 3239
1527.12 930.606 3227
1534.83 930.606 3227
1542.55 930.606 3227
1547.39 928.875 3221
1555.09 928.875 3221
1562.79 928.875 3221
1570.49 928.875 3221
1578.19 928.875 3221
1579.5 925.127 3208
1587.17 925.127 3208
1591.86 923.396 3202
1590.52 918.205 3184
1592.11 914.745 3172
1599.7 914.745 3172
1604.24 913.015 3166
1611.81 913.015 3166
1610.18 907.824 3148
1617.71 907.824 3148
1625.23 907.824 3148
1620.31 900.903 3124
1621.53 897.442 3112
1626.36 896 3107
1633.78 896 3107
1629.07 889.367 3084
1630.07 885.907 3072
1604.9 868.315 3011
1612.11 868.315 3011
1599.41 857.645 2974
1589.23 848.417 2942
1588.13 844.091 2927
1589.68 841.208 2917
1596.65 841.208 2917
1603.63 841.208 2917
1607.29 839.477 2911
1605.94 835.152 2896
1624.56 841.208 2917
1631.53 841.208 2917
1641.32 842.65 2922
1648.3 842.65 2922
1655.29 842.65 2922
1662.28 842.65 2922
1666.41 841.208 2917
2014.46 983.956 3412
2043.37 994.05 3447
2051.61 994.05 3447
2059.86 994.05 3447
2098.1 1008.47 3497
2111.28 1010.78 3505
2128.73 1015.1 3520
2137.15 1015.1 3520
2145.57 1015.1 3520
2149.09 1012.79 3512
2157.49 1012.79 3512
2143.68 1002.41 3476
2161.56 918.205 3184
2169.18 918.205 3184
2176.79 918.205 3184
2184.41 918.205 3184
2192.02 918.205 3184
2199.63 918.205 3184
2203.09 916.475 3178
2210.69 916.475 3178
2218.29 916.475 3178
2225.89 916.475 3178
2233.49 916.475 3178
2241.09 916.475 3178
2252.93 918.205 3184
2260.55 918.205 3184
2272.43 919.936 3190
2280.06 919.936 3190
2287.69 919.936 3190
2291 918.205 3184
2285.62 913.015 3166
2280.15 907.824 3148
2270.24 900.903 3124
2282.09 902.633 3130
2289.57 902.633 3130
2301.46 904.363 3136
2313.38 906.093 3142
2325.32 907.824 3148
2332.85 907.824 3148
2344.84 909.554 3154
2365.8 914.745 3172
2373.39 914.745 3172
2380.97 914.745 3172
2388.56 914.745 3172
2396.15 914.745 3172
2403.73 914.745 3172
2411.32 914.745 3172
2418.9 914.745 3172
2408.13 907.824 3148
-2412.9 940.081 3233
-2405.16 940.081 3233
-2397.43 940.081 3233
-2403.75 945.605 3252
-2395.97 945.605 3252
-2388.19 945.605 3252
-2384.81 947.35 3258
-2382.12 949.386 3265
-2374.32 949.386 3265
-2366.51 949.386 3265
-2287.18 920.599 3166
-2249.37 908.386 3124
-2246.21 910.131 3130
-2238.72 910.131 3130
-2256.9 920.599 3166
-2249.33 920.599 3166
-2241.76 920.599 3166
-2225.72 917.109 3154
-2213.96 915.365 3148
-2202.22 913.62 3142
-2194.71 913.62 3142
-2187.2 913.62 3142
-2188.01 917.109 3154
-2180.47 917.109 3154
-2172.92 917.109 3154
-2136.55 904.897 3112
-2121.58 901.698 3101
-2082.8 888.323 3055
-2075.5 888.323 3055
-2139.81 922.343 3172
-2132.23 922.343 3172
-2136.7 927.577 3190
-2129.07 927.577 3190
-2133.41 932.811 3208
-2125.74 932.811 3208
-2118.07 932.811 3208
-2117.14 956.655 3290
-2122.09 962.471 3310
-2114.18 962.471 3310
-2106.26 962.471 3310
-2106.59 966.251 3323
-2098.64 966.251 3323
-2090.7 966.251 3323
-1843.99 922.343 3172
-1836.4 922.343 3172
-1842.66 929.322 3196
-1835.01 929.322 3196
-1827.37 929.322 3196
-1819.73 929.322 3196
-1822.29 934.556 3214
-1828.72 941.825 3239
-1824.91 943.861 3246
-1817.15 943.861 3246
-1816.08 947.35 3258
-1815.5 951.13 3271
-1811.55 953.166 3278
-1803.71 953.166 3278
-1799.16 954.91 3284
-1798.39 958.69 3297
-1790.51 958.69 3297
-1807.5 972.066 3343
-1799.5 972.066 3343
-1791.51 972.066 3343
-1783.51 972.066 3343
-1775.52 972.066 3343
-1764.35 970.321 3337
-1756.37 970.321 3337
-1748.39 970.321 3337
-1425.9 893.266 3072
-1418.55 893.266 3072
-1427.28 903.443 3107
-1430.36 910.131 3130
-1422.88 910.131 3130
-1426.25 917.109 3154
-1426.8 922.343 3172
-1419.22 922.343 3172
-1411.63 922.343 3172
-1404.05 922.343 3172
-1393.82 920.599 3166
-1386.25 920.599 3166
-1378.68 920.599 3166
-1368.51 918.854 3160
-1363.54 920.599 3166
-1358.54 922.343 3172
-1358.62 927.577 3190
-1350.99 927.577 3190
-1343.36 927.577 3190
-1348.5 941.825 3239
-1340.76 941.825 3239
-1343.71 949.386 3265
-1335.91 949.386 3265
-1328.1 949.386 3265
-1320.29 949.386 3265
-1304.85 943.861 3246
-1278.52 953.166 3278
-1270.68 953.166 3278
-1262.84 953.166 3278
-1257.3 954.91 3284
-1254.39 958.69 3297
-1248.77 960.435 3303
-1240.88 960.435 3303
-1232.98 960.435 3303
-1232.5 966.251 3323
-1224.55 966.251 3323
-1216.6 966.251 3323
-1228.3 981.953 3377
-1220.22 981.953 3377
-1212.15 981.953 3377
-1187.31 968.286 3330
-1179.35 968.286 3330
-1113.7 920.599 3166
-1106.13 920.599 3166
-1094.39 917.109 3154
-1005.66 911.875 3136
-998.157 911.875 3136
-990.658 911.875 3136
-983.159 911.875 3136
-901.218 904.897 3112
-893.776 904.897 3112
-889.752 908.386 3124
-882.281 908.386 3124
-891.613 925.833 3184
-883.999 925.833 3184
-916.571 968.286 3330
-919.522 979.917 3370
-928.503 998.236 3433
-920.293 998.236 3433
-912.084 998.236 3433
-889.13 981.953 3377
-881.055 981.953 3377
-535.234 941.825 3239
-528.628 943.861 3246
-520.866 943.861 3246
-514.052 945.605 3252
-506.276 945.605 3252
-498.499 945.605 3252
-490.723 945.605 3252
-482.946 945.605 3252
-472.394 940.081 3233
-467.393 945.605 3252
-459.617 945.605 3252
-453.646 949.386 3265
-445.839 949.386 3265
-438.836 951.13 3271
-431.014 951.13 3271
-423.192 951.13 3271
-415.37 951.13 3271
-142.256 662.68 2279
-195.575 947.35 3258
-187.784 947.35 3258
-179.994 947.35 3258
-118.977 654.538 2251
-112.838 650.176 2236
-107.491 650.176 2236
-101.458 645.815 2221
-96.1474 645.815 2221
-90.8363 645.815 2221
-84.9861 641.744 2207
-79.7085 641.744 2207
-74.4309 641.744 2207
-68.7773 638.255 2195
-63.5283 638.255 2195
-58.2794 638.255 2195
-52.958 637.382 2192
-47.7163 637.382 2192
-42.3583 635.638 2186
-37.1309 635.638 2186
-31.8306 634.184 2181
-26.4687 630.694 2169
-21.2329 629.241 2164
-16.0581 629.241 2164
-10.8532 627.496 2158
-5.69273 627.496 2158
-0.531556 626.624 2155
4.6217 626.624 2155
9.78857 627.496 2158
14.949 627.496 2158
20.1094 627.496 2158
25.2699 627.496 2158
30.4726 628.368 2161
35.6402 628.368 2161
40.8078 628.368 2161
45.9754 628.368 2161
51.143 628.368 2161
56.2325 627.496 2158
61.6489 630.113 2167
66.8926 630.694 2169
72.0793 630.694 2169
77.266 630.694 2169
82.4528 630.694 2169
200.211 940.081 3233
208.328 941.825 3239
216.073 941.825 3239
225.131 947.35 3258
233.852 951.13 3271
241.674 951.13 3271
249.496 951.13 3271
255.823 945.605 3252
262.546 941.825 3239
270.291 941.825 3239
278.037 941.825 3239
285.782 941.825 3239
490.021 947.35 3258
497.812 947.35 3258
505.603 947.35 3258
509.454 940.081 3233
513.186 932.811 3208
518.909 929.322 3196
528.528 932.811 3208
536.2 932.811 3208
543.871 932.811 3208
551.542 932.811 3208
559.214 932.811 3208
565.825 931.067 3202
572.407 929.322 3196
578.961 927.577 3190
586.589 927.577 3190
764.905 931.067 3202
772.562 931.067 3202
780.219 931.067 3202
784.924 927.577 3190
789.57 924.088 3178
797.17 924.088 3178
804.77 924.088 3178
813.903 925.833 3184
821.517 925.833 3184
829.131 925.833 3184
836.745 925.833 3184
844.359 925.833 3184
851.972 925.833 3184
859.586 925.833 3184
863.932 922.343 3172
871.517 922.343 3172
875.777 918.854 3160
883.333 918.854 3160
894.273 922.343 3172
901.858 922.343 3172
909.443 922.343 3172
923.967 929.322 3196
936.856 934.556 3214
948.362 938.336 3227
956.079 938.336 3227
967.38 941.825 3239
979.039 945.605 3252
986.816 945.605 3252
994.592 945.605 3252
1002.37 945.605 3252
1010.15 945.605 3252
1017.92 945.605 3252
1027.59 947.35 3258
1035.38 947.35 3258
1049.58 953.166 3278
1065.48 960.435 3303
1082.15 968.286 3330
1090.11 968.286 3330
1100.39 970.321 3337
1108.37 970.321 3337
1116.35 970.321 3337
1124.33 970.321 3337
1129.93 968.286 3330
1131.06 962.471 3310
1138.97 962.471 3310
1142.39 958.69 3297
1141.2 951.13 3271
1135.67 940.081 3233
1143.4 940.081 3233
1149 938.336 3227
1154.56 936.591 3221
1162.27 936.591 3221
1174.33 940.081 3233
1184.25 941.825 3239
1192 941.825 3239
1199.74 941.825 3239
1207.49 941.825 3239
1215.23 941.825 3239
1220.71 940.081 3233
1233.38 943.861 3246
1250.71 951.13 3271
1261.22 953.166 3278
1269.06 953.166 3278
1279.24 954.91 3284
1289.44 956.655 3290
1305.19 962.471 3310
1313.11 962.471 3310
1321.02 962.471 3310
1331.75 964.506 3317
1347.76 970.321 3337
1355.74 970.321 3337
1363.72 970.321 3337
1371.7 970.321 3337
1379.68 970.321 3337
1384.75 968.286 3330
1392.71 968.286 3330
1400.67 968.286 3330
1408.64 968.286 3330
1413.62 966.251 3323
1419 964.506 3317
1423.92 962.471 3310
1423.19 956.655 3290
1431.05 956.655 3290
1433.67 953.166 3278
1438.43 951.13 3271
1443.6 949.386 3265
1451.41 949.386 3265
1459.22 949.386 3265
1463.88 947.35 3258
1468.96 945.605 3252
1476.74 945.605 3252
1481.77 943.861 3246
1489.54 943.861 3246
1494.07 941.825 3239
1501.81 941.825 3239
1509.56 941.825 3239
1514.49 940.081 3233
1519.4 938.336 3227
1527.12 938.336 3227
1534.83 938.336 3227
1542.55 938.336 3227
1547.39 936.591 3221
1555.09 936.591 3221
1562.79 936.591 3221
1570.49 936.591 3221
1578.19 936.591 3221
1579.5 932.811 3208
1587.17 932.811 3208
1591.86 931.067 3202
1590.52 925.833 3184
1592.11 922.343 3172
1599.7 922.343 3172
1604.24 920.599 3166
1611.81 920.599 3166
1616.32 918.854 3160
1617.71 915.365 3148
1625.23 915.365 3148
1626.54 911.875 3136
1627.78 908.386 3124
1628.97 904.897 3112
1636.41 904.897 3112
1634.88 899.954 3095
1630.07 893.266 3072
1608.1 877.273 3017
1615.32 877.273 3017
1613.39 872.33 3000
1600.58 861.571 2963
1598.98 856.919 2947
1600.58 854.011 2937
1607.6 854.011 2937
1614.62 854.011 2937
1621.65 854.011 2937
1623.13 851.103 2927
1641.26 856.919 2947
1648.31 856.919 2947
1661.54 860.117 2958
1671.43 861.571 2963
1678.52 861.571 2963
1685.6 861.571 2963
1692.69 861.571 2963
2014.46 992.13 3412
2043.37 1002.31 3447
2051.61 1002.31 3447
2059.86 1002.31 3447
2098.1 1016.85 3497
2111.28 1019.17 3505
2128.73 1023.53 3520
2137.15 1023.53 3520
2145.57 1023.53 3520
2149.09 1021.21 3512
2157.49 1021.21 3512
2143.68 1010.74 3476
2161.56 925.833 3184
2169.18 925.833 3184
2176.79 925.833 3184
2184.41 925.833 3184
2192.02 925.833 3184
2199.63 925.833 3184
2203.09 924.088 3178
2210.69 924.088 3178
2218.29 924.088 3178
2225.89 924.088 3178
2233.49 924.088 3178
2241.09 924.088 3178
2252.93 925.833 3184
2260.55 925.833 3184
2272.43 927.577 3190
2280.06 927.577 3190
2287.69 927.577 3190
2291 925.833 3184
2285.62 920.599 3166
2280.15 915.365 3148
2270.24 908.386 3124
2282.09 910.131 3130
2289.57 910.131 3130
2301.46 911.875 3136
2313.38 913.62 3142
2325.32 915.365 3148
2332.85 915.365 3148
2344.84 917.109 3154
2365.8 922.343 3172
2373.39 922.343 3172
2380.97 922.343 3172
2388.56 922.343 3172
2396.15 922.343 3172
2403.73 922.343 3172
2411.32 922.343 3172
2418.9 922.343 3172
2408.13 915.365 3148
-2403.75 953.396 3252
-2395.97 953.396 3252
-2388.19 953.396 3252
-2339.43 936.978 3196
-2314.27 929.942 3172
-2306.69 929.942 3172
-2299.1 929.942 3172
-2287.18 928.183 3166
-2249.37 915.87 3124
-2246.21 917.629 3130
-2238.72 917.629 3130
-2235.51 919.388 3136
-2228.01 919.388 3136
-2220.51 919.388 3136
-2213.02 919.388 3136
-2205.52 919.388 3136
-2202.22 921.147 3142
-2194.71 921.147 3142
-2187.2 921.147 3142
-2179.68 921.147 3142
-2172.17 921.147 3142
-2164.66 921.147 3142
-2128.99 909.127 3101
-2113.37 905.609 3089
-2082.8 895.641 3055
-2075.5 895.641 3055
-2139.81 929.942 3172
-2132.23 929.942 3172
-2136.7 935.219 3190
-2129.07 935.219 3190
-2121.44 935.219 3190
-2113.81 935.219 3190
-2106.19 935.219 3190
-2117.14 964.536 3290
-2122.09 970.4 3310
-2114.18 970.4 3310
-2106.26 970.4 3310
-2098.35 970.4 3310
-2090.43 970.4 3310
-1827.06 917.629 3130
-1843.99 929.942 3172
-1836.4 929.942 3172
-1842.66 936.978 3196
-1835.01 936.978 3196
-1827.37 936.978 3196
-1819.73 936.978 3196
-1822.29 942.255 3214
-1828.72 949.584 3239
-1824.91 951.637 3246
-1817.15 951.637 3246
-1816.08 955.155 3258
-1815.5 958.966 3271
