ply
format ascii 1.0
comment File generated
element vertex 2251
property float x
property float y
property float z
end_header
-1742.72 20.7996 3642
-1723.06 20.6683 3619
-1714.41 20.6683 3619
-1694.44 20.5312 3595
-1689.6 20.5769 3603
-1680.98 20.5769 3603
-1672.37 20.5769 3603
-1663.75 20.5769 3603
-1658.81 20.6226 3611
-1650.17 20.6226 3611
-1641.54 20.6226 3611
-1632.9 20.6226 3611
-1624.27 20.6226 3611
-1615.63 20.6226 3611
-1607 20.6226 3611
-1591.28 20.5312 3595
-1576.08 20.4455 3580
-1567.52 20.4455 3580
-1555.48 20.3999 3572
-1540.44 20.3142 3557
-1531.93 20.3142 3557
-1523.43 20.3142 3557
-1502.14 20.1429 3527
-1475.08 19.8916 3483
-1460.43 19.8059 3468
-1452.14 19.8059 3468
-1438.02 19.726 3454
-1429.76 19.726 3454
-1407.09 19.5261 3419
-1398.92 19.5261 3419
-1379.35 19.3662 3391
-1359.92 19.2062 3363
-1294.8 18.3953 3221
-1287.09 18.3953 3221
-1279.39 18.3953 3221
-1259.45 18.2182 3190
-1244.76 18.1154 3172
-1225.47 17.9441 3142
-1217.96 17.9441 3142
-1194.65 17.71 3101
-1178.43 17.5786 3078
-1164.6 17.4815 3061
-1157.28 17.4815 3061
-1139.44 17.3216 3033
-1119.87 17.1331 3000
-1104.91 17.0132 2979
-1101.84 17.076 2990
-1094.69 17.076 2990
-1087.54 17.076 2990
-1078.22 17.0418 2984
-1071.08 17.0418 2984
-1063.95 17.0418 2984
-1056.81 17.0418 2984
-1047.92 17.0132 2979
-1036.95 16.9504 2968
-1029.85 16.9504 2968
-1022.76 16.9504 2968
-1015.66 16.9504 2968
-1006.86 16.9218 2963
-999.777 16.9218 2963
-991.016 16.8933 2958
-983.943 16.8933 2958
-976.869 16.8933 2958
-969.796 16.8933 2958
-961.095 16.8647 2953
-954.033 16.8647 2953
-946.972 16.8647 2953
-939.91 16.8647 2953
-932.849 16.8647 2953
-925.787 16.8647 2953
-916.859 16.8305 2947
-909.812 16.8305 2947
-899.701 16.7733 2937
-892.678 16.7733 2937
-885.655 16.7733 2937
-878.632 16.7733 2937
-871.608 16.7733 2937
-864.585 16.7733 2937
-857.562 16.7733 2937
-850.539 16.7733 2937
-842.079 16.7448 2932
-835.068 16.7448 2932
-828.057 16.7448 2932
-821.045 16.7448 2932
-814.034 16.7448 2932
-805.647 16.7162 2927
-797.283 16.6877 2922
-790.296 16.6877 2922
-783.308 16.6877 2922
-774.992 16.6591 2917
-768.017 16.6591 2917
-761.042 16.6591 2917
-754.066 16.6591 2917
-747.091 16.6591 2917
-738.593 16.6249 2911
-730.375 16.5963 2906
-723.426 16.5963 2906
-715.244 16.5677 2901
-708.307 16.5677 2901
-701.37 16.5677 2901
-694.433 16.5677 2901
-686.31 16.5392 2896
-678.212 16.5106 2891
-672.46 16.5392 2896
-665.535 16.5392 2896
-658.61 16.5392 2896
-651.684 16.5392 2896
-643.646 16.5106 2891
-636.733 16.5106 2891
-629.82 16.5106 2891
-626.138 16.5963 2906
-620.254 16.6249 2911
-615.611 16.6877 2922
-608.623 16.6877 2922
-603.695 16.7448 2932
-616.22 17.293 3028
-625.873 17.7728 3112
-618.432 17.7728 3112
-618.058 17.9784 3148
-610.53 17.9784 3148
-665.831 19.8516 3476
-657.519 19.8516 3476
-657.424 20.1029 3520
-649.007 20.1029 3520
-640.59 20.1029 3520
-630.736 20.0572 3512
-622.337 20.0572 3512
-613.939 20.0572 3512
-605.541 20.0572 3512
-597.142 20.0572 3512
-588.744 20.0572 3512
-581.668 20.1029 3520
-573.251 20.1029 3520
-564.833 20.1029 3520
-554.045 20.0172 3505
-544.418 19.9715 3497
-536.055 19.9715 3497
-524.524 19.8516 3476
-517.251 19.8916 3483
-509.945 19.9315 3490
-502.606 19.9715 3497
-494.243 19.9715 3497
-485.881 19.9715 3497
-475.607 19.8916 3483
-467.278 19.8916 3483
-267.81 11.8219 2070
-262.86 11.8219 2070
-257.91 11.8219 2070
-252.594 11.8047 2067
-246.812 11.7648 2060
-240.947 11.7191 2052
-236.04 11.7191 2052
-231.471 11.7362 2055
-226.557 11.7362 2055
-221.643 11.7362 2055
-217.256 11.7648 2060
-212.33 11.7648 2060
-207.404 11.7648 2060
-203.46 11.8219 2070
-199.949 11.9075 2085
-195.711 11.9532 2093
-190.706 11.9532 2093
-186.411 11.9989 2101
-183.027 12.1074 2120
-178.881 12.1702 2131
-173.785 12.1702 2131
-169.323 12.2159 2139
-164.822 12.2616 2147
-160.283 12.3073 2155
-155.129 12.3073 2155
-150.185 12.3244 2158
-145.226 12.3416 2161
-140.253 12.3587 2164
-135.078 12.3587 2164
-129.903 12.3587 2164
-124.728 12.3587 2164
-119.554 12.3587 2164
-114.22 12.3416 2161
-108.901 12.3244 2158
-103.597 12.3073 2155
-98.4435 12.3073 2155
-93.0738 12.2787 2150
-87.8098 12.2616 2147
-82.4831 12.2331 2142
-77.3609 12.2331 2142
-72.1376 12.2159 2139
-66.9286 12.1988 2136
-61.7339 12.1817 2133
-56.6333 12.1817 2133
-51.4118 12.1531 2128
-46.3231 12.1531 2128
-41.2344 12.1531 2128
-36.1457 12.1531 2128
-31.0133 12.136 2125
-25.9318 12.136 2125
-20.8502 12.136 2125
-15.791 12.1531 2128
-10.7174 12.1702 2131
-5.6215 12.1702 2131
-0.525636 12.1702 2131
4.57023 12.1702 2131
9.6661 12.1702 2131
14.762 12.1702 2131
19.8578 12.1702 2131
24.9537 12.1702 2131
30.0496 12.1702 2131
35.1454 12.1702 2131
40.2791 12.1817 2133
45.4435 12.1988 2136
50.6224 12.2159 2139
55.7374 12.2159 2139
60.8524 12.2159 2139
65.9674 12.2159 2139
71.0824 12.2159 2139
76.1973 12.2159 2139
81.5024 12.2445 2144
86.7506 12.2616 2147
91.8847 12.2616 2147
97.0188 12.2616 2147
102.153 12.2616 2147
107.287 12.2616 2147
112.578 12.2787 2150
117.72 12.2787 2150
123.032 12.2959 2153
128.3 12.3073 2155
133.453 12.3073 2155
138.606 12.3073 2155
143.76 12.3073 2155
149.328 12.3416 2161
154.495 12.3416 2161
159.884 12.3587 2164
165.059 12.3587 2164
170.47 12.3758 2167
175.814 12.3873 2169
181.251 12.4044 2172
186.445 12.4044 2172
192.168 12.4387 2178
197.648 12.4558 2181
202.864 12.4558 2181
208.079 12.4558 2181
214.077 12.5015 2189
219.612 12.5186 2192
225.469 12.5529 2198
230.726 12.5529 2198
235.982 12.5529 2198
242.555 12.6214 2210
249.073 12.6842 2221
254.384 12.6842 2221
263.203 12.8556 2251
271.569 12.9983 2276
278.472 13.0669 2288
283.943 13.0669 2288
290.68 13.124 2298
297.85 13.1982 2311
303.77 13.2154 2314
309.304 13.2154 2314
315.245 13.2325 2317
320.786 13.2325 2317
326.749 13.2496 2320
332.297 13.2496 2320
337.845 13.2496 2320
342.505 13.2154 2314
348.038 13.2154 2314
353.572 13.2154 2314
360.036 13.2496 2320
365.584 13.2496 2320
371.132 13.2496 2320
376.68 13.2496 2320
381.733 13.2325 2317
386.772 13.2154 2314
392.306 13.2154 2314
518.423 16.9846 2974
525.535 16.9846 2974
532.647 16.9846 2974
539.758 16.9846 2974
545.767 16.9504 2968
552.864 16.9504 2968
557.132 16.8647 2953
562.091 16.8019 2942
568.159 16.7733 2937
575.183 16.7733 2937
579.232 16.6877 2922
585.217 16.6591 2917
589.959 16.5963 2906
596.908 16.5963 2906
602.818 16.5677 2901
609.755 16.5677 2901
616.693 16.5677 2901
623.63 16.5677 2901
630.567 16.5677 2901
637.504 16.5677 2901
644.441 16.5677 2901
650.256 16.5392 2896
657.181 16.5392 2896
664.106 16.5392 2896
671.031 16.5392 2896
677.957 16.5392 2896
684.882 16.5392 2896
690.613 16.5106 2891
697.526 16.5106 2891
704.439 16.5106 2891
711.352 16.5106 2891
718.266 16.5106 2891
726.433 16.5392 2896
733.358 16.5392 2896
740.284 16.5392 2896
747.209 16.5392 2896
754.134 16.5392 2896
759.745 16.5106 2891
766.658 16.5106 2891
774.91 16.5392 2896
781.835 16.5392 2896
788.76 16.5392 2896
795.685 16.5392 2896
802.61 16.5392 2896
809.536 16.5392 2896
816.461 16.5392 2896
824.808 16.5677 2901
833.178 16.5963 2906
840.128 16.5963 2906
847.077 16.5963 2906
857.259 16.6591 2917
864.234 16.6591 2917
871.209 16.6591 2917
878.185 16.6591 2917
885.16 16.6591 2917
892.136 16.6591 2917
899.111 16.6591 2917
910.746 16.7448 2932
930.904 16.9846 2974
944.639 17.1046 2995
951.801 17.1046 2995
962.485 17.1674 3006
983.867 17.4187 3050
998.31 17.5443 3072
1005.66 17.5443 3072
1020.59 17.6757 3095
1029.98 17.71 3101
1043.08 17.807 3118
1050.54 17.807 3118
1070.21 18.0126 3154
1094.15 18.2868 3202
1108.35 18.3953 3221
1116.05 18.3953 3221
1139.1 18.6466 3265
1160.26 18.8636 3303
1189.38 19.2062 3363
1197.42 19.2062 3363
1218.01 19.4061 3398
1226.13 19.4061 3398
1236.8 19.4461 3405
1244.95 19.4461 3405
1253.09 19.4461 3405
1266.42 19.5261 3419
1295.84 19.8516 3476
1304.15 19.8516 3476
1315.11 19.8916 3483
1326.1 19.9315 3490
1334.44 19.9315 3490
1342.79 19.9315 3490
1348.42 19.8916 3483
1348.18 19.7659 3461
1342.74 19.566 3426
1350.93 19.566 3426
1342.47 19.3262 3384
1344.97 19.2462 3370
1350.22 19.2062 3363
1358.26 19.2062 3363
1350.05 18.9778 3323
1355.55 18.9435 3317
1360.6 18.9036 3310
1368.52 18.9036 3310
1371.02 18.8293 3297
1378.91 18.8293 3297
1386.79 18.8293 3297
1394.68 18.8293 3297
1402.56 18.8293 3297
1404.88 18.7551 3284
1410.16 18.7208 3278
1417.99 18.7208 3278
1425.83 18.7208 3278
1433.67 18.7208 3278
1446.79 18.7893 3290
1478.09 19.092 3343
1498.09 19.2462 3370
1506.14 19.2462 3370
1542.51 19.606 3433
1557.04 19.686 3447
1571.64 19.7659 3461
1579.92 19.7659 3461
1595.08 19.8516 3476
1603.39 19.8516 3476
1611.7 19.8516 3476
1616.29 19.8059 3468
1624.58 19.8059 3468
1626.28 19.726 3454
1634.54 19.726 3454
1639.47 19.686 3447
1647.71 19.686 3447
1655.96 19.686 3447
1660.82 19.646 3440
1669.05 19.646 3440
1677.27 19.646 3440
1685.5 19.646 3440
1693.72 19.646 3440
1701.95 19.646 3440
1710.18 19.646 3440
1693.93 19.3662 3391
1687.98 19.2062 3363
1696.02 19.2062 3363
1701.02 19.172 3357
1709.05 19.172 3357
1720.15 19.2062 3363
1728.19 19.2062 3363
1736.23 19.2062 3363
1744.27 19.2062 3363
1745.54 19.132 3350
1753.55 19.132 3350
1761.56 19.132 3350
1769.57 19.132 3350
1777.59 19.132 3350
1781.87 19.092 3343
1789.86 19.092 3343
1794.63 19.0578 3337
1795.04 18.9778 3323
1788.88 18.8293 3297
1796.77 18.8293 3297
1787.14 18.6466 3265
1774.05 18.4295 3227
1778.46 18.3953 3221
1786.16 18.3953 3221
1779.94 18.2525 3196
1770.8 18.0812 3166
1754.78 17.8413 3124
1739.69 17.6129 3084
1747.06 17.6129 3084
1716.32 17.2302 3017
1662.98 16.6249 2911
1652.73 16.4535 2881
1645.8 16.3165 2857
1652.63 16.3165 2857
1647.84 16.2022 2837
1646.46 16.1223 2823
1645.01 16.0423 2809
1651.73 16.0423 2809
1652.54 15.9852 2799
1656.27 15.9567 2794
1657.6 15.9053 2785
1664.26 15.9053 2785
1667.92 15.8767 2780
1674.57 15.8767 2780
1681.21 15.8767 2780
1687.86 15.8767 2780
1694.51 15.8767 2780
1701.16 15.8767 2780
1705.35 15.8539 2776
1708.9 15.8253 2771
1715.53 15.8253 2771
1716.56 15.7739 2762
1717.55 15.7225 2753
1724.13 15.7225 2753
1730.72 15.7225 2753
1737.3 15.7225 2753
1743.88 15.7225 2753
1750.47 15.7225 2753
1757.05 15.7225 2753
1763.63 15.7225 2753
1767 15.694 2748
1773.57 15.694 2748
1777.55 15.6711 2744
1784.12 15.6711 2744
1790.68 15.6711 2744
1793.96 15.6426 2739
1794.6 15.5912 2730
1801.13 15.5912 2730
1801.69 15.5398 2721
1802.89 15.4941 2713
1809.37 15.4941 2713
1815.86 15.4941 2713
1822.35 15.4941 2713
1822.77 15.4427 2704
1829.23 15.4427 2704
1832.31 15.4141 2699
1838.76 15.4141 2699
1845.21 15.4141 2699
1851.67 15.4141 2699
1858.12 15.4141 2699
1864.58 15.4141 2699
1868.26 15.3913 2695
1874.7 15.3913 2695
1872.07 15.317 2682
1878.49 15.317 2682
1884.9 15.317 2682
1888.49 15.2942 2678
1888.53 15.2428 2669
1894.91 15.2428 2669
1901.29 15.2428 2669
1907.68 15.2428 2669
1914.06 15.2428 2669
1920.44 15.2428 2669
1926.82 15.2428 2669
1930.31 15.2199 2665
1936.68 15.2199 2665
1943.05 15.2199 2665
1949.43 15.2199 2665
1955.8 15.2199 2665
1959.23 15.1971 2661
1965.59 15.1971 2661
1971.95 15.1971 2661
1978.32 15.1971 2661
1984.68 15.1971 2661
1991.04 15.1971 2661
1997.41 15.1971 2661
2016.57 15.2942 2678
2022.97 15.2942 2678
2035.44 15.3399 2686
2048.71 15.3913 2695
2071.93 15.5169 2717
2078.42 15.5169 2717
-2091.94 22.6497 2794
-2085.26 22.6497 2794
-2078.57 22.6497 2794
-2065.22 22.5768 2785
-2058.56 22.5768 2785
-2045.27 22.5038 2776
-2038.63 22.5038 2776
-2028.33 22.4633 2771
-2011.49 22.3498 2757
-2001.99 22.3173 2753
-1995.41 22.3173 2753
-1978.71 22.2039 2739
-1946.96 21.9201 2704
-1927.57 21.7742 2686
-1921.15 21.7742 2686
-1909.03 21.7094 2678
-1884.15 21.4986 2652
-1869.31 21.4013 2640
-1863 21.4013 2640
-2430.5 28.8999 3565
-2421.98 28.8999 3565
-2413.45 28.8999 3565
-2415.05 29.0215 3580
-2416.57 29.1431 3595
-2407.97 29.1431 3595
-2420.73 29.4025 3627
-2427.36 29.5889 3650
-2429.89 29.7267 3667
-2421.12 29.7267 3667
-2412.35 29.7267 3667
-2403.59 29.7267 3667
-2394.82 29.7267 3667
-2380.19 29.6538 3658
-2371.44 29.6538 3658
-2362.7 29.6538 3658
-2353.95 29.6538 3658
-2345.2 29.6538 3658
-2326.23 29.5241 3642
-2317.53 29.5241 3642
-2313.89 29.5889 3650
-2305.16 29.5889 3650
-2296.43 29.5889 3650
-2282.69 29.5241 3642
-2273.98 29.5241 3642
-2265.27 29.5241 3642
-2247.27 29.4025 3627
-2228.72 29.2728 3611
-2205.94 29.0863 3588
-2206.55 29.2079 3603
-2197.93 29.2079 3603
-2203.9 29.4025 3627
-2195.23 29.4025 3627
-2200.42 29.5889 3650
-2191.69 29.5889 3650
-2182.96 29.5889 3650
-2223.08 30.2537 3732
-2214.16 30.2537 3732
-2205.23 30.2537 3732
-2196.31 30.2537 3732
-2178.01 30.124 3716
-2169.12 30.124 3716
-2155 30.051 3707
-2141.51 29.9861 3699
-2151.69 30.2537 3732
-2186.97 30.8779 3809
-2177.86 30.8779 3809
-2168.76 30.8779 3809
-2174.39 31.0886 3835
-2165.22 31.0886 3835
-2156.05 31.0886 3835
-2137.36 30.9508 3818
-2123.21 30.8779 3809
-2114.11 30.8779 3809
-2085.65 30.5941 3774
-2057.92 30.3185 3740
-2048.98 30.3185 3740
-2040.03 30.3185 3740
-2022.4 30.1888 3724
-1999.98 29.9861 3699
-1982.52 29.8564 3683
-1973.71 29.8564 3683
-1964.91 29.8564 3683
-1973.63 30.124 3716
-1964.74 30.124 3716
-1968.49 30.3185 3740
-1959.54 30.3185 3740
-1959.47 30.4563 3757
-1950.48 30.4563 3757
-1941.5 30.4563 3757
-1915.54 30.1888 3724
-1906.63 30.1888 3724
-1897.73 30.1888 3724
-1888.82 30.1888 3724
-1863.26 29.9213 3691
-1837.85 29.6538 3658
-1833.61 29.7267 3667
-1836.78 29.9213 3691
-1827.95 29.9213 3691
-1819.13 29.9213 3691
-1806.38 29.8564 3683
-1797.57 29.8564 3683
-1784.88 29.7916 3675
-1776.09 29.7916 3675
-1755.28 29.5889 3650
-1746.55 29.5889 3650
-1737.82 29.5889 3650
-1725.31 29.5241 3642
-1705.76 29.3376 3619
-1689.6 29.2079 3603
-1680.98 29.2079 3603
-1672.37 29.2079 3603
-1667.44 29.2728 3611
-1662.48 29.3376 3619
-1653.83 29.3376 3619
-1645.18 29.3376 3619
-1640.14 29.4025 3627
-1631.47 29.4025 3627
-1622.79 29.4025 3627
-1607 29.2728 3611
-1598.36 29.2728 3611
-1579.6 29.0863 3588
-1571.02 29.0863 3588
-1555.48 28.9566 3572
-1540.44 28.835 3557
-1531.93 28.835 3557
-1523.43 28.835 3557
-1502.14 28.5918 3527
-1475.08 28.2351 3483
-1460.43 28.1135 3468
-1452.14 28.1135 3468
-1438.02 28 3454
-1429.76 28 3454
-1412.85 27.8298 3433
-1404.64 27.8298 3433
-1387.89 27.6596 3412
-1371.24 27.4893 3391
-1302.03 26.2571 3239
-1294.29 26.2571 3239
-1286.54 26.2571 3239
-1268.92 26.0545 3214
-1249.47 25.8113 3184
-1232.49 25.6167 3160
-1224.94 25.6167 3160
-1201.2 25.2762 3118
-1184.94 25.0898 3095
-1168.78 24.9033 3072
-1161.44 24.9033 3072
-1143.57 24.6764 3044
-1123.98 24.4088 3011
-1110.84 24.2791 2995
-1103.68 24.2791 2995
-1096.52 24.2791 2995
-1089.36 24.2791 2995
-1082.19 24.2791 2995
-1071.08 24.19 2984
-1063.95 24.19 2984
-1056.81 24.19 2984
-1049.68 24.19 2984
-1040.79 24.1494 2979
-1033.67 24.1494 2979
-1024.82 24.1089 2974
-1015.66 24.0603 2968
-1008.56 24.0603 2968
-1001.46 24.0603 2968
-992.691 24.0197 2963
-983.943 23.9792 2958
-976.869 23.9792 2958
-969.796 23.9792 2958
-962.722 23.9792 2958
-955.649 23.9792 2958
-946.972 23.9387 2953
-939.91 23.9387 2953
-932.849 23.9387 2953
-925.787 23.9387 2953
-916.859 23.89 2947
-909.812 23.89 2947
-901.233 23.8495 2942
-892.678 23.809 2937
-885.655 23.809 2937
-878.632 23.809 2937
-871.608 23.809 2937
-864.585 23.809 2937
-857.562 23.809 2937
-850.539 23.809 2937
-842.079 23.7684 2932
-835.068 23.7684 2932
-828.057 23.7684 2932
-821.045 23.7684 2932
-814.034 23.7684 2932
-805.647 23.7279 2927
-797.283 23.6874 2922
-790.296 23.6874 2922
-783.308 23.6874 2922
-774.992 23.6468 2917
-768.017 23.6468 2917
-761.042 23.6468 2917
-754.066 23.6468 2917
-747.091 23.6468 2917
-738.593 23.5982 2911
-730.375 23.5576 2906
-723.426 23.5576 2906
-715.244 23.5171 2901
-708.307 23.5171 2901
-701.37 23.5171 2901
-694.433 23.5171 2901
-686.31 23.4766 2896
-678.212 23.436 2891
-672.46 23.4766 2896
-665.535 23.4766 2896
-658.61 23.4766 2896
-651.684 23.4766 2896
-643.646 23.436 2891
-636.733 23.436 2891
-629.82 23.436 2891
-626.138 23.5576 2906
-620.254 23.5982 2911
-616.664 23.7279 2927
-609.665 23.7279 2927
-605.754 23.8495 2942
-618.459 24.6358 3039
-625.873 25.2276 3112
-618.432 25.2276 3112
-618.058 25.5194 3148
-610.53 25.5194 3148
-665.831 28.1784 3476
-663.004 28.4135 3505
-657.424 28.5351 3520
-649.007 28.5351 3520
-640.59 28.5351 3520
-632.172 28.5351 3520
-622.337 28.4702 3512
-613.939 28.4702 3512
-606.92 28.5351 3520
-598.503 28.5351 3520
-590.085 28.5351 3520
-582.825 28.5918 3527
-574.391 28.5918 3527
-565.956 28.5918 3527
-556.416 28.5351 3520
-545.663 28.4135 3505
-537.282 28.4135 3505
-526.637 28.2919 3490
-519.331 28.3486 3497
-512.137 28.4135 3505
-503.756 28.4135 3505
-495.374 28.4135 3505
-486.993 28.4135 3505
-478.611 28.4135 3505
-470.23 28.4135 3505
-267.81 16.7806 2070
-262.86 16.7806 2070
-257.91 16.7806 2070
-252.594 16.7562 2067
-246.812 16.6995 2060
-240.947 16.6346 2052
-236.04 16.6346 2052
-231.471 16.659 2055
-226.557 16.659 2055
-221.643 16.659 2055
-217.256 16.6995 2060
-212.33 16.6995 2060
-207.404 16.6995 2060
-203.46 16.7806 2070
-199.949 16.9022 2085
-195.711 16.967 2093
-190.706 16.967 2093
-186.411 17.0319 2101
-183.027 17.1859 2120
-178.881 17.2751 2131
-173.785 17.2751 2131
-169.323 17.3399 2139
-164.822 17.4048 2147
-160.283 17.4696 2155
-155.129 17.4696 2155
-150.185 17.4939 2158
-145.226 17.5183 2161
-140.253 17.5426 2164
-135.078 17.5426 2164
-129.903 17.5426 2164
-124.728 17.5426 2164
-119.554 17.5426 2164
-114.22 17.5183 2161
-108.901 17.4939 2158
-103.597 17.4696 2155
-98.4435 17.4696 2155
-93.0738 17.4291 2150
-87.8098 17.4048 2147
-82.4831 17.3642 2142
-77.3609 17.3642 2142
-72.1376 17.3399 2139
-66.9286 17.3156 2136
-61.7339 17.2913 2133
-56.6333 17.2913 2133
-51.4118 17.2507 2128
-46.3231 17.2507 2128
-41.2344 17.2507 2128
-36.1457 17.2507 2128
-31.0133 17.2264 2125
-25.9318 17.2264 2125
-20.8797 17.2507 2128
-15.791 17.2507 2128
-10.7174 17.2751 2131
-5.6215 17.2751 2131
-0.525636 17.2751 2131
4.57023 17.2751 2131
9.6661 17.2751 2131
14.762 17.2751 2131
19.8578 17.2751 2131
24.9537 17.2751 2131
30.0778 17.2913 2133
35.1784 17.2913 2133
40.2791 17.2913 2133
45.4435 17.3156 2136
50.6224 17.3399 2139
55.7374 17.3399 2139
60.8524 17.3399 2139
65.9674 17.3399 2139
71.0824 17.3399 2139
76.1973 17.3399 2139
81.5024 17.3805 2144
86.7506 17.4048 2147
91.8847 17.4048 2147
97.0188 17.4048 2147
102.296 17.4291 2150
107.437 17.4291 2150
112.735 17.4534 2153
117.884 17.4534 2153
123.147 17.4696 2155
128.3 17.4696 2155
133.453 17.4696 2155
138.799 17.4939 2158
143.96 17.4939 2158
149.328 17.5183 2161
154.71 17.5426 2164
160.106 17.5669 2167
165.288 17.5669 2167
170.627 17.5831 2169
176.057 17.6074 2172
181.501 17.6318 2175
186.703 17.6318 2175
192.168 17.6561 2178
197.648 17.6804 2181
202.864 17.6804 2181
208.079 17.6804 2181
214.371 17.7696 2192
219.612 17.7696 2192
225.469 17.8182 2198
230.726 17.8182 2198
235.982 17.8182 2198
242.555 17.9155 2210
249.073 18.0047 2221
254.384 18.0047 2221
263.203 18.2479 2251
271.569 18.4505 2276
278.472 18.5478 2288
283.943 18.5478 2288
290.68 18.6289 2298
297.85 18.7342 2311
303.77 18.7586 2314
309.304 18.7586 2314
315.245 18.7829 2317
320.786 18.7829 2317
326.749 18.8072 2320
332.297 18.8072 2320
337.845 18.8072 2320
342.505 18.7586 2314
348.038 18.7586 2314
353.572 18.7586 2314
360.036 18.8072 2320
366.057 18.8315 2323
371.612 18.8315 2323
377.167 18.8315 2323
381.733 18.7829 2317
386.772 18.7586 2314
392.306 18.7586 2314
519.295 24.1494 2979
526.418 24.1494 2979
533.542 24.1494 2979
539.758 24.1089 2974
546.87 24.1089 2974
553.982 24.1089 2974
557.132 23.9387 2953
563.047 23.89 2947
568.159 23.809 2937
575.183 23.809 2937
580.224 23.7279 2927
585.217 23.6468 2917
590.974 23.5982 2911
597.935 23.5982 2911
602.818 23.5171 2901
609.755 23.5171 2901
616.693 23.5171 2901
623.63 23.5171 2901
630.567 23.5171 2901
637.504 23.5171 2901
644.441 23.5171 2901
650.256 23.4766 2896
657.181 23.4766 2896
664.106 23.4766 2896
671.031 23.4766 2896
677.957 23.4766 2896
684.882 23.4766 2896
691.807 23.4766 2896
697.526 23.436 2891
704.439 23.436 2891
711.352 23.436 2891
718.266 23.436 2891
726.433 23.4766 2896
733.358 23.4766 2896
740.284 23.4766 2896
747.209 23.4766 2896
754.134 23.4766 2896
761.059 23.4766 2896
767.984 23.4766 2896
774.91 23.4766 2896
781.835 23.4766 2896
788.76 23.4766 2896
797.059 23.5171 2901
803.996 23.5171 2901
810.933 23.5171 2901
817.871 23.5171 2901
824.808 23.5171 2901
833.178 23.5576 2906
840.128 23.5576 2906
848.534 23.5982 2911
858.728 23.6874 2922
865.715 23.6874 2922
872.703 23.6874 2922
879.69 23.6874 2922
885.16 23.6468 2917
892.136 23.6468 2917
899.111 23.6468 2917
910.746 23.7684 2932
930.904 24.1089 2974
944.639 24.2791 2995
951.801 24.2791 2995
962.485 24.3683 3006
983.867 24.725 3050
998.31 24.9033 3072
1005.66 24.9033 3072
1020.59 25.0898 3095
1031.97 25.1871 3107
1045.09 25.3249 3124
1052.56 25.3249 3124
1070.21 25.5681 3154
1094.15 25.9572 3202
1108.35 26.1112 3221
1116.05 26.1112 3221
1139.1 26.4679 3265
1160.26 26.7759 3303
1189.38 27.2623 3363
1197.42 27.2623 3363
1218.01 27.5461 3398
1226.13 27.5461 3398
1236.8 27.6028 3405
1244.95 27.6028 3405
1253.09 27.6028 3405
1266.42 27.7163 3419
1295.84 28.1784 3476
1304.15 28.1784 3476
1315.11 28.2351 3483
1326.1 28.2919 3490
1334.44 28.2919 3490
1342.79 28.2919 3490
1348.42 28.2351 3483
1348.18 28.0568 3461
1342.74 27.7731 3426
1350.93 27.7731 3426
1345.24 27.4893 3391
1344.97 27.3191 3370
1350.22 27.2623 3363
1358.26 27.2623 3363
1350.05 26.9381 3323
1355.55 26.8894 3317
1360.6 26.8327 3310
1368.52 26.8327 3310
1371.02 26.7273 3297
1378.91 26.7273 3297
1386.79 26.7273 3297
1394.68 26.7273 3297
1402.56 26.7273 3297
1404.88 26.6219 3284
1410.16 26.5733 3278
1417.99 26.5733 3278
1425.83 26.5733 3278
1433.67 26.5733 3278
1446.79 26.6706 3290
1478.09 27.1002 3343
1498.09 27.3191 3370
1506.14 27.3191 3370
1542.51 27.8298 3433
1557.04 27.9433 3447
1571.64 28.0568 3461
1579.92 28.0568 3461
1595.08 28.1784 3476
1603.39 28.1784 3476
1611.7 28.1784 3476
1616.29 28.1135 3468
1624.58 28.1135 3468
1629.58 28.0568 3461
1637.85 28.0568 3461
1639.47 27.9433 3447
1647.71 27.9433 3447
1655.96 27.9433 3447
1660.82 27.8865 3440
1669.05 27.8865 3440
1677.27 27.8865 3440
1685.5 27.8865 3440
1693.72 27.8865 3440
1701.95 27.8865 3440
1710.18 27.8865 3440
1693.93 27.4893 3391
1687.98 27.2623 3363
1696.02 27.2623 3363
1701.02 27.2137 3357
1709.05 27.2137 3357
1720.15 27.2623 3363
1728.19 27.2623 3363
1736.23 27.2623 3363
1744.27 27.2623 3363
1745.54 27.157 3350
1753.55 27.157 3350
1761.56 27.157 3350
1769.57 27.157 3350
1777.59 27.157 3350
1781.87 27.1002 3343
1789.86 27.1002 3343
1794.63 27.0516 3337
1795.04 26.9381 3323
1788.88 26.7273 3297
1796.77 26.7273 3297
1787.14 26.4679 3265
1774.05 26.1599 3227
1778.46 26.1112 3221
1786.16 26.1112 3221
1779.94 25.9085 3196
1770.8 25.6654 3166
1754.78 25.3249 3124
1739.69 25.0006 3084
1747.06 25.0006 3084
1716.32 24.4575 3017
1662.98 23.5982 2911
1652.73 23.355 2881
1645.8 23.1604 2857
1652.63 23.1604 2857
1647.84 22.9983 2837
1646.46 22.8848 2823
1645.01 22.7713 2809
1651.73 22.7713 2809
1655.5 22.7308 2804
1656.27 22.6497 2794
1657.6 22.5768 2785
1664.26 22.5768 2785
1670.92 22.5768 2785
1677.58 22.5768 2785
1684.24 22.5768 2785
1690.9 22.5768 2785
1697.56 22.5768 2785
1701.16 22.5362 2780
1705.35 22.5038 2776
1708.9 22.4633 2771
1715.53 22.4633 2771
1716.56 22.3903 2762
1720.05 22.3498 2757
1726.64 22.3498 2757
1733.23 22.3498 2757
1737.3 22.3173 2753
1743.88 22.3173 2753
1750.47 22.3173 2753
1757.05 22.3173 2753
1763.63 22.3173 2753
1767 22.2768 2748
1773.57 22.2768 2748
1777.55 22.2444 2744
1784.12 22.2444 2744
1790.68 22.2444 2744
1797.24 22.2444 2744
1800.51 22.2039 2739
1807.06 22.2039 2739
1805.01 22.0985 2726
1808.2 22.0579 2721
1812.04 22.0255 2717
1818.54 22.0255 2717
1825.03 22.0255 2717
1828.84 21.9931 2713
1831.94 21.9525 2708
1835.7 21.9201 2704
1842.17 21.9201 2704
1848.63 21.9201 2704
1855.1 21.9201 2704
1861.57 21.9201 2704
1868.03 21.9201 2704
1871.03 21.8796 2699
1874.7 21.8472 2695
1874.87 21.7742 2686
1881.29 21.7742 2686
1887.71 21.7742 2686
1891.31 21.7418 2682
1888.53 21.6364 2669
1897.75 21.6688 2673
1904.14 21.6688 2673
1910.53 21.6688 2673
1916.93 21.6688 2673
1923.32 21.6688 2673
1929.71 21.6688 2673
1936.1 21.6688 2673
1942.49 21.6688 2673
1948.89 21.6688 2673
1955.28 21.6688 2673
1958.73 21.6364 2669
1965.12 21.6364 2669
1971.5 21.6364 2669
1977.88 21.6364 2669
1981.29 21.604 2665
1987.66 21.604 2665
1997.03 21.6364 2669
2006.41 21.6688 2673
2026.36 21.8147 2691
2032.8 21.8147 2691
2042.26 21.8472 2695
2065.43 22.0255 2717
2081.84 22.1309 2730
2088.37 22.1309 2730
-2091.94 29.3428 2794
-2085.26 29.3428 2794
-2078.57 29.3428 2794
-2065.22 29.2482 2785
-2058.56 29.2482 2785
-2045.27 29.1537 2776
-2038.63 29.1537 2776
-2028.33 29.1012 2771
-2011.49 28.9542 2757
-2001.99 28.9122 2753
-1995.41 28.9122 2753
-1978.71 28.7652 2739
-1946.96 28.3976 2704
-1927.57 28.2085 2686
-1921.15 28.2085 2686
-1909.03 28.1245 2678
-1884.15 27.8515 2652
-1869.31 27.7254 2640
-1863 27.7254 2640
-2430.5 37.4399 3565
-2421.98 37.4399 3565
-2413.45 37.4399 3565
-2415.05 37.5974 3580
-2416.57 37.7549 3595
-2407.97 37.7549 3595
-2420.73 38.091 3627
-2427.36 38.3325 3650
-2429.89 38.5111 3667
-2421.12 38.5111 3667
-2412.35 38.5111 3667
-2403.59 38.5111 3667
-2394.82 38.5111 3667
-2380.19 38.4165 3658
-2371.44 38.4165 3658
-2362.7 38.4165 3658
-2353.95 38.4165 3658
-2345.2 38.4165 3658
-2326.23 38.2485 3642
-2317.53 38.2485 3642
-2313.89 38.3325 3650
-2305.16 38.3325 3650
-2296.43 38.3325 3650
-2282.69 38.2485 3642
-2273.98 38.2485 3642
-2265.27 38.2485 3642
-2247.27 38.091 3627
-2228.72 37.923 3611
-2206.55 37.8389 3603
-2197.93 37.8389 3603
-2203.9 38.091 3627
-2195.23 38.091 3627
-2200.42 38.3325 3650
-2191.69 38.3325 3650
-2182.96 38.3325 3650
-2223.08 39.1937 3732
-2214.16 39.1937 3732
-2205.23 39.1937 3732
-2196.31 39.1937 3732
-2178.01 39.0257 3716
-2169.12 39.0257 3716
-2155 38.9311 3707
-2141.51 38.8471 3699
-2151.69 39.1937 3732
-2186.97 40.0024 3809
-2177.86 40.0024 3809
-2168.76 40.0024 3809
-2174.39 40.2754 3835
-2165.22 40.2754 3835
-2156.05 40.2754 3835
-2137.36 40.0969 3818
-2123.21 40.0024 3809
-2114.11 40.0024 3809
-2085.65 39.6348 3774
-2057.92 39.2777 3740
-2048.98 39.2777 3740
-2040.03 39.2777 3740
-2022.4 39.1097 3724
-1999.98 38.8471 3699
-1982.52 38.6791 3683
-1973.71 38.6791 3683
-1964.91 38.6791 3683
-1973.63 39.0257 3716
-1964.74 39.0257 3716
-1968.49 39.2777 3740
-1959.54 39.2777 3740
-1959.47 39.4563 3757
-1950.48 39.4563 3757
-1941.5 39.4563 3757
-1915.54 39.1097 3724
-1906.63 39.1097 3724
-1897.73 39.1097 3724
-1888.82 39.1097 3724
-1863.26 38.7631 3691
-1837.85 38.4165 3658
-1833.61 38.5111 3667
-1836.78 38.7631 3691
-1827.95 38.7631 3691
-1819.13 38.7631 3691
-1806.38 38.6791 3683
-1797.57 38.6791 3683
-1784.88 38.5951 3675
-1776.09 38.5951 3675
-1755.28 38.3325 3650
-1746.55 38.3325 3650
-1737.82 38.3325 3650
-1725.31 38.2485 3642
-1705.76 38.007 3619
-1689.6 37.8389 3603
-1680.98 37.8389 3603
-1672.37 37.8389 3603
-1667.44 37.923 3611
-1662.48 38.007 3619
-1653.83 38.007 3619
-1645.18 38.007 3619
-1640.14 38.091 3627
-1631.47 38.091 3627
-1622.79 38.091 3627
-1607 37.923 3611
-1598.36 37.923 3611
-1579.6 37.6814 3588
-1571.02 37.6814 3588
-1548.94 37.3558 3557
-1536.97 37.2718 3549
-1528.49 37.2718 3549
-1520 37.2718 3549
-1499.16 36.9673 3520
-1475.08 36.5787 3483
-1454.53 36.2741 3454
-1446.28 36.2741 3454
-1438.02 36.2741 3454
-1426.86 36.2006 3447
-1412.85 36.0536 3433
-1404.64 36.0536 3433
-1387.89 35.833 3412
-1371.24 35.6125 3391
-1302.03 34.0162 3239
-1294.29 34.0162 3239
-1286.54 34.0162 3239
-1268.92 33.7536 3214
-1249.47 33.4386 3184
-1232.49 33.1865 3160
-1224.94 33.1865 3160
-1201.2 32.7454 3118
-1184.94 32.5039 3095
-1168.78 32.2623 3072
-1161.44 32.2623 3072
-1143.57 31.9683 3044
-1123.98 31.6217 3011
-1110.84 31.4537 2995
-1103.68 31.4537 2995
-1096.52 31.4537 2995
-1089.36 31.4537 2995
-1082.19 31.4537 2995
-1071.08 31.3382 2984
-1063.95 31.3382 2984
-1056.81 31.3382 2984
-1049.68 31.3382 2984
-1040.79 31.2856 2979
-1033.67 31.2856 2979
-1024.82 31.2331 2974
-1015.66 31.1701 2968
-1008.56 31.1701 2968
-1001.46 31.1701 2968
-992.691 31.1176 2963
-983.943 31.0651 2958
-976.869 31.0651 2958
-969.796 31.0651 2958
-962.722 31.0651 2958
-955.649 31.0651 2958
-946.972 31.0126 2953
-939.91 31.0126 2953
-932.849 31.0126 2953
-925.787 31.0126 2953
-916.859 30.9496 2947
-909.812 30.9496 2947
-901.233 30.8971 2942
-892.678 30.8446 2937
-885.655 30.8446 2937
-878.632 30.8446 2937
-871.608 30.8446 2937
-864.585 30.8446 2937
-857.562 30.8446 2937
-850.539 30.8446 2937
-842.079 30.792 2932
-835.068 30.792 2932
-828.057 30.792 2932
-821.045 30.792 2932
-814.034 30.792 2932
-805.647 30.7395 2927
-797.283 30.687 2922
-788.943 30.6345 2917
-781.968 30.6345 2917
-774.992 30.6345 2917
-768.017 30.6345 2917
-761.042 30.6345 2917
-754.066 30.6345 2917
-745.554 30.5715 2911
-737.324 30.519 2906
-730.375 30.519 2906
-723.426 30.519 2906
-715.244 30.4665 2901
-708.307 30.4665 2901
-701.37 30.4665 2901
-694.433 30.4665 2901
-686.31 30.414 2896
-678.212 30.3615 2891
-672.46 30.414 2896
-665.535 30.414 2896
-658.61 30.414 2896
-651.684 30.414 2896
-643.646 30.3615 2891
-636.733 30.3615 2891
-629.82 30.3615 2891
-626.138 30.519 2906
-620.254 30.5715 2911
-616.664 30.7395 2927
-609.665 30.7395 2927
-605.754 30.8971 2942
-618.459 31.9158 3039
-625.873 32.6824 3112
-618.432 32.6824 3112
-618.058 33.0605 3148
-610.53 33.0605 3148
-665.831 36.5052 3476
-663.004 36.8097 3505
-657.424 36.9673 3520
-649.007 36.9673 3520
-640.59 36.9673 3520
-632.172 36.9673 3520
-622.337 36.8832 3512
-613.939 36.8832 3512
-606.92 36.9673 3520
-598.503 36.9673 3520
-590.085 36.9673 3520
-582.825 37.0408 3527
-574.391 37.0408 3527
-565.956 37.0408 3527
-556.416 36.9673 3520
-545.663 36.8097 3505
-537.282 36.8097 3505
-526.637 36.6522 3490
-519.331 36.7257 3497
-512.137 36.8097 3505
-503.756 36.8097 3505
-495.374 36.8097 3505
-486.993 36.8097 3505
-478.611 36.8097 3505
-470.23 36.8097 3505
-267.422 21.7078 2067
-262.479 21.7078 2067
-257.537 21.7078 2067
-252.349 21.6868 2065
-246.453 21.6027 2057
-240.595 21.5187 2049
-235.695 21.5187 2049
-230.795 21.5187 2049
-225.895 21.5187 2049
-220.996 21.5187 2049
-216.729 21.5817 2055
-212.021 21.6027 2057
-207.102 21.6027 2057
-202.969 21.6868 2065
-199.278 21.8233 2078
-194.963 21.8968 2085
-189.977 21.8968 2085
-185.967 22.0123 2096
-181.819 22.1173 2106
-178.629 22.3484 2128
-173.54 22.3484 2128
-169.323 22.4639 2139
-164.438 22.4954 2142
-159.911 22.5794 2150
-154.769 22.5794 2150
-149.976 22.6319 2155
-145.226 22.695 2161
-140.253 22.7265 2164
-135.078 22.7265 2164
-129.903 22.7265 2164
-124.728 22.7265 2164
-119.554 22.7265 2164
-114.22 22.695 2161
-108.75 22.6319 2155
-103.501 22.6109 2153
-98.3521 22.6109 2153
-93.0738 22.5794 2150
-87.8098 22.5479 2147
-82.4831 22.4954 2142
-77.3609 22.4954 2142
-72.1376 22.4639 2139
-66.9286 22.4324 2136
-61.7339 22.4009 2133
-56.6333 22.4009 2133
-51.4118 22.3484 2128
-46.3231 22.3484 2128
-41.2344 22.3484 2128
-36.1457 22.3484 2128
-31.0133 22.3169 2125
-25.9318 22.3169 2125
-20.8797 22.3484 2128
-15.791 22.3484 2128
-10.7174 22.3799 2131
-5.6215 22.3799 2131
-0.525636 22.3799 2131
4.57023 22.3799 2131
9.6661 22.3799 2131
14.762 22.3799 2131
19.8578 22.3799 2131
24.9537 22.3799 2131
30.0778 22.4009 2133
35.1784 22.4009 2133
40.2791 22.4009 2133
45.4435 22.4324 2136
50.6224 22.4639 2139
55.7374 22.4639 2139
60.8524 22.4639 2139
65.9674 22.4639 2139
71.0824 22.4639 2139
76.1973 22.4639 2139
81.5024 22.5164 2144
86.7506 22.5479 2147
91.8847 22.5479 2147
97.0188 22.5479 2147
102.296 22.5794 2150
107.437 22.5794 2150
112.735 22.6109 2153
117.884 22.6109 2153
123.147 22.6319 2155
128.3 22.6319 2155
133.453 22.6319 2155
138.799 22.6635 2158
143.96 22.6635 2158
149.328 22.695 2161
154.71 22.7265 2164
160.106 22.758 2167
165.288 22.758 2167
170.627 22.779 2169
176.057 22.8105 2172
181.501 22.842 2175
186.703 22.842 2175
192.168 22.8735 2178
197.648 22.905 2181
202.864 22.905 2181
208.079 22.905 2181
214.371 23.0205 2192
219.612 23.0205 2192
225.469 23.0835 2198
230.726 23.0835 2198
235.982 23.0835 2198
242.225 23.1781 2207
249.073 23.3251 2221
254.384 23.3251 2221
263.203 23.6401 2251
271.569 23.9027 2276
278.472 24.0287 2288
283.943 24.0287 2288
290.68 24.1337 2298
297.85 24.2703 2311
303.77 24.3018 2314
309.304 24.3018 2314
315.245 24.3333 2317
320.786 24.3333 2317
326.749 24.3648 2320
332.297 24.3648 2320
337.845 24.3648 2320
342.505 24.3018 2314
348.038 24.3018 2314
353.572 24.3018 2314
360.036 24.3648 2320
366.057 24.3963 2323
371.612 24.3963 2323
377.167 24.3963 2323
381.733 24.3333 2317
386.772 24.3018 2314
392.306 24.3018 2314
519.295 31.2856 2979
526.418 31.2856 2979
533.542 31.2856 2979
539.758 31.2331 2974
546.87 31.2331 2974
553.982 31.2331 2974
557.132 31.0126 2953
563.047 30.9496 2947
568.159 30.8446 2937
575.183 30.8446 2937
580.224 30.7395 2927
585.217 30.6345 2917
590.974 30.5715 2911
597.935 30.5715 2911
602.818 30.4665 2901
609.755 30.4665 2901
616.693 30.4665 2901
623.63 30.4665 2901
630.567 30.4665 2901
637.504 30.4665 2901
644.441 30.4665 2901
650.256 30.414 2896
657.181 30.414 2896
664.106 30.414 2896
671.031 30.414 2896
677.957 30.414 2896
684.882 30.414 2896
691.807 30.414 2896
697.526 30.3615 2891
704.439 30.3615 2891
711.352 30.3615 2891
718.266 30.3615 2891
726.433 30.414 2896
733.358 30.414 2896
740.284 30.414 2896
747.209 30.414 2896
754.134 30.414 2896
761.059 30.414 2896
767.984 30.414 2896
774.91 30.414 2896
781.835 30.414 2896
788.76 30.414 2896
797.059 30.4665 2901
803.996 30.4665 2901
810.933 30.4665 2901
817.871 30.4665 2901
824.808 30.4665 2901
833.178 30.519 2906
840.128 30.519 2906
848.534 30.5715 2911
858.728 30.687 2922
865.715 30.687 2922
872.703 30.687 2922
879.69 30.687 2922
885.16 30.6345 2917
892.136 30.6345 2917
899.111 30.6345 2917
910.746 30.792 2932
925.896 31.0651 2958
939.593 31.2856 2979
946.716 31.2856 2979
960.564 31.5062 3000
981.931 31.9683 3044
996.685 32.2098 3067
1004.02 32.2098 3067
1016.96 32.3884 3084
1031.97 32.6299 3107
1045.09 32.8084 3124
1052.56 32.8084 3124
1070.21 33.1235 3154
1088 33.4386 3184
1103.88 33.6906 3208
1111.55 33.6906 3208
1136.66 34.2157 3258
1160.26 34.6883 3303
1189.38 35.3184 3363
1197.42 35.3184 3363
1218.01 35.686 3398
1226.13 35.686 3398
1236.8 35.7595 3405
1244.95 35.7595 3405
1253.09 35.7595 3405
1263.82 35.833 3412
1292.86 36.4212 3468
1301.15 36.4212 3468
1317.75 36.6522 3490
1328.76 36.7257 3497
1337.12 36.7257 3497
1345.48 36.7257 3497
1351.13 36.6522 3490
1350.91 36.4212 3468
1342.74 35.9801 3426
1350.93 35.9801 3426
1348.02 35.686 3398
1350.56 35.539 3384
1353.03 35.392 3370
1361.09 35.392 3370
1350.05 34.8984 3323
1358 34.8984 3323
1360.6 34.7618 3310
1368.52 34.7618 3310
1376.43 34.7618 3310
1378.91 34.6253 3297
1386.79 34.6253 3297
1394.68 34.6253 3297
1402.56 34.6253 3297
1404.88 34.4888 3284
1410.16 34.4258 3278
1417.99 34.4258 3278
1425.83 34.4258 3278
1433.67 34.4258 3278
1446.79 34.5518 3290
1478.09 35.1084 3343
1498.09 35.392 3370
1506.14 35.392 3370
1542.51 36.0536 3433
1557.04 36.2006 3447
1571.64 36.3476 3461
1579.92 36.3476 3461
1595.08 36.5052 3476
1603.39 36.5052 3476
1611.7 36.5052 3476
1616.29 36.4212 3468
1624.58 36.4212 3468
1629.58 36.3476 3461
1637.85 36.3476 3461
1639.47 36.2006 3447
1647.71 36.2006 3447
1655.96 36.2006 3447
1660.82 36.1271 3440
1669.05 36.1271 3440
1677.27 36.1271 3440
1685.5 36.1271 3440
1693.72 36.1271 3440
1701.95 36.1271 3440
1706.7 36.0536 3433
1693.93 35.6125 3391
1687.98 35.3184 3363
1696.02 35.3184 3363
1701.02 35.2554 3357
1705.49 35.1819 3350
1717.08 35.2554 3357
1725.11 35.2554 3357
1733.13 35.2554 3357
1741.16 35.2554 3357
1745.54 35.1819 3350
1753.55 35.1819 3350
1761.56 35.1819 3350
1769.57 35.1819 3350
1777.59 35.1819 3350
1781.87 35.1084 3343
1789.86 35.1084 3343
1794.63 35.0454 3337
1791.8 34.8353 3317
1785.09 34.5518 3290
1792.95 34.5518 3290
1780.02 34.1527 3252
1770.75 33.8271 3221
1767.97 33.6276 3202
1768.97 33.5016 3190
1776.6 33.5016 3190
1760.73 33.0605 3148
1748.04 32.6824 3112
1730.1 32.2098 3067
1737.43 32.2098 3067
1703.81 31.4537 2995
1660.12 30.519 2906
1649.86 30.2039 2876
1645.8 30.0044 2857
1652.63 30.0044 2857
1647.84 29.7944 2837
1649.38 29.6998 2828
1647.36 29.5423 2813
1654.08 29.5423 2813
1655.5 29.4478 2804
1659.24 29.3953 2799
1662.95 29.3428 2794
1669.64 29.3428 2794
1673.92 29.3008 2790
1680.59 29.3008 2790
1687.26 29.3008 2790
1693.93 29.3008 2790
1700.6 29.3008 2790
1704.22 29.2482 2785
1707.8 29.1957 2780
1711.99 29.1537 2776
1718.62 29.1537 2776
1716.56 29.0067 2762
1723.17 29.0067 2762
1726.64 28.9542 2757
1733.23 28.9542 2757
1737.3 28.9122 2753
1743.88 28.9122 2753
1750.47 28.9122 2753
1757.05 28.9122 2753
1760.43 28.8597 2748
1767 28.8597 2748
1773.57 28.8597 2748
1777.55 28.8177 2744
1784.12 28.8177 2744
1790.68 28.8177 2744
1797.24 28.8177 2744
1800.51 28.7652 2739
1807.06 28.7652 2739
1805.01 28.6286 2726
1811.52 28.6286 2726
1814.71 28.5761 2721
1821.21 28.5761 2721
1827.72 28.5761 2721
1828.84 28.4921 2713
1835.32 28.4921 2713
1841.81 28.4921 2713
1848.3 28.4921 2713
1851.37 28.4396 2708
1857.84 28.4396 2708
1864.32 28.4396 2708
1870.79 28.4396 2708
1874.5 28.3976 2704
1877.49 28.3451 2699
1881.15 28.3031 2695
1887.59 28.3031 2695
1894.04 28.3031 2695
1894.13 28.2085 2686
1894.9 28.1245 2678
1904.14 28.1665 2682
1910.55 28.1665 2682
1916.97 28.1665 2682
1923.38 28.1665 2682
1929.79 28.1665 2682
1936.21 28.1665 2682
1942.62 28.1665 2682
1949.03 28.1665 2682
1955.45 28.1665 2682
1961.86 28.1665 2682
1968.28 28.1665 2682
1974.69 28.1665 2682
1974.45 28.072 2673
1980.85 28.072 2673
1987.24 28.072 2673
1993.63 28.072 2673
2000.02 28.072 2673
2016.17 28.2085 2686
2039.16 28.4396 2708
2045.64 28.4396 2708
2055.9 28.4921 2713
2072.27 28.6286 2726
2085.65 28.7231 2735
2092.19 28.7231 2735
-2095.68 36.1003 2799
-2088.99 36.1003 2799
-2082.29 36.1003 2799
-2065.22 35.9197 2785
-2058.56 35.9197 2785
-2045.27 35.8037 2776
-2038.63 35.8037 2776
-2028.33 35.7392 2771
-2011.49 35.5586 2757
-2004.9 35.5586 2757
-1998.31 35.5586 2757
-1978.71 35.3265 2739
-1946.96 34.875 2704
-1931.16 34.7074 2691
-1924.73 34.7074 2691
-1909.03 34.5397 2678
-1884.15 34.2044 2652
-1869.31 34.0496 2640
-1863 34.0496 2640
-2419.59 45.7735 3549
-2411.11 45.7735 3549
-2429.02 46.2765 3588
-2430.56 46.47 3603
-2453.54 47.0761 3650
-2444.81 47.0761 3650
-2441.42 47.1793 3658
-2454.62 47.6049 3691
-2445.8 47.6049 3691
-2436.97 47.6049 3691
-2438.67 47.8113 3707
-2429.8 47.8113 3707
-2420.94 47.8113 3707
-2401.66 47.6049 3691
-2392.84 47.6049 3691
-2384.01 47.6049 3691
-2375.19 47.6049 3691
-2356.1 47.3986 3675
-2347.31 47.3986 3675
-2338.52 47.3986 3675
-2329.74 47.3986 3675
-2305.16 47.0761 3650
-2296.43 47.0761 3650
-2287.7 47.0761 3650
-2278.98 47.0761 3650
-2270.25 47.0761 3650
-2247.27 46.7795 3627
-2151.69 48.1337 3732
-2207.07 49.5783 3844
-2197.88 49.5783 3844
-2188.68 49.5783 3844
-2179.49 49.5783 3844
-2170.3 49.5783 3844
-2156.05 49.4622 3835
-2137.36 49.2429 3818
-2128.23 49.2429 3818
-2119.1 49.2429 3818
-2109.97 49.2429 3818
-2090.94 49.0108 3800
-2081.85 49.0108 3800
-2072.76 49.0108 3800
-2045.21 48.5723 3766
-2027.01 48.353 3749
-1995.44 47.8113 3707
-1991.4 47.9274 3716
-1982.51 47.9274 3716
-1982.12 48.1337 3732
-1986.42 48.4562 3757
-1986.38 48.6754 3774
-1977.36 48.6754 3774
-1968.33 48.6754 3774
-1959.31 48.6754 3774
-1950.28 48.6754 3774
-1941.26 48.6754 3774
-1914.83 48.2369 3740
-1901.81 48.1337 3732
-1892.88 48.1337 3732
-1883.96 48.1337 3732
-1871.01 48.0306 3724
-1858.11 47.9274 3716
-1849.22 47.9274 3716
-1840.34 47.9274 3716
-1831.45 47.9274 3716
-1822.56 47.9274 3716
-1813.68 47.9274 3716
-1796.53 47.7081 3699
-1787.69 47.7081 3699
-1778.84 47.7081 3699
-1770 47.7081 3699
-1749.73 47.3986 3675
-1732.88 47.1793 3658
-1724.14 47.1793 3658
-1700.85 46.7795 3627
-1692.18 46.7795 3627
-1676.08 46.5731 3611
-1671.14 46.6763 3619
-1666.16 46.7795 3627
-1657.49 46.7795 3627
-1648.81 46.7795 3627
-1640.14 46.7795 3627
-1631.47 46.7795 3627
-1622.79 46.7795 3627
-1614.12 46.7795 3627
-1605.45 46.7795 3627
-1579.6 46.2765 3588
-1571.02 46.2765 3588
-1558.96 46.1733 3580
-1540.44 45.8767 3557
-1528.49 45.7735 3549
-1520 45.7735 3549
-1495.76 45.2963 3512
-1478.04 45.0125 3490
-1457.48 44.6385 3461
-1449.21 44.6385 3461
-1440.93 44.6385 3461
-1432.65 44.6385 3461
-1415.73 44.3676 3440
-1407.51 44.3676 3440
-1390.74 44.0968 3419
-1382.56 44.0968 3419
-1309.67 42.0203 3258
-1301.88 42.0203 3258
-1294.09 42.0203 3258
-1276.43 41.6978 3233
-1254.18 41.2206 3196
-1234.83 40.8337 3166
-1227.26 40.8337 3166
-1201.2 40.2146 3118
-1189.53 40.0728 3107
-1173.35 39.7761 3084
-1165.98 39.7761 3084
-1149.96 39.4795 3061
-1123.98 38.8346 3011
-1112.7 38.6927 3000
-1107.73 38.7701 3006
-1100.54 38.7701 3006
-1093.36 38.7701 3006
-1086.17 38.7701 3006
-1071.08 38.4864 2984
-1063.95 38.4864 2984
-1056.81 38.4864 2984
-1049.68 38.4864 2984
-1040.79 38.4219 2979
-1033.67 38.4219 2979
-1024.82 38.3574 2974
-1017.71 38.3574 2974
-1008.56 38.28 2968
-1001.46 38.28 2968
-992.691 38.2155 2963
-985.606 38.2155 2963
-978.52 38.2155 2963
-971.435 38.2155 2963
-964.349 38.2155 2963
-957.264 38.2155 2963
-948.575 38.151 2958
-941.502 38.151 2958
-934.428 38.151 2958
-925.787 38.0865 2953
-918.726 38.0865 2953
-911.664 38.0865 2953
-902.765 38.0091 2947
-894.198 37.9447 2942
-887.163 37.9447 2942
-880.127 37.9447 2942
-871.608 37.8802 2937
-864.585 37.8802 2937
-857.562 37.8802 2937
-850.539 37.8802 2937
-842.079 37.8157 2932
-835.068 37.8157 2932
-828.057 37.8157 2932
-821.045 37.8157 2932
-814.034 37.8157 2932
-807.023 37.8157 2932
-797.283 37.6867 2922
-788.943 37.6222 2917
-781.968 37.6222 2917
-774.992 37.6222 2917
-766.437 37.5448 2911
-759.476 37.5448 2911
-752.515 37.5448 2911
-745.554 37.5448 2911
-737.324 37.4803 2906
-729.118 37.4159 2901
-722.181 37.4159 2901
-715.244 37.4159 2901
-708.307 37.4159 2901
-701.37 37.4159 2901
-694.433 37.4159 2901
-685.126 37.2869 2891
-677.039 37.2224 2886
-671.299 37.2869 2891
-664.386 37.2869 2891
-657.473 37.2869 2891
-650.559 37.2869 2891
-643.646 37.2869 2891
-636.733 37.2869 2891
-629.82 37.2869 2891
-626.138 37.4803 2906
-619.189 37.4803 2906
-617.718 37.8157 2932
-610.706 37.8157 2932
-606.784 38.0091 2947
-618.459 39.1957 3039
-625.873 40.1372 3112
-618.432 40.1372 3112
-616.88 40.5242 3142
-609.366 40.5242 3142
-601.853 40.5242 3142
-663.004 45.206 3505
-657.424 45.3995 3520
-649.007 45.3995 3520
-640.59 45.3995 3520
-632.172 45.3995 3520
-622.337 45.2963 3512
-613.939 45.2963 3512
-608.127 45.4897 3527
-599.693 45.4897 3527
-591.259 45.4897 3527
-582.825 45.4897 3527
-574.391 45.4897 3527
-565.956 45.4897 3527
-557.522 45.4897 3527
-546.753 45.2963 3512
-538.355 45.2963 3512
-528.9 45.206 3505
-522.746 45.3995 3520
-514.329 45.3995 3520
-505.911 45.3995 3520
-497.494 45.3995 3520
-489.077 45.3995 3520
-478.611 45.206 3505
-470.23 45.206 3505
-266.775 26.5948 2062
-261.845 26.5948 2062
-256.914 26.5948 2062
-251.372 26.5303 2057
-245.494 26.4271 2049
-239.42 26.2981 2039
-234.545 26.2981 2039
-230.007 26.3368 2042
-225.124 26.3368 2042
-220.241 26.3368 2042
-215.568 26.3626 2044
-211.196 26.4271 2049
-206.296 26.4271 2049
-202.478 26.569 2060
-198.99 26.7625 2075
-194.776 26.8656 2083
-189.795 26.8656 2083
-185.524 26.9688 2091
-181.646 27.1365 2104
-178.377 27.4073 2125
-173.296 27.4073 2125
-168.452 27.446 2128
-164.208 27.5879 2139
-159.688 27.6911 2147
-154.553 27.6911 2147
-149.837 27.7685 2153
-144.823 27.7943 2155
-140.253 27.9103 2164
-135.078 27.9103 2164
-129.903 27.9103 2164
-124.728 27.9103 2164
-119.554 27.9103 2164
-113.903 27.7943 2155
-108.649 27.7685 2153
-103.356 27.7298 2150
-98.2151 27.7298 2150
-92.9439 27.6911 2147
-87.8098 27.6911 2147
-82.4831 27.6266 2142
-77.3609 27.6266 2142
-72.1376 27.5879 2139
-66.9286 27.5492 2136
-61.7339 27.5105 2133
-56.6333 27.5105 2133
-51.4118 27.446 2128
-46.3231 27.446 2128
-41.2344 27.446 2128
-36.1457 27.446 2128
-31.0133 27.4073 2125
-25.9318 27.4073 2125
-20.8797 27.446 2128
-15.791 27.446 2128
-10.7174 27.4847 2131
-5.6215 27.4847 2131
-0.525636 27.4847 2131
4.57023 27.4847 2131
9.6661 27.4847 2131
14.762 27.4847 2131
19.8578 27.4847 2131
24.9537 27.4847 2131
30.0778 27.5105 2133
35.1784 27.5105 2133
40.2791 27.5105 2133
45.4435 27.5492 2136
50.6224 27.5879 2139
55.7374 27.5879 2139
60.8524 27.5879 2139
65.9674 27.5879 2139
71.0824 27.5879 2139
76.1973 27.5879 2139
81.5024 27.6524 2144
86.7506 27.6911 2147
92.0131 27.7298 2150
97.1544 27.7298 2150
102.296 27.7298 2150
107.437 27.7298 2150
112.84 27.7943 2155
117.993 27.7943 2155
123.147 27.7943 2155
128.479 27.833 2158
133.639 27.833 2158
138.799 27.833 2158
143.96 27.833 2158
149.535 27.9103 2164
154.71 27.9103 2164
160.106 27.949 2167
165.288 27.949 2167
170.863 28.0135 2172
176.057 28.0135 2172
181.501 28.0522 2175
186.703 28.0522 2175
192.433 28.1296 2181
197.648 28.1296 2181
202.864 28.1296 2181
208.079 28.1296 2181
214.371 28.2715 2192
219.612 28.2715 2192
225.469 28.3489 2198
230.726 28.3489 2198
235.982 28.3489 2198
242.225 28.4649 2207
249.073 28.6455 2221
254.384 28.6455 2221
263.203 29.0324 2251
271.569 29.3549 2276
278.472 29.5096 2288
283.943 29.5096 2288
290.68 29.6386 2298
297.335 29.7547 2307
303.377 29.8063 2311
308.903 29.8063 2311
314.837 29.845 2314
320.786 29.8837 2317
326.749 29.9224 2320
332.297 29.9224 2320
337.845 29.9224 2320
342.505 29.845 2314
348.038 29.845 2314
353.572 29.845 2314
360.036 29.9224 2320
366.057 29.9611 2323
371.612 29.9611 2323
377.167 29.9611 2323
382.228 29.9224 2320
386.772 29.845 2314
392.306 29.845 2314
519.295 38.4219 2979
526.418 38.4219 2979
533.542 38.4219 2979
539.758 38.3574 2974
546.87 38.3574 2974
553.982 38.3574 2974
559.962 38.28 2968
564.193 38.0865 2953
569.127 37.9447 2942
576.162 37.9447 2942
580.224 37.7512 2927
586.22 37.6867 2922
590.974 37.5448 2911
597.935 37.5448 2911
602.818 37.4159 2901
609.755 37.4159 2901
616.693 37.4159 2901
623.63 37.4159 2901
630.567 37.4159 2901
637.504 37.4159 2901
644.441 37.4159 2901
650.256 37.3514 2896
657.181 37.3514 2896
664.106 37.3514 2896
671.031 37.3514 2896
677.957 37.3514 2896
684.882 37.3514 2896
691.807 37.3514 2896
698.732 37.3514 2896
704.439 37.2869 2891
712.583 37.3514 2896
719.508 37.3514 2896
726.433 37.3514 2896
733.358 37.3514 2896
740.284 37.3514 2896
747.209 37.3514 2896
754.134 37.3514 2896
761.059 37.3514 2896
767.984 37.3514 2896
776.247 37.4159 2901
783.185 37.4159 2901
790.122 37.4159 2901
797.059 37.4159 2901
803.996 37.4159 2901
810.933 37.4159 2901
819.28 37.4803 2906
826.229 37.4803 2906
833.178 37.4803 2906
840.128 37.4803 2906
850.283 37.6222 2917
858.728 37.6867 2922
865.715 37.6867 2922
872.703 37.6867 2922
879.69 37.6867 2922
886.677 37.6867 2922
893.665 37.6867 2922
900.652 37.6867 2922
913.852 37.9447 2942
927.461 38.2155 2963
939.593 38.4219 2979
946.716 38.4219 2979
960.564 38.6927 3000
981.931 39.2602 3044
996.685 39.5569 3067
1004.02 39.5569 3067
1020.59 39.918 3095
1031.97 40.0728 3107
1049.1 40.4468 3136
1056.6 40.4468 3136
1074.28 40.8337 3166
1092.1 41.2206 3196
1112.48 41.6978 3233
1120.21 41.6978 3233
1139.1 42.1106 3265
1167.29 42.8586 3323
1191.86 43.4648 3370
1199.91 43.4648 3370
1220.52 43.9162 3405
1231.19 44.0065 3412
1239.35 44.0065 3412
1247.5 44.0065 3412
1255.66 44.0065 3412
1279.38 44.5482 3454
1292.86 44.7288 3468
1301.15 44.7288 3468
1317.75 45.0125 3490
1328.76 45.1028 3497
1337.12 45.1028 3497
1345.48 45.1028 3497
1351.13 45.0125 3490
1350.91 44.7288 3468
1342.74 44.1871 3426
1350.93 44.1871 3426
1348.02 43.826 3398
1350.56 43.6454 3384
1353.03 43.4648 3370
1361.09 43.4648 3370
1350.05 42.8586 3323
1358 42.8586 3323
1360.6 42.691 3310
1368.52 42.691 3310
1376.43 42.691 3310
1378.91 42.5233 3297
1386.79 42.5233 3297
1394.68 42.5233 3297
1402.56 42.5233 3297
1404.88 42.3556 3284
1410.16 42.2782 3278
1417.99 42.2782 3278
1425.83 42.2782 3278
1433.67 42.2782 3278
1446.79 42.433 3290
1478.09 43.1166 3343
1498.09 43.4648 3370
1506.14 43.4648 3370
1542.51 44.2774 3433
1557.04 44.4579 3447
1571.64 44.6385 3461
1579.92 44.6385 3461
1595.08 44.832 3476
1603.39 44.832 3476
1611.7 44.832 3476
1616.29 44.7288 3468
1624.58 44.7288 3468
1629.58 44.6385 3461
1637.85 44.6385 3461
1639.47 44.4579 3447
1647.71 44.4579 3447
1655.96 44.4579 3447
