ply
format ascii 1.0
comment File generated
element vertex 2253
property float x
property float y
property float z
end_header
-1047.62 999.793 2686
-1026.46 985.649 2648
-1026.68 991.977 2665
-1020.31 991.977 2665
-1013.94 991.977 2665
-1004.16 988.627 2656
-1002.69 993.466 2669
-996.311 993.466 2669
-1009.22 1012.82 2721
-1012.66 1022.87 2748
-1006.09 1022.87 2748
-999.516 1022.87 2748
-1020.04 1050.79 2823
-1013.29 1050.79 2823
-1006.54 1050.79 2823
-979.959 1029.94 2767
-973.343 1029.94 2767
-964.979 1028.08 2762
-958.374 1028.08 2762
-951.769 1028.08 2762
-945.165 1028.08 2762
-940.259 1029.94 2767
-934.992 1031.43 2771
-928.366 1031.43 2771
-928.059 1038.5 2790
-924.36 1041.85 2799
-917.667 1041.85 2799
-910.973 1041.85 2799
-904.28 1041.85 2799
-897.587 1041.85 2799
-890.894 1041.85 2799
-882.621 1039.99 2794
-875.94 1039.99 2794
-868.014 1038.5 2790
-861.342 1038.5 2790
-854.67 1038.5 2790
-846.479 1036.64 2785
-839.819 1036.64 2785
-831.664 1034.78 2780
-825.016 1034.78 2780
-818.368 1034.78 2780
-822.816 1048.93 2818
-818.973 1052.65 2828
-817.667 1059.72 2847
-810.859 1059.72 2847
-804.051 1059.72 2847
-797.243 1059.72 2847
-790.435 1059.72 2847
-774.268 1047.07 2813
-766.45 1045.58 2809
-753.242 1036.64 2785
-746.582 1036.64 2785
-739.922 1036.64 2785
-733.263 1036.64 2785
-728.951 1039.99 2794
-727.181 1047.07 2813
-720.455 1047.07 2813
-719.817 1056 2837
-714.29 1057.86 2842
-707.494 1057.86 2842
-700.698 1057.86 2842
-695.122 1059.72 2847
-688.314 1059.72 2847
-681.506 1059.72 2847
-673.513 1057.86 2842
-663.433 1052.65 2828
-655.509 1050.79 2823
-648.759 1050.79 2823
-640.871 1048.93 2818
-634.132 1048.93 2818
-627.393 1048.93 2818
-620.655 1048.93 2818
-613.916 1048.93 2818
-607.177 1048.93 2818
-600.439 1048.93 2818
-593.7 1048.93 2818
-586.961 1048.93 2818
-579.193 1047.07 2813
-572.466 1047.07 2813
-560.108 1036.64 2785
-553.449 1036.64 2785
-545.807 1034.78 2780
-539.159 1034.78 2780
-532.512 1034.78 2780
-525.864 1034.78 2780
-519.216 1034.78 2780
-512.568 1034.78 2780
-505.92 1034.78 2780
-499.272 1034.78 2780
-490.321 1029.94 2767
-482.83 1028.08 2762
-473.122 1021.38 2744
-466.56 1021.38 2744
-458.49 1018.03 2735
-450.462 1014.68 2726
-444.595 1016.17 2730
-438.067 1016.17 2730
-431.538 1016.17 2730
-425.01 1016.17 2730
-417.869 1014.68 2726
-411.954 1016.17 2730
-405.425 1016.17 2730
-398.897 1016.17 2730
-393.087 1018.03 2735
-386.547 1018.03 2735
-380.563 1019.52 2739
-374.013 1019.52 2739
-368.134 1021.38 2744
-362.758 1024.73 2753
-356.175 1024.73 2753
-349.592 1024.73 2753
-343.008 1024.73 2753
-337.525 1028.08 2762
-330.92 1028.08 2762
-324.315 1028.08 2762
-317.711 1028.08 2762
-311.106 1028.08 2762
-304.501 1028.08 2762
-296.926 1024.73 2753
-289.815 1022.87 2748
-283.244 1022.87 2748
-277.176 1024.73 2753
-270.593 1024.73 2753
-264.009 1024.73 2753
-256.117 1019.52 2739
-249.567 1019.52 2739
-243.017 1019.52 2739
-236.122 1018.03 2735
-228.827 1014.68 2726
-222.308 1014.68 2726
-214.76 1009.84 2713
-205.893 998.305 2682
-200.744 1004.63 2699
-194.29 1004.63 2699
-187.835 1004.63 2699
-181.381 1004.63 2699
-174.927 1004.63 2699
-115.664 853.137 2292
-110.183 853.137 2292
-104.702 853.137 2292
-98.3984 846.065 2273
-92.963 846.065 2273
-87.5276 846.065 2273
-81.7671 842.715 2264
-76.3532 842.715 2264
-70.8453 841.598 2261
-65.1491 837.876 2251
-59.7663 837.876 2251
-54.3835 837.876 2251
-49.2836 842.715 2264
-43.986 844.948 2270
-38.6087 846.065 2273
-33.1733 846.065 2273
-27.7378 846.065 2273
-22.3613 848.298 2279
-16.9337 849.415 2282
-11.4768 849.415 2282
-6.03566 851.648 2288
-0.565348 853.137 2292
4.92195 854.254 2295
10.41 854.254 2295
15.898 854.254 2295
21.414 855.371 2298
27.0146 858.721 2307
32.5314 858.721 2307
38.1636 861.326 2314
43.8103 863.559 2320
49.3582 863.559 2320
54.906 863.559 2320
60.7144 867.282 2330
66.2861 867.282 2330
71.8578 867.282 2330
77.4296 867.282 2330
83.0013 867.282 2330
88.8392 869.887 2337
94.4276 869.887 2337
100.016 869.887 2337
106.011 873.237 2346
111.621 873.237 2346
117.431 874.726 2350
123.051 874.726 2350
130.094 884.404 2376
139.376 907.854 2439
145.625 910.46 2446
151.474 910.46 2446
157.323 910.46 2446
161.038 898.548 2414
166.81 898.548 2414
242.107 1021.38 2744
248.669 1021.38 2744
260.347 1041.85 2799
267.04 1041.85 2799
274.222 1043.72 2804
280.927 1043.72 2804
289.069 1048.93 2818
297.277 1054.14 2832
305.123 1057.86 2842
311.919 1057.86 2842
318.715 1057.86 2842
324.938 1056 2837
331.722 1056 2837
335.643 1047.07 2813
341.883 1045.58 2809
347.359 1041.85 2799
354.052 1041.85 2799
358.941 1036.64 2785
364.945 1034.78 2780
371.592 1034.78 2780
378.92 1036.64 2785
385.58 1036.64 2785
392.24 1036.64 2785
398.9 1036.64 2785
405.56 1036.64 2785
412.219 1036.64 2785
417.525 1033.29 2776
422.025 1028.08 2762
427.233 1024.73 2753
433.816 1024.73 2753
438.959 1021.38 2744
442.599 1014.68 2726
446.152 1007.98 2708
454.132 1011.33 2717
460.629 1011.33 2717
468.673 1014.68 2726
475.192 1014.68 2726
484.008 1019.52 2739
490.558 1019.52 2739
502.915 1031.43 2771
510.461 1033.29 2776
517.099 1033.29 2776
523.738 1033.29 2776
531.14 1034.78 2780
537.788 1034.78 2780
544.436 1034.78 2780
551.084 1034.78 2780
559.738 1038.5 2790
569.252 1043.72 2804
575.957 1043.72 2804
582.662 1043.72 2804
589.367 1043.72 2804
596.072 1043.72 2804
602.778 1043.72 2804
609.483 1043.72 2804
613.99 1039.99 2794
617.562 1034.78 2780
619.045 1026.22 2757
625.638 1026.22 2757
626.039 1016.17 2730
631.641 1014.68 2726
636.989 1012.82 2721
643.496 1012.82 2721
649.047 1011.33 2717
653.373 1007.98 2708
658.874 1006.49 2704
665.34 1006.49 2704
666.34 998.305 2682
670.496 994.954 2673
683.472 1004.63 2699
692.226 1007.98 2708
699.992 1009.84 2713
706.48 1009.84 2713
714.019 1011.33 2717
722.902 1014.68 2726
739.054 1028.08 2762
745.659 1028.08 2762
757.166 1034.78 2780
767.66 1039.99 2794
779.607 1047.07 2813
786.334 1047.07 2813
797.29 1052.65 2828
808.033 1057.86 2842
816.263 1059.72 2847
823.071 1059.72 2847
829.879 1059.72 2847
835.217 1057.86 2842
842.013 1057.86 2842
848.809 1057.86 2842
852.595 1054.14 2832
858.153 1052.65 2828
864.916 1052.65 2828
870.137 1050.79 2823
876.888 1050.79 2823
877.691 1043.72 2804
884.397 1043.72 2804
891.102 1043.72 2804
897.807 1043.72 2804
906.125 1045.58 2809
914.142 1047.07 2813
922.506 1048.93 2818
929.244 1048.93 2818
935.983 1048.93 2818
941.049 1047.07 2813
947.776 1047.07 2813
953.145 1045.58 2809
958.154 1043.72 2804
963.139 1041.85 2799
971.564 1043.72 2804
978.27 1043.72 2804
988.136 1047.07 2813
996.631 1048.93 2818
1003.37 1048.93 2818
1010.11 1048.93 2818
1016.85 1048.93 2818
1025.4 1050.79 2823
1039.1 1057.86 2842
1045.9 1057.86 2842
1054.54 1059.72 2847
1061.35 1059.72 2847
1068.16 1059.72 2847
1073.08 1057.86 2842
1077.98 1056 2837
1081.32 1052.65 2828
1086.16 1050.79 2823
1092.91 1050.79 2823
1099.66 1050.79 2823
1109.94 1054.14 2832
1120.65 1057.86 2842
1129.43 1059.72 2847
1136.24 1059.72 2847
1143.05 1059.72 2847
1147.84 1057.86 2842
1154.63 1057.86 2842
1159.39 1056 2837
1166.17 1056 2837
1177.09 1059.72 2847
1183.9 1059.72 2847
1190.7 1059.72 2847
1197.51 1059.72 2847
1200.09 1056 2837
1206.87 1056 2837
1220.08 1061.58 2852
1226.9 1061.58 2852
1238.04 1065.3 2862
1244.89 1065.3 2862
1253.48 1066.79 2866
1260.33 1066.79 2866
1267.19 1066.79 2866
1270.04 1063.44 2857
1292.07 1076.1 2891
1298.98 1076.1 2891
1312.67 1081.68 2906
1331.42 1091.36 2932
1338.44 1091.36 2932
1345.45 1091.36 2932
1340.46 1081.68 2906
1333.86 1065.3 2862
1340.7 1065.3 2862
1349.43 1066.79 2866
1358.65 1068.65 2871
1365.51 1068.65 2871
1372.38 1068.65 2871
1379.24 1068.65 2871
1381.76 1065.3 2862
1383.76 1061.58 2852
1390.58 1061.58 2852
1394.95 1059.72 2847
1399.29 1057.86 2842
1399.16 1052.65 2828
1405.92 1052.65 2828
1410.19 1050.79 2823
1409.91 1045.58 2809
1416.63 1045.58 2809
1423.35 1045.58 2809
1430.06 1045.58 2809
1436.78 1045.58 2809
1443.5 1045.58 2809
1450.22 1045.58 2809
1454.34 1043.72 2804
1455.83 1039.99 2794
1453.09 1033.29 2776
1452.37 1028.08 2762
1458.97 1028.08 2762
1458.15 1022.87 2748
1455.13 1016.17 2730
1478.79 1028.08 2762
1497.76 1036.64 2785
1504.42 1036.64 2785
1528.99 1048.93 2818
1541.18 1052.65 2828
1547.94 1052.65 2828
1554.7 1052.65 2828
1599.01 1077.96 2896
1614.25 1083.54 2911
1621.21 1083.54 2911
1628.18 1083.54 2911
1638.51 1085.78 2917
1645.48 1085.78 2917
1652.46 1085.78 2917
1650.33 1079.82 2901
1651.56 1076.1 2891
1647 1068.65 2871
1653.86 1068.65 2871
1660.73 1068.65 2871
1667.59 1068.65 2871
1666.29 1063.44 2857
1670.2 1061.58 2852
1677.02 1061.58 2852
-2037.28 1019.34 2721
-2050.92 1029.45 2748
-2044.35 1029.45 2748
-2037.78 1029.45 2748
-2031.21 1029.45 2748
-2024.64 1029.45 2748
-2018.07 1029.45 2748
-2011.5 1029.45 2748
-1972.82 1012.97 2704
-1935.09 996.862 2661
-1928.72 996.862 2661
-1922.36 996.862 2661
-1918.88 998.361 2665
-1921.83 1003.23 2678
-1918.29 1004.73 2682
-1911.88 1004.73 2682
-1905.46 1004.73 2682
-1905.42 1008.1 2691
-1898.99 1008.1 2691
-1892.55 1008.1 2691
-1886.12 1008.1 2691
-1840.57 987.122 2635
-1848.88 994.989 2656
-1842.53 994.989 2656
-1842.4 998.361 2665
-1838.79 999.859 2669
-1832.4 999.859 2669
-1826.02 999.859 2669
-1819.64 999.859 2669
-1813.26 999.859 2669
-1815.67 1004.73 2682
-1809.26 1004.73 2682
-1802.85 1004.73 2682
-1509.3 976.633 2607
-1503.07 976.633 2607
-1496.83 976.633 2607
-1103.56 1016.34 2713
-1097.07 1016.34 2713
-1090.59 1016.34 2713
-1080.5 1012.97 2704
-1070.46 1009.6 2695
-1064.02 1009.6 2695
-1057.57 1009.6 2695
-1047.62 1006.23 2686
-1026.46 991.992 2648
-1026.68 998.361 2665
-1020.31 998.361 2665
-1013.94 998.361 2665
-1004.16 994.989 2656
-1002.69 999.859 2669
-996.311 999.859 2669
-1007.73 1017.84 2717
-1002.71 1019.34 2721
-996.202 1019.34 2721
-989.695 1019.34 2721
-983.188 1019.34 2721
-976.682 1019.34 2721
-976.593 1026.08 2739
-970.043 1026.08 2739
-963.493 1026.08 2739
-953.799 1022.71 2730
-947.271 1022.71 2730
-940.742 1022.71 2730
-939.005 1027.96 2744
-933.803 1029.45 2748
-930.268 1032.83 2757
-923.675 1032.83 2757
-920.409 1036.57 2767
-915.113 1038.07 2771
-908.487 1038.07 2771
-901.86 1038.07 2771
-896.849 1039.94 2776
-890.211 1039.94 2776
-883.573 1039.94 2776
-876.935 1039.94 2776
-870.296 1039.94 2776
-864.903 1041.44 2780
-858.255 1041.44 2780
-851.607 1041.44 2780
-843.743 1039.94 2776
-837.105 1039.94 2776
-827.774 1036.57 2767
-822.345 1038.07 2771
-815.719 1038.07 2771
-811.72 1041.44 2780
-805.072 1041.44 2780
-799.86 1043.32 2785
-793.201 1043.32 2785
-786.541 1043.32 2785
-779.881 1043.32 2785
-773.221 1043.32 2785
-764.084 1039.94 2776
-753.626 1034.7 2762
-747.021 1034.7 2762
-740.417 1034.7 2762
-733.812 1034.7 2762
-727.207 1034.7 2762
-720.602 1034.7 2762
-722.27 1046.69 2794
-715.588 1046.69 2794
-713.728 1053.8 2813
-709.514 1057.55 2823
-704.008 1059.42 2828
-697.246 1059.42 2828
-692.681 1062.8 2837
-685.897 1062.8 2837
-679.112 1062.8 2837
-670.195 1059.42 2828
-662.26 1057.55 2823
-654.348 1055.68 2818
-647.61 1055.68 2818
-639.734 1053.8 2813
-633.007 1053.8 2813
-627.393 1055.68 2818
-620.655 1055.68 2818
-613.916 1055.68 2818
-607.177 1055.68 2818
-600.439 1055.68 2818
-593.7 1055.68 2818
-586.961 1055.68 2818
-579.193 1053.8 2813
-572.466 1053.8 2813
-560.108 1043.32 2785
-553.449 1043.32 2785
-545.807 1041.44 2780
-539.159 1041.44 2780
-532.512 1041.44 2780
-525.864 1041.44 2780
-519.216 1041.44 2780
-512.568 1041.44 2780
-505.92 1041.44 2780
-499.272 1041.44 2780
-490.321 1036.57 2767
-482.83 1034.7 2762
-473.122 1027.96 2744
-466.56 1027.96 2744
-458.49 1024.58 2735
-450.462 1021.21 2726
-444.595 1022.71 2730
-438.067 1022.71 2730
-431.538 1022.71 2730
-425.01 1022.71 2730
-417.869 1021.21 2726
-411.954 1022.71 2730
-405.425 1022.71 2730
-398.897 1022.71 2730
-393.087 1024.58 2735
-386.547 1024.58 2735
-380.563 1026.08 2739
-374.013 1026.08 2739
-368.134 1027.96 2744
-362.758 1031.33 2753
-356.175 1031.33 2753
-349.592 1031.33 2753
-343.008 1031.33 2753
-337.525 1034.7 2762
-330.92 1034.7 2762
-324.315 1034.7 2762
-317.711 1034.7 2762
-311.106 1034.7 2762
-304.501 1034.7 2762
-296.926 1031.33 2753
-289.815 1029.45 2748
-283.244 1029.45 2748
-277.176 1031.33 2753
-270.593 1031.33 2753
-264.009 1031.33 2753
-256.117 1026.08 2739
-249.567 1026.08 2739
-243.017 1026.08 2739
-236.122 1024.58 2735
-228.827 1021.21 2726
-222.308 1021.21 2726
-214.76 1016.34 2713
-205.893 1004.73 2682
-200.744 1011.1 2699
-194.29 1011.1 2699
-187.835 1011.1 2699
-181.381 1011.1 2699
-174.927 1011.1 2699
-164.478 987.122 2635
-158.177 987.122 2635
-115.815 859.752 2295
-110.327 859.752 2295
-104.839 859.752 2295
-99.3508 859.752 2295
-93.0857 852.634 2276
-87.6431 852.634 2276
-82.0921 851.51 2273
-76.5555 850.386 2270
-70.9393 848.138 2264
-65.5254 848.138 2264
-59.7663 843.268 2251
-54.3835 843.268 2251
-49.2836 848.138 2264
-43.986 850.386 2270
-38.6087 851.51 2273
-33.1733 851.51 2273
-27.7378 851.51 2273
-22.3613 853.758 2279
-16.9337 854.881 2282
-11.4768 854.881 2282
-6.03566 857.129 2288
-0.565348 858.628 2292
4.92195 859.752 2295
10.41 859.752 2295
15.898 859.752 2295
21.414 860.875 2298
27.0146 864.247 2307
32.5314 864.247 2307
38.1636 866.869 2314
43.8103 869.117 2320
49.3582 869.117 2320
54.906 869.117 2320
60.7144 872.863 2330
66.2861 872.863 2330
71.8578 872.863 2330
77.4296 872.863 2330
83.0013 872.863 2330
88.8392 875.486 2337
94.4276 875.486 2337
100.016 875.486 2337
106.011 878.857 2346
111.621 878.857 2346
117.431 880.356 2350
123.051 880.356 2350
130.094 890.096 2376
139.376 913.697 2439
145.625 916.319 2446
151.474 916.319 2446
157.323 916.319 2446
161.038 904.331 2414
166.81 904.331 2414
242.107 1027.96 2744
248.669 1027.96 2744
257.37 1036.57 2767
265.227 1041.44 2780
272.853 1045.19 2790
279.525 1045.19 2790
286.196 1045.19 2790
294.338 1050.43 2804
303.62 1059.42 2828
310.382 1059.42 2828
317.145 1059.42 2828
322.189 1053.8 2813
328.916 1053.8 2813
335.166 1052.31 2809
340.666 1048.56 2799
345.622 1043.32 2785
352.281 1043.32 2785
358.297 1041.44 2780
364.419 1039.94 2776
371.058 1039.94 2776
377.696 1039.94 2776
384.334 1039.94 2776
391.536 1041.44 2780
398.184 1041.44 2780
404.831 1041.44 2780
410.887 1039.94 2776
416.172 1036.57 2767
420.649 1031.33 2753
426.457 1029.45 2748
433.028 1029.45 2748
438.16 1026.08 2739
442.599 1021.21 2726
446.152 1014.47 2708
454.132 1017.84 2717
460.629 1017.84 2717
468.673 1021.21 2726
475.192 1021.21 2726
484.008 1026.08 2739
490.558 1026.08 2739
500.374 1032.83 2757
508.806 1036.57 2767
516.168 1038.07 2771
522.794 1038.07 2771
529.421 1038.07 2771
536.047 1038.07 2771
542.673 1038.07 2771
548.507 1036.57 2767
556.929 1039.94 2776
565.394 1043.32 2785
573.081 1045.19 2790
579.753 1045.19 2790
586.425 1045.19 2790
593.096 1045.19 2790
599.768 1045.19 2790
606.44 1045.19 2790
610.914 1041.44 2780
613.563 1034.7 2762
614.105 1024.58 2735
620.646 1024.58 2735
623.975 1019.34 2721
628.629 1016.34 2713
635.116 1016.34 2713
641.604 1016.34 2713
646.897 1014.47 2708
652.407 1012.97 2704
653.513 1004.73 2682
659.926 1004.73 2682
664.104 1001.36 2673
667.486 996.862 2661
678.154 1003.23 2678
691.204 1012.97 2704
698.702 1014.47 2708
705.178 1014.47 2708
714.019 1017.84 2717
722.902 1021.21 2726
739.054 1034.7 2762
745.659 1034.7 2762
757.166 1041.44 2780
767.66 1046.69 2794
779.607 1053.8 2813
786.334 1053.8 2813
797.29 1059.42 2828
808.033 1064.67 2842
814.829 1064.67 2842
821.625 1064.67 2842
828.421 1064.67 2842
835.217 1064.67 2842
842.013 1064.67 2842
847.316 1062.8 2837
851.391 1059.42 2828
858.153 1059.42 2828
864.916 1059.42 2828
870.137 1057.55 2823
875.335 1055.68 2818
877.691 1050.43 2804
884.397 1050.43 2804
889.513 1048.56 2799
896.206 1048.56 2799
904.512 1050.43 2804
912.842 1052.31 2809
919.559 1052.31 2809
926.277 1052.31 2809
932.994 1052.31 2809
939.711 1052.31 2809
946.428 1052.31 2809
948.056 1046.69 2794
954.737 1046.69 2794
961.418 1046.69 2794
968.099 1046.69 2794
974.781 1046.69 2794
981.462 1046.69 2794
993.448 1052.31 2809
1000.17 1052.31 2809
1006.88 1052.31 2809
1009.99 1048.56 2799
1021.77 1053.8 2813
1032.15 1057.55 2823
1038.9 1057.55 2823
1048.99 1060.92 2832
1055.76 1060.92 2832
1062.53 1060.92 2832
1069.3 1060.92 2832
1074.56 1059.42 2828
1079.41 1057.55 2823
1082.31 1053.8 2813
1090.97 1055.68 2818
1097.71 1055.68 2818
1108.37 1059.42 2828
1115.13 1059.42 2828
1125.47 1062.8 2837
1132.25 1062.8 2837
1139.03 1062.8 2837
1140.16 1057.55 2823
1146.91 1057.55 2823
1153.66 1057.55 2823
1164.11 1060.92 2832
1170.89 1060.92 2832
1179.74 1062.8 2837
1186.52 1062.8 2837
1193.31 1062.8 2837
1196.28 1059.42 2828
1203.05 1059.42 2828
1211.52 1060.92 2832
1218.29 1060.92 2832
1227.23 1062.8 2837
1238.36 1066.54 2847
1245.17 1066.54 2847
1251.98 1066.54 2847
1258.79 1066.54 2847
1254.92 1057.55 2823
1263.91 1059.42 2828
1270.67 1059.42 2828
1292.79 1072.16 2862
1331.42 1098.38 2932
1338.44 1098.38 2932
1345.45 1098.38 2932
1340.46 1088.64 2906
1306.61 1055.68 2818
1326.87 1066.54 2847
1333.67 1066.54 2847
1345.19 1070.29 2857
1354.39 1072.16 2862
1361.23 1072.16 2862
1368.08 1072.16 2862
1374.92 1072.16 2862
1376.94 1068.41 2852
1381.33 1066.54 2847
1388.14 1066.54 2847
1392.5 1064.67 2842
1396.83 1062.8 2837
1396.69 1057.55 2823
1403.44 1057.55 2823
1405.19 1053.8 2813
1407.4 1050.43 2804
1407.05 1045.19 2790
1413.72 1045.19 2790
1420.39 1045.19 2790
1427.06 1045.19 2790
1433.73 1045.19 2790
1440.41 1045.19 2790
1447.08 1045.19 2790
1446.46 1039.94 2776
1443.15 1032.83 2757
1435.54 1022.71 2730
1442.07 1022.71 2730
1443.82 1019.34 2721
1467.39 1031.33 2753
1483.61 1038.07 2771
1502.6 1046.69 2794
1509.28 1046.69 2794
1528.99 1055.68 2818
1541.18 1059.42 2828
1547.94 1059.42 2828
1554.7 1059.42 2828
1574.72 1068.41 2852
1597.62 1079.28 2881
1612.86 1084.9 2896
1619.79 1084.9 2896
1626.71 1084.9 2896
1630.82 1083.02 2891
1637.73 1083.02 2891
1644.64 1083.02 2891
1637.27 1073.66 2866
1638.96 1070.29 2857
1645.8 1070.29 2857
1652.63 1070.29 2857
1656.56 1068.41 2852
1663.38 1068.41 2852
1670.2 1068.41 2852
1677.02 1068.41 2852
1672.03 1060.92 2832
1665.17 1052.31 2809
-2014.82 1014.55 2691
-2027.79 1024.35 2717
-2044.35 1036.04 2748
-2037.78 1036.04 2748
-2031.21 1036.04 2748
-2024.64 1036.04 2748
-2018.07 1036.04 2748
-2011.5 1036.04 2748
-2004.92 1036.04 2748
-1922.72 996.827 2644
-1916.4 996.827 2644
-1910.08 996.827 2644
-1903.76 996.827 2644
-1912.5 1004.74 2665
-1908.99 1006.25 2669
-1902.61 1006.25 2669
-1896.23 1006.25 2669
-1889.85 1006.25 2669
-1883.46 1006.25 2669
-1877.08 1006.25 2669
-1850.37 995.319 2640
-1832.18 988.91 2623
-1834.27 993.434 2635
-1827.96 993.434 2635
-1842.4 1004.74 2665
-1836.03 1004.74 2665
-1829.66 1004.74 2665
-1816.91 1004.74 2665
-1813.26 1006.25 2669
-1806.87 1006.25 2669
-1800.49 1006.25 2669
-1794.11 1006.25 2669
-1634.55 1006.25 2669
-1628.17 1006.25 2669
-1621.78 1006.25 2669
-1615.4 1006.25 2669
-1606.61 1004.74 2665
-1592.43 999.844 2652
-1586.09 999.844 2652
-1577.36 998.336 2648
-1560.95 991.926 2631
-1552.29 990.418 2627
-1546.01 990.418 2627
-1525.66 981.37 2603
-1521.77 982.878 2607
-1515.54 982.878 2607
-1518.56 988.91 2623
-1512.29 988.91 2623
-1506.02 988.91 2623
-1499.75 988.91 2623
-1493.48 988.91 2623
-1487.2 988.91 2623
-1096.64 987.402 2619
-1090.38 987.402 2619
-1101.5 1003.24 2661
-1095.14 1003.24 2661
-1088.77 1003.24 2661
-1103.56 1022.84 2713
-1097.07 1022.84 2713
-1090.59 1022.84 2713
-1080.5 1019.45 2704
-1070.46 1016.06 2695
-1064.02 1016.06 2695
-1057.57 1016.06 2695
-1047.62 1012.66 2686
-1029.57 1001.35 2656
-1023.21 1001.35 2656
-1015.33 999.844 2652
-1008.99 999.844 2652
-1002.65 999.844 2652
-1002.69 1006.25 2669
-996.311 1006.25 2669
-1004.39 1020.96 2708
-1001.23 1024.35 2717
-994.737 1024.35 2717
-988.24 1024.35 2717
-980.298 1022.84 2713
-973.81 1022.84 2713
-967.322 1022.84 2713
-960.835 1022.84 2713
-954.347 1022.84 2713
-947.86 1022.84 2713
-941.372 1022.84 2713
-934.884 1022.84 2713
-932.845 1027.74 2726
-927.686 1029.25 2730
-925.882 1034.53 2744
-919.32 1034.53 2744
-917.082 1039.43 2757
-912.141 1041.32 2762
-907.175 1043.2 2767
-900.559 1043.2 2767
-893.942 1043.2 2767
-887.325 1043.2 2767
-883.573 1046.59 2776
-876.935 1046.59 2776
-870.296 1046.59 2776
-864.903 1048.1 2780
-858.255 1048.1 2780
-851.607 1048.1 2780
-844.959 1048.1 2780
-835.597 1044.71 2771
-827.774 1043.2 2767
-821.158 1043.2 2767
-807.77 1034.53 2744
-802.377 1036.04 2748
-803.914 1046.59 2776
-798.424 1048.1 2780
-791.777 1048.1 2780
-785.129 1048.1 2780
-774.841 1043.2 2767
-768.224 1043.2 2767
-756.377 1036.04 2748
-746.259 1031.14 2735
-738.366 1029.25 2730
-731.838 1029.25 2730
-725.31 1029.25 2730
-718.782 1029.25 2730
-715.906 1034.53 2744
-716.324 1044.71 2771
-709.698 1044.71 2771
-708.907 1053.38 2794
-702.226 1053.38 2794
-696.789 1055.26 2799
-690.096 1055.26 2799
-686.821 1060.54 2813
-680.094 1060.54 2813
-673.367 1060.54 2813
-666.641 1060.54 2813
-657.803 1057.15 2804
-649.936 1055.26 2799
-643.243 1055.26 2799
-635.413 1053.38 2794
-630.982 1057.15 2804
-625.39 1059.03 2809
-618.673 1059.03 2809
-611.955 1059.03 2809
-606.1 1060.54 2813
-599.373 1060.54 2813
-592.647 1060.54 2813
-585.92 1060.54 2813
-579.193 1060.54 2813
-569.617 1055.26 2799
-559.103 1048.1 2780
-552.455 1048.1 2780
-545.807 1048.1 2780
-538.384 1046.59 2776
-531.745 1046.59 2776
-525.107 1046.59 2776
-518.469 1046.59 2776
-511.831 1046.59 2776
-503.554 1043.2 2767
-496.938 1043.2 2767
-488.549 1039.43 2757
-479.684 1034.53 2744
-472.26 1032.64 2739
-465.71 1032.64 2739
-456.981 1027.74 2726
-449.636 1025.86 2721
-444.595 1029.25 2730
-438.067 1029.25 2730
-431.538 1029.25 2730
-425.01 1029.25 2730
-417.869 1027.74 2726
-411.35 1027.74 2726
-404.089 1025.86 2721
-397.582 1025.86 2721
-392.369 1029.25 2730
-385.841 1029.25 2730
-380.007 1031.14 2735
-373.467 1031.14 2735
-367.463 1032.64 2739
-362.758 1037.92 2753
-356.175 1037.92 2753
-349.592 1037.92 2753
-343.008 1037.92 2753
-336.425 1037.92 2753
-329.842 1037.92 2753
-323.259 1037.92 2753
-316.675 1037.92 2753
-309.529 1036.04 2748
-302.958 1036.04 2748
-296.386 1036.04 2748
-287.495 1027.74 2726
-280.976 1027.74 2726
-275.364 1031.14 2735
-268.823 1031.14 2735
-262.283 1031.14 2735
-255.275 1029.25 2730
-248.747 1029.25 2730
-242.219 1029.25 2730
-233.014 1017.56 2699
-226.224 1016.06 2695
-219.78 1016.06 2695
-212.306 1011.15 2682
-203.897 1001.35 2656
-197.545 1001.35 2656
-193.714 1014.55 2691
-187.835 1017.56 2699
-181.381 1017.56 2699
-174.927 1017.56 2699
-164.478 993.434 2635
-158.177 993.434 2635
-115.815 865.249 2295
-110.327 865.249 2295
-104.839 865.249 2295
-99.3508 865.249 2295
-93.0857 858.086 2276
-87.6431 858.086 2276
-82.0921 856.955 2273
-76.5555 855.824 2270
-70.9393 853.562 2264
-65.5254 853.562 2264
-59.7663 848.661 2251
-54.3835 848.661 2251
-49.2836 853.562 2264
-43.986 855.824 2270
-38.5577 855.824 2270
-33.1295 855.824 2270
-27.7012 855.824 2270
-22.3318 858.086 2276
-16.9115 859.217 2279
-11.4617 859.217 2279
-6.01984 860.348 2282
-0.563622 861.479 2285
4.90051 861.479 2285
10.3646 861.479 2285
15.8288 861.479 2285
21.3581 864.118 2292
26.9444 867.511 2301
32.4468 867.511 2301
37.9986 868.642 2304
43.6404 871.281 2311
49.2943 873.544 2317
54.835 873.544 2317
60.4538 874.675 2320
66.0016 874.675 2320
71.5494 874.675 2320
77.0973 874.675 2320
82.6451 874.675 2320
88.6871 879.576 2333
94.266 879.576 2333
99.8449 879.576 2333
105.74 882.215 2340
111.336 882.215 2340
117.431 885.985 2350
123.051 885.985 2350
130.094 895.787 2376
139.376 919.539 2439
145.625 922.178 2446
151.474 922.178 2446
157.323 922.178 2446
161.038 910.114 2414
166.81 910.114 2414
169.652 894.656 2373
242.107 1034.53 2744
248.669 1034.53 2744
257.37 1043.2 2767
265.227 1048.1 2780
272.853 1051.87 2790
279.525 1051.87 2790
286.196 1051.87 2790
294.338 1057.15 2804
303.62 1066.2 2828
310.382 1066.2 2828
317.145 1066.2 2828
322.189 1060.54 2813
328.916 1060.54 2813
335.166 1059.03 2809
340.666 1055.26 2799
345.622 1049.99 2785
352.281 1049.99 2785
358.297 1048.1 2780
364.419 1046.59 2776
371.058 1046.59 2776
377.696 1046.59 2776
384.334 1046.59 2776
391.536 1048.1 2780
398.184 1048.1 2780
404.831 1048.1 2780
410.887 1046.59 2776
416.172 1043.2 2767
420.649 1037.92 2753
426.457 1036.04 2748
433.028 1036.04 2748
438.16 1032.64 2739
442.599 1027.74 2726
446.152 1020.96 2708
454.132 1024.35 2717
460.629 1024.35 2717
468.673 1027.74 2726
475.192 1027.74 2726
484.008 1032.64 2739
490.558 1032.64 2739
500.374 1039.43 2757
508.806 1043.2 2767
516.168 1044.71 2771
522.794 1044.71 2771
529.421 1044.71 2771
536.047 1044.71 2771
542.673 1044.71 2771
548.507 1043.2 2767
556.929 1046.59 2776
565.394 1049.99 2785
573.081 1051.87 2790
579.753 1051.87 2790
586.425 1051.87 2790
593.096 1051.87 2790
599.768 1051.87 2790
606.44 1051.87 2790
610.914 1048.1 2780
613.563 1041.32 2762
614.105 1031.14 2735
620.646 1031.14 2735
623.975 1025.86 2721
630.482 1025.86 2721
636.989 1025.86 2721
643.496 1025.86 2721
650.002 1025.86 2721
653.373 1020.96 2708
657.655 1017.56 2699
664.109 1017.56 2699
664.104 1007.76 2673
669.492 1006.25 2669
679.167 1011.15 2682
691.204 1019.45 2704
698.702 1020.96 2708
705.178 1020.96 2708
714.019 1024.35 2717
722.902 1027.74 2726
739.054 1041.32 2762
745.659 1041.32 2762
757.166 1048.1 2780
767.66 1053.38 2794
779.607 1060.54 2813
786.334 1060.54 2813
797.29 1066.2 2828
808.033 1071.48 2842
814.829 1071.48 2842
821.625 1071.48 2842
828.421 1071.48 2842
835.217 1071.48 2842
842.013 1071.48 2842
847.316 1069.59 2837
851.391 1066.2 2828
858.153 1066.2 2828
864.916 1066.2 2828
870.137 1064.31 2823
875.335 1062.43 2818
877.691 1057.15 2804
884.397 1057.15 2804
889.513 1055.26 2799
896.206 1055.26 2799
904.512 1057.15 2804
912.842 1059.03 2809
919.559 1059.03 2809
926.277 1059.03 2809
932.994 1059.03 2809
939.711 1059.03 2809
946.428 1059.03 2809
948.056 1053.38 2794
954.737 1053.38 2794
961.418 1053.38 2794
968.099 1053.38 2794
974.781 1053.38 2794
981.462 1053.38 2794
993.448 1059.03 2809
1000.17 1059.03 2809
1006.88 1059.03 2809
1009.99 1055.26 2799
1021.77 1060.54 2813
1032.15 1064.31 2823
1038.9 1064.31 2823
1048.99 1067.71 2832
1055.76 1067.71 2832
1062.53 1067.71 2832
1069.3 1067.71 2832
1074.56 1066.2 2828
1079.41 1064.31 2823
1082.31 1060.54 2813
1089.04 1060.54 2813
1095.76 1060.54 2813
1104.45 1062.43 2818
1111.19 1062.43 2818
1117.93 1062.43 2818
1124.67 1062.43 2818
1131.41 1062.43 2818
1138.14 1062.43 2818
1144.88 1062.43 2818
1147.94 1059.03 2809
1154.66 1059.03 2809
1161.38 1059.03 2809
1168.09 1059.03 2809
1174.81 1059.03 2809
1181.53 1059.03 2809
1184.02 1055.26 2799
1186.88 1051.87 2790
1193.55 1051.87 2790
1198.07 1049.99 2785
1208.63 1053.38 2794
1221.83 1059.03 2809
1228.55 1059.03 2809
1235.27 1059.03 2809
1241.98 1059.03 2809
1242.03 1053.38 2794
1248.71 1053.38 2794
1251.35 1049.99 2785
1258.01 1049.99 2785
1319.62 1095.61 2906
1326.57 1095.61 2906
1333.52 1095.61 2906
1276.35 1043.2 2767
1306.61 1062.43 2818
1313.35 1062.43 2818
1324.77 1066.2 2828
1331.54 1066.2 2828
1340.19 1067.71 2832
1346.96 1067.71 2832
1353.74 1067.71 2832
1360.51 1067.71 2832
1367.28 1067.71 2832
1367.26 1062.43 2818
1374 1062.43 2818
1380.74 1062.43 2818
1385.01 1060.54 2813
1389.76 1059.03 2809
1396.48 1059.03 2809
1395.7 1053.38 2794
1397.87 1049.99 2785
1404.53 1049.99 2785
1411.19 1049.99 2785
1417.85 1049.99 2785
1424.51 1049.99 2785
1431.17 1049.99 2785
1433.18 1046.59 2776
1439.82 1046.59 2776
1436.56 1039.43 2757
1431.63 1031.14 2735
1430.81 1025.86 2721
1437.32 1025.86 2721
1443.82 1025.86 2721
1467.39 1037.92 2753
1483.61 1044.71 2771
1502.6 1053.38 2794
1509.28 1053.38 2794
1526.28 1060.54 2813
1535.73 1062.43 2818
1547.94 1066.2 2828
1554.7 1066.2 2828
1561.46 1066.2 2828
1581.54 1075.25 2852
1604.51 1086.18 2881
1611.4 1086.18 2881
1618.29 1086.18 2881
1625.17 1086.18 2881
1632.06 1086.18 2881
1630.42 1080.52 2866
1632.13 1077.13 2857
1636.1 1075.25 2852
1642.92 1075.25 2852
1649.74 1075.25 2852
1656.56 1075.25 2852
1663.38 1075.25 2852
1664.34 1071.48 2842
1671.14 1071.48 2842
1672.03 1067.71 2832
1665.17 1059.03 2809
1660.57 1051.87 2790
1667.25 1051.87 2790
1682.32 1057.15 2804
1689.02 1057.15 2804
1695.73 1057.15 2804
1702.43 1057.15 2804
1709.14 1057.15 2804
-2014.82 1020.99 2691
-2027.79 1030.86 2717
-2044.35 1042.62 2748
-2037.78 1042.62 2748
-2031.21 1042.62 2748
-2024.64 1042.62 2748
-2018.07 1042.62 2748
-2011.5 1042.62 2748
-2004.92 1042.62 2748
-1922.72 1003.16 2644
-1916.4 1003.16 2644
-1910.08 1003.16 2644
-1903.76 1003.16 2644
-1912.5 1011.13 2665
-1908.99 1012.65 2669
-1902.61 1012.65 2669
-1896.23 1012.65 2669
-1889.85 1012.65 2669
-1883.46 1012.65 2669
-1877.08 1012.65 2669
-1850.37 1001.64 2640
-1832.18 995.194 2623
-1834.27 999.746 2635
-1827.96 999.746 2635
-1842.4 1011.13 2665
-1836.03 1011.13 2665
-1829.66 1011.13 2665
-1816.91 1011.13 2665
-1813.26 1012.65 2669
-1806.87 1012.65 2669
-1800.49 1012.65 2669
-1794.11 1012.65 2669
-1634.55 1012.65 2669
-1628.17 1012.65 2669
-1621.78 1012.65 2669
-1615.4 1012.65 2669
-1606.61 1011.13 2665
-1592.43 1006.2 2652
-1586.09 1006.2 2652
-1577.36 1004.68 2648
-1560.95 998.229 2631
-1552.29 996.711 2627
-1546.01 996.711 2627
-1537.38 995.194 2623
-1521.77 989.123 2607
-1515.54 989.123 2607
-1518.56 995.194 2623
-1512.29 995.194 2623
-1510.61 998.229 2631
-1504.32 998.229 2631
-1498.03 998.229 2631
-1491.74 998.229 2631
-1480.93 995.194 2623
-1114.23 1009.61 2661
-1107.86 1009.61 2661
-1101.5 1009.61 2661
-1095.14 1009.61 2661
-1088.77 1009.61 2661
-1097.87 1024.03 2699
-1091.41 1024.03 2699
-1084.96 1024.03 2699
-1078.51 1024.03 2699
-1070.46 1022.51 2695
-1064.02 1022.51 2695
-1054.04 1019.1 2686
-1046.06 1017.58 2682
-1029.57 1007.71 2656
-1023.21 1007.71 2656
-1015.33 1006.2 2652
-1007.47 1004.68 2648
-999.624 1003.16 2644
-993.301 1003.16 2644
-986.979 1003.16 2644
-998.088 1020.99 2691
-996.444 1025.93 2704
-989.978 1025.93 2704
-983.512 1025.93 2704
-977.046 1025.93 2704
-970.58 1025.93 2704
-965.54 1027.44 2708
-959.064 1027.44 2708
-952.588 1027.44 2708
-944.715 1025.93 2704
-938.249 1025.93 2704
-931.783 1025.93 2704
-926.686 1027.44 2708
-924.628 1032.38 2721
-924.194 1039.21 2739
-917.645 1039.21 2739
-914.089 1042.62 2748
-910.49 1046.03 2757
-907.175 1049.83 2767
-900.559 1049.83 2767
-893.942 1049.83 2767
-887.325 1049.83 2767
-883.573 1053.24 2776
-876.935 1053.24 2776
-870.296 1053.24 2776
-864.903 1054.76 2780
-858.255 1054.76 2780
-851.607 1054.76 2780
-844.959 1054.76 2780
-837.105 1053.24 2776
-827.774 1049.83 2767
-821.158 1049.83 2767
-806.298 1039.21 2739
-798.581 1037.69 2735
-792.041 1037.69 2735
-786.649 1039.21 2739
-780.099 1039.21 2739
-773.55 1039.21 2739
-765.88 1037.69 2735
-759.339 1037.69 2735
-747.845 1030.86 2717
-735.345 1022.51 2695
-728.9 1022.51 2695
-723.528 1024.03 2699
-717.074 1024.03 2699
-710.62 1024.03 2699
-709.905 1032.38 2721
-711.671 1044.52 2753
-705.088 1044.52 2753
-703.071 1051.35 2771
-697.702 1053.24 2776
-692.059 1054.76 2780
-685.411 1054.76 2780
-682.182 1060.07 2794
-675.501 1060.07 2794
-668.819 1060.07 2794
-662.138 1060.07 2794
-654.518 1058.56 2790
-647.847 1058.56 2790
-641.175 1058.56 2790
-633.366 1056.66 2785
-627.831 1058.56 2790
-623.163 1061.97 2799
-616.47 1061.97 2799
-609.777 1061.97 2799
-603.084 1061.97 2799
-594.473 1058.56 2790
-588.644 1060.07 2794
-581.962 1060.07 2794
-575.281 1060.07 2794
-565.751 1054.76 2780
-557.293 1051.35 2771
-550.666 1051.35 2771
-544.04 1051.35 2771
-535.668 1047.93 2762
-528.106 1046.03 2757
-521.513 1046.03 2757
-514.92 1046.03 2757
-508.327 1046.03 2757
-501.735 1046.03 2757
-495.142 1046.03 2757
-484.65 1037.69 2735
-477.236 1035.79 2730
-470.018 1034.27 2726
-463.5 1034.27 2726
-455.472 1030.86 2717
-448.314 1029.34 2713
-443.129 1032.38 2721
-436.622 1032.38 2721
-430.116 1032.38 2721
-422.986 1030.86 2717
-415.876 1029.34 2713
-409.992 1030.86 2717
-404.089 1032.38 2721
-397.582 1032.38 2721
-391.075 1032.38 2721
-385.275 1034.27 2726
-379.312 1035.79 2730
-372.784 1035.79 2730
-366.927 1037.69 2735
-362.758 1044.52 2753
-356.175 1044.52 2753
-349.592 1044.52 2753
-343.008 1044.52 2753
-335.814 1042.62 2748
-329.243 1042.62 2748
-322.202 1041.1 2744
-314.605 1037.69 2735
-307.501 1035.79 2730
-300.973 1035.79 2730
-294.014 1034.27 2726
-286.546 1030.86 2717
-280.049 1030.86 2717
-273.954 1032.38 2721
-267.447 1032.38 2721
-260.941 1032.38 2721
-252.377 1024.03 2699
-245.923 1024.03 2699
-239.468 1024.03 2699
-231.892 1019.1 2686
-225.133 1017.58 2682
-218.72 1017.58 2682
-208.982 1001.64 2640
-201.363 995.194 2623
-195.686 998.229 2631
-190.33 1003.16 2644
-186.931 1019.1 2686
-180.508 1019.1 2686
-174.085 1019.1 2686
-164.478 999.746 2635
-158.177 999.746 2635
-149.801 986.088 2599
-126.166 905.653 2387
-120.458 905.653 2387
-114.75 905.653 2387
-106.895 887.82 2340
-100.433 880.232 2320
-94.3536 875.3 2307
-88.8368 875.3 2307
-82.5255 866.953 2285
-76.7579 863.538 2276
-71.0333 860.123 2267
-65.6122 860.123 2267
-59.8459 855.191 2254
-54.4559 855.191 2254
-49.2183 857.847 2261
-43.986 861.262 2270
-38.5577 861.262 2270
-33.1295 861.262 2270
-27.7012 861.262 2270
-22.273 861.262 2270
-16.9115 864.676 2279
-11.4617 864.676 2279
-6.01192 864.676 2279
-0.562882 865.815 2282
4.89407 865.815 2282
10.351 865.815 2282
15.808 865.815 2282
21.2929 866.953 2285
26.839 869.609 2292
32.3199 869.609 2292
37.8997 871.885 2298
43.5082 874.162 2304
49.1667 876.818 2311
54.693 876.818 2311
60.2193 876.818 2311
65.9163 879.094 2317
71.4569 879.094 2317
76.9976 879.094 2317
82.5382 879.094 2317
88.1929 880.232 2320
93.7407 880.232 2320
99.2886 880.232 2320
104.836 880.232 2320
110.86 884.026 2330
117.431 891.615 2350
123.051 891.615 2350
129.382 896.547 2363
136.176 904.135 2383
143.72 915.897 2414
149.492 915.897 2414
155.265 915.897 2414
160.104 910.585 2400
165.843 910.585 2400
169.652 900.341 2373
240.872 1035.79 2730
247.4 1035.79 2730
255.231 1041.1 2744
261.793 1041.1 2744
269.626 1046.03 2757
276.219 1046.03 2757
283.837 1049.83 2767
292.868 1058.56 2790
300.506 1061.97 2799
307.199 1061.97 2799
313.893 1061.97 2799
320.586 1061.97 2799
327.279 1061.97 2799
332.899 1058.56 2790
338.353 1054.76 2780
344.505 1053.24 2776
351.143 1053.24 2776
357.137 1051.35 2771
363.238 1049.83 2767
369.855 1049.83 2767
376.471 1049.83 2767
382.396 1047.93 2762
389.001 1047.93 2762
395.605 1047.93 2762
402.21 1047.93 2762
408.815 1047.93 2762
414.668 1046.03 2757
417.899 1037.69 2735
424.439 1037.69 2735
430.979 1037.69 2735
436.08 1034.27 2726
441.787 1032.38 2721
446.152 1027.44 2708
453.463 1029.34 2713
459.951 1029.34 2713
467.126 1030.86 2717
473.623 1030.86 2717
480.827 1032.38 2721
487.334 1032.38 2721
494.748 1034.27 2726
503.657 1039.21 2739
511.884 1042.62 2748
518.455 1042.62 2748
525.982 1044.52 2753
532.565 1044.52 2753
539.931 1046.03 2757
548.507 1049.83 2767
555.123 1049.83 2767
562.552 1051.35 2771
570.205 1053.24 2776
576.844 1053.24 2776
583.482 1053.24 2776
590.12 1053.24 2776
596.758 1053.24 2776
603.397 1053.24 2776
610.035 1053.24 2776
612.452 1046.03 2757
614.105 1037.69 2735
620.646 1037.69 2735
623.975 1032.38 2721
630.482 1032.38 2721
636.989 1032.38 2721
643.496 1032.38 2721
650.002 1032.38 2721
653.373 1027.44 2708
657.655 1024.03 2699
664.109 1024.03 2699
663.11 1012.65 2669
669.492 1012.65 2669
679.167 1017.58 2682
689.926 1024.03 2699
697.67 1025.93 2704
704.136 1025.93 2704
710.602 1025.93 2704
719.455 1029.34 2713
732.9 1039.21 2739
739.449 1039.21 2739
753.625 1049.83 2767
765.188 1056.66 2785
775.727 1061.97 2799
782.421 1061.97 2799
795.88 1071.08 2823
805.19 1074.49 2832
814.829 1078.28 2842
821.625 1078.28 2842
828.421 1078.28 2842
833.748 1076.39 2837
840.532 1076.39 2837
844.628 1072.97 2828
851.391 1072.97 2828
858.153 1072.97 2828
864.916 1072.97 2828
870.137 1071.08 2823
873.782 1067.28 2813
877.691 1063.87 2804
884.397 1063.87 2804
889.513 1061.97 2799
896.206 1061.97 2799
902.899 1061.97 2799
909.593 1061.97 2799
916.286 1061.97 2799
922.979 1061.97 2799
928.012 1060.07 2794
931.682 1056.66 2785
938.342 1056.66 2785
943.305 1054.76 2780
945.511 1049.83 2767
952.127 1049.83 2767
960.13 1051.35 2771
966.756 1051.35 2771
973.383 1051.35 2771
978.594 1049.83 2767
985.211 1049.83 2767
991.828 1049.83 2767
1004.94 1056.66 2785
1014.87 1060.07 2794
1025.21 1063.87 2804
1038.9 1071.08 2823
1045.65 1071.08 2823
1052.4 1071.08 2823
1059.16 1071.08 2823
1065.91 1071.08 2823
1072.66 1071.08 2823
1075.58 1067.28 2813
1078.85 1063.87 2804
1090.97 1069.18 2818
1097.71 1069.18 2818
1106.41 1071.08 2823
1113.16 1071.08 2823
1119.91 1071.08 2823
1124.67 1069.18 2818
1131.41 1069.18 2818
1138.14 1069.18 2818
1144.88 1069.18 2818
1147.94 1065.76 2809
1154.66 1065.76 2809
1161.38 1065.76 2809
1168.09 1065.76 2809
1174.81 1065.76 2809
1181.53 1065.76 2809
1184.02 1061.97 2799
1186.88 1058.56 2790
1193.55 1058.56 2790
1198.07 1056.66 2785
1208.63 1060.07 2794
1221.83 1065.76 2809
1228.55 1065.76 2809
1235.27 1065.76 2809
1241.98 1065.76 2809
1242.03 1060.07 2794
1248.71 1060.07 2794
1251.35 1056.66 2785
1258.01 1056.66 2785
1319.62 1102.57 2906
1326.57 1102.57 2906
1333.52 1102.57 2906
1276.35 1049.83 2767
1306.61 1069.18 2818
1313.35 1069.18 2818
1324.77 1072.97 2828
1331.54 1072.97 2828
1340.19 1074.49 2832
1346.96 1074.49 2832
1353.74 1074.49 2832
1360.51 1074.49 2832
1367.28 1074.49 2832
1367.26 1069.18 2818
1374 1069.18 2818
1380.74 1069.18 2818
1385.01 1067.28 2813
1389.76 1065.76 2809
1396.48 1065.76 2809
1395.7 1060.07 2794
1397.87 1056.66 2785
1404.53 1056.66 2785
1411.19 1056.66 2785
1417.85 1056.66 2785
1424.51 1056.66 2785
1431.17 1056.66 2785
1433.18 1053.24 2776
1439.82 1053.24 2776
1436.56 1046.03 2757
1431.63 1037.69 2735
1430.81 1032.38 2721
1437.32 1032.38 2721
1443.82 1032.38 2721
1467.39 1044.52 2753
1483.61 1051.35 2771
1502.6 1060.07 2794
1509.28 1060.07 2794
1526.28 1067.28 2813
1535.73 1069.18 2818
1547.94 1072.97 2828
1554.7 1072.97 2828
1561.46 1072.97 2828
1581.54 1082.08 2852
1604.51 1093.08 2881
1611.4 1093.08 2881
1618.29 1093.08 2881
1625.17 1093.08 2881
1632.06 1093.08 2881
1630.42 1087.39 2866
1632.13 1083.98 2857
1636.1 1082.08 2852
1642.92 1082.08 2852
1649.74 1082.08 2852
1656.56 1082.08 2852
1663.38 1082.08 2852
1664.34 1078.28 2842
1671.14 1078.28 2842
1672.03 1074.49 2832
1665.17 1065.76 2809
1660.57 1058.56 2790
1667.25 1058.56 2790
1682.32 1063.87 2804
1689.02 1063.87 2804
1695.73 1063.87 2804
1702.43 1063.87 2804
1709.14 1063.87 2804
1709.72 1060.07 2794
1716.41 1060.07 2794
-2001.34 1020.57 2673
-2001.67 1024 2682
-2044.35 1049.2 2748
-2037.78 1049.2 2748
-2031.21 1049.2 2748
-2024.64 1049.2 2748
-2018.07 1049.2 2748
-2011.5 1049.2 2748
-2004.92 1049.2 2748
-1919.82 1007.97 2640
-1913.5 1007.97 2640
-1897.8 1003 2627
-1891.52 1003 2627
-1890.98 1006.06 2635
-1884.67 1006.06 2635
-1878.37 1006.06 2635
-1866.39 1003 2627
-1860.11 1003 2627
-1853.82 1003 2627
-1844.73 1001.48 2623
-1835.65 999.95 2619
-1815.42 992.314 2599
-1809.21 992.314 2599
-1802.99 992.314 2599
-1796.78 992.314 2599
-1634.55 1019.04 2669
-1628.17 1019.04 2669
-1621.78 1019.04 2669
-1615.4 1019.04 2669
-1606.61 1017.51 2665
-1592.43 1012.55 2652
-1586.09 1012.55 2652
-1577.36 1011.02 2648
-1560.95 1004.53 2631
-1552.29 1003 2627
-1546.01 1003 2627
-1537.38 1001.48 2623
-1521.77 995.368 2607
-1515.54 995.368 2607
-1518.56 1001.48 2623
-1512.29 1001.48 2623
-1510.61 1004.53 2631
-1504.32 1004.53 2631
-1498.03 1004.53 2631
-1491.74 1004.53 2631
-1480.93 1001.48 2623
-1114.23 1015.99 2661
-1107.86 1015.99 2661
-1101.5 1015.99 2661
-1095.14 1015.99 2661
-1088.77 1015.99 2661
-1097.87 1030.49 2699
-1091.41 1030.49 2699
-1084.96 1030.49 2699
-1078.51 1030.49 2699
-1070.46 1028.97 2695
-1064.02 1028.97 2695
-1054.04 1025.53 2686
-1046.06 1024 2682
-1029.57 1014.08 2656
-1023.21 1014.08 2656
-1015.33 1012.55 2652
-1007.47 1011.02 2648
-999.624 1009.49 2644
-993.301 1009.49 2644
-986.979 1009.49 2644
-998.088 1027.44 2691
-996.444 1032.4 2704
-989.978 1032.4 2704
-983.512 1032.4 2704
-977.046 1032.4 2704
-970.58 1032.4 2704
-965.54 1033.93 2708
-959.064 1033.93 2708
-952.588 1033.93 2708
-944.715 1032.4 2704
-938.249 1032.4 2704
-931.783 1032.4 2704
-926.686 1033.93 2708
-924.628 1038.89 2721
-924.194 1045.77 2739
-917.645 1045.77 2739
-914.089 1049.2 2748
-910.49 1052.64 2757
-907.175 1056.46 2767
-900.559 1056.46 2767
-893.942 1056.46 2767
-887.325 1056.46 2767
-883.573 1059.89 2776
-876.935 1059.89 2776
-870.296 1059.89 2776
-864.903 1061.42 2780
-858.255 1061.42 2780
-851.607 1061.42 2780
-844.959 1061.42 2780
-837.105 1059.89 2776
-827.774 1056.46 2767
-821.158 1056.46 2767
-806.298 1045.77 2739
-798.581 1044.24 2735
-792.041 1044.24 2735
-786.649 1045.77 2739
-780.099 1045.77 2739
-773.55 1045.77 2739
-765.88 1044.24 2735
-759.339 1044.24 2735
-747.845 1037.37 2717
-735.345 1028.97 2695
-728.9 1028.97 2695
-723.528 1030.49 2699
-717.074 1030.49 2699
-710.62 1030.49 2699
-709.905 1038.89 2721
-711.671 1051.11 2753
-705.088 1051.11 2753
-703.071 1057.98 2771
-696.445 1057.98 2771
-689.819 1057.98 2771
-682.206 1056.46 2767
-677.787 1059.89 2776
-671.149 1059.89 2776
-664.51 1059.89 2776
-657.872 1059.89 2776
-651.234 1059.89 2776
-644.596 1059.89 2776
-637.957 1059.89 2776
-631.319 1059.89 2776
-625.581 1061.42 2780
-621.16 1065.24 2790
-614.488 1065.24 2790
-607.816 1065.24 2790
-601.144 1065.24 2790
-593.407 1063.33 2785
-584.851 1059.89 2776
-578.213 1059.89 2776
-571.575 1059.89 2776
-564.937 1059.89 2776
-555.483 1054.55 2762
-548.878 1054.55 2762
-541.292 1052.64 2757
-533.923 1051.11 2753
-528.106 1052.64 2757
-521.513 1052.64 2757
-514.92 1052.64 2757
-505.93 1047.68 2744
-497.731 1044.24 2735
-491.191 1044.24 2735
-483.764 1042.33 2730
-475.663 1038.89 2721
-468.466 1037.37 2717
-461.969 1037.37 2717
-453.963 1033.93 2708
-446.001 1030.49 2699
-440.361 1032.4 2704
-433.895 1032.4 2704
-427.428 1032.4 2704
-420.962 1032.4 2704
-414.496 1032.4 2704
-408.03 1032.4 2704
-401.564 1032.4 2704
-395.098 1032.4 2704
-391.075 1038.89 2721
-384.569 1038.89 2721
-378.062 1038.89 2721
-371.555 1038.89 2721
-366.256 1042.33 2730
-359.728 1042.33 2730
-355.011 1047.68 2744
-348.449 1047.68 2744
-341.887 1047.68 2744
-334.714 1045.77 2739
-328.165 1045.77 2739
-321.145 1044.24 2735
-314.03 1042.33 2730
-307.051 1040.8 2726
-300.532 1040.8 2726
-292.611 1035.84 2713
-285.175 1032.4 2704
-278.709 1032.4 2704
-272.242 1032.4 2704
-265.285 1030.49 2699
-258.831 1030.49 2699
-249.571 1019.04 2669
-243.189 1019.04 2669
-234.943 1011.02 2648
-227.489 1006.06 2635
-220.516 1003 2627
-213.582 999.95 2619
-207.319 999.95 2619
-199.521 992.314 2599
-193.901 995.368 2607
-188.531 999.95 2619
-183.103 1004.53 2631
-176.811 1004.53 2631
-170.52 1004.53 2631
-163.479 999.95 2619
-157.217 999.95 2619
-149.801 992.314 2599
-139.222 962.151 2520
-131.61 950.697 2490
-125.655 950.697 2490
-114.894 912.516 2390
-107.808 901.062 2360
-100.866 889.608 2330
-94.7626 884.644 2317
-89.2219 884.644 2317
-83.2117 879.681 2304
-77.0614 872.427 2285
-71.3153 868.99 2276
-65.8727 868.99 2276
-59.9256 861.736 2257
-54.5284 861.736 2257
-49.2183 863.263 2261
-43.986 866.699 2270
-38.5577 866.699 2270
-33.1295 866.699 2270
-27.7012 866.699 2270
-22.273 866.699 2270
-16.8892 868.99 2276
-11.4466 868.99 2276
-6.01192 870.136 2279
-0.562142 870.136 2279
4.88764 870.136 2279
10.3374 870.136 2279
15.7872 870.136 2279
21.2929 872.427 2285
26.839 875.099 2292
32.3199 875.099 2292
37.8007 875.099 2292
43.3382 876.245 2295
49.0178 879.681 2304
54.5273 879.681 2304
60.2193 882.354 2311
65.7456 882.354 2311
71.2719 882.354 2311
76.7982 882.354 2311
82.3245 882.354 2311
88.0789 884.644 2317
93.6195 884.644 2317
99.1602 884.644 2317
104.836 885.79 2320
110.384 885.79 2320
116.582 890.753 2333
122.161 890.753 2333
128.451 895.717 2346
135.033 902.207 2363
141.279 906.025 2373
146.953 906.025 2373
152.628 906.025 2373
158.302 906.025 2373
163.977 906.025 2373
169.652 906.025 2373
240.872 1042.33 2730
247.4 1042.33 2730
255.231 1047.68 2744
261.793 1047.68 2744
268.354 1047.68 2744
274.916 1047.68 2744
282.811 1052.64 2757
290.454 1056.46 2767
299.54 1065.24 2790
306.212 1065.24 2790
312.883 1065.24 2790
319.555 1065.24 2790
326.227 1065.24 2790
331.705 1061.42 2780
337.866 1059.89 2776
343.884 1057.98 2771
350.51 1057.98 2771
356.621 1056.46 2767
363.238 1056.46 2767
368.518 1052.64 2757
375.111 1052.64 2757
381.704 1052.64 2757
388.296 1052.64 2757
394.889 1052.64 2757
401.482 1052.64 2757
408.075 1052.64 2757
411.359 1044.24 2735
417.135 1042.33 2730
423.043 1040.8 2726
429.561 1040.8 2726
436.08 1040.8 2726
440.488 1035.84 2713
446.152 1033.93 2708
452.627 1033.93 2708
459.103 1033.93 2708
466.438 1035.84 2713
472.926 1035.84 2713
480.12 1037.37 2717
486.618 1037.37 2717
493.841 1038.89 2721
502.002 1042.33 2730
510.207 1045.77 2739
516.757 1045.77 2739
524.262 1047.68 2744
530.824 1047.68 2744
538.169 1049.2 2748
546.524 1052.64 2757
553.117 1052.64 2757
561.74 1056.46 2767
569.178 1057.98 2771
575.805 1057.98 2771
582.431 1057.98 2771
589.057 1057.98 2771
595.684 1057.98 2771
602.31 1057.98 2771
608.057 1056.46 2767
610.453 1049.2 2748
614.105 1044.24 2735
620.646 1044.24 2735
623.975 1038.89 2721
630.482 1038.89 2721
636.989 1038.89 2721
643.496 1038.89 2721
650.002 1038.89 2721
653.373 1033.93 2708
657.655 1030.49 2699
664.109 1030.49 2699
665.346 1022.48 2678
671.75 1022.48 2678
683.472 1030.49 2699
691.204 1032.4 2704
697.67 1032.4 2704
704.136 1032.4 2704
710.602 1032.4 2704
717.068 1032.4 2704
729.421 1040.8 2726
735.94 1040.8 2726
747.361 1047.68 2744
760.242 1056.46 2767
771.847 1063.33 2785
778.507 1063.33 2785
791.933 1072.49 2809
802.631 1077.84 2823
809.382 1077.84 2823
816.132 1077.84 2823
822.883 1077.84 2823
829.633 1077.84 2823
836.384 1077.84 2823
841.641 1075.93 2818
845.671 1072.49 2809
852.388 1072.49 2809
859.105 1072.49 2809
865.822 1072.49 2809
867.88 1066.77 2794
870.179 1061.42 2780
876.827 1061.42 2780
883.475 1061.42 2780
890.122 1061.42 2780
898.383 1063.33 2785
905.043 1063.33 2785
911.703 1063.33 2785
918.363 1063.33 2785
925.022 1063.33 2785
926.999 1057.98 2771
933.625 1057.98 2771
935.501 1052.64 2757
940.727 1051.11 2753
948.686 1052.64 2757
957.012 1054.55 2762
963.616 1054.55 2762
971.978 1056.46 2767
978.594 1056.46 2767
985.211 1056.46 2767
991.828 1056.46 2767
1001.69 1059.89 2776
1013.42 1065.24 2790
1025.21 1070.58 2804
1037.06 1075.93 2818
1043.8 1075.93 2818
1052.4 1077.84 2823
1059.16 1077.84 2823
1065.91 1077.84 2823
1072.66 1077.84 2823
1074.05 1072.49 2809
1078.85 1070.58 2804
1090.97 1075.93 2818
1097.71 1075.93 2818
1106.41 1077.84 2823
1113.16 1077.84 2823
1119.91 1077.84 2823
1124.67 1075.93 2818
1131.41 1075.93 2818
1134.51 1072.49 2809
1141.23 1072.49 2809
1145.9 1070.58 2804
1150.55 1068.67 2799
1157.24 1068.67 2799
1163.94 1068.67 2799
1170.63 1068.67 2799
1177.32 1068.67 2799
1180.21 1065.24 2790
1182.63 1061.42 2780
1189.27 1061.42 2780
1195.92 1061.42 2780
1202.57 1061.42 2780
1215.31 1066.77 2794
1221.99 1066.77 2794
1228.67 1066.77 2794
1231.37 1063.33 2785
1234.03 1059.89 2776
1240.67 1059.89 2776
1243.26 1056.46 2767
1249.88 1056.46 2767
1256.5 1056.46 2767
1263.11 1056.46 2767
1269.73 1056.46 2767
1276.35 1056.46 2767
1302.44 1072.49 2809
1311.02 1074.02 2813
1320.09 1075.93 2818
1326.83 1075.93 2818
1335.93 1077.84 2823
1342.68 1077.84 2823
1349.43 1077.84 2823
1356.18 1077.84 2823
1360.52 1075.93 2818
1364.83 1074.02 2813
1371.56 1074.02 2813
1378.29 1074.02 2813
1380.58 1070.58 2804
1382.34 1066.77 2794
1389.02 1066.77 2794
1391.21 1063.33 2785
1397.87 1063.33 2785
1402 1061.42 2780
1408.65 1061.42 2780
1415.3 1061.42 2780
1421.95 1061.42 2780
1426.54 1059.89 2776
1428.53 1056.46 2767
1435.15 1056.46 2767
1425.09 1044.24 2735
1426.92 1040.8 2726
1428.71 1037.37 2717
1435.2 1037.37 2717
1441.7 1037.37 2717
1467.39 1051.11 2753
1483.61 1057.98 2771
1502.6 1066.77 2794
1509.28 1066.77 2794
1526.28 1074.02 2813
1533 1074.02 2813
1539.73 1074.02 2813
1546.46 1074.02 2813
1555.94 1075.93 2818
1562.68 1075.93 2818
1574.99 1079.75 2828
1586.79 1083.18 2837
1593.57 1083.18 2837
1600.35 1083.18 2837
1607.14 1083.18 2837
1613.92 1083.18 2837
1617.85 1081.27 2832
1624.62 1081.27 2832
1631.39 1081.27 2832
1638.17 1081.27 2832
