ply
format ascii 1.0
comment File generated
element vertex 2250
property float x
property float y
property float z
end_header
1397.65 493.221 3588
1406.23 493.221 3588
1408.51 491.022 3572
1407.92 487.86 3549
1410.42 485.798 3534
1407.23 481.811 3505
1415.61 481.811 3505
1406.12 475.763 3461
1394.37 469.027 3412
1391.02 465.178 3384
1399.11 465.178 3384
1395.98 461.467 3357
1392.71 457.755 3330
1392.26 455.006 3310
1400.18 455.006 3310
1397.03 451.432 3284
1402.32 450.607 3278
1412.74 451.432 3284
1423.19 452.257 3290
1436.71 454.044 3303
1444.61 454.044 3303
1452.5 454.044 3303
1466.59 455.968 3317
1480.3 457.755 3330
1488.27 457.755 3330
1502.07 459.542 3343
1510.07 459.542 3343
1518.06 459.542 3343
1526.05 459.542 3343
1528.08 457.755 3330
1526.82 455.006 3310
1534.73 455.006 3310
1533.33 452.257 3290
1526.21 447.858 3258
1528.35 446.208 3246
1524.28 442.772 3221
1531.98 442.772 3221
1524.86 438.51 3190
1520.96 435.211 3166
1500.05 427.101 3107
1507.48 427.101 3107
1481.75 417.753 3039
1459.62 409.505 2979
1443.6 403.045 2932
1440.23 400.158 2911
1447.19 400.158 2911
1444.16 397.409 2891
1446.05 396.034 2881
1445.38 393.972 2866
1452.23 393.972 2866
1457.05 393.422 2862
1458.78 392.047 2852
1465.6 392.047 2852
1472.42 392.047 2852
1476.64 391.36 2847
1480.85 390.673 2842
1485.02 389.985 2837
1489.18 389.298 2832
1495.95 389.298 2832
1500.6 388.748 2828
1507.36 388.748 2828
1511.45 388.061 2823
1518.2 388.061 2823
1522.25 387.374 2818
1526.28 386.686 2813
1533 386.686 2813
1539.73 386.686 2813
1544.26 386.136 2809
1550.97 386.136 2809
1552.15 384.762 2799
1558.84 384.762 2799
1565.53 384.762 2799
1572.23 384.762 2799
1578.92 384.762 2799
1585.61 384.762 2799
1592.3 384.762 2799
1599 384.762 2799
1605.69 384.762 2799
1615.26 385.449 2804
1621.97 385.449 2804
1628.68 385.449 2804
1638.3 386.136 2809
1645.01 386.136 2809
1651.73 386.136 2809
1658.45 386.136 2809
1665.17 386.136 2809
1671.88 386.136 2809
1680.99 386.686 2813
1687.72 386.686 2813
1694.44 386.686 2813
1704.19 387.374 2818
1710.93 387.374 2818
1717.67 387.374 2818
1724.41 387.374 2818
1728.08 386.686 2813
1732.34 386.136 2809
1739.05 386.136 2809
1745.77 386.136 2809
1752.49 386.136 2809
1759.21 386.136 2809
1765.92 386.136 2809
1772.64 386.136 2809
1776.19 385.449 2804
1779.72 384.762 2799
1786.41 384.762 2799
1789.9 384.074 2794
1796.58 384.074 2794
1803.26 384.074 2794
1807.35 383.525 2790
1814.02 383.525 2790
1817.43 382.837 2785
1820.82 382.15 2780
1827.47 382.15 2780
1834.11 382.15 2780
1838.11 381.6 2776
1844.75 381.6 2776
1851.39 381.6 2776
1858.03 381.6 2776
1864.67 381.6 2776
1871.3 381.6 2776
1877.94 381.6 2776
1884.58 381.6 2776
1891.22 381.6 2776
1894.44 380.913 2771
1904.5 381.6 2776
1911.13 381.6 2776
1917.77 381.6 2776
1924.41 381.6 2776
1931.05 381.6 2776
1943.97 382.837 2785
1950.63 382.837 2785
1957.29 382.837 2785
1963.95 382.837 2785
1967.07 382.15 2780
1973.72 382.15 2780
1980.37 382.15 2780
1987.01 382.15 2780
1993.66 382.15 2780
2000.31 382.15 2780
2004.07 381.6 2776
2007.09 380.913 2771
2003.54 378.988 2757
2007.21 378.438 2753
2013.8 378.438 2753
2016.71 377.751 2748
2023.28 377.751 2748
2029.85 377.751 2748
2036.43 377.751 2748
2033.33 375.964 2735
2053.3 378.438 2753
2059.88 378.438 2753
2066.46 378.438 2753
2073.05 378.438 2753
2072.83 377.201 2744
2086.21 378.438 2753
2092.8 378.438 2753
2099.38 378.438 2753
-2078.46 388.25 2776
-2071.82 388.25 2776
-2068.16 388.81 2780
-2061.51 388.81 2780
-2058.56 389.509 2785
-2065.9 392.166 2804
-2059.19 392.166 2804
-2052.49 392.166 2804
-2049.43 392.865 2809
-2042.71 392.865 2809
-2036 392.865 2809
-2029.28 392.865 2809
-2022.56 392.865 2809
-2015.84 392.865 2809
-2009.13 392.865 2809
-2002.41 392.865 2809
-2015.59 396.782 2837
-2022.96 399.579 2857
-2022.48 400.837 2866
-2015.63 400.837 2866
-2008.78 400.837 2866
-2001.92 400.837 2866
-1995.07 400.837 2866
-1981.97 399.579 2857
-1984.82 401.537 2871
-1984.84 402.935 2881
-1977.95 402.935 2881
-1971.06 402.935 2881
-1964.17 402.935 2881
-1950.49 401.537 2871
-1943.63 401.537 2871
-1933.39 400.837 2866
-1929.89 401.537 2871
-1929.73 402.935 2881
-1926.17 403.635 2886
-1919.27 403.635 2886
-1912.37 403.635 2886
-1905.47 403.635 2886
-1898.57 403.635 2886
-1891.67 403.635 2886
-1884.77 403.635 2886
-1881.12 404.334 2891
-1880.69 405.733 2901
-1873.75 405.733 2901
-1873.25 407.131 2911
-1866.29 407.131 2911
-1859.33 407.131 2911
-1852.37 407.131 2911
-1845.41 407.131 2911
-1842.23 407.97 2917
-1854.13 412.166 2947
-1847.09 412.166 2947
-1840.04 412.166 2947
-1832.99 412.166 2947
-1825.94 412.166 2947
-1815.81 411.467 2942
-1793.41 407.97 2917
-1795.62 410.068 2932
-1801.42 413.005 2953
-1794.35 413.005 2953
-1793.34 414.404 2963
-1798.92 417.341 2984
-1808 421.117 3011
-1800.8 421.117 3011
-1826.95 428.949 3067
-1819.62 428.949 3067
-1812.29 428.949 3067
-1885.9 457.481 3271
-1893 461.117 3297
-1885.12 461.117 3297
-1884.64 462.935 3310
-1895.43 467.55 3343
-1895.34 469.508 3357
-1887.32 469.508 3357
-1879.29 469.508 3357
-1878.51 471.327 3370
-1889.87 476.222 3405
-1881.73 476.222 3405
-1889 480.138 3433
-1888.46 482.096 3447
-1891.67 485.033 3468
-1883.38 485.033 3468
-1890.76 489.089 3497
-1886.71 490.208 3505
-1890.11 493.285 3527
-1881.68 493.285 3527
-1881.21 495.382 3542
-1876.44 496.362 3549
-1876.38 498.599 3565
-1867.85 498.599 3565
-1871.32 501.816 3588
-1866.38 502.795 3595
-1866.05 505.033 3611
-1857.41 505.033 3611
-1852.88 506.152 3619
-1852.38 508.389 3635
-1851.29 510.487 3650
-1842.56 510.487 3650
-1842.38 512.865 3667
-1833.61 512.865 3667
-1832.8 515.103 3683
-1823.99 515.103 3683
-1819.13 516.222 3691
-1822.56 519.718 3716
-1825.39 523.075 3740
-1816.45 523.075 3740
-1811.85 524.333 3749
-1806.74 525.452 3757
-1802.06 526.711 3766
-1793.05 526.711 3766
-1796.36 530.347 3792
-1791.07 531.466 3800
-1786.2 532.725 3809
-1777.09 532.725 3809
-1772.16 533.984 3818
-1770.88 536.361 3835
-1774.11 540.138 3862
-1764.88 540.138 3862
-1755.64 540.138 3862
-1766.76 546.431 3907
-1757.41 546.431 3907
-1748.07 546.431 3907
-1738.73 546.431 3907
-1729.39 546.431 3907
-1720.04 546.431 3907
-1683.12 537.62 3844
-1647.36 529.089 3783
-1605.4 518.459 3707
-1575.43 511.606 3658
-1566.68 511.606 3658
-1541.33 506.152 3619
-1525.9 503.914 3603
-1504.23 499.578 3572
-1495.68 499.578 3572
-1471.32 494.264 3534
-1459.97 493.285 3527
-1439.19 489.089 3497
-1430.83 489.089 3497
-1410.67 485.033 3468
-1396.72 483.075 3454
-1363.13 474.264 3391
-1355.02 474.264 3391
-1333.41 469.508 3357
-1314.72 465.732 3330
-1301.66 463.914 3317
-1291 462.935 3310
-1283.08 462.935 3310
-1260.14 457.481 3271
-1235.47 451.327 3227
-1218.25 447.83 3202
-1210.59 447.83 3202
-1196.17 445.313 3184
-1184.08 443.634 3172
-1167.59 440.278 3148
-1160.06 440.278 3148
-1129.1 431.327 3084
-1109.36 426.572 3050
-1099.9 425.732 3044
-1080.77 421.117 3011
-1073.57 421.117 3011
-1062.48 419.579 3000
-1049.68 417.341 2984
-1035.2 414.404 2963
-1028.12 414.404 2963
-1015.52 412.166 2947
-1008.47 412.166 2947
-1008.56 415.103 2968
-1001.46 415.103 2968
-994.366 415.103 2968
-987.269 415.103 2968
-980.172 415.103 2968
-973.074 415.103 2968
-964.349 414.404 2963
-925.926 400.837 2866
-909.773 396.782 2837
-902.989 396.782 2837
-888.623 393.425 2813
-880.216 405.033 2896
-873.291 405.033 2896
-866.366 405.033 2896
-860.925 405.733 2901
-853.987 405.733 2901
-859.022 411.467 2942
-851.987 411.467 2942
-844.951 411.467 2942
-839.34 412.166 2947
-833.988 413.005 2953
-829.726 414.404 2963
-822.641 414.404 2963
-815.555 414.404 2963
-807.106 413.705 2958
-795.705 411.467 2942
-788.67 411.467 2942
-780.306 410.767 2937
-773.283 410.767 2937
-767.564 411.467 2942
-760.529 411.467 2942
-753.494 411.467 2942
-746.458 411.467 2942
-738.166 410.767 2937
-731.143 410.767 2937
-724.12 410.767 2937
-715.876 410.068 2932
-707.656 409.369 2927
-700.656 409.369 2927
-692.472 408.67 2922
-681.731 406.432 2906
-674.782 406.432 2906
-668.982 407.131 2911
-662.021 407.131 2911
-659.785 410.068 2932
-652.774 410.068 2932
-646.864 410.767 2937
-639.841 410.767 2937
-633.895 411.467 2942
-629.203 413.005 2953
-623.195 413.705 2958
-616.122 413.705 2958
-612.343 415.942 2974
-609.505 418.879 2995
-606.767 421.956 3017
-599.553 421.956 3017
-595.48 424.194 3033
-589.39 425.033 3039
-584.23 426.572 3050
-576.937 426.572 3050
-573.752 429.648 3072
-570.647 432.865 3095
-563.246 432.865 3095
-555.845 432.865 3095
-550.57 434.544 3107
-543.14 434.544 3107
-536.573 435.243 3112
-529.131 435.243 3112
-522.695 436.082 3118
-516.23 436.921 3124
-511.691 439.439 3142
-504.178 439.439 3142
-502.355 444.474 3178
-501.45 450.488 3221
-495.587 452.166 3233
-487.856 452.166 3233
-480.125 452.166 3233
-514.329 492.306 3520
-524.596 510.487 3650
-515.867 510.487 3650
-509.501 512.865 3667
-501.825 513.984 3675
-493.037 513.984 3675
-484.249 513.984 3675
-479.601 518.459 3707
-474.927 523.075 3740
-465.983 523.075 3740
-457.04 523.075 3740
-450.133 525.452 3757
-443.145 527.83 3774
-437.111 531.466 3800
-428.024 531.466 3800
-419.929 532.725 3809
-412.654 535.103 3826
-405.404 537.62 3844
-396.211 537.62 3844
-390.644 542.655 3880
-381.366 542.655 3880
-372.087 542.655 3880
-362.809 542.655 3880
-351.891 540.138 3862
-341.058 537.62 3844
-331.866 537.62 3844
-322.674 537.62 3844
-313.482 537.62 3844
-305.002 538.879 3853
-295.788 538.879 3853
-286.575 538.879 3853
-277.361 538.879 3853
-267.521 537.62 3844
-258.329 537.62 3844
-247.97 535.103 3826
-237.76 532.725 3809
-227.091 529.089 3783
-217.526 527.83 3774
-208.501 527.83 3774
-198.155 524.333 3749
-187.928 520.837 3724
-178.206 518.459 3707
-169.341 518.459 3707
-160.13 517.34 3699
-151.285 517.34 3699
-141.515 513.984 3675
-132.727 513.984 3675
-123.366 511.606 3658
-67.4612 301.118 2153
-62.2259 300.698 2150
-57.0846 300.698 2150
-51.8709 300.278 2147
-46.7367 300.278 2147
-41.5445 299.859 2144
-36.4175 299.859 2144
-31.2906 299.859 2144
-26.1392 299.579 2142
-21.017 299.579 2142
-15.8949 299.579 2142
-10.7425 298.74 2136
-5.61359 297.621 2128
-0.524156 297.202 2125
4.55736 297.202 2125
9.63888 297.202 2125
14.7204 297.202 2125
19.8019 297.202 2125
24.8834 297.202 2125
29.965 297.202 2125
34.997 296.782 2122
40.0336 296.502 2120
45.1031 296.502 2120
50.1727 296.502 2120
55.1641 296.083 2117
60.2265 296.083 2117
65.2889 296.083 2117
70.451 296.502 2120
75.5205 296.502 2120
80.7802 297.202 2125
85.9829 297.621 2128
91.414 298.74 2136
96.5218 298.74 2136
102.153 300.278 2147
107.687 301.397 2155
113.573 303.355 2169
118.76 303.355 2169
124.118 303.775 2172
129.848 305.034 2181
135.93 306.992 2195
141.179 306.992 2195
147.962 310.208 2218
154.096 311.887 2230
160.501 313.985 2245
165.869 313.985 2245
172.458 316.222 2261
179.045 318.32 2276
185.46 319.999 2288
190.931 319.999 2288
196.746 320.558 2292
203.021 321.817 2301
208.795 322.236 2304
214.305 322.236 2304
219.814 322.236 2304
226.595 324.055 2317
233.739 326.292 2333
239.318 326.292 2333
245.631 327.271 2340
252.623 329.09 2353
259.018 330.069 2360
264.661 330.069 2360
270.305 330.069 2360
433.81 416.642 2979
440.934 416.642 2979
449.712 418.18 2990
458.39 419.579 3000
465.564 419.579 3000
472.738 419.579 3000
479.912 419.579 3000
487.086 419.579 3000
494.26 419.579 3000
500.598 418.879 2995
508.608 419.579 3000
515.781 419.579 3000
522.955 419.579 3000
530.129 419.579 3000
537.303 419.579 3000
543.57 418.879 2995
549.812 418.18 2990
556.962 418.18 2990
562.037 416.642 2979
568.205 415.942 2974
573.189 414.404 2963
580.274 414.404 2963
587.36 414.404 2963
594.445 414.404 2963
601.531 414.404 2963
608.616 414.404 2963
615.702 414.404 2963
622.787 414.404 2963
629.872 414.404 2963
636.958 414.404 2963
642.957 413.705 2958
648.931 413.005 2953
653.549 411.467 2942
660.584 411.467 2942
667.62 411.467 2942
673.508 410.767 2937
679.373 410.068 2932
686.384 410.068 2932
694.578 410.767 2937
701.601 410.767 2937
708.625 410.767 2937
714.429 410.068 2932
721.441 410.068 2932
727.21 409.369 2927
734.209 409.369 2927
739.942 408.67 2922
746.93 408.67 2922
753.917 408.67 2922
760.904 408.67 2922
766.578 407.97 2917
773.553 407.97 2917
780.529 407.97 2917
787.504 407.97 2917
794.48 407.97 2917
801.455 407.97 2917
809.816 408.67 2922
816.804 408.67 2922
825.201 409.369 2927
832.2 409.369 2927
839.199 409.369 2927
846.199 409.369 2927
850.283 407.97 2917
858.728 408.67 2922
865.715 408.67 2922
872.703 408.67 2922
879.69 408.67 2922
886.677 408.67 2922
896.723 410.068 2932
903.735 410.068 2932
913.852 411.467 2942
929.026 415.103 2968
949.685 421.117 3011
956.886 421.117 3011
976.573 426.572 3050
992.899 430.488 3078
1003.83 432.026 3089
1011.22 432.026 3089
1038.06 440.278 3148
1063.53 447.83 3202
1083.56 453.005 3239
1091.31 453.005 3239
1116.36 460.138 3290
1153.95 472.306 3377
1178.89 479.159 3426
1187.08 479.159 3426
1215.16 487.131 3483
1223.49 487.131 3483
1231.82 487.131 3483
1237.66 486.152 3476
1243.1 485.033 3468
1248.87 484.054 3461
1265.14 487.131 3483
1273.46 487.131 3483
1295.41 492.306 3520
1323.09 499.578 3572
1334.61 500.697 3580
1343.17 500.697 3580
1354.75 501.816 3588
1365.99 502.795 3595
1374.59 502.795 3595
1383.19 502.795 3595
1391.78 502.795 3595
1397.65 501.816 3588
1406.23 501.816 3588
1408.51 499.578 3572
1407.92 496.362 3549
1410.42 494.264 3534
1407.23 490.208 3505
1415.61 490.208 3505
1406.12 484.054 3461
1394.37 477.201 3412
1391.02 473.285 3384
1399.11 473.285 3384
1395.98 469.508 3357
1392.71 465.732 3330
1392.26 462.935 3310
1400.18 462.935 3310
1397.03 459.299 3284
1402.32 458.46 3278
1412.74 459.299 3284
1423.19 460.138 3290
1436.71 461.956 3303
1444.61 461.956 3303
1452.5 461.956 3303
1466.59 463.914 3317
1480.3 465.732 3330
1488.27 465.732 3330
1502.07 467.55 3343
1510.07 467.55 3343
1518.06 467.55 3343
1526.05 467.55 3343
1528.08 465.732 3330
1526.82 462.935 3310
1534.73 462.935 3310
1533.33 460.138 3290
1526.21 455.662 3258
1528.35 453.984 3246
1524.28 450.488 3221
1531.98 450.488 3221
1524.86 446.152 3190
1520.96 442.795 3166
1500.05 434.544 3107
1507.48 434.544 3107
1484.19 425.732 3044
1467.46 418.879 2995
1448.53 411.467 2942
1448.14 409.369 2927
1455.14 409.369 2927
1444.16 404.334 2891
1446.05 402.935 2881
1445.38 400.837 2866
1452.23 400.837 2866
1457.05 400.278 2862
1463.89 400.278 2862
1465.6 398.879 2852
1472.42 398.879 2852
1476.64 398.18 2847
1480.85 397.481 2842
1485.02 396.782 2837
1489.18 396.082 2832
1495.95 396.082 2832
1500.6 395.523 2828
1507.36 395.523 2828
1511.45 394.823 2823
1518.2 394.823 2823
1522.25 394.124 2818
1528.99 394.124 2818
1533 393.425 2813
1539.73 393.425 2813
1544.26 392.865 2809
1550.97 392.865 2809
1552.15 391.467 2799
1558.84 391.467 2799
1565.53 391.467 2799
1572.23 391.467 2799
1578.92 391.467 2799
1585.61 391.467 2799
1592.3 391.467 2799
1599 391.467 2799
1605.69 391.467 2799
1615.26 392.166 2804
1624.86 392.865 2809
1631.58 392.865 2809
1638.3 392.865 2809
1645.01 392.865 2809
1651.73 392.865 2809
1658.45 392.865 2809
1667.54 393.425 2813
1674.26 393.425 2813
1683.98 394.124 2818
1690.72 394.124 2818
1697.46 394.124 2818
1704.19 394.124 2818
1710.93 394.124 2818
1717.67 394.124 2818
1724.41 394.124 2818
1731.15 394.124 2818
1734.8 393.425 2813
1741.53 393.425 2813
1748.26 393.425 2813
1754.98 393.425 2813
1761.71 393.425 2813
1768.44 393.425 2813
1772.64 392.865 2809
1779.36 392.865 2809
1779.72 391.467 2799
1786.41 391.467 2799
1789.9 390.768 2794
1796.58 390.768 2794
1803.26 390.768 2794
1807.35 390.208 2790
1814.02 390.208 2790
1817.43 389.509 2785
1824.09 389.509 2785
1827.47 388.81 2780
1834.11 388.81 2780
1840.76 388.81 2780
1844.75 388.25 2776
1851.39 388.25 2776
1858.03 388.25 2776
1864.67 388.25 2776
1871.3 388.25 2776
1877.94 388.25 2776
1884.58 388.25 2776
1891.22 388.25 2776
1894.44 387.551 2771
1904.5 388.25 2776
1911.13 388.25 2776
1917.77 388.25 2776
1924.41 388.25 2776
1931.05 388.25 2776
1943.97 389.509 2785
1950.63 389.509 2785
1957.29 389.509 2785
1963.95 389.509 2785
1967.07 388.81 2780
1973.72 388.81 2780
1980.37 388.81 2780
1987.01 388.81 2780
1993.66 388.81 2780
2000.31 388.81 2780
2004.07 388.25 2776
2007.09 387.551 2771
2003.54 385.593 2757
2007.21 385.033 2753
2013.8 385.033 2753
2016.71 384.334 2748
2023.28 384.334 2748
2029.85 384.334 2748
2036.43 384.334 2748
2033.33 382.516 2735
2053.3 385.033 2753
2059.88 385.033 2753
2066.46 385.033 2753
2073.05 385.033 2753
2079.63 385.033 2753
2086.21 385.033 2753
2092.8 385.033 2753
2099.38 385.033 2753
-2081.45 395.469 2780
-2074.81 395.469 2780
-2068.16 395.469 2780
-2061.51 395.469 2780
-2054.86 395.469 2780
-2072.53 400.163 2813
-2065.8 400.163 2813
-2059.07 400.163 2813
-2052.35 400.163 2813
-2042.71 399.594 2809
-2038.89 400.163 2813
-2032.17 400.163 2813
-2025.44 400.163 2813
-2018.71 400.163 2813
-2015.56 400.875 2818
-2008.83 400.875 2818
-2019.14 404.289 2842
-2022.96 406.423 2857
-2022.48 407.703 2866
-2015.63 407.703 2866
-2008.78 407.703 2866
-2001.92 407.703 2866
-1995.07 407.703 2866
-1978.5 405.711 2852
-1981.36 407.703 2866
-1977.95 408.414 2871
-1971.09 408.414 2871
-1964.22 408.414 2871
-1957.36 408.414 2871
-1947.09 407.703 2866
-1940.24 407.703 2866
-1927.32 406.423 2857
-1926.53 407.703 2866
-1919.68 407.703 2866
-1922.84 409.837 2881
-1915.95 409.837 2881
-1909.06 409.837 2881
-1902.17 409.837 2881
-1895.28 409.837 2881
-1888.39 409.837 2881
-1881.5 409.837 2881
-1877.87 410.548 2886
-1874.21 411.259 2891
-1867.29 411.259 2891
-1866.81 412.682 2901
-1863.08 413.393 2906
-1856.13 413.393 2906
-1849.18 413.393 2906
-1842.24 413.393 2906
-1838.44 414.104 2911
-1850.99 418.514 2942
-1843.95 418.514 2942
-1836.92 418.514 2942
-1829.88 418.514 2942
-1822.85 418.514 2942
-1812.72 417.803 2937
-1786.64 413.393 2906
-1786.43 414.958 2917
-1785.55 416.381 2927
-1778.56 416.381 2927
-1774.58 417.092 2932
-1786.26 421.502 2963
-1791.78 424.489 2984
-1784.65 424.489 2984
-1800.15 429.895 3022
-1826.15 437.861 3078
-1867.24 449.526 3160
-1859.68 449.526 3160
-1869.71 453.794 3190
-1865.58 454.647 3196
-1857.94 454.647 3196
-1871.72 459.911 3233
-1885.9 465.316 3271
-1882.09 466.312 3278
-1874.26 466.312 3278
-1877.24 469.015 3297
-1899.4 476.554 3350
-1898.73 478.404 3363
-1890.69 478.404 3363
-1882.65 478.404 3363
-1878.51 479.4 3370
-1897.64 486.37 3419
-1889.47 486.37 3419
-1896.7 490.353 3447
-1892.29 491.349 3454
-1896.03 494.479 3476
-1887.72 494.479 3476
-1890.76 497.466 3497
-1886.71 498.604 3505
-1893.87 502.729 3534
-1885.41 502.729 3534
-1881.21 503.867 3542
-1876.44 504.863 3549
-1872.17 506.001 3557
-1863.66 506.001 3557
-1867.15 509.273 3580
-1862.74 510.411 3588
-1861.92 512.545 3603
-1853.3 512.545 3603
-1848.78 513.683 3611
-1848.3 515.959 3627
-1851.29 519.231 3650
-1842.56 519.231 3650
-1837.85 520.369 3658
-1833.61 521.649 3667
-1824.84 521.649 3667
-1816.07 521.649 3667
-1815.19 523.925 3683
-1822.56 528.62 3716
-1817.58 529.758 3724
-1808.68 529.758 3724
-1803.64 530.896 3732
-1798.56 532.034 3740
-1797.75 534.452 3757
-1788.77 534.452 3757
-1796.36 539.431 3792
-1795.31 541.849 3809
-1786.2 541.849 3809
-1777.09 541.849 3809
-1780.05 545.548 3835
-1775.04 546.828 3844
-1774.11 549.389 3862
-1764.88 549.389 3862
-1772.01 554.51 3898
-1766.76 555.79 3907
-1757.41 555.79 3907
-1748.07 555.79 3907
-1738.73 555.79 3907
-1729.39 555.79 3907
-1720.04 555.79 3907
-1679.17 545.548 3835
-1643.44 536.871 3774
-1605.4 527.339 3707
-1579.31 521.649 3667
-1570.54 521.649 3667
-1544.73 515.959 3627
-1525.9 512.545 3603
-1504.23 508.135 3572
-1495.68 508.135 3572
-1471.32 502.729 3534
-1459.97 501.734 3527
-1439.19 497.466 3497
-1430.83 497.466 3497
-1410.67 493.341 3468
-1393.89 490.353 3447
-1357.51 480.395 3377
-1349.43 480.395 3377
-1333.41 477.55 3357
-1309.59 471.86 3317
-1298.91 470.864 3310
-1288.27 469.868 3303
-1280.37 469.868 3303
-1257.83 464.463 3265
-1233.18 458.204 3221
-1218.25 455.501 3202
-1210.59 455.501 3202
-1196.17 452.94 3184
-1181.84 450.379 3166
-1163.14 446.112 3136
-1155.64 446.112 3136
-1129.1 438.715 3084
-1109.36 433.878 3050
-1098.09 432.313 3039
-1080.77 428.33 3011
-1073.57 428.33 3011
-1062.48 426.765 3000
-1049.68 424.489 2984
-1035.2 421.502 2963
-1028.12 421.502 2963
-1015.52 419.226 2947
-1008.47 419.226 2947
-999.726 418.514 2942
-1001.46 422.213 2968
-994.366 422.213 2968
-987.269 422.213 2968
-978.52 421.502 2963
-971.435 421.502 2963
-964.349 421.502 2963
-925.926 407.703 2866
-909.773 403.578 2837
-902.989 403.578 2837
-888.623 400.163 2813
-880.216 411.971 2896
-873.291 411.971 2896
-866.366 411.971 2896
-860.925 412.682 2901
-853.987 412.682 2901
-859.022 418.514 2942
-853.435 419.226 2947
-846.387 419.226 2947
-841.049 420.079 2953
-836.812 421.502 2963
-831.126 422.213 2968
-824.029 422.213 2968
-816.932 422.213 2968
-808.47 421.502 2963
-795.705 418.514 2942
-788.67 418.514 2942
-780.306 417.803 2937
-773.283 417.803 2937
-767.564 418.514 2942
-760.529 418.514 2942
-753.494 418.514 2942
-746.458 418.514 2942
-736.91 417.092 2932
-729.898 417.092 2932
-722.887 417.092 2932
-714.655 416.381 2927
-707.656 416.381 2927
-700.656 416.381 2927
-692.472 415.669 2922
-681.731 413.393 2906
-674.782 413.393 2906
-668.982 414.104 2911
-662.021 414.104 2911
-659.785 417.092 2932
-652.774 417.092 2932
-646.864 417.803 2937
-639.841 417.803 2937
-633.895 418.514 2942
-629.203 420.079 2953
-626.566 423.067 2974
-619.455 423.067 2974
-616.667 426.054 2995
-613.982 429.183 3017
-609.985 431.46 3033
-602.732 431.46 3033
-596.658 432.313 3039
-592.493 434.589 3055
-586.337 435.443 3061
-579.018 435.443 3061
-575.993 438.715 3084
-570.647 440.279 3095
-567.431 443.551 3118
-559.975 443.551 3118
-552.519 443.551 3118
-546.112 444.405 3124
-542.78 447.819 3148
-535.252 447.819 3148
-529.736 449.526 3160
-524.162 451.233 3172
-517.554 452.087 3178
-509.954 452.087 3178
-509.152 458.204 3221
-501.45 458.204 3221
-493.747 458.204 3221
-486.045 458.204 3221
-517.251 495.474 3483
-518.566 504.863 3549
-524.596 519.231 3650
-515.867 519.231 3650
-509.501 521.649 3667
-501.825 522.787 3675
-493.037 522.787 3675
-484.249 522.787 3675
-478.566 526.201 3699
-471.879 528.62 3716
-465.983 532.034 3740
-457.04 532.034 3740
-448.096 532.034 3740
-442.206 535.733 3766
-434.12 536.871 3774
-425.095 536.871 3774
-418.055 539.431 3792
-411.792 543.13 3818
-404.454 545.548 3835
-395.284 545.548 3835
-389.738 550.669 3871
-380.481 550.669 3871
-371.224 550.669 3871
-361.967 550.669 3871
-350.251 546.828 3844
-340.26 545.548 3835
-331.089 545.548 3835
-321.163 544.268 3826
-313.482 546.828 3844
-304.29 546.828 3844
-295.098 546.828 3844
-285.905 546.828 3844
-276.713 546.828 3844
-266.268 544.268 3826
-257.119 544.268 3826
-247.452 543.13 3818
-237.198 540.569 3800
-227.091 538.151 3783
-217.064 535.733 3766
-208.059 535.733 3766
-198.155 533.314 3749
-188.332 530.896 3732
-178.206 527.339 3707
-169.341 527.339 3707
-160.13 526.201 3699
-151.285 526.201 3699
-141.515 522.787 3675
-132.727 522.787 3675
-123.366 520.369 3658
-113.647 515.959 3627
-62.3128 306.275 2153
-57.1643 306.275 2153
-51.9433 305.848 2150
-46.802 305.848 2150
-41.6026 305.422 2147
-36.4685 305.422 2147
-31.3343 305.422 2147
-26.2002 305.422 2147
-21.017 304.71 2142
-15.8949 304.71 2142
-10.7425 303.857 2136
-5.61359 302.719 2128
-0.524156 302.292 2125
4.5638 302.719 2128
9.65249 302.719 2128
14.7412 302.719 2128
19.8299 302.719 2128
24.8834 302.292 2125
29.965 302.292 2125
35.0465 302.292 2125
40.0713 301.865 2122
45.1031 301.581 2120
50.1727 301.581 2120
55.1641 301.154 2117
60.2265 301.154 2117
65.3814 301.581 2120
70.451 301.581 2120
75.5205 301.581 2120
80.8942 302.719 2128
86.1849 303.43 2133
91.5423 304.284 2139
96.6573 304.284 2139
102.296 305.848 2150
107.837 306.986 2158
113.573 308.551 2169
118.76 308.551 2169
124.29 309.405 2175
130.026 310.685 2184
135.93 312.25 2195
141.179 312.25 2195
147.962 315.522 2218
154.303 317.656 2233
160.501 319.363 2245
165.869 319.363 2245
172.458 321.639 2261
179.045 323.772 2276
185.46 325.48 2288
190.931 325.48 2288
196.746 326.049 2292
202.491 326.475 2295
208.523 327.329 2301
214.026 327.329 2301
219.814 327.756 2304
226.595 329.605 2317
232.436 330.032 2320
237.984 330.032 2320
244.897 331.881 2333
252.623 334.726 2353
258.249 334.726 2353
263.876 334.726 2353
433.81 423.778 2979
440.934 423.778 2979
449.712 425.343 2990
460.071 428.33 3011
467.271 428.33 3011
474.471 428.33 3011
481.672 428.33 3011
488.872 428.33 3011
496.072 428.33 3011
502.437 427.619 3006
509.625 427.619 3006
516.813 427.619 3006
525.919 429.183 3017
533.133 429.183 3017
540.348 429.183 3017
544.477 426.765 3000
551.651 426.765 3000
558.825 426.765 3000
565.056 426.054 2995
569.161 423.778 2979
575.317 423.067 2974
583.408 423.778 2979
590.532 423.778 2979
597.655 423.778 2979
605.794 424.489 2984
612.93 424.489 2984
620.065 424.489 2984
626.15 423.778 2979
633.274 423.778 2979
640.397 423.778 2979
645.13 422.213 2968
650.03 420.79 2958
655.993 420.079 2953
663.054 420.079 2953
668.754 419.226 2947
674.655 418.514 2942
680.531 417.803 2937
686.384 417.092 2932
694.578 417.803 2937
701.601 417.803 2937
708.625 417.803 2937
715.648 417.803 2937
722.671 417.803 2937
729.694 417.803 2937
734.209 416.381 2927
741.208 416.381 2927
748.208 416.381 2927
753.917 415.669 2922
760.904 415.669 2922
767.892 415.669 2922
774.879 415.669 2922
780.529 414.958 2917
787.504 414.958 2917
794.48 414.958 2917
802.829 415.669 2922
811.202 416.381 2927
818.201 416.381 2927
825.201 416.381 2927
832.2 416.381 2927
839.199 416.381 2927
846.199 416.381 2927
851.741 415.669 2922
858.728 415.669 2922
865.715 415.669 2922
872.703 415.669 2922
878.185 414.958 2917
886.677 415.669 2922
896.723 417.092 2932
903.735 417.092 2932
913.852 418.514 2942
929.026 422.213 2968
949.685 428.33 3011
956.886 428.33 3011
976.573 433.878 3050
992.899 437.861 3078
1003.83 439.426 3089
1011.22 439.426 3089
1038.06 447.819 3148
1063.53 455.501 3202
1083.56 460.764 3239
1091.31 460.764 3239
1116.36 468.019 3290
1153.95 480.395 3377
1178.89 487.366 3426
1187.08 487.366 3426
1215.16 495.474 3483
1223.49 495.474 3483
1231.82 495.474 3483
1237.66 494.479 3476
1243.1 493.341 3468
1248.87 492.345 3461
1265.14 495.474 3483
1273.46 495.474 3483
1295.41 500.738 3520
1323.09 508.135 3572
1334.61 509.273 3580
1343.17 509.273 3580
1354.75 510.411 3588
1365.99 511.407 3595
1374.59 511.407 3595
1383.19 511.407 3595
1391.78 511.407 3595
1397.65 510.411 3588
1406.23 510.411 3588
1408.51 508.135 3572
1405.15 503.867 3542
1407.63 501.734 3527
1401.21 496.47 3490
1409.55 496.47 3490
1403.27 491.349 3454
1391.51 484.378 3405
1391.02 481.391 3384
1399.11 481.391 3384
1393.06 476.554 3350
1387.27 471.86 3317
1392.26 470.864 3310
1400.18 470.864 3310
1397.03 467.166 3284
1402.32 466.312 3278
1410.16 466.312 3278
1420.59 467.166 3284
1434.1 469.015 3297
1441.98 469.015 3297
1452.5 469.868 3303
1466.59 471.86 3317
1477.19 472.714 3323
1485.14 472.714 3323
1499.38 474.705 3337
1507.35 474.705 3337
1515.33 474.705 3337
1520.12 473.709 3330
1524.87 472.714 3323
1526.82 470.864 3310
1534.73 470.864 3310
1533.33 468.019 3290
1526.21 463.467 3258
1528.35 461.76 3246
1524.28 458.204 3221
1531.98 458.204 3221
1524.86 453.794 3190
1520.96 450.379 3166
1500.05 441.986 3107
1507.48 441.986 3107
1484.19 433.024 3044
1467.46 426.054 2995
1448.53 418.514 2942
1448.14 416.381 2927
1455.14 416.381 2927
1444.16 411.259 2891
1446.05 409.837 2881
1445.38 407.703 2866
1452.23 407.703 2866
1457.05 407.134 2862
1463.89 407.134 2862
1465.6 405.711 2852
1472.42 405.711 2852
1476.64 405 2847
1480.85 404.289 2842
1485.02 403.578 2837
1489.18 402.866 2832
1495.95 402.866 2832
1500.6 402.297 2828
1507.36 402.297 2828
1511.45 401.586 2823
1518.2 401.586 2823
1522.25 400.875 2818
1528.99 400.875 2818
1533 400.163 2813
1539.73 400.163 2813
1544.26 399.594 2809
1550.97 399.594 2809
1552.15 398.172 2799
1558.84 398.172 2799
1565.53 398.172 2799
1572.23 398.172 2799
1578.92 398.172 2799
1585.61 398.172 2799
1592.3 398.172 2799
1599 398.172 2799
1605.69 398.172 2799
1615.26 398.883 2804
1624.86 399.594 2809
1631.58 399.594 2809
1638.3 399.594 2809
1645.01 399.594 2809
1651.73 399.594 2809
1658.45 399.594 2809
1667.54 400.163 2813
1674.26 400.163 2813
1683.98 400.875 2818
1690.72 400.875 2818
1697.46 400.875 2818
1704.19 400.875 2818
1710.93 400.875 2818
1717.67 400.875 2818
1724.41 400.875 2818
1731.15 400.875 2818
1734.8 400.163 2813
1741.53 400.163 2813
1748.26 400.163 2813
1754.98 400.163 2813
1761.71 400.163 2813
1768.44 400.163 2813
1772.64 399.594 2809
1779.36 399.594 2809
1779.72 398.172 2799
1786.41 398.172 2799
1789.9 397.461 2794
1796.58 397.461 2794
1803.26 397.461 2794
1807.35 396.892 2790
1814.02 396.892 2790
1817.43 396.18 2785
1824.09 396.18 2785
1827.47 395.469 2780
1834.11 395.469 2780
1840.76 395.469 2780
1844.75 394.9 2776
1851.39 394.9 2776
1858.03 394.9 2776
1864.67 394.9 2776
1871.3 394.9 2776
1877.94 394.9 2776
1884.58 394.9 2776
1891.22 394.9 2776
1891.7 393.62 2767
1904.5 394.9 2776
1911.13 394.9 2776
1917.77 394.9 2776
1924.41 394.9 2776
1931.05 394.9 2776
1940.48 395.469 2780
1947.13 395.469 2780
1953.77 395.469 2780
1960.42 395.469 2780
1967.07 395.469 2780
1973.72 395.469 2780
1980.37 395.469 2780
1987.01 395.469 2780
1993.66 395.469 2780
2000.31 395.469 2780
2004.07 394.9 2776
2007.09 394.189 2771
2003.54 392.197 2757
2007.21 391.628 2753
2013.8 391.628 2753
2016.71 390.917 2748
2023.28 390.917 2748
2029.85 390.917 2748
2036.43 390.917 2748
2033.33 389.068 2735
2053.3 391.628 2753
2059.88 391.628 2753
2066.46 391.628 2753
2073.05 391.628 2753
2079.63 391.628 2753
2086.21 391.628 2753
2092.8 391.628 2753
2099.38 391.628 2753
-2088.94 403.575 2790
-2082.27 403.575 2790
-2075.6 403.575 2790
-2065.22 402.852 2785
-2058.56 402.852 2785
-2072.53 406.902 2813
-2065.8 406.902 2813
-2059.07 406.902 2813
-2052.35 406.902 2813
-2042.71 406.323 2809
-2042.52 407.625 2818
-2035.78 407.625 2818
-2029.04 407.625 2818
-2022.3 407.625 2818
-2019.14 408.349 2823
-2012.39 408.349 2823
-2022.69 411.82 2847
-2029.34 414.569 2866
-2022.48 414.569 2866
-2015.63 414.569 2866
-2008.78 414.569 2866
-2001.92 414.569 2866
-1995.07 414.569 2866
-1978.5 412.543 2852
-1981.36 414.569 2866
-1977.95 415.292 2871
-1971.09 415.292 2871
-1964.22 415.292 2871
-1957.36 415.292 2871
-1947.09 414.569 2866
-1940.24 414.569 2866
-1927.32 413.267 2857
-1926.53 414.569 2866
-1919.68 414.569 2866
-1922.84 416.738 2881
-1915.95 416.738 2881
-1909.06 416.738 2881
-1902.17 416.738 2881
-1895.28 416.738 2881
-1888.39 416.738 2881
-1881.5 416.738 2881
-1877.87 417.462 2886
-1874.21 418.185 2891
-1867.29 418.185 2891
-1866.81 419.631 2901
-1863.08 420.355 2906
-1856.13 420.355 2906
-1849.18 420.355 2906
-1842.24 420.355 2906
-1838.44 421.078 2911
-1850.99 425.562 2942
-1843.95 425.562 2942
-1836.92 425.562 2942
-1829.88 425.562 2942
-1822.85 425.562 2942
-1812.72 424.839 2937
-1793.41 421.946 2917
-1789.49 422.669 2922
-1788.6 424.115 2932
-1781.59 424.115 2932
-1780.63 425.562 2942
-1789.27 429.323 2968
-1791.78 431.637 2984
-1784.65 431.637 2984
-1800.15 437.134 3022
-1826.15 445.234 3078
-1867.24 457.096 3160
-1859.68 457.096 3160
-1869.71 461.435 3190
-1865.58 462.303 3196
-1861.43 463.171 3202
-1871.72 467.655 3233
-1885.9 473.152 3271
-1882.09 474.165 3278
-1874.26 474.165 3278
-1877.24 476.913 3297
-1903.37 485.592 3357
-1902.68 487.472 3370
-1894.62 487.472 3370
-1886.57 487.472 3370
-1882.41 488.485 3377
-1897.64 494.56 3419
-1889.47 494.56 3419
-1896.7 498.61 3447
-1896.13 500.636 3461
-1896.03 502.805 3476
-1887.72 502.805 3476
-1890.76 505.843 3497
-1886.71 507 3505
-1893.87 511.195 3534
-1885.41 511.195 3534
-1881.21 512.352 3542
-1876.44 513.365 3549
-1872.17 514.522 3557
-1863.66 514.522 3557
-1867.15 517.849 3580
-1862.74 519.006 3588
-1861.92 521.176 3603
-1853.3 521.176 3603
-1848.78 522.333 3611
-1848.3 524.648 3627
-1851.29 527.975 3650
-1842.56 527.975 3650
-1837.85 529.132 3658
-1833.61 530.434 3667
-1824.84 530.434 3667
-1816.07 530.434 3667
-1815.19 532.748 3683
-1822.56 537.521 3716
-1817.58 538.679 3724
-1808.68 538.679 3724
-1803.64 539.836 3732
-1798.56 540.993 3740
-1797.75 543.452 3757
-1788.77 543.452 3757
-1796.36 548.515 3792
-1795.31 550.974 3809
-1786.2 550.974 3809
-1777.09 550.974 3809
-1780.05 554.735 3835
-1775.04 556.037 3844
-1774.11 558.64 3862
-1764.88 558.64 3862
-1772.01 563.848 3898
-1766.76 565.15 3907
-1757.41 565.15 3907
-1748.07 565.15 3907
-1738.73 565.15 3907
-1729.39 565.15 3907
-1720.04 565.15 3907
-1679.17 554.735 3835
-1654.76 549.672 3800
-1616.23 539.836 3732
-1589.64 533.905 3691
-1580.82 533.905 3691
-1548.14 525.805 3635
-1525.9 521.176 3603
-1504.23 516.692 3572
-1495.68 516.692 3572
-1471.32 511.195 3534
-1459.97 510.183 3527
-1439.19 505.843 3497
-1430.83 505.843 3497
-1410.67 501.648 3468
-1393.89 498.61 3447
-1357.51 488.485 3377
-1349.43 488.485 3377
-1333.41 485.592 3357
-1309.59 479.806 3317
-1298.91 478.793 3310
-1288.27 477.781 3303
-1280.37 477.781 3303
-1257.83 472.284 3265
-1235.47 466.787 3227
-1220.53 464.039 3208
-1212.86 464.039 3208
-1202.93 463.171 3202
-1184.08 458.832 3172
-1165.36 454.492 3142
-1157.85 454.492 3142
-1133.13 447.693 3095
-1115.54 443.643 3067
-1098.09 439.593 3039
-1080.77 435.543 3011
-1073.57 435.543 3011
-1062.48 433.952 3000
-1049.68 431.637 2984
-1035.2 428.6 2963
-1028.12 428.6 2963
-1015.52 426.285 2947
-1008.47 426.285 2947
-999.726 425.562 2942
-992.691 425.562 2942
-980.63 423.392 2927
-966.645 420.355 2906
-946.486 414.569 2866
-939.633 414.569 2866
-932.779 414.569 2866
-925.926 414.569 2866
-878.697 418.185 2891
-871.784 418.185 2891
-866.366 418.908 2896
-860.925 419.631 2901
-853.987 419.631 2901
-859.022 425.562 2942
-853.435 426.285 2947
-846.387 426.285 2947
-843.897 428.6 2963
-836.812 428.6 2963
-832.807 430.191 2974
-825.695 430.191 2974
-818.583 430.191 2974
-811.471 430.191 2974
-794.352 424.839 2937
-787.329 424.839 2937
-780.306 424.839 2937
-773.283 424.839 2937
-766.259 424.839 2937
-759.236 424.839 2937
-752.213 424.839 2937
-745.19 424.839 2937
-735.653 423.392 2927
-728.654 423.392 2927
-721.654 423.392 2927
-714.655 423.392 2927
-707.656 423.392 2927
-700.656 423.392 2927
-689.865 421.078 2911
-681.731 420.355 2906
-674.782 420.355 2906
-668.982 421.078 2911
-662.021 421.078 2911
-658.66 423.392 2927
-652.774 424.115 2932
-646.864 424.839 2937
-639.841 424.839 2937
-633.895 425.562 2942
-629.203 427.153 2953
-626.566 430.191 2974
-619.455 430.191 2974
-618.932 434.82 3006
-616.22 438.002 3028
-611.192 439.593 3039
-603.925 439.593 3039
-599.799 441.907 3055
-593.657 442.775 3061
-588.444 444.367 3072
-581.098 444.367 3072
-575.993 446.102 3084
-574.888 451.02 3118
-567.431 451.02 3118
-559.975 451.02 3118
-553.582 451.888 3124
-550.307 455.36 3148
-544.849 457.096 3160
-537.292 457.096 3160
-531.747 458.832 3172
-526.145 460.567 3184
-520.485 462.303 3196
-512.843 462.303 3196
-509.152 465.919 3221
-501.45 465.919 3221
-493.747 465.919 3221
-518.291 504.83 3490
-518.566 513.365 3549
-524.596 527.975 3650
-515.867 527.975 3650
-508.251 529.132 3658
-500.732 530.434 3667
-491.963 530.434 3667
-483.194 530.434 3667
-476.496 532.748 3683
-469.72 535.062 3699
-462.993 537.521 3716
-454.107 537.521 3716
-447.138 539.836 3732
-439.153 540.993 3740
-433.2 544.754 3766
-424.194 544.754 3766
-416.071 545.911 3774
-408.987 548.515 3792
-402.662 552.276 3818
-393.532 552.276 3818
-385.207 553.433 3826
-376.942 554.735 3835
-367.772 554.735 3835
-358.601 554.735 3835
-349.431 554.735 3835
-339.461 553.433 3826
-330.312 553.433 3826
-321.163 553.433 3826
-313.482 556.037 3844
-304.29 556.037 3844
-295.098 556.037 3844
-285.905 556.037 3844
-276.065 554.735 3835
-266.268 553.433 3826
-257.119 553.433 3826
-247.452 552.276 3818
-237.198 549.672 3800
-226.55 545.911 3774
-217.064 544.754 3766
-208.059 544.754 3766
-198.155 542.295 3749
-188.332 539.836 3732
-178.206 536.22 3707
-169.341 536.22 3707
-160.13 535.062 3699
-151.285 535.062 3699
-141.515 531.591 3675
-132.727 531.591 3675
-123.366 529.132 3658
-113.647 524.648 3627
-104.511 522.333 3611
-95.8756 522.333 3611
-52.0158 311.433 2153
-46.802 310.999 2150
-41.6607 310.999 2150
-36.5194 310.999 2150
-31.3781 310.999 2150
-26.2002 310.565 2147
-21.0661 310.565 2147
-15.932 310.565 2147
-10.7576 309.408 2139
-5.63469 308.974 2136
-0.524896 307.816 2128
4.5638 307.816 2128
9.65249 307.816 2128
14.7412 307.816 2128
19.8299 307.816 2128
24.9186 307.816 2128
30.0073 307.816 2128
35.0465 307.382 2125
40.128 307.382 2125
45.1457 306.948 2122
50.22 306.948 2122
55.2423 306.659 2120
60.3118 306.659 2120
65.3814 306.659 2120
70.6171 307.382 2125
75.6986 307.382 2125
81.0082 308.25 2131
86.3061 308.974 2136
91.6707 309.841 2142
96.7929 309.841 2142
102.438 311.433 2153
107.987 312.59 2161
113.73 314.181 2172
118.924 314.181 2172
124.29 314.615 2175
130.026 315.917 2184
136.116 317.942 2198
141.372 317.942 2198
148.363 321.703 2224
154.51 323.439 2236
160.715 325.174 2248
166.091 325.174 2248
172.687 327.489 2264
179.045 329.225 2276
184.974 330.093 2282
190.43 330.093 2282
196.402 330.96 2288
202.227 331.539 2292
208.251 332.407 2298
213.747 332.407 2298
219.814 333.275 2304
226.302 334.721 2314
232.136 335.155 2317
237.676 335.155 2317
244.897 337.47 2333
250.475 337.47 2333
256.054 337.47 2333
460.071 435.543 3011
467.271 435.543 3011
474.471 435.543 3011
483.431 437.134 3022
490.658 437.134 3022
497.884 437.134 3022
502.437 434.82 3006
509.625 434.82 3006
519.564 437.134 3022
527.836 438.002 3028
535.077 438.002 3028
542.318 438.002 3028
548.47 437.134 3022
553.674 435.543 3011
560.874 435.543 3011
565.999 433.952 3000
572.217 433.228 2995
578.412 432.505 2990
585.562 432.505 2990
592.712 432.505 2990
599.862 432.505 2990
605.794 431.637 2984
612.93 431.637 2984
620.065 431.637 2984
627.201 431.637 2984
634.337 431.637 2984
641.472 431.637 2984
647.521 430.914 2979
650.03 427.876 2958
655.993 427.153 2953
663.054 427.153 2953
668.754 426.285 2947
674.655 425.562 2942
680.531 424.839 2937
687.555 424.839 2937
695.76 425.562 2942
702.796 425.562 2942
709.831 425.562 2942
715.648 424.839 2937
722.671 424.839 2937
729.694 424.839 2937
735.463 424.115 2932
741.208 423.392 2927
748.208 423.392 2927
753.917 422.669 2922
760.904 422.669 2922
767.892 422.669 2922
774.879 422.669 2922
781.867 422.669 2922
788.854 422.669 2922
795.841 422.669 2922
804.203 423.392 2927
811.202 423.392 2927
818.201 423.392 2927
825.201 423.392 2927
832.2 423.392 2927
839.199 423.392 2927
846.199 423.392 2927
851.741 422.669 2922
858.728 422.669 2922
865.715 422.669 2922
872.703 422.669 2922
878.185 421.946 2917
885.16 421.946 2917
896.723 424.115 2932
903.735 424.115 2932
913.852 425.562 2942
929.026 429.323 2968
946.216 433.952 3000
953.39 433.952 3000
974.652 440.316 3044
992.899 445.234 3078
1013.26 451.02 3118
1020.71 451.02 3118
1038.06 455.36 3148
1065.52 464.039 3208
1094.27 473.152 3271
1102.09 473.152 3271
1141.13 486.46 3363
1168.31 494.56 3419
1198.5 503.818 3483
1206.83 503.818 3483
1220.05 505.843 3497
1228.41 505.843 3497
1236.77 505.843 3497
1245.13 505.843 3497
1245.97 502.805 3476
1254.28 502.805 3476
1270.22 505.843 3497
1278.58 505.843 3497
1292.47 508.013 3512
1317.53 514.522 3557
1331.63 516.692 3572
1340.17 516.692 3572
1351.73 517.849 3580
1363.33 519.006 3588
1374.59 520.019 3595
1383.19 520.019 3595
1391.78 520.019 3595
1391.42 516.692 3572
1399.96 516.692 3572
1396.68 512.352 3542
1401.97 511.195 3534
1392.86 504.83 3490
1389.56 500.636 3461
1397.84 500.636 3461
1386.21 493.548 3412
1382.93 489.497 3384
1377.04 484.579 3350
1385.05 484.579 3350
1384.75 481.686 3330
1387.27 479.806 3317
1386.79 476.913 3297
1386.64 474.165 3278
1394.48 474.165 3278
1399.32 473.152 3271
1407.14 473.152 3271
1414.97 473.152 3271
1428.44 475.032 3284
1436.3 475.032 3284
1446.79 475.9 3290
1460.4 477.781 3303
1474.53 479.806 3317
1482.46 479.806 3317
1493.08 480.674 3323
1501.03 480.674 3323
1508.98 480.674 3323
1516.92 480.674 3323
1524.87 480.674 3323
1520.82 476.913 3297
1528.71 476.913 3297
1527.74 474.165 3278
1526.21 471.272 3258
1525.05 468.523 3239
1524.28 465.919 3221
1531.98 465.919 3221
1524.86 461.435 3190
1520.96 457.964 3166
1500.05 449.429 3107
1507.48 449.429 3107
1489.55 441.907 3055
1472.85 434.82 3006
1450.99 426.285 2947
1448.14 423.392 2927
1455.14 423.392 2927
1444.16 418.185 2891
1446.05 416.738 2881
1445.38 414.569 2866
1452.23 414.569 2866
1457.05 413.99 2862
1463.89 413.99 2862
1465.6 412.543 2852
1472.42 412.543 2852
1476.64 411.82 2847
1483.45 411.82 2847
1485.02 410.374 2837
1489.18 409.65 2832
1495.95 409.65 2832
1502.72 409.65 2832
1507.36 409.072 2828
1514.13 409.072 2828
1520.89 409.072 2828
1524.95 408.349 2823
1528.99 407.625 2818
1535.73 407.625 2818
1542.47 407.625 2818
1546.46 406.902 2813
1550.97 406.323 2809
1552.15 404.877 2799
1558.84 404.877 2799
1565.53 404.877 2799
1572.23 404.877 2799
1578.92 404.877 2799
1585.61 404.877 2799
1595.15 405.6 2804
1601.85 405.6 2804
1608.56 405.6 2804
1618.15 406.323 2809
1624.86 406.323 2809
1631.58 406.323 2809
1640.63 406.902 2813
1647.36 406.902 2813
1654.08 406.902 2813
1660.81 406.902 2813
1667.54 406.902 2813
1674.26 406.902 2813
1683.98 407.625 2818
1690.72 407.625 2818
1697.46 407.625 2818
1704.19 407.625 2818
1710.93 407.625 2818
1717.67 407.625 2818
1724.41 407.625 2818
1731.15 407.625 2818
1734.8 406.902 2813
1741.53 406.902 2813
1748.26 406.902 2813
1754.98 406.902 2813
1761.71 406.902 2813
1768.44 406.902 2813
1772.64 406.323 2809
1779.36 406.323 2809
1779.72 404.877 2799
1786.41 404.877 2799
1789.9 404.154 2794
1796.58 404.154 2794
1803.26 404.154 2794
1807.35 403.575 2790
1814.02 403.575 2790
1817.43 402.852 2785
1824.09 402.852 2785
1827.47 402.129 2780
1834.11 402.129 2780
1840.76 402.129 2780
1844.75 401.55 2776
1851.39 401.55 2776
1858.03 401.55 2776
1864.67 401.55 2776
1871.3 401.55 2776
1877.94 401.55 2776
1884.58 401.55 2776
1891.22 401.55 2776
1891.7 400.248 2767
1904.5 401.55 2776
1911.13 401.55 2776
1917.77 401.55 2776
1924.41 401.55 2776
1931.05 401.55 2776
1940.48 402.129 2780
1947.13 402.129 2780
1953.77 402.129 2780
1960.42 402.129 2780
1964.24 401.55 2776
1973.72 402.129 2780
1980.37 402.129 2780
1987.01 402.129 2780
1993.66 402.129 2780
2000.31 402.129 2780
2004.07 401.55 2776
2004.19 400.248 2767
2003.54 398.802 2757
2003.57 397.5 2748
2010.14 397.5 2748
2016.71 397.5 2748
2023.28 397.5 2748
2029.85 397.5 2748
2036.43 397.5 2748
2033.33 395.619 2735
2053.3 398.223 2753
2059.88 398.223 2753
2066.46 398.223 2753
2073.05 398.223 2753
2079.63 398.223 2753
2086.21 398.223 2753
2092.8 398.223 2753
2099.38 398.223 2753
-2088.94 410.259 2790
-2082.27 410.259 2790
-2075.6 410.259 2790
-2065.22 409.523 2785
-2058.56 409.523 2785
-2072.53 413.641 2813
-2065.8 413.641 2813
-2059.07 413.641 2813
-2052.35 413.641 2813
-2042.71 413.052 2809
-2042.52 414.376 2818
-2035.78 414.376 2818
-2029.04 414.376 2818
-2022.3 414.376 2818
-2019.14 415.111 2823
-2012.39 415.111 2823
-2022.69 418.64 2847
-2029.34 421.434 2866
-2022.48 421.434 2866
-2015.63 421.434 2866
-2008.78 421.434 2866
-2001.92 421.434 2866
-1995.07 421.434 2866
-1978.5 419.375 2852
-1981.36 421.434 2866
-1977.95 422.169 2871
-1971.09 422.169 2871
-1964.22 422.169 2871
-1953.95 421.434 2866
-1940.98 420.111 2857
-1934.15 420.111 2857
-1927.32 420.111 2857
-1923.84 420.846 2862
-1917 420.846 2862
-1912.83 421.434 2866
-1905.97 421.434 2866
-1899.12 421.434 2866
-1892.27 421.434 2866
-1885.41 421.434 2866
-1878.56 421.434 2866
-1871.71 421.434 2866
-1868.11 422.169 2871
-1870.96 424.375 2886
-1864.06 424.375 2886
-1860.38 425.11 2891
-1856.67 425.845 2896
-1849.75 425.845 2896
-1842.82 425.845 2896
-1842.24 427.316 2906
-1838.44 428.051 2911
-1850.99 432.61 2942
-1843.95 432.61 2942
-1836.92 432.61 2942
-1829.88 432.61 2942
-1822.85 432.61 2942
-1812.72 431.874 2937
-1793.41 428.933 2917
-1789.49 429.669 2922
-1788.6 431.139 2932
-1781.59 431.139 2932
-1780.63 432.61 2942
-1789.27 436.433 2968
-1788.78 438.05 2979
-1781.66 438.05 2979
-1797.17 443.638 3017
-1826.15 452.608 3078
-1867.24 464.666 3160
-1859.68 464.666 3160
-1869.71 469.077 3190
-1865.58 469.959 3196
-1861.43 470.841 3202
-1871.72 475.4 3233
-1882.44 480.105 3265
-1882.09 482.017 3278
-1874.26 482.017 3278
-1869.83 482.899 3284
-1903.37 493.634 3357
-1902.68 495.545 3370
-1894.62 495.545 3370
-1886.57 495.545 3370
-1882.41 496.575 3377
-1897.64 502.75 3419
-1889.47 502.75 3419
-1896.7 506.868 3447
-1896.13 508.926 3461
-1896.03 511.132 3476
-1887.72 511.132 3476
-1890.76 514.22 3497
-1886.71 515.396 3505
-1893.87 519.661 3534
-1885.41 519.661 3534
-1881.21 520.837 3542
-1876.44 521.867 3549
-1872.17 523.043 3557
-1863.66 523.043 3557
-1867.15 526.425 3580
-1862.74 527.601 3588
-1861.92 529.807 3603
-1853.3 529.807 3603
-1848.78 530.983 3611
-1848.3 533.336 3627
-1851.29 536.718 3650
-1842.56 536.718 3650
-1833.83 536.718 3650
-1829.11 537.895 3658
-1824.84 539.218 3667
-1816.07 539.218 3667
-1811.24 540.394 3675
-1814.23 543.923 3699
-1813.68 546.423 3716
-1804.79 546.423 3716
-1799.77 547.6 3724
-1798.56 549.952 3740
-1793.92 551.276 3749
-1784.96 551.276 3749
-1796.36 557.599 3792
-1795.31 560.098 3809
-1786.2 560.098 3809
-1777.09 560.098 3809
-1780.05 563.922 3835
-1775.04 565.245 3844
-1774.11 567.892 3862
-1764.88 567.892 3862
-1772.01 573.186 3898
-1766.76 574.509 3907
-1757.41 574.509 3907
-1748.07 574.509 3907
-1738.73 574.509 3907
-1729.39 574.509 3907
-1720.04 574.509 3907
-1675.23 562.598 3826
-1654.76 558.775 3800
-1616.23 548.776 3732
-1589.64 542.747 3691
-1580.82 542.747 3691
-1548.14 534.512 3635
-1525.9 529.807 3603
-1504.23 525.249 3572
-1495.68 525.249 3572
-1471.32 519.661 3534
-1457.08 517.602 3520
-1439.19 514.22 3497
-1430.83 514.22 3497
-1410.67 509.956 3468
-1393.89 506.868 3447
-1354.69 495.545 3370
-1333.45 490.693 3337
-1325.47 490.693 3337
-1309.59 487.752 3317
-1296.16 485.693 3303
-1283.2 483.782 3290
-1275.33 483.782 3290
-1255.13 479.076 3258
-1237.77 475.4 3233
-1225.47 473.635 3221
-1217.77 473.635 3221
-1205.19 471.724 3208
-1188.56 468.195 3184
-1167.59 462.901 3148
-1160.06 462.901 3148
-1137.52 456.872 3107
-1117.36 451.726 3072
-1099.9 447.608 3044
-1084.72 444.373 3022
-1077.5 444.373 3022
-1064.6 442.02 3006
-1049.68 438.785 2984
-1036.95 436.433 2968
-1029.85 436.433 2968
-1022.76 436.433 2968
-1012.24 434.962 2958
-999.726 432.61 2942
-992.691 432.61 2942
-978.955 429.669 2922
-966.645 427.316 2906
-946.486 421.434 2866
-939.633 421.434 2866
-932.779 421.434 2866
-925.926 421.434 2866
-880.216 425.845 2896
-873.291 425.845 2896
-866.366 425.845 2896
-860.925 426.581 2901
-853.987 426.581 2901
-863.694 434.962 2958
-856.62 434.962 2958
-849.547 434.962 2958
-843.897 435.698 2963
-836.812 435.698 2963
-832.807 437.315 2974
-825.695 437.315 2974
-818.583 437.315 2974
-811.471 437.315 2974
-794.352 431.874 2937
-787.329 431.874 2937
-780.306 431.874 2937
-773.283 431.874 2937
-766.259 431.874 2937
-759.236 431.874 2937
-752.213 431.874 2937
-745.19 431.874 2937
-735.653 430.404 2927
-728.654 430.404 2927
-721.654 430.404 2927
-714.655 430.404 2927
-707.656 430.404 2927
-700.656 430.404 2927
-689.865 428.051 2911
-681.731 427.316 2906
-674.782 427.316 2906
-668.982 428.051 2911
-662.021 428.051 2911
-658.66 430.404 2927
-653.887 431.874 2937
-646.864 431.874 2937
-639.841 431.874 2937
-634.972 433.345 2947
-632.4 436.433 2968
-633.308 442.02 3006
-626.12 442.02 3006
-622.226 444.373 3022
-618.459 446.873 3039
-615.616 450.108 3061
-608.297 450.108 3061
-600.977 450.108 3061
-594.821 450.99 3067
-589.594 452.608 3078
-582.233 452.608 3078
-578.048 455.108 3095
-574.888 458.49 3118
-569.615 460.254 3130
-562.13 460.254 3130
-555.709 461.136 3136
-551.356 463.783 3154
-546.918 466.43 3172
-539.333 466.43 3172
-533.759 468.195 3184
-528.128 469.959 3196
-524.557 473.635 3221
-516.854 473.635 3221
-513.104 477.312 3246
-505.342 477.312 3246
-533.909 512.161 3483
-525.58 512.161 3483
-521.558 516.426 3512
-518.566 521.867 3549
-524.596 536.718 3650
-515.867 536.718 3650
-508.251 537.895 3658
-500.732 539.218 3667
-491.963 539.218 3667
-483.194 539.218 3667
-476.496 541.571 3683
-469.72 543.923 3699
-462.993 546.423 3716
-454.107 546.423 3716
-447.138 548.776 3732
