ply
format ascii 1.0
comment File generated
element vertex 2251
property float x
property float y
property float z
end_header
-1580.71 309.384 3650
-1571.99 309.384 3650
-1563.26 309.384 3650
-1534.51 305.401 3603
-1522.51 304.722 3595
-1488.22 299.552 3534
-1479.77 299.552 3534
-1450.09 295.229 3483
-1432.65 293.364 3461
-1407.09 289.804 3419
-1398.92 289.804 3419
-1385.05 288.617 3405
-1362.75 285.651 3370
-1354.69 285.651 3370
-1346.63 285.651 3370
-1338.57 285.651 3370
-1327.75 285.057 3363
-1306.76 282.26 3330
-1283.2 278.87 3290
-1275.33 278.87 3290
-1257.83 276.751 3265
-1247.34 276.157 3258
-1222.81 272.428 3214
-1215.13 272.428 3214
-1198.42 270.393 3190
-1184.08 268.868 3172
-1165.36 266.325 3142
-1157.85 266.325 3142
-1135.33 262.85 3101
-1123.55 261.832 3089
-1116.16 261.832 3089
-1108.77 261.832 3089
-1099.6 261.409 3084
-1092.23 261.409 3084
-1084.85 261.409 3084
-1073.29 260.391 3072
-1065.94 260.391 3072
-1054.8 259.459 3061
-1039.95 257.594 3039
-1023.17 255.221 3011
-1015.97 255.221 3011
-1008.77 255.221 3011
-994.587 253.441 2990
-987.437 253.441 2990
-980.287 253.441 2990
-868.768 244.202 2881
-864.87 245.049 2891
-862.409 246.321 2906
-855.459 246.321 2906
-853.182 247.677 2922
-846.195 247.677 2922
-839.207 247.677 2922
-830.796 247.253 2917
-823.82 247.253 2917
-816.845 247.253 2917
-809.87 247.253 2917
-802.894 247.253 2917
-797.283 247.677 2922
-790.296 247.677 2922
-783.308 247.677 2922
-774.992 247.253 2917
-771.966 248.525 2932
-764.955 248.525 2932
-757.944 248.525 2932
-750.932 248.525 2932
-742.652 248.101 2927
-734.396 247.677 2922
-727.409 247.677 2922
-719.189 247.253 2917
-710.749 246.745 2911
-700.161 245.473 2896
-693.236 245.473 2896
-686.31 245.473 2896
-679.385 245.473 2896
-670.138 244.626 2886
-663.237 244.626 2886
-656.335 244.626 2886
-651.684 245.473 2896
-645.872 245.897 2901
-638.935 245.897 2901
-631.998 245.897 2901
-626.138 246.321 2906
-621.533 247.253 2917
-614.557 247.253 2917
-607.582 247.253 2917
-600.607 247.253 2917
-593.631 247.253 2917
-586.656 247.253 2917
-648.926 328.117 3871
-639.669 328.117 3871
-630.413 328.117 3871
-621.156 328.117 3871
-616.167 330.406 3898
-616.965 335.915 3963
-607.489 335.915 3963
-598.012 335.915 3963
-588.535 335.915 3963
-579.058 335.915 3963
-569.582 335.915 3963
-561.377 336.678 3972
-551.879 336.678 3972
-542.38 336.678 3972
-532.882 336.678 3972
-523.384 336.678 3972
-513.886 336.678 3972
-504.387 336.678 3972
-497.256 338.288 3991
-487.713 338.288 3991
-478.169 338.288 3991
-467.568 337.526 3982
-458.046 337.526 3982
-445.258 335.068 3953
-434.813 334.305 3944
-421.391 331.168 3907
-412.048 331.168 3907
-400.85 329.643 3889
-387.019 325.828 3844
-376.942 325.065 3835
-367.772 325.065 3835
-357.76 324.303 3826
-347.882 323.625 3818
-337.953 322.862 3809
-328.845 322.862 3809
-318.309 321.421 3792
-309.241 321.421 3792
-300.173 321.421 3792
-291.106 321.421 3792
-280.699 319.895 3774
-269.875 317.776 3749
-260.283 317.013 3740
-121.558 178.765 2109
-116.515 178.765 2109
-111.472 178.765 2109
-106.277 178.511 2106
-101.001 178.087 2101
-95.9767 178.087 2101
-90.9525 178.087 2101
-86.0511 178.341 2104
-81.0198 178.341 2104
-75.9885 178.341 2104
-70.9572 178.341 2104
-65.9259 178.341 2104
-60.8946 178.341 2104
-55.8633 178.341 2104
-50.687 177.832 2098
-45.5612 177.409 2093
-40.5175 177.239 2091
-35.5173 177.239 2091
-30.5171 177.239 2091
-25.5168 177.239 2091
-20.4381 176.561 2083
-15.4348 176.307 2080
-10.4609 176.307 2080
-5.48169 176.137 2078
-0.512563 176.137 2078
4.45657 176.137 2078
9.43476 176.307 2080
14.4087 176.307 2080
19.4105 176.561 2083
24.3916 176.561 2083
29.3727 176.561 2083
34.3043 176.307 2080
39.3349 176.561 2083
44.3585 176.731 2085
49.4864 177.239 2091
54.4866 177.239 2091
59.6291 177.663 2096
64.7954 178.087 2101
69.9193 178.341 2104
74.9505 178.341 2104
80.1719 178.765 2109
85.4172 179.189 2114
90.7292 179.697 2120
95.7988 179.697 2120
100.868 179.697 2120
106.038 179.867 2122
111.269 180.121 2125
116.351 180.121 2125
121.432 180.121 2125
126.692 180.375 2128
131.967 180.63 2131
137.77 181.562 2142
142.892 181.562 2142
148.015 181.562 2142
153.28 181.732 2144
159.219 182.664 2155
164.373 182.664 2155
169.998 183.172 2161
175.409 183.427 2164
181.001 183.851 2169
186.188 183.851 2169
191.639 184.105 2172
197.648 184.868 2181
203.608 185.546 2189
208.843 185.546 2189
214.664 186.054 2195
220.814 186.817 2204
227.521 188.004 2218
232.825 188.004 2218
240.383 189.784 2239
245.738 189.784 2239
251.765 190.293 2245
257.133 190.293 2245
262.502 190.293 2245
266.796 189.53 2236
272.143 189.53 2236
276.373 188.767 2227
280.56 188.004 2218
282.9 186.054 2195
288.149 186.054 2195
436.746 262.85 3101
445.02 263.358 3107
452.45 263.358 3107
459.88 263.358 3107
466.407 262.85 3101
467.711 259.459 3061
475.031 259.459 3061
480.617 258.527 3050
486.151 257.594 3039
492.444 257.086 3033
499.697 257.086 3033
505.111 256.153 3022
508.608 254.289 3000
513.031 252.932 2984
519.295 252.508 2979
526.418 252.508 2979
532.647 252.085 2974
537.762 251.152 2963
544.847 251.152 2963
551.933 251.152 2963
559.018 251.152 2963
565.148 250.728 2958
568.159 248.948 2937
575.183 248.948 2937
582.206 248.948 2937
588.226 248.525 2932
595.237 248.525 2932
602.249 248.525 2932
609.26 248.525 2932
616.271 248.525 2932
622.22 248.101 2927
629.219 248.101 2927
636.218 248.101 2927
643.218 248.101 2927
650.217 248.101 2927
657.216 248.101 2927
664.216 248.101 2927
670.068 247.677 2922
675.897 247.253 2917
684.043 247.677 2922
691.031 247.677 2922
698.018 247.677 2922
705.005 247.677 2922
713.211 248.101 2927
720.21 248.101 2927
727.21 248.101 2927
734.209 248.101 2927
741.208 248.101 2927
748.208 248.101 2927
755.207 248.101 2927
762.207 248.101 2927
769.206 248.101 2927
776.205 248.101 2927
781.867 247.677 2922
790.204 248.101 2927
797.203 248.101 2927
804.203 248.101 2927
811.202 248.101 2927
818.201 248.101 2927
825.201 248.101 2927
832.2 248.101 2927
839.199 248.101 2927
846.199 248.101 2927
853.198 248.101 2927
860.197 248.101 2927
867.197 248.101 2927
872.703 247.677 2922
879.69 247.677 2922
886.677 247.677 2922
893.665 247.677 2922
900.652 247.677 2922
909.193 248.101 2927
919.322 248.948 2937
927.923 249.372 2942
934.958 249.372 2942
945.515 250.305 2953
952.577 250.305 2953
959.638 250.305 2953
966.7 250.305 2953
1246.99 311.503 3675
1269.79 314.979 3716
1278.68 314.979 3716
1293.11 316.335 3732
1325.76 322.099 3800
1334.84 322.099 3800
1343.93 322.099 3800
1353.02 322.099 3800
1359.24 321.421 3792
1368.31 321.421 3792
1377.37 321.421 3792
1386.44 321.421 3792
1395.51 321.421 3792
1404.58 321.421 3792
1413.64 321.421 3792
1419.34 320.658 3783
1412.15 317.013 3740
1411.97 314.979 3716
1420.86 314.979 3716
1423.2 313.538 3699
1425.85 312.182 3683
1424.92 310.062 3658
1433.67 310.062 3658
1442.42 310.062 3658
1447.99 309.384 3650
1444.35 306.757 3619
1428.11 301.501 3557
1436.61 301.501 3557
1417.9 295.822 3490
1394.37 289.211 3412
1391.02 286.837 3384
1399.11 286.837 3384
1387.66 282.854 3337
1378.91 279.463 3297
1365.34 275.14 3246
1359.57 272.428 3214
1367.25 272.428 3214
1372.37 271.919 3208
1401.55 276.157 3258
1420.59 278.361 3284
1442.8 281.158 3317
1450.73 281.158 3317
1467.46 282.854 3337
1481.18 283.956 3350
1489.19 283.956 3350
1497.21 283.956 3350
1475.56 278.361 3284
1471.67 276.157 3258
1479.46 276.157 3258
1342.77 246.745 2911
1349.73 246.745 2911
1356.69 246.745 2911
1356.63 245.473 2896
1375.79 247.677 2922
1382.78 247.677 2922
1389.77 247.677 2922
1396.76 247.677 2922
1398.46 246.745 2911
1400.59 245.897 2901
1402.68 245.049 2891
1409.59 245.049 2891
1414.05 244.626 2886
1420.96 244.626 2886
1427.86 244.626 2886
1434.76 244.626 2886
1441.66 244.626 2886
1446.05 244.202 2881
1452.94 244.202 2881
1459.83 244.202 2881
1464.17 243.778 2876
1468.49 243.354 2871
1472.79 242.93 2866
1479.64 242.93 2866
1484.42 242.591 2862
1491.27 242.591 2862
1495.49 242.167 2857
1502.32 242.167 2857
1509.16 242.167 2857
1513.34 241.744 2852
1517.49 241.32 2847
1521.62 240.896 2842
1528.42 240.896 2842
1535.21 240.896 2842
1539.3 240.472 2837
1546.08 240.472 2837
1552.87 240.472 2837
1556.9 240.048 2832
1563.67 240.048 2832
1573.22 240.472 2837
1582.79 240.896 2842
1589.58 240.896 2842
1596.38 240.896 2842
1603.17 240.896 2842
1609.97 240.896 2842
1616.77 240.896 2842
1623.56 240.896 2842
1630.36 240.896 2842
1634.27 240.472 2837
1641.06 240.472 2837
1647.84 240.472 2837
1654.63 240.472 2837
1661.41 240.472 2837
1668.2 240.472 2837
1674.98 240.472 2837
1678.8 240.048 2832
1685.57 240.048 2832
1692.34 240.048 2832
1699.12 240.048 2832
1703.48 239.709 2828
1707.22 239.285 2823
1710.93 238.862 2818
1717.67 238.862 2818
1718.9 238.099 2809
1725.62 238.099 2809
1732.34 238.099 2809
1739.05 238.099 2809
1739.56 237.251 2799
1746.25 237.251 2799
1752.94 237.251 2799
1759.64 237.251 2799
1760.65 236.488 2790
1767.32 236.488 2790
1770.81 236.064 2785
1777.47 236.064 2785
1784.13 236.064 2785
1787.58 235.641 2780
1791.64 235.302 2776
1798.28 235.302 2776
1804.92 235.302 2776
1808.3 234.878 2771
1814.92 234.878 2771
1821.55 234.878 2771
1828.18 234.878 2771
1834.8 234.878 2771
1841.43 234.878 2771
1848.05 234.878 2771
1854.68 234.878 2771
1861.31 234.878 2771
1867.93 234.878 2771
1874.56 234.878 2771
1881.19 234.878 2771
1887.81 234.878 2771
1891.7 234.539 2767
1898.32 234.539 2767
1904.94 234.539 2767
1911.55 234.539 2767
1918.17 234.539 2767
1917.83 233.691 2757
1927.91 234.115 2762
1934.52 234.115 2762
1941.12 234.115 2762
1944.2 233.691 2757
1950.8 233.691 2757
1960.94 234.115 2762
1967.54 234.115 2762
1974.15 234.115 2762
1977.17 233.691 2757
1983.76 233.691 2757
1987.46 233.352 2753
1987.53 232.589 2744
1994.09 232.589 2744
2000.65 232.589 2744
2013.8 233.352 2753
2020.38 233.352 2753
2026.96 233.352 2753
2033.55 233.352 2753
2040.13 233.352 2753
2046.71 233.352 2753
2036.14 231.403 2730
2039.68 231.063 2726
2046.2 231.063 2726
2045.94 230.301 2717
2035.82 228.436 2695
2042.26 228.436 2695
2048.71 228.436 2695
2055.15 228.436 2695
2058.54 228.097 2691
-2113.65 246.048 2823
-2110.63 246.484 2828
-2103.87 246.484 2828
-2097.11 246.484 2828
-2090.34 246.484 2828
-2086.53 246.832 2832
-2079.75 246.832 2832
-2072.98 246.832 2832
-2066.21 246.832 2832
-2056.53 246.484 2828
-2049.77 246.484 2828
-2035.78 245.612 2818
-2022.56 244.828 2809
-2015.84 244.828 2809
-2015.56 245.612 2818
-2008.83 245.612 2818
-2002.09 245.612 2818
-1995.35 245.612 2818
-1992.14 246.048 2823
-1985.39 246.048 2823
-1978.64 246.048 2823
-2008.91 250.667 2876
-2002.03 250.667 2876
-1995.15 250.667 2876
-1995.19 251.539 2886
-1988.29 251.539 2886
-1981.39 251.539 2886
-1971.06 251.103 2881
-1957.36 250.232 2871
-1944.38 249.447 2862
-1991.69 256.42 2942
-1984.66 256.42 2942
-1988.38 257.814 2958
-1984.65 258.25 2963
-1984.91 259.209 2974
-1977.8 259.209 2974
-2021.04 265.833 3050
-2013.75 265.833 3050
-2006.46 265.833 3050
-1999.16 265.833 3050
-1977.5 263.915 3028
-1966.36 263.393 3022
-1959.13 263.393 3022
-1951.91 263.393 3022
-2139.53 309.325 3549
-2131.05 309.325 3549
-2127.34 310.022 3557
-2118.84 310.022 3557
-2110.33 310.022 3557
-2101.83 310.022 3557
-2093.32 310.022 3557
-2080.13 309.325 3549
-2071.64 309.325 3549
-2059.08 308.715 3542
-2041.93 307.408 3527
-2033.49 307.408 3527
-2033.67 308.715 3542
-2025.2 308.715 3542
-2016.73 308.715 3542
-2008.26 308.715 3542
-1999.79 308.715 3542
-1978.95 306.797 3520
-1974.46 307.408 3527
-1966.02 307.408 3527
-1957.59 307.408 3527
-1949.15 307.408 3527
-1940.72 307.408 3527
-1932.28 307.408 3527
-1927.67 308.018 3534
-1919.22 308.018 3534
-1915.09 308.715 3542
-1910.39 309.325 3549
-1906.19 310.022 3557
-1897.69 310.022 3557
-1889.18 310.022 3557
-1884.9 310.72 3565
-1880.06 311.33 3572
-1871.52 311.33 3572
-1871.32 312.724 3588
-1866.38 313.334 3595
-1874.32 316.123 3627
-1865.64 316.123 3627
-1872.84 318.825 3658
-1872.76 320.307 3675
-1863.97 320.307 3675
-1855.18 320.307 3675
-1858.45 322.399 3699
-1904.61 331.986 3809
-1908.44 334.252 3835
-1899.27 334.252 3835
-1903.41 336.606 3862
-1916.24 340.528 3907
-1938.62 346.193 3972
-1929.13 346.193 3972
-1956.84 352.904 4049
-1956.78 354.647 4069
-1951.83 355.519 4079
-1942.08 355.519 4079
-1932.32 355.519 4079
-1922.57 355.519 4079
-1912.81 355.519 4079
-1903.06 355.519 4079
-1893.31 355.519 4079
-1815.27 355.519 4079
-1805.52 355.519 4079
-1795.77 355.519 4079
-1743.54 347.065 3982
-1580.71 318.128 3650
-1571.99 318.128 3650
-1563.26 318.128 3650
-1534.51 314.032 3603
-1522.51 313.334 3595
-1488.22 308.018 3534
-1479.77 308.018 3534
-1450.09 303.573 3483
-1435.55 302.265 3468
-1407.09 297.994 3419
-1398.92 297.994 3419
-1385.05 296.774 3405
-1368.41 294.944 3384
-1360.32 294.944 3384
-1352.23 294.944 3384
-1344.13 294.944 3384
-1336.04 294.944 3384
-1311.86 291.37 3343
-1283.2 286.751 3290
-1275.33 286.751 3290
-1257.83 284.572 3265
-1247.34 283.962 3258
-1222.81 280.127 3214
-1215.13 280.127 3214
-1198.42 278.035 3190
-1184.08 276.466 3172
-1165.36 273.852 3142
-1157.85 273.852 3142
-1135.33 270.278 3101
-1123.55 269.232 3089
-1116.16 269.232 3089
-1108.77 269.232 3089
-1099.6 268.796 3084
-1092.23 268.796 3084
-1084.85 268.796 3084
-1073.29 267.75 3072
-1065.94 267.75 3072
-1054.8 266.792 3061
-1039.95 264.874 3039
-1026.91 263.393 3022
-1019.68 263.393 3022
-1008.77 262.434 3011
-996.25 261.039 2995
-987.437 260.603 2990
-980.287 260.603 2990
-868.768 251.103 2881
-864.87 251.975 2891
-862.409 253.282 2906
-855.459 253.282 2906
-853.182 254.677 2922
-846.195 254.677 2922
-839.207 254.677 2922
-832.22 254.677 2922
-825.232 254.677 2922
-816.845 254.241 2917
-811.258 254.677 2922
-804.27 254.677 2922
-798.647 255.112 2927
-791.648 255.112 2927
-784.648 255.112 2927
-777.649 255.112 2927
-771.966 255.548 2932
-764.955 255.548 2932
-757.944 255.548 2932
-750.932 255.548 2932
-743.921 255.548 2932
-735.653 255.112 2927
-728.654 255.112 2927
-720.422 254.677 2922
-710.749 253.718 2911
-700.161 252.411 2896
-693.236 252.411 2896
-686.31 252.411 2896
-679.385 252.411 2896
-670.138 251.539 2886
-663.237 251.539 2886
-656.335 251.539 2886
-651.684 252.411 2896
-645.872 252.846 2901
-638.935 252.846 2901
-631.998 252.846 2901
-626.138 253.282 2906
-621.533 254.241 2917
-614.557 254.241 2917
-607.582 254.241 2917
-600.607 254.241 2917
-593.631 254.241 2917
-586.656 254.241 2917
-648.926 337.39 3871
-639.669 337.39 3871
-630.413 337.39 3871
-621.156 337.39 3871
-616.167 339.743 3898
-616.965 345.409 3963
-607.489 345.409 3963
-598.012 345.409 3963
-588.535 345.409 3963
-579.058 345.409 3963
-569.582 345.409 3963
-561.377 346.193 3972
-551.879 346.193 3972
-542.38 346.193 3972
-532.882 346.193 3972
-523.384 346.193 3972
-515.179 347.065 3982
-506.8 347.849 3991
-498.502 348.721 4001
-488.935 348.721 4001
-479.367 348.721 4001
-467.568 347.065 3982
-458.046 347.065 3982
-448.524 347.065 3982
-435.805 344.537 3953
-423.332 342.096 3925
-413.946 342.096 3925
-400.85 338.959 3889
-389.738 337.39 3871
-379.596 336.606 3862
-370.361 336.606 3862
-360.284 335.821 3853
-349.431 334.252 3835
-338.752 332.771 3818
-329.622 332.771 3818
-320.492 332.771 3818
-311.362 332.771 3818
-300.807 331.202 3800
-291.72 331.202 3800
-280.699 328.936 3774
-269.875 326.757 3749
-260.91 326.757 3749
-121.847 184.253 2114
-116.791 184.253 2114
-111.736 184.253 2114
-106.681 184.253 2114
-101.145 183.381 2104
-96.1137 183.381 2104
-91.0824 183.381 2104
-86.1329 183.555 2106
-81.0968 183.555 2106
-76.1691 183.817 2109
-71.1258 183.817 2109
-66.0826 183.817 2109
-61.0393 183.817 2109
-55.996 183.817 2109
-50.832 183.381 2104
-45.7354 183.12 2101
-40.6531 182.858 2098
-35.6362 182.858 2098
-30.6192 182.858 2098
-25.5779 182.684 2096
-20.5166 182.248 2091
-15.4942 181.987 2088
-10.5011 181.987 2088
-5.50016 181.725 2085
-0.514289 181.725 2085
4.47158 181.725 2085
9.48466 182.248 2091
14.4849 182.248 2091
19.5037 182.422 2093
24.5087 182.422 2093
29.5137 182.422 2093
34.4857 182.248 2091
39.4293 181.987 2088
44.4862 182.248 2091
49.6047 182.684 2096
54.6169 182.684 2096
59.7713 183.12 2101
64.9496 183.555 2106
70.0854 183.817 2109
75.1287 183.817 2109
80.362 184.253 2114
85.5384 184.514 2117
90.8148 184.95 2122
95.8891 184.95 2122
101.106 185.211 2125
106.188 185.211 2125
111.269 185.211 2125
116.351 185.211 2125
121.604 185.473 2128
126.692 185.473 2128
131.967 185.734 2131
137.77 186.693 2142
142.892 186.693 2142
148.015 186.693 2142
153.28 186.867 2144
159.219 187.826 2155
164.373 187.826 2155
169.998 188.349 2161
175.409 188.611 2164
181.001 189.046 2169
186.188 189.046 2169
191.639 189.308 2172
197.648 190.092 2181
203.608 190.79 2189
208.843 190.79 2189
214.664 191.313 2195
220.814 192.097 2204
227.521 193.317 2218
232.825 193.317 2218
240.383 195.148 2239
245.738 195.148 2239
253.11 196.716 2257
258.508 196.716 2257
263.905 196.716 2257
266.796 194.886 2236
272.143 194.886 2236
276.373 194.102 2227
280.56 193.317 2218
282.9 191.313 2195
288.149 191.313 2195
436.746 270.278 3101
445.02 270.801 3107
452.45 270.801 3107
459.88 270.801 3107
466.407 270.278 3101
467.711 266.792 3061
475.031 266.792 3061
480.617 265.833 3050
486.151 264.874 3039
492.444 264.351 3033
499.697 264.351 3033
505.111 263.393 3022
508.608 261.475 3000
513.031 260.081 2984
519.295 259.645 2979
526.418 259.645 2979
532.647 259.209 2974
537.762 258.25 2963
544.847 258.25 2963
551.933 258.25 2963
559.018 258.25 2963
565.148 257.814 2958
568.159 255.984 2937
575.183 255.984 2937
582.206 255.984 2937
588.226 255.548 2932
595.237 255.548 2932
602.249 255.548 2932
609.26 255.548 2932
616.271 255.548 2932
622.22 255.112 2927
629.219 255.112 2927
636.218 255.112 2927
643.218 255.112 2927
650.217 255.112 2927
657.216 255.112 2927
664.216 255.112 2927
670.068 254.677 2922
675.897 254.241 2917
684.043 254.677 2922
691.031 254.677 2922
698.018 254.677 2922
705.005 254.677 2922
713.211 255.112 2927
720.21 255.112 2927
727.21 255.112 2927
734.209 255.112 2927
741.208 255.112 2927
748.208 255.112 2927
755.207 255.112 2927
762.207 255.112 2927
769.206 255.112 2927
776.205 255.112 2927
781.867 254.677 2922
790.204 255.112 2927
797.203 255.112 2927
804.203 255.112 2927
811.202 255.112 2927
818.201 255.112 2927
825.201 255.112 2927
832.2 255.112 2927
839.199 255.112 2927
846.199 255.112 2927
853.198 255.112 2927
858.728 254.677 2922
865.715 254.677 2922
872.703 254.677 2922
879.69 254.677 2922
886.677 254.677 2922
893.665 254.677 2922
899.111 254.241 2917
906.087 254.241 2917
914.627 254.677 2922
926.346 255.984 2937
933.369 255.984 2937
943.594 256.856 2947
954.189 257.814 2958
961.263 257.814 2958
968.336 257.814 2958
1246.99 320.307 3675
1266.72 323.096 3707
1275.58 323.096 3707
1284.45 323.096 3707
1304.82 325.972 3740
1319.74 327.454 3757
1331.91 328.238 3766
1340.91 328.238 3766
1349.92 328.238 3766
1358.92 328.238 3766
1367.93 328.238 3766
1376.94 328.238 3766
1392.2 329.72 3783
1401.24 329.72 3783
1410.29 329.72 3783
1412.96 328.238 3766
1412.15 325.972 3740
1408.55 323.096 3707
1417.42 323.096 3707
1423.2 322.399 3699
1416.17 318.825 3658
1421.81 318.128 3650
1430.53 318.128 3650
1439.26 318.128 3650
1444.82 317.431 3642
1441.15 314.729 3611
1424.9 309.325 3549
1433.38 309.325 3549
1417.9 304.183 3490
1394.37 297.384 3412
1391.02 294.944 3384
1399.11 294.944 3384
1387.66 290.847 3337
1378.91 287.361 3297
1365.34 282.916 3246
1359.57 280.127 3214
1367.25 280.127 3214
1369.8 279.081 3202
1398.97 283.439 3252
1417.99 285.705 3278
1448.45 290.237 3330
1456.41 290.237 3330
1476.25 292.591 3357
1484.28 292.591 3357
1492.31 292.591 3357
1500.33 292.591 3357
1467.02 284.572 3265
1454.96 280.737 3221
1462.66 280.737 3221
1418.32 270.801 3107
1381.7 262.434 3011
1374.14 259.645 2979
1366.42 256.856 2947
1373.47 256.856 2947
1363.65 253.718 2911
1365.91 252.846 2901
1372.84 252.846 2901
1379.78 252.846 2901
1386.72 252.846 2901
1391.25 252.411 2896
1395.76 251.975 2891
1400.25 251.539 2886
1407.15 251.539 2886
1411.6 251.103 2881
1418.49 251.103 2881
1425.38 251.103 2881
1432.27 251.103 2881
1439.16 251.103 2881
1446.05 251.103 2881
1450.42 250.667 2876
1457.3 250.667 2876
1461.63 250.232 2871
1468.49 250.232 2871
1472.79 249.796 2866
1479.64 249.796 2866
1481.83 249.011 2857
1488.66 249.011 2857
1495.49 249.011 2857
1502.32 249.011 2857
1509.16 249.011 2857
1513.34 248.576 2852
1517.49 248.14 2847
1521.62 247.704 2842
1528.42 247.704 2842
1535.21 247.704 2842
1539.3 247.268 2837
1543.36 246.832 2832
1550.13 246.832 2832
1556.9 246.832 2832
1561.46 246.484 2828
1570.44 246.832 2832
1580 247.268 2837
1586.79 247.268 2837
1593.57 247.268 2837
1600.35 247.268 2837
1607.14 247.268 2837
1613.92 247.268 2837
1620.71 247.268 2837
1624.62 246.832 2832
1631.39 246.832 2832
1638.17 246.832 2832
1644.94 246.832 2832
1649.38 246.484 2828
1656.14 246.484 2828
1662.9 246.484 2828
1669.67 246.484 2828
1676.43 246.484 2828
1683.19 246.484 2828
1689.95 246.484 2828
1696.72 246.484 2828
1700.47 246.048 2823
1704.19 245.612 2818
1710.93 245.612 2818
1717.67 245.612 2818
1718.9 244.828 2809
1725.62 244.828 2809
1732.34 244.828 2809
1739.05 244.828 2809
1739.56 243.956 2799
1746.25 243.956 2799
1752.94 243.956 2799
1759.64 243.956 2799
1760.65 243.172 2790
1764.15 242.736 2785
1770.81 242.736 2785
1777.47 242.736 2785
1784.13 242.736 2785
1787.58 242.3 2780
1791.64 241.952 2776
1795.04 241.516 2771
1801.67 241.516 2771
1808.3 241.516 2771
1814.92 241.516 2771
1821.55 241.516 2771
1828.18 241.516 2771
1834.8 241.516 2771
1841.43 241.516 2771
1845.39 241.167 2767
1852 241.167 2767
1858.62 241.167 2767
1867.93 241.516 2771
1874.56 241.516 2771
1881.19 241.516 2771
1887.81 241.516 2771
1891.7 241.167 2767
1898.32 241.167 2767
1904.94 241.167 2767
1911.55 241.167 2767
1918.17 241.167 2767
1917.83 240.296 2757
1927.91 240.731 2762
1934.52 240.731 2762
1941.12 240.731 2762
1947.73 240.731 2762
1954.33 240.731 2762
1960.94 240.731 2762
1967.54 240.731 2762
1974.15 240.731 2762
1980.75 240.731 2762
1987.36 240.731 2762
1987.46 239.947 2753
1990.43 239.511 2748
1997 239.511 2748
2000.65 239.163 2744
2013.8 239.947 2753
2020.38 239.947 2753
2026.96 239.947 2753
2033.55 239.947 2753
2040.13 239.947 2753
2046.71 239.947 2753
2036.14 237.942 2730
2039.68 237.594 2726
2046.2 237.594 2726
2045.94 236.809 2717
2035.82 234.892 2695
2042.26 234.892 2695
2048.71 234.892 2695
2055.15 234.892 2695
2058.54 234.543 2691
-2117.39 253.258 2828
-2113.62 253.617 2832
-2106.84 253.617 2832
-2100.07 253.617 2832
-2093.3 253.617 2832
-2086.53 253.617 2832
-2079.75 253.617 2832
-2072.98 253.617 2832
-2066.21 253.617 2832
-2056.53 253.258 2828
-2049.77 253.258 2828
-2035.78 252.363 2818
-2022.56 251.557 2809
-2015.84 251.557 2809
-2015.56 252.363 2818
-2008.83 252.363 2818
-2002.09 252.363 2818
-1995.35 252.363 2818
-1988.61 252.363 2818
-1978.35 251.915 2813
-1978.64 252.811 2823
-1985.16 254.512 2842
-2002.03 257.557 2876
-1995.15 257.557 2876
-1988.27 257.557 2876
-1981.4 257.557 2876
-1974.52 257.557 2876
-1967.64 257.557 2876
-1951.22 256.303 2862
-1944.38 256.303 2862
-1967.32 260.243 2906
-1960.37 260.243 2906
-1977.62 263.467 2942
-1973.93 263.915 2947
-1977.57 265.348 2963
-1970.48 265.348 2963
-2006.47 271.169 3028
-2006.49 272.154 3039
-1999.22 272.154 3039
-1991.95 272.154 3039
-1977.5 271.169 3028
-1966.36 270.632 3022
-1959.13 270.632 3022
-1951.91 270.632 3022
-2139.53 317.827 3549
-2131.05 317.827 3549
-2127.34 318.543 3557
-2118.84 318.543 3557
-2110.33 318.543 3557
-2101.83 318.543 3557
-2093.32 318.543 3557
-2080.13 317.827 3549
-2071.64 317.827 3549
-2059.08 317.2 3542
-2041.93 315.856 3527
-2033.49 315.856 3527
-2033.67 317.2 3542
-2025.2 317.2 3542
-2016.73 317.2 3542
-2008.26 317.2 3542
-1999.79 317.2 3542
-1978.95 315.23 3520
-1974.46 315.856 3527
-1966.02 315.856 3527
-1957.59 315.856 3527
-1949.15 315.856 3527
-1940.72 315.856 3527
-1932.28 315.856 3527
-1927.67 316.483 3534
-1919.22 316.483 3534
-1915.09 317.2 3542
-1910.39 317.827 3549
-1906.19 318.543 3557
-1897.69 318.543 3557
-1889.18 318.543 3557
-1884.9 319.259 3565
-1880.06 319.886 3572
-1871.52 319.886 3572
-1871.32 321.319 3588
-1866.38 321.946 3595
-1874.32 324.812 3627
-1865.64 324.812 3627
-1872.84 327.588 3658
-1872.76 329.11 3675
-1863.97 329.11 3675
-1855.18 329.11 3675
-1858.45 331.26 3699
-1904.61 341.111 3809
-1908.44 343.439 3835
-1899.27 343.439 3835
-1903.41 345.857 3862
-1916.24 349.887 3907
-1938.62 355.708 3972
-1929.13 355.708 3972
-1956.84 362.604 4049
-1956.78 364.395 4069
-1951.83 365.29 4079
-1942.08 365.29 4079
-1932.32 365.29 4079
-1815.27 365.29 4079
-1805.52 365.29 4079
-1795.77 365.29 4079
-1743.54 356.603 3982
-1580.71 326.872 3650
-1571.99 326.872 3650
-1563.26 326.872 3650
-1534.51 322.663 3603
-1522.51 321.946 3595
-1488.22 316.483 3534
-1479.77 316.483 3534
-1450.09 311.916 3483
-1435.55 310.573 3468
-1407.09 306.185 3419
-1398.92 306.185 3419
-1385.05 304.931 3405
-1368.41 303.05 3384
-1360.32 303.05 3384
-1352.23 303.05 3384
-1344.13 303.05 3384
-1336.04 303.05 3384
-1311.86 299.379 3343
-1283.2 294.632 3290
-1275.33 294.632 3290
-1257.83 292.393 3265
-1245.04 291.229 3252
-1222.81 287.826 3214
-1215.13 287.826 3214
-1196.17 285.139 3184
-1184.08 284.065 3172
-1163.14 280.841 3136
-1155.64 280.841 3136
-1130.93 276.632 3089
-1119.54 275.647 3078
-1112.18 275.647 3078
-1104.82 275.647 3078
-1097.46 275.647 3078
-1087.98 275.109 3072
-1080.63 275.109 3072
-1073.29 275.109 3072
-1065.94 275.109 3072
-1054.8 274.124 3061
-1037.9 271.617 3033
-1026.91 270.632 3022
-1019.68 270.632 3022
-1008.77 269.647 3011
-996.25 268.214 2995
-987.437 267.766 2990
-980.287 267.766 2990
-864.87 258.9 2891
-862.409 260.243 2906
-855.459 260.243 2906
-853.182 261.676 2922
-846.195 261.676 2922
-839.207 261.676 2922
-832.22 261.676 2922
-825.232 261.676 2922
-816.845 261.229 2917
-811.258 261.676 2922
-804.27 261.676 2922
-798.647 262.124 2927
-791.648 262.124 2927
-784.648 262.124 2927
-777.649 262.124 2927
-771.966 262.572 2932
-764.955 262.572 2932
-757.944 262.572 2932
-750.932 262.572 2932
-743.921 262.572 2932
-735.653 262.124 2927
-728.654 262.124 2927
-720.422 261.676 2922
-710.749 260.691 2911
-700.161 259.348 2896
-693.236 259.348 2896
-685.126 258.9 2891
-677.039 258.452 2886
-670.138 258.452 2886
-663.237 258.452 2886
-656.335 258.452 2886
-650.559 258.9 2891
-644.759 259.348 2896
-637.834 259.348 2896
-630.909 259.348 2896
-625.061 259.796 2901
-619.189 260.243 2906
-614.557 261.229 2917
-607.582 261.229 2917
-600.607 261.229 2917
-593.631 261.229 2917
-586.656 261.229 2917
-640.041 341.917 3818
-630.911 341.917 3818
-621.781 341.917 3818
-612.651 341.917 3818
-609.054 345.051 3853
-606.846 349.081 3898
-597.525 349.081 3898
-589.561 349.887 3907
-581.555 350.693 3916
-572.191 350.693 3916
-562.826 350.693 3916
-556.148 352.394 3935
-547.988 353.2 3944
-539.786 354.006 3953
-530.333 354.006 3953
-520.88 354.006 3953
-515.179 356.603 3982
-506.8 357.409 3991
-498.502 358.305 4001
-488.935 358.305 4001
-479.367 358.305 4001
-467.568 356.603 3982
-458.046 356.603 3982
-448.524 356.603 3982
-435.805 354.006 3953
-423.332 351.499 3925
-413.946 351.499 3925
-400.85 348.275 3889
-389.738 346.663 3871
-379.596 345.857 3862
-370.361 345.857 3862
-360.284 345.051 3853
-349.431 343.439 3835
-338.752 341.917 3818
-329.622 341.917 3818
-320.492 341.917 3818
-311.362 341.917 3818
-300.807 340.305 3800
-291.72 340.305 3800
-280.699 337.976 3774
-269.875 335.737 3749
-260.91 335.737 3749
-121.847 189.317 2114
-116.791 189.317 2114
-111.736 189.317 2114
-106.681 189.317 2114
-101.145 188.421 2104
-96.1137 188.421 2104
-91.0824 188.421 2104
-86.1329 188.6 2106
-81.0968 188.6 2106
-76.1691 188.869 2109
-71.1258 188.869 2109
-66.0826 188.869 2109
-61.0393 188.869 2109
-55.996 188.869 2109
-50.832 188.421 2104
-45.7354 188.153 2101
-40.6531 187.884 2098
-35.6362 187.884 2098
-30.6192 187.884 2098
-25.5779 187.705 2096
-20.5166 187.257 2091
-15.4942 186.988 2088
-10.5011 186.988 2088
-5.50016 186.72 2085
-0.514289 186.72 2085
4.47158 186.72 2085
9.48466 187.257 2091
14.4849 187.257 2091
19.5037 187.436 2093
24.5087 187.436 2093
29.5137 187.436 2093
34.4857 187.257 2091
39.4293 186.988 2088
44.4862 187.257 2091
49.6047 187.705 2096
54.6169 187.705 2096
59.7713 188.153 2101
64.9496 188.6 2106
70.0854 188.869 2109
75.1287 188.869 2109
80.362 189.317 2114
85.5384 189.586 2117
90.8148 190.033 2122
95.8891 190.033 2122
101.106 190.302 2125
106.188 190.302 2125
111.269 190.302 2125
116.351 190.302 2125
121.604 190.571 2128
126.692 190.571 2128
131.967 190.839 2131
137.77 191.824 2142
142.892 191.824 2142
148.015 191.824 2142
153.28 192.003 2144
159.219 192.989 2155
164.373 192.989 2155
169.998 193.526 2161
175.409 193.795 2164
180.834 194.063 2167
186.016 194.063 2167
191.374 194.242 2169
197.377 195.048 2178
203.143 195.586 2184
208.366 195.586 2184
214.664 196.571 2195
220.514 197.108 2201
227.521 198.63 2218
232.825 198.63 2218
240.383 200.511 2239
245.738 200.511 2239
253.11 202.123 2257
258.508 202.123 2257
263.905 202.123 2257
266.796 200.242 2236
272.143 200.242 2236
276.373 199.436 2227
436.746 277.707 3101
444.161 277.707 3101
451.576 277.707 3101
458.992 277.707 3101
462.948 275.647 3078
467.711 274.124 3061
475.031 274.124 3061
478.884 272.154 3039
485.191 271.617 3033
491.632 271.169 3028
498.873 271.169 3028
504.275 270.184 3017
508.608 268.662 3000
512.171 266.781 2979
519.295 266.781 2979
526.418 266.781 2979
532.647 266.333 2974
537.762 265.348 2963
544.847 265.348 2963
551.933 265.348 2963
559.018 265.348 2963
565.148 264.9 2958
568.159 263.02 2937
575.183 263.02 2937
581.215 262.572 2932
587.223 262.124 2927
594.222 262.124 2927
601.222 262.124 2927
608.221 262.124 2927
615.22 262.124 2927
622.22 262.124 2927
629.219 262.124 2927
636.218 262.124 2927
642.119 261.676 2922
649.106 261.676 2922
656.094 261.676 2922
663.081 261.676 2922
668.922 261.229 2917
675.897 261.229 2917
682.873 261.229 2917
691.031 261.676 2922
698.018 261.676 2922
705.005 261.676 2922
711.993 261.676 2922
718.98 261.676 2922
725.968 261.676 2922
734.209 262.124 2927
741.208 262.124 2927
748.208 262.124 2927
755.207 262.124 2927
762.207 262.124 2927
769.206 262.124 2927
776.205 262.124 2927
781.867 261.676 2922
790.204 262.124 2927
797.203 262.124 2927
804.203 262.124 2927
811.202 262.124 2927
818.201 262.124 2927
825.201 262.124 2927
832.2 262.124 2927
839.199 262.124 2927
846.199 262.124 2927
853.198 262.124 2927
858.728 261.676 2922
865.715 261.676 2922
872.703 261.676 2922
879.69 261.676 2922
886.677 261.676 2922
893.665 261.676 2922
899.111 261.229 2917
906.087 261.229 2917
914.627 261.676 2922
926.346 263.02 2937
933.369 263.02 2937
945.515 264.453 2953
954.189 264.9 2958
961.263 264.9 2958
968.336 264.9 2958
1246.99 329.11 3675
1266.72 331.976 3707
1275.58 331.976 3707
1284.45 331.976 3707
1304.82 334.931 3740
1319.74 336.454 3757
1331.91 337.26 3766
1340.91 337.26 3766
1349.92 337.26 3766
1358.92 337.26 3766
1367.93 337.26 3766
1376.94 337.26 3766
1392.2 338.782 3783
1401.24 338.782 3783
1410.29 338.782 3783
1412.96 337.26 3766
1412.15 334.931 3740
1408.55 331.976 3707
1417.42 331.976 3707
1423.2 331.26 3699
1416.17 327.588 3658
1421.81 326.872 3650
1430.53 326.872 3650
1439.26 326.872 3650
1444.82 326.155 3642
1441.15 323.379 3611
1424.9 317.827 3549
1433.38 317.827 3549
1417.9 312.543 3490
1394.37 305.558 3412
1391.02 303.05 3384
1399.11 303.05 3384
1387.66 298.841 3337
1378.91 295.259 3297
1365.34 290.692 3246
1359.57 287.826 3214
1367.25 287.826 3214
1374.94 287.826 3214
1410.16 293.558 3278
1431.84 296.423 3310
1465.85 301.796 3370
1473.91 301.796 3370
1485.05 302.423 3377
1493.12 302.423 3377
1501.2 302.423 3377
1509.27 302.423 3377
1493.08 297.587 3323
1466.25 290.692 3246
1474.01 290.692 3246
1418.32 278.244 3107
1394.55 272.154 3039
1388.9 269.647 3011
1381.26 266.781 2979
1388.39 266.781 2979
1380.52 263.915 2947
1378.15 262.124 2927
1385.15 262.124 2927
1392.15 262.124 2927
1399.15 262.124 2927
1396.06 260.243 2906
1398.18 259.348 2896
1400.25 258.452 2886
1407.15 258.452 2886
1411.6 258.005 2881
1418.49 258.005 2881
1425.38 258.005 2881
1432.27 258.005 2881
1439.16 258.005 2881
1446.05 258.005 2881
1450.42 257.557 2876
1457.3 257.557 2876
1461.63 257.109 2871
1468.49 257.109 2871
1472.79 256.661 2866
1479.64 256.661 2866
1481.83 255.855 2857
1488.66 255.855 2857
1495.49 255.855 2857
1502.32 255.855 2857
1509.16 255.855 2857
1513.34 255.408 2852
1517.49 254.96 2847
1521.62 254.512 2842
1528.42 254.512 2842
1535.21 254.512 2842
1539.3 254.064 2837
1543.36 253.617 2832
1550.13 253.617 2832
1556.9 253.617 2832
1561.46 253.258 2828
1570.44 253.617 2832
1580 254.064 2837
1586.79 254.064 2837
1593.57 254.064 2837
1600.35 254.064 2837
1607.14 254.064 2837
1613.92 254.064 2837
1620.71 254.064 2837
1624.62 253.617 2832
1631.39 253.617 2832
1638.17 253.617 2832
1644.94 253.617 2832
1649.38 253.258 2828
1656.14 253.258 2828
1662.9 253.258 2828
1669.67 253.258 2828
1676.43 253.258 2828
1683.19 253.258 2828
1689.95 253.258 2828
1696.72 253.258 2828
1700.47 252.811 2823
1707.22 252.811 2823
1710.93 252.363 2818
1717.67 252.363 2818
1721.35 251.915 2813
1725.62 251.557 2809
1732.34 251.557 2809
1739.05 251.557 2809
1739.56 250.661 2799
1746.25 250.661 2799
1752.94 250.661 2799
1759.64 250.661 2799
1760.65 249.855 2790
1764.15 249.407 2785
1770.81 249.407 2785
1777.47 249.407 2785
1784.13 249.407 2785
1787.58 248.96 2780
1791.64 248.602 2776
1795.04 248.154 2771
1801.67 248.154 2771
1808.3 248.154 2771
1814.92 248.154 2771
1821.55 248.154 2771
1828.18 248.154 2771
1834.8 248.154 2771
1841.43 248.154 2771
1845.39 247.796 2767
1852 247.796 2767
1858.62 247.796 2767
1867.93 248.154 2771
1874.56 248.154 2771
1881.19 248.154 2771
1887.81 248.154 2771
1891.7 247.796 2767
1898.32 247.796 2767
1904.94 247.796 2767
1911.55 247.796 2767
1918.17 247.796 2767
1917.83 246.9 2757
1927.91 247.348 2762
1934.52 247.348 2762
1941.12 247.348 2762
1947.73 247.348 2762
1954.33 247.348 2762
1960.94 247.348 2762
1967.54 247.348 2762
1974.15 247.348 2762
1980.75 247.348 2762
1987.36 247.348 2762
1990.35 246.9 2757
1990.43 246.094 2748
1997 246.094 2748
2000.65 245.736 2744
2013.8 246.542 2753
2020.38 246.542 2753
2026.96 246.542 2753
2033.55 246.542 2753
2040.13 246.542 2753
2046.71 246.542 2753
2036.14 244.482 2730
2039.68 244.124 2726
2046.2 244.124 2726
2045.94 243.318 2717
2035.82 241.348 2695
2042.26 241.348 2695
2048.71 241.348 2695
2055.15 241.348 2695
2058.54 240.989 2691
-2124.13 260.86 2837
-2121.08 261.32 2842
-2114.28 261.32 2842
-2107.49 261.32 2842
-2100.69 261.32 2842
-2093.89 261.32 2842
-2087.1 261.32 2842
-2076.64 260.86 2837
-2066.21 260.401 2832
-2056.53 260.033 2828
-2049.77 260.033 2828
-2035.78 259.113 2818
-2022.56 258.286 2809
-2012.26 257.826 2804
-2009.13 258.286 2809
-2002.41 258.286 2809
-1998.53 258.654 2813
-1991.81 258.654 2813
-1985.08 258.654 2813
-1975.54 258.286 2809
-1965.32 257.826 2804
-1981.66 260.86 2837
-1981.84 261.78 2847
-1975.03 261.78 2847
-1968.23 261.78 2847
-1971.75 263.159 2862
-1964.91 263.159 2862
-1958.06 263.159 2862
-1947.81 262.699 2857
-1940.98 262.699 2857
-1963.93 266.745 2901
-1957 266.745 2901
-1964.18 268.676 2922
-1967.24 270.055 2937
-1966.89 270.975 2947
-1959.84 270.975 2947
-1987.91 275.848 3000
-1999.23 278.423 3028
-1991.98 278.423 3028
-1984.74 278.423 3028
-1977.5 278.423 3028
-1966.36 277.871 3022
-1959.13 277.871 3022
-1951.91 277.871 3022
-2139.53 326.328 3549
-2131.05 326.328 3549
-2122.56 326.328 3549
-2114.07 326.328 3549
-2105.59 326.328 3549
-2097.1 326.328 3549
-2088.61 326.328 3549
-2080.13 326.328 3549
-2071.64 326.328 3549
-2059.08 325.685 3542
-2041.93 324.305 3527
-2033.49 324.305 3527
-2033.67 325.685 3542
-2025.2 325.685 3542
-2016.73 325.685 3542
-2008.26 325.685 3542
-1999.79 325.685 3542
-1978.95 323.662 3520
-1974.46 324.305 3527
-1966.02 324.305 3527
-1957.59 324.305 3527
-1949.15 324.305 3527
-1940.72 324.305 3527
-1936.12 324.949 3534
-1932.03 325.685 3542
-1923.56 325.685 3542
-1918.88 326.328 3549
-1910.39 326.328 3549
-1906.19 327.064 3557
-1897.69 327.064 3557
-1893.43 327.799 3565
-1884.9 327.799 3565
-1880.06 328.443 3572
-1871.52 328.443 3572
-1874.97 330.558 3595
-1870.53 331.294 3603
-1874.32 333.5 3627
-1865.64 333.5 3627
-1872.84 336.351 3658
-1872.76 337.914 3675
-1872.09 339.385 3691
-1863.26 339.385 3691
-1858.45 340.121 3699
-1878.61 345.454 3757
-1895.5 350.235 3809
-1886.39 350.235 3809
-1903.41 355.108 3862
-1920.66 360.074 3916
-1947.9 366.97 3991
-1938.35 366.97 3991
-1956.84 372.303 4049
-1956.78 374.142 4069
-1947.05 374.142 4069
-1937.32 374.142 4069
-1932.32 375.061 4079
-1922.57 375.061 4079
-1912.81 375.061 4079
-1903.06 375.061 4079
-1893.31 375.061 4079
-1883.55 375.061 4079
-1878.39 375.981 4089
-1868.61 375.981 4089
-1858.84 375.981 4089
-1815.27 375.061 4079
-1805.52 375.061 4079
-1795.77 375.061 4079
-1743.54 366.142 3982
-1658.68 350.235 3809
-1580.71 335.615 3650
-1571.99 335.615 3650
-1563.26 335.615 3650
-1534.51 331.294 3603
-1519.54 329.914 3588
-1488.22 324.949 3534
-1479.77 324.949 3534
-1459.25 322.283 3505
-1438.86 319.616 3476
-1412.85 315.662 3433
-1404.64 315.662 3433
-1390.74 314.375 3419
-1379.73 313.731 3412
-1363.13 311.8 3391
-1355.02 311.8 3391
-1346.92 311.8 3391
-1336.04 311.157 3384
-1314.61 308.03 3350
-1285.93 303.157 3297
-1278.04 303.157 3297
-1260.14 300.766 3271
-1240.07 297.824 3239
-1218.25 294.422 3202
-1210.59 294.422 3202
-1193.92 292.215 3178
-1179.6 290.56 3160
-1160.91 287.802 3130
-1153.43 287.802 3130
-1129.1 283.572 3084
-1119.54 283.02 3078
-1112.18 283.02 3078
-1104.82 283.02 3078
-1099.6 283.572 3084
-1092.23 283.572 3084
-1084.85 283.572 3084
-1077.48 283.572 3084
-1070.1 283.572 3084
-1054.8 281.457 3061
-1037.9 278.882 3033
-1026.91 277.871 3022
-1019.68 277.871 3022
-1008.77 276.86 3011
-996.25 275.388 2995
-987.437 274.929 2990
-980.287 274.929 2990
-864.87 265.826 2891
-862.409 267.205 2906
-861.641 269.136 2927
-854.642 269.136 2927
-847.643 269.136 2927
-840.643 269.136 2927
-832.22 268.676 2922
-825.232 268.676 2922
-819.645 269.136 2927
-812.646 269.136 2927
-805.647 269.136 2927
-798.647 269.136 2927
-793 269.596 2932
-785.989 269.596 2932
-778.978 269.596 2932
-774.599 270.515 2942
-767.564 270.515 2942
-760.529 270.515 2942
-753.494 270.515 2942
-745.19 270.055 2937
-736.91 269.596 2932
-729.898 269.596 2932
-720.422 268.676 2922
-712.214 268.216 2917
-701.37 266.745 2901
-694.433 266.745 2901
-685.126 265.826 2891
-677.039 265.366 2886
-670.138 265.366 2886
-663.237 265.366 2886
-656.335 265.366 2886
-650.559 265.826 2891
-644.759 266.285 2896
-637.834 266.285 2896
-630.909 266.285 2896
-623.984 266.285 2896
-619.189 267.205 2906
-612.24 267.205 2906
-605.291 267.205 2906
-603.695 269.596 2932
-597.701 270.055 2937
-590.678 270.055 2937
-583.655 270.055 2937
-608.603 338.65 3683
-599.796 338.65 3683
-590.989 338.65 3683
-603.521 351.063 3818
-598.439 353.453 3844
-589.247 353.453 3844
-581.413 354.281 3853
-574.872 355.936 3871
-572.191 360.074 3916
-562.826 360.074 3916
-556.148 361.821 3935
-546.738 361.821 3935
-538.557 362.648 3944
-530.333 363.476 3953
-520.88 363.476 3953
-515.179 366.142 3982
-506.8 366.97 3991
-498.502 367.889 4001
-488.935 367.889 4001
-479.367 367.889 4001
-467.568 366.142 3982
-458.046 366.142 3982
-448.524 366.142 3982
-435.805 363.476 3953
-423.332 360.901 3925
-413.946 360.901 3925
-400.85 357.591 3889
-389.738 355.936 3871
-379.596 355.108 3862
-370.361 355.108 3862
-360.284 354.281 3853
-350.251 353.453 3844
-340.26 352.626 3835
-331.089 352.626 3835
-321.919 352.626 3835
-312.748 352.626 3835
-302.865 351.798 3826
-293.716 351.798 3826
-282.038 348.672 3792
-271.674 347.017 3774
-262.093 346.281 3766
-122.02 194.657 2117
-116.957 194.657 2117
-111.895 194.657 2117
-106.832 194.657 2117
-101.241 193.645 2106
-96.2051 193.645 2106
-91.169 193.645 2106
-86.2556 193.921 2109
-81.2123 193.921 2109
-76.2774 194.197 2112
-71.227 194.197 2112
-66.1766 194.197 2112
-61.1261 194.197 2112
-56.0757 194.197 2112
-50.9528 193.921 2109
-45.8007 193.461 2104
-40.7694 193.461 2104
-35.7381 193.461 2104
-30.7068 193.461 2104
-25.6023 192.91 2098
-20.5853 192.91 2098
-15.5535 192.726 2096
-10.5413 192.726 2096
-5.52126 192.45 2093
-0.516263 192.45 2093
4.48873 192.45 2093
9.53002 193.186 2101
14.5541 193.186 2101
19.5783 193.186 2101
24.6024 193.186 2101
29.6265 193.186 2101
34.6507 193.186 2101
39.6181 192.91 2098
44.6351 192.91 2098
49.723 193.186 2101
54.7472 193.186 2101
59.9135 193.645 2106
65.1347 194.197 2112
70.2516 194.381 2114
75.3068 194.381 2114
80.476 194.657 2117
85.7405 195.117 2122
90.9432 195.392 2125
96.0247 195.392 2125
101.106 195.392 2125
106.188 195.392 2125
111.426 195.668 2128
116.515 195.668 2128
121.604 195.668 2128
126.692 195.668 2128
131.967 195.944 2131
137.577 196.68 2139
142.692 196.68 2139
148.015 196.956 2142
153.28 197.139 2144
159.219 198.151 2155
164.373 198.151 2155
169.998 198.703 2161
175.409 198.978 2164
180.584 198.978 2164
185.758 198.978 2164
191.374 199.438 2169
196.833 199.714 2172
203.143 200.817 2184
208.366 200.817 2184
214.077 201.277 2189
220.514 202.381 2201
227.008 203.484 2213
232.3 203.484 2213
240.383 205.875 2239
245.738 205.875 2239
253.11 207.53 2257
258.508 207.53 2257
263.905 207.53 2257
266.796 205.599 2236
272.143 205.599 2236
434.351 283.572 3084
441.726 283.572 3084
449.101 283.572 3084
456.476 283.572 3084
459.489 280.905 3055
464.349 279.434 3039
471.616 279.434 3039
477.15 278.423 3028
484.391 278.423 3028
490.658 277.871 3022
497.884 277.871 3022
503.272 276.86 3011
505.047 273.917 2979
512.171 273.917 2979
518.423 273.457 2974
525.535 273.457 2974
531.572 272.906 2968
537.762 272.446 2963
544.847 272.446 2963
551.933 272.446 2963
559.018 272.446 2963
563.047 270.975 2947
568.159 270.055 2937
575.183 270.055 2937
581.215 269.596 2932
587.223 269.136 2927
594.222 269.136 2927
601.222 269.136 2927
607.182 268.676 2922
614.169 268.676 2922
621.157 268.676 2922
628.144 268.676 2922
635.132 268.676 2922
642.119 268.676 2922
649.106 268.676 2922
654.971 268.216 2917
661.946 268.216 2917
668.922 268.216 2917
674.507 267.665 2911
682.873 268.216 2917
689.848 268.216 2917
696.824 268.216 2917
703.799 268.216 2917
711.993 268.676 2922
718.98 268.676 2922
725.968 268.676 2922
734.209 269.136 2927
741.208 269.136 2927
748.208 269.136 2927
755.207 269.136 2927
762.207 269.136 2927
769.206 269.136 2927
776.205 269.136 2927
781.867 268.676 2922
790.204 269.136 2927
797.203 269.136 2927
804.203 269.136 2927
811.202 269.136 2927
818.201 269.136 2927
825.201 269.136 2927
832.2 269.136 2927
839.199 269.136 2927
846.199 269.136 2927
851.741 268.676 2922
858.728 268.676 2922
865.715 268.676 2922
872.703 268.676 2922
878.185 268.216 2917
885.16 268.216 2917
892.136 268.216 2917
899.111 268.216 2917
906.087 268.216 2917
914.627 268.676 2922
924.768 269.596 2932
931.78 269.596 2932
945.515 271.526 2953
954.189 271.986 2958
961.263 271.986 2958
968.336 271.986 2958
1246.99 337.914 3675
1255.78 337.914 3675
1264.57 337.914 3675
1267.47 336.351 3658
1284.94 338.65 3683
1299.37 340.121 3699
1317.05 342.419 3724
1325.96 342.419 3724
1334.86 342.419 3724
1343.77 342.419 3724
1361.75 344.718 3749
1370.72 344.718 3749
1385.94 346.281 3766
1394.95 346.281 3766
1403.95 346.281 3766
1403.2 343.891 3740
1406.11 342.419 3724
1408.55 340.856 3707
1417.42 340.856 3707
1420.12 339.385 3691
1413.08 335.615 3650
1421.81 335.615 3650
1430.53 335.615 3650
1436.11 334.88 3642
1444.82 334.88 3642
1434.77 330.558 3595
1418.87 324.949 3534
1427.32 324.949 3534
1415.06 320.26 3483
1394.37 313.731 3412
1382.39 309.226 3363
1390.43 309.226 3363
1387.66 306.835 3337
1378.91 303.157 3297
1365.34 298.468 3246
1359.57 295.525 3214
1367.25 295.525 3214
1374.94 295.525 3214
1410.16 301.41 3278
1431.84 304.352 3310
1465.85 309.869 3370
1473.91 309.869 3370
1485.05 310.513 3377
1493.12 310.513 3377
1501.2 310.513 3377
1509.27 310.513 3377
1493.08 305.548 3323
1466.25 298.468 3246
1474.01 298.468 3246
1418.32 285.687 3107
1394.55 279.434 3039
1388.9 276.86 3011
1381.26 273.917 2979
1388.39 273.917 2979
1380.52 270.975 2947
1378.15 269.136 2927
1385.15 269.136 2927
1392.15 269.136 2927
1399.15 269.136 2927
1396.06 267.205 2906
1398.18 266.285 2896
1400.25 265.366 2886
1407.15 265.366 2886
1411.6 264.906 2881
1418.49 264.906 2881
1425.38 264.906 2881
1432.27 264.906 2881
1439.16 264.906 2881
1443.54 264.446 2876
1447.9 263.987 2871
1454.76 263.987 2871
1461.63 263.987 2871
1468.49 263.987 2871
1472.79 263.527 2866
1479.64 263.527 2866
1481.83 262.699 2857
1488.66 262.699 2857
1495.49 262.699 2857
1499.7 262.24 2852
1506.52 262.24 2852
1513.34 262.24 2852
1517.49 261.78 2847
1521.62 261.32 2842
1528.42 261.32 2842
1535.21 261.32 2842
1539.3 260.86 2837
1543.36 260.401 2832
1550.13 260.401 2832
1554.7 260.033 2828
1561.46 260.033 2828
1568.23 260.033 2828
1574.99 260.033 2828
1581.75 260.033 2828
1588.51 260.033 2828
1595.28 260.033 2828
1602.04 260.033 2828
1608.8 260.033 2828
1615.57 260.033 2828
1622.33 260.033 2828
1629.09 260.033 2828
1635.85 260.033 2828
1642.62 260.033 2828
1646.46 259.573 2823
1653.21 259.573 2823
1662.9 260.033 2828
1669.67 260.033 2828
1676.43 260.033 2828
1683.19 260.033 2828
1689.95 260.033 2828
1693.72 259.573 2823
1700.47 259.573 2823
1707.22 259.573 2823
1710.93 259.113 2818
1717.67 259.113 2818
1721.35 258.654 2813
1725.62 258.286 2809
1732.34 258.286 2809
1739.05 258.286 2809
1739.56 257.366 2799
1746.25 257.366 2799
1749.81 256.907 2794
1756.49 256.907 2794
1760.65 256.539 2790
1764.15 256.079 2785
1770.81 256.079 2785
1777.47 256.079 2785
1780.93 255.619 2780
1787.58 255.619 2780
1791.64 255.251 2776
1795.04 254.792 2771
1801.67 254.792 2771
1808.3 254.792 2771
1814.92 254.792 2771
1821.55 254.792 2771
1828.18 254.792 2771
1834.8 254.792 2771
1841.43 254.792 2771
1845.39 254.424 2767
1852 254.424 2767
1858.62 254.424 2767
1867.93 254.792 2771
1874.56 254.792 2771
1881.19 254.792 2771
1887.81 254.792 2771
1891.7 254.424 2767
1898.32 254.424 2767
1904.94 254.424 2767
1911.55 254.424 2767
1914.7 253.964 2762
1917.83 253.504 2757
1927.91 253.964 2762
1934.52 253.964 2762
1941.12 253.964 2762
1947.73 253.964 2762
1954.33 253.964 2762
1960.94 253.964 2762
1967.54 253.964 2762
1974.15 253.964 2762
1980.75 253.964 2762
1987.36 253.964 2762
1990.35 253.504 2757
1990.43 252.677 2748
1997 252.677 2748
2000.65 252.309 2744
2013.8 253.137 2753
2020.38 253.137 2753
2026.96 253.137 2753
2033.55 253.137 2753
2040.13 253.137 2753
2046.71 253.137 2753
2036.14 251.022 2730
2039.68 250.654 2726
2046.2 250.654 2726
2045.94 249.826 2717
2035.82 247.804 2695
2042.26 247.804 2695
2048.71 247.804 2695
2055.15 247.804 2695
2051.65 246.608 2682
-2135.36 269.072 2852
-2132.27 269.543 2857
-2129.16 270.015 2862
-2122.32 270.015 2862
-2118.43 270.392 2866
-2111.58 270.392 2866
-2104.72 270.392 2866
-2097.87 270.392 2866
-2069.86 267.656 2837
-2056.53 266.807 2828
-2049.77 266.807 2828
-2035.78 265.864 2818
-2022.56 265.015 2809
-2012.26 264.543 2804
-2009.13 265.015 2809
-2002.41 265.015 2809
-1998.53 265.392 2813
-1991.81 265.392 2813
-1985.08 265.392 2813
-1975.54 265.015 2809
-1965.32 264.543 2804
-1981.66 267.656 2837
-1974.88 267.656 2837
-1968.1 267.656 2837
-1964.77 268.128 2842
-1961.42 268.6 2847
-1954.61 268.6 2847
-1947.8 268.6 2847
-1940.99 268.6 2847
-1930.79 268.128 2842
-1960.55 273.223 2896
-1953.62 273.223 2896
-1953.42 274.166 2906
-1957.19 275.676 2922
-1963.55 277.563 2942
-1956.52 277.563 2942
-1977.31 281.525 2984
-1988 284.072 3011
-1988.04 285.11 3022
-1980.81 285.11 3022
-1973.58 285.11 3022
-1966.36 285.11 3022
-1963.02 285.676 3028
-1955.78 285.676 3028
-1948.54 285.676 3028
-2130.49 333.415 3534
-2122.04 333.415 3534
-2113.59 333.415 3534
-2105.14 333.415 3534
-2096.69 333.415 3534
-2088.24 333.415 3534
-2079.78 333.415 3534
-2071.33 333.415 3534
-2062.88 333.415 3534
-2054.43 333.415 3534
-2041.93 332.754 3527
-2033.49 332.754 3527
-2029.08 333.415 3534
-2020.63 333.415 3534
-2012.18 333.415 3534
-2003.73 333.415 3534
-1995.28 333.415 3534
-1978.95 332.094 3520
-1974.46 332.754 3527
-1966.02 332.754 3527
-1957.59 332.754 3527
-1949.15 332.754 3527
-1940.72 332.754 3527
