ply
format ascii 1.0
comment File generated
element vertex 2262
property float x
property float y
property float z
end_header
145.389 72.4978 2104
150.563 72.5668 2106
156.042 72.7735 2112
161.093 72.7735 2112
166.301 72.8424 2114
171.599 72.9458 2117
177.079 73.1181 2122
182.153 73.1181 2122
187.492 73.2215 2125
192.845 73.3248 2128
198.213 73.4282 2131
203.309 73.4282 2131
208.405 73.4282 2131
213.501 73.4282 2131
218.802 73.4971 2133
223.902 73.4971 2133
229.325 73.6005 2136
235.092 73.8072 2142
240.774 73.9795 2147
245.909 73.9795 2147
251.393 74.0829 2150
257.489 74.3585 2158
263.015 74.4619 2161
268.182 74.4619 2161
273.35 74.4619 2161
334.383 73.1181 2122
339.458 73.1181 2122
344.532 73.1181 2122
349.277 73.0492 2120
354.346 73.0492 2120
359.416 73.0492 2120
364.486 73.0492 2120
369.555 73.0492 2120
374.095 72.9458 2117
377.724 72.6701 2109
382.767 72.6701 2109
387.811 72.6701 2109
392.854 72.6701 2109
397.897 72.6701 2109
402.94 72.6701 2109
407.984 72.6701 2109
413.027 72.6701 2109
591.235 101.545 2947
598.283 101.545 2947
605.33 101.545 2947
612.377 101.545 2947
617.322 101.201 2937
623.283 101.028 2932
630.294 101.028 2932
636.218 100.856 2927
643.218 100.856 2927
649.106 100.684 2922
654.971 100.512 2917
661.946 100.512 2917
668.922 100.512 2917
673.349 100.132 2906
680.298 100.132 2906
687.247 100.132 2906
694.196 100.132 2906
701.145 100.132 2906
708.094 100.132 2906
715.043 100.132 2906
721.992 100.132 2906
728.942 100.132 2906
735.891 100.132 2906
742.84 100.132 2906
749.789 100.132 2906
758.04 100.305 2911
765.001 100.305 2911
771.962 100.305 2911
778.923 100.305 2911
785.884 100.305 2911
792.845 100.305 2911
799.807 100.305 2911
806.768 100.305 2911
813.729 100.305 2911
820.69 100.305 2911
827.651 100.305 2911
834.612 100.305 2911
841.573 100.305 2911
848.534 100.305 2911
855.495 100.305 2911
864.234 100.512 2917
871.209 100.512 2917
878.185 100.512 2917
881.822 100.132 2906
888.771 100.132 2906
895.721 100.132 2906
902.67 100.132 2906
911.184 100.305 2911
918.145 100.305 2911
925.106 100.305 2911
933.988 100.512 2917
945.802 101.028 2932
961.263 101.924 2958
968.336 101.924 2958
978.707 102.269 2968
1000.09 103.75 3011
1007.29 103.75 3011
1014.49 103.75 3011
1328.97 126.906 3683
1340.69 127.181 3691
1349.51 127.181 3691
1358.34 127.181 3691
1364.2 126.906 3683
1373.01 126.906 3683
1381.82 126.906 3683
1387.6 126.63 3675
1389.93 126.044 3658
1398.68 126.044 3658
1404.35 125.769 3650
1409.98 125.493 3642
1400.38 123.873 3595
1408.98 123.873 3595
1417.57 123.873 3595
1426.17 123.873 3595
1431.97 123.632 3588
1431.32 122.84 3565
1439.84 122.84 3565
1426.84 121.014 3512
1423.38 120.014 3483
1416.92 118.774 3447
1425.16 118.774 3447
1418.85 117.568 3412
1421.15 117.085 3398
1423.39 116.603 3384
1431.48 116.603 3384
1413.62 114.501 3323
1421.57 114.501 3323
1420.91 113.812 3303
1428.81 113.812 3303
1436.71 113.812 3303
1444.61 113.812 3303
1458.66 114.294 3317
1514.79 118.05 3426
1541.65 119.497 3468
1549.94 119.497 3468
1574.86 120.772 3505
1596.34 121.772 3534
1632.49 123.873 3595
1641.09 123.873 3595
1664.37 124.976 3627
1673.04 124.976 3627
1681.72 124.976 3627
1690.39 124.976 3627
1699.06 124.976 3627
1700.2 124.425 3611
1720.2 125.252 3635
1728.89 125.252 3635
1737.58 125.252 3635
1738.59 124.7 3619
1747.24 124.7 3619
1748.13 124.149 3603
1752.85 123.873 3595
1738.91 122.288 3549
1721.79 120.497 3497
1730.15 120.497 3497
1713.66 118.774 3447
1707.91 117.809 3419
1677.94 115.19 3343
1685.94 115.19 3343
1670.62 113.605 3297
1655.6 112.055 3252
1647.52 110.986 3221
1633.12 109.505 3178
1640.72 109.505 3178
1642.1 109.091 3166
1646.54 108.885 3160
1650.96 108.678 3154
1674.27 109.712 3184
1681.89 109.712 3184
1689.5 109.712 3184
1697.12 109.712 3184
1704.73 109.712 3184
1699.44 108.885 3160
1703.75 108.678 3154
1701.53 108.058 3136
1709.03 108.058 3136
1713.24 107.851 3130
1698.19 106.438 3089
1690.11 105.473 3061
1673.03 103.957 3017
1680.25 103.957 3017
1660.06 102.269 2968
1652.55 101.373 2942
1648.3 100.684 2922
1655.29 100.684 2922
1650.33 99.9602 2901
1651.56 99.6156 2891
1652.73 99.2711 2881
1653.86 98.9265 2871
1660.73 98.9265 2871
1664.69 98.7542 2866
1666.29 98.4441 2857
1664.34 97.9272 2842
1671.14 97.9272 2842
1672.03 97.5827 2832
1676.43 97.4448 2828
1680.22 97.2725 2823
1686.97 97.2725 2823
1693.72 97.2725 2823
1697.46 97.1003 2818
1701.17 96.928 2813
1707.9 96.928 2813
1714.62 96.928 2813
1718.9 96.7901 2809
1719.48 96.4456 2799
1723.09 96.2733 2794
1729.77 96.2733 2794
1730.86 95.9632 2785
1734.4 95.7909 2780
1738.54 95.6531 2776
1745.18 95.6531 2776
1751.82 95.6531 2776
1755.29 95.4808 2771
1761.91 95.4808 2771
1768.54 95.4808 2771
1772.6 95.3429 2767
1776 95.1707 2762
1782.61 95.1707 2762
1785.97 94.9984 2757
1792.57 94.9984 2757
1796.55 94.8605 2753
1803.13 94.8605 2753
1806.43 94.6883 2748
1813 94.6883 2748
1816.92 94.5504 2744
1823.49 94.5504 2744
1830.05 94.5504 2744
1836.61 94.5504 2744
1843.17 94.5504 2744
1849.73 94.5504 2744
1856.29 94.5504 2744
1862.86 94.5504 2744
1869.42 94.5504 2744
1869.83 94.2403 2735
1876.37 94.2403 2735
1879.46 94.068 2730
1885.99 94.068 2730
1889.75 93.9302 2726
1892.79 93.7579 2721
1896.5 93.6201 2717
1903 93.6201 2717
1906.69 93.4823 2713
1913.17 93.4823 2713
1913.29 93.1721 2704
1919.76 93.1721 2704
1926.23 93.1721 2704
1932.69 93.1721 2704
1939.16 93.1721 2704
1945.62 93.1721 2704
1952.09 93.1721 2704
1954.93 92.9999 2699
1961.39 92.9999 2699
1967.84 92.9999 2699
1974.3 92.9999 2699
1977.82 92.862 2695
1984.26 92.862 2695
1984.06 92.5519 2686
1990.48 92.5519 2686
1996.9 92.5519 2686
1997.36 92.2763 2678
2000.02 92.104 2673
2006.41 92.104 2673
2029.37 92.862 2695
2035.82 92.862 2695
2052.11 93.31 2708
2068.47 93.7579 2721
2085.65 94.2403 2735
2092.19 94.2403 2735
-2103.17 103.519 2809
-2096.45 103.519 2809
-2089.73 103.519 2809
-2079.31 103.335 2804
-2072.6 103.335 2804
-2058.53 102.966 2794
-2051.85 102.966 2794
-2045.17 102.966 2794
-2031.92 102.635 2785
-2025.26 102.635 2785
-2018.6 102.635 2785
-2001.83 102.119 2771
-1982.24 101.455 2753
-1969.2 101.124 2744
-1962.64 101.124 2744
-1924 99.4653 2699
-1893.39 98.2123 2665
-1877.81 97.7333 2652
-1871.47 97.7333 2652
-1865.12 97.7333 2652
-1861.59 97.8807 2656
-1855.23 97.8807 2656
-1860.72 98.5072 2673
-1854.33 98.5072 2673
-1847.93 98.5072 2673
-1349 121.503 3297
-1341.11 121.503 3297
-1333.23 121.503 3297
-1312.48 120.324 3265
-1304.68 120.324 3265
-1296.87 120.324 3265
-1276.43 119.145 3233
-1266.34 118.924 3227
-1258.62 118.924 3227
-1250.91 118.924 3227
-1243.19 118.924 3227
-1209.82 116.454 3160
-1186.29 114.907 3118
-1178.83 114.907 3118
-1160.48 113.838 3089
-1148.99 113.432 3078
-1137.55 113.027 3067
-1130.21 113.027 3067
-1122.88 113.027 3067
-1111.18 112.585 3055
-1103.87 112.585 3055
-1092.62 112.179 3044
-1085.34 112.179 3044
-1078.06 112.179 3044
-1069.02 111.995 3039
-1055.82 111.369 3022
-1048.59 111.369 3022
-1035.85 110.779 3006
-1028.66 110.779 3006
-1021.47 110.779 3006
-1014.29 110.779 3006
-1007.1 110.779 3006
-999.909 110.779 3006
-992.721 110.779 3006
-985.533 110.779 3006
-976.392 110.558 3000
-969.218 110.558 3000
-962.044 110.558 3000
-954.87 110.558 3000
-947.696 110.558 3000
-938.955 110.374 2995
-931.793 110.374 2995
-924.631 110.374 2995
-914.099 109.968 2984
-906.963 109.968 2984
-898.32 109.784 2979
-891.196 109.784 2979
-884.073 109.784 2979
-875.477 109.6 2974
-868.365 109.6 2974
-861.254 109.6 2974
-849.547 109.01 2958
-841.049 108.826 2953
-832.293 108.605 2947
-822.446 108.236 2937
-815.422 108.236 2937
-805.647 107.868 2927
-798.647 107.868 2927
-791.648 107.868 2927
-784.648 107.868 2927
-776.321 107.683 2922
-768.017 107.499 2917
-761.042 107.499 2917
-754.066 107.499 2917
-747.091 107.499 2917
-740.115 107.499 2917
-733.14 107.499 2917
-726.164 107.499 2917
-719.189 107.499 2917
-712.214 107.499 2917
-703.787 107.278 2911
-696.826 107.278 2911
-689.865 107.278 2911
-684.312 107.499 2917
-678.497 107.683 2922
-672.659 107.868 2927
-665.66 107.868 2927
-660.911 108.236 2937
-653.887 108.236 2937
-649.067 108.605 2947
-642.019 108.605 2947
-638.42 109.194 2963
-633.678 109.6 2974
-626.566 109.6 2974
-619.455 109.6 2974
-612.343 109.6 2974
-680.21 134.217 3642
-674.451 134.807 3658
-665.704 134.807 3658
-656.956 134.807 3658
-658.487 136.944 3716
-655.369 138.161 3749
-646.404 138.161 3749
-649.171 140.703 3818
-640.041 140.703 3818
-630.911 140.703 3818
-621.781 140.703 3818
-613.935 140.998 3826
-604.786 140.998 3826
-595.637 140.998 3826
-586.488 140.998 3826
-574.773 140.372 3809
-563.14 139.745 3792
-554.072 139.745 3792
-545.005 139.745 3792
-534.665 139.414 3783
-526.869 139.745 3792
-517.801 139.745 3792
-508.733 139.745 3792
-499.666 139.745 3792
-490.598 139.745 3792
-483.689 140.372 3809
-476.698 140.998 3826
-467.549 140.998 3826
-458.4 140.998 3826
-449.251 140.998 3826
-440.102 140.998 3826
-430.953 140.998 3826
-419.929 140.372 3809
-410.821 140.372 3809
-401.712 140.372 3809
-391.676 140.04 3800
-180.228 81.4444 2210
-174.943 81.4444 2210
-169.658 81.4444 2210
-163.927 81.2233 2204
-158.441 81.1127 2201
-153.177 81.1127 2201
-147.914 81.1127 2201
-142.456 81.0022 2198
-137.013 80.8916 2195
-131.584 80.781 2192
-126.169 80.6705 2189
-120.935 80.6705 2189
-115.542 80.5599 2186
-110.062 80.3757 2181
-104.847 80.3757 2181
-99.6312 80.3757 2181
-94.4157 80.3757 2181
-89.2003 80.3757 2181
-83.8694 80.2651 2178
-78.6611 80.2651 2178
-73.3517 80.1545 2175
-68.0566 80.044 2172
-62.8627 80.044 2172
-57.6688 80.044 2172
-52.4024 79.9334 2169
-47.1721 79.8597 2167
-41.932 79.7492 2164
-36.7572 79.7492 2164
-31.5387 79.6386 2161
-26.3345 79.528 2158
-21.174 79.528 2158
-16.0136 79.528 2158
-10.8381 79.4175 2155
-5.66371 79.1227 2147
-0.528842 79.0121 2144
4.58739 78.8278 2139
9.70239 78.8278 2139
14.7758 78.6067 2133
19.8578 78.533 2131
24.8834 78.3119 2125
29.965 78.3119 2125
34.997 78.2013 2122
40.0336 78.1276 2120
45.0393 78.0171 2117
50.1017 78.0171 2117
55.0338 77.8328 2112
59.9989 77.7223 2109
64.9496 77.6117 2106
69.9857 77.6117 2106
74.9505 77.538 2104
79.8678 77.4274 2101
84.8919 77.4274 2101
89.9161 77.4274 2101
94.8046 77.3169 2098
99.8216 77.3169 2098
104.839 77.3169 2098
109.855 77.3169 2098
114.872 77.3169 2098
119.889 77.3169 2098
125.085 77.4274 2101
130.109 77.4274 2101
135.326 77.538 2104
140.357 77.538 2104
145.389 77.538 2104
150.563 77.6117 2106
156.042 77.8328 2112
161.093 77.8328 2112
166.301 77.9065 2114
171.599 78.0171 2117
176.912 78.1276 2120
181.981 78.1276 2120
187.492 78.3119 2125
192.845 78.4225 2128
198.213 78.533 2131
203.309 78.533 2131
208.405 78.533 2131
213.501 78.533 2131
218.802 78.6067 2133
223.902 78.6067 2133
229.325 78.7173 2136
235.092 78.9384 2142
240.214 78.9384 2142
245.336 78.9384 2142
251.393 79.2332 2150
257.489 79.528 2158
262.65 79.528 2158
267.81 79.528 2158
273.35 79.6386 2161
278.518 79.6386 2161
283.685 79.6386 2161
334.383 78.2013 2122
339.458 78.2013 2122
344.532 78.2013 2122
349.606 78.2013 2122
354.681 78.2013 2122
359.416 78.1276 2120
364.486 78.1276 2120
369.555 78.1276 2120
374.625 78.1276 2120
378.261 77.8328 2112
383.312 77.8328 2112
388.362 77.8328 2112
393.413 77.8328 2112
398.463 77.8328 2112
403.514 77.8328 2112
408.564 77.8328 2112
413.614 77.8328 2112
590.232 108.421 2942
597.268 108.421 2942
604.303 108.421 2942
610.299 108.236 2937
617.322 108.236 2937
622.22 107.868 2927
629.219 107.868 2927
636.218 107.868 2927
642.119 107.683 2922
647.996 107.499 2917
654.971 107.499 2917
661.946 107.499 2917
667.546 107.278 2911
673.349 107.094 2906
680.298 107.094 2906
687.247 107.094 2906
694.196 107.094 2906
701.145 107.094 2906
708.094 107.094 2906
715.043 107.094 2906
721.992 107.094 2906
728.942 107.094 2906
735.891 107.094 2906
742.84 107.094 2906
749.789 107.094 2906
758.04 107.278 2911
765.001 107.278 2911
771.962 107.278 2911
778.923 107.278 2911
785.884 107.278 2911
792.845 107.278 2911
799.807 107.278 2911
806.768 107.278 2911
813.729 107.278 2911
820.69 107.278 2911
827.651 107.278 2911
834.612 107.278 2911
841.573 107.278 2911
848.534 107.278 2911
855.495 107.278 2911
864.234 107.499 2917
871.209 107.499 2917
878.185 107.499 2917
881.822 107.094 2906
888.771 107.094 2906
895.721 107.094 2906
902.67 107.094 2906
909.619 107.094 2906
916.568 107.094 2906
923.517 107.094 2906
932.067 107.278 2911
942.577 107.683 2922
952.814 108.052 2932
964.735 108.605 2947
971.783 108.605 2947
978.83 108.605 2947
985.877 108.605 2947
992.924 108.605 2947
1346.66 137.534 3732
1355.58 137.534 3732
1364.5 137.534 3732
1373.43 137.534 3732
1376.43 136.944 3716
1385.31 136.944 3716
1394.2 136.944 3716
1396.67 136.318 3699
1396.39 135.434 3675
1405.18 135.434 3675
1413.97 135.434 3675
1413.08 134.512 3650
1409.73 133.37 3619
1418.38 133.37 3619
1423.88 133.075 3611
1432.52 133.075 3611
1437.96 132.78 3603
1437.34 131.933 3580
1445.9 131.933 3580
1430.09 129.721 3520
1426.24 128.616 3490
1419.79 127.289 3454
1428.05 127.289 3454
1424.67 126.257 3426
1424.08 125.483 3405
1423.39 124.709 3384
1431.48 124.709 3384
1413.62 122.461 3323
1421.57 122.461 3323
1418.33 121.503 3297
1426.21 121.503 3297
1436.71 121.724 3303
1444.61 121.724 3303
1464.38 122.719 3330
1527.17 127.289 3454
1548.32 128.358 3483
1556.65 128.358 3483
1584.75 129.979 3527
1617.12 131.933 3580
1639.76 133.075 3611
1648.39 133.075 3611
1690.07 135.728 3683
1698.88 135.728 3683
1707.68 135.728 3683
1716.49 135.728 3683
1721.55 135.434 3675
1726.57 135.139 3667
1735.34 135.139 3667
1739.83 134.807 3658
1740.93 134.217 3642
1746.27 133.959 3635
1754.97 133.959 3635
1752.01 133.075 3611
1752.85 132.485 3595
1738.91 130.79 3549
1721.79 128.874 3497
1730.15 128.874 3497
1713.66 127.031 3447
1707.91 125.999 3419
1674.93 122.977 3337
1682.91 122.977 3337
1667.07 121.245 3290
1639.81 118.702 3221
1625.52 117.118 3178
1617.71 116.012 3148
1625.23 116.012 3148
1623.42 115.349 3130
1630.91 115.349 3130
1632.11 114.907 3118
1652.19 115.791 3142
1659.7 115.791 3142
1667.22 115.791 3142
1674.73 115.791 3142
1682.24 115.791 3142
1670.93 114.501 3107
1678.36 114.501 3107
1666.8 113.211 3072
1674.15 113.211 3072
1681.5 113.211 3072
1676.75 112.401 3050
1656.43 110.558 3000
1643.09 109.194 2963
1650.17 109.194 2963
1634.33 107.683 2922
1632.33 107.094 2906
1633.64 106.725 2896
1640.56 106.725 2896
1644.64 106.541 2891
1642.99 105.988 2876
1644.13 105.62 2866
1650.98 105.62 2866
1657.83 105.62 2866
1662.36 105.472 2862
1660.46 104.92 2847
1661.41 104.551 2837
1668.2 104.551 2837
1672.03 104.367 2832
1678.8 104.367 2832
1680.22 104.035 2823
1686.97 104.035 2823
1693.72 104.035 2823
1700.47 104.035 2823
1704.19 103.851 2818
1707.9 103.667 2813
1714.62 103.667 2813
1721.35 103.667 2813
1722.55 103.335 2804
1726.17 103.151 2799
1732.86 103.151 2799
1733.96 102.819 2790
1737.52 102.635 2785
1741.04 102.45 2780
1747.69 102.45 2780
1754.34 102.45 2780
1758.45 102.303 2776
1765.09 102.303 2776
1771.73 102.303 2776
1775.17 102.119 2771
1779.22 101.971 2767
1785.84 101.971 2767
1789.21 101.787 2762
1795.82 101.787 2762
1799.16 101.603 2757
1805.75 101.603 2757
1809.72 101.455 2753
1816.3 101.455 2753
1819.57 101.271 2748
1826.14 101.271 2748
1832.72 101.271 2748
1839.29 101.271 2748
1845.86 101.271 2748
1849.73 101.124 2744
1856.29 101.124 2744
1862.86 101.124 2744
1869.42 101.124 2744
1875.98 101.124 2744
1882.54 101.124 2744
1882.91 100.792 2735
1889.45 100.792 2735
1892.52 100.608 2730
1896.27 100.46 2726
1899.3 100.276 2721
1905.8 100.276 2721
1909.5 100.129 2717
1916 100.129 2717
1919.66 99.9813 2713
1926.15 99.9813 2713
1932.64 99.9813 2713
1939.12 99.9813 2713
1945.61 99.9813 2713
1948.5 99.797 2708
1954.98 99.797 2708
1958.56 99.6496 2704
1965.02 99.6496 2704
1967.84 99.4653 2699
1974.3 99.4653 2699
1980.75 99.4653 2699
1987.21 99.4653 2699
1990.7 99.3179 2695
1997.15 99.3179 2695
2000.62 99.1705 2691
2003.33 98.9862 2686
2006.76 98.8388 2682
2013.17 98.8388 2682
2036.15 99.6496 2704
2042.62 99.6496 2704
2061.96 100.276 2721
2072.27 100.46 2726
2085.65 100.792 2735
2092.19 100.792 2735
-2103.17 110.248 2809
-2096.45 110.248 2809
-2089.73 110.248 2809
-2079.31 110.052 2804
-2072.6 110.052 2804
-2058.53 109.659 2794
-2051.85 109.659 2794
-2045.17 109.659 2794
-2031.92 109.306 2785
-2025.26 109.306 2785
-2018.6 109.306 2785
-1998.94 108.6 2767
-1982.24 108.05 2753
-1969.2 107.697 2744
-1962.64 107.697 2744
-1924 105.931 2699
-1893.39 104.596 2665
-1877.81 104.086 2652
-1871.47 104.086 2652
-1865.12 104.086 2652
-1861.59 104.243 2656
-1855.23 104.243 2656
-1860.72 104.91 2673
-1854.33 104.91 2673
-1847.93 104.91 2673
-1335.91 128.145 3265
-1328.1 128.145 3265
-1320.29 128.145 3265
-1309.67 127.871 3258
-1291.89 126.889 3233
-1284.16 126.889 3233
-1276.43 126.889 3233
-1266.34 126.654 3227
-1258.62 126.654 3227
-1250.91 126.654 3227
-1243.19 126.654 3227
-1209.82 124.024 3160
-1186.29 122.376 3118
-1178.83 122.376 3118
-1158.6 121.041 3084
-1148.99 120.806 3078
-1135.32 120.139 3061
-1128 120.139 3061
-1120.68 120.139 3061
-1111.18 119.903 3055
-1099.9 119.471 3044
-1090.83 119.275 3039
-1083.56 119.275 3039
-1076.29 119.275 3039
-1065.15 118.843 3028
-1051.97 118.176 3011
-1044.77 118.176 3011
-1035.85 117.98 3006
-1028.66 117.98 3006
-1021.47 117.98 3006
-1014.29 117.98 3006
-1007.1 117.98 3006
-999.909 117.98 3006
-992.721 117.98 3006
-985.533 117.98 3006
-976.392 117.745 3000
-969.218 117.745 3000
-962.044 117.745 3000
-954.87 117.745 3000
-947.696 117.745 3000
-938.955 117.548 2995
-931.793 117.548 2995
-924.631 117.548 2995
-914.099 117.117 2984
-906.963 117.117 2984
-898.32 116.92 2979
-891.196 116.92 2979
-884.073 116.92 2979
-875.477 116.724 2974
-868.365 116.724 2974
-861.254 116.724 2974
-849.547 116.096 2958
-841.049 115.9 2953
-832.293 115.664 2947
-822.446 115.272 2937
-815.422 115.272 2937
-805.647 114.879 2927
-798.647 114.879 2927
-791.648 114.879 2927
-784.648 114.879 2927
-776.321 114.683 2922
-768.017 114.487 2917
-761.042 114.487 2917
-754.066 114.487 2917
-747.091 114.487 2917
-740.115 114.487 2917
-733.14 114.487 2917
-726.164 114.487 2917
-719.189 114.487 2917
-712.214 114.487 2917
-703.787 114.251 2911
-696.826 114.251 2911
-689.865 114.251 2911
-684.312 114.487 2917
-678.497 114.683 2922
-672.659 114.879 2927
-665.66 114.879 2927
-660.911 115.272 2937
-653.887 115.272 2937
-649.067 115.664 2947
-642.019 115.664 2947
-638.42 116.292 2963
-633.678 116.724 2974
-626.566 116.724 2974
-619.455 116.724 2974
-612.343 116.724 2974
-656.956 143.57 3658
-658.487 145.846 3716
-670.403 150.517 3835
-661.233 150.517 3835
-655.122 151.223 3853
-645.909 151.223 3853
-636.695 151.223 3853
-624.55 150.517 3835
-624.044 152.636 3889
-614.745 152.636 3889
-606.846 152.989 3898
-597.525 152.989 3898
-589.561 153.343 3907
-580.219 153.343 3907
-570.876 153.343 3907
-561.533 153.343 3907
-552.19 153.343 3907
-545.348 154.049 3925
-535.962 154.049 3925
-526.577 154.049 3925
-517.191 154.049 3925
-490.598 148.829 3792
-483.689 149.496 3809
-476.698 150.163 3826
-467.549 150.163 3826
-458.4 150.163 3826
-449.251 150.163 3826
-440.102 150.163 3826
-430.953 150.163 3826
-419.929 149.496 3809
-410.821 149.496 3809
-401.712 149.496 3809
-391.676 149.143 3800
-180.228 86.7385 2210
-174.943 86.7385 2210
-169.658 86.7385 2210
-163.927 86.503 2204
-158.225 86.2675 2198
-152.969 86.2675 2198
-147.713 86.2675 2198
-142.456 86.2675 2198
-136.826 86.032 2192
-131.584 86.032 2192
-126.169 85.9142 2189
-120.935 85.9142 2189
-115.542 85.7965 2186
-110.213 85.718 2184
-104.991 85.718 2184
-99.7682 85.718 2184
-94.5456 85.718 2184
-89.323 85.718 2184
-83.9849 85.6003 2181
-78.7694 85.6003 2181
-73.554 85.6003 2181
-68.2446 85.4825 2178
-63.0363 85.4825 2178
-57.8281 85.4825 2178
-52.5473 85.3648 2175
-47.3462 85.3648 2175
-42.0289 85.1293 2169
-36.8422 85.1293 2169
-31.6554 85.1293 2169
-26.4443 85.0508 2167
-21.2329 84.933 2164
-16.0581 84.933 2164
-10.8532 84.6975 2158
-5.68481 84.5798 2155
-0.529582 84.2658 2147
4.59811 84.1481 2144
9.72507 84.1481 2144
14.8174 83.9518 2139
19.8765 83.7163 2133
24.9537 83.6378 2131
30.0496 83.6378 2131
35.0465 83.4024 2125
40.0713 83.2846 2122
45.1031 83.2061 2120
50.1727 83.2061 2120
55.0859 82.9706 2114
60.0842 82.8921 2112
65.0421 82.7744 2109
70.0854 82.7744 2109
75.0218 82.6566 2106
80.0579 82.6566 2106
85.0132 82.5781 2104
90.0445 82.5781 2104
95.0758 82.5781 2104
100.107 82.5781 2104
104.988 82.4604 2101
110.013 82.4604 2101
115.201 82.5781 2104
120.232 82.5781 2104
125.264 82.5781 2104
130.295 82.5781 2104
135.455 82.6566 2106
140.491 82.6566 2106
145.527 82.6566 2106
150.778 82.7744 2109
156.042 82.8921 2112
161.093 82.8921 2112
166.301 82.9706 2114
171.599 83.0884 2117
176.912 83.2061 2120
181.981 83.2061 2120
187.492 83.4024 2125
192.845 83.5201 2128
198.213 83.6378 2131
203.309 83.6378 2131
208.405 83.6378 2131
213.501 83.6378 2131
218.802 83.7163 2133
223.902 83.7163 2133
229.325 83.8341 2136
235.092 84.0696 2142
240.214 84.0696 2142
245.336 84.0696 2142
251.393 84.3836 2150
257.489 84.6975 2158
262.65 84.6975 2158
267.81 84.6975 2158
273.73 84.933 2164
279.549 85.1293 2169
286.311 85.6003 2181
291.526 85.6003 2181
296.742 85.6003 2181
301.957 85.6003 2181
334.856 83.4024 2125
339.938 83.4024 2125
345.019 83.4024 2125
350.101 83.4024 2125
354.681 83.2846 2122
359.755 83.2846 2122
364.829 83.2846 2122
369.904 83.2846 2122
374.625 83.2061 2120
378.62 82.9706 2114
383.675 82.9706 2114
388.362 82.8921 2112
393.413 82.8921 2112
398.841 82.9706 2114
403.896 82.9706 2114
572.222 116.096 2958
580.274 116.292 2963
587.36 116.292 2963
594.445 116.292 2963
597.268 115.468 2942
604.303 115.468 2942
611.338 115.468 2942
617.322 115.272 2937
623.283 115.076 2932
630.294 115.076 2932
636.218 114.879 2927
642.119 114.683 2922
647.996 114.487 2917
654.971 114.487 2917
661.946 114.487 2917
667.546 114.251 2911
673.349 114.055 2906
680.298 114.055 2906
687.247 114.055 2906
694.196 114.055 2906
701.145 114.055 2906
708.094 114.055 2906
715.043 114.055 2906
721.992 114.055 2906
728.942 114.055 2906
737.157 114.251 2911
744.118 114.251 2911
751.079 114.251 2911
758.04 114.251 2911
766.578 114.487 2917
773.553 114.487 2917
780.529 114.487 2917
787.504 114.487 2917
792.845 114.251 2911
801.455 114.487 2917
808.43 114.487 2917
815.406 114.487 2917
822.381 114.487 2917
829.357 114.487 2917
836.332 114.487 2917
843.308 114.487 2917
850.283 114.487 2917
857.259 114.487 2917
864.234 114.487 2917
871.209 114.487 2917
878.185 114.487 2917
881.822 114.055 2906
888.771 114.055 2906
895.721 114.055 2906
902.67 114.055 2906
909.619 114.055 2906
916.568 114.055 2906
923.517 114.055 2906
932.067 114.251 2911
942.577 114.683 2922
952.814 115.076 2932
964.735 115.664 2947
971.783 115.664 2947
978.83 115.664 2947
985.877 115.664 2947
992.924 115.664 2947
1352.79 147.141 3749
1361.75 147.141 3749
1370.72 147.141 3749
1376.37 146.788 3740
1382.35 146.474 3732
1391.28 146.474 3732
1397.2 146.16 3724
1396.67 145.179 3699
1402.47 144.865 3691
1411.3 144.865 3691
1413.97 144.237 3675
1419.66 143.923 3667
1409.73 142.039 3619
1418.38 142.039 3619
1427.04 142.039 3619
1435.69 142.039 3619
1441.15 141.725 3611
1437.34 140.508 3580
1445.9 140.508 3580
1430.09 138.154 3520
1426.24 136.976 3490
1419.79 135.563 3454
1428.05 135.563 3454
1424.67 134.464 3426
1424.08 133.64 3405
1423.39 132.816 3384
1431.48 132.816 3384
1413.62 130.422 3323
1421.57 130.422 3323
1420.91 129.637 3303
1428.81 129.637 3303
1445.41 130.422 3323
1453.35 130.422 3323
1481.97 132.266 3370
1533.36 136.113 3468
1558.1 137.565 3505
1566.48 137.565 3505
1584.75 138.428 3527
1623.9 141.097 3595
1672.45 144.551 3683
1681.26 144.551 3683
1708.88 146.16 3724
1717.79 146.16 3724
1726.69 146.16 3724
1735.6 146.16 3724
1736.54 145.493 3707
1734.1 144.551 3683
1742.91 144.551 3683
1747.91 144.237 3675
1752.88 143.923 3667
1746.27 142.667 3635
1754.97 142.667 3635
1752.01 141.725 3611
1752.85 141.097 3595
1738.91 139.292 3549
1721.79 137.251 3497
1730.15 137.251 3497
1713.66 135.288 3447
1707.91 134.189 3419
1674.93 130.971 3337
1682.91 130.971 3337
1667.07 129.126 3290
1639.81 126.418 3221
1625.52 124.731 3178
1617.71 123.553 3148
1625.23 123.553 3148
1623.42 122.847 3130
1630.91 122.847 3130
1632.11 122.376 3118
1652.19 123.318 3142
1659.7 123.318 3142
1667.22 123.318 3142
1674.73 123.318 3142
1682.24 123.318 3142
1670.93 121.944 3107
1678.36 121.944 3107
1666.8 120.57 3072
1674.15 120.57 3072
1681.5 120.57 3072
1676.75 119.707 3050
1656.43 117.745 3000
1643.09 116.292 2963
1650.17 116.292 2963
1634.33 114.683 2922
1632.33 114.055 2906
1633.64 113.663 2896
1640.56 113.663 2896
1644.64 113.466 2891
1642.99 112.878 2876
1644.13 112.485 2866
1650.98 112.485 2866
1657.83 112.485 2866
1662.36 112.328 2862
1660.46 111.74 2847
1661.41 111.347 2837
1668.2 111.347 2837
1672.03 111.151 2832
1678.8 111.151 2832
1680.22 110.798 2823
1686.97 110.798 2823
1693.72 110.798 2823
1700.47 110.798 2823
1704.19 110.601 2818
1707.9 110.405 2813
1714.62 110.405 2813
1721.35 110.405 2813
1725.62 110.248 2809
1729.25 110.052 2804
1735.96 110.052 2804
1736.45 109.659 2794
1740.63 109.502 2790
1747.31 109.502 2790
1753.98 109.502 2790
1757.49 109.306 2785
1760.99 109.11 2780
1765.09 108.953 2776
1771.73 108.953 2776
1778.37 108.953 2776
1781.79 108.757 2771
1788.42 108.757 2771
1792.45 108.6 2767
1799.07 108.6 2767
1802.42 108.403 2762
1809.03 108.403 2762
1812.35 108.207 2757
1818.94 108.207 2757
1825.53 108.207 2757
1829.47 108.05 2753
1836.05 108.05 2753
1842.63 108.05 2753
1849.22 108.05 2753
1855.8 108.05 2753
1862.38 108.05 2753
1868.97 108.05 2753
1875.55 108.05 2753
1878.71 107.854 2748
1885.29 107.854 2748
1889.1 107.697 2744
1895.66 107.697 2744
1895.99 107.344 2735
1899.05 107.147 2730
1902.79 106.991 2726
1909.3 106.991 2726
1912.31 106.794 2721
1918.82 106.794 2721
1922.49 106.637 2717
1928.99 106.637 2717
1932.64 106.48 2713
1939.12 106.48 2713
1945.61 106.48 2713
1948.5 106.284 2708
1954.98 106.284 2708
1958.56 106.127 2704
1965.02 106.127 2704
1967.84 105.931 2699
1974.3 105.931 2699
1980.75 105.931 2699
1987.21 105.931 2699
1993.66 105.931 2699
2000.11 105.931 2699
2003.59 105.774 2695
2007.06 105.617 2691
2013.49 105.617 2691
2019.93 105.617 2691
2039.16 106.284 2708
2045.64 106.284 2708
2061.96 106.794 2721
2075.31 107.147 2730
2085.65 107.344 2735
2092.19 107.344 2735
-2106.16 117.144 2813
-2099.44 117.144 2813
-2092.71 117.144 2813
-2083.02 116.977 2809
-2072.6 116.769 2804
-2065.9 116.769 2804
-2059.19 116.769 2804
-2045.17 116.352 2794
-2038.49 116.352 2794
-2031.8 116.352 2794
-2025.12 116.352 2794
-2005.44 115.603 2776
-1992.32 115.228 2767
-1969.2 114.27 2744
-1962.64 114.27 2744
-1924 112.396 2699
-1896.23 111.147 2669
-1880.64 110.606 2656
-1874.29 110.606 2656
-1865.12 110.439 2652
-1861.59 110.606 2656
-1855.23 110.606 2656
-1860.72 111.314 2673
-1854.33 111.314 2673
-1847.93 111.314 2673
-1841.54 111.314 2673
-1835.15 111.314 2673
-1328.13 135.175 3246
-1320.37 135.175 3246
-1312.61 135.175 3246
-1294.8 134.134 3221
-1287.09 134.134 3221
-1281.77 134.384 3227
-1274.06 134.384 3227
-1266.34 134.384 3227
-1268.37 135.425 3252
-1260.6 135.425 3252
-1252.82 135.425 3252
-1119.89 126.555 3039
-1112.63 126.555 3039
-1105.36 126.555 3039
-1098.09 126.555 3039
-1088.67 126.305 3033
-1081.42 126.305 3033
-1072.4 126.097 3028
-1061.28 125.639 3017
-1050.23 125.181 3006
-1043.04 125.181 3006
-1033.78 124.931 3000
-1026.61 124.931 3000
-1019.44 124.931 3000
-1012.26 124.931 3000
-1005.09 124.931 3000
-997.913 124.931 3000
-990.739 124.931 3000
-983.566 124.931 3000
-976.392 124.931 3000
-969.218 124.931 3000
-962.044 124.931 3000
-954.87 124.931 3000
-947.696 124.931 3000
-937.387 124.515 2990
-930.237 124.515 2990
-923.087 124.515 2990
-912.567 124.057 2979
-905.444 124.057 2979
-898.32 124.057 2979
-891.196 124.057 2979
-884.073 124.057 2979
-875.477 123.848 2974
-868.365 123.848 2974
-861.254 123.848 2974
-849.547 123.182 2958
-841.049 122.974 2953
-832.293 122.724 2947
-822.446 122.307 2937
-815.422 122.307 2937
-805.647 121.891 2927
-798.647 121.891 2927
-791.648 121.891 2927
-784.648 121.891 2927
-776.321 121.683 2922
-769.333 121.683 2922
-762.346 121.683 2922
-755.359 121.683 2922
-748.371 121.683 2922
-741.384 121.683 2922
-734.396 121.683 2922
-727.409 121.683 2922
-720.422 121.683 2922
-712.214 121.475 2917
-705.238 121.475 2917
-698.263 121.475 2917
-691.287 121.475 2917
-686.658 121.891 2927
-679.658 121.891 2927
-674.957 122.307 2937
-667.934 122.307 2937
-663.161 122.724 2947
-656.114 122.724 2947
-652.591 123.39 2963
-645.505 123.39 2963
-640.79 123.848 2974
-633.678 123.848 2974
-626.566 123.848 2974
-619.455 123.848 2974
-612.343 123.848 2974
-658.487 154.748 3716
-670.403 159.704 3835
-661.233 159.704 3835
-655.122 160.453 3853
-645.909 160.453 3853
-636.695 160.453 3853
-624.55 159.704 3835
-624.044 161.952 3889
-614.745 161.952 3889
-606.846 162.327 3898
-597.525 162.327 3898
-589.561 162.702 3907
-580.219 162.702 3907
-570.876 162.702 3907
-561.533 162.702 3907
-552.19 162.702 3907
-545.348 163.451 3925
-535.962 163.451 3925
-526.577 163.451 3925
-517.191 163.451 3925
-490.598 157.913 3792
-483.689 158.621 3809
-476.698 159.329 3826
-467.549 159.329 3826
-458.4 159.329 3826
-449.251 159.329 3826
-440.102 159.329 3826
-430.953 159.329 3826
-419.929 158.621 3809
-410.821 158.621 3809
-401.712 158.621 3809
-391.676 158.246 3800
-180.228 92.0325 2210
-174.943 92.0325 2210
-169.658 92.0325 2210
-163.704 91.6577 2201
-157.793 91.2829 2192
-152.551 91.2829 2192
-147.309 91.2829 2192
-141.679 91.0331 2186
-136.451 91.0331 2186
-131.224 91.0331 2186
-125.997 91.0331 2186
-120.769 91.0331 2186
-115.436 90.9498 2184
-110.213 90.9498 2184
-104.991 90.9498 2184
-99.7682 90.9498 2184
-94.5456 90.9498 2184
-89.323 90.9498 2184
-83.9849 90.8249 2181
-78.7694 90.8249 2181
-73.554 90.8249 2181
-68.2446 90.6999 2178
-63.0363 90.6999 2178
-57.8281 90.6999 2178
-52.5473 90.575 2175
-47.3462 90.575 2175
-42.0289 90.3251 2169
-36.8422 90.3251 2169
-31.6554 90.3251 2169
-26.4443 90.2419 2167
-21.2329 90.1169 2164
-16.0581 90.1169 2164
-10.8532 89.8671 2158
-5.68481 89.7421 2155
-0.529582 89.409 2147
4.59811 89.284 2144
9.72507 89.284 2144
14.8174 89.0758 2139
19.8765 88.826 2133
24.9537 88.7427 2131
30.0496 88.7427 2131
35.0465 88.4928 2125
40.0713 88.3679 2122
45.1031 88.2846 2120
50.1727 88.2846 2120
55.0859 88.0347 2114
60.0842 87.9514 2112
65.0421 87.8265 2109
70.0854 87.8265 2109
75.0218 87.7016 2106
80.0579 87.7016 2106
85.0132 87.6183 2104
90.0445 87.6183 2104
95.0758 87.6183 2104
100.107 87.6183 2104
104.988 87.4934 2101
110.013 87.4934 2101
115.201 87.6183 2104
120.232 87.6183 2104
125.264 87.6183 2104
130.295 87.6183 2104
135.455 87.7016 2106
140.491 87.7016 2106
145.527 87.7016 2106
150.778 87.8265 2109
156.042 87.9514 2112
161.093 87.9514 2112
166.301 88.0347 2114
171.356 88.0347 2114
176.912 88.2846 2120
181.981 88.2846 2120
187.492 88.4928 2125
192.845 88.6177 2128
198.213 88.7427 2131
203.309 88.7427 2131
208.405 88.7427 2131
213.501 88.7427 2131
218.802 88.826 2133
223.902 88.826 2133
229.325 88.9509 2136
234.433 88.9509 2136
240.214 89.2008 2142
245.336 89.2008 2142
251.043 89.409 2147
256.893 89.6588 2153
262.65 89.8671 2158
267.81 89.8671 2158
273.73 90.1169 2164
279.549 90.3251 2169
286.311 90.8249 2181
291.526 90.8249 2181
296.742 90.8249 2181
301.957 90.8249 2181
334.856 88.4928 2125
339.938 88.4928 2125
345.019 88.4928 2125
350.101 88.4928 2125
354.681 88.3679 2122
359.755 88.3679 2122
364.829 88.3679 2122
369.904 88.3679 2122
374.625 88.2846 2120
378.62 88.0347 2114
383.675 88.0347 2114
388.362 87.9514 2112
393.413 87.9514 2112
398.841 88.0347 2114
403.896 88.0347 2114
572.222 123.182 2958
580.274 123.39 2963
587.36 123.39 2963
594.445 123.39 2963
597.268 122.516 2942
604.303 122.516 2942
611.338 122.516 2942
617.322 122.307 2937
623.283 122.099 2932
630.294 122.099 2932
636.218 121.891 2927
642.119 121.683 2922
647.996 121.475 2917
654.971 121.475 2917
661.946 121.475 2917
667.546 121.225 2911
673.349 121.017 2906
679.127 120.808 2901
687.247 121.017 2906
694.196 121.017 2906
701.145 121.017 2906
708.094 121.017 2906
715.043 121.017 2906
721.992 121.017 2906
728.942 121.017 2906
737.157 121.225 2911
744.118 121.225 2911
751.079 121.225 2911
758.04 121.225 2911
766.578 121.475 2917
773.553 121.475 2917
780.529 121.475 2917
787.504 121.475 2917
792.845 121.225 2911
801.455 121.475 2917
808.43 121.475 2917
815.406 121.475 2917
822.381 121.475 2917
829.357 121.475 2917
836.332 121.475 2917
843.308 121.475 2917
850.283 121.475 2917
857.259 121.475 2917
864.234 121.475 2917
869.417 121.225 2911
876.378 121.225 2911
881.822 121.017 2906
888.771 121.017 2906
895.721 121.017 2906
901.117 120.808 2901
909.619 121.017 2906
916.568 121.017 2906
923.517 121.017 2906
930.466 121.017 2906
937.415 121.017 2906
945.989 121.225 2911
952.95 121.225 2911
959.911 121.225 2911
968.865 121.475 2917
975.841 121.475 2917
982.816 121.475 2917
1352.79 156.122 3749
1361.75 156.122 3749
1370.72 156.122 3749
1376.37 155.747 3740
1382.35 155.414 3732
1391.28 155.414 3732
1397.2 155.081 3724
1396.67 154.04 3699
1402.47 153.707 3691
1411.3 153.707 3691
1413.97 153.041 3675
1419.66 152.707 3667
1409.73 150.708 3619
1418.38 150.708 3619
1427.04 150.708 3619
1435.69 150.708 3619
1441.15 150.375 3611
1437.34 149.084 3580
1445.9 149.084 3580
1430.09 146.586 3520
1426.24 145.336 3490
1419.79 143.837 3454
1428.05 143.837 3454
1424.67 142.671 3426
1424.08 141.797 3405
1423.39 140.922 3384
1431.48 140.922 3384
1413.62 138.382 3323
1413.01 137.549 3303
1420.91 137.549 3303
1428.81 137.549 3303
1445.41 138.382 3323
1453.35 138.382 3323
1481.97 140.339 3370
1533.36 144.42 3468
1558.1 145.961 3505
1566.48 145.961 3505
1584.75 146.877 3527
1623.9 149.709 3595
1672.45 153.374 3683
1681.26 153.374 3683
1708.88 155.081 3724
1717.79 155.081 3724
1726.69 155.081 3724
1735.6 155.081 3724
1736.54 154.373 3707
1734.1 153.374 3683
1742.91 153.374 3683
1747.91 153.041 3675
1752.88 152.707 3667
1746.27 151.375 3635
1754.97 151.375 3635
1752.01 150.375 3611
1752.85 149.709 3595
1728.13 146.877 3527
1718.34 145.336 3490
1726.69 145.336 3490
1703.22 142.671 3426
1643.47 137.008 3290
1651.34 137.008 3290
1659.21 137.008 3290
1604.24 131.844 3166
1611.81 131.844 3166
1604.04 130.595 3136
1596.64 129.387 3107
1604.07 129.387 3107
1602.16 128.637 3089
1609.55 128.637 3089
1608.03 127.929 3072
1618.54 128.179 3078
1625.9 128.179 3078
1633.26 128.179 3078
1640.62 128.179 3078
1647.98 128.179 3078
1634.36 126.555 3039
1638.39 126.305 3033
1625.02 124.723 2995
1617.47 123.598 2968
1624.57 123.598 2968
1617.37 122.516 2942
1613.37 121.683 2922
1611.48 121.017 2906
1618.43 121.017 2906
1619.79 120.6 2896
1618.29 119.975 2881
1622.35 119.767 2876
1629.23 119.767 2876
1633.26 119.559 2871
1637.27 119.351 2866
1638.96 118.976 2857
1642.92 118.768 2852
1649.74 118.768 2852
1656.56 118.768 2852
1657.54 118.351 2842
1661.41 118.143 2837
1668.2 118.143 2837
1672.03 117.935 2832
1678.8 117.935 2832
1680.22 117.56 2823
1686.97 117.56 2823
1693.72 117.56 2823
1700.47 117.56 2823
1704.19 117.352 2818
1707.9 117.144 2813
1714.62 117.144 2813
1721.35 117.144 2813
1725.62 116.977 2809
1729.25 116.769 2804
1735.96 116.769 2804
1736.45 116.352 2794
1740.63 116.186 2790
1747.31 116.186 2790
1753.98 116.186 2790
1757.49 115.978 2785
1760.99 115.769 2780
1765.09 115.603 2776
1771.73 115.603 2776
1778.37 115.603 2776
1781.79 115.395 2771
1788.42 115.395 2771
1792.45 115.228 2767
1799.07 115.228 2767
1802.42 115.02 2762
1809.03 115.02 2762
1812.35 114.812 2757
1818.94 114.812 2757
1825.53 114.812 2757
1829.47 114.645 2753
1836.05 114.645 2753
1842.63 114.645 2753
1849.22 114.645 2753
1855.8 114.645 2753
1862.38 114.645 2753
1868.97 114.645 2753
1875.55 114.645 2753
1878.71 114.437 2748
1885.29 114.437 2748
1889.1 114.27 2744
1895.66 114.27 2744
1895.99 113.895 2735
1899.05 113.687 2730
1902.79 113.521 2726
1909.3 113.521 2726
1912.31 113.312 2721
1918.82 113.312 2721
1922.49 113.146 2717
1928.99 113.146 2717
1932.64 112.979 2713
1939.12 112.979 2713
1945.61 112.979 2713
1948.5 112.771 2708
1954.98 112.771 2708
1958.56 112.605 2704
1965.02 112.605 2704
1967.84 112.396 2699
1974.3 112.396 2699
1980.75 112.396 2699
1987.21 112.396 2699
1993.66 112.396 2699
2000.11 112.396 2699
2003.59 112.23 2695
2007.06 112.063 2691
2013.49 112.063 2691
2019.93 112.063 2691
2039.16 112.771 2708
2045.64 112.771 2708
2061.96 113.312 2721
2075.31 113.687 2730
2085.65 113.895 2735
2092.19 113.895 2735
-2106.16 123.882 2813
-2099.44 123.882 2813
-2092.71 123.882 2813
-2085.98 123.882 2813
-2076.3 123.706 2809
-2069.58 123.706 2809
-2062.86 123.706 2809
-2052.49 123.486 2804
-2042.13 123.266 2799
-2035.44 123.266 2799
-2028.75 123.266 2799
-2018.44 123.045 2794
-1992.32 121.856 2767
-1969.2 120.844 2744
-1962.64 120.844 2744
-1933.98 119.478 2713
-1905.46 118.113 2682
-1884.18 117.188 2661
-1877.82 117.188 2661
-1867.94 116.968 2656
-1855.98 116.616 2648
-1849.65 116.616 2648
-1857.93 117.541 2669
-1851.55 117.541 2669
-1847.93 117.717 2673
-1841.54 117.717 2673
-1835.15 117.717 2673
-1317.9 141.85 3221
-1310.2 141.85 3221
-1302.5 141.85 3221
-1289.57 141.278 3208
-1284.3 141.542 3214
-1281.77 142.114 3227
-1274.06 142.114 3227
-1266.34 142.114 3227
-1268.37 143.215 3252
-1260.6 143.215 3252
-1252.82 143.215 3252
-1100.54 132.382 3006
-1093.36 132.382 3006
-1095.92 133.571 3033
-1088.67 133.571 3033
-1081.42 133.571 3033
-1068.5 132.866 3017
-1061.28 132.866 3017
-1051.97 132.602 3011
-1044.77 132.602 3011
-1033.78 132.118 3000
-1026.61 132.118 3000
-1019.44 132.118 3000
-1012.26 132.118 3000
-1005.09 132.118 3000
-997.913 132.118 3000
-990.739 132.118 3000
-983.566 132.118 3000
-974.764 131.897 2995
-967.602 131.897 2995
-960.44 131.897 2995
-953.278 131.897 2995
-946.117 131.897 2995
-937.387 131.677 2990
-930.237 131.677 2990
-923.087 131.677 2990
-912.567 131.193 2979
-905.444 131.193 2979
-898.32 131.193 2979
-891.196 131.193 2979
-884.073 131.193 2979
-875.477 130.973 2974
-868.365 130.973 2974
-861.254 130.973 2974
-849.547 130.268 2958
-841.049 130.048 2953
-832.293 129.783 2947
-822.446 129.343 2937
-815.422 129.343 2937
-805.647 128.903 2927
-798.647 128.903 2927
-791.648 128.903 2927
-784.648 128.903 2927
-776.321 128.683 2922
-769.333 128.683 2922
-763.651 128.903 2927
-756.651 128.903 2927
-749.652 128.903 2927
-742.652 128.903 2927
-735.653 128.903 2927
-728.654 128.903 2927
-721.654 128.903 2927
-714.655 128.903 2927
-705.238 128.462 2917
-700.656 128.903 2927
-693.657 128.903 2927
-687.831 129.123 2932
-681.98 129.343 2937
-677.255 129.783 2947
-670.208 129.783 2947
-663.161 129.783 2947
-659.676 130.488 2963
-652.591 130.488 2963
-645.505 130.488 2963
-640.79 130.973 2974
-635.809 131.413 2984
-629.937 131.677 2990
-622.787 131.677 2990
-615.637 131.677 2990
-605.231 130.973 2974
-598.119 130.973 2974
-670.403 168.89 3835
-661.233 168.89 3835
-655.122 169.683 3853
-645.909 169.683 3853
-636.695 169.683 3853
-624.55 168.89 3835
-625.489 171.665 3898
-620.435 172.854 3925
-618.366 174.924 3972
-608.868 174.924 3972
-599.37 174.924 3972
-589.872 174.924 3972
-583.15 175.76 3991
-573.606 175.76 3991
-565.476 176.201 4001
-555.908 176.201 4001
-546.34 176.201 4001
-536.773 176.201 4001
-527.205 176.201 4001
-511.427 174.087 3953
-505.657 175.364 3982
-497.256 175.76 3991
-487.713 175.76 3991
-480.445 176.597 4010
-475.436 178.315 4049
-468.054 179.195 4069
-458.324 179.195 4069
-448.593 179.195 4069
-438.863 179.195 4069
-429.133 179.195 4069
-419.403 179.195 4069
-408.666 178.755 4059
-188.294 96.0495 2181
-183.078 96.0495 2181
-179.004 96.666 2195
-173.755 96.666 2195
-168.507 96.666 2195
-162.216 96.0495 2181
-157.001 96.0495 2181
-151.785 96.0495 2181
-146.57 96.0495 2181
-141.355 96.0495 2181
-136.139 96.0495 2181
-131.224 96.2697 2186
-125.997 96.2697 2186
-120.769 96.2697 2186
-115.542 96.2697 2186
-110.213 96.1816 2184
-104.991 96.1816 2184
-99.8596 96.2697 2186
-94.6322 96.2697 2186
-89.4048 96.2697 2186
-84.1004 96.1816 2184
-78.8778 96.1816 2184
-73.554 96.0495 2181
-68.3386 96.0495 2181
-63.1232 96.0495 2181
-57.9077 96.0495 2181
-52.6198 95.9174 2178
-47.4116 95.9174 2178
-42.1452 95.7852 2175
-36.9441 95.7852 2175
-31.743 95.7852 2175
-26.5053 95.6531 2172
-21.2623 95.4329 2167
-16.0804 95.4329 2167
-10.8984 95.4329 2167
-5.70064 95.1687 2161
-0.531556 94.9044 2155
4.61098 94.6842 2150
9.75228 94.6842 2150
14.8728 94.5521 2147
19.9603 94.3319 2142
25.0122 94.0677 2136
30.1201 94.0677 2136
35.1454 93.8475 2131
40.1846 93.7154 2128
45.1457 93.4512 2122
50.22 93.4512 2122
55.1641 93.231 2117
60.1411 93.0988 2114
65.1347 93.0108 2112
70.1851 93.0108 2112
75.1287 92.8786 2109
80.0579 92.7465 2106
85.094 92.7465 2106
90.1301 92.7465 2106
95.0758 92.6584 2104
100.107 92.6584 2104
105.138 92.6584 2104
110.17 92.6584 2104
115.201 92.6584 2104
120.232 92.6584 2104
125.264 92.6584 2104
130.295 92.6584 2104
135.455 92.7465 2106
140.491 92.7465 2106
145.527 92.7465 2106
150.778 92.8786 2109
156.042 93.0108 2112
161.093 93.0108 2112
166.301 93.0988 2114
171.356 93.0988 2114
176.661 93.231 2117
181.724 93.231 2117
187.492 93.5833 2125
192.574 93.5833 2125
197.934 93.7154 2128
203.023 93.7154 2128
208.112 93.7154 2128
213.501 93.8475 2131
218.597 93.8475 2131
223.693 93.8475 2131
229.325 94.0677 2136
234.433 94.0677 2136
239.877 94.1998 2139
244.992 94.1998 2139
250.458 94.3319 2142
256.177 94.5521 2147
262.041 94.8164 2153
267.19 94.8164 2153
273.73 95.3008 2164
279.549 95.521 2169
286.311 96.0495 2181
291.526 96.0495 2181
296.742 96.0495 2181
301.957 96.0495 2181
306.327 95.7852 2175
311.529 95.7852 2175
324.693 93.5833 2125
329.775 93.5833 2125
335.329 93.7154 2128
340.418 93.7154 2128
345.506 93.7154 2128
350.101 93.5833 2125
354.681 93.4512 2122
359.755 93.4512 2122
364.829 93.4512 2122
369.904 93.4512 2122
374.978 93.4512 2122
378.62 93.0988 2114
383.675 93.0988 2114
388.73 93.0988 2114
393.785 93.0988 2114
398.841 93.0988 2114
565.148 130.268 2958
572.222 130.268 2958
580.274 130.488 2963
587.36 130.488 2963
594.445 130.488 2963
597.268 129.563 2942
604.303 129.563 2942
611.338 129.563 2942
617.322 129.343 2937
623.283 129.123 2932
630.294 129.123 2932
636.218 128.903 2927
643.218 128.903 2927
649.106 128.683 2922
654.971 128.462 2917
661.946 128.462 2917
668.922 128.462 2917
674.507 128.198 2911
680.298 127.978 2906
687.247 127.978 2906
694.196 127.978 2906
702.351 128.198 2911
709.312 128.198 2911
716.274 128.198 2911
723.235 128.198 2911
730.196 128.198 2911
737.157 128.198 2911
744.118 128.198 2911
751.079 128.198 2911
759.602 128.462 2917
766.578 128.462 2917
773.553 128.462 2917
780.529 128.462 2917
787.504 128.462 2917
794.48 128.462 2917
801.455 128.462 2917
808.43 128.462 2917
815.406 128.462 2917
822.381 128.462 2917
829.357 128.462 2917
836.332 128.462 2917
843.308 128.462 2917
850.283 128.462 2917
857.259 128.462 2917
864.234 128.462 2917
869.417 128.198 2911
876.378 128.198 2911
883.34 128.198 2911
890.301 128.198 2911
897.262 128.198 2911
902.67 127.978 2906
909.619 127.978 2906
916.568 127.978 2906
923.517 127.978 2906
930.466 127.978 2906
937.415 127.978 2906
945.989 128.198 2911
952.95 128.198 2911
959.911 128.198 2911
968.865 128.462 2917
975.841 128.462 2917
982.816 128.462 2917
1358.92 165.852 3766
1367.93 165.852 3766
1376.94 165.852 3766
1379.68 165.103 3749
1385.32 164.707 3740
1394.26 164.707 3740
1400.2 164.354 3732
1399.69 163.253 3707
1402.47 162.549 3691
1411.3 162.549 3691
1417.05 162.196 3683
1419.66 161.492 3667
1409.73 159.378 3619
1418.38 159.378 3619
1427.04 159.378 3619
1435.69 159.378 3619
1444.35 159.378 3619
1437.34 157.66 3580
1445.9 157.66 3580
1430.09 155.018 3520
1426.24 153.697 3490
1419.79 152.111 3454
1428.05 152.111 3454
1424.67 150.878 3426
1418.22 149.337 3391
1414.55 148.104 3363
1422.6 148.104 3363
1402.56 145.197 3297
1410.45 145.197 3297
1420.91 145.461 3303
1428.81 145.461 3303
1465.85 148.412 3370
1473.91 148.412 3370
1515.83 151.803 3447
1539.99 153.388 3483
1561.21 154.666 3512
1569.61 154.666 3512
1584.75 155.326 3527
1627.51 158.673 3603
1683.35 163.253 3707
1692.22 163.253 3707
1720.35 165.103 3749
1729.32 165.103 3749
1738.28 165.103 3749
1747.25 165.103 3749
1744.5 164.002 3724
1745.4 163.253 3707
1754.27 163.253 3707
1747.91 161.844 3675
1752.88 161.492 3667
1746.27 160.082 3635
1754.97 160.082 3635
1752.01 159.025 3611
1589.1 139.428 3166
1596.67 139.428 3166
1604.24 139.428 3166
1596.54 138.107 3136
1577.44 135.817 3084
1564.26 134.055 3044
1571.54 134.055 3044
1570.52 133.351 3028
1568.9 132.602 3011
1576.1 132.602 3011
1583.3 132.602 3011
1590.5 132.602 3011
1597.7 132.602 3011
1604.9 132.602 3011
1612.11 132.602 3011
1593.49 130.488 2963
1595.17 130.048 2953
1588.13 128.903 2927
1586.41 128.198 2911
1593.37 128.198 2911
1597.58 127.978 2906
1604.53 127.978 2906
1597.62 126.877 2881
1604.51 126.877 2881
1608.6 126.657 2876
1612.67 126.437 2871
1616.71 126.216 2866
1623.57 126.216 2866
1630.42 126.216 2866
1629.28 125.6 2852
1636.1 125.6 2852
1640.04 125.38 2847
1646.84 125.38 2847
1650.75 125.159 2842
1654.63 124.939 2837
1661.41 124.939 2837
1668.2 124.939 2837
1672.03 124.719 2832
1678.8 124.719 2832
1683.19 124.543 2828
1689.95 124.543 2828
1693.72 124.323 2823
1700.47 124.323 2823
1704.19 124.102 2818
1707.9 123.882 2813
1714.62 123.882 2813
1721.35 123.882 2813
1725.62 123.706 2809
1729.25 123.486 2804
1735.96 123.486 2804
1739.56 123.266 2799
1743.13 123.045 2794
1747.31 122.869 2790
1753.98 122.869 2790
1760.65 122.869 2790
1764.15 122.649 2785
1767.64 122.429 2780
1774.28 122.429 2780
1778.37 122.253 2776
1785.01 122.253 2776
1788.42 122.033 2771
1795.04 122.033 2771
1801.67 122.033 2771
1808.3 122.033 2771
1812.3 121.856 2767
1818.92 121.856 2767
1825.54 121.856 2767
1828.84 121.636 2762
1835.45 121.636 2762
1838.72 121.416 2757
1845.31 121.416 2757
1851.9 121.416 2757
1858.5 121.416 2757
1865.09 121.416 2757
1871.68 121.416 2757
1878.27 121.416 2757
1884.87 121.416 2757
1891.46 121.416 2757
1891.86 121.02 2748
1898.43 121.02 2748
1902.23 120.844 2744
1902.53 120.447 2735
1905.58 120.227 2730
1912.11 120.227 2730
1915.82 120.051 2726
1922.34 120.051 2726
1925.32 119.831 2721
1931.83 119.831 2721
1935.49 119.654 2717
1941.98 119.654 2717
1948.48 119.654 2717
1954.98 119.654 2717
1954.98 119.258 2708
1958.56 119.082 2704
1965.02 119.082 2704
1967.84 118.862 2699
1974.3 118.862 2699
1980.75 118.862 2699
1990.89 119.082 2704
1997.35 119.082 2704
2003.82 119.082 2704
2006.57 118.862 2699
2013.02 118.862 2699
2019.48 118.862 2699
2025.93 118.862 2699
2045.94 119.654 2717
2052.44 119.654 2717
2065.75 120.051 2726
2075.31 120.227 2730
2085.65 120.447 2735
2092.19 120.447 2735
-2106.16 130.621 2813
-2099.44 130.621 2813
-2092.71 130.621 2813
-2085.98 130.621 2813
-2076.3 130.435 2809
-2069.58 130.435 2809
-2062.86 130.435 2809
-2052.49 130.203 2804
-2042.13 129.971 2799
-2035.44 129.971 2799
-2028.75 129.971 2799
-2018.44 129.739 2794
-1992.32 128.485 2767
-1969.2 127.417 2744
-1962.64 127.417 2744
-1936.83 126.163 2717
-1917.54 125.327 2699
-1899.05 124.538 2682
-1892.64 124.538 2682
-1871.45 123.563 2661
-1858.78 123.145 2652
-1849.65 122.959 2648
-1857.93 123.934 2669
-1851.55 123.934 2669
-1847.93 124.12 2673
-1841.54 124.12 2673
-1835.15 124.12 2673
-1335.89 150.727 3246
-1328.13 150.727 3246
-1320.37 150.727 3246
-1307.35 150.123 3233
-1297.21 149.845 3227
-1289.49 149.845 3227
-1284.16 150.123 3233
-1276.43 150.123 3233
-1268.7 150.123 3233
-1268.37 151.006 3252
-1260.6 151.006 3252
-1252.82 151.006 3252
-1100.54 139.583 3006
-1093.36 139.583 3006
-1095.92 140.836 3033
-1088.67 140.836 3033
-1081.42 140.836 3033
-1074.17 140.836 3033
-1066.91 140.836 3033
-1054.07 140.093 3017
-1046.86 140.093 3017
-1037.57 139.815 3011
-1028.66 139.583 3006
-1019.44 139.304 3000
-1012.26 139.304 3000
-1005.09 139.304 3000
-997.913 139.304 3000
-990.739 139.304 3000
-983.566 139.304 3000
-974.764 139.072 2995
-967.602 139.072 2995
-960.44 139.072 2995
-953.278 139.072 2995
-946.117 139.072 2995
-937.387 138.84 2990
-930.237 138.84 2990
-923.087 138.84 2990
-912.567 138.329 2979
-905.444 138.329 2979
-898.32 138.329 2979
-891.196 138.329 2979
-884.073 138.329 2979
-875.477 138.097 2974
