ply
format ascii 1.0
comment File generated
element vertex 2146
property float x
property float y
property float z
end_header
-707.494 -222.05 2842
-698.232 -221.269 2832
-691.46 -221.269 2832
-687.105 -222.05 2842
-680.309 -222.05 2842
-673.513 -222.05 2842
-666.717 -222.05 2842
-659.921 -222.05 2842
-654.274 -222.441 2847
-647.466 -222.441 2847
-644.033 -223.613 2862
-657.45 -230.723 2953
-650.388 -230.723 2953
-643.327 -230.723 2953
-679.702 -249.24 3190
-677.13 -251.115 3214
-669.444 -251.115 3214
-672.259 -255.1 3265
-664.452 -255.1 3265
-660.465 -256.585 3284
-652.612 -256.585 3284
-645.937 -257.053 3290
-641.949 -258.616 3310
-635.374 -259.163 3317
-627.442 -259.163 3317
-621.938 -260.179 3330
-613.975 -260.179 3330
-606.012 -260.179 3330
-598.049 -260.179 3330
-590.086 -260.179 3330
-580.9 -259.632 3323
-572.953 -259.632 3323
-565.007 -259.632 3323
-557.061 -259.632 3323
-549.114 -259.632 3323
-541.168 -259.632 3323
-533.222 -259.632 3323
-525.275 -259.632 3323
-516.395 -259.163 3317
-508.463 -259.163 3317
-500.531 -259.163 3317
-492.599 -259.163 3317
-484.667 -259.163 3317
-477.598 -259.632 3323
-469.651 -259.632 3323
-465.457 -261.741 3350
-457.446 -261.741 3350
-449.435 -261.741 3350
-441.424 -261.741 3350
-433.413 -261.741 3350
-424.513 -261.194 3343
-419.011 -262.757 3363
-412.68 -263.851 3377
-404.604 -263.851 3377
-397.351 -264.398 3384
-389.259 -264.398 3384
-381.167 -264.398 3384
-373.074 -264.398 3384
-364.227 -263.851 3377
-356.89 -264.398 3384
-348.798 -264.398 3384
-340.706 -264.398 3384
-332.614 -264.398 3384
-324.521 -264.398 3384
-316.429 -264.398 3384
-305.877 -262.288 3357
-297.849 -262.288 3357
-289.217 -261.741 3350
-281.794 -262.288 3357
-273.767 -262.288 3357
-266.768 -263.304 3370
-259.784 -264.398 3384
-251.692 -264.398 3384
-243.6 -264.398 3384
-152.76 -171.499 2195
-147.511 -171.499 2195
-142.262 -171.499 2195
-136.826 -171.265 2192
-130.924 -170.405 2181
-125.363 -169.937 2175
-120.161 -169.937 2175
-114.643 -169.468 2169
-109.053 -168.843 2161
-103.741 -168.608 2158
-98.5805 -168.608 2158
-93.2036 -168.218 2153
-87.9324 -167.983 2150
-82.6756 -167.749 2147
-77.5415 -167.749 2147
-72.3062 -167.514 2144
-67.1792 -167.514 2144
-61.8208 -166.889 2136
-56.7129 -166.889 2136
-51.4843 -166.499 2131
-46.3231 -166.264 2128
-41.1763 -166.03 2125
-36.0948 -166.03 2125
-31.0133 -166.03 2125
-25.8951 -165.796 2122
-20.7717 -165.405 2117
-15.6871 -165.171 2114
-10.6319 -165.171 2114
-5.57138 -165.014 2112
-0.520949 -165.014 2112
4.52305 -164.78 2109
9.56631 -164.78 2109
14.6096 -164.78 2109
19.6249 -164.545 2106
24.6024 -164.155 2101
29.6265 -164.155 2101
34.6012 -163.92 2098
39.6181 -163.92 2098
44.6351 -163.92 2098
49.652 -163.92 2098
54.6169 -163.764 2096
59.5437 -163.53 2093
64.3945 -163.139 2088
69.3875 -163.139 2088
74.2737 -162.905 2085
79.0695 -162.514 2080
83.9626 -162.358 2078
88.9317 -162.358 2078
93.6297 -161.889 2072
98.2515 -161.342 2065
102.94 -160.951 2060
107.447 -160.326 2052
112.354 -160.326 2052
116.689 -159.545 2042
121.275 -159.154 2037
125.526 -158.373 2027
130.374 -158.373 2027
134.754 -157.826 2020
139.031 -157.201 2012
143.7 -157.045 2010
148.506 -157.045 2010
152.55 -156.264 2000
157.333 -156.264 2000
162.358 -156.498 2003
167.315 -156.654 2005
172.367 -156.889 2008
177.169 -156.889 2008
181.971 -156.889 2008
187.144 -157.201 2012
192.433 -157.592 2017
197.256 -157.592 2017
202.079 -157.592 2017
207.928 -158.373 2027
212.776 -158.373 2027
217.623 -158.373 2027
221.153 -157.436 2015
417.257 -273.227 3497
425.619 -273.227 3497
433.982 -273.227 3497
441.458 -272.68 3490
415.656 -238.693 3055
422.961 -238.693 3055
430.267 -238.693 3055
434.421 -236.974 3033
441.674 -236.974 3033
442.562 -233.614 2990
445.651 -231.504 2963
450.292 -230.254 2947
457.339 -230.254 2947
459.659 -227.91 2917
464.875 -227.051 2906
470.2 -226.27 2896
474.654 -225.098 2881
481.543 -225.098 2881
486.737 -224.316 2871
492.743 -223.926 2866
498.899 -223.613 2862
505.743 -223.613 2862
512.587 -223.613 2862
519.431 -223.613 2862
526.275 -223.613 2862
533.119 -223.613 2862
539.02 -223.222 2857
545.852 -223.222 2857
552.683 -223.222 2857
559.515 -223.222 2857
565.356 -222.832 2852
572.176 -222.832 2852
576.966 -222.05 2842
583.762 -222.05 2842
590.558 -222.05 2842
597.354 -222.05 2842
604.15 -222.05 2842
610.946 -222.05 2842
617.743 -222.05 2842
623.44 -221.66 2837
630.224 -221.66 2837
637.008 -221.66 2837
643.792 -221.66 2837
649.43 -221.269 2832
656.202 -221.269 2832
662.974 -221.269 2832
669.746 -221.269 2832
675.563 -220.957 2828
683.291 -221.269 2832
690.063 -221.269 2832
696.835 -221.269 2832
703.607 -221.269 2832
709.376 -220.957 2828
716.139 -220.957 2828
722.901 -220.957 2828
729.664 -220.957 2828
735.124 -220.566 2823
741.875 -220.566 2823
748.626 -220.566 2823
755.376 -220.566 2823
762.127 -220.566 2823
768.878 -220.566 2823
775.628 -220.566 2823
782.379 -220.566 2823
785.216 -219.472 2809
793.061 -219.785 2813
799.788 -219.785 2813
806.514 -219.785 2813
813.241 -219.785 2813
819.968 -219.785 2813
826.695 -219.785 2813
834.903 -220.175 2818
841.641 -220.175 2818
849.885 -220.566 2823
856.636 -220.566 2823
863.387 -220.566 2823
870.137 -220.566 2823
876.888 -220.566 2823
882.074 -220.175 2818
888.812 -220.175 2818
895.551 -220.175 2818
899.408 -219.472 2809
909.028 -220.175 2818
915.767 -220.175 2818
927.089 -221.269 2832
933.861 -221.269 2832
940.633 -221.269 2832
947.405 -221.269 2832
954.177 -221.269 2832
1250.81 -284.009 3635
1259.5 -284.009 3635
1279.36 -286.509 3667
1290.94 -287.134 3675
1299.72 -287.134 3675
1308.51 -287.134 3675
1317.3 -287.134 3675
1326.09 -287.134 3675
1334.88 -287.134 3675
1337.45 -285.806 3658
1346.2 -285.806 3658
1354.94 -285.806 3658
1363.69 -285.806 3658
1366.43 -284.556 3642
1375.14 -284.556 3642
1383.85 -284.556 3642
1392.56 -284.556 3642
1401.27 -284.556 3642
1407.27 -284.009 3635
1409.73 -282.759 3619
1418.38 -282.759 3619
1427.04 -282.759 3619
1432.52 -282.134 3611
1441.15 -282.134 3611
1449.79 -282.134 3611
1458.42 -282.134 3611
1463.81 -281.509 3603
1472.42 -281.509 3603
1481.04 -281.509 3603
1489.66 -281.509 3603
1494.95 -280.884 3595
1503.54 -280.884 3595
1505.83 -279.712 3580
1514.39 -279.712 3580
1519.55 -279.087 3572
1518.25 -277.29 3549
1536.63 -279.087 3572
1552.09 -280.337 3588
1560.67 -280.337 3588
1603.81 -286.509 3667
1612.57 -286.509 3667
1621.34 -286.509 3667
1503.15 -210.878 2699
1509.6 -210.878 2699
1516.05 -210.878 2699
1518 -210.253 2691
1524.43 -210.253 2691
1545.66 -212.284 2717
1552.15 -212.284 2717
1558.65 -212.284 2717
1565.15 -212.284 2717
1571.65 -212.284 2717
1570.59 -211.268 2704
1577.06 -211.268 2704
1585.87 -211.581 2708
1599.99 -212.597 2721
1611.81 -213.3 2730
1618.33 -213.3 2730
1624.86 -213.3 2730
1631.39 -213.3 2730
1637.92 -213.3 2730
1642.04 -212.987 2726
1645.53 -212.597 2721
1647.18 -211.971 2713
1653.67 -211.971 2713
1651.59 -210.878 2699
1650.06 -209.862 2686
1659.57 -210.253 2691
1666 -210.253 2691
1672.44 -210.253 2691
1678.87 -210.253 2691
1677.16 -209.237 2678
1683.57 -209.237 2678
1689.97 -209.237 2678
1685.61 -207.909 2661
1688.79 -207.518 2656
1692.59 -207.205 2652
1698.93 -207.205 2652
1702.7 -206.893 2648
1698.06 -205.565 2631
1699.17 -204.94 2623
1705.44 -204.94 2623
1703.88 -204.002 2611
1710.13 -204.002 2611
1716.37 -204.002 2611
1722.62 -204.002 2611
1728.86 -204.002 2611
1735.1 -204.002 2611
1741.35 -204.002 2611
1742.24 -203.377 2603
1748.46 -203.377 2603
1751.99 -203.064 2599
1754.82 -202.674 2594
1761.02 -202.674 2594
1767.23 -202.674 2594
1773.43 -202.674 2594
1779.63 -202.674 2594
1783.08 -202.361 2590
1798.26 -203.377 2603
1804.48 -203.377 2603
1816.27 -204.002 2611
1822.51 -204.002 2611
1828.76 -204.002 2611
1835 -204.002 2611
1835.6 -203.377 2603
1835.46 -202.674 2594
1835.98 -202.049 2586
1842.17 -202.049 2586
1845.49 -201.736 2582
1851.67 -201.736 2582
1849.93 -200.877 2571
1856.07 -200.877 2571
1862.22 -200.877 2571
1859.65 -199.939 2559
1865.77 -199.939 2559
1871.89 -199.939 2559
1878.01 -199.939 2559
1878.24 -199.314 2551
1881.38 -199.002 2547
1887.47 -199.002 2547
1893.56 -199.002 2547
1899.65 -199.002 2547
1902.75 -198.689 2543
1905.83 -198.377 2539
1911.9 -198.377 2539
1912.69 -197.83 2532
1921.01 -198.064 2535
1933.16 -198.689 2543
1942.29 -199.002 2547
1948.38 -199.002 2547
-2047.76 -207.139 2735
-2050.92 -208.123 2748
-2065.18 -210.244 2776
-2058.54 -210.244 2776
-2058.56 -210.925 2785
-2051.9 -210.925 2785
-2045.24 -210.925 2785
-2001.98 -207.139 2735
-1985.23 -206.078 2721
-2343.72 -250.687 3310
-2335.8 -250.687 3310
-2332.81 -251.217 3317
-2324.88 -251.217 3317
-2330.92 -252.732 3337
-2322.94 -252.732 3337
-2347.56 -256.291 3384
-2349.15 -257.352 3398
-2345.85 -257.882 3405
-2337.71 -257.882 3405
-2339.14 -258.942 3419
-2335.74 -259.472 3426
-2332.3 -260.003 3433
-2324.09 -260.003 3433
-2320.6 -260.533 3440
-2321.79 -261.593 3454
-2318.22 -262.123 3461
-2309.94 -262.123 3461
-2306.32 -262.653 3468
-2303.33 -263.259 3476
-2299.64 -263.789 3483
-2291.31 -263.789 3483
-2292.16 -264.85 3497
-2289.02 -265.456 3505
-2290.4 -266.592 3520
-2281.98 -266.592 3520
-2292.29 -268.788 3549
-2283.81 -268.788 3549
-2275.32 -268.788 3549
-2262.36 -268.258 3542
-2268.53 -270 3565
-2264.44 -270.53 3572
-2255.9 -270.53 3572
-2247.36 -270.53 3572
-2234.43 -270 3565
-2225.9 -270 3565
-2217.38 -270 3565
-2194.6 -268.258 3542
-2186.13 -268.258 3542
-2066.43 -263.789 3483
-2058.1 -263.789 3483
-2058.01 -264.85 3497
-2063.13 -266.592 3520
-2054.71 -266.592 3520
-2046.29 -266.592 3520
-2024.56 -264.85 3497
-2004.09 -263.259 3476
-1995.78 -263.259 3476
-2070.74 -280.148 3699
-2080.29 -282.648 3732
-2099.67 -286.51 3783
-2090.63 -286.51 3783
-2081.58 -286.51 3783
-2077.47 -287.192 3792
-2082.58 -289.161 3818
-2073.45 -289.161 3818
-2064.32 -289.161 3818
-2045.5 -287.798 3800
-2036.41 -287.798 3800
-2027.33 -287.798 3800
-2032.05 -289.767 3826
-2027.66 -290.449 3835
-2018.49 -290.449 3835
-2009.32 -290.449 3835
-1991.28 -289.161 3818
-1982.15 -289.161 3818
-1973.02 -289.161 3818
-1963.89 -289.161 3818
-1950.15 -288.479 3809
-1914.55 -284.541 3757
-1905.56 -284.541 3757
-1863.26 -279.543 3691
-1842.38 -277.725 3667
-1817.61 -275.301 3635
-1808.91 -275.301 3635
-1772.98 -271.136 3580
-1764.42 -271.136 3580
-1774.99 -274.09 3619
-1785.37 -277.043 3658
-1776.62 -277.043 3658
-1791.56 -280.754 3707
-1794.71 -282.648 3732
-1789.62 -283.254 3740
-1780.67 -283.254 3740
-1787.84 -285.829 3774
-1787.3 -287.192 3792
-1781.98 -287.798 3800
-1772.89 -287.798 3800
-1763.81 -287.798 3800
-1754.72 -287.798 3800
-1745.63 -287.798 3800
-1736.55 -287.798 3800
-1719.73 -286.51 3783
-1710.68 -286.51 3783
-1701.64 -286.51 3783
-1692.59 -286.51 3783
-1683.54 -286.51 3783
-1682.02 -287.798 3800
-1672.94 -287.798 3800
-1663.85 -287.798 3800
-1654.76 -287.798 3800
-1619.69 -283.254 3740
-1290.62 -237.509 3136
-1283.12 -237.509 3136
-1275.62 -237.509 3136
-1268.13 -237.509 3136
-1255.8 -236.6 3124
-1245.93 -236.146 3118
-1238.48 -236.146 3118
-1182.46 -226.83 2995
-1160.78 -224.028 2958
-1153.71 -224.028 2958
-1130.74 -220.923 2917
-1123.76 -220.923 2917
-1069.79 -221.301 2922
-1062.8 -221.301 2922
-1055.82 -221.301 2922
-1048.83 -221.301 2922
-1041.84 -221.301 2922
-1029.19 -220.09 2906
-1016.96 -218.954 2891
-1006.55 -218.196 2881
-1003.14 -218.954 2891
-996.222 -218.954 2891
-989.309 -218.954 2891
-978.997 -218.196 2881
-972.108 -218.196 2881
-965.219 -218.196 2881
-958.329 -218.196 2881
-951.44 -218.196 2881
-944.551 -218.196 2881
-924.968 -215.242 2842
-914.942 -214.485 2832
-906.887 -214.182 2828
-900.124 -214.182 2828
-891.782 -213.803 2823
-885.031 -213.803 2823
-878.281 -213.803 2823
-871.53 -213.803 2823
-864.779 -213.803 2823
-858.029 -213.803 2823
-851.278 -213.803 2823
-846.023 -214.182 2828
-839.261 -214.182 2828
-832.498 -214.182 2828
-824.275 -213.803 2823
-816.077 -213.425 2818
-809.338 -213.425 2818
-802.599 -213.425 2818
-794.449 -213.046 2813
-787.722 -213.046 2813
-782.383 -213.425 2818
-775.645 -213.425 2818
-771.635 -214.182 2828
-764.872 -214.182 2828
-759.182 -214.485 2832
-752.409 -214.485 2832
-745.637 -214.485 2832
-741.474 -215.242 2842
-735.971 -215.621 2847
-729.163 -215.621 2847
-722.354 -215.621 2847
-714.29 -215.242 2842
-707.494 -215.242 2842
-700.698 -215.242 2842
-691.46 -214.485 2832
-687.105 -215.242 2842
-680.309 -215.242 2842
-673.513 -215.242 2842
-666.717 -215.242 2842
-659.921 -215.242 2842
-654.274 -215.621 2847
-647.466 -215.621 2847
-644.033 -216.757 2862
-648.099 -220.468 2911
-641.138 -220.468 2911
-634.177 -220.468 2911
-674.602 -242.507 3202
-666.945 -242.507 3202
-661.758 -243.416 3214
-660.585 -245.84 3246
-656.644 -247.279 3265
-648.837 -247.279 3265
-645.937 -249.172 3290
-640.591 -250.157 3303
-635.374 -251.217 3317
-627.442 -251.217 3317
-621.938 -252.202 3330
-615.266 -252.732 3337
-607.286 -252.732 3337
-599.307 -252.732 3337
-591.327 -252.732 3337
-582.123 -252.202 3330
-574.16 -252.202 3330
-563.987 -251.217 3317
-557.061 -251.672 3323
-549.114 -251.672 3323
-542.308 -252.202 3330
-534.345 -252.202 3330
-526.382 -252.202 3330
-516.395 -251.217 3317
-508.463 -251.217 3317
-500.531 -251.217 3317
-492.599 -251.217 3317
-484.667 -251.217 3317
-476.735 -251.217 3317
-468.803 -251.217 3317
-465.457 -253.716 3350
-457.446 -253.716 3350
-449.435 -253.716 3350
-441.424 -253.716 3350
-431.731 -252.732 3337
-423.751 -252.732 3337
-416.519 -253.186 3343
-410.969 -254.701 3363
-402.927 -254.701 3363
-395.707 -255.231 3370
-387.648 -255.231 3370
-379.59 -255.231 3370
-371.531 -255.231 3370
-363.472 -255.231 3370
-356.152 -255.761 3377
-348.076 -255.761 3377
-340.001 -255.761 3377
-331.926 -255.761 3377
-322.508 -254.701 3363
-314.466 -254.701 3363
-305.877 -254.247 3357
-296.607 -253.186 3343
-288.613 -253.186 3343
-281.207 -253.716 3350
-273.196 -253.716 3350
-266.768 -255.231 3370
-259.784 -256.291 3384
-251.692 -256.291 3384
-243.6 -256.291 3384
-152.76 -166.241 2195
-147.511 -166.241 2195
-142.262 -166.241 2195
-136.826 -166.014 2192
-130.744 -164.954 2178
-125.363 -164.726 2175
-120.161 -164.726 2175
-114.643 -164.272 2169
-109.053 -163.666 2161
-103.741 -163.439 2158
-98.5805 -163.439 2158
-93.2902 -163.212 2155
-87.9324 -162.833 2150
-82.7911 -162.833 2150
-77.6498 -162.833 2150
-72.3062 -162.379 2144
-67.1792 -162.379 2144
-61.8208 -161.773 2136
-56.7129 -161.773 2136
-51.4843 -161.394 2131
-46.3231 -161.167 2128
-41.1763 -160.94 2125
-36.0948 -160.94 2125
-31.0133 -160.94 2125
-25.8951 -160.712 2122
-20.7717 -160.334 2117
-15.6871 -160.106 2114
-10.6319 -160.106 2114
-5.57138 -159.955 2112
-0.520949 -159.955 2112
4.52305 -159.728 2109
9.56631 -159.728 2109
14.5888 -159.501 2106
19.6249 -159.501 2106
24.6024 -159.122 2101
29.6265 -159.122 2101
34.6012 -158.895 2098
39.6181 -158.895 2098
44.6351 -158.895 2098
49.652 -158.895 2098
54.6169 -158.743 2096
59.4868 -158.365 2091
64.3945 -158.137 2088
69.3875 -158.137 2088
74.2737 -157.91 2085
79.0695 -157.531 2080
83.9626 -157.38 2078
88.9317 -157.38 2078
93.4038 -156.547 2067
98.0136 -156.017 2060
102.69 -155.638 2055
107.185 -155.032 2047
112.08 -155.032 2047
116.518 -154.426 2039
121.096 -154.048 2034
125.526 -153.517 2027
130.374 -153.517 2027
134.754 -152.987 2020
138.893 -152.23 2010
143.557 -152.078 2008
148.359 -152.078 2008
152.398 -151.321 1998
157.175 -151.321 1998
162.115 -151.473 2000
166.898 -151.473 2000
171.938 -151.7 2003
176.728 -151.7 2003
181.518 -151.7 2003
186.772 -152.078 2008
191.956 -152.381 2012
196.767 -152.381 2012
201.879 -152.609 2015
206.903 -152.76 2017
211.726 -152.76 2017
216.549 -152.76 2017
221.153 -152.609 2015
409.669 -228.042 3011
416.87 -228.042 3011
424.07 -228.042 3011
425.971 -225.24 2974
433.082 -225.24 2974
437.826 -224.028 2958
441.741 -222.437 2937
445.708 -220.923 2917
452.684 -220.923 2917
457.926 -220.09 2906
463.275 -219.332 2896
469.388 -218.954 2891
474.654 -218.196 2881
481.543 -218.196 2881
486.737 -217.439 2871
492.056 -216.757 2862
498.899 -216.757 2862
505.743 -216.757 2862
512.587 -216.757 2862
519.431 -216.757 2862
526.275 -216.757 2862
533.119 -216.757 2862
539.02 -216.378 2857
545.852 -216.378 2857
552.683 -216.378 2857
559.515 -216.378 2857
565.356 -216 2852
572.176 -216 2852
576.966 -215.242 2842
583.762 -215.242 2842
590.558 -215.242 2842
597.354 -215.242 2842
604.15 -215.242 2842
610.946 -215.242 2842
617.743 -215.242 2842
624.539 -215.242 2842
630.224 -214.864 2837
637.008 -214.864 2837
643.792 -214.864 2837
650.576 -214.864 2837
656.202 -214.485 2832
662.974 -214.485 2832
669.746 -214.485 2832
676.518 -214.485 2832
683.291 -214.485 2832
690.063 -214.485 2832
696.835 -214.485 2832
703.607 -214.485 2832
709.376 -214.182 2828
716.139 -214.182 2828
722.901 -214.182 2828
729.664 -214.182 2828
736.426 -214.182 2828
741.875 -213.803 2823
748.626 -213.803 2823
755.376 -213.803 2823
762.127 -213.803 2823
768.878 -213.803 2823
775.628 -213.803 2823
782.379 -213.803 2823
787.732 -213.425 2818
794.471 -213.425 2818
801.209 -213.425 2818
807.948 -213.425 2818
814.687 -213.425 2818
821.425 -213.425 2818
828.164 -213.425 2818
836.384 -213.803 2823
843.135 -213.803 2823
849.885 -213.803 2823
856.636 -213.803 2823
863.387 -213.803 2823
870.137 -213.803 2823
876.888 -213.803 2823
883.639 -213.803 2823
890.389 -213.803 2823
895.551 -213.425 2818
900.689 -213.046 2813
909.028 -213.425 2818
917.392 -213.803 2823
927.089 -214.485 2832
933.861 -214.485 2832
940.633 -214.485 2832
947.405 -214.485 2832
954.177 -214.485 2832
960.95 -214.485 2832
1279.36 -277.725 3667
1293.75 -278.937 3683
1302.55 -278.937 3683
1311.36 -278.937 3683
1320.17 -278.937 3683
1328.97 -278.937 3683
1337.78 -278.937 3683
1340.74 -277.725 3667
1349.51 -277.725 3667
1358.28 -277.725 3667
1367.05 -277.725 3667
1375.81 -277.725 3667
1378.16 -276.437 3650
1386.89 -276.437 3650
1395.62 -276.437 3650
1401.27 -275.831 3642
1407.27 -275.301 3635
1409.73 -274.09 3619
1418.38 -274.09 3619
1427.04 -274.09 3619
1432.52 -273.484 3611
1441.15 -273.484 3611
1446.58 -272.878 3603
1455.19 -272.878 3603
1460.56 -272.272 3595
1469.15 -272.272 3595
1474.87 -271.742 3588
1483.45 -271.742 3588
1492.03 -271.742 3588
1497.27 -271.136 3580
1502.46 -270.53 3572
1511.01 -270.53 3572
1509.76 -268.788 3549
1502.42 -265.986 3512
1504.37 -264.85 3497
1548.63 -271.136 3580
1557.19 -271.136 3580
1569.25 -271.742 3588
1577.83 -271.742 3588
1586.41 -271.742 3588
1508.16 -205.094 2708
1514.63 -205.094 2708
1521.11 -205.094 2708
1520.25 -204.109 2695
1528.96 -204.412 2699
1545.66 -205.775 2717
1552.15 -205.775 2717
1558.65 -205.775 2717
1565.15 -205.775 2717
1571.65 -205.775 2717
1572.91 -205.094 2708
1579.39 -205.094 2708
1585.87 -205.094 2708
1599.99 -206.078 2721
1611.81 -206.76 2730
1618.33 -206.76 2730
1624.86 -206.76 2730
1631.39 -206.76 2730
1637.92 -206.76 2730
1642.04 -206.457 2726
1645.53 -206.078 2721
1649.61 -205.775 2717
1656.11 -205.775 2717
1651.59 -204.412 2699
1655.59 -204.109 2695
1662.03 -204.109 2695
1668.48 -204.109 2695
1674.92 -204.109 2695
1681.37 -204.109 2695
1685.31 -203.806 2691
1691.74 -203.806 2691
1689.97 -202.822 2678
1696.38 -202.822 2678
1699.6 -202.443 2673
1700.89 -201.837 2665
1707.26 -201.837 2665
1707.84 -201.155 2656
1700.64 -199.565 2635
1704.35 -199.262 2631
1710.64 -199.262 2631
1716.94 -199.262 2631
1717.99 -198.656 2623
1719 -198.05 2615
1725.25 -198.05 2615
1731.51 -198.05 2615
1737.76 -198.05 2615
1744.01 -198.05 2615
1747.59 -197.747 2611
1753.83 -197.747 2611
1757.38 -197.444 2607
1758.2 -196.839 2599
1764.42 -196.839 2599
1770.63 -196.839 2599
1776.85 -196.839 2599
1779.63 -196.46 2594
1785.84 -196.46 2594
1798.26 -197.141 2603
1804.48 -197.141 2603
1813.49 -197.444 2607
1819.72 -197.444 2607
1825.96 -197.444 2607
1832.19 -197.444 2607
1835.6 -197.141 2603
1839 -196.839 2599
1838.82 -196.157 2590
1845.02 -196.157 2590
1848.35 -195.854 2586
1851.67 -195.551 2582
1854.96 -195.248 2578
1861.13 -195.248 2578
1864.4 -194.945 2574
1868.37 -194.718 2571
1874.52 -194.718 2571
1880.67 -194.718 2571
1880.94 -194.112 2563
1884.13 -193.809 2559
1890.25 -193.809 2559
1893.4 -193.506 2555
1899.51 -193.506 2555
1902.64 -193.203 2551
1905.74 -192.9 2547
1905.83 -192.294 2539
1911.9 -192.294 2539
1917.97 -192.294 2539
1924.05 -192.294 2539
1936.2 -192.9 2547
1948.39 -193.506 2555
1954.5 -193.506 2555
-2044.02 -200.22 2730
-2050.92 -201.54 2748
-2048.07 -201.907 2753
-2041.49 -201.907 2753
-2045.25 -202.934 2767
-2038.64 -202.934 2767
-2032.02 -202.934 2767
-2001.98 -200.587 2735
-1985.23 -199.56 2721
-1962.72 -197.947 2699
-1956.27 -197.947 2699
-2343.72 -242.758 3310
-2335.8 -242.758 3310
-2332.81 -243.271 3317
-2333.99 -244.225 3330
-2340 -245.691 3350
-2331.99 -245.691 3350
-2357.28 -249.212 3398
-2353.99 -249.725 3405
-2355.49 -250.752 3419
-2347.32 -250.752 3419
-2348.72 -251.779 3433
-2340.51 -251.779 3433
-2337.06 -252.292 3440
-2328.83 -252.292 3440
-2330.05 -253.319 3454
-2336.58 -254.932 3476
-2328.26 -254.932 3476
-2319.95 -254.932 3476
-2311.64 -254.932 3476
-2312.61 -255.959 3490
-2308.88 -256.473 3497
-2300.52 -256.473 3497
-2297.4 -257.059 3505
-2298.81 -258.159 3520
-2309.27 -260.286 3549
-2300.78 -260.286 3549
-2297.46 -260.873 3557
-2288.96 -260.873 3557
-2285.58 -261.46 3565
-2277.05 -261.46 3565
-2278.07 -262.56 3580
-2269.51 -262.56 3580
-2260.95 -262.56 3580
-2252.39 -262.56 3580
-2238.82 -261.973 3572
-2230.27 -261.973 3572
-2221.73 -261.973 3572
-2198.94 -260.286 3549
-2186.13 -259.773 3542
-2057.48 -253.319 3454
-2066.43 -255.446 3483
-2058.1 -255.446 3483
-2058.01 -256.473 3497
-2063.13 -258.159 3520
-2054.71 -258.159 3520
-2046.29 -258.159 3520
-2033.24 -257.573 3512
-2024.85 -257.573 3512
-2016.45 -257.573 3512
-2083.92 -270.701 3691
-2075.09 -270.701 3691
-2075.22 -271.874 3707
-2084.75 -274.294 3740
-2099.67 -277.448 3783
-2090.63 -277.448 3783
-2090.94 -278.695 3800
-2091.71 -280.015 3818
-2091.85 -281.262 3835
-2082.68 -281.262 3835
-2073.51 -281.262 3835
-2064.34 -281.262 3835
-2055.17 -281.262 3835
-2027.33 -278.695 3800
-2032.05 -280.602 3826
-2032.42 -281.922 3844
-2023.23 -281.922 3844
-2014.03 -281.922 3844
-1991.28 -280.015 3818
-1982.15 -280.015 3818
-1973.02 -280.015 3818
-1963.89 -280.015 3818
-1950.15 -279.355 3809
-1914.55 -275.541 3757
-1905.56 -275.541 3757
-1867.3 -271.287 3699
-1850.41 -270.114 3683
-1821.11 -267.107 3642
-1812.4 -267.107 3642
-1780.41 -263.66 3595
-1768.36 -263.147 3588
-1774.99 -265.42 3619
-1781.46 -267.694 3650
-1772.74 -267.694 3650
-1791.56 -271.874 3707
-1794.71 -273.708 3732
-1793.92 -274.954 3749
-1784.96 -274.954 3749
-1787.84 -276.788 3774
-1778.81 -276.788 3774
-1778.23 -278.108 3792
-1769.16 -278.108 3792
-1760.09 -278.108 3792
-1742.71 -276.788 3774
-1733.69 -276.788 3774
-1724.66 -276.788 3774
-1715.64 -276.788 3774
-1706.61 -276.788 3774
-1701.64 -277.448 3783
-1692.59 -277.448 3783
-1683.54 -277.448 3783
-1678.48 -278.108 3792
-1669.41 -278.108 3792
-1660.35 -278.108 3792
-1651.28 -278.108 3792
-1619.69 -274.294 3740
-1290.62 -229.997 3136
-1283.12 -229.997 3136
-1275.62 -229.997 3136
-1268.13 -229.997 3136
-1255.8 -229.116 3124
-1209.97 -222.076 3028
-1202.73 -222.076 3028
-1195.49 -222.076 3028
-1162.74 -217.309 2963
-1153.71 -216.942 2958
-1134.62 -214.668 2927
-1131.47 -215.402 2937
-1124.45 -215.402 2937
-1121.23 -216.135 2947
-1118.34 -216.942 2958
-1111.27 -216.942 2958
-1104.19 -216.942 2958
-1097.12 -216.942 2958
-1088.2 -216.575 2953
-1081.14 -216.575 2953
-1064.62 -214.668 2927
-1055.82 -214.302 2922
-1048.83 -214.302 2922
-1041.84 -214.302 2922
-1029.19 -213.128 2906
-1018.72 -212.395 2896
-1008.3 -211.661 2886
-1001.4 -211.661 2886
-992.776 -211.295 2881
-985.887 -211.295 2881
-978.997 -211.295 2881
-972.108 -211.295 2881
-965.219 -211.295 2881
-958.329 -211.295 2881
-943.514 -209.535 2857
-936.682 -209.535 2857
-924.968 -208.434 2842
-914.942 -207.701 2832
-906.887 -207.408 2828
-900.124 -207.408 2828
-891.782 -207.041 2823
-885.031 -207.041 2823
-879.836 -207.408 2828
-873.074 -207.408 2828
-866.311 -207.408 2828
-859.548 -207.408 2828
-853.992 -207.701 2832
-847.22 -207.701 2832
-840.448 -207.701 2832
-833.675 -207.701 2832
-826.903 -207.701 2832
-818.973 -207.408 2828
-812.21 -207.408 2828
-805.448 -207.408 2828
-798.685 -207.408 2828
-791.922 -207.408 2828
-785.16 -207.408 2828
-778.397 -207.408 2828
-774.09 -208.068 2837
-767.306 -208.068 2837
-760.522 -208.068 2837
-753.738 -208.068 2837
-748.27 -208.434 2842
-741.474 -208.434 2842
-734.678 -208.434 2842
-727.882 -208.434 2842
-721.086 -208.434 2842
-714.29 -208.434 2842
-707.494 -208.434 2842
-700.698 -208.434 2842
-691.46 -207.701 2832
-687.105 -208.434 2842
-680.309 -208.434 2842
-673.513 -208.434 2842
-666.717 -208.434 2842
-658.76 -208.068 2837
-653.125 -208.434 2842
-646.329 -208.434 2842
-641.783 -209.168 2852
-643.646 -212.028 2891
-647.965 -215.768 2942
-640.93 -215.768 2942
-633.895 -215.768 2942
-673.338 -234.397 3196
-665.695 -234.397 3196
-661.758 -235.717 3214
-661.806 -238.504 3252
-656.644 -239.458 3265
-648.837 -239.458 3265
-645.937 -241.291 3290
-643.306 -243.271 3317
-637.865 -244.225 3330
-629.901 -244.225 3330
-624.366 -245.178 3343
-616.372 -245.178 3343
-608.378 -245.178 3343
-600.384 -245.178 3343
-592.39 -245.178 3343
-583.347 -244.738 3337
-575.367 -244.738 3337
-566.197 -244.225 3330
-559.408 -244.738 3337
-551.428 -244.738 3337
-543.448 -244.738 3337
-535.468 -244.738 3337
-527.488 -244.738 3337
-519.509 -244.738 3337
-511.529 -244.738 3337
-501.437 -243.711 3323
-493.49 -243.711 3323
-485.544 -243.711 3323
-477.598 -243.711 3323
-469.651 -243.711 3323
-464.484 -245.178 3343
-456.49 -245.178 3343
-448.496 -245.178 3343
-440.502 -245.178 3343
-430.826 -244.225 3330
-422.862 -244.225 3330
-416.519 -245.178 3343
-410.236 -246.205 3357
-402.208 -246.205 3357
-394.885 -246.645 3363
-386.843 -246.645 3363
-378.801 -246.645 3363
-370.759 -246.645 3363
-362.07 -246.205 3357
-354.675 -246.645 3363
-346.633 -246.645 3363
-338.592 -246.645 3363
-330.55 -246.645 3363
-321.932 -246.205 3357
-313.905 -246.205 3357
-304.601 -245.178 3343
-296.607 -245.178 3343
-288.613 -245.178 3343
-281.207 -245.691 3350
-273.196 -245.691 3350
-266.768 -247.158 3370
-259.784 -248.185 3384
-251.692 -248.185 3384
-243.6 -248.185 3384
-152.342 -160.543 2189
-147.108 -160.543 2189
-141.873 -160.543 2189
-136.451 -160.323 2186
-131.104 -160.176 2184
-125.363 -159.516 2175
-120.161 -159.516 2175
-114.802 -159.296 2172
-109.204 -158.709 2164
-103.885 -158.489 2161
-98.7176 -158.489 2161
-93.2902 -158.049 2155
-87.9324 -157.683 2150
-82.7911 -157.683 2150
-77.6498 -157.683 2150
-72.3062 -157.243 2144
-67.1792 -157.243 2144
-61.8208 -156.656 2136
-56.7129 -156.656 2136
-51.4843 -156.289 2131
-46.3231 -156.069 2128
-41.1763 -155.849 2125
-36.0948 -155.849 2125
-31.0133 -155.849 2125
-25.8951 -155.629 2122
-20.7717 -155.262 2117
-15.6871 -155.042 2114
-10.6319 -155.042 2114
-5.57138 -154.896 2112
-0.520949 -154.896 2112
4.52305 -154.676 2109
9.56631 -154.676 2109
14.5888 -154.456 2106
19.6062 -154.309 2104
24.6024 -154.089 2101
29.6265 -154.089 2101
34.6012 -153.869 2098
39.6181 -153.869 2098
44.5925 -153.722 2096
49.6047 -153.722 2096
54.6169 -153.722 2096
59.4868 -153.355 2091
64.3945 -153.135 2088
69.3875 -153.135 2088
74.2025 -152.769 2083
78.9935 -152.402 2078
83.9626 -152.402 2078
88.9317 -152.402 2078
93.4038 -151.595 2067
98.2515 -151.449 2065
102.79 -150.862 2057
107.29 -150.275 2049
112.19 -150.275 2049
116.689 -149.762 2042
121.096 -149.175 2034
125.712 -148.882 2030
130.567 -148.882 2030
134.887 -148.295 2022
139.239 -147.782 2015
143.557 -147.268 2008
148.359 -147.268 2008
152.55 -146.681 2000
157.175 -146.535 1998
162.115 -146.681 2000
166.898 -146.681 2000
171.68 -146.681 2000
176.463 -146.681 2000
181.246 -146.681 2000
186.307 -146.902 2003
191.574 -147.268 2008
196.376 -147.268 2008
201.378 -147.415 2010
206.697 -147.782 2015
211.516 -147.782 2015
216.334 -147.782 2015
221.153 -147.782 2015
395.269 -220.829 3011
402.469 -220.829 3011
409.669 -220.829 3011
410.224 -217.309 2963
417.31 -217.309 2963
421.387 -215.768 2942
428.422 -215.768 2942
434.717 -215.402 2937
438.733 -213.935 2917
444.027 -213.128 2906
450.976 -213.128 2906
456.35 -212.395 2896
462.475 -212.028 2891
468.577 -211.661 2886
473.83 -210.928 2876
480.708 -210.928 2876
485.89 -210.195 2866
492.056 -209.901 2862
498.899 -209.901 2862
505.743 -209.901 2862
512.587 -209.901 2862
519.431 -209.901 2862
526.275 -209.901 2862
533.119 -209.901 2862
539.02 -209.535 2857
545.852 -209.535 2857
551.716 -209.168 2852
558.536 -209.168 2852
565.356 -209.168 2852
572.176 -209.168 2852
577.981 -208.801 2847
584.789 -208.801 2847
590.558 -208.434 2842
597.354 -208.434 2842
604.15 -208.434 2842
610.946 -208.434 2842
617.743 -208.434 2842
624.539 -208.434 2842
630.224 -208.068 2837
637.008 -208.068 2837
643.792 -208.068 2837
650.576 -208.068 2837
656.202 -207.701 2832
662.974 -207.701 2832
669.746 -207.701 2832
676.518 -207.701 2832
683.291 -207.701 2832
690.063 -207.701 2832
696.835 -207.701 2832
703.607 -207.701 2832
710.379 -207.701 2832
716.139 -207.408 2828
722.901 -207.408 2828
729.664 -207.408 2828
736.426 -207.408 2828
743.189 -207.408 2828
748.626 -207.041 2823
756.714 -207.408 2828
763.477 -207.408 2828
770.239 -207.408 2828
775.628 -207.041 2823
782.379 -207.041 2823
789.13 -207.041 2823
795.88 -207.041 2823
802.631 -207.041 2823
809.382 -207.041 2823
816.132 -207.041 2823
822.883 -207.041 2823
829.633 -207.041 2823
836.384 -207.041 2823
843.135 -207.041 2823
849.885 -207.041 2823
858.153 -207.408 2828
864.916 -207.408 2828
871.679 -207.408 2828
878.441 -207.408 2828
883.639 -207.041 2823
890.389 -207.041 2823
895.551 -206.674 2818
900.689 -206.308 2813
909.028 -206.674 2818
917.392 -207.041 2823
927.089 -207.701 2832
933.861 -207.701 2832
940.633 -207.701 2832
947.405 -207.701 2832
954.177 -207.701 2832
960.95 -207.701 2832
962.938 -206.674 2818
1279.36 -268.941 3667
1308.15 -273.121 3724
1317.05 -273.121 3724
1325.96 -273.121 3724
1334.86 -273.121 3724
1340.88 -272.534 3716
1349.77 -272.534 3716
1349.51 -270.701 3691
1358.34 -270.701 3691
1364.2 -270.114 3683
1373.01 -270.114 3683
1375.81 -268.941 3667
1384.58 -268.941 3667
1393.35 -268.941 3667
1402.12 -268.941 3667
1404.35 -267.694 3650
1409.98 -267.107 3642
1415.96 -266.594 3635
1424.65 -266.594 3635
1430.19 -266.007 3627
1435.69 -265.42 3619
1441.15 -264.833 3611
1443.36 -263.66 3595
1451.96 -263.66 3595
1460.56 -263.66 3595
1466.29 -263.147 3588
1474.87 -263.147 3588
1483.45 -263.147 3588
1488.71 -262.56 3580
1493.92 -261.973 3572
1496.15 -260.873 3557
1504.66 -260.873 3557
1494.02 -257.573 3512
1493.01 -255.959 3490
1491.89 -254.346 3468
1500.18 -254.346 3468
1505.43 -253.832 3461
1513.71 -253.832 3461
1515.83 -252.806 3447
1513.17 -199.267 2717
1519.67 -199.267 2717
1526.16 -199.267 2717
1527.59 -198.607 2708
1539.16 -199.267 2717
1547.93 -199.56 2721
1554.44 -199.56 2721
1560.95 -199.56 2721
1565.15 -199.267 2717
1571.65 -199.267 2717
1575.82 -198.973 2713
1582.31 -198.973 2713
1588.79 -198.973 2713
1597.63 -199.267 2717
1611.81 -200.22 2730
1618.33 -200.22 2730
1624.86 -200.22 2730
1631.39 -200.22 2730
1637.92 -200.22 2730
1642.04 -199.927 2726
1645.53 -199.56 2721
1649.61 -199.267 2717
1656.11 -199.267 2717
1654.65 -198.313 2704
1655.59 -197.653 2695
1664.5 -197.947 2699
1670.95 -197.947 2699
1677.41 -197.947 2699
1683.86 -197.947 2699
1685.31 -197.36 2691
1691.74 -197.36 2691
1692.5 -196.7 2682
1698.91 -196.7 2682
1702.78 -196.407 2678
1703.44 -195.746 2669
1709.82 -195.746 2669
1711.06 -195.16 2661
1711.61 -194.5 2652
1706.94 -193.253 2635
1713.24 -193.253 2635
1716.94 -192.96 2631
1723.23 -192.96 2631
1721.63 -192.079 2619
1727.89 -192.079 2619
1734.16 -192.079 2619
1737.76 -191.786 2615
1744.01 -191.786 2615
1750.27 -191.786 2615
1756.52 -191.786 2615
1760.08 -191.493 2611
1763.61 -191.199 2607
1767.13 -190.906 2603
1773.36 -190.906 2603
1776.85 -190.613 2599
1783.06 -190.613 2599
1785.84 -190.246 2594
1801.02 -191.199 2607
1807.25 -191.199 2607
1813.49 -191.199 2607
1819.72 -191.199 2607
1825.96 -191.199 2607
1832.19 -191.199 2607
1835.6 -190.906 2603
1841.83 -190.906 2603
1841.66 -190.246 2594
1847.87 -190.246 2594
1851.21 -189.953 2590
1854.54 -189.659 2586
1854.96 -189.072 2578
1861.13 -189.072 2578
1864.4 -188.779 2574
1868.37 -188.559 2571
1874.52 -188.559 2571
1880.67 -188.559 2571
1883.88 -188.266 2567
1884.13 -187.679 2559
1890.25 -187.679 2559
1893.4 -187.386 2555
1899.51 -187.386 2555
1905.62 -187.386 2555
1905.74 -186.799 2547
1905.83 -186.212 2539
1911.9 -186.212 2539
1917.97 -186.212 2539
1927.08 -186.506 2543
1939.24 -187.092 2551
1948.39 -187.386 2555
1954.5 -187.386 2555
-2044.02 -193.68 2730
-2050.92 -194.958 2748
-2048.07 -195.312 2753
-2041.49 -195.312 2753
-2045.25 -196.305 2767
-2038.64 -196.305 2767
-2032.02 -196.305 2767
-2001.98 -194.035 2735
-1985.23 -193.042 2721
-1962.72 -191.481 2699
-1956.27 -191.481 2699
-2343.72 -234.829 3310
-2335.8 -234.829 3310
-2332.81 -235.325 3317
-2333.99 -236.248 3330
-2340 -237.667 3350
-2331.99 -237.667 3350
-2357.28 -241.072 3398
-2353.99 -241.569 3405
-2355.49 -242.562 3419
-2347.32 -242.562 3419
-2358.3 -244.548 3447
-2350.05 -244.548 3447
-2346.57 -245.045 3454
-2338.31 -245.045 3454
-2334.77 -245.541 3461
-2336.58 -246.606 3476
-2328.26 -246.606 3476
-2319.95 -246.606 3476
-2311.64 -246.606 3476
-2312.61 -247.599 3490
-2314.16 -248.663 3505
-2305.78 -248.663 3505
-2307.23 -249.727 3520
-2298.81 -249.727 3520
-2319.68 -252.92 3565
-2311.15 -252.92 3565
-2302.63 -252.92 3565
-2294.1 -252.92 3565
-2285.58 -252.92 3565
-2277.05 -252.92 3565
-2278.07 -253.984 3580
-2269.51 -253.984 3580
-2260.95 -253.984 3580
-2252.39 -253.984 3580
-2238.82 -253.416 3572
-2230.27 -253.416 3572
-2221.73 -253.416 3572
-2208.85 -252.92 3565
-2200.33 -252.92 3565
-2129.77 -248.663 3505
-2121.39 -248.663 3505
-2113.01 -248.663 3505
-2091.42 -247.102 3483
-2065.74 -245.045 3454
-2057.48 -245.045 3454
-2066.43 -247.102 3483
-2058.1 -247.102 3483
-2058.01 -248.095 3497
-2063.13 -249.727 3520
-2054.71 -249.727 3520
-2046.29 -249.727 3520
-2033.24 -249.16 3512
-2024.85 -249.16 3512
-2016.45 -249.16 3512
-2092.95 -262.994 3707
-2084.09 -262.994 3707
-2093.7 -265.335 3740
-2103.7 -267.747 3774
-2104.67 -269.024 3792
-2095.6 -269.024 3792
-2090.94 -269.592 3800
-2101.02 -272.075 3835
-2106.58 -273.991 3862
-2097.35 -273.991 3862
-2088.11 -273.991 3862
-2078.88 -273.991 3862
-2069.64 -273.991 3862
-2055.6 -273.352 3853
-2055.95 -274.629 3871
-2046.69 -274.629 3871
-2037.44 -274.629 3871
-2014.03 -272.714 3844
-2004.84 -272.714 3844
-1995.65 -272.714 3844
-1986.46 -272.714 3844
-1977.26 -272.714 3844
-1950.15 -270.23 3809
-1914.55 -266.541 3757
-1905.56 -266.541 3757
-1867.3 -262.426 3699
-1854.43 -261.859 3691
-1825.11 -258.95 3650
-1816.38 -258.95 3650
-1792.3 -256.751 3619
-1783.64 -256.751 3619
-1778.91 -257.318 3627
-1785.37 -259.518 3658
-1776.62 -259.518 3658
-1791.56 -262.994 3707
-1794.71 -264.768 3732
-1793.92 -265.974 3749
-1784.96 -265.974 3749
-1787.84 -267.747 3774
-1778.81 -267.747 3774
-1778.23 -269.024 3792
-1769.16 -269.024 3792
-1760.09 -269.024 3792
-1742.71 -267.747 3774
-1733.69 -267.747 3774
-1724.66 -267.747 3774
-1715.64 -267.747 3774
-1706.61 -267.747 3774
-1701.64 -268.386 3783
-1692.59 -268.386 3783
-1683.54 -268.386 3783
-1678.48 -269.024 3792
-1669.41 -269.024 3792
-1660.35 -269.024 3792
-1651.28 -269.024 3792
-1619.69 -265.335 3740
-1290.62 -222.484 3136
-1283.12 -222.484 3136
-1275.62 -222.484 3136
-1268.13 -222.484 3136
-1255.8 -221.633 3124
-1209.97 -214.822 3028
-1202.73 -214.822 3028
-1195.49 -214.822 3028
-1162.74 -210.211 2963
-1153.71 -209.856 2958
-1134.62 -207.657 2927
-1131.47 -208.366 2937
-1124.45 -208.366 2937
-1121.23 -209.076 2947
-1118.34 -209.856 2958
-1111.27 -209.856 2958
-1104.19 -209.856 2958
-1097.12 -209.856 2958
-1088.2 -209.501 2953
-1081.14 -209.501 2953
-1068.26 -208.366 2937
-1055.82 -207.302 2922
-1048.83 -207.302 2922
-1041.84 -207.302 2922
-1029.19 -206.167 2906
-1018.72 -205.457 2896
-1008.3 -204.748 2886
-1001.4 -204.748 2886
-992.776 -204.393 2881
-985.887 -204.393 2881
-978.997 -204.393 2881
-972.108 -204.393 2881
-965.219 -204.393 2881
-958.329 -204.393 2881
-943.514 -202.691 2857
-936.682 -202.691 2857
-926.596 -201.981 2847
-916.557 -201.272 2837
-909.773 -201.272 2837
-902.989 -201.272 2837
-896.205 -201.272 2837
-887.853 -200.917 2832
-881.081 -200.917 2832
-874.309 -200.917 2832
-869.068 -201.272 2837
-862.284 -201.272 2837
-855.5 -201.272 2837
-848.716 -201.272 2837
-841.932 -201.272 2837
-835.147 -201.272 2837
-828.363 -201.272 2837
-821.579 -201.272 2837
-814.795 -201.272 2837
-808.011 -201.272 2837
-801.227 -201.272 2837
-794.443 -201.272 2837
-787.659 -201.272 2837
-780.874 -201.272 2837
-775.455 -201.626 2842
-770.011 -201.981 2847
-763.203 -201.981 2847
-756.395 -201.981 2847
-749.587 -201.981 2847
-741.474 -201.626 2842
-734.678 -201.626 2842
-727.882 -201.626 2842
-721.086 -201.626 2842
-714.29 -201.626 2842
-707.494 -201.626 2842
-700.698 -201.626 2842
-693.901 -201.626 2842
-687.105 -201.626 2842
-680.309 -201.626 2842
-673.513 -201.626 2842
-666.717 -201.626 2842
-658.76 -201.272 2837
-653.125 -201.626 2842
-646.329 -201.626 2842
-641.783 -202.336 2852
-643.646 -205.103 2891
-647.965 -208.721 2942
-640.93 -208.721 2942
-633.895 -208.721 2942
-673.338 -226.741 3196
-665.695 -226.741 3196
-661.758 -228.018 3214
-664.452 -231.636 3265
-659.259 -232.558 3278
-651.42 -232.558 3278
-648.49 -234.332 3303
-647.185 -236.744 3337
-645.527 -239.085 3370
-637.468 -239.085 3370
-630.717 -239.582 3377
-622.641 -239.582 3377
-614.566 -239.582 3377
-606.49 -239.582 3377
-597.174 -239.085 3370
-585.62 -237.667 3350
-577.609 -237.667 3350
-569.598 -237.667 3350
-562.76 -238.163 3357
-554.733 -238.163 3357
-547.682 -238.589 3363
-539.64 -238.589 3363
-531.598 -238.589 3363
-521.533 -237.667 3350
-513.522 -237.667 3350
-503.549 -236.744 3337
-495.569 -236.744 3337
-487.59 -236.744 3337
-479.61 -236.744 3337
-471.63 -236.744 3337
-464.484 -237.17 3343
-456.49 -237.17 3343
-448.496 -237.17 3343
-440.502 -237.17 3343
-432.507 -237.17 3343
-422.862 -236.248 3330
-416.519 -237.17 3343
-410.236 -238.163 3357
-402.208 -238.163 3357
-394.885 -238.589 3363
-386.843 -238.589 3363
-378.801 -238.589 3363
-370.759 -238.589 3363
-362.07 -238.163 3357
-354.675 -238.589 3363
-346.633 -238.589 3363
-338.592 -238.589 3363
-330.55 -238.589 3363
-321.932 -238.163 3357
-313.905 -238.163 3357
-304.601 -237.17 3343
-296.607 -237.17 3343
-288.613 -237.17 3343
-281.207 -237.667 3350
-273.196 -237.667 3350
-266.768 -239.085 3370
-259.784 -240.079 3384
-251.692 -240.079 3384
-243.6 -240.079 3384
-152.969 -155.938 2198
-147.713 -155.938 2198
-142.456 -155.938 2198
-136.639 -155.299 2189
-131.404 -155.299 2189
-125.881 -154.944 2184
-120.659 -154.944 2184
-115.277 -154.732 2181
-109.456 -153.88 2169
-103.885 -153.313 2161
-98.7176 -153.313 2161
-93.5499 -153.313 2161
-88.0551 -152.745 2153
-82.7911 -152.532 2150
-77.6498 -152.532 2150
-72.4074 -152.319 2147
-67.1792 -152.107 2144
-61.8208 -151.539 2136
-56.7129 -151.539 2136
-51.4843 -151.184 2131
-46.3231 -150.971 2128
-41.1763 -150.759 2125
-36.0948 -150.759 2125
-31.0133 -150.759 2125
-25.8951 -150.546 2122
-20.7717 -150.191 2117
-15.6871 -149.978 2114
-10.6319 -149.978 2114
-5.57138 -149.836 2112
-0.520949 -149.836 2112
4.52305 -149.624 2109
9.56631 -149.624 2109
14.5888 -149.411 2106
19.6062 -149.269 2104
24.6024 -149.056 2101
29.6265 -149.056 2101
34.6012 -148.843 2098
39.6181 -148.843 2098
44.5925 -148.701 2096
49.6047 -148.701 2096
54.6169 -148.701 2096
59.4868 -148.346 2091
64.3945 -148.134 2088
69.3875 -148.134 2088
74.2025 -147.779 2083
78.9935 -147.424 2078
83.9626 -147.424 2078
88.9317 -147.424 2078
93.4038 -146.644 2067
98.2515 -146.502 2065
102.79 -145.934 2057
107.604 -145.792 2055
112.518 -145.792 2055
116.689 -144.87 2042
121.394 -144.657 2039
125.712 -144.019 2030
130.567 -144.019 2030
134.887 -143.451 2022
139.377 -143.097 2017
143.557 -142.458 2008
148.359 -142.458 2008
152.55 -141.89 2000
157.175 -141.749 1998
162.115 -141.89 2000
166.898 -141.89 2000
171.68 -141.89 2000
176.463 -141.89 2000
181.246 -141.89 2000
186.307 -142.103 2003
191.574 -142.458 2008
196.376 -142.458 2008
201.378 -142.6 2010
206.697 -142.955 2015
211.516 -142.955 2015
216.334 -142.955 2015
221.153 -142.955 2015
378.212 -212.126 2990
385.362 -212.126 2990
395.269 -213.616 3011
402.469 -213.616 3011
409.669 -213.616 3011
410.224 -210.211 2963
417.31 -210.211 2963
421.387 -208.721 2942
428.422 -208.721 2942
434.717 -208.366 2937
438.733 -206.947 2917
444.027 -206.167 2906
450.976 -206.167 2906
456.35 -205.457 2896
462.475 -205.103 2891
468.577 -204.748 2886
473.83 -204.038 2876
480.708 -204.038 2876
485.89 -203.329 2866
492.056 -203.045 2862
498.899 -203.045 2862
505.743 -203.045 2862
512.587 -203.045 2862
519.431 -203.045 2862
526.275 -203.045 2862
533.119 -203.045 2862
539.02 -202.691 2857
545.852 -202.691 2857
551.716 -202.336 2852
558.536 -202.336 2852
565.356 -202.336 2852
572.176 -202.336 2852
577.981 -201.981 2847
584.789 -201.981 2847
590.558 -201.626 2842
597.354 -201.626 2842
604.15 -201.626 2842
610.946 -201.626 2842
617.743 -201.626 2842
624.539 -201.626 2842
631.335 -201.626 2842
637.008 -201.272 2837
643.792 -201.272 2837
650.576 -201.272 2837
656.202 -200.917 2832
662.974 -200.917 2832
669.746 -200.917 2832
676.518 -200.917 2832
683.291 -200.917 2832
690.063 -200.917 2832
696.835 -200.917 2832
703.607 -200.917 2832
710.379 -200.917 2832
717.151 -200.917 2832
723.924 -200.917 2832
730.696 -200.917 2832
736.426 -200.633 2828
743.189 -200.633 2828
749.952 -200.633 2828
756.714 -200.633 2828
763.477 -200.633 2828
770.239 -200.633 2828
777.002 -200.633 2828
783.765 -200.633 2828
789.13 -200.278 2823
795.88 -200.278 2823
802.631 -200.278 2823
810.815 -200.633 2828
817.578 -200.633 2828
824.34 -200.633 2828
829.633 -200.278 2823
836.384 -200.278 2823
843.135 -200.278 2823
851.391 -200.633 2828
858.153 -200.633 2828
864.916 -200.633 2828
871.679 -200.633 2828
878.441 -200.633 2828
885.204 -200.633 2828
891.966 -200.633 2828
897.14 -200.278 2823
900.689 -199.569 2813
909.028 -199.924 2818
917.392 -200.278 2823
927.089 -200.917 2832
933.861 -200.917 2832
940.633 -200.917 2832
947.405 -200.917 2832
954.177 -200.917 2832
960.95 -200.917 2832
962.938 -199.924 2818
967.956 -199.569 2813
974.683 -199.569 2813
1279.36 -260.156 3667
1322.9 -267.18 3766
1331.91 -267.18 3766
1340.91 -267.18 3766
1349.92 -267.18 3766
1346.66 -264.768 3732
1355.58 -264.768 3732
1364.5 -264.768 3732
1370.48 -264.2 3724
1367.17 -261.859 3691
1375.99 -261.859 3691
1384.82 -261.859 3691
1390.62 -261.291 3683
1399.43 -261.291 3683
1408.24 -261.291 3683
1410.89 -260.156 3667
1413.08 -258.95 3650
1418.69 -258.383 3642
1427.4 -258.383 3642
1433.35 -257.886 3635
1438.87 -257.318 3627
1444.35 -256.751 3619
1446.58 -255.616 3603
1455.19 -255.616 3603
1460.56 -255.048 3595
1466.29 -254.552 3588
1474.87 -254.552 3588
1483.45 -254.552 3588
1488.71 -253.984 3580
1493.92 -253.416 3572
1496.15 -252.352 3557
1504.66 -252.352 3557
1494.02 -249.16 3512
1493.01 -247.599 3490
1491.89 -246.038 3468
1500.18 -246.038 3468
1505.43 -245.541 3461
1513.71 -245.541 3461
1515.83 -244.548 3447
1504.46 -192.474 2713
1513.17 -192.758 2717
1519.67 -192.758 2717
1526.16 -192.758 2717
1530.41 -192.474 2713
1541.43 -193.042 2721
1547.93 -193.042 2721
1554.44 -193.042 2721
1560.95 -193.042 2721
1565.15 -192.758 2717
1571.65 -192.758 2717
1575.82 -192.474 2713
1582.31 -192.474 2713
1591.14 -192.758 2717
1597.63 -192.758 2717
1611.81 -193.68 2730
1618.33 -193.68 2730
1624.86 -193.68 2730
1631.39 -193.68 2730
1637.92 -193.68 2730
1642.04 -193.397 2726
1645.53 -193.042 2721
1649.61 -192.758 2717
1656.11 -192.758 2717
1654.65 -191.836 2704
1655.59 -191.197 2695
1664.5 -191.481 2699
1670.95 -191.481 2699
1677.41 -191.481 2699
1683.86 -191.481 2699
1685.31 -190.914 2691
1691.74 -190.914 2691
1695.02 -190.559 2686
1698.91 -190.275 2682
1705.32 -190.275 2682
1703.44 -189.353 2669
1709.82 -189.353 2669
1711.06 -188.785 2661
1711.61 -188.147 2652
1710.18 -187.295 2640
1716.5 -187.295 2640
1719.55 -186.941 2635
1723.23 -186.657 2631
1724.26 -186.089 2623
1730.53 -186.089 2623
1736.8 -186.089 2623
1737.76 -185.522 2615
1744.01 -185.522 2615
1750.27 -185.522 2615
1756.52 -185.522 2615
1762.77 -185.522 2615
1763.61 -184.954 2607
1767.13 -184.67 2603
1773.36 -184.67 2603
1779.58 -184.67 2603
1783.06 -184.387 2599
1789.28 -184.387 2599
1801.02 -184.954 2607
1807.25 -184.954 2607
1813.49 -184.954 2607
1819.72 -184.954 2607
1825.96 -184.954 2607
1832.19 -184.954 2607
1835.6 -184.67 2603
1841.83 -184.67 2603
1845.21 -184.387 2599
1851.43 -184.387 2599
1851.21 -183.748 2590
1854.54 -183.464 2586
1854.96 -182.897 2578
1861.13 -182.897 2578
1864.4 -182.613 2574
1868.37 -182.4 2571
1874.52 -182.4 2571
1880.67 -182.4 2571
1883.88 -182.116 2567
1884.13 -181.549 2559
1890.25 -181.549 2559
1893.4 -181.265 2555
1899.51 -181.265 2555
1905.62 -181.265 2555
1908.74 -180.981 2551
1908.83 -180.414 2543
1914.91 -180.414 2543
1921 -180.414 2543
1930.11 -180.698 2547
1939.24 -180.981 2551
1948.39 -181.265 2555
1954.5 -181.265 2555
-2037.28 -186.524 2721
-2047.94 -188.1 2744
-2048.07 -188.717 2753
-2041.49 -188.717 2753
-2034.91 -188.717 2753
-2028.32 -188.717 2753
-2021.74 -188.717 2753
-2001.98 -187.484 2735
-1985.23 -186.524 2721
-1962.72 -185.016 2699
-1956.27 -185.016 2699
-2343.72 -226.9 3310
-2335.8 -226.9 3310
-2332.81 -227.379 3317
-2333.99 -228.271 3330
-2340 -229.642 3350
-2331.99 -229.642 3350
-2357.28 -232.932 3398
-2353.99 -233.412 3405
-2355.49 -234.372 3419
-2347.32 -234.372 3419
-2358.3 -236.291 3447
-2350.05 -236.291 3447
-2346.57 -236.771 3454
-2338.31 -236.771 3454
-2334.77 -237.251 3461
-2336.58 -238.279 3476
-2328.26 -238.279 3476
-2319.95 -238.279 3476
-2311.64 -238.279 3476
-2312.61 -239.239 3490
-2314.16 -240.267 3505
-2305.78 -240.267 3505
-2307.23 -241.295 3520
-2298.81 -241.295 3520
-2319.68 -244.38 3565
-2311.15 -244.38 3565
-2302.63 -244.38 3565
-2294.1 -244.38 3565
-2285.58 -244.38 3565
-2277.05 -244.38 3565
-2278.07 -245.408 3580
-2269.51 -245.408 3580
-2260.95 -245.408 3580
-2252.39 -245.408 3580
-2238.82 -244.86 3572
-2230.27 -244.86 3572
-2221.73 -244.86 3572
-2208.85 -244.38 3565
-2200.33 -244.38 3565
-2129.77 -240.267 3505
-2121.39 -240.267 3505
-2113.01 -240.267 3505
-2091.42 -238.759 3483
-2065.74 -236.771 3454
-2057.48 -236.771 3454
-2066.43 -238.759 3483
-2058.1 -238.759 3483
-2058.01 -239.718 3497
-2063.13 -241.295 3520
-2054.71 -241.295 3520
-2046.29 -241.295 3520
-2033.24 -240.747 3512
-2024.85 -240.747 3512
-2016.45 -240.747 3512
-2092.95 -254.114 3707
-2084.09 -254.114 3707
-2093.7 -256.376 3740
-2103.7 -258.707 3774
-2104.67 -259.941 3792
-2095.6 -259.941 3792
-2090.94 -260.489 3800
-2101.02 -262.888 3835
-2106.58 -264.739 3862
-2097.35 -264.739 3862
-2088.11 -264.739 3862
-2078.88 -264.739 3862
-2069.64 -264.739 3862
-2055.6 -264.122 3853
-2055.95 -265.356 3871
-2046.69 -265.356 3871
-2037.44 -265.356 3871
-2014.03 -263.505 3844
-2004.84 -263.505 3844
-1995.65 -263.505 3844
-1986.46 -263.505 3844
-1977.26 -263.505 3844
-1950.15 -261.106 3809
-1914.55 -257.541 3757
-1905.56 -257.541 3757
-1867.3 -253.565 3699
-1854.43 -253.017 3691
-1825.11 -250.207 3650
-1816.38 -250.207 3650
-1792.3 -248.081 3619
-1783.64 -248.081 3619
-1778.91 -248.63 3627
-1785.37 -250.755 3658
-1776.62 -250.755 3658
-1787.69 -253.565 3699
-1794.71 -255.828 3732
-1793.92 -256.993 3749
-1784.96 -256.993 3749
-1787.84 -258.707 3774
-1778.81 -258.707 3774
-1769.79 -258.707 3774
-1760.76 -258.707 3774
-1751.74 -258.707 3774
-1727.01 -256.376 3740
-1725.88 -257.541 3757
-1724.66 -258.707 3774
-1715.64 -258.707 3774
-1706.61 -258.707 3774
-1697.59 -258.707 3774
-1692.59 -259.324 3783
-1683.54 -259.324 3783
-1674.5 -259.324 3783
-1665.45 -259.324 3783
-1656.41 -259.324 3783
-1647.36 -259.324 3783
-1619.69 -256.376 3740
-1290.62 -214.972 3136
-1283.12 -214.972 3136
-1275.62 -214.972 3136
-1268.13 -214.972 3136
-1255.8 -214.149 3124
-1209.97 -207.569 3028
-1202.73 -207.569 3028
-1195.49 -207.569 3028
-1162.74 -203.113 2963
-1151.76 -202.427 2953
-1134.62 -200.645 2927
