ply
format ascii 1.0
comment File generated
element vertex 2249
property float x
property float y
property float z
end_header
1375.98 562.594 3290
1381.32 561.568 3284
1383.68 559.345 3271
1391.5 559.345 3271
1396.76 558.319 3265
1404.56 558.319 3265
1412.37 558.319 3265
1420.18 558.319 3265
1424.92 557.122 3258
1432.72 557.122 3258
1440.51 557.122 3258
1451.41 558.319 3265
1459.22 558.319 3265
1469.72 559.345 3271
1477.54 559.345 3271
1485.36 559.345 3271
1493.19 559.345 3271
1498.25 558.319 3265
1502.83 557.122 3258
1510.62 557.122 3258
1515.62 556.096 3252
1517.31 553.873 3239
1522.23 552.847 3233
1520.97 549.598 3214
1528.65 549.598 3214
1527.73 546.52 3196
1520.96 541.39 3166
1514.05 536.26 3136
1521.55 536.26 3136
1511.98 530.275 3101
1499.8 523.435 3061
1482.5 514.884 3011
1471.4 508.557 2974
1478.51 508.557 2974
1462.14 500.52 2927
1448.56 493.509 2886
1450.42 491.799 2876
1457.3 491.799 2876
1459.08 490.089 2866
1461.33 488.55 2857
1465.6 487.695 2852
1472.42 487.695 2852
1476.64 486.84 2847
1480.85 485.985 2842
1487.64 485.985 2842
1491.81 485.13 2837
1498.59 485.13 2837
1502.72 484.275 2832
1509.5 484.275 2832
1516.27 484.275 2832
1523.04 484.275 2832
1527.65 483.591 2828
1531.7 482.736 2823
1535.73 481.881 2818
1542.47 481.881 2818
1546.46 481.026 2813
1550.97 480.342 2809
1554.92 479.487 2804
1561.62 479.487 2804
1565.53 478.632 2799
1572.23 478.632 2799
1578.92 478.632 2799
1585.61 478.632 2799
1592.3 478.632 2799
1599 478.632 2799
1605.69 478.632 2799
1615.26 479.487 2804
1621.97 479.487 2804
1628.68 479.487 2804
1638.3 480.342 2809
1645.01 480.342 2809
1654.08 481.026 2813
1660.81 481.026 2813
1670.5 481.881 2818
1677.24 481.881 2818
1683.98 481.881 2818
1690.72 481.881 2818
1697.46 481.881 2818
1704.19 481.881 2818
1713.97 482.736 2823
1723.77 483.591 2828
1730.53 483.591 2828
1737.29 483.591 2828
1740.97 482.736 2823
1747.72 482.736 2823
1754.47 482.736 2823
1758.1 481.881 2818
1767.97 482.736 2823
1774.72 482.736 2823
1781.47 482.736 2823
1788.23 482.736 2823
1788.62 481.026 2813
1795.34 481.026 2813
1799.51 480.342 2809
1806.23 480.342 2809
1809.72 479.487 2804
1813.18 478.632 2799
1819.88 478.632 2799
1823.31 477.777 2794
1829.99 477.777 2794
1836.67 477.777 2794
1843.35 477.777 2794
1850.03 477.777 2794
1854.05 477.093 2790
1857.39 476.238 2785
1864.05 476.238 2785
1867.35 475.383 2780
1871.3 474.699 2776
1874.56 473.844 2771
1881.19 473.844 2771
1885.09 473.16 2767
1882.13 470.766 2753
1888.72 470.766 2753
1891.86 469.911 2748
1898.43 469.911 2748
1902.23 469.227 2744
1908.79 469.227 2744
1915.35 469.227 2744
1921.91 469.227 2744
1924.96 468.372 2739
1931.51 468.372 2739
1935.23 467.688 2735
1941.77 467.688 2735
1948.31 467.688 2735
1954.85 467.688 2735
1961.39 467.688 2735
1967.93 467.688 2735
1967.97 466.149 2726
1967.97 464.61 2717
1974.47 464.61 2717
1980.97 464.61 2717
2003.56 468.372 2739
2010.11 468.372 2739
2016.66 468.372 2739
2023.21 468.372 2739
2029.76 468.372 2739
2029.61 466.833 2730
2053.3 470.766 2753
2062.87 471.45 2757
2073.22 472.305 2762
2079.82 472.305 2762
2086.43 472.305 2762
2096.82 473.16 2767
2106.48 473.844 2771
2113.11 473.844 2771
2119.73 473.844 2771
-2106.16 487.765 2813
-2099.44 487.765 2813
-2092.71 487.765 2813
-2085.98 487.765 2813
-2079.26 487.765 2813
-2072.53 487.765 2813
-2065.8 487.765 2813
-2059.07 487.765 2813
-2059.64 489.499 2823
-2059.44 491.059 2832
-2052.67 491.059 2832
-2045.89 491.059 2832
-2042.72 491.926 2837
-2046.7 494.527 2852
-2053.47 497.822 2871
-2046.61 497.822 2871
-2061.06 503.024 2901
-2101.56 514.641 2968
-2094.46 514.641 2968
-2087.36 514.641 2968
-2080.27 514.641 2968
-2073.17 514.641 2968
-2059.11 512.907 2958
-2030.53 507.532 2927
-2020.08 506.665 2922
-2005.51 504.758 2911
-1998.55 504.758 2911
-1991.59 504.758 2911
-1988.72 505.798 2917
-1991.93 508.399 2932
-1984.92 508.399 2932
-1977.91 508.399 2932
-1970.9 508.399 2932
-1963.89 508.399 2932
-1963.55 510.133 2942
-1956.52 510.133 2942
-1963.4 513.774 2963
-1977.44 519.323 2995
-1970.28 519.323 2995
-1963.11 519.323 2995
-1966.4 522.097 3011
-1987.83 529.727 3055
-1980.53 529.727 3055
-1984.2 532.675 3072
-1991.65 536.663 3095
-1984.25 536.663 3095
-1976.85 536.663 3095
-1984.09 540.651 3118
-1991.85 544.812 3142
-1984.33 544.812 3142
-1976.82 544.812 3142
-1980.59 547.933 3160
-1973.03 547.933 3160
-1965.47 547.933 3160
-1957.92 547.933 3160
-1954.06 548.974 3166
-1964.94 554.176 3196
-1964.64 556.256 3208
-1956.97 556.256 3208
-1952.95 557.297 3214
-1945.26 557.297 3214
-1937.58 557.297 3214
-1929.89 557.297 3214
-1926.39 558.511 3221
-1929.41 561.632 3239
-1963.79 573.943 3310
-1955.87 573.943 3310
-1959.73 577.411 3330
-1967.59 582.093 3357
-1983.5 589.202 3398
-1975.37 589.202 3398
-1983.46 594.057 3426
-1999.48 601.34 3468
-1999.8 603.941 3483
-1991.47 603.941 3483
-1991.11 606.368 3497
-1987.28 607.755 3505
-1978.9 607.755 3505
-1970.52 607.755 3505
-1962.14 607.755 3505
-1953.76 607.755 3505
-1945.38 607.755 3505
-1936.99 607.755 3505
-1928.61 607.755 3505
-1920.23 607.755 3505
-1915.67 608.969 3512
-1907.27 608.969 3512
-1903.2 610.356 3520
-1898.55 611.57 3527
-1893.87 612.784 3534
-1885.41 612.784 3534
-1876.96 612.784 3534
-1872.74 614.171 3542
-1867.96 615.385 3549
-1859.47 615.385 3549
-1855.16 616.772 3557
-1846.65 616.772 3557
-1838.14 616.772 3557
-1829.64 616.772 3557
-1825.23 618.159 3565
-1816.7 618.159 3565
-1811.73 619.373 3572
-1803.19 619.373 3572
-1798.66 620.76 3580
-1794.1 622.147 3588
-1789.01 623.361 3595
-1780.41 623.361 3595
-1775.76 624.748 3603
-1767.14 624.748 3603
-1762.43 626.135 3611
-1753.79 626.135 3611
-1749.03 627.523 3619
-1744.22 628.91 3627
-1746.55 632.898 3650
-1737.82 632.898 3650
-1737.15 635.846 3667
-1732.15 637.233 3675
-1734.62 641.394 3699
-1725.77 641.394 3699
-1735.96 648.504 3740
-1731.17 650.064 3749
-1741.96 657.52 3792
-1732.89 657.52 3792
-1723.82 657.52 3792
-1738.27 666.537 3844
-1745.27 672.779 3880
-1735.99 672.779 3880
-1726.71 672.779 3880
-1717.43 672.779 3880
-1708.16 672.779 3880
-1683.12 666.537 3844
-1666.08 663.416 3826
-1616.23 647.116 3732
-1586.2 638.62 3683
-1577.39 638.62 3683
-1557.94 634.285 3658
-1532.67 627.523 3619
-1504.23 619.373 3572
-1495.68 619.373 3572
-1477.57 615.385 3549
-1459.97 611.57 3527
-1445.37 608.969 3512
-1436.97 608.969 3512
-1419.62 605.154 3490
-1405.61 602.727 3476
-1385.64 597.698 3447
-1377.4 597.698 3447
-1366.38 596.484 3440
-1355.39 595.271 3433
-1344.43 594.057 3426
-1336.24 594.057 3426
-1325.33 592.843 3419
-1314.46 591.629 3412
-1317.02 596.484 3440
-1311.46 597.698 3447
-1305.86 598.912 3454
-1297.6 598.912 3454
-1291.96 600.126 3461
-1289.24 602.727 3476
-1286.09 605.154 3490
-1277.74 605.154 3490
-1269.4 605.154 3490
-1261.05 605.154 3490
-1252.71 605.154 3490
-1244.36 605.154 3490
-1228.23 601.34 3468
-1219.93 601.34 3468
-1211.64 601.34 3468
-1193.63 596.484 3440
-1178.17 592.843 3419
-1150.83 583.133 3363
-1142.79 583.133 3363
-1121.25 576.197 3323
-954.386 504.758 2911
-947.425 504.758 2911
-940.464 504.758 2911
-933.503 504.758 2911
-926.542 504.758 2911
-914.843 502.157 2896
-906.35 501.29 2891
-899.437 501.29 2891
-897.154 503.891 2906
-890.205 503.891 2906
-895.718 511 2947
-890.48 512.04 2953
-883.418 512.04 2953
-876.357 512.04 2953
-873.711 514.641 2968
-866.613 514.641 2968
-859.516 514.641 2968
-852.419 514.641 2968
-843.897 513.774 2963
-913.157 648.504 3740
-904.213 648.504 3740
-895.27 648.504 3740
-886.326 648.504 3740
-760.259 632.898 3650
-751.53 632.898 3650
-742.802 632.898 3650
-734.074 632.898 3650
-692.159 603.941 3483
-683.83 603.941 3483
-675.501 603.941 3483
-667.172 603.941 3483
-660.167 605.154 3490
-660.039 612.784 3534
-655.829 616.772 3557
-647.323 616.772 3557
-641.511 619.373 3572
-632.969 619.373 3572
-624.428 619.373 3572
-615.886 619.373 3572
-607.344 619.373 3572
-598.802 619.373 3572
-592.905 622.147 3588
-586.768 624.748 3603
-578.152 624.748 3603
-570.8 626.135 3611
-563.411 627.523 3619
-554.757 627.523 3619
-546.103 627.523 3619
-537.448 627.523 3619
-531.132 630.297 3635
-522.44 630.297 3635
-513.747 630.297 3635
-506.028 631.511 3642
-497.319 631.511 3642
-488.609 631.511 3642
-478.978 630.297 3635
-469.25 628.91 3627
-460.577 628.91 3627
-451.904 628.91 3627
-443.231 628.91 3627
-436.355 631.511 3642
-428.585 632.898 3650
-419.857 632.898 3650
-411.128 632.898 3650
-404.274 635.846 3667
-396.368 637.233 3675
-389.268 640.007 3691
-380.441 640.007 3691
-371.615 640.007 3691
-364.361 642.781 3707
-357.894 647.116 3732
-348.97 647.116 3732
-340.775 648.504 3740
-333.339 651.451 3757
-325.823 654.399 3774
-316.798 654.399 3774
-309.241 657.52 3792
-300.807 658.907 3800
-291.72 658.907 3800
-282.633 658.907 3800
-272.97 657.52 3792
-262.649 654.399 3774
-253.625 654.399 3774
-244.081 653.012 3766
-232.953 647.116 3732
-223.549 645.729 3724
-214.183 644.342 3716
-205.296 644.342 3716
-195.512 641.394 3699
-185.052 635.846 3667
-175.081 631.511 3642
-166.372 631.511 3642
-157.013 628.91 3627
-146.418 620.76 3580
-137.857 620.76 3580
-129.296 620.76 3580
-72.6097 373.323 2153
-67.4612 373.323 2153
-62.3128 373.323 2153
-57.1643 373.323 2153
-51.7984 371.762 2144
-46.6279 371.416 2142
-41.4476 370.895 2139
-36.3835 371.416 2142
-31.2614 371.416 2142
-26.1392 371.416 2142
-21.017 371.416 2142
-15.8949 371.416 2142
-10.7727 371.416 2142
-5.64261 370.895 2139
-0.527609 370.895 2139
4.59382 371.416 2142
9.71599 371.416 2142
14.8382 371.416 2142
20.0069 372.283 2147
25.1411 372.283 2147
30.388 373.67 2155
35.5413 373.67 2155
40.7512 374.19 2158
45.9754 374.71 2161
51.285 375.751 2167
56.467 375.751 2167
61.7912 376.618 2172
67.1701 377.658 2178
72.4781 378.178 2181
77.6935 378.178 2181
83.099 379.045 2186
88.4476 379.565 2189
93.8106 380.085 2192
99.0523 380.085 2192
104.437 380.606 2195
109.986 381.646 2201
115.406 382.166 2204
120.676 382.166 2204
126.118 382.686 2207
131.753 383.727 2213
137.169 384.074 2215
142.466 384.074 2215
147.762 384.074 2215
153.059 384.074 2215
158.356 384.074 2215
163.505 383.727 2213
168.568 383.207 2210
174.246 384.074 2215
179.543 384.074 2215
184.839 384.074 2215
190.136 384.074 2215
195.433 384.074 2215
200.277 383.207 2210
205.561 383.207 2210
210.274 382.166 2204
215.251 381.646 2201
220.514 381.646 2201
225.777 381.646 2201
231.04 381.646 2201
236.304 381.646 2201
242.884 383.727 2213
248.176 383.727 2213
253.468 383.727 2213
550.732 519.323 2995
564.041 525.045 3028
571.281 525.045 3028
581.579 527.819 3044
588.858 527.819 3044
596.138 527.819 3044
602.426 526.952 3039
606.282 524.005 3022
610.26 521.23 3006
619.708 523.138 3017
626.923 523.138 3017
641.073 528.86 3050
650.705 530.767 3061
658.025 530.767 3061
665.345 530.767 3061
668.929 527.819 3044
671.321 524.005 3022
678.547 524.005 3022
682.143 521.23 3006
687.955 520.19 3000
693.971 519.323 2995
701.133 519.323 2995
710.896 521.23 3006
718.084 521.23 3006
725.273 521.23 3006
732.461 521.23 3006
739.649 521.23 3006
746.837 521.23 3006
756.785 523.138 3017
768.051 525.912 3033
775.304 525.912 3033
782.557 525.912 3033
788.508 525.045 3028
795.748 525.045 3028
802.989 525.045 3028
797.119 516.549 2979
818.821 525.912 3033
833.7 530.767 3061
852.01 537.703 3101
859.425 537.703 3101
871.593 540.651 3118
879.049 540.651 3118
886.505 540.651 3118
893.961 540.651 3118
898.237 538.743 3107
905.667 538.743 3107
921.619 543.772 3136
929.118 543.772 3136
947.369 550.014 3172
954.954 550.014 3172
975.285 557.297 3214
982.97 557.297 3214
990.656 557.297 3214
998.341 557.297 3214
1021.99 566.14 3265
1033.9 568.394 3278
1041.74 568.394 3278
1062.06 575.157 3317
1078.38 579.665 3343
1099.7 586.774 3384
1107.79 586.774 3384
1122.81 590.416 3405
1137.93 594.057 3426
1153.14 597.698 3447
1161.39 597.698 3447
1179.47 602.727 3476
1194.96 606.368 3497
1208.48 608.969 3512
1216.88 608.969 3512
1230.51 611.57 3527
1246.67 615.385 3549
1260.82 618.159 3565
1269.34 618.159 3565
1280.38 619.373 3572
1294.69 622.147 3588
1305.82 623.361 3595
1314.41 623.361 3595
1328.9 626.135 3611
1340.5 627.523 3619
1349.15 627.523 3619
1357.81 627.523 3619
1369.48 628.91 3627
1378.15 628.91 3627
1386.83 628.91 3627
1395.5 628.91 3627
1401.08 627.523 3619
1397.65 622.147 3588
1406.23 622.147 3588
1405.74 618.159 3565
1405.15 614.171 3542
1398.85 607.755 3505
1389.56 600.126 3461
1397.84 600.126 3461
1389.05 592.843 3419
1371.89 582.093 3357
1368.82 577.411 3330
1376.78 577.411 3330
1373.52 572.729 3303
1378.91 571.689 3297
1383.85 570.475 3290
1383.68 567.18 3271
1391.5 567.18 3271
1399.32 567.18 3271
1404.56 566.14 3265
1412.37 566.14 3265
1420.18 566.14 3265
1422.3 563.886 3252
1430.08 563.886 3252
1440.51 564.926 3258
1448.3 564.926 3258
1456.09 564.926 3258
1467.02 566.14 3265
1474.83 566.14 3265
1482.64 566.14 3265
1490.45 566.14 3265
1495.04 564.926 3258
1502.83 564.926 3258
1510.62 564.926 3258
1515.62 563.886 3252
1517.31 561.632 3239
1522.23 560.591 3233
1520.97 557.297 3214
1528.65 557.297 3214
1527.73 554.176 3196
1523.85 550.014 3172
1519.84 545.853 3148
1527.37 545.853 3148
1514.91 538.743 3107
1505.19 532.675 3072
1490.87 525.045 3028
1481.79 519.323 2995
1488.95 519.323 2995
1472.13 511 2947
1453.58 502.157 2896
1452.94 499.556 2881
1459.83 499.556 2881
1461.63 497.822 2871
1463.89 496.261 2862
1468.17 495.394 2857
1475 495.394 2857
1479.24 494.527 2852
1483.45 493.66 2847
1485.02 491.926 2837
1489.18 491.059 2832
1495.95 491.059 2832
1502.72 491.059 2832
1507.36 490.366 2828
1514.13 490.366 2828
1520.89 490.366 2828
1524.95 489.499 2823
1528.99 488.632 2818
1533 487.765 2813
1539.73 487.765 2813
1544.26 487.071 2809
1548.21 486.204 2804
1552.15 485.337 2799
1558.84 485.337 2799
1562.74 484.47 2794
1569.42 484.47 2794
1573.84 483.777 2790
1580.51 483.777 2790
1589.46 484.47 2794
1596.14 484.47 2794
1602.82 484.47 2794
1612.38 485.337 2799
1621.97 486.204 2804
1628.68 486.204 2804
1635.38 486.204 2804
1642.09 486.204 2804
1654.08 487.765 2813
1660.81 487.765 2813
1670.5 488.632 2818
1677.24 488.632 2818
1683.98 488.632 2818
1690.72 488.632 2818
1697.46 488.632 2818
1704.19 488.632 2818
1713.97 489.499 2823
1723.77 490.366 2828
1730.53 490.366 2828
1737.29 490.366 2828
1740.97 489.499 2823
1747.72 489.499 2823
1754.47 489.499 2823
1758.1 488.632 2818
1767.97 489.499 2823
1774.72 489.499 2823
1781.47 489.499 2823
1788.23 489.499 2823
1786.07 487.071 2809
1792.79 487.071 2809
1799.51 487.071 2809
1803.01 486.204 2804
1806.49 485.337 2799
1809.94 484.47 2794
1816.62 484.47 2794
1823.31 484.47 2794
1829.99 484.47 2794
1836.67 484.47 2794
1843.35 484.47 2794
1850.03 484.47 2794
1854.05 483.777 2790
1857.39 482.91 2785
1864.05 482.91 2785
1867.35 482.043 2780
1871.3 481.349 2776
1874.56 480.482 2771
1881.19 480.482 2771
1885.09 479.789 2767
1882.13 477.361 2753
1888.72 477.361 2753
1891.86 476.494 2748
1898.43 476.494 2748
1902.23 475.8 2744
1908.79 475.8 2744
1911.86 474.933 2739
1918.41 474.933 2739
1924.96 474.933 2739
1931.51 474.933 2739
1935.23 474.24 2735
1941.77 474.24 2735
1948.31 474.24 2735
1954.85 474.24 2735
1957.8 473.373 2730
1964.33 473.373 2730
1964.36 471.812 2721
1967.97 471.119 2717
1971.56 470.425 2713
1980.97 471.119 2717
2003.56 474.933 2739
2010.11 474.933 2739
2016.66 474.933 2739
2023.21 474.933 2739
2029.76 474.933 2739
2029.61 473.373 2730
2053.3 477.361 2753
2062.87 478.055 2757
2073.22 478.922 2762
2079.82 478.922 2762
2086.43 478.922 2762
2096.82 479.789 2767
2106.48 480.482 2771
2113.11 480.482 2771
2119.73 480.482 2771
-2103.17 493.8 2809
-2099.44 494.503 2813
-2092.71 494.503 2813
-2085.98 494.503 2813
-2079.26 494.503 2813
-2065.8 494.503 2813
-2059.07 494.503 2813
-2059.64 496.261 2823
-2059.44 497.843 2832
-2052.67 497.843 2832
-2045.89 497.843 2832
-2042.72 498.722 2837
-2046.7 501.359 2852
-2053.47 504.699 2871
-2046.61 504.699 2871
-2061.06 509.973 2901
-2101.56 521.751 2968
-2094.46 521.751 2968
-2087.36 521.751 2968
-2080.27 521.751 2968
-2073.17 521.751 2968
-2059.11 519.993 2958
-2030.53 514.544 2927
-2020.08 513.665 2922
-2005.51 511.731 2911
-1998.55 511.731 2911
-1991.59 511.731 2911
-1988.72 512.786 2917
-1991.93 515.423 2932
-1984.92 515.423 2932
-1977.91 515.423 2932
-1970.9 515.423 2932
-1963.89 515.423 2932
-1963.55 517.181 2942
-1956.52 517.181 2942
-1963.4 520.872 2963
-1977.44 526.498 2995
-1970.28 526.498 2995
-1963.11 526.498 2995
-1966.4 529.31 3011
-1987.83 537.045 3055
-1980.53 537.045 3055
-1984.2 540.034 3072
-1991.65 544.077 3095
-1984.25 544.077 3095
-1976.85 544.077 3095
-1984.09 548.12 3118
-1991.85 552.339 3142
-1984.33 552.339 3142
-1976.82 552.339 3142
-1980.59 555.503 3160
-1973.03 555.503 3160
-1965.47 555.503 3160
-1957.92 555.503 3160
-1954.06 556.558 3166
-1964.94 561.832 3196
-1964.64 563.941 3208
-1956.97 563.941 3208
-1952.95 564.996 3214
-1945.26 564.996 3214
-1937.58 564.996 3214
-1929.89 564.996 3214
-1926.39 566.227 3221
-1929.41 569.391 3239
-1963.79 581.872 3310
-1955.87 581.872 3310
-1959.73 585.388 3330
-1967.59 590.134 3357
-1983.5 597.342 3398
-1975.37 597.342 3398
-1983.46 602.264 3426
-1999.48 609.647 3468
-1999.8 612.284 3483
-1991.47 612.284 3483
-1991.11 614.745 3497
-1987.28 616.152 3505
-1978.9 616.152 3505
-1970.52 616.152 3505
-1962.14 616.152 3505
-1953.76 616.152 3505
-1945.38 616.152 3505
-1936.99 616.152 3505
-1928.61 616.152 3505
-1920.23 616.152 3505
-1911.85 616.152 3505
-1903.47 616.152 3505
-1903.2 618.788 3520
-1898.55 620.019 3527
-1893.87 621.25 3534
-1885.41 621.25 3534
-1876.96 621.25 3534
-1872.74 622.656 3542
-1867.96 623.886 3549
-1859.47 623.886 3549
-1855.16 625.293 3557
-1846.65 625.293 3557
-1838.14 625.293 3557
-1829.64 625.293 3557
-1825.23 626.699 3565
-1816.7 626.699 3565
-1811.73 627.93 3572
-1803.19 627.93 3572
-1798.66 629.336 3580
-1794.1 630.742 3588
-1789.01 631.973 3595
-1780.41 631.973 3595
-1775.76 633.379 3603
-1767.14 633.379 3603
-1762.43 634.786 3611
-1753.79 634.786 3611
-1749.03 636.192 3619
-1744.22 637.598 3627
-1746.55 641.641 3650
-1737.82 641.641 3650
-1737.15 644.63 3667
-1732.15 646.036 3675
-1734.62 650.255 3699
-1725.77 650.255 3699
-1735.96 657.463 3740
-1734.86 660.451 3757
-1741.96 666.604 3792
-1732.89 666.604 3792
-1731.55 669.592 3809
-1742.34 677.327 3853
-1745.27 682.074 3880
-1735.99 682.074 3880
-1730.72 683.656 3889
-1721.42 683.656 3889
-1712.12 683.656 3889
-1694.94 680.492 3871
-1666.08 672.581 3826
-1619.69 657.463 3740
-1600.41 653.244 3716
-1591.53 653.244 3716
-1565.18 646.036 3675
-1536.06 637.598 3627
-1507.6 629.336 3580
-1499.03 629.336 3580
-1480.9 625.293 3557
-1466.18 622.656 3542
-1445.37 617.382 3512
-1436.97 617.382 3512
-1422.47 614.745 3497
-1405.61 611.054 3476
-1385.64 605.956 3447
-1377.4 605.956 3447
-1369.16 605.956 3447
-1358.15 604.725 3440
-1344.43 602.264 3426
-1336.24 602.264 3426
-1328.05 602.264 3426
-1319.85 602.264 3426
-1319.7 605.956 3447
-1316.79 608.417 3461
-1311.16 609.647 3468
-1302.86 609.647 3468
-1297.56 611.054 3476
-1297.03 614.745 3497
-1291.62 616.152 3505
-1283.24 616.152 3505
-1274.86 616.152 3505
-1269 617.382 3512
-1260.6 617.382 3512
-1252.21 617.382 3512
-1241.33 616.152 3505
-1232.95 616.152 3505
-1224.57 616.152 3505
-1206.12 611.054 3476
-1197.81 611.054 3476
-1177.18 604.725 3440
-1168.95 604.725 3440
-1153.64 601.033 3419
-954.386 511.731 2911
-947.425 511.731 2911
-940.464 511.731 2911
-933.503 511.731 2911
-926.542 511.731 2911
-914.843 509.094 2896
-906.35 508.215 2891
-899.437 508.215 2891
-902.094 513.665 2922
-895.106 513.665 2922
-900.581 520.872 2963
-898.32 523.685 2979
-891.196 523.685 2979
-884.073 523.685 2979
-876.949 523.685 2979
-879.169 529.31 3011
-871.969 529.31 3011
-864.768 529.31 3011
-843.897 520.872 2963
-933.284 659.045 3749
-924.319 659.045 3749
-915.354 659.045 3749
-906.389 659.045 3749
-897.424 659.045 3749
-890.355 660.451 3757
-883.482 662.033 3766
-874.477 662.033 3766
-865.471 662.033 3766
-795.277 648.849 3691
-786.451 648.849 3691
-777.625 648.849 3691
-767.132 647.443 3683
-753.178 643.048 3658
-744.43 643.048 3658
-735.683 643.048 3658
-726.935 643.048 3658
-710.531 636.192 3619
-701.877 636.192 3619
-679.814 623.886 3549
-671.327 623.886 3549
-667.136 627.93 3572
-661.545 630.742 3588
-652.965 630.742 3588
-648.515 634.786 3611
-639.88 634.786 3611
-631.245 634.786 3611
-622.61 634.786 3611
-610.065 630.742 3588
-601.485 630.742 3588
-595.383 633.379 3603
-588.07 634.786 3611
-579.435 634.786 3611
-572.065 636.192 3619
-563.411 636.192 3619
-554.757 636.192 3619
-546.103 636.192 3619
-538.637 637.598 3627
-531.132 639.005 3635
-522.44 639.005 3635
-513.747 639.005 3635
-506.028 640.235 3642
-497.319 640.235 3642
-488.609 640.235 3642
-478.978 639.005 3635
-469.25 637.598 3627
-460.577 637.598 3627
-451.904 637.598 3627
-443.231 637.598 3627
-436.355 640.235 3642
-428.585 641.641 3650
-419.857 641.641 3650
-411.128 641.641 3650
-404.274 644.63 3667
-396.368 646.036 3675
-389.268 648.849 3691
-380.441 648.849 3691
-371.615 648.849 3691
-364.361 651.662 3707
-357.894 656.056 3732
-348.97 656.056 3732
-340.775 657.463 3740
-333.339 660.451 3757
-325.823 663.44 3774
-316.798 663.44 3774
-309.241 666.604 3792
-300.807 668.01 3800
-291.72 668.01 3800
-282.633 668.01 3800
-272.97 666.604 3792
-262.649 663.44 3774
-253.625 663.44 3774
-244.081 662.033 3766
-232.953 656.056 3732
-223.549 654.65 3724
-214.183 653.244 3716
-205.296 653.244 3716
-195.512 650.255 3699
-185.052 644.63 3667
-175.081 640.235 3642
-166.372 640.235 3642
-157.013 637.598 3627
-146.418 629.336 3580
-137.857 629.336 3580
-129.296 629.336 3580
-72.6772 378.832 2155
-67.5239 378.832 2155
-62.3707 378.832 2155
-57.2174 378.832 2155
-51.7984 376.898 2144
-46.6279 376.547 2142
-41.5057 376.547 2142
-36.3835 376.547 2142
-31.2614 376.547 2142
-26.1392 376.547 2142
-21.017 376.547 2142
-15.8949 376.547 2142
-10.7727 376.547 2142
-5.65052 376.547 2142
-0.528349 376.547 2142
4.59382 376.547 2142
9.72507 376.898 2144
14.852 376.898 2144
20.0069 377.426 2147
25.1411 377.426 2147
30.388 378.832 2155
35.5413 378.832 2155
40.7512 379.359 2158
45.9754 379.887 2161
51.285 380.942 2167
56.467 380.942 2167
61.7912 381.821 2172
67.1701 382.875 2178
72.4781 383.403 2181
77.6935 383.403 2181
83.099 384.282 2186
88.4476 384.809 2189
93.6822 384.809 2189
98.9167 384.809 2189
104.294 385.336 2192
109.686 385.864 2195
115.249 386.919 2201
120.512 386.919 2201
125.947 387.446 2204
131.396 387.973 2207
137.045 389.028 2213
142.337 389.028 2213
147.629 389.028 2213
152.921 389.028 2213
158.213 389.028 2213
163.505 389.028 2213
168.568 388.501 2210
174.246 389.38 2215
179.543 389.38 2215
184.839 389.38 2215
190.136 389.38 2215
195.256 389.028 2213
200.277 388.501 2210
205.561 388.501 2210
210.274 387.446 2204
215.251 386.919 2201
220.514 386.919 2201
225.777 386.919 2201
231.04 386.919 2201
237.592 389.028 2213
242.884 389.028 2213
248.176 389.028 2213
253.468 389.028 2213
581.579 535.111 3044
588.858 535.111 3044
596.138 535.111 3044
602.426 534.232 3039
606.282 531.244 3022
641.073 536.166 3050
650.705 538.1 3061
659.315 539.155 3067
666.649 539.155 3067
673.983 539.155 3067
671.321 531.244 3022
678.547 531.244 3022
682.143 528.431 3006
687.955 527.377 3000
697.678 529.31 3011
704.878 529.31 3011
717.281 533.178 3033
724.534 533.178 3033
734.441 535.111 3044
741.72 535.111 3044
748.999 535.111 3044
753.545 533.178 3033
760.798 533.178 3033
768.051 533.178 3033
775.304 533.178 3033
782.557 533.178 3033
788.508 532.299 3028
795.748 532.299 3028
802.989 532.299 3028
797.119 523.685 2979
818.821 533.178 3033
833.7 538.1 3061
905.861 579.587 3297
913.745 579.587 3297
930.854 585.388 3330
938.817 585.388 3330
946.78 585.388 3330
954.743 585.388 3330
953.166 579.587 3297
961.05 579.587 3297
968.934 579.587 3297
976.818 579.587 3297
982.612 578.356 3290
990.479 578.356 3290
1002.29 580.642 3303
1010.19 580.642 3303
1018.09 580.642 3303
1025.99 580.642 3303
1042.34 585.388 3330
1050.3 585.388 3330
1062.39 587.673 3343
1072.63 588.904 3350
1096.12 597.342 3398
1106.52 598.572 3405
1114.67 598.572 3405
1132.04 603.495 3433
1142.58 604.725 3440
1157.83 608.417 3461
1166.1 608.417 3461
1181.85 612.284 3483
1192.57 613.515 3490
1206.07 616.152 3505
1214.46 616.152 3505
1228.07 618.788 3520
1241.41 621.25 3534
1257.99 625.293 3557
1266.5 625.293 3557
1277.87 626.699 3565
1294.69 630.742 3588
1305.82 631.973 3595
1314.41 631.973 3595
1328.9 634.786 3611
1340.5 636.192 3619
1349.15 636.192 3619
1357.81 636.192 3619
1372.5 639.005 3635
1381.19 639.005 3635
1389.89 639.005 3635
1398.58 639.005 3635
1404.17 637.598 3627
1400.38 631.973 3595
1408.98 631.973 3595
1405.74 626.699 3565
1405.15 622.656 3542
1398.85 616.152 3505
1395.59 611.054 3476
1403.9 611.054 3476
1389.05 601.033 3419
1374.34 591.189 3363
1371.7 586.618 3337
1379.68 586.618 3337
1376.43 581.872 3310
1378.91 579.587 3297
1383.85 578.356 3290
1383.68 575.016 3271
1391.5 575.016 3271
1399.32 575.016 3271
1404.56 573.961 3265
1412.37 573.961 3265
1420.18 573.961 3265
1422.3 571.676 3252
1430.08 571.676 3252
1437.85 571.676 3252
1448.3 572.731 3258
1456.09 572.731 3258
1463.88 572.731 3258
1474.83 573.961 3265
1482.64 573.961 3265
1490.45 573.961 3265
1495.04 572.731 3258
1500.07 571.676 3252
1507.84 571.676 3252
1515.62 571.676 3252
1517.31 569.391 3239
1522.23 568.336 3233
1520.97 564.996 3214
1528.65 564.996 3214
1527.73 561.832 3196
1523.85 557.613 3172
1519.84 553.394 3148
1527.37 553.394 3148
1517.35 547.065 3112
1511.07 542.143 3084
1504.17 537.045 3055
1511.47 537.045 3055
1496.9 529.31 3011
1472.13 518.06 2947
1458.6 510.852 2906
1457.98 508.215 2891
1464.9 508.215 2891
1464.17 505.578 2876
1468.49 504.699 2871
1470.73 503.117 2862
1477.58 503.117 2862
1479.24 501.359 2852
1483.45 500.48 2847
1485.02 498.722 2837
1489.18 497.843 2832
1495.95 497.843 2832
1502.72 497.843 2832
1507.36 497.14 2828
1514.13 497.14 2828
1520.89 497.14 2828
1524.95 496.261 2823
1526.28 494.503 2813
1530.82 493.8 2809
1537.54 493.8 2809
1544.26 493.8 2809
1548.21 492.921 2804
1549.37 491.163 2794
1556.05 491.163 2794
1560.5 490.46 2790
1567.17 490.46 2790
1571.02 489.581 2785
1580.51 490.46 2790
1589.46 491.163 2794
1596.14 491.163 2794
1602.82 491.163 2794
1609.5 491.163 2794
1619.08 492.042 2799
1625.77 492.042 2799
1632.46 492.042 2799
1642.09 492.921 2804
1651.73 493.8 2809
1658.45 493.8 2809
1670.5 495.382 2818
1677.24 495.382 2818
1686.97 496.261 2823
1693.72 496.261 2823
1700.47 496.261 2823
1710.24 497.14 2828
1717 497.14 2828
1723.77 497.14 2828
1730.53 497.14 2828
1737.29 497.14 2828
1744.05 497.14 2828
1750.82 497.14 2828
1757.58 497.14 2828
1758.1 495.382 2818
1771.1 497.14 2828
1777.87 497.14 2828
1784.63 497.14 2828
1791.39 497.14 2828
1788.62 494.503 2813
1795.34 494.503 2813
1799.51 493.8 2809
1803.01 492.921 2804
1806.49 492.042 2799
1807.35 490.46 2790
1814.02 490.46 2790
1817.43 489.581 2785
1827.37 490.46 2790
1834.04 490.46 2790
1840.71 490.46 2790
1844.07 489.581 2785
1850.73 489.581 2785
1854.06 488.702 2780
1860.7 488.702 2780
1867.35 488.702 2780
1871.3 487.999 2776
1874.56 487.12 2771
1881.19 487.12 2771
1885.09 486.417 2767
1882.13 483.956 2753
1888.72 483.956 2753
1891.86 483.077 2748
1898.43 483.077 2748
1902.23 482.374 2744
1908.79 482.374 2744
1911.86 481.495 2739
1918.41 481.495 2739
1924.96 481.495 2739
1931.51 481.495 2739
1931.69 479.913 2730
1938.22 479.913 2730
1944.75 479.913 2730
1951.28 479.913 2730
1954.94 479.209 2726
1961.45 479.209 2726
1961.48 477.627 2717
1961.45 476.045 2708
1971.56 476.924 2713
1987.53 479.209 2726
2003.56 481.495 2739
2010.11 481.495 2739
2016.66 481.495 2739
2023.21 481.495 2739
2029.76 481.495 2739
2033.33 480.792 2735
2053.3 483.956 2753
2070.36 486.417 2767
2076.97 486.417 2767
2083.59 486.417 2767
2093.23 487.12 2771
2106.67 488.702 2780
2113.32 488.702 2780
2119.97 488.702 2780
2126.62 488.702 2780
-2059.44 504.628 2832
-2067.16 508.191 2852
-2060.34 508.191 2852
-2053.52 508.191 2852
-2060.34 511.577 2871
-2074.93 516.922 2901
-2067.99 516.922 2901
-2068.16 518.704 2911
-2105.81 529.93 2974
-2098.7 529.93 2974
-2095.1 530.821 2979
-2087.98 530.821 2979
-2080.85 530.821 2979
-2066.07 528.861 2968
-2052.04 527.079 2958
-2026.99 522.446 2932
-2019.98 522.446 2932
-2012.97 522.446 2932
-2005.96 522.446 2932
-2013.26 526.188 2953
-2020.47 529.93 2974
-2013.35 529.93 2974
-2006.24 529.93 2974
-2002.49 530.821 2979
-1995.37 530.821 2979
-1988.24 530.821 2979
-1999.08 535.632 3006
-2009.78 540.443 3033
-2021.01 545.432 3061
-2013.69 545.432 3061
-2010.31 546.502 3067
-2010.16 548.462 3078
-2028.82 555.589 3118
-2021.37 555.589 3118
-2021.66 557.727 3130
-2029.62 562.004 3154
-2022.08 562.004 3154
-2014.54 562.004 3154
-2010.81 563.073 3160
-2007.06 564.142 3166
-2007.07 566.28 3178
-1999.47 566.28 3178
-1995.63 567.35 3184
-1988.02 567.35 3184
-1984.13 568.419 3190
-1976.51 568.419 3190
-1972.58 569.488 3196
-1980.31 573.943 3221
-1972.61 573.943 3221
-1964.9 573.943 3221
-1960.85 575.012 3227
-1953.13 575.012 3227
-1945.41 575.012 3227
-1937.7 575.012 3227
-1937.16 577.15 3239
-1959.79 586.237 3290
-1975.66 593.365 3330
-1967.69 593.365 3330
-1963.85 594.612 3337
-1967.59 598.176 3357
-1983.5 605.482 3398
-1975.37 605.482 3398
-1983.46 610.471 3426
-1999.48 617.955 3468
-1999.8 620.628 3483
-1991.47 620.628 3483
-1991.11 623.122 3497
-1987.28 624.548 3505
-1978.9 624.548 3505
-1970.52 624.548 3505
-1962.14 624.548 3505
-1953.76 624.548 3505
-1945.38 624.548 3505
-1936.99 624.548 3505
-1928.61 624.548 3505
-1920.23 624.548 3505
-1911.85 624.548 3505
-1903.47 624.548 3505
-1898.87 625.795 3512
-1898.55 628.468 3527
-1890.11 628.468 3527
-1881.68 628.468 3527
-1876.96 629.715 3534
-1872.74 631.141 3542
-1864.27 631.141 3542
-1855.8 631.141 3542
-1850.98 632.388 3549
-1846.65 633.814 3557
-1838.14 633.814 3557
-1829.64 633.814 3557
-1821.13 633.814 3557
-1816.7 635.239 3565
-1808.18 635.239 3565
-1799.65 635.239 3565
-1794.65 636.486 3572
-1790.1 637.912 3580
-1785.52 639.337 3588
-1776.94 639.337 3588
-1771.81 640.585 3595
-1767.14 642.01 3603
-1758.53 642.01 3603
-1749.91 642.01 3603
-1745.16 643.436 3611
-1744.22 646.287 3627
-1746.55 650.385 3650
-1737.82 650.385 3650
-1737.15 653.414 3667
-1732.15 654.84 3675
-1734.62 659.116 3699
-1725.77 659.116 3699
-1735.96 666.422 3740
-1734.86 669.451 3757
-1741.96 675.688 3792
-1732.89 675.688 3792
-1731.55 678.717 3809
-1742.34 686.557 3853
-1745.27 691.368 3880
-1735.99 691.368 3880
-1730.72 692.972 3889
-1721.42 692.972 3889
-1712.12 692.972 3889
-1694.94 689.765 3871
-1666.08 681.746 3826
-1619.69 666.422 3740
-1600.41 662.145 3716
-1591.53 662.145 3716
-1565.18 654.84 3675
-1536.06 646.287 3627
-1507.6 637.912 3580
-1499.03 637.912 3580
-1480.9 633.814 3557
-1466.18 631.141 3542
-1445.37 625.795 3512
-1436.97 625.795 3512
-1422.47 623.122 3497
-1405.61 619.38 3476
-1385.64 614.213 3447
-1377.4 614.213 3447
-1369.16 614.213 3447
-1358.15 612.966 3440
-1344.43 610.471 3426
-1336.24 610.471 3426
-1328.05 610.471 3426
-1319.85 610.471 3426
-1319.7 614.213 3447
-1316.79 616.708 3461
-1311.16 617.955 3468
-1302.86 617.955 3468
-1297.56 619.38 3476
-1297.03 623.122 3497
-1291.62 624.548 3505
-1283.24 624.548 3505
-1274.86 624.548 3505
-1269 625.795 3512
-1260.6 625.795 3512
-1252.21 625.795 3512
-1241.33 624.548 3505
-1232.95 624.548 3505
-1224.57 624.548 3505
-1206.12 619.38 3476
-1197.81 619.38 3476
-1177.18 612.966 3440
-1168.95 612.966 3440
-1153.64 609.224 3419
-954.386 518.704 2911
-947.425 518.704 2911
-940.464 518.704 2911
-933.503 518.704 2911
-926.542 518.704 2911
-914.843 516.032 2896
-906.35 515.141 2891
-899.437 515.141 2891
-902.094 520.664 2922
-895.106 520.664 2922
-900.581 527.97 2963
-898.32 530.821 2979
-891.196 530.821 2979
-884.073 530.821 2979
-876.949 530.821 2979
-879.169 536.523 3011
-871.969 536.523 3011
-864.768 536.523 3011
-843.897 527.97 2963
-933.284 668.026 3749
-924.319 668.026 3749
-915.354 668.026 3749
-906.389 668.026 3749
-897.424 668.026 3749
-890.355 669.451 3757
-883.482 671.055 3766
-874.477 671.055 3766
-865.471 671.055 3766
-795.277 657.691 3691
-786.451 657.691 3691
-777.625 657.691 3691
-767.132 656.265 3683
-753.178 651.811 3658
-744.43 651.811 3658
-735.683 651.811 3658
-726.935 651.811 3658
-710.531 644.861 3619
-701.877 644.861 3619
-679.814 632.388 3549
-671.327 632.388 3549
-667.136 636.486 3572
-661.545 639.337 3588
-652.965 639.337 3588
-648.515 643.436 3611
-639.88 643.436 3611
-631.245 643.436 3611
-622.61 643.436 3611
-610.065 639.337 3588
-601.485 639.337 3588
-595.383 642.01 3603
-588.07 643.436 3611
-579.435 643.436 3611
-572.065 644.861 3619
-563.411 644.861 3619
-554.757 644.861 3619
-546.103 644.861 3619
-538.637 646.287 3627
-531.132 647.712 3635
-522.44 647.712 3635
-513.747 647.712 3635
-505.055 647.712 3635
-496.363 647.712 3635
-487.67 647.712 3635
-478.978 647.712 3635
-469.25 646.287 3627
-460.577 646.287 3627
-451.904 646.287 3627
-443.231 646.287 3627
-436.355 648.96 3642
-427.646 648.96 3642
-419.857 650.385 3650
-411.128 650.385 3650
-403.282 651.811 3658
-395.505 653.414 3667
-387.58 654.84 3675
-378.792 654.84 3675
-370.81 656.265 3683
-362.789 657.691 3691
-355.497 660.542 3707
-346.632 660.542 3707
-337.768 660.542 3707
-331.121 664.996 3732
-323.665 668.026 3749
-314.7 668.026 3749
-307.121 671.055 3766
-298.749 672.48 3774
-289.724 672.48 3774
-280.699 672.48 3774
-271.098 671.055 3766
-262.093 671.055 3766
-253.087 671.055 3766
-241.878 664.996 3732
-231.393 660.542 3707
-222.048 659.116 3699
-212.742 657.691 3691
-203.915 657.691 3691
-193.82 653.414 3667
-183.79 648.96 3642
-173.975 644.861 3619
-165.321 644.861 3619
-155.325 639.337 3588
-146.418 637.912 3580
-137.857 637.912 3580
-129.296 637.912 3580
-72.6772 383.994 2155
-67.5239 383.994 2155
-62.3707 383.994 2155
-57.2174 383.994 2155
-51.7984 382.034 2144
-46.6279 381.678 2142
-41.5057 381.678 2142
-36.4175 382.034 2144
-31.2906 382.034 2144
-26.1636 382.034 2144
-21.0367 382.034 2144
-15.9097 382.034 2144
-10.7828 382.034 2144
-5.6558 382.034 2144
-0.528349 381.678 2142
4.59811 382.034 2144
9.72507 382.034 2144
14.852 382.034 2144
20.0069 382.569 2147
25.1411 382.569 2147
30.388 383.994 2155
35.5413 383.994 2155
40.7512 384.529 2158
45.9754 385.064 2161
51.285 386.133 2167
56.467 386.133 2167
61.7058 386.489 2169
67.0776 387.558 2175
72.3784 388.093 2178
77.5866 388.093 2178
83.023 389.162 2184
88.3264 389.518 2186
93.5538 389.518 2186
98.7812 389.518 2186
104.294 390.587 2192
109.686 391.122 2195
115.249 392.191 2201
120.512 392.191 2201
125.947 392.726 2204
131.396 393.26 2207
137.045 394.329 2213
142.337 394.329 2213
147.629 394.329 2213
152.921 394.329 2213
158.213 394.329 2213
163.505 394.329 2213
168.568 393.795 2210
174.246 394.686 2215
179.543 394.686 2215
184.839 394.686 2215
190.136 394.686 2215
195.256 394.329 2213
200.277 393.795 2210
205.561 393.795 2210
210.274 392.726 2204
215.544 392.726 2204
220.814 392.726 2204
226.085 392.726 2204
231.355 392.726 2204
237.592 394.329 2213
242.884 394.329 2213
248.176 394.329 2213
253.468 394.329 2213
581.579 542.403 3044
588.858 542.403 3044
596.138 542.403 3044
602.426 541.512 3039
606.282 538.483 3022
641.073 543.472 3050
650.705 545.432 3061
659.315 546.502 3067
666.649 546.502 3067
673.983 546.502 3067
671.321 538.483 3022
678.547 538.483 3022
683.278 536.523 3011
690.478 536.523 3011
697.678 536.523 3011
710.028 540.443 3033
722.484 544.363 3055
729.79 544.363 3055
741.197 547.393 3072
748.543 547.393 3072
755.889 547.393 3072
759.011 544.363 3055
760.798 540.443 3033
768.051 540.443 3033
775.304 540.443 3033
782.557 540.443 3033
788.508 539.552 3028
795.748 539.552 3028
802.989 539.552 3028
797.119 530.821 2979
818.821 540.443 3033
833.7 545.432 3061
937.458 607.976 3412
945.617 607.976 3412
955.733 609.224 3419
963.909 609.224 3419
972.085 609.224 3419
980.26 609.224 3419
984.389 606.729 3405
992.531 606.729 3405
1000.67 606.729 3405
1008.82 606.729 3405
1014.87 605.482 3398
1020.89 604.234 3391
1028.99 604.234 3391
1037.1 604.234 3391
1036.58 599.245 3363
1044.62 599.245 3363
1052.67 599.245 3363
1060.71 599.245 3363
1077.65 604.234 3391
1088 605.482 3398
1107.41 611.718 3433
1115.62 611.718 3433
1123.83 611.718 3433
1134.35 612.966 3440
1149.55 616.708 3461
1160.17 617.955 3468
1168.46 617.955 3468
1181.85 620.628 3483
1192.57 621.875 3490
1206.07 624.548 3505
1214.46 624.548 3505
1228.07 627.221 3520
1241.41 629.715 3534
1257.99 633.814 3557
1266.5 633.814 3557
1277.87 635.239 3565
1294.69 639.337 3588
1305.82 640.585 3595
1314.41 640.585 3595
1328.9 643.436 3611
1340.5 644.861 3619
1352.13 646.287 3627
1360.81 646.287 3627
1375.14 648.96 3642
1383.85 648.96 3642
1392.56 648.96 3642
1401.27 648.96 3642
1407.27 647.712 3635
1403.5 642.01 3603
1412.11 642.01 3603
1405.74 635.239 3565
1407.92 632.388 3549
1398.85 624.548 3505
1395.59 619.38 3476
1403.9 619.38 3476
1389.05 609.224 3419
1374.34 599.245 3363
1371.7 594.612 3337
1379.68 594.612 3337
1376.43 589.801 3310
1378.91 587.485 3297
1386.79 587.485 3297
1394.68 587.485 3297
1391.5 582.852 3271
1399.32 582.852 3271
1404.56 581.783 3265
1412.37 581.783 3265
1420.18 581.783 3265
1422.3 579.466 3252
1430.08 579.466 3252
1437.85 579.466 3252
1448.3 580.535 3258
1456.09 580.535 3258
1463.88 580.535 3258
1474.83 581.783 3265
1482.64 581.783 3265
1490.45 581.783 3265
1495.04 580.535 3258
1500.07 579.466 3252
1507.84 579.466 3252
1515.62 579.466 3252
1520.58 578.397 3246
1522.23 576.081 3233
1527.12 575.012 3227
1534.83 575.012 3227
1533.47 571.626 3208
1529.61 567.35 3184
1528.53 564.142 3166
1536.1 564.142 3166
1529.05 558.797 3136
1522.34 553.629 3107
1515.49 548.462 3078
1522.85 548.462 3078
1513.31 542.403 3044
1490.61 531.712 2984
1464.12 519.773 2917
1463.03 516.922 2901
1469.96 516.922 2901
1469.27 514.25 2886
1468.49 511.577 2871
1472.79 510.686 2866
1479.64 510.686 2866
1479.24 508.191 2852
1483.45 507.3 2847
1485.02 505.518 2837
1489.18 504.628 2832
1495.95 504.628 2832
1502.72 504.628 2832
1507.36 503.915 2828
1514.13 503.915 2828
1520.89 503.915 2828
1524.95 503.024 2823
1526.28 501.242 2813
1530.82 500.529 2809
1537.54 500.529 2809
1544.26 500.529 2809
1548.21 499.638 2804
1549.37 497.856 2794
1556.05 497.856 2794
1560.5 497.144 2790
1567.17 497.144 2790
1571.02 496.253 2785
1580.51 497.144 2790
1589.46 497.856 2794
1596.14 497.856 2794
1602.82 497.856 2794
1607.2 497.144 2790
1613.87 497.144 2790
1620.54 497.144 2790
1632.46 498.747 2799
1639.16 498.747 2799
1648.79 499.638 2804
1655.5 499.638 2804
1665.17 500.529 2809
1677.24 502.133 2818
1686.97 503.024 2823
1693.72 503.024 2823
1705.89 504.628 2832
1712.66 504.628 2832
1719.43 504.628 2832
1726.2 504.628 2832
1732.98 504.628 2832
1739.75 504.628 2832
1746.52 504.628 2832
1753.29 504.628 2832
1760.07 504.628 2832
1764.34 503.915 2828
1771.1 503.915 2828
1783.53 505.518 2837
1790.31 505.518 2837
1797.09 505.518 2837
1794.98 503.024 2823
1801.73 503.024 2823
1802.07 501.242 2813
1799.8 498.747 2799
1806.49 498.747 2799
1807.35 497.144 2790
1814.02 497.144 2790
1817.43 496.253 2785
1824.09 496.253 2785
1830.75 496.253 2785
1837.41 496.253 2785
1844.07 496.253 2785
1850.73 496.253 2785
1851.39 494.649 2776
1858.03 494.649 2776
1864.67 494.649 2776
1867.93 493.758 2771
1874.56 493.758 2771
1881.19 493.758 2771
1881.68 492.154 2762
1878.71 489.66 2748
1885.29 489.66 2748
1891.86 489.66 2748
1898.43 489.66 2748
1902.23 488.947 2744
1905.31 488.056 2739
1911.86 488.056 2739
1918.41 488.056 2739
1924.96 488.056 2739
1931.51 488.056 2739
1931.69 486.452 2730
1938.22 486.452 2730
1944.75 486.452 2730
1951.28 486.452 2730
1951.35 484.849 2721
1957.86 484.849 2721
1961.48 484.136 2717
1967.97 484.136 2717
1977.38 484.849 2721
1997.01 488.056 2739
2010.14 489.66 2748
2016.71 489.66 2748
2026.96 490.551 2753
2033.55 490.551 2753
2040.13 490.551 2753
2046.71 490.551 2753
2066.72 493.758 2771
2080.08 495.362 2780
2094.24 497.144 2790
2100.91 497.144 2790
2114.38 498.747 2799
2139.26 503.024 2823
2146.01 503.024 2823
2152.76 503.024 2823
2159.51 503.024 2823
-2074.41 516.829 2862
-2067.57 516.829 2862
-2067.2 518.454 2871
-2071.1 521.163 2886
-2074.93 523.872 2901
-2075.12 525.678 2911
-2090.18 531.276 2942
-2117.14 539.944 2990
-2109.99 539.944 2990
-2117.61 543.736 3011
-2110.41 543.736 3011
-2103.21 543.736 3011
-2092.52 542.833 3006
-2074.24 539.944 2990
-2067.09 539.944 2990
-2059.94 539.944 2990
-2052.79 539.944 2990
-2023.74 534.165 2958
-2052.8 543.736 3011
-2068.02 549.695 3044
-2060.74 549.695 3044
-2053.46 549.695 3044
-2053.58 551.682 3055
-2046.27 551.682 3055
-2038.97 551.682 3055
-2054.27 557.821 3089
-2066.1 563.058 3118
-2070.53 566.309 3136
-2063.03 566.309 3136
-2059.47 567.392 3142
-2063.71 570.643 3160
-2071.77 574.977 3184
-2064.15 574.977 3184
-2072.04 579.311 3208
-2084.32 584.909 3239
-2081.06 586.173 3246
-2073.3 586.173 3246
-2065.54 586.173 3246
-2057.78 586.173 3246
-2050.01 586.173 3246
-2037.85 584.909 3239
-2030.1 584.909 3239
-2022.36 584.909 3239
-2018.96 586.173 3246
-2011.2 586.173 3246
-2010.85 588.34 3258
-2027.03 595.383 3297
-2019.15 595.383 3297
-2011.27 595.383 3297
-2003.38 595.383 3297
-1984 591.952 3278
-1976.16 591.952 3278
-1968.32 591.952 3278
-1967.66 594.119 3290
-1983.62 601.342 3330
-1979.81 602.606 3337
-1971.83 602.606 3337
-1975.62 606.218 3357
-1967.59 606.218 3357
-1975.32 611.094 3384
-1967.23 611.094 3384
-1983.46 618.678 3426
-1983.33 621.206 3440
-1991.18 626.263 3468
-1982.89 626.263 3468
-1983.14 628.971 3483
-1978.78 630.235 3490
-1970.43 630.235 3490
-1962.09 630.235 3490
-1953.74 630.235 3490
-1949.3 631.499 3497
-1945.38 632.944 3505
-1936.99 632.944 3505
-1928.61 632.944 3505
-1920.23 632.944 3505
-1911.85 632.944 3505
-1903.47 632.944 3505
-1895.09 632.944 3505
-1894.78 635.653 3520
-1890.11 636.917 3527
-1881.68 636.917 3527
-1873.25 636.917 3527
-1872.74 639.626 3542
-1864.27 639.626 3542
-1855.8 639.626 3542
-1847.33 639.626 3542
-1842.5 640.89 3549
-1838.14 642.334 3557
-1829.64 642.334 3557
-1821.13 642.334 3557
-1816.7 643.779 3565
-1808.18 643.779 3565
-1799.65 643.779 3565
-1794.65 645.043 3572
-1786.1 645.043 3572
-1785.52 647.932 3588
-1776.94 647.932 3588
-1771.81 649.197 3595
-1767.14 650.641 3603
-1762.43 652.086 3611
-1753.79 652.086 3611
-1745.16 652.086 3611
-1744.22 654.975 3627
-1746.55 659.129 3650
-1737.82 659.129 3650
-1737.15 662.199 3667
-1732.15 663.643 3675
-1734.62 667.977 3699
-1725.77 667.977 3699
-1735.96 675.381 3740
-1734.86 678.451 3757
-1741.96 684.771 3792
-1732.89 684.771 3792
-1731.55 687.841 3809
-1742.34 695.787 3853
-1745.27 700.663 3880
-1735.99 700.663 3880
-1730.72 702.288 3889
-1721.42 702.288 3889
-1712.12 702.288 3889
-1694.94 699.038 3871
-1666.08 690.911 3826
-1623.59 677.006 3749
-1600.41 671.047 3716
-1591.53 671.047 3716
-1571.99 666.533 3691
-1542.41 657.684 3642
-1517.28 650.641 3603
-1508.67 650.641 3603
-1490.47 646.488 3580
-1469.08 640.89 3549
-1448.66 635.653 3520
-1440.24 635.653 3520
-1422.47 631.499 3497
-1405.61 627.707 3476
-1388.46 623.734 3454
-1380.2 623.734 3454
-1369.16 622.47 3447
-1360.92 622.47 3447
-1349.93 621.206 3440
-1341.7 621.206 3440
-1333.47 621.206 3440
-1325.25 621.206 3440
-1322.38 623.734 3454
-1319.45 626.263 3468
-1314.18 627.707 3476
-1305.87 627.707 3476
-1297.56 627.707 3476
-1300 632.944 3505
-1297.15 635.653 3520
-1288.73 635.653 3520
-1280.31 635.653 3520
-1271.89 635.653 3520
-1263.48 635.653 3520
-1255.06 635.653 3520
-1251.6 638.181 3534
-1243.15 638.181 3534
-1234.7 638.181 3534
-1226.25 638.181 3534
-1217.8 638.181 3534
-1201.82 634.208 3512
-1193.42 634.208 3512
-1167.81 624.998 3461
-1150.15 619.942 3433
-920.176 522.066 2891
-913.263 522.066 2891
-906.35 522.066 2891
-899.437 522.066 2891
-932.966 545.722 3022
-925.74 545.722 3022
-918.513 545.722 3022
-911.287 545.722 3022
-904.06 545.722 3022
-896.834 545.722 3022
-876.949 537.957 2979
-879.169 543.736 3011
-871.969 543.736 3011
-864.768 543.736 3011
-957.557 681.521 3774
-948.533 681.521 3774
-939.508 681.521 3774
-930.483 681.521 3774
-921.458 681.521 3774
-906.389 677.006 3749
-899.339 678.451 3757
-892.488 680.076 3766
-885.359 681.521 3774
-876.334 681.521 3774
-867.31 681.521 3774
-858.285 681.521 3774
-849.26 681.521 3774
-840.235 681.521 3774
-831.21 681.521 3774
-816.739 677.006 3749
-802.388 672.492 3724
-793.482 672.492 3724
-780.996 669.422 3707
-768.799 666.533 3691
-759.972 666.533 3691
-751.146 666.533 3691
-740.711 665.088 3683
-726.935 660.573 3658
-715.047 657.684 3642
-706.338 657.684 3642
-693.223 653.531 3619
-681.542 650.641 3603
-672.926 650.641 3603
-665.785 652.086 3611
-657.15 652.086 3611
-649.952 653.531 3619
-641.298 653.531 3619
-632.644 653.531 3619
-622.61 652.086 3611
-612.615 650.641 3603
-603.999 650.641 3603
-595.383 650.641 3603
-588.07 652.086 3611
-579.435 652.086 3611
-572.065 653.531 3619
-564.656 654.975 3627
-555.983 654.975 3627
-547.31 654.975 3627
-538.637 654.975 3627
-531.132 656.42 3635
-522.44 656.42 3635
-513.747 656.42 3635
-505.055 656.42 3635
-496.363 656.42 3635
-487.67 656.42 3635
-478.978 656.42 3635
-470.285 656.42 3635
-460.577 654.975 3627
-451.904 654.975 3627
-443.231 654.975 3627
-436.355 657.684 3642
-427.646 657.684 3642
-419.857 659.129 3650
-411.128 659.129 3650
-402.4 659.129 3650
-394.535 660.573 3658
-386.736 662.199 3667
-377.968 662.199 3667
-370.004 663.643 3675
-361.216 663.643 3675
-353.195 665.088 3683
-344.388 665.088 3683
-336.31 666.533 3691
-328.903 669.422 3707
-321.506 672.492 3724
-312.601 672.492 3724
-304.348 673.936 3732
-295.424 673.936 3732
-286.5 673.936 3732
-277.575 673.936 3732
-268.651 673.936 3732
-258.613 671.047 3716
-249.122 669.422 3707
-240.258 669.422 3707
-230.394 666.533 3691
-219.587 660.573 3658
-210.378 659.129 3650
-201.65 659.129 3650
-192.922 659.129 3650
-182.629 653.531 3619
-173.206 650.641 3603
-164.59 650.641 3603
-155.325 647.932 3588
-145.804 643.779 3565
-137.279 643.779 3565
-128.754 643.779 3565
-72.6772 389.157 2155
-67.5239 389.157 2155
-62.3707 389.157 2155
-57.2174 389.157 2155
-51.7984 387.17 2144
-46.6279 386.809 2142
-41.5057 386.809 2142
-36.4175 387.17 2144
-31.2906 387.17 2144
-26.1636 387.17 2144
-21.0367 387.17 2144
-15.9097 387.17 2144
-10.7828 387.17 2144
-5.6558 387.17 2144
-0.528349 386.809 2142
4.59811 387.17 2144
9.72507 387.17 2144
14.852 387.17 2144
20.0069 387.712 2147
25.1411 387.712 2147
30.388 389.157 2155
35.5413 389.157 2155
40.7512 389.699 2158
45.9116 389.699 2158
51.143 390.24 2161
56.3106 390.24 2161
61.6489 391.324 2167
66.9851 392.227 2172
72.2787 392.768 2175
77.4798 392.768 2175
82.9089 393.852 2181
88.3264 394.755 2186
93.5538 394.755 2186
98.7812 394.755 2186
104.294 395.838 2192
109.686 396.38 2195
115.249 397.464 2201
120.512 397.464 2201
125.947 398.005 2204
131.396 398.547 2207
136.859 399.089 2210
142.144 399.089 2210
147.629 399.631 2213
152.921 399.631 2213
158.213 399.631 2213
163.061 398.547 2207
168.568 399.089 2210
174.246 399.992 2215
179.543 399.992 2215
184.839 399.992 2215
190.136 399.992 2215
195.256 399.631 2213
200.005 398.547 2207
205.282 398.547 2207
210.274 398.005 2204
215.544 398.005 2204
220.814 398.005 2204
226.085 398.005 2204
231.355 398.005 2204
237.592 399.631 2213
242.884 399.631 2213
248.176 399.631 2213
253.468 399.631 2213
659.315 553.849 3067
666.649 553.849 3067
673.983 553.849 3067
671.321 545.722 3022
678.547 545.722 3022
683.278 543.736 3011
690.478 543.736 3011
697.678 543.736 3011
710.028 547.709 3033
722.484 551.682 3055
729.79 551.682 3055
741.197 554.752 3072
748.543 554.752 3072
755.889 554.752 3072
759.011 551.682 3055
760.798 547.709 3033
937.458 616.15 3412
945.617 616.15 3412
955.733 617.414 3419
963.909 617.414 3419
972.085 617.414 3419
980.26 617.414 3419
984.389 614.886 3405
992.531 614.886 3405
1000.67 614.886 3405
1008.82 614.886 3405
1014.87 613.622 3398
1020.89 612.358 3391
1028.99 612.358 3391
1037.1 612.358 3391
1036.58 607.301 3363
1044.62 607.301 3363
1052.67 607.301 3363
1060.71 607.301 3363
1077.65 612.358 3391
1088 613.622 3398
1107.41 619.942 3433
1115.62 619.942 3433
1123.83 619.942 3433
1134.35 621.206 3440
1149.55 624.998 3461
1160.17 626.263 3468
1168.46 626.263 3468
1181.85 628.971 3483
1192.57 630.235 3490
1203.32 631.499 3497
1211.68 631.499 3497
1225.28 634.208 3512
