ply
format ascii 1.0
comment File generated
element vertex 2155
property float x
property float y
property float z
end_header
-1419.24 -564.919 3707
-1410.38 -564.919 3707
-1401.51 -564.919 3707
-1380.63 -560.043 3675
-1359.52 -555.014 3642
-1356.75 -557.452 3658
-1348 -557.452 3658
-1342.55 -558.823 3667
-1333.78 -558.823 3667
-1327.9 -560.043 3675
-1319.11 -560.043 3675
-1310.32 -560.043 3675
-1304.37 -561.262 3683
-1301.19 -563.7 3699
-1292.35 -563.7 3699
-1283.5 -563.7 3699
-1274.65 -563.7 3699
-1265.81 -563.7 3699
-1256.96 -563.7 3699
-1248.12 -563.7 3699
-1244.97 -566.291 3716
-1236.08 -566.291 3716
-1227.2 -566.291 3716
-1218.31 -566.291 3716
-1217.23 -569.948 3740
-1225.09 -577.872 3792
-1224.36 -581.835 3818
-1215.23 -581.835 3818
-1206.1 -581.835 3818
-1196.97 -581.835 3818
-1187.84 -581.835 3818
-270.415 -343.95 2257
-266.192 -345.474 2267
-260.771 -345.474 2267
-255.35 -345.474 2267
-249.268 -344.56 2261
-243.106 -343.493 2254
-237.716 -343.493 2254
-231.707 -342.578 2248
-225.728 -341.664 2242
-219.482 -340.293 2233
-214.142 -340.293 2233
-207.961 -338.921 2224
-201.64 -337.245 2213
-195.017 -334.959 2198
-189.761 -334.959 2198
-184.253 -334.502 2195
-178.76 -334.044 2192
-172.647 -332.368 2181
-167.432 -332.368 2181
-162.216 -332.368 2181
-157.001 -332.368 2181
-151.368 -331.454 2175
-145.965 -330.997 2172
-140.771 -330.997 2172
-135.577 -330.997 2172
-129.903 -329.777 2164
-124.556 -329.32 2161
-119.388 -329.32 2161
-113.798 -328.101 2153
-108.498 -327.644 2150
-102.828 -325.968 2139
-97.7126 -325.968 2139
-92.4677 -325.51 2136
-87.2372 -325.053 2133
-82.1365 -325.053 2133
-77.0359 -325.053 2133
-71.9352 -325.053 2133
-66.7719 -324.749 2131
-61.5892 -324.291 2128
-56.5005 -324.291 2128
-51.3393 -323.834 2125
-46.2578 -323.834 2125
-41.0794 -323.072 2120
-36.0099 -323.072 2120
-30.8965 -322.615 2117
-25.7975 -322.158 2114
-20.6932 -321.396 2109
-15.65 -321.396 2109
-10.6067 -321.396 2109
-5.56347 -321.396 2109
-0.520209 -321.396 2109
4.52305 -321.396 2109
9.56631 -321.396 2109
14.5888 -320.939 2106
19.6249 -320.939 2106
24.661 -320.939 2106
29.697 -320.939 2106
34.7001 -320.634 2104
39.7314 -320.634 2104
44.7627 -320.634 2104
49.794 -320.634 2104
54.8253 -320.634 2104
59.7713 -320.177 2101
64.7954 -320.177 2101
69.8196 -320.177 2101
74.8437 -320.177 2101
79.8678 -320.177 2101
84.7707 -319.72 2098
89.7877 -319.72 2098
94.8046 -319.72 2098
99.8216 -319.72 2098
104.839 -319.72 2098
109.751 -319.415 2096
114.763 -319.415 2096
119.775 -319.415 2096
124.787 -319.415 2096
129.923 -319.72 2098
134.94 -319.72 2098
139.957 -319.72 2098
145.389 -320.634 2104
150.42 -320.634 2104
155.599 -320.939 2106
160.635 -320.939 2106
165.907 -321.396 2109
171.194 -321.853 2112
176.411 -322.158 2114
181.466 -322.158 2114
186.521 -322.158 2114
191.849 -322.615 2117
197.376 -323.377 2122
202.45 -323.377 2122
208.405 -324.749 2131
213.701 -325.053 2133
220.546 -327.644 2150
225.687 -327.644 2150
230.828 -327.644 2150
236.518 -328.406 2155
242.681 -329.777 2164
247.856 -329.777 2164
253.03 -329.777 2164
259.16 -330.997 2172
264.719 -331.454 2175
269.92 -331.454 2175
275.121 -331.454 2175
280.322 -331.454 2175
285.523 -331.454 2175
290.724 -331.454 2175
295.925 -331.454 2175
301.126 -331.454 2175
306.327 -331.454 2175
311.529 -331.454 2175
316.73 -331.454 2175
321.043 -330.539 2169
325.929 -330.235 2167
331.111 -330.235 2167
336.292 -330.235 2167
341.002 -329.777 2164
346.176 -329.777 2164
351.351 -329.777 2164
356.032 -329.32 2161
361.199 -329.32 2161
366.367 -329.32 2161
371.535 -329.32 2161
376.702 -329.32 2161
381.87 -329.32 2161
700.608 -558.823 3667
709.377 -558.823 3667
718.146 -558.823 3667
726.915 -558.823 3667
733.878 -557.452 3658
744.453 -558.823 3667
753.222 -558.823 3667
763.653 -560.043 3675
775.804 -562.481 3691
784.63 -562.481 3691
793.457 -562.481 3691
805.761 -564.919 3707
814.625 -564.919 3707
825.489 -566.291 3716
834.375 -566.291 3716
843.261 -566.291 3716
850.083 -564.919 3707
858.948 -564.919 3707
865.94 -563.7 3699
872.893 -562.481 3691
881.72 -562.481 3691
890.546 -562.481 3691
899.372 -562.481 3691
908.198 -562.481 3691
915.037 -561.262 3683
921.838 -560.043 3675
930.626 -560.043 3675
937.369 -558.823 3667
946.138 -558.823 3667
954.906 -558.823 3667
963.675 -558.823 3667
972.444 -558.823 3667
976.664 -556.233 3650
983.233 -555.014 3642
991.942 -555.014 3642
1000.65 -555.014 3642
1007.42 -553.947 3635
1011.64 -551.509 3619
1022.55 -552.728 3627
1031.22 -552.728 3627
1039.9 -552.728 3627
1048.57 -552.728 3627
1057.24 -552.728 3627
1063.56 -551.509 3619
1072.22 -551.509 3619
1080.87 -551.509 3619
1087.12 -550.289 3611
1095.75 -550.289 3611
1104.39 -550.289 3611
1113.02 -550.289 3611
1121.66 -550.289 3611
1130.29 -550.289 3611
1138.93 -550.289 3611
1147.56 -550.289 3611
1158.76 -551.509 3619
1167.41 -551.509 3619
1176.07 -551.509 3619
1187.34 -552.728 3627
1196.01 -552.728 3627
1204.69 -552.728 3627
1213.36 -552.728 3627
1222.03 -552.728 3627
1230.71 -552.728 3627
1239.38 -552.728 3627
1248.05 -552.728 3627
1256.73 -552.728 3627
1265.4 -552.728 3627
1271.26 -551.509 3619
1279.92 -551.509 3619
1288.57 -551.509 3619
1297.23 -551.509 3619
1305.88 -551.509 3619
1314.53 -551.509 3619
1323.19 -551.509 3619
1331.84 -551.509 3619
1337.53 -550.289 3611
1346.17 -550.289 3611
1354.8 -550.289 3611
1360.42 -549.07 3603
1369.03 -549.07 3603
1377.65 -549.07 3603
1386.27 -549.07 3603
1391.78 -547.851 3595
1400.38 -547.851 3595
1408.98 -547.851 3595
1414.81 -546.784 3588
1417.05 -544.346 3572
1422.79 -543.279 3565
1431.32 -543.279 3565
1439.84 -543.279 3565
1448.37 -543.279 3565
1459.76 -544.346 3572
1471.59 -545.565 3580
1480.15 -545.565 3580
1488.71 -545.565 3580
1497.27 -545.565 3580
1505.83 -545.565 3580
1514.39 -545.565 3580
1519.55 -544.346 3572
1528.09 -544.346 3572
1530.18 -542.06 3557
1538.68 -542.06 3557
1540.67 -539.774 3542
1536.01 -535.203 3512
1534.74 -531.85 3490
1533.36 -528.497 3468
1541.65 -528.497 3468
1549.94 -528.497 3468
-2649.11 -550.039 3667
-2657.63 -553.639 3691
-2648.8 -553.639 3691
-2669.3 -559.789 3732
-2690.31 -566.089 3774
-2712.55 -572.689 3818
-2703.42 -572.689 3818
-2712.64 -576.589 3844
-2716.1 -579.289 3862
-2732.1 -584.688 3898
-2722.78 -584.688 3898
-2713.46 -584.688 3898
-2704.14 -584.688 3898
-2694.82 -584.688 3898
-2666.89 -580.638 3871
-2651.46 -579.289 3862
-2642.22 -579.289 3862
-2663.67 -586.038 3907
-2654.32 -586.038 3907
-2651.07 -587.388 3916
-2647.78 -588.738 3925
-2657.22 -592.938 3953
-2647.76 -592.938 3953
-2638.31 -592.938 3953
-1511.67 -567.439 3783
-1502.62 -567.439 3783
-1493.57 -567.439 3783
-1477.86 -564.889 3766
-1468.85 -564.889 3766
-1443.56 -558.589 3724
-1431.58 -557.389 3716
-1419.24 -556.039 3707
-1410.38 -556.039 3707
-1401.51 -556.039 3707
-1380.63 -551.239 3675
-1359.52 -546.289 3642
-1356.75 -548.689 3658
-1348 -548.689 3658
-1342.55 -550.039 3667
-1333.78 -550.039 3667
-1327.9 -551.239 3675
-1319.11 -551.239 3675
-1310.32 -551.239 3675
-1304.37 -552.439 3683
-1301.19 -554.839 3699
-1292.35 -554.839 3699
-1283.5 -554.839 3699
-1274.65 -554.839 3699
-1265.81 -554.839 3699
-1262.74 -557.389 3716
-1253.85 -557.389 3716
-1244.97 -557.389 3716
-1236.08 -557.389 3716
-1227.2 -557.389 3716
-1218.31 -557.389 3716
-1220.16 -562.339 3749
-1233.49 -572.689 3818
-1232.7 -576.589 3844
-1223.51 -576.589 3844
-1217.16 -577.939 3853
-1207.94 -577.939 3853
-1198.73 -577.939 3853
-270.415 -338.543 2257
-266.192 -340.043 2267
-260.771 -340.043 2267
-255.35 -340.043 2267
-249.268 -339.143 2261
-243.106 -338.093 2254
-237.716 -338.093 2254
-231.707 -337.193 2248
-225.728 -336.293 2242
-219.482 -334.943 2233
-214.142 -334.943 2233
-207.961 -333.593 2224
-201.64 -331.943 2213
-195.017 -329.693 2198
-189.761 -329.693 2198
-184.253 -329.243 2195
-178.76 -328.793 2192
-172.647 -327.144 2181
-167.432 -327.144 2181
-162.216 -327.144 2181
-157.001 -327.144 2181
-151.368 -326.244 2175
-145.965 -325.794 2172
-140.771 -325.794 2172
-135.577 -325.794 2172
-129.903 -324.594 2164
-124.556 -324.144 2161
-119.388 -324.144 2161
-113.798 -322.944 2153
-108.498 -322.494 2150
-102.828 -320.844 2139
-97.7126 -320.844 2139
-92.4677 -320.394 2136
-87.2372 -319.944 2133
-82.1365 -319.944 2133
-77.0359 -319.944 2133
-71.9352 -319.944 2133
-66.7719 -319.644 2131
-61.5892 -319.194 2128
-56.5005 -319.194 2128
-51.3393 -318.744 2125
-46.2578 -318.744 2125
-41.0794 -317.994 2120
-36.0099 -317.994 2120
-30.8965 -317.544 2117
-25.7975 -317.094 2114
-20.7227 -316.794 2112
-15.65 -316.344 2109
-10.6067 -316.344 2109
-5.56347 -316.344 2109
-0.520209 -316.344 2109
4.52305 -316.344 2109
9.56631 -316.344 2109
14.6096 -316.344 2109
19.6249 -315.894 2106
24.661 -315.894 2106
29.697 -315.894 2106
34.7331 -315.894 2106
39.7314 -315.594 2104
44.7627 -315.594 2104
49.794 -315.594 2104
54.8253 -315.594 2104
59.7713 -315.144 2101
64.7954 -315.144 2101
69.8196 -315.144 2101
74.8437 -315.144 2101
79.8678 -315.144 2101
84.7707 -314.694 2098
89.7877 -314.694 2098
94.8046 -314.694 2098
99.8216 -314.694 2098
104.839 -314.694 2098
109.751 -314.394 2096
114.763 -314.394 2096
119.775 -314.394 2096
124.787 -314.394 2096
129.923 -314.694 2098
134.94 -314.694 2098
139.957 -314.694 2098
145.389 -315.594 2104
150.42 -315.594 2104
155.599 -315.894 2106
160.635 -315.894 2106
166.143 -316.794 2112
171.356 -317.094 2114
176.411 -317.094 2114
181.466 -317.094 2114
186.521 -317.094 2114
192.12 -317.994 2120
197.655 -318.744 2125
202.737 -318.744 2125
208.405 -319.644 2131
214.002 -320.394 2136
220.546 -322.494 2150
225.687 -322.494 2150
231.15 -322.944 2153
236.518 -323.244 2155
242.681 -324.594 2164
247.856 -324.594 2164
253.03 -324.594 2164
259.16 -325.794 2172
264.719 -326.244 2175
269.92 -326.244 2175
275.121 -326.244 2175
280.322 -326.244 2175
285.917 -326.694 2178
291.125 -326.694 2178
296.333 -326.694 2178
301.542 -326.694 2178
306.327 -326.244 2175
311.529 -326.244 2175
316.73 -326.244 2175
321.043 -325.344 2169
325.929 -325.044 2167
331.111 -325.044 2167
336.292 -325.044 2167
341.002 -324.594 2164
346.176 -324.594 2164
351.351 -324.594 2164
356.032 -324.144 2161
361.199 -324.144 2161
366.367 -324.144 2161
371.535 -324.144 2161
376.702 -324.144 2161
381.87 -324.144 2161
387.037 -324.144 2161
392.205 -324.144 2161
700.608 -550.039 3667
709.377 -550.039 3667
718.146 -550.039 3667
726.915 -550.039 3667
733.878 -548.689 3658
744.453 -550.039 3667
753.222 -550.039 3667
763.653 -551.239 3675
775.804 -553.639 3691
784.63 -553.639 3691
793.457 -553.639 3691
805.761 -556.039 3707
816.603 -557.389 3716
825.489 -557.389 3716
834.375 -557.389 3716
843.261 -557.389 3716
850.083 -556.039 3707
858.948 -556.039 3707
865.94 -554.839 3699
872.893 -553.639 3691
881.72 -553.639 3691
890.546 -553.639 3691
899.372 -553.639 3691
908.198 -553.639 3691
915.037 -552.439 3683
921.838 -551.239 3675
930.626 -551.239 3675
937.369 -550.039 3667
946.138 -550.039 3667
954.906 -550.039 3667
963.675 -550.039 3667
972.444 -550.039 3667
976.664 -547.489 3650
983.233 -546.289 3642
991.942 -546.289 3642
1000.65 -546.289 3642
1007.42 -545.239 3635
1011.64 -542.839 3619
1022.55 -544.039 3627
1031.22 -544.039 3627
1039.9 -544.039 3627
1048.57 -544.039 3627
1057.24 -544.039 3627
1063.56 -542.839 3619
1072.22 -542.839 3619
1080.87 -542.839 3619
1089.53 -542.839 3619
1098.18 -542.839 3619
1104.39 -541.639 3611
1113.02 -541.639 3611
1121.66 -541.639 3611
1130.29 -541.639 3611
1138.93 -541.639 3611
1147.56 -541.639 3611
1158.76 -542.839 3619
1167.41 -542.839 3619
1176.07 -542.839 3619
1187.34 -544.039 3627
1196.01 -544.039 3627
1204.69 -544.039 3627
1213.36 -544.039 3627
1222.03 -544.039 3627
1230.71 -544.039 3627
1239.38 -544.039 3627
1248.05 -544.039 3627
1256.73 -544.039 3627
1265.4 -544.039 3627
1271.26 -542.839 3619
1279.92 -542.839 3619
1288.57 -542.839 3619
1297.23 -542.839 3619
1305.88 -542.839 3619
1314.53 -542.839 3619
1323.19 -542.839 3619
1331.84 -542.839 3619
1337.53 -541.639 3611
1346.17 -541.639 3611
1354.8 -541.639 3611
1360.42 -540.439 3603
1369.03 -540.439 3603
1377.65 -540.439 3603
1386.27 -540.439 3603
1391.78 -539.239 3595
1400.38 -539.239 3595
1408.98 -539.239 3595
1414.81 -538.189 3588
1417.05 -535.789 3572
1422.79 -534.739 3565
1431.32 -534.739 3565
1442.67 -535.789 3572
1451.21 -535.789 3572
1463.02 -536.989 3580
1474.87 -538.189 3588
1483.45 -538.189 3588
1492.03 -538.189 3588
1500.61 -538.189 3588
1509.19 -538.189 3588
1517.77 -538.189 3588
1522.95 -536.989 3580
1531.51 -536.989 3580
1536.63 -535.789 3572
1545.17 -535.789 3572
1553.71 -535.789 3572
1549.14 -531.289 3542
1534.74 -523.49 3490
1533.36 -520.19 3468
1541.65 -520.19 3468
1549.94 -520.19 3468
-2649.11 -541.255 3667
-2657.63 -544.797 3691
-2648.8 -544.797 3691
-2651.42 -547.159 3707
-2690.31 -557.048 3774
-2712.55 -563.543 3818
-2703.42 -563.543 3818
-2706.29 -566.052 3835
-2703.45 -567.38 3844
-2732.1 -575.351 3898
-2722.78 -575.351 3898
-2713.46 -575.351 3898
-2704.14 -575.351 3898
-2694.82 -575.351 3898
-2666.89 -571.365 3871
-2651.46 -570.037 3862
-2642.22 -570.037 3862
-2645.26 -572.694 3880
-2635.98 -572.694 3880
-2644.98 -576.679 3907
-2635.64 -576.679 3907
-2657.22 -583.469 3953
-2647.76 -583.469 3953
-2638.31 -583.469 3953
-1504.87 -555.867 3766
-1495.87 -555.867 3766
-1486.86 -555.867 3766
-1471.18 -553.358 3749
-1462.22 -553.358 3749
-1443.56 -549.668 3724
-1428.11 -547.159 3707
-1419.24 -547.159 3707
-1410.38 -547.159 3707
-1401.51 -547.159 3707
-1377.62 -541.255 3667
-1359.52 -537.565 3642
-1353.78 -538.746 3650
-1348 -539.926 3658
-1339.25 -539.926 3658
-1330.51 -539.926 3658
-1321.76 -539.926 3658
-1313.01 -539.926 3658
-1304.26 -539.926 3658
-1298.7 -541.255 3667
-1301.19 -545.978 3699
-1292.35 -545.978 3699
-1283.5 -545.978 3699
-1274.65 -545.978 3699
-1265.81 -545.978 3699
-1262.74 -548.487 3716
-1253.85 -548.487 3716
-1244.97 -548.487 3716
-1236.08 -548.487 3716
-1227.2 -548.487 3716
-1218.31 -548.487 3716
-1220.16 -553.358 3749
-1233.49 -563.543 3818
-1232.7 -567.38 3844
-1223.51 -567.38 3844
-1217.16 -568.709 3853
-1207.94 -568.709 3853
-1198.73 -568.709 3853
-270.415 -333.137 2257
-265.488 -333.727 2261
-260.081 -333.727 2261
-254.674 -333.727 2261
-248.496 -332.694 2254
-242.782 -332.251 2251
-237.399 -332.251 2251
-231.089 -330.923 2242
-224.822 -329.594 2233
-219.482 -329.594 2233
-214.142 -329.594 2233
-207.961 -328.266 2224
-201.64 -326.642 2213
-195.017 -324.428 2198
-189.761 -324.428 2198
-184.001 -323.543 2192
-178.515 -323.1 2189
-172.647 -321.919 2181
-167.432 -321.919 2181
-161.993 -321.476 2178
-156.785 -321.476 2178
-151.368 -321.033 2175
-145.965 -320.591 2172
-140.771 -320.591 2172
-135.39 -320.148 2169
-129.903 -319.41 2164
-124.383 -318.524 2158
-119.222 -318.524 2158
-113.639 -317.343 2150
-108.195 -316.458 2144
-102.683 -315.277 2136
-97.5755 -315.277 2136
-92.2512 -314.539 2131
-87.0327 -314.096 2128
-81.944 -314.096 2128
-76.8553 -314.096 2128
-71.7666 -314.096 2128
-66.6779 -314.096 2128
-61.5892 -314.096 2128
-56.5005 -314.096 2128
-51.3393 -313.653 2125
-46.2578 -313.653 2125
-41.0794 -312.915 2120
-36.0099 -312.915 2120
-30.8965 -312.472 2117
-25.7975 -312.03 2114
-20.7227 -311.734 2112
-15.65 -311.292 2109
-10.6067 -311.292 2109
-5.56347 -311.292 2109
-0.520209 -311.292 2109
4.52305 -311.292 2109
9.56631 -311.292 2109
14.6096 -311.292 2109
19.6249 -310.849 2106
24.661 -310.849 2106
29.697 -310.849 2106
34.7331 -310.849 2106
39.7314 -310.554 2104
44.7627 -310.554 2104
49.794 -310.554 2104
54.8253 -310.554 2104
59.7713 -310.111 2101
64.7954 -310.111 2101
69.8196 -310.111 2101
74.8437 -310.111 2101
79.8678 -310.111 2101
84.7707 -309.668 2098
89.7877 -309.668 2098
94.8046 -309.668 2098
99.8216 -309.668 2098
104.739 -309.373 2096
109.751 -309.373 2096
114.763 -309.373 2096
119.775 -309.373 2096
124.787 -309.373 2096
129.923 -309.668 2098
134.94 -309.668 2098
139.957 -309.668 2098
145.389 -310.554 2104
150.42 -310.554 2104
155.599 -310.849 2106
160.635 -310.849 2106
166.143 -311.734 2112
171.356 -312.03 2114
176.411 -312.03 2114
181.466 -312.03 2114
186.521 -312.03 2114
192.12 -312.915 2120
197.655 -313.653 2125
202.737 -313.653 2125
208.405 -314.539 2131
214.002 -315.277 2136
220.546 -317.343 2150
225.687 -317.343 2150
231.15 -317.786 2153
236.518 -318.081 2155
242.681 -319.41 2164
247.856 -319.41 2164
253.03 -319.41 2164
259.16 -320.591 2172
264.719 -321.033 2175
269.92 -321.033 2175
275.121 -321.033 2175
280.322 -321.033 2175
285.917 -321.476 2178
291.125 -321.476 2178
296.333 -321.476 2178
301.542 -321.476 2178
306.327 -321.033 2175
311.529 -321.033 2175
316.73 -321.033 2175
321.043 -320.148 2169
325.929 -319.852 2167
331.111 -319.852 2167
336.292 -319.852 2167
341.002 -319.41 2164
346.176 -319.41 2164
351.351 -319.41 2164
356.032 -318.967 2161
361.199 -318.967 2161
366.367 -318.967 2161
371.535 -318.967 2161
376.702 -318.967 2161
381.87 -318.967 2161
387.037 -318.967 2161
392.205 -318.967 2161
692.966 -535.351 3627
701.639 -535.351 3627
710.312 -535.351 3627
721.959 -537.565 3642
730.668 -537.565 3642
741.001 -538.746 3650
749.73 -538.746 3650
761.991 -541.255 3667
775.804 -544.797 3691
784.63 -544.797 3691
793.457 -544.797 3691
802.283 -544.797 3691
816.603 -548.487 3716
825.489 -548.487 3716
834.375 -548.487 3716
843.261 -548.487 3716
850.083 -547.159 3707
858.948 -547.159 3707
864.067 -544.797 3691
871.001 -543.616 3683
879.808 -543.616 3683
888.616 -543.616 3683
897.423 -543.616 3683
906.23 -543.616 3683
913.05 -542.436 3675
919.831 -541.255 3667
928.6 -541.255 3667
937.369 -541.255 3667
946.138 -541.255 3667
952.563 -539.926 3658
961.31 -539.926 3658
970.058 -539.926 3658
976.664 -538.746 3650
983.233 -537.565 3642
991.942 -537.565 3642
1000.65 -537.565 3642
1005.2 -535.351 3627
1011.64 -534.17 3619
1020.29 -534.17 3619
1028.95 -534.17 3619
1037.6 -534.17 3619
1046.26 -534.17 3619
1054.91 -534.17 3619
1063.56 -534.17 3619
1072.22 -534.17 3619
1080.87 -534.17 3619
1089.53 -534.17 3619
1098.18 -534.17 3619
1104.39 -532.989 3611
1113.02 -532.989 3611
1121.66 -532.989 3611
1130.29 -532.989 3611
1138.93 -532.989 3611
1147.56 -532.989 3611
1158.76 -534.17 3619
1167.41 -534.17 3619
1176.07 -534.17 3619
1184.72 -534.17 3619
1196.01 -535.351 3627
1204.69 -535.351 3627
1213.36 -535.351 3627
1222.03 -535.351 3627
1230.71 -535.351 3627
1239.38 -535.351 3627
1248.05 -535.351 3627
1256.73 -535.351 3627
1265.4 -535.351 3627
1271.26 -534.17 3619
1279.92 -534.17 3619
1288.57 -534.17 3619
1294.36 -532.989 3611
1305.88 -534.17 3619
1314.53 -534.17 3619
1323.19 -534.17 3619
1328.9 -532.989 3611
1337.53 -532.989 3611
1346.17 -532.989 3611
1354.8 -532.989 3611
1360.42 -531.808 3603
1369.03 -531.808 3603
1377.65 -531.808 3603
1386.27 -531.808 3603
1391.78 -530.627 3595
1397.65 -529.594 3588
1406.23 -529.594 3588
1414.81 -529.594 3588
1417.05 -527.233 3572
1422.79 -526.199 3565
1431.32 -526.199 3565
1442.67 -527.233 3572
1451.21 -527.233 3572
1463.02 -528.413 3580
1474.87 -529.594 3588
1483.45 -529.594 3588
1492.03 -529.594 3588
1500.61 -529.594 3588
1509.19 -529.594 3588
1517.77 -529.594 3588
1522.95 -528.413 3580
1531.51 -528.413 3580
1536.63 -527.233 3572
1545.17 -527.233 3572
1553.71 -527.233 3572
1549.14 -522.805 3542
1534.74 -515.129 3490
-2649.11 -532.47 3667
-2651.87 -534.794 3683
-2643.06 -534.794 3683
-2639.97 -535.955 3691
-2666.08 -543.07 3740
-2712.55 -554.397 3818
-2703.42 -554.397 3818
-2694.29 -554.397 3818
-2697.12 -556.865 3835
-2719.49 -563.399 3880
-2710.21 -563.399 3880
-2700.93 -563.399 3880
-2691.65 -563.399 3880
-2682.37 -563.399 3880
-2666.89 -562.092 3871
-2651.46 -560.786 3862
-2642.22 -560.786 3862
-2632.99 -560.786 3862
-2623.75 -560.786 3862
-2626.7 -563.399 3880
-2617.43 -563.399 3880
-2626.3 -567.32 3907
-2616.95 -567.32 3907
-2607.61 -567.32 3907
-1510.26 -545.539 3757
-1501.28 -545.539 3757
-1492.29 -545.539 3757
-1480.15 -544.377 3749
-1467.65 -543.07 3740
-1458.71 -543.07 3740
-1436.97 -538.279 3707
-1425.03 -537.117 3699
-1416.18 -537.117 3699
-1407.34 -537.117 3699
-1398.49 -537.117 3699
-1374.24 -531.164 3658
-1359.52 -528.84 3642
-1350.81 -528.84 3642
-1345.05 -530.002 3650
-1336.32 -530.002 3650
-1327.6 -530.002 3650
-1318.87 -530.002 3650
-1313.01 -531.164 3658
-1304.26 -531.164 3658
-1298.7 -532.47 3667
-1298.38 -535.955 3691
-1292.35 -537.117 3699
-1283.5 -537.117 3699
-1274.65 -537.117 3699
-1268.55 -538.279 3707
-1265.46 -540.747 3724
-1256.55 -540.747 3724
-1247.65 -540.747 3724
-1238.74 -540.747 3724
-1229.84 -540.747 3724
-1220.93 -540.747 3724
-1220.16 -544.377 3749
-1233.49 -554.397 3818
-1238.47 -560.786 3862
-1229.24 -560.786 3862
-1220 -560.786 3862
-1207.94 -559.479 3853
-1198.73 -559.479 3853
-270.056 -327.294 2254
-264.666 -327.294 2254
-259.276 -327.294 2254
-253.886 -327.294 2254
-248.165 -326.859 2251
-242.135 -325.987 2245
-236.767 -325.987 2245
-230.78 -325.116 2239
-224.822 -324.245 2233
-218.892 -323.374 2227
-213.567 -323.374 2227
-207.68 -322.503 2221
-201.093 -320.47 2207
-194.751 -318.727 2195
-189.502 -318.727 2195
-184.001 -318.292 2192
-178.27 -317.42 2186
-172.41 -316.259 2178
-167.201 -316.259 2178
-161.993 -316.259 2178
-156.569 -315.823 2175
-151.368 -315.823 2175
-145.965 -315.387 2172
-140.771 -315.387 2172
-135.265 -314.661 2167
-129.723 -313.79 2161
-124.21 -312.919 2155
-119.056 -312.919 2155
-113.322 -311.322 2144
-108.094 -311.031 2142
-102.539 -309.724 2133
-97.4385 -309.724 2133
-92.1214 -308.998 2128
-87.1554 -309.434 2131
-82.0595 -309.434 2131
-76.9636 -309.434 2131
-71.8678 -309.434 2131
-66.6779 -308.998 2128
-61.5892 -308.998 2128
-56.5005 -308.998 2128
-51.4118 -308.998 2128
-46.2578 -308.563 2125
-41.0794 -307.837 2120
-36.0099 -307.837 2120
-30.9403 -307.837 2120
-25.7975 -306.966 2114
-20.7227 -306.675 2112
-15.65 -306.239 2109
-10.6067 -306.239 2109
-5.56347 -306.239 2109
-0.520209 -306.239 2109
4.52305 -306.239 2109
9.56631 -306.239 2109
14.6096 -306.239 2109
19.6528 -306.239 2109
24.661 -305.804 2106
29.697 -305.804 2106
34.7331 -305.804 2106
39.7692 -305.804 2106
44.8053 -305.804 2106
49.8414 -305.804 2106
54.8253 -305.513 2104
59.7713 -305.078 2101
64.7954 -305.078 2101
69.8196 -305.078 2101
74.8437 -305.078 2101
79.8678 -305.078 2101
84.7707 -304.642 2098
89.7877 -304.642 2098
94.8046 -304.642 2098
99.8216 -304.642 2098
104.739 -304.352 2096
109.751 -304.352 2096
114.763 -304.352 2096
119.775 -304.352 2096
124.787 -304.352 2096
129.923 -304.642 2098
134.94 -304.642 2098
139.957 -304.642 2098
145.389 -305.513 2104
150.42 -305.513 2104
155.599 -305.804 2106
160.635 -305.804 2106
166.143 -306.675 2112
171.356 -306.966 2114
176.411 -306.966 2114
181.466 -306.966 2114
186.786 -307.401 2117
192.12 -307.837 2120
197.934 -308.998 2128
203.023 -308.998 2128
208.405 -309.434 2131
214.302 -310.596 2139
220.546 -312.193 2150
225.687 -312.193 2150
231.365 -312.919 2155
236.848 -313.355 2158
242.681 -314.226 2164
247.856 -314.226 2164
253.615 -314.952 2169
259.16 -315.387 2172
264.719 -315.823 2175
269.92 -315.823 2175
275.121 -315.823 2175
280.322 -315.823 2175
286.311 -316.694 2181
291.526 -316.694 2181
296.742 -316.694 2181
301.542 -316.259 2178
306.327 -315.823 2175
311.529 -315.823 2175
316.293 -315.387 2172
320.747 -314.661 2167
325.929 -314.661 2167
331.111 -314.661 2167
336.292 -314.661 2167
341.474 -314.661 2167
346.176 -314.226 2164
351.351 -314.226 2164
356.526 -314.226 2164
361.199 -313.79 2161
366.367 -313.79 2161
371.535 -313.79 2161
376.702 -313.79 2161
382.4 -314.226 2164
387.575 -314.226 2164
392.75 -314.226 2164
397.373 -313.79 2161
694.494 -527.824 3635
703.187 -527.824 3635
711.879 -527.824 3635
721.959 -528.84 3642
732.273 -530.002 3650
742.626 -531.164 3658
751.373 -531.164 3658
761.991 -532.47 3667
775.804 -535.955 3691
784.63 -535.955 3691
793.457 -535.955 3691
804.022 -537.117 3699
816.603 -539.586 3716
827.266 -540.747 3724
836.171 -540.747 3724
845.077 -540.747 3724
852.147 -539.586 3716
861.033 -539.586 3716
865.94 -537.117 3699
871.001 -534.794 3683
877.897 -533.632 3675
886.685 -533.632 3675
895.474 -533.632 3675
904.262 -533.632 3675
913.05 -533.632 3675
919.831 -532.47 3667
928.6 -532.47 3667
935.068 -531.164 3658
943.815 -531.164 3658
952.563 -531.164 3658
961.31 -531.164 3658
967.936 -530.002 3650
976.664 -530.002 3650
983.233 -528.84 3642
991.942 -528.84 3642
998.728 -527.824 3635
1002.99 -525.501 3619
1011.64 -525.501 3619
1020.29 -525.501 3619
1028.95 -525.501 3619
1037.6 -525.501 3619
1048.57 -526.662 3627
1057.24 -526.662 3627
1065.92 -526.662 3627
1074.59 -526.662 3627
1083.26 -526.662 3627
1089.53 -525.501 3619
1098.18 -525.501 3619
1106.84 -525.501 3619
1115.49 -525.501 3619
1124.14 -525.501 3619
1132.8 -525.501 3619
1141.45 -525.501 3619
1150.11 -525.501 3619
1158.76 -525.501 3619
1167.41 -525.501 3619
1176.07 -525.501 3619
1184.72 -525.501 3619
1196.01 -526.662 3627
1204.69 -526.662 3627
1213.36 -526.662 3627
1222.03 -526.662 3627
1230.71 -526.662 3627
1239.38 -526.662 3627
1248.05 -526.662 3627
1256.73 -526.662 3627
1262.61 -525.501 3619
1271.26 -525.501 3619
1279.92 -525.501 3619
1285.72 -524.339 3611
1294.36 -524.339 3611
1302.99 -524.339 3611
1311.63 -524.339 3611
1320.26 -524.339 3611
1328.9 -524.339 3611
1337.53 -524.339 3611
1346.17 -524.339 3611
1351.8 -523.177 3603
1360.42 -523.177 3603
1369.03 -523.177 3603
1377.65 -523.177 3603
1386.27 -523.177 3603
1391.78 -522.016 3595
1397.65 -520.999 3588
1406.23 -520.999 3588
1414.81 -520.999 3588
1420.22 -519.838 3580
1422.79 -517.659 3565
1434.13 -518.676 3572
1442.67 -518.676 3572
1451.21 -518.676 3572
1466.29 -520.999 3588
1477.75 -522.016 3595
1486.35 -522.016 3595
1494.95 -522.016 3595
1503.54 -522.016 3595
1512.14 -522.016 3595
1520.74 -522.016 3595
1529.33 -522.016 3595
1537.93 -522.016 3595
1546.53 -522.016 3595
1555.12 -522.016 3595
1560.67 -520.999 3588
1572.32 -522.016 3595
1580.91 -522.016 3595
1589.51 -522.016 3595
-2649.11 -523.686 3667
-2640.35 -523.686 3667
-2631.58 -523.686 3667
-2622.81 -523.686 3667
-2654.67 -531.826 3724
-2681.29 -538.967 3774
-2672.27 -538.967 3774
-2694.29 -545.25 3818
-2685.16 -545.25 3818
-2713.18 -552.819 3871
-2703.92 -552.819 3871
-2694.66 -552.819 3871
-2685.41 -552.819 3871
-2676.15 -552.819 3871
-2660.69 -551.534 3862
-2651.46 -551.534 3862
-2623.75 -547.678 3835
-2614.58 -547.678 3835
-2605.41 -547.678 3835
-2614.52 -551.534 3862
-2605.28 -551.534 3862
-2620.25 -556.675 3898
-2610.93 -556.675 3898
-2601.6 -556.675 3898
-1526.98 -532.969 3732
-1518.06 -532.969 3732
-1512.37 -534.111 3740
-1513.88 -537.824 3766
-1504.87 -537.824 3766
-1495.87 -537.824 3766
-1483.31 -536.539 3757
-1467.65 -534.111 3740
-1458.71 -534.111 3740
-1436.97 -529.399 3707
-1425.03 -528.256 3699
-1416.18 -528.256 3699
-1407.34 -528.256 3699
-1398.49 -528.256 3699
-1377.62 -523.686 3667
-1362.51 -521.258 3650
-1353.78 -521.258 3650
-1342.1 -520.116 3642
-1333.39 -520.116 3642
-1324.69 -520.116 3642
-1315.98 -520.116 3642
-1316.24 -523.686 3667
-1307.47 -523.686 3667
-1304.37 -525.971 3683
-1301.19 -528.256 3699
-1295.14 -529.399 3707
-1286.28 -529.399 3707
-1277.41 -529.399 3707
-1277.1 -532.969 3732
-1268.18 -532.969 3732
-1259.25 -532.969 3732
-1250.33 -532.969 3732
-1241.4 -532.969 3732
-1238.09 -535.397 3749
-1229.13 -535.397 3749
-1220.16 -535.397 3749
-1233.49 -545.25 3818
-1238.47 -551.534 3862
-1229.24 -551.534 3862
-1220 -551.534 3862
-268.978 -320.61 2245
-263.609 -320.61 2245
-258.241 -320.61 2245
-252.872 -320.61 2245
-247.504 -320.61 2245
-241.488 -319.753 2239
-236.134 -319.753 2239
-230.471 -319.324 2236
-224.217 -318.039 2227
-218.597 -317.611 2224
-213.279 -317.611 2224
-207.4 -316.754 2218
-201.093 -315.183 2207
-194.751 -313.469 2195
-189.502 -313.469 2195
-184.253 -313.469 2195
-178.27 -312.184 2186
-172.885 -311.898 2184
-167.662 -311.898 2184
-161.993 -311.041 2178
-156.785 -311.041 2178
-151.368 -310.613 2175
-145.764 -309.756 2169
-140.577 -309.756 2169
-135.265 -309.47 2167
-129.903 -309.042 2164
-124.383 -308.185 2158
-119.222 -308.185 2158
-113.48 -306.614 2147
-108.094 -305.9 2142
-102.539 -304.615 2133
-97.4385 -304.615 2133
-92.2512 -304.329 2131
-87.1554 -304.329 2131
-82.0595 -304.329 2131
-76.9636 -304.329 2131
-71.8678 -304.329 2131
-66.6779 -303.901 2128
-61.5892 -303.901 2128
-56.5005 -303.901 2128
-51.4118 -303.901 2128
-46.2578 -303.472 2125
-41.1182 -303.044 2122
-36.0438 -303.044 2122
-30.9403 -302.758 2120
-25.7975 -301.901 2114
-20.7227 -301.616 2112
-15.6722 -301.616 2112
-10.6218 -301.616 2112
-5.56347 -301.187 2109
-0.520209 -301.187 2109
4.52305 -301.187 2109
9.56631 -301.187 2109
14.6096 -301.187 2109
19.6528 -301.187 2109
24.6961 -301.187 2109
29.7393 -301.187 2109
34.7331 -300.759 2106
39.7692 -300.759 2106
44.8053 -300.759 2106
49.8414 -300.759 2106
54.8775 -300.759 2106
59.7713 -300.045 2101
64.7954 -300.045 2101
69.8196 -300.045 2101
74.8437 -300.045 2101
79.8678 -300.045 2101
84.7707 -299.616 2098
89.7877 -299.616 2098
94.8046 -299.616 2098
99.7264 -299.331 2096
104.739 -299.331 2096
109.751 -299.331 2096
114.763 -299.331 2096
119.775 -299.331 2096
124.787 -299.331 2096
129.923 -299.616 2098
134.94 -299.616 2098
139.957 -299.616 2098
145.181 -300.045 2101
150.42 -300.473 2104
155.599 -300.759 2106
160.635 -300.759 2106
166.143 -301.616 2112
171.356 -301.901 2114
176.411 -301.901 2114
181.466 -301.901 2114
186.786 -302.33 2117
192.12 -302.758 2120
197.934 -303.901 2128
203.023 -303.901 2128
208.405 -304.329 2131
214.603 -305.9 2142
220.853 -307.471 2153
226.002 -307.471 2153
231.687 -308.185 2158
237.177 -308.613 2161
242.681 -309.042 2164
247.856 -309.042 2164
253.615 -309.756 2169
259.518 -310.613 2175
265.084 -311.041 2178
270.292 -311.041 2178
275.5 -311.041 2178
280.709 -311.041 2178
286.705 -311.898 2184
291.927 -311.898 2184
297.15 -311.898 2184
301.957 -311.47 2181
306.75 -311.041 2178
311.958 -311.041 2178
316.293 -310.184 2172
320.747 -309.47 2167
325.929 -309.47 2167
331.111 -309.47 2167
336.292 -309.47 2167
341.474 -309.47 2167
346.656 -309.47 2167
351.838 -309.47 2167
357.02 -309.47 2167
361.199 -308.613 2161
366.367 -308.613 2161
372.566 -309.47 2167
377.748 -309.47 2167
382.93 -309.47 2167
388.112 -309.47 2167
393.294 -309.47 2167
397.924 -309.042 2164
695.832 -520.116 3642
704.541 -520.116 3642
713.25 -520.116 3642
721.959 -520.116 3642
733.878 -522.401 3658
744.453 -523.686 3667
753.222 -523.686 3667
765.315 -525.971 3683
777.485 -528.256 3699
786.331 -528.256 3699
795.176 -528.256 3699
804.022 -528.256 3699
820.119 -532.969 3732
829.043 -532.969 3732
837.968 -532.969 3732
846.892 -532.969 3732
853.982 -531.826 3724
862.887 -531.826 3724
867.813 -529.399 3707
872.893 -527.114 3691
877.897 -524.829 3675
886.685 -524.829 3675
895.474 -524.829 3675
904.262 -524.829 3675
911.062 -523.686 3667
917.573 -522.401 3658
926.321 -522.401 3658
930.978 -520.116 3642
941.751 -521.258 3650
950.48 -521.258 3650
959.208 -521.258 3650
967.936 -521.258 3650
974.524 -520.116 3642
981.343 -519.116 3635
990.035 -519.116 3635
998.728 -519.116 3635
1002.99 -516.831 3619
1011.64 -516.831 3619
1020.29 -516.831 3619
1028.95 -516.831 3619
1039.9 -517.974 3627
1048.57 -517.974 3627
1057.24 -517.974 3627
1065.92 -517.974 3627
1074.59 -517.974 3627
1083.26 -517.974 3627
1091.94 -517.974 3627
1100.61 -517.974 3627
1109.28 -517.974 3627
1117.96 -517.974 3627
1126.63 -517.974 3627
1135.3 -517.974 3627
1141.45 -516.831 3619
1150.11 -516.831 3619
1158.76 -516.831 3619
1169.99 -517.974 3627
1178.67 -517.974 3627
1187.34 -517.974 3627
1196.01 -517.974 3627
1204.69 -517.974 3627
1213.36 -517.974 3627
1222.03 -517.974 3627
1230.71 -517.974 3627
1239.38 -517.974 3627
1248.05 -517.974 3627
1256.73 -517.974 3627
1262.61 -516.831 3619
1268.45 -515.689 3611
1277.09 -515.689 3611
1285.72 -515.689 3611
1291.49 -514.546 3603
1300.11 -514.546 3603
1308.72 -514.546 3603
1317.34 -514.546 3603
1325.95 -514.546 3603
1334.57 -514.546 3603
1343.19 -514.546 3603
1351.8 -514.546 3603
1360.42 -514.546 3603
1369.03 -514.546 3603
1377.65 -514.546 3603
1383.19 -513.404 3595
1391.78 -513.404 3595
1397.65 -512.404 3588
1406.23 -512.404 3588
1411.66 -511.262 3580
1420.22 -511.262 3580
1425.59 -510.119 3572
1434.13 -510.119 3572
1445.9 -511.262 3580
1454.46 -511.262 3580
1466.29 -512.404 3588
1477.75 -513.404 3595
1486.35 -513.404 3595
1494.95 -513.404 3595
1503.54 -513.404 3595
1512.14 -513.404 3595
1520.74 -513.404 3595
1529.33 -513.404 3595
1537.93 -513.404 3595
1546.53 -513.404 3595
1555.12 -513.404 3595
1560.67 -512.404 3588
1572.32 -513.404 3595
1580.91 -513.404 3595
1589.51 -513.404 3595
1591.44 -511.262 3580
-2649.11 -514.902 3667
-2640.35 -514.902 3667
-2631.58 -514.902 3667
-2622.81 -514.902 3667
-2654.67 -522.905 3724
-2681.29 -529.926 3774
-2672.27 -529.926 3774
-2694.29 -536.104 3818
-2685.16 -536.104 3818
-2713.18 -543.546 3871
-2703.92 -543.546 3871
-2694.66 -543.546 3871
-2685.41 -543.546 3871
-2676.15 -543.546 3871
-2660.69 -542.283 3862
-2651.46 -542.283 3862
-2623.75 -538.492 3835
-2614.58 -538.492 3835
-2605.41 -538.492 3835
-2614.52 -542.283 3862
-2605.28 -542.283 3862
-2620.25 -547.338 3898
-2610.93 -547.338 3898
-2601.6 -547.338 3898
-1526.98 -524.029 3732
-1518.06 -524.029 3732
-1512.37 -525.152 3740
-1513.88 -528.803 3766
-1504.87 -528.803 3766
-1495.87 -528.803 3766
-1483.31 -527.539 3757
-1467.65 -525.152 3740
-1458.71 -525.152 3740
-1440.46 -521.782 3716
-1425.03 -519.395 3699
-1416.18 -519.395 3699
-1407.34 -519.395 3699
-1398.49 -519.395 3699
-1383.63 -517.148 3683
-1368.85 -514.902 3667
-1360.09 -514.902 3667
-1348 -513.638 3658
-1339.25 -513.638 3658
-1333.78 -514.902 3667
-1325.01 -514.902 3667
-1319.11 -516.025 3675
-1310.32 -516.025 3675
-1310.04 -519.395 3699
-1315.61 -525.152 3740
-1309.81 -526.416 3749
-1300.85 -526.416 3749
-1297.74 -528.803 3766
-1288.74 -528.803 3766
-1279.73 -528.803 3766
-1270.73 -528.803 3766
-1276.13 -534.841 3809
-1267.02 -534.841 3809
-1263.52 -537.228 3826
-1254.37 -537.228 3826
-1259.87 -543.546 3871
-1250.61 -543.546 3871
-1241.36 -543.546 3871
-1229.24 -542.283 3862
-1220 -542.283 3862
-268.978 -315.232 2245
-263.609 -315.232 2245
-258.241 -315.232 2245
-252.872 -315.232 2245
-247.504 -315.232 2245
-241.488 -314.389 2239
-236.134 -314.389 2239
-230.471 -313.968 2236
-224.217 -312.704 2227
-218.892 -312.704 2227
-213.567 -312.704 2227
-207.4 -311.44 2218
-201.093 -309.896 2207
-195.017 -308.632 2198
-189.761 -308.632 2198
-184.505 -308.632 2198
-178.515 -307.368 2189
-173.281 -307.368 2189
-168.046 -307.368 2189
-162.588 -306.947 2186
-157.361 -306.947 2186
-151.577 -305.824 2178
-146.167 -305.403 2175
-140.966 -305.403 2175
-135.39 -304.56 2169
-130.083 -304.279 2167
-124.556 -303.437 2161
-119.388 -303.437 2161
-113.798 -302.313 2153
-108.195 -301.05 2144
-102.828 -300.348 2139
-97.7126 -300.348 2139
-92.2512 -299.224 2131
-87.2372 -299.505 2133
-82.1365 -299.505 2133
-77.0359 -299.505 2133
-71.9352 -299.505 2133
-66.7719 -299.224 2131
-61.5892 -298.803 2128
-56.5005 -298.803 2128
-51.4118 -298.803 2128
-46.2578 -298.382 2125
-41.1182 -297.961 2122
-36.0438 -297.961 2122
-30.9403 -297.68 2120
-25.7975 -296.837 2114
-20.7227 -296.556 2112
-15.6722 -296.556 2112
-10.6218 -296.556 2112
-5.56347 -296.135 2109
-0.520209 -296.135 2109
4.52305 -296.135 2109
9.56631 -296.135 2109
14.6096 -296.135 2109
19.6528 -296.135 2109
24.6961 -296.135 2109
29.7393 -296.135 2109
34.7331 -295.714 2106
39.7692 -295.714 2106
44.8053 -295.714 2106
49.8414 -295.714 2106
54.8775 -295.714 2106
59.7713 -295.012 2101
64.7954 -295.012 2101
69.8196 -295.012 2101
74.8437 -295.012 2101
79.8678 -295.012 2101
84.7707 -294.591 2098
89.7877 -294.591 2098
94.8046 -294.591 2098
99.7264 -294.31 2096
104.739 -294.31 2096
109.751 -294.31 2096
114.763 -294.31 2096
119.775 -294.31 2096
124.787 -294.31 2096
129.923 -294.591 2098
134.94 -294.591 2098
139.957 -294.591 2098
145.389 -295.433 2104
150.42 -295.433 2104
155.599 -295.714 2106
160.635 -295.714 2106
166.143 -296.556 2112
171.356 -296.837 2114
176.411 -296.837 2114
181.466 -296.837 2114
187.051 -297.68 2120
192.302 -297.961 2122
197.934 -298.803 2128
203.023 -298.803 2128
208.6 -299.505 2133
214.603 -300.769 2142
221.366 -303.016 2158
226.527 -303.016 2158
231.687 -303.016 2158
237.506 -303.858 2164
243.017 -304.279 2167
248.199 -304.279 2167
253.615 -304.56 2169
259.876 -305.824 2178
265.084 -305.824 2178
270.292 -305.824 2178
276.259 -306.666 2184
281.482 -306.666 2184
286.705 -306.666 2184
291.927 -306.666 2184
297.15 -306.666 2184
302.372 -306.666 2184
307.173 -306.245 2181
312.388 -306.245 2181
316.293 -304.981 2172
321.043 -304.56 2169
325.929 -304.279 2167
331.111 -304.279 2167
336.292 -304.279 2167
341.474 -304.279 2167
346.656 -304.279 2167
351.838 -304.279 2167
357.02 -304.279 2167
362.202 -304.279 2167
367.384 -304.279 2167
372.91 -304.56 2169
378.097 -304.56 2169
383.814 -304.981 2172
389.008 -304.981 2172
394.201 -304.981 2172
399.395 -304.981 2172
695.832 -511.391 3642
704.541 -511.391 3642
713.25 -511.391 3642
721.959 -511.391 3642
733.878 -513.638 3658
744.453 -514.902 3667
753.222 -514.902 3667
766.978 -518.272 3691
779.167 -520.518 3707
788.031 -520.518 3707
796.896 -520.518 3707
805.761 -520.518 3707
820.119 -524.029 3732
829.043 -524.029 3732
837.968 -524.029 3732
846.892 -524.029 3732
853.982 -522.905 3724
862.887 -522.905 3724
867.813 -520.518 3707
872.893 -518.272 3691
877.897 -516.025 3675
886.685 -516.025 3675
895.474 -516.025 3675
904.262 -516.025 3675
911.062 -514.902 3667
917.573 -513.638 3658
926.321 -513.638 3658
930.978 -511.391 3642
941.751 -512.515 3650
950.48 -512.515 3650
959.208 -512.515 3650
967.936 -512.515 3650
974.524 -511.391 3642
981.343 -510.409 3635
990.035 -510.409 3635
998.728 -510.409 3635
1002.99 -508.162 3619
1011.64 -508.162 3619
1020.29 -508.162 3619
1028.95 -508.162 3619
1039.9 -509.285 3627
1048.57 -509.285 3627
1057.24 -509.285 3627
1065.92 -509.285 3627
1074.59 -509.285 3627
1083.26 -509.285 3627
1091.94 -509.285 3627
1100.61 -509.285 3627
1109.28 -509.285 3627
1117.96 -509.285 3627
1126.63 -509.285 3627
1135.3 -509.285 3627
1143.98 -509.285 3627
1150.11 -508.162 3619
1158.76 -508.162 3619
1169.99 -509.285 3627
1178.67 -509.285 3627
1187.34 -509.285 3627
1196.01 -509.285 3627
1204.69 -509.285 3627
1213.36 -509.285 3627
1222.03 -509.285 3627
1230.71 -509.285 3627
1239.38 -509.285 3627
1248.05 -509.285 3627
1256.73 -509.285 3627
1262.61 -508.162 3619
1268.45 -507.039 3611
1277.09 -507.039 3611
1285.72 -507.039 3611
1291.49 -505.915 3603
1300.11 -505.915 3603
1308.72 -505.915 3603
1317.34 -505.915 3603
1325.95 -505.915 3603
1334.57 -505.915 3603
1343.19 -505.915 3603
1351.8 -505.915 3603
1360.42 -505.915 3603
1369.03 -505.915 3603
1377.65 -505.915 3603
1383.19 -504.792 3595
1391.78 -504.792 3595
1397.65 -503.809 3588
1406.23 -503.809 3588
1411.66 -502.686 3580
1420.22 -502.686 3580
1425.59 -501.562 3572
1434.13 -501.562 3572
1445.9 -502.686 3580
1454.46 -502.686 3580
1466.29 -503.809 3588
1477.75 -504.792 3595
1486.35 -504.792 3595
1494.95 -504.792 3595
1503.54 -504.792 3595
1512.14 -504.792 3595
1520.74 -504.792 3595
1529.33 -504.792 3595
1537.93 -504.792 3595
1546.53 -504.792 3595
1555.12 -504.792 3595
1560.67 -503.809 3588
1572.32 -504.792 3595
1580.91 -504.792 3595
1589.51 -504.792 3595
1591.44 -502.686 3580
-2631.05 -502.667 3642
-2628.11 -503.771 3650
-2619.38 -503.771 3650
-2610.65 -503.771 3650
-2625.44 -508.326 3683
-2651.45 -515.089 3732
-2642.53 -515.089 3732
-2651.24 -518.539 3757
-2654.22 -520.886 3774
-2676.03 -526.958 3818
-2666.9 -526.958 3818
-2675.87 -530.547 3844
-2666.68 -530.547 3844
-2657.49 -530.547 3844
-2648.29 -530.547 3844
-2591.04 -520.886 3774
-2599.81 -524.474 3800
-2596.85 -525.716 3809
-2587.75 -525.716 3809
-2590.15 -528.063 3826
-2593.14 -530.547 3844
-2608.15 -535.516 3880
-2598.87 -535.516 3880
-2589.59 -535.516 3880
-1526.98 -515.089 3732
-1518.06 -515.089 3732
-1512.37 -516.193 3740
-1513.88 -519.781 3766
-1504.87 -519.781 3766
-1495.87 -519.781 3766
-1483.31 -518.539 3757
-1467.65 -516.193 3740
-1458.71 -516.193 3740
-1440.46 -512.88 3716
-1425.03 -510.534 3699
-1416.18 -510.534 3699
-1407.34 -510.534 3699
-1398.49 -510.534 3699
-1383.63 -508.326 3683
-1368.85 -506.117 3667
-1360.09 -506.117 3667
-1348 -504.875 3658
-1339.25 -504.875 3658
-1333.78 -506.117 3667
-1325.01 -506.117 3667
-1319.11 -507.222 3675
-1310.32 -507.222 3675
-1310.04 -510.534 3699
-1315.61 -516.193 3740
-1309.81 -517.435 3749
-1300.85 -517.435 3749
-1297.74 -519.781 3766
-1288.74 -519.781 3766
-1279.73 -519.781 3766
-1270.73 -519.781 3766
-1276.13 -525.716 3809
-1267.02 -525.716 3809
-1263.52 -528.063 3826
-1254.37 -528.063 3826
-1259.87 -534.273 3871
-1250.61 -534.273 3871
-1241.36 -534.273 3871
-268.259 -309.026 2239
-262.905 -309.026 2239
-257.55 -309.026 2239
-252.196 -309.026 2239
-246.842 -309.026 2239
-241.164 -308.612 2236
-235.818 -308.612 2236
-230.471 -308.612 2236
-224.217 -307.369 2227
-218.892 -307.369 2227
-213.567 -307.369 2227
-207.4 -306.127 2218
-201.093 -304.609 2207
-195.017 -303.367 2198
-189.761 -303.367 2198
-184.505 -303.367 2198
-178.515 -302.125 2189
-173.281 -302.125 2189
-168.046 -302.125 2189
-162.588 -301.711 2186
-157.361 -301.711 2186
-151.577 -300.606 2178
-146.167 -300.192 2175
-140.966 -300.192 2175
-135.39 -299.364 2169
-130.083 -299.088 2167
-124.556 -298.26 2161
-119.388 -298.26 2161
-113.798 -297.156 2153
-108.195 -295.914 2144
-102.828 -295.224 2139
-97.7126 -295.224 2139
-92.2512 -294.12 2131
-87.2372 -294.396 2133
-82.1365 -294.396 2133
-77.0359 -294.396 2133
-71.9352 -294.396 2133
-66.7719 -294.12 2131
-61.5892 -293.705 2128
-56.5005 -293.705 2128
-51.4118 -293.705 2128
-46.2578 -293.291 2125
-41.1182 -292.877 2122
-36.0438 -292.877 2122
-30.9403 -292.601 2120
-25.7975 -291.773 2114
-20.7227 -291.497 2112
-15.6722 -291.497 2112
-10.6218 -291.497 2112
-5.56347 -291.083 2109
-0.520209 -291.083 2109
4.52305 -291.083 2109
9.56631 -291.083 2109
14.6096 -291.083 2109
19.6528 -291.083 2109
24.6961 -291.083 2109
29.7393 -291.083 2109
34.7331 -290.669 2106
39.7692 -290.669 2106
44.8053 -290.669 2106
49.8414 -290.669 2106
54.8775 -290.669 2106
59.7713 -289.979 2101
64.7954 -289.979 2101
69.8196 -289.979 2101
74.8437 -289.979 2101
79.8678 -289.979 2101
84.7707 -289.565 2098
89.7877 -289.565 2098
94.7142 -289.289 2096
99.7264 -289.289 2096
104.589 -288.875 2093
109.594 -288.875 2093
114.763 -289.289 2096
119.775 -289.289 2096
124.787 -289.289 2096
129.799 -289.289 2096
134.94 -289.565 2098
139.957 -289.565 2098
145.389 -290.393 2104
150.42 -290.393 2104
155.599 -290.669 2106
160.635 -290.669 2106
165.907 -291.083 2109
171.356 -291.773 2114
176.411 -291.773 2114
181.466 -291.773 2114
187.051 -292.601 2120
192.302 -292.877 2122
197.934 -293.705 2128
203.023 -293.705 2128
208.6 -294.396 2133
214.603 -295.638 2142
221.366 -297.846 2158
226.527 -297.846 2158
231.687 -297.846 2158
237.506 -298.674 2164
243.017 -299.088 2167
248.199 -299.088 2167
253.615 -299.364 2169
259.876 -300.606 2178
265.084 -300.606 2178
270.292 -300.606 2178
276.259 -301.435 2184
281.482 -301.435 2184
286.705 -301.435 2184
291.927 -301.435 2184
297.15 -301.435 2184
302.372 -301.435 2184
307.173 -301.021 2181
312.388 -301.021 2181
316.293 -299.778 2172
321.043 -299.364 2169
325.929 -299.088 2167
331.111 -299.088 2167
336.292 -299.088 2167
341.474 -299.088 2167
346.656 -299.088 2167
351.838 -299.088 2167
357.02 -299.088 2167
362.202 -299.088 2167
367.384 -299.088 2167
372.91 -299.364 2169
378.097 -299.364 2169
383.814 -299.778 2172
389.008 -299.778 2172
394.201 -299.778 2172
399.395 -299.778 2172
695.832 -502.667 3642
704.541 -502.667 3642
713.25 -502.667 3642
721.959 -502.667 3642
733.878 -504.875 3658
744.453 -506.117 3667
753.222 -506.117 3667
766.978 -509.43 3691
779.167 -511.638 3707
788.031 -511.638 3707
796.896 -511.638 3707
805.761 -511.638 3707
820.119 -515.089 3732
829.043 -515.089 3732
837.968 -515.089 3732
846.892 -515.089 3732
853.982 -513.985 3724
862.887 -513.985 3724
867.813 -511.638 3707
872.893 -509.43 3691
877.897 -507.222 3675
886.685 -507.222 3675
895.474 -507.222 3675
902.293 -506.117 3667
911.062 -506.117 3667
913.56 -502.667 3642
922.269 -502.667 3642
930.978 -502.667 3642
939.687 -502.667 3642
948.396 -502.667 3642
957.106 -502.667 3642
965.815 -502.667 3642
972.651 -501.701 3635
981.343 -501.701 3635
990.035 -501.701 3635
998.728 -501.701 3635
1002.99 -499.493 3619
1011.64 -499.493 3619
1020.29 -499.493 3619
1028.95 -499.493 3619
1039.9 -500.597 3627
1048.57 -500.597 3627
1057.24 -500.597 3627
1065.92 -500.597 3627
1074.59 -500.597 3627
1083.26 -500.597 3627
1091.94 -500.597 3627
1100.61 -500.597 3627
1109.28 -500.597 3627
1117.96 -500.597 3627
1126.63 -500.597 3627
1135.3 -500.597 3627
1143.98 -500.597 3627
1150.11 -499.493 3619
1158.76 -499.493 3619
1169.99 -500.597 3627
1178.67 -500.597 3627
1187.34 -500.597 3627
1196.01 -500.597 3627
1204.69 -500.597 3627
1213.36 -500.597 3627
1222.03 -500.597 3627
1227.99 -499.493 3619
1236.65 -499.493 3619
1245.3 -499.493 3619
1253.96 -499.493 3619
1259.82 -498.388 3611
1268.45 -498.388 3611
1277.09 -498.388 3611
1282.88 -497.284 3603
1291.49 -497.284 3603
1300.11 -497.284 3603
1308.72 -497.284 3603
1317.34 -497.284 3603
1325.95 -497.284 3603
1334.57 -497.284 3603
1343.19 -497.284 3603
1348.8 -496.18 3595
1357.4 -496.18 3595
1365.99 -496.18 3595
1374.59 -496.18 3595
1383.19 -496.18 3595
1389.07 -495.214 3588
1397.65 -495.214 3588
1406.23 -495.214 3588
1411.66 -494.11 3580
1420.22 -494.11 3580
1425.59 -493.006 3572
1434.13 -493.006 3572
1445.9 -494.11 3580
1454.46 -494.11 3580
1466.29 -495.214 3588
1477.75 -496.18 3595
1486.35 -496.18 3595
1494.95 -496.18 3595
1503.54 -496.18 3595
1512.14 -496.18 3595
1520.74 -496.18 3595
1529.33 -496.18 3595
1537.93 -496.18 3595
1546.53 -496.18 3595
1555.12 -496.18 3595
1560.67 -495.214 3588
1569.25 -495.214 3588
1577.83 -495.214 3588
1586.41 -495.214 3588
1591.44 -494.11 3580
-2622.35 -493.943 3642
-2613.64 -493.943 3642
-2604.93 -493.943 3642
-2601.92 -495.027 3650
-2605.27 -497.333 3667
-2596.5 -497.333 3667
-2633.6 -506.149 3732
-2624.68 -506.149 3732
-2633.28 -509.539 3757
-2624.29 -509.539 3757
-2627.14 -511.845 3774
-2618.12 -511.845 3774
-2609.09 -511.845 3774
-2600.07 -511.845 3774
-2585.55 -510.76 3766
-2576.54 -510.76 3766
-2567.54 -510.76 3766
-2558.53 -510.76 3766
-2578.64 -516.592 3809
-2575.6 -517.812 3818
-2583.95 -521.339 3844
-2574.76 -521.339 3844
-2565.56 -521.339 3844
-1526.98 -506.149 3732
-1518.06 -506.149 3732
-1512.37 -507.234 3740
-1510.26 -509.539 3757
-1501.28 -509.539 3757
-1492.29 -509.539 3757
-1483.31 -509.539 3757
-1464.51 -506.149 3732
-1455.59 -506.149 3732
-1440.46 -503.979 3716
-1428.11 -502.758 3707
-1419.24 -502.758 3707
-1410.38 -502.758 3707
-1401.51 -502.758 3707
-1383.63 -499.503 3683
-1368.85 -497.333 3667
-1360.09 -497.333 3667
-1348 -496.112 3658
-1342.55 -497.333 3667
-1336.69 -498.418 3675
-1327.9 -498.418 3675
-1327.73 -501.673 3699
-1318.88 -501.673 3699
-1321.72 -506.149 3732
-1318.78 -508.454 3749
-1318.55 -511.845 3774
-1309.52 -511.845 3774
-1303.6 -513.065 3783
-1294.55 -513.065 3783
-1294.34 -516.592 3809
-1285.23 -516.592 3809
-1279.14 -517.812 3818
-1272.67 -518.897 3826
-1269.47 -521.339 3844
-1260.28 -521.339 3844
-1259.87 -525 3871
-1250.61 -525 3871
-1241.36 -525 3871
-267.54 -302.848 2233
-262.2 -302.848 2233
-256.86 -302.848 2233
-251.52 -302.848 2233
-246.181 -302.848 2233
-240.517 -302.441 2230
-235.185 -302.441 2230
-229.852 -302.441 2230
-224.217 -302.035 2227
-218.892 -302.035 2227
-213.567 -302.035 2227
-207.4 -300.814 2218
-201.093 -299.322 2207
-195.283 -298.508 2201
-190.02 -298.508 2201
-184.757 -298.508 2201
-179.249 -298.102 2198
-173.755 -297.695 2195
-168.507 -297.695 2195
-162.811 -296.881 2189
-157.577 -296.881 2189
-152.133 -296.474 2186
-146.906 -296.474 2186
-141.16 -295.389 2178
-135.577 -294.575 2172
-130.203 -294.168 2169
-124.901 -293.897 2167
-119.719 -293.897 2167
-113.903 -292.27 2155
-108.498 -291.592 2150
-102.828 -290.1 2139
-97.7126 -290.1 2139
-92.4677 -289.693 2136
-87.3599 -289.693 2136
-82.252 -289.693 2136
-77.1442 -289.693 2136
-72.0364 -289.693 2136
-66.8346 -289.286 2133
-61.5892 -288.608 2128
-56.5005 -288.608 2128
-51.4118 -288.608 2128
-46.2578 -288.201 2125
-41.1182 -287.794 2122
-36.0438 -287.794 2122
-30.9403 -287.523 2120
-25.7975 -286.709 2114
-20.7227 -286.438 2112
