ply
format ascii 1.0
comment File generated
element vertex 2260
property float x
property float y
property float z
end_header
-247.24 1122 2195
-242.653 1125.07 2201
-238.684 1131.2 2213
-233.392 1131.2 2213
-228.1 1131.2 2213
-223.009 1132.23 2215
-218.597 1136.83 2224
-213.854 1139.89 2230
-208.522 1139.89 2230
-203.189 1139.89 2230
-197.59 1138.36 2227
-192.265 1138.36 2227
-185.764 1131.2 2213
-180.472 1131.2 2213
-175.18 1131.2 2213
-169.888 1131.2 2213
-164.373 1129.67 2210
-158.657 1126.6 2204
-152.969 1123.54 2198
-147.713 1123.54 2198
-142.262 1122 2195
-136.826 1120.47 2192
-130.384 1110.25 2172
-125.19 1110.25 2172
-119.996 1110.25 2172
-114.802 1110.25 2172
-110.213 1116.38 2184
-105.231 1118.94 2189
-99.9966 1118.94 2189
-94.7621 1118.94 2189
-89.5275 1118.94 2189
-84.4085 1120.47 2192
-79.1667 1120.47 2192
-73.925 1120.47 2192
-68.6833 1120.47 2192
-42.4746 1120.47 2192
-37.2328 1120.47 2192
-31.9911 1120.47 2192
-26.7494 1120.47 2192
-21.5076 1120.47 2192
-16.2659 1120.47 2192
102.676 1103.09 2158
107.837 1103.09 2158
112.997 1103.09 2158
118.158 1103.09 2158
123.318 1103.09 2158
128.3 1101.56 2155
133.453 1101.56 2155
138.478 1100.53 2153
143.96 1103.09 2158
149.12 1103.09 2158
154.281 1103.09 2158
159.441 1103.09 2158
164.373 1101.56 2155
169.526 1101.56 2155
175.166 1104.62 2161
180.834 1107.69 2167
186.016 1107.69 2167
191.639 1110.25 2172
197.105 1111.78 2175
203.143 1116.38 2184
208.366 1116.38 2184
213.588 1116.38 2184
218.51 1114.85 2181
223.726 1114.85 2181
228.626 1113.31 2178
233.834 1113.31 2178
239.701 1116.38 2184
244.924 1116.38 2184
250.146 1116.38 2184
255.603 1117.4 2186
260.83 1117.4 2186
266.058 1117.4 2186
271.285 1117.4 2186
276.892 1118.94 2189
283.286 1123.54 2198
288.936 1125.07 2201
294.2 1125.07 2201
299.871 1126.6 2204
305.557 1128.14 2207
310.834 1128.14 2207
316.112 1128.14 2207
321.39 1128.14 2207
327.111 1129.67 2210
332.847 1131.2 2213
338.139 1131.2 2213
343.431 1131.2 2213
348.723 1131.2 2213
354.015 1131.2 2213
359.632 1132.23 2215
364.928 1132.23 2215
372.231 1138.36 2227
379.591 1144.49 2239
385.976 1147.56 2245
391.345 1147.56 2245
396.713 1147.56 2245
401.545 1146.03 2242
406.906 1146.03 2242
412.267 1146.03 2242
418.746 1149.1 2248
424.122 1149.1 2248
429.497 1149.1 2248
434.293 1147.56 2245
439.661 1147.56 2245
443.246 1142.96 2236
448.593 1142.96 2236
453.94 1142.96 2236
458.054 1139.89 2230
463.387 1139.89 2230
468.719 1139.89 2230
474.052 1139.89 2230
481.319 1144.49 2239
486.673 1144.49 2239
492.027 1144.49 2239
495.382 1139.89 2230
500.715 1139.89 2230
506.728 1141.43 2233
512.068 1141.43 2233
517.408 1141.43 2233
522.748 1141.43 2233
526.668 1138.36 2227
529.844 1133.76 2218
535.148 1133.76 2218
539.721 1132.23 2215
545.018 1132.23 2215
551.06 1133.76 2218
556.363 1133.76 2218
561.667 1133.76 2218
567.738 1135.29 2221
574.597 1138.36 2227
581.485 1141.43 2233
586.825 1141.43 2233
592.165 1141.43 2233
597.505 1141.43 2233
602.844 1141.43 2233
604.916 1135.29 2221
608.029 1131.2 2213
613.321 1131.2 2213
616.935 1128.14 2207
622.213 1128.14 2207
627.491 1128.14 2207
639.363 1139.89 2230
645.563 1141.43 2233
653.526 1146.03 2242
658.887 1146.03 2242
670.766 1157.27 2264
676.18 1157.27 2264
681.594 1157.27 2264
687.008 1157.27 2264
691.505 1155.74 2261
694.754 1152.16 2254
700.144 1152.16 2254
703.656 1149.1 2248
707.139 1146.03 2242
709.64 1141.43 2233
714.98 1141.43 2233
719.352 1139.89 2230
724.684 1139.89 2230
730.017 1139.89 2230
735.35 1139.89 2230
736.696 1133.76 2218
742 1133.76 2218
745.62 1131.2 2213
749.894 1129.67 2210
755.178 1129.67 2210
760.463 1129.67 2210
762.63 1125.07 2201
767.893 1125.07 2201
773.156 1125.07 2201
775.236 1120.47 2192
780.478 1120.47 2192
785.72 1120.47 2192
790.961 1120.47 2192
796.203 1120.47 2192
803.639 1123.54 2198
809.999 1125.07 2201
819.707 1131.2 2213
824.999 1131.2 2213
830.291 1131.2 2213
838.603 1135.29 2221
843.915 1135.29 2221
849.226 1135.29 2221
853.382 1133.76 2218
858.686 1133.76 2218
862.822 1132.23 2215
868.118 1132.23 2215
873.415 1132.23 2215
878.712 1132.23 2215
884.009 1132.23 2215
889.305 1132.23 2215
892.583 1129.67 2210
897.867 1129.67 2210
904.378 1131.2 2213
911.725 1133.76 2218
917.029 1133.76 2218
924.828 1136.83 2224
930.147 1136.83 2224
935.465 1136.83 2224
938.245 1133.76 2218
947.378 1138.36 2227
965.537 1153.7 2257
973.945 1157.27 2264
980.657 1158.81 2267
986.078 1158.81 2267
994.123 1161.87 2273
999.559 1161.87 2273
1004.99 1161.87 2273
1010.43 1161.87 2273
1015.87 1161.87 2273
1022.65 1163.41 2276
1030.8 1166.47 2282
1036.26 1166.47 2282
1044.45 1169.54 2288
1049.93 1169.54 2288
1055.4 1169.54 2288
1060.87 1169.54 2288
1066.34 1169.54 2288
1071.81 1169.54 2288
1077.28 1169.54 2288
1082.75 1169.54 2288
1083.94 1164.94 2279
1085.09 1160.34 2270
1090.52 1160.34 2270
1089.67 1153.7 2257
1092.16 1150.63 2251
1093.15 1146.03 2242
1098.51 1146.03 2242
1105.35 1147.56 2245
1110.72 1147.56 2245
1116.09 1147.56 2245
1124.45 1150.63 2251
1129.84 1150.63 2251
1135.22 1150.63 2251
1147.19 1157.27 2264
1152.6 1157.27 2264
1158.02 1157.27 2264
1159.84 1153.7 2257
1165.23 1153.7 2257
1174.26 1157.27 2264
1179.67 1157.27 2264
1185.09 1157.27 2264
1190.5 1157.27 2264
1197.5 1158.81 2267
1202.92 1158.81 2267
1208.34 1158.81 2267
1210.55 1155.74 2261
1215.96 1155.74 2261
1219.2 1153.7 2257
1224.6 1153.7 2257
1226.73 1150.63 2251
1223.9 1142.96 2236
1224.3 1138.36 2227
1229.63 1138.36 2227
1234.95 1138.36 2227
1238.61 1136.83 2224
1240.57 1133.76 2218
1245.87 1133.76 2218
1249.48 1132.23 2215
1246.85 1125.07 2201
1248.7 1122 2195
1250.52 1118.94 2189
1259.2 1122 2195
1264.45 1122 2195
1274.9 1126.6 2204
1283.66 1129.67 2210
1288.94 1129.67 2210
1294.23 1129.67 2210
1305.98 1135.29 2221
1311.29 1135.29 2221
1316.6 1135.29 2221
1321.91 1135.29 2221
1337.98 1144.49 2239
1346.93 1147.56 2245
1352.3 1147.56 2245
1357.67 1147.56 2245
1368.5 1152.16 2254
1373.89 1152.16 2254
1381.12 1153.7 2257
1386.52 1153.7 2257
1391.91 1153.7 2257
1403.5 1158.81 2267
1414.52 1163.41 2276
1421.83 1164.94 2279
1427.28 1164.94 2279
1432.73 1164.94 2279
1434.39 1161.87 2273
1439.83 1161.87 2273
1441.45 1158.81 2267
1446.87 1158.81 2267
1448.45 1155.74 2261
1453.85 1155.74 2261
1459.26 1155.74 2261
1464.67 1155.74 2261
1470.07 1155.74 2261
1475.48 1155.74 2261
1476.3 1152.16 2254
1471.83 1144.49 2239
1463.33 1133.76 2218
1453.41 1122 2195
1458.66 1122 2195
1459.9 1118.94 2189
1465.14 1118.94 2189
1456.94 1108.71 2169
1462.12 1108.71 2169
1467.31 1108.71 2169
1474.53 1110.25 2172
1483.82 1113.31 2178
1489.02 1113.31 2178
1494.23 1113.31 2178
1499.44 1113.31 2178
1506.72 1114.85 2181
1511.94 1114.85 2181
1517.15 1114.85 2181
1518.18 1111.78 2175
1523.38 1111.78 2175
1536.31 1117.4 2186
1554.23 1126.6 2204
1559.5 1126.6 2204
1578.97 1136.83 2224
1588.57 1139.89 2230
1593.9 1139.89 2230
1599.23 1139.89 2230
1617.52 1149.1 2248
1625.06 1150.63 2251
1642.03 1158.81 2267
1647.45 1158.81 2267
1659.43 1163.41 2276
1664.88 1163.41 2276
1670.32 1163.41 2276
1671.34 1160.34 2270
1667.17 1153.7 2257
1670.34 1152.16 2254
1675.73 1152.16 2254
1681.12 1152.16 2254
1686.51 1152.16 2254
1691.9 1152.16 2254
1681.48 1141.43 2233
1686.82 1141.43 2233
1683.07 1135.29 2221
1680.01 1129.67 2210
1673.86 1122 2195
1679.11 1122 2195
-1591.04 1091.31 2125
-1585.96 1091.31 2125
-1580.88 1091.31 2125
-1575.8 1091.31 2125
-1570.71 1091.31 2125
-1563.42 1089.77 2122
-1542.36 1085.66 2114
-1537.31 1085.66 2114
-1532.25 1085.66 2114
-1527.2 1085.66 2114
-1534.38 1094.39 2131
-1529.29 1094.39 2131
-1529.91 1098.5 2139
-1538.34 1108.26 2158
-1533.18 1108.26 2158
-1528.02 1108.26 2158
-1522.86 1108.26 2158
-1512.07 1104.15 2150
-1506.93 1104.15 2150
-1499.69 1102.61 2147
-1494.56 1102.61 2147
-1491.51 1104.15 2150
-1491.9 1108.26 2158
-1486.74 1108.26 2158
-1489.13 1113.91 2169
-1488.05 1116.99 2175
-1492.39 1124.18 2189
-1487.16 1124.18 2189
-1483.95 1125.72 2192
-1478.71 1125.72 2192
-1473.47 1125.72 2192
-1468.23 1125.72 2192
-1462.99 1125.72 2192
-1453.75 1122.64 2186
-1448.53 1122.64 2186
-1443.3 1122.64 2186
-1436.76 1121.61 2184
-1431.53 1121.61 2184
-1431.53 1125.72 2192
-1426.29 1125.72 2192
-1421.05 1125.72 2192
-1415.81 1125.72 2192
-1410.57 1125.72 2192
-1403.4 1124.18 2189
-1398.17 1124.18 2189
-1396.75 1127.26 2195
-1391.5 1127.26 2195
-1386.25 1127.26 2195
-1377.23 1124.18 2189
-1361.34 1115.45 2172
-1356.15 1115.45 2172
-1350.95 1115.45 2172
-1345.76 1115.45 2172
-1344.27 1118.53 2178
-1339.06 1118.53 2178
-1333.85 1118.53 2178
-1328.64 1118.53 2178
-1327.08 1121.61 2184
-1324.88 1124.18 2189
-1319.65 1124.18 2189
-1314.42 1124.18 2189
-1297.22 1113.91 2169
-1292.03 1113.91 2169
-1278.54 1106.72 2155
-1263.93 1098.5 2139
-1257.05 1096.96 2136
-1251.94 1096.96 2136
-1248.59 1098.5 2139
-1243.47 1098.5 2139
-1240.09 1100.04 2142
-1237.85 1102.61 2147
-1232.72 1102.61 2147
-1227.59 1102.61 2147
-1224.16 1104.15 2150
-1219.02 1104.15 2150
-1213.88 1104.15 2150
-1208.74 1104.15 2150
-1203.59 1104.15 2150
-1195.11 1101.07 2144
-1189.98 1101.07 2144
-1184.86 1101.07 2144
-1179.73 1101.07 2144
-1171.86 1098.5 2139
-1166.75 1098.5 2139
-1161.63 1098.5 2139
-1156.52 1098.5 2139
-1151.4 1098.5 2139
-1147.89 1100.04 2142
-1142.77 1100.04 2142
-1137.65 1100.04 2142
-1132.53 1100.04 2142
-1127.41 1100.04 2142
-1122.28 1100.04 2142
-1112.47 1095.42 2133
-1107.37 1095.42 2133
-1102.27 1095.42 2133
-1097.17 1095.42 2133
-1096.67 1100.04 2142
-1091.55 1100.04 2142
-1086.43 1100.04 2142
-1081.31 1100.04 2142
-1076.18 1100.04 2142
-1071.06 1100.04 2142
-1065.94 1100.04 2142
-1060.82 1100.04 2142
-1058.16 1102.61 2147
-1055.97 1105.69 2153
-1054.72 1109.8 2161
-1049.56 1109.8 2161
-1045.84 1111.34 2164
-1045.95 1116.99 2175
-1042.19 1118.53 2178
-1036.98 1118.53 2178
-1034.61 1121.61 2184
-1037.4 1130.34 2201
-1032.14 1130.34 2201
-1026.88 1130.34 2201
-1020.22 1128.8 2198
-1012.2 1125.72 2192
-1006.95 1125.72 2192
-992.573 1115.45 2172
-986.015 1113.91 2169
-980.828 1113.91 2169
-978.34 1116.99 2175
-973.139 1116.99 2175
-967.938 1116.99 2175
-962.737 1116.99 2175
-957.536 1116.99 2175
-947.518 1111.34 2164
-942.344 1111.34 2164
-940.634 1115.45 2172
-935.44 1115.45 2172
-930.246 1115.45 2172
-920.367 1109.8 2161
-913.929 1108.26 2158
-912.558 1112.88 2167
-909.47 1115.45 2172
-904.276 1115.45 2172
-901.566 1118.53 2178
-900.885 1124.18 2189
-898.105 1127.26 2195
-892.856 1127.26 2195
-887.607 1127.26 2195
-884.77 1130.34 2201
-879.507 1130.34 2201
-874.244 1130.34 2201
-870.165 1131.88 2204
-864.894 1131.88 2204
-861.964 1134.97 2210
-856.679 1134.97 2210
-851.395 1134.97 2210
-844.961 1133.42 2207
-839.684 1133.42 2207
-831.003 1128.8 2198
-821.239 1122.64 2186
-816.012 1122.64 2186
-813.01 1125.72 2192
-807.768 1125.72 2192
-802.526 1125.72 2192
-793.284 1120.07 2181
-788.068 1120.07 2181
-778.545 1113.91 2169
-770.506 1109.8 2161
-764.276 1108.26 2158
-760.171 1109.8 2161
-755.004 1109.8 2161
-749.836 1109.8 2161
-744.668 1109.8 2161
-739.501 1109.8 2161
-734.333 1109.8 2161
-729.165 1109.8 2161
-721.988 1106.72 2155
-716.834 1106.72 2155
-711.681 1106.72 2155
-707.511 1108.26 2158
-702.351 1108.26 2158
-697.191 1108.26 2158
-692.03 1108.26 2158
-687.825 1109.8 2161
-682.657 1109.8 2161
-677.489 1109.8 2161
-672.322 1109.8 2161
-667.154 1109.8 2161
-660.149 1106.72 2155
-653.476 1104.15 2150
-648.334 1104.15 2150
-643.193 1104.15 2150
-640.426 1108.26 2158
-636.149 1109.8 2161
-630.981 1109.8 2161
-625.813 1109.8 2161
-619.784 1108.26 2158
-613.769 1106.72 2155
-613.417 1115.45 2172
-608.223 1115.45 2172
-605.528 1120.07 2181
-600.313 1120.07 2181
-595.097 1120.07 2181
-589.882 1120.07 2181
-584.666 1120.07 2181
-579.451 1120.07 2181
-574.235 1120.07 2181
-567.455 1116.99 2175
-559.41 1111.34 2164
-556.284 1115.45 2172
-551.851 1116.99 2175
-546.65 1116.99 2175
-542.943 1120.07 2181
-537.727 1120.07 2181
-532.512 1120.07 2181
-526.571 1118.53 2178
-521.363 1118.53 2178
-518.051 1122.64 2186
-512.823 1122.64 2186
-507.596 1122.64 2186
-503.747 1125.72 2192
-498.506 1125.72 2192
-493.264 1125.72 2192
-486.686 1122.64 2186
-481.459 1122.64 2186
-475.142 1120.07 2181
-470.573 1121.61 2184
-465.351 1121.61 2184
-462.446 1127.26 2195
-458.446 1130.34 2201
-454.418 1133.42 2207
-449.141 1133.42 2207
-443.863 1133.42 2207
-438.586 1133.42 2207
-433.308 1133.42 2207
-428.03 1133.42 2207
-422.753 1133.42 2207
-417.475 1133.42 2207
-411.077 1130.34 2201
-405.814 1130.34 2201
-398.913 1125.72 2192
-392.593 1122.64 2186
-385.948 1118.53 2178
-380.74 1118.53 2178
-374.497 1115.45 2172
-368.453 1112.88 2167
-361.763 1108.26 2158
-356.602 1108.26 2158
-350.627 1105.69 2153
-344.516 1102.61 2147
-339.382 1102.61 2147
-334.248 1102.61 2147
-328.654 1101.07 2144
-322.32 1096.96 2136
-317.212 1096.96 2136
-312.104 1096.96 2136
-306.996 1096.96 2136
-301.888 1096.96 2136
-297.614 1100.04 2142
-293.175 1102.61 2147
-288.443 1104.15 2150
-283.302 1104.15 2150
-278.549 1105.69 2153
-274.416 1109.8 2161
-269.622 1111.34 2164
-264.448 1111.34 2164
-260.591 1116.99 2175
-255.742 1118.53 2178
-252.489 1127.26 2195
-247.24 1127.26 2195
-242.653 1130.34 2201
-238.684 1136.51 2213
-233.392 1136.51 2213
-228.1 1136.51 2213
-223.009 1137.53 2215
-218.597 1142.16 2224
-213.854 1145.24 2230
-208.522 1145.24 2230
-203.189 1145.24 2230
-197.59 1143.7 2227
-192.265 1143.7 2227
-185.764 1136.51 2213
-180.472 1136.51 2213
-175.18 1136.51 2213
-169.888 1136.51 2213
-164.373 1134.97 2210
-158.657 1131.88 2204
-152.969 1128.8 2198
-147.713 1128.8 2198
-142.262 1127.26 2195
-136.826 1125.72 2192
-130.384 1115.45 2172
-125.19 1115.45 2172
-119.996 1115.45 2172
-114.802 1115.45 2172
-110.213 1121.61 2184
-105.231 1124.18 2189
-99.9966 1124.18 2189
-94.7621 1124.18 2189
-89.5275 1124.18 2189
-84.4085 1125.72 2192
-79.1667 1125.72 2192
-73.925 1125.72 2192
-68.6833 1125.72 2192
-46.9762 1108.26 2158
-42.4746 1125.72 2192
-37.2328 1125.72 2192
-31.9911 1125.72 2192
-26.7494 1125.72 2192
-21.5076 1125.72 2192
-16.2659 1125.72 2192
-10.8833 1111.34 2164
14.9144 1105.69 2153
20.0628 1105.69 2153
25.2113 1105.69 2153
30.3598 1105.69 2153
35.4093 1102.61 2147
40.4868 1101.07 2144
45.6137 1101.07 2144
50.7407 1101.07 2144
55.8676 1101.07 2144
60.9377 1100.04 2142
65.9674 1098.5 2139
71.0824 1098.5 2139
75.9124 1094.39 2131
81.0082 1094.39 2131
86.1849 1095.42 2133
91.2856 1095.42 2133
96.3862 1095.42 2133
102.676 1108.26 2158
107.837 1108.26 2158
112.997 1108.26 2158
118.158 1108.26 2158
123.318 1108.26 2158
128.3 1106.72 2155
133.453 1106.72 2155
138.478 1105.69 2153
143.96 1108.26 2158
149.12 1108.26 2158
154.281 1108.26 2158
159.441 1108.26 2158
164.373 1106.72 2155
169.526 1106.72 2155
175.166 1109.8 2161
180.333 1109.8 2161
185.501 1109.8 2161
190.933 1111.34 2164
196.561 1113.91 2169
202.027 1115.45 2172
207.221 1115.45 2172
212.415 1115.45 2172
217.308 1113.91 2169
222.495 1113.91 2169
227.681 1113.91 2169
232.868 1113.91 2169
238.384 1115.45 2172
244.251 1118.53 2178
249.459 1118.53 2178
255.018 1120.07 2181
260.234 1120.07 2181
265.449 1120.07 2181
270.664 1120.07 2181
275.5 1118.53 2178
281.482 1121.61 2184
286.967 1122.64 2186
292.195 1122.64 2186
297.422 1122.64 2186
303.065 1124.18 2189
308.299 1124.18 2189
313.534 1124.18 2189
318.768 1124.18 2189
325.779 1130.34 2201
331.042 1130.34 2201
336.764 1131.88 2204
342.034 1131.88 2204
347.305 1131.88 2204
352.575 1131.88 2204
357.846 1131.88 2204
363.116 1131.88 2204
368.888 1133.42 2207
375.522 1137.53 2215
382.882 1143.7 2227
388.207 1143.7 2227
393.533 1143.7 2227
398.858 1143.7 2227
404.728 1145.24 2230
410.061 1145.24 2230
415.952 1146.78 2233
421.292 1146.78 2233
426.632 1146.78 2233
431.391 1145.24 2230
436.136 1143.7 2227
440.867 1142.16 2224
446.185 1142.16 2224
450.894 1140.61 2221
454.973 1137.53 2215
460.27 1137.53 2215
466.828 1140.61 2221
472.139 1140.61 2221
478.74 1143.7 2227
484.065 1143.7 2227
489.39 1143.7 2227
493.383 1140.61 2221
498.694 1140.61 2221
505.367 1143.7 2227
510.692 1143.7 2227
516.018 1143.7 2227
520.641 1142.16 2224
524.54 1139.07 2218
527.933 1134.97 2210
533.218 1134.97 2210
537.771 1133.42 2207
543.787 1134.97 2210
549.072 1134.97 2210
554.357 1134.97 2210
559.642 1134.97 2210
564.926 1134.97 2210
570.211 1134.97 2210
576.798 1137.53 2215
582.095 1137.53 2215
587.391 1137.53 2215
592.688 1137.53 2215
597.985 1137.53 2215
602.737 1136.51 2213
604.732 1130.34 2201
609.164 1128.8 2198
613.581 1127.26 2195
618.83 1127.26 2195
623.226 1125.72 2192
629.328 1127.26 2195
635.444 1128.8 2198
650.028 1145.24 2230
655.36 1145.24 2230
661.582 1146.78 2233
666.922 1146.78 2233
672.261 1146.78 2233
677.601 1146.78 2233
682.023 1145.24 2230
686.431 1143.7 2227
691.757 1143.7 2227
694.265 1139.07 2218
698.623 1137.53 2215
700.424 1131.88 2204
705.694 1131.88 2204
710.965 1131.88 2204
716.235 1131.88 2204
721.506 1131.88 2204
724.797 1128.8 2198
730.054 1128.8 2198
735.31 1128.8 2198
740.566 1128.8 2198
745.822 1128.8 2198
751.078 1128.8 2198
755.302 1127.26 2195
760.551 1127.26 2195
763.706 1124.18 2189
768.941 1124.18 2189
774.175 1124.18 2189
777.63 1121.61 2184
782.852 1121.61 2184
789.879 1124.18 2189
795.114 1124.18 2189
801.445 1125.72 2192
808.895 1128.8 2198
814.151 1128.8 2198
820.525 1130.34 2201
825.789 1130.34 2201
831.052 1130.34 2201
836.315 1130.34 2201
841.578 1130.34 2201
846.842 1130.34 2201
850.943 1128.8 2198
857.368 1130.34 2201
866.159 1134.97 2210
871.444 1134.97 2210
876.728 1134.97 2210
882.013 1134.97 2210
887.298 1134.97 2210
891.371 1133.42 2207
891.773 1127.26 2195
897.022 1127.26 2195
902.271 1127.26 2195
907.52 1127.26 2195
912.769 1127.26 2195
918.018 1127.26 2195
923.267 1127.26 2195
933.592 1133.42 2207
938.869 1133.42 2207
952.703 1143.7 2227
970.934 1159.1 2257
978.062 1161.16 2261
983.468 1161.16 2261
991.499 1164.24 2267
996.92 1164.24 2267
1002.34 1164.24 2267
1007.76 1164.24 2267
1010.5 1161.16 2261
1017.26 1162.7 2264
1026.74 1167.32 2273
1032.17 1167.32 2273
1038.98 1168.86 2276
1047.17 1171.94 2282
1052.63 1171.94 2282
1058.09 1171.94 2282
1064.94 1173.48 2285
1070.41 1173.48 2285
1075.87 1173.48 2285
1077.07 1168.86 2276
1079.66 1165.78 2270
1076.01 1156.02 2251
1081.39 1156.02 2251
1083.88 1152.94 2245
1089.25 1152.94 2245
1084.38 1142.16 2224
1091.16 1143.7 2227
1102.4 1149.86 2239
1107.75 1149.86 2239
1113.11 1149.86 2239
1116.96 1148.32 2236
1122.31 1148.32 2236
1127.66 1148.32 2236
1133 1148.32 2236
1138.35 1148.32 2236
1146.77 1151.4 2242
1152.13 1151.4 2242
1157.49 1151.4 2242
1162.85 1151.4 2242
1172.9 1156.02 2251
1178.28 1156.02 2251
1183.67 1156.02 2251
1189.05 1156.02 2251
1194.43 1156.02 2251
1199.81 1156.02 2251
1200.38 1151.4 2242
1199.29 1145.24 2230
1204.62 1145.24 2230
1209.95 1145.24 2230
1210.38 1140.61 2221
1208.03 1133.42 2207
1208.36 1128.8 2198
1213.61 1128.8 2198
1215.54 1125.72 2192
1220.78 1125.72 2192
1226.03 1125.72 2192
1231.27 1125.72 2192
1236.51 1125.72 2192
1235.52 1120.07 2181
1239.03 1118.53 2178
1239.09 1113.91 2169
1244.28 1113.91 2169
1249.47 1113.91 2169
1256.39 1115.45 2172
1261.58 1115.45 2172
1273.78 1121.61 2184
1279 1121.61 2184
1290.69 1127.26 2195
1299.48 1130.34 2201
1306.52 1131.88 2204
1311.79 1131.88 2204
1322.44 1136.51 2213
1334.33 1142.16 2224
1341.46 1143.7 2227
1346.79 1143.7 2227
1357.57 1148.32 2236
1362.92 1148.32 2236
1368.27 1148.32 2236
1373.62 1148.32 2236
1378.96 1148.32 2236
1391.74 1154.48 2248
1405.19 1161.16 2261
1410.6 1161.16 2261
1416.01 1161.16 2261
1421.41 1161.16 2261
1420.51 1156.02 2251
1425.89 1156.02 2251
1425.55 1151.4 2242
1425.17 1146.78 2233
1426.67 1143.7 2227
1431.99 1143.7 2227
1433.44 1140.61 2221
1434.87 1137.53 2215
1440.17 1137.53 2215
1445.46 1137.53 2215
1445.52 1133.42 2207
1442.91 1127.26 2195
1436.94 1118.53 2178
1436.19 1113.91 2169
1441.38 1113.91 2169
1445.23 1112.88 2167
1450.41 1112.88 2167
1455.59 1112.88 2167
1460.78 1112.88 2167
1461.9 1109.8 2161
1469.1 1111.34 2164
1474.28 1111.34 2164
1479.45 1111.34 2164
1484.63 1111.34 2164
1489.8 1111.34 2164
1497.05 1112.88 2167
1502.23 1112.88 2167
1510.89 1115.45 2172
1516.09 1115.45 2172
1523.38 1116.99 2175
1536.31 1122.64 2186
1547.89 1127.26 2195
1553.14 1127.26 2195
1569.03 1134.97 2210
1588.57 1145.24 2230
1593.9 1145.24 2230
1599.23 1145.24 2230
1613.2 1151.4 2242
1622.89 1154.48 2248
1632.61 1157.56 2254
1638 1157.56 2254
1655.06 1165.78 2270
1660.49 1165.78 2270
1665.92 1165.78 2270
1659.56 1157.56 2254
1664.95 1157.56 2254
1670.34 1157.56 2254
1675.73 1157.56 2254
1681.12 1157.56 2254
1686.51 1157.56 2254
1691.9 1157.56 2254
1681.48 1146.78 2233
1686.82 1146.78 2233
1683.07 1140.61 2221
1680.01 1134.97 2210
1673.86 1127.26 2195
1679.11 1127.26 2195
-1593.29 1097.95 2128
-1588.2 1097.95 2128
-1585.34 1099.5 2131
-1580.24 1099.5 2131
-1575.15 1099.5 2131
-1570.05 1099.5 2131
-1544.55 1092.28 2117
-1539.49 1092.28 2117
-1534.43 1092.28 2117
-1529.36 1092.28 2117
-1534.38 1099.5 2131
-1529.29 1099.5 2131
-1529.91 1103.63 2139
-1538.34 1113.43 2158
-1533.18 1113.43 2158
-1528.02 1113.43 2158
-1522.86 1113.43 2158
-1512.07 1109.3 2150
-1506.93 1109.3 2150
-1499.69 1107.75 2147
-1494.56 1107.75 2147
-1491.51 1109.3 2150
-1491.9 1113.43 2158
-1486.74 1113.43 2158
-1489.13 1119.11 2169
-1488.05 1122.2 2175
-1492.39 1129.42 2189
-1487.16 1129.42 2189
-1483.95 1130.97 2192
-1478.71 1130.97 2192
-1473.47 1130.97 2192
-1468.23 1130.97 2192
-1462.99 1130.97 2192
-1453.75 1127.88 2186
-1448.53 1127.88 2186
-1443.3 1127.88 2186
-1436.76 1126.84 2184
-1431.53 1126.84 2184
-1431.53 1130.97 2192
-1426.29 1130.97 2192
-1421.05 1130.97 2192
-1415.81 1130.97 2192
-1410.57 1130.97 2192
-1403.4 1129.42 2189
-1398.17 1129.42 2189
-1387.84 1125.3 2181
-1382.63 1125.3 2181
-1368.57 1118.07 2167
-1359.61 1114.98 2161
-1349.43 1110.85 2153
-1344.28 1110.85 2153
-1335.4 1107.75 2147
-1333.99 1110.85 2153
-1328.84 1110.85 2153
-1323.69 1110.85 2153
-1318.54 1110.85 2153
-1314.61 1111.88 2155
-1311.28 1113.43 2158
-1311.57 1118.07 2167
-1306.39 1118.07 2167
-1301.2 1118.07 2167
-1290.64 1113.43 2158
-1285.48 1113.43 2158
-1267.27 1102.08 2136
-1260.39 1100.53 2133
-1257.05 1102.08 2136
-1251.94 1102.08 2136
-1246.84 1102.08 2136
-1239.98 1100.53 2133
-1238.36 1103.63 2139
-1234.97 1105.17 2142
-1231 1106.21 2144
-1225.87 1106.21 2144
-1220.74 1106.21 2144
-1215.62 1106.21 2144
-1210.49 1106.21 2144
-1205.36 1106.21 2144
-1200.24 1106.21 2144
-1193.99 1105.17 2142
-1188.87 1105.17 2142
-1182.09 1103.63 2139
-1175.33 1102.08 2136
-1165.84 1097.95 2128
-1160.75 1097.95 2128
-1155.66 1097.95 2128
-1150.57 1097.95 2128
-1145.48 1097.95 2128
-1140.39 1097.95 2128
-1135.3 1097.95 2128
-1131.81 1099.5 2131
-1126.71 1099.5 2131
-1121.62 1099.5 2131
-1116.52 1099.5 2131
-1108.3 1096.4 2125
-1101.66 1094.86 2122
-1096.58 1094.86 2122
-1091.51 1094.86 2122
-1089.51 1097.95 2128
-1084.42 1097.95 2128
-1080.85 1099.5 2131
-1075.75 1099.5 2131
-1071.66 1100.53 2133
-1069.56 1103.63 2139
-1065.94 1105.17 2142
-1060.82 1105.17 2142
-1055.7 1105.17 2142
-1054.5 1109.3 2150
-1050.82 1110.85 2153
-1045.67 1110.85 2153
-1044.39 1114.98 2161
-1039.22 1114.98 2161
-1036.93 1118.07 2167
-1031.74 1118.07 2167
-1030.35 1122.2 2175
-1026.56 1123.75 2178
-1021.36 1123.75 2178
-1016.15 1123.75 2178
-1010.94 1123.75 2178
-1000.65 1118.07 2167
-995.47 1118.07 2167
-983.89 1110.85 2153
-977.378 1109.3 2150
-972.236 1109.3 2150
-967.095 1109.3 2150
-961.954 1109.3 2150
-956.812 1109.3 2150
-951.671 1109.3 2150
-946.53 1109.3 2150
-940.075 1107.75 2147
-934.941 1107.75 2147
-932.405 1110.85 2153
-927.257 1110.85 2153
-922.108 1110.85 2153
-916.96 1110.85 2153
-911.811 1110.85 2153
-906.663 1110.85 2153
-907.376 1118.07 2167
-902.194 1118.07 2167
-899.082 1120.65 2172
-897.592 1125.3 2181
-893.604 1126.84 2184
-888.382 1126.84 2184
-883.159 1126.84 2184
-877.937 1126.84 2184
-872.714 1126.84 2184
-867.491 1126.84 2184
-862.269 1126.84 2184
-857.831 1127.88 2186
-854.944 1130.97 2192
-849.702 1130.97 2192
-844.46 1130.97 2192
-839.219 1130.97 2192
-833.977 1130.97 2192
-827.601 1129.42 2189
-817.107 1122.2 2175
-811.906 1122.2 2175
-808.93 1125.3 2181
-803.714 1125.3 2181
-798.499 1125.3 2181
-788.919 1119.11 2169
-783.732 1119.11 2169
-775.674 1114.98 2161
-769.437 1113.43 2158
-763.214 1111.88 2155
-758.06 1111.88 2155
-752.907 1111.88 2155
-748.795 1113.43 2158
-743.635 1113.43 2158
-738.474 1113.43 2158
-733.314 1113.43 2158
-727.141 1111.88 2155
-721.318 1110.85 2153
-716.169 1110.85 2153
-711.021 1110.85 2153
-705.872 1110.85 2153
-700.724 1110.85 2153
-695.575 1110.85 2153
-690.427 1110.85 2153
-685.278 1110.85 2153
-680.13 1110.85 2153
-674.041 1109.3 2150
-668.9 1109.3 2150
-662.832 1107.75 2147
-657.698 1107.75 2147
-651.652 1106.21 2144
-646.525 1106.21 2144
-640.8 1105.17 2142
-637.161 1107.75 2147
-632.027 1107.75 2147
-626.893 1107.75 2147
-621.759 1107.75 2147
-616.625 1107.75 2147
-613.2 1110.85 2153
-608.616 1111.88 2155
-603.463 1111.88 2155
-603.029 1120.65 2172
-598.661 1122.2 2175
-593.46 1122.2 2175
-588.259 1122.2 2175
-583.058 1122.2 2175
-577.06 1120.65 2172
-571.866 1120.65 2172
-565.889 1119.11 2169
-557.859 1113.43 2158
-554.235 1116.53 2164
-551.09 1120.65 2172
-545.896 1120.65 2172
-542.196 1123.75 2178
-536.988 1123.75 2178
-531.78 1123.75 2178
-526.571 1123.75 2178
-521.363 1123.75 2178
-516.155 1123.75 2178
-512.354 1126.84 2184
-507.132 1126.84 2184
-502.368 1127.88 2186
-497.141 1127.88 2186
-491.914 1127.88 2186
-486.241 1126.84 2184
-480.358 1125.3 2181
-474.489 1123.75 2178
-469.28 1123.75 2178
-465.351 1126.84 2184
-460.128 1126.84 2184
-457.197 1132.52 2195
-452.565 1134.07 2198
-447.309 1134.07 2198
-442.053 1134.07 2198
-436.797 1134.07 2198
-432.13 1135.62 2201
-426.867 1135.62 2201
-421.604 1135.62 2201
-416.34 1135.62 2201
-409.396 1130.97 2192
-404.154 1130.97 2192
-396.911 1125.3 2181
-391.157 1123.75 2178
-384.354 1119.11 2169
-379.167 1119.11 2169
-373.118 1116.53 2164
-366.413 1111.88 2155
-360.421 1109.3 2150
-355.28 1109.3 2150
-349.65 1107.75 2147
-344.516 1107.75 2147
-338.908 1106.21 2144
-333.781 1106.21 2144
-327.428 1102.08 2136
-322.32 1102.08 2136
-316.469 1099.5 2131
-311.374 1099.5 2131
-306.565 1100.53 2133
-301.464 1100.53 2133
-296.781 1102.08 2136
-292.492 1105.17 2142
-287.638 1106.21 2144
-282.511 1106.21 2144
-277.772 1107.75 2147
-273.4 1110.85 2153
-269.249 1114.98 2161
-264.081 1114.98 2161
-259.273 1116.53 2164
-255.39 1122.2 2175
-250.534 1123.75 2178
-245.325 1123.75 2178
-241.33 1129.42 2189
-236.095 1129.42 2189
-230.861 1129.42 2189
-225.626 1129.42 2189
-219.888 1126.84 2184
-216.042 1134.07 2198
-211.073 1135.62 2201
-205.81 1135.62 2201
-200.547 1135.62 2201
-195.283 1135.62 2201
-190.02 1135.62 2201
-184.001 1130.97 2192
-178.27 1127.88 2186
-172.885 1126.84 2184
-167.662 1126.84 2184
-162.216 1125.3 2181
-156.353 1120.65 2172
-150.95 1119.11 2169
-145.764 1119.11 2169
-140.253 1116.53 2164
-135.078 1116.53 2164
-129.903 1116.53 2164
-124.728 1116.53 2164
-119.388 1114.98 2161
-114.22 1114.98 2161
-109.204 1116.53 2164
-104.029 1116.53 2164
-98.8546 1116.53 2164
-93.6798 1116.53 2164
-88.505 1116.53 2164
-83.5228 1119.11 2169
-78.3361 1119.11 2169
-73.1493 1119.11 2169
-67.9626 1119.11 2169
-46.9762 1113.43 2158
-42.4746 1130.97 2192
-37.2328 1130.97 2192
-31.9911 1130.97 2192
-26.7494 1130.97 2192
-21.5076 1130.97 2192
-16.2659 1130.97 2192
-10.8833 1116.53 2164
14.9144 1110.85 2153
20.0628 1110.85 2153
25.2113 1110.85 2153
30.3598 1110.85 2153
35.4093 1107.75 2147
40.4868 1106.21 2144
45.6137 1106.21 2144
50.7407 1106.21 2144
55.8676 1106.21 2144
60.9377 1105.17 2142
65.9674 1103.63 2139
71.0824 1103.63 2139
75.9124 1099.5 2131
81.0082 1099.5 2131
86.1849 1100.53 2133
91.2856 1100.53 2133
96.3862 1100.53 2133
102.296 1109.3 2150
107.587 1110.85 2153
112.735 1110.85 2153
117.884 1110.85 2153
123.032 1110.85 2153
128.181 1110.85 2153
133.329 1110.85 2153
138.285 1109.3 2150
143.626 1110.85 2153
148.775 1110.85 2153
153.923 1110.85 2153
159.072 1110.85 2153
164.22 1110.85 2153
169.369 1110.85 2153
174.679 1111.88 2155
180.083 1113.43 2158
185.243 1113.43 2158
190.933 1116.53 2164
196.561 1119.11 2169
202.027 1120.65 2172
207.221 1120.65 2172
212.415 1120.65 2172
217.308 1119.11 2169
222.495 1119.11 2169
227.681 1119.11 2169
232.868 1119.11 2169
238.384 1120.65 2172
244.251 1123.75 2178
249.459 1123.75 2178
255.018 1125.3 2181
260.234 1125.3 2181
265.449 1125.3 2181
270.664 1125.3 2181
275.5 1123.75 2178
281.482 1126.84 2184
286.967 1127.88 2186
292.195 1127.88 2186
297.422 1127.88 2186
303.065 1129.42 2189
308.299 1129.42 2189
313.534 1129.42 2189
318.768 1129.42 2189
325.779 1135.62 2201
331.042 1135.62 2201
336.764 1137.16 2204
342.034 1137.16 2204
347.305 1137.16 2204
352.575 1137.16 2204
357.846 1137.16 2204
363.116 1137.16 2204
368.888 1138.71 2207
375.522 1142.84 2215
382.882 1149.03 2227
388.207 1149.03 2227
393.533 1149.03 2227
398.858 1149.03 2227
404.728 1150.58 2230
410.061 1150.58 2230
415.952 1152.13 2233
421.292 1152.13 2233
426.632 1152.13 2233
431.391 1150.58 2230
436.136 1149.03 2227
440.867 1147.48 2224
446.185 1147.48 2224
450.894 1145.93 2221
454.973 1142.84 2215
460.27 1142.84 2215
466.828 1145.93 2221
472.139 1145.93 2221
478.74 1149.03 2227
484.065 1149.03 2227
489.39 1149.03 2227
493.383 1145.93 2221
498.694 1145.93 2221
505.367 1149.03 2227
510.692 1149.03 2227
516.018 1149.03 2227
520.641 1147.48 2224
524.54 1144.39 2218
527.933 1140.26 2210
533.218 1140.26 2210
537.771 1138.71 2207
543.787 1140.26 2210
549.072 1140.26 2210
554.357 1140.26 2210
559.642 1140.26 2210
564.926 1140.26 2210
570.211 1140.26 2210
576.798 1142.84 2215
582.095 1142.84 2215
587.391 1142.84 2215
592.688 1142.84 2215
597.985 1142.84 2215
602.737 1141.81 2213
604.732 1135.62 2201
609.164 1134.07 2198
613.581 1132.52 2195
618.83 1132.52 2195
623.226 1130.97 2192
629.328 1132.52 2195
635.444 1134.07 2198
650.028 1150.58 2230
655.36 1150.58 2230
661.582 1152.13 2233
666.922 1152.13 2233
672.261 1152.13 2233
677.601 1152.13 2233
682.023 1150.58 2230
686.431 1149.03 2227
691.757 1149.03 2227
694.265 1144.39 2218
698.623 1142.84 2215
695.657 1129.42 2189
700.891 1129.42 2189
705.158 1127.88 2186
710.386 1127.88 2186
715.613 1127.88 2186
720.84 1127.88 2186
727.064 1129.42 2189
732.299 1129.42 2189
737.533 1129.42 2189
742.768 1129.42 2189
748.003 1129.42 2189
753.237 1129.42 2189
758.472 1129.42 2189
761.962 1126.84 2184
767.184 1126.84 2184
772.407 1126.84 2184
777.63 1126.84 2184
781.777 1125.3 2181
786.992 1125.3 2181
792.208 1125.3 2181
801.445 1130.97 2192
806.687 1130.97 2192
811.928 1130.97 2192
818.289 1132.52 2195
823.537 1132.52 2195
829.919 1134.07 2198
835.175 1134.07 2198
840.431 1134.07 2198
844.533 1132.52 2195
846.298 1127.88 2186
852.694 1129.42 2189
862.631 1135.62 2201
867.895 1135.62 2201
873.158 1135.62 2201
878.421 1135.62 2201
883.684 1135.62 2201
886.524 1132.52 2195
890.555 1130.97 2192
894.57 1129.42 2189
899.805 1129.42 2189
905.039 1129.42 2189
909.026 1127.88 2186
914.254 1127.88 2186
919.481 1127.88 2186
927.247 1130.97 2192
932.488 1130.97 2192
947.569 1142.84 2215
965.772 1158.32 2245
976.331 1164.51 2257
981.728 1164.51 2257
987.126 1164.51 2257
992.523 1164.51 2257
997.92 1164.51 2257
1003.32 1164.51 2257
1004.69 1159.87 2248
1011.42 1161.41 2251
1019.51 1164.51 2257
1024.91 1164.51 2257
1032.13 1166.57 2261
1040.29 1169.67 2267
1048.48 1172.76 2273
1053.91 1172.76 2273
1059.35 1172.76 2273
1064.78 1172.76 2273
1070.22 1172.76 2273
1074.24 1171.22 2270
1066.35 1156.77 2242
1071.71 1156.77 2242
1077.07 1156.77 2242
1078.08 1152.13 2233
1074.69 1142.84 2215
1079.01 1141.81 2213
1085.28 1142.84 2215
1093.54 1145.93 2221
1098.85 1145.93 2221
1104.16 1145.93 2221
1112.47 1149.03 2227
1117.79 1149.03 2227
1123.12 1149.03 2227
1126.92 1147.48 2224
1132.24 1147.48 2224
1139.09 1149.03 2227
1144.42 1149.03 2227
1151.29 1150.58 2230
1158.18 1152.13 2233
1166.65 1155.22 2239
1172 1155.22 2239
1177.36 1155.22 2239
1182.71 1155.22 2239
1188.06 1155.22 2239
1193.42 1155.22 2239
1193.95 1150.58 2230
1191.22 1142.84 2215
1193.82 1140.26 2210
1199.1 1140.26 2210
1201.11 1137.16 2204
1203.1 1134.07 2198
1203.41 1129.42 2189
1208.64 1129.42 2189
1213.88 1129.42 2189
1214.66 1125.3 2181
1218.2 1123.75 2178
1221.72 1122.2 2175
1226.92 1122.2 2175
1232.12 1122.2 2175
1229.36 1114.98 2161
1232.81 1113.43 2158
1237.97 1113.43 2158
1238.52 1109.3 2150
1243.66 1109.3 2150
1248.81 1109.3 2150
1260.36 1114.98 2161
1265.53 1114.98 2161
1274.23 1118.07 2167
1282.36 1120.65 2172
1292.89 1125.3 2181
1298.1 1125.3 2181
1306.31 1127.88 2186
1315.14 1130.97 2192
1322.18 1132.52 2195
1336.5 1140.26 2210
1341.79 1140.26 2210
1347.07 1140.26 2210
1354.19 1141.81 2213
1362.56 1144.39 2218
1367.86 1144.39 2218
1378.74 1149.03 2227
1387.79 1152.13 2233
1393.13 1152.13 2233
1398.47 1152.13 2233
1403.81 1152.13 2233
1403.47 1147.48 2224
1408.79 1147.48 2224
1408.39 1142.84 2215
1410.49 1140.26 2210
1411.93 1137.16 2204
1417.2 1137.16 2204
1422.47 1137.16 2204
1421.91 1132.52 2195
1427.16 1132.52 2195
1430.45 1130.97 2192
1435.7 1130.97 2192
1431.73 1123.75 2178
1431 1119.11 2169
1428.91 1113.43 2158
1434.07 1113.43 2158
1437.23 1111.88 2155
1442.38 1111.88 2155
1447.53 1111.88 2155
1452.69 1111.88 2155
1457.84 1111.88 2155
1465.03 1113.43 2158
1470.19 1113.43 2158
1475.35 1113.43 2158
1480.51 1113.43 2158
1485.67 1113.43 2158
1492.91 1114.98 2161
1498.07 1114.98 2161
1503.24 1114.98 2161
1508.41 1114.98 2161
1515.68 1116.53 2164
1528.58 1122.2 2175
1541.54 1127.88 2186
1546.77 1127.88 2186
1564.77 1137.16 2204
1572.18 1138.71 2207
1579.6 1140.26 2210
1584.89 1140.26 2210
1590.17 1140.26 2210
1616.39 1155.22 2239
1621.75 1155.22 2239
1627.1 1155.22 2239
1632.46 1155.22 2239
1637.81 1155.22 2239
1643.16 1155.22 2239
1635.27 1145.93 2221
1640.58 1145.93 2221
1648.11 1147.48 2224
1657.89 1150.58 2230
1663.22 1150.58 2230
1668.56 1150.58 2230
1673.89 1150.58 2230
1674.7 1147.48 2224
1680.02 1147.48 2224
1680.79 1144.39 2218
1664.05 1129.42 2189
1667 1127.88 2186
1672.23 1127.88 2186
-1593.29 1103.05 2128
-1588.2 1103.05 2128
-1585.34 1104.6 2131
-1580.24 1104.6 2131
-1575.15 1104.6 2131
-1570.05 1104.6 2131
-1544.55 1097.35 2117
-1539.49 1097.35 2117
-1534.43 1097.35 2117
-1529.36 1097.35 2117
-1524.3 1097.35 2117
-1529.91 1108.75 2139
-1532.64 1114.45 2150
-1527.5 1114.45 2150
-1522.36 1114.45 2150
-1517.21 1114.45 2150
-1512.07 1114.45 2150
-1506.93 1114.45 2150
-1499.69 1112.9 2147
-1494.56 1112.9 2147
-1489.43 1112.9 2147
-1489.82 1117.04 2155
-1484.67 1117.04 2155
-1481.58 1118.6 2158
-1485.99 1125.86 2172
-1486.94 1130.52 2181
-1481.72 1130.52 2181
-1481.92 1134.67 2189
-1476.69 1134.67 2189
-1471.45 1134.67 2189
-1464.21 1133.11 2186
-1458.98 1133.11 2186
-1452.42 1132.08 2184
-1447.2 1132.08 2184
-1441.98 1132.08 2184
-1430.83 1127.41 2175
-1421.7 1124.3 2169
-1426.31 1132.08 2184
-1421.09 1132.08 2184
-1415.86 1132.08 2184
-1410.64 1132.08 2184
-1405.42 1132.08 2184
-1398.27 1130.52 2181
-1393.06 1130.52 2181
-1387.84 1130.52 2181
-1382.63 1130.52 2181
-1368.57 1123.26 2167
-1359.61 1120.15 2161
-1349.43 1116.01 2153
-1344.28 1116.01 2153
-1335.4 1112.9 2147
-1333.99 1116.01 2153
-1328.84 1116.01 2153
-1323.69 1116.01 2153
-1318.54 1116.01 2153
-1314.61 1117.04 2155
-1311.28 1118.6 2158
-1311.57 1123.26 2167
-1306.39 1123.26 2167
-1301.2 1123.26 2167
-1290.64 1118.6 2158
-1285.48 1118.6 2158
-1267.27 1107.2 2136
-1260.39 1105.64 2133
-1257.05 1107.2 2136
-1251.94 1107.2 2136
-1246.84 1107.2 2136
-1239.98 1105.64 2133
-1238.36 1108.75 2139
-1234.97 1110.31 2142
-1231 1111.34 2144
-1225.87 1111.34 2144
-1220.74 1111.34 2144
-1215.62 1111.34 2144
-1210.49 1111.34 2144
-1205.36 1111.34 2144
-1200.24 1111.34 2144
-1193.99 1110.31 2142
-1188.87 1110.31 2142
-1182.09 1108.75 2139
-1175.33 1107.2 2136
-1165.84 1103.05 2128
-1160.75 1103.05 2128
-1155.66 1103.05 2128
-1150.57 1103.05 2128
-1145.48 1103.05 2128
-1140.39 1103.05 2128
-1135.3 1103.05 2128
-1131.81 1104.6 2131
-1126.71 1104.6 2131
-1121.62 1104.6 2131
-1116.52 1104.6 2131
-1108.3 1101.49 2125
-1101.66 1099.94 2122
-1096.58 1099.94 2122
-1091.51 1099.94 2122
-1089.51 1103.05 2128
-1084.42 1103.05 2128
-1080.85 1104.6 2131
-1075.75 1104.6 2131
-1071.66 1105.64 2133
-1069.56 1108.75 2139
-1065.94 1110.31 2142
-1060.82 1110.31 2142
-1055.7 1110.31 2142
-1054.5 1114.45 2150
-1050.82 1116.01 2153
-1045.67 1116.01 2153
-1044.39 1120.15 2161
-1039.22 1120.15 2161
-1036.93 1123.26 2167
-1031.74 1123.26 2167
-1030.35 1127.41 2175
-1026.56 1128.97 2178
-1021.36 1128.97 2178
-1016.15 1128.97 2178
-1010.94 1128.97 2178
-1000.65 1123.26 2167
-995.47 1123.26 2167
-983.89 1116.01 2153
-977.378 1114.45 2150
-972.236 1114.45 2150
-967.095 1114.45 2150
-961.954 1114.45 2150
-956.812 1114.45 2150
-951.671 1114.45 2150
-946.53 1114.45 2150
-940.075 1112.9 2147
-934.941 1112.9 2147
-932.405 1116.01 2153
-927.257 1116.01 2153
-922.108 1116.01 2153
-916.96 1116.01 2153
-911.811 1116.01 2153
-906.663 1116.01 2153
-907.376 1123.26 2167
-902.194 1123.26 2167
-899.082 1125.86 2172
-897.592 1130.52 2181
-893.604 1132.08 2184
-888.382 1132.08 2184
-883.159 1132.08 2184
-875.525 1128.97 2178
-870.316 1128.97 2178
-863.916 1127.41 2175
-859.9 1128.97 2178
-855.869 1130.52 2181
-851.823 1132.08 2184
-846.601 1132.08 2184
-841.378 1132.08 2184
-832.71 1127.41 2175
-827.509 1127.41 2175
-821.174 1125.86 2172
-812.974 1121.71 2164
-807.799 1121.71 2164
-804.479 1124.3 2169
-799.292 1124.3 2169
-794.106 1124.3 2169
-786.009 1120.15 2161
-780.842 1120.15 2161
-774.597 1118.6 2158
-767.654 1116.01 2153
-761.443 1114.45 2150
-756.302 1114.45 2150
-751.16 1114.45 2150
-747.06 1116.01 2153
-741.912 1116.01 2153
-736.763 1116.01 2153
-731.615 1116.01 2153
-726.466 1116.01 2153
-720.313 1114.45 2150
-715.171 1114.45 2150
-710.03 1114.45 2150
-704.889 1114.45 2150
-699.747 1114.45 2150
-694.606 1114.45 2150
-689.465 1114.45 2150
-683.369 1112.9 2147
-678.234 1112.9 2147
-673.1 1112.9 2147
-667.966 1112.9 2147
-661.906 1111.34 2144
-655.247 1108.75 2139
-649.22 1107.2 2136
-644.113 1107.2 2136
-639.005 1107.2 2136
-635.678 1110.31 2142
-630.555 1110.31 2142
-625.433 1110.31 2142
-620.311 1110.31 2142
-615.189 1110.31 2142
-611.491 1112.9 2147
-608.051 1116.01 2153
-602.903 1116.01 2153
-601.641 1123.26 2167
-597.01 1124.3 2169
-591.823 1124.3 2169
-586.636 1124.3 2169
-582.254 1125.86 2172
-577.06 1125.86 2172
-571.866 1125.86 2172
-564.585 1121.71 2164
-557.859 1118.6 2158
-553.467 1120.15 2161
-550.329 1124.3 2169
-545.142 1124.3 2169
-541.449 1127.41 2175
-536.248 1127.41 2175
-531.047 1127.41 2175
-525.121 1125.86 2172
-519.927 1125.86 2172
-516.155 1128.97 2178
-511.65 1130.52 2181
-506.435 1130.52 2181
-501.219 1130.52 2181
-496.004 1130.52 2181
-490.789 1130.52 2181
-484.905 1128.97 2178
-479.697 1128.97 2178
-474.489 1128.97 2178
-469.28 1128.97 2178
-463.433 1127.41 2175
-458.232 1127.41 2175
-454.905 1132.08 2184
-450.712 1134.67 2189
-445.478 1134.67 2189
-440.243 1134.67 2189
-435.009 1134.67 2189
-429.774 1134.67 2189
-424.539 1134.67 2189
-419.305 1134.67 2189
-413.503 1133.11 2186
-407.342 1130.52 2181
-402.126 1130.52 2181
-395.819 1127.41 2175
-388.642 1121.71 2164
-383.467 1121.71 2164
-378.293 1121.71 2164
-371.566 1117.04 2155
-365.053 1112.9 2147
-359.08 1110.31 2142
-353.958 1110.31 2142
-348.347 1108.75 2139
-343.232 1108.75 2139
-337.643 1107.2 2136
-332.535 1107.2 2136
-327.428 1107.2 2136
-321.113 1103.05 2128
-315.578 1101.49 2125
-310.497 1101.49 2125
-305.415 1101.49 2125
-300.334 1101.49 2125
-295.669 1103.05 2128
-290.99 1104.6 2131
-285.894 1104.6 2131
-280.798 1104.6 2131
-275.961 1105.64 2133
-272.003 1110.31 2142
-267.13 1111.34 2144
-262.003 1111.34 2144
-257.955 1116.01 2153
-253.041 1117.04 2155
-248.233 1118.6 2158
-243.073 1118.6 2158
-237.912 1118.6 2158
-232.752 1118.6 2158
-227.591 1118.6 2158
-222.122 1117.04 2155
-216.465 1114.45 2150
-212.7 1121.71 2164
-208.004 1124.3 2169
-202.818 1124.3 2169
-197.631 1124.3 2169
-192.444 1124.3 2169
-187.258 1124.3 2169
-181.651 1121.71 2164
-176.476 1121.71 2164
-171.302 1121.71 2164
-166.127 1121.71 2164
-160.952 1121.71 2164
-155.345 1118.6 2158
-149.837 1116.01 2153
-144.688 1116.01 2153
-139.151 1112.9 2147
-134.017 1112.9 2147
-129.063 1114.45 2150
-123.922 1114.45 2150
-118.78 1114.45 2150
-113.639 1114.45 2150
-108.75 1117.04 2155
-103.597 1117.04 2155
-98.4435 1117.04 2155
-93.2902 1117.04 2155
-87.9324 1114.45 2150
-82.7911 1114.45 2150
-77.6498 1114.45 2150
-72.5085 1114.45 2150
-67.3672 1114.45 2150
-62.0523 1111.34 2144
-57.005 1112.9 2147
-51.8709 1112.9 2147
-46.9762 1118.6 2158
-42.4164 1134.67 2189
-37.1819 1134.67 2189
-31.9473 1134.67 2189
-26.7128 1134.67 2189
-21.4782 1134.67 2189
-16.2436 1134.67 2189
-10.8833 1121.71 2164
-5.68481 1117.04 2155
14.9144 1116.01 2153
20.0628 1116.01 2153
25.2113 1116.01 2153
30.3598 1116.01 2153
35.4093 1112.9 2147
40.4868 1111.34 2144
45.6137 1111.34 2144
50.7407 1111.34 2144
55.8676 1111.34 2144
60.9946 1111.34 2144
65.9674 1108.75 2139
71.0824 1108.75 2139
75.9124 1104.6 2131
81.0843 1105.64 2133
86.1849 1105.64 2133
91.2856 1105.64 2133
96.3862 1105.64 2133
101.487 1105.64 2133
107.437 1114.45 2150
112.735 1116.01 2153
117.884 1116.01 2153
123.032 1116.01 2153
128.002 1114.45 2150
133.144 1114.45 2150
138.092 1112.9 2147
143.226 1112.9 2147
148.567 1114.45 2150
153.709 1114.45 2150
158.85 1114.45 2150
163.534 1111.34 2144
168.897 1112.9 2147
174.517 1116.01 2153
179.832 1117.04 2155
184.986 1117.04 2155
190.404 1118.6 2158
196.108 1121.71 2164
201.283 1121.71 2164
206.457 1121.71 2164
211.632 1121.71 2164
216.807 1121.71 2164
221.982 1121.71 2164
226.527 1118.6 2158
232.009 1120.15 2161
238.055 1124.3 2169
243.578 1125.86 2172
248.772 1125.86 2172
254.317 1127.41 2175
259.518 1127.41 2175
264.719 1127.41 2175
269.548 1125.86 2172
274.741 1125.86 2172
280.322 1127.41 2175
285.523 1127.41 2175
290.724 1127.41 2175
295.925 1127.41 2175
301.542 1128.97 2178
306.75 1128.97 2178
311.958 1128.97 2178
317.167 1128.97 2178
323.559 1133.11 2186
329.237 1134.67 2189
334.472 1134.67 2189
339.707 1134.67 2189
344.941 1134.67 2189
350.176 1134.67 2189
355.41 1134.67 2189
360.645 1134.67 2189
365.879 1134.67 2189
372.131 1137.78 2195
377.38 1137.78 2195
382.629 1137.78 2195
387.878 1137.78 2195
394.201 1140.89 2201
399.465 1140.89 2201
404.728 1140.89 2201
409.991 1140.89 2201
415.254 1140.89 2201
420.518 1140.89 2201
425.201 1139.33 2198
430.457 1139.33 2198
435.118 1137.78 2195
440.367 1137.78 2195
445.616 1137.78 2195
450.249 1136.22 2192
455.49 1136.22 2192
461.363 1137.78 2195
467.249 1139.33 2198
472.505 1139.33 2198
477.762 1139.33 2198
483.677 1140.89 2201
490.273 1144 2207
495.551 1144 2207
502.19 1147.11 2213
507.482 1147.11 2213
512.774 1147.11 2213
518.066 1147.11 2213
522.648 1145.55 2210
525.783 1140.89 2201
531.77 1142.44 2204
537.04 1142.44 2204
543.049 1144 2207
548.327 1144 2207
553.604 1144 2207
558.882 1144 2207
563.393 1142.44 2204
568.663 1142.44 2204
575.496 1145.55 2210
580.781 1145.55 2210
586.065 1145.55 2210
589.745 1142.44 2204
595.015 1142.44 2204
599.469 1140.89 2201
603.083 1137.78 2195
607.501 1136.22 2192
611.904 1134.67 2189
617.138 1134.67 2189
620.951 1132.08 2184
625.314 1130.52 2181
632.842 1134.67 2189
639.826 1137.78 2195
645.075 1137.78 2195
651.212 1139.33 2198
656.468 1139.33 2198
661.724 1139.33 2198
666.981 1139.33 2198
672.237 1139.33 2198
677.493 1139.33 2198
682.749 1139.33 2198
686.127 1136.22 2192
690.422 1134.67 2189
695.657 1134.67 2189
700.891 1134.67 2189
705.158 1133.11 2186
710.386 1133.11 2186
715.613 1133.11 2186
720.84 1133.11 2186
727.064 1134.67 2189
732.299 1134.67 2189
737.533 1134.67 2189
742.768 1134.67 2189
748.003 1134.67 2189
753.237 1134.67 2189
758.472 1134.67 2189
761.962 1132.08 2184
767.184 1132.08 2184
772.407 1132.08 2184
777.63 1132.08 2184
781.777 1130.52 2181
786.992 1130.52 2181
792.208 1130.52 2181
801.445 1136.22 2192
806.687 1136.22 2192
811.928 1136.22 2192
818.289 1137.78 2195
823.537 1137.78 2195
829.919 1139.33 2198
835.175 1139.33 2198
840.431 1139.33 2198
844.533 1137.78 2195
846.298 1133.11 2186
852.694 1134.67 2189
862.631 1140.89 2201
867.895 1140.89 2201
873.158 1140.89 2201
878.421 1140.89 2201
883.684 1140.89 2201
886.524 1137.78 2195
890.555 1136.22 2192
894.57 1134.67 2189
899.805 1134.67 2189
905.039 1134.67 2189
909.026 1133.11 2186
914.254 1133.11 2186
919.481 1133.11 2186
927.247 1136.22 2192
932.488 1136.22 2192
947.569 1148.15 2215
965.772 1163.7 2245
976.331 1169.92 2257
981.728 1169.92 2257
987.126 1169.92 2257
992.523 1169.92 2257
997.92 1169.92 2257
1003.32 1169.92 2257
1004.69 1165.25 2248
1011.42 1166.81 2251
1019.51 1169.92 2257
1024.91 1169.92 2257
1032.13 1171.99 2261
1040.29 1175.1 2267
1048.48 1178.21 2273
1053.91 1178.21 2273
1059.35 1178.21 2273
1064.78 1178.21 2273
1070.22 1178.21 2273
1074.24 1176.65 2270
1066.35 1162.14 2242
1071.71 1162.14 2242
1077.07 1162.14 2242
1078.08 1157.48 2233
1074.69 1148.15 2215
1079.01 1147.11 2213
1085.28 1148.15 2215
1093.54 1151.26 2221
1098.85 1151.26 2221
1104.16 1151.26 2221
1112.47 1154.37 2227
1117.79 1154.37 2227
1123.12 1154.37 2227
1126.92 1152.81 2224
1132.24 1152.81 2224
1139.09 1154.37 2227
1144.42 1154.37 2227
1151.29 1155.92 2230
1158.18 1157.48 2233
1166.65 1160.59 2239
1172 1160.59 2239
1177.36 1160.59 2239
1182.71 1160.59 2239
1188.06 1160.59 2239
1193.42 1160.59 2239
1193.95 1155.92 2230
1191.22 1148.15 2215
1193.82 1145.55 2210
1199.1 1145.55 2210
1192.94 1134.67 2189
1198.17 1134.67 2189
1201.76 1133.11 2186
1206.99 1133.11 2186
1209.44 1130.52 2181
1212.99 1128.97 2178
1216.52 1127.41 2175
1221.72 1127.41 2175
1226.92 1127.41 2175
1224.19 1120.15 2161
1227.65 1118.6 2158
1226.53 1112.9 2147
1231.66 1112.9 2147
1236.8 1112.9 2147
1241.93 1112.9 2147
1247.06 1112.9 2147
1255.7 1116.01 2153
1260.85 1116.01 2153
1267.17 1117.04 2155
1275.87 1120.15 2161
1282.81 1121.71 2164
1287.99 1121.71 2164
1294.95 1123.26 2167
1301.34 1124.3 2169
1311.94 1128.97 2178
1321.99 1133.11 2186
1327.22 1133.11 2186
1334.27 1134.67 2189
1341.34 1136.22 2192
1353.96 1142.44 2204
1359.23 1142.44 2204
1370.07 1147.11 2213
1380.33 1151.26 2221
1385.65 1151.26 2221
1390.96 1151.26 2221
1396.27 1151.26 2221
1394.64 1145.55 2210
1399.92 1145.55 2210
1401.39 1142.44 2204
1402.83 1139.33 2198
1406.17 1137.78 2195
1411.42 1137.78 2195
1416.66 1137.78 2195
1421.91 1137.78 2195
1427.16 1137.78 2195
1426.54 1133.11 2186
1431.77 1133.11 2186
1429.76 1127.41 2175
1432.98 1125.86 2172
1428.91 1118.6 2158
1434.07 1118.6 2158
1437.23 1117.04 2155
1442.38 1117.04 2155
1446.19 1116.01 2153
1451.34 1116.01 2153
1456.49 1116.01 2153
1462.99 1117.04 2155
1468.15 1117.04 2155
1473.3 1117.04 2155
1480.51 1118.6 2158
1485.67 1118.6 2158
1490.83 1118.6 2158
1495.99 1118.6 2158
1501.15 1118.6 2158
1506.31 1118.6 2158
1513.58 1120.15 2161
1524.37 1124.3 2169
1533.78 1127.41 2175
1538.98 1127.41 2175
1554.13 1134.67 2189
1563.63 1137.78 2195
1568.88 1137.78 2195
1574.13 1137.78 2195
1585.86 1142.44 2204
1591.13 1142.44 2204
1596.4 1142.44 2204
1601.67 1142.44 2204
1609.13 1144 2207
1614.4 1144 2207
1619.68 1144 2207
1627.17 1145.55 2210
1632.45 1145.55 2210
1643.67 1149.7 2218
1653.43 1152.81 2224
1658.75 1152.81 2224
1664.07 1152.81 2224
1667.13 1151.26 2221
1670.18 1149.7 2218
1675.49 1149.7 2218
1658.82 1134.67 2189
1655.69 1128.97 2178
1658.61 1127.41 2175
1663.81 1127.41 2175
-1593.29 1108.15 2128
-1588.2 1108.15 2128
-1585.34 1109.71 2131
-1580.24 1109.71 2131
-1575.15 1109.71 2131
-1570.05 1109.71 2131
-1560.55 1106.58 2125
-1549.61 1102.42 2117
-1544.55 1102.42 2117
-1539.49 1102.42 2117
-1534.43 1102.42 2117
-1529.36 1102.42 2117
-1524.3 1102.42 2117
-1524.8 1113.87 2139
-1523.23 1116.48 2144
-1518.11 1116.48 2144
-1512.98 1116.48 2144
-1507.85 1116.48 2144
-1502.73 1116.48 2144
-1497.6 1116.48 2144
-1475.77 1103.98 2120
-1472.08 1105.02 2122
-1473.23 1109.71 2131
-1468.14 1109.71 2131
-1470.59 1115.44 2142
-1470.94 1119.6 2150
-1473.3 1125.33 2161
-1468.13 1125.33 2161
-1467.03 1128.46 2167
-1461.85 1128.46 2167
-1456.66 1128.46 2167
-1451.48 1128.46 2167
-1446.3 1128.46 2167
-1437.13 1125.33 2161
-1431.96 1125.33 2161
-1424.81 1123.77 2158
-1419.65 1123.77 2158
-1412.52 1122.21 2155
-1413.25 1126.89 2164
-1408.07 1126.89 2164
