ply
format ascii 1.0
comment File generated
element vertex 2263
property float x
property float y
property float z
end_header
390.268 1038.07 2771
397.611 1039.94 2776
404.249 1039.94 2776
412.959 1045.19 2790
419.631 1045.19 2790
426.303 1045.19 2790
432.975 1045.19 2790
439.646 1045.19 2790
446.318 1045.19 2790
451.366 1041.44 2780
456.531 1038.07 2771
463.993 1039.94 2776
470.632 1039.94 2776
480.365 1046.69 2794
487.046 1046.69 2794
493.727 1046.69 2794
500.408 1046.69 2794
508.905 1050.43 2804
515.61 1050.43 2804
522.315 1050.43 2804
529.02 1050.43 2804
533.815 1046.69 2794
537.014 1039.94 2776
543.652 1039.94 2776
549.299 1038.07 2771
555.123 1036.57 2767
561.74 1036.57 2767
568.357 1036.57 2767
574.974 1036.57 2767
580.539 1034.7 2762
586.081 1032.83 2757
591.814 1031.33 2753
598.397 1031.33 2753
604.981 1031.33 2753
611.564 1031.33 2753
617.024 1029.45 2748
623.596 1029.45 2748
626.039 1022.71 2730
630.482 1019.34 2721
636.989 1019.34 2721
643.496 1019.34 2721
642.836 1008.1 2691
649.271 1008.1 2691
661.067 1016.34 2713
668.538 1017.84 2717
675.036 1017.84 2717
689.309 1029.45 2748
703.983 1041.44 2780
725.202 1062.8 2837
731.986 1062.8 2837
741.374 1066.54 2847
748.182 1066.54 2847
754.99 1066.54 2847
759.122 1062.8 2837
759.427 1053.8 2813
765.065 1052.31 2809
771.782 1052.31 2809
779.607 1053.8 2813
786.334 1053.8 2813
794.471 1055.68 2818
802.631 1057.55 2823
811.962 1060.92 2832
818.734 1060.92 2832
825.506 1060.92 2832
832.278 1060.92 2832
839.051 1060.92 2832
845.823 1060.92 2832
854.1 1062.8 2837
862.402 1064.67 2842
870.727 1066.54 2847
877.535 1066.54 2847
884.343 1066.54 2847
891.151 1066.54 2847
901.113 1070.29 2857
907.945 1070.29 2857
916.378 1072.16 2862
926.125 1075.53 2871
934.615 1077.41 2876
941.493 1077.41 2876
948.37 1077.41 2876
955.247 1077.41 2876
958.78 1073.66 2866
965.633 1073.66 2866
969.433 1070.29 2857
976.265 1070.29 2857
986.193 1073.66 2866
994.779 1075.53 2871
1001.64 1075.53 2871
1008.51 1075.53 2871
1015.38 1075.53 2871
1022.24 1075.53 2871
1022.3 1068.41 2852
1021.9 1060.92 2832
1027.22 1059.42 2828
1033.98 1059.42 2828
1040.74 1059.42 2828
1050.84 1062.8 2837
1057.62 1062.8 2837
1064.41 1062.8 2837
1067.79 1059.42 2828
1074.56 1059.42 2828
1075.58 1053.8 2813
1078.85 1050.43 2804
1085.55 1050.43 2804
1092.26 1050.43 2804
1100.92 1052.31 2809
1107.64 1052.31 2809
1114.36 1052.31 2809
1117.08 1048.56 2799
1123.78 1048.56 2799
1130.47 1048.56 2799
1137.16 1048.56 2799
1138.14 1043.32 2785
1148.49 1046.69 2794
1155.18 1046.69 2794
1161.86 1046.69 2794
1168.54 1046.69 2794
1173.54 1045.19 2790
1180.21 1045.19 2790
1182.63 1041.44 2780
1189.27 1041.44 2780
1194.2 1039.94 2776
1204.73 1043.32 2785
1221.83 1052.31 2809
1232.49 1055.68 2818
1239.22 1055.68 2818
1250.38 1059.42 2828
1257.15 1059.42 2828
1263.91 1059.42 2828
1268.43 1057.55 2823
1275.18 1057.55 2823
1295.1 1068.41 2852
1308.31 1073.66 2866
1315.16 1073.66 2866
1328.93 1079.28 2881
1335.82 1079.28 2881
1342.71 1079.28 2881
1349.6 1079.28 2881
1365.91 1086.77 2901
1382.78 1094.64 2922
1389.77 1094.64 2922
1401.54 1098.38 2932
1408.55 1098.38 2932
1417.97 1100.26 2937
1427.42 1102.13 2942
1434.46 1102.13 2942
1441.49 1102.13 2942
1438.68 1094.64 2922
1437.75 1088.64 2906
1444.7 1088.64 2906
1436.66 1077.41 2876
1438.52 1073.66 2866
1438.32 1068.41 2852
1445.14 1068.41 2852
1441.77 1060.92 2832
1448.55 1060.92 2832
1463.03 1066.54 2847
1472.42 1068.41 2852
1479.24 1068.41 2852
1486.06 1068.41 2852
1480.31 1059.42 2828
1477.08 1052.31 2809
1483.8 1052.31 2809
1490.52 1052.31 2809
1504.7 1057.55 2823
1516.27 1060.92 2832
1523.04 1060.92 2832
1529.81 1060.92 2832
1536.58 1060.92 2832
1546.08 1062.8 2837
1558.34 1066.54 2847
1565.15 1066.54 2847
1582.45 1073.66 2866
1594.84 1077.41 2876
1604.51 1079.28 2881
1611.4 1079.28 2881
1618.29 1079.28 2881
1619.53 1075.53 2871
1626.4 1075.53 2871
1636.11 1077.41 2876
1642.99 1077.41 2876
1655.6 1081.15 2886
1662.5 1081.15 2886
1669.4 1081.15 2886
1676.3 1081.15 2886
1677.37 1077.41 2876
1681.32 1075.53 2871
1688.19 1075.53 2871
1686.79 1070.29 2857
1687.69 1066.54 2847
1700.45 1070.29 2857
1712.66 1073.66 2866
1719.52 1073.66 2866
1732.39 1077.41 2876
1748.34 1083.02 2891
1758.29 1084.9 2896
1768.26 1086.77 2901
1775.2 1086.77 2901
1782.14 1086.77 2901
1785.99 1084.9 2896
1792.92 1084.9 2896
1799.84 1084.9 2896
1806.77 1084.9 2896
1813.69 1084.9 2896
1820.62 1084.9 2896
1827.54 1084.9 2896
1845.13 1083.02 2891
1852.04 1083.02 2891
1858.95 1083.02 2891
1885.87 1094.64 2922
1892.86 1094.64 2922
1899.85 1094.64 2922
1893.13 1086.77 2901
1896.79 1084.9 2896
1903.72 1084.9 2896
1890.85 1073.66 2866
1881.81 1064.67 2842
1879.31 1059.42 2828
1888.74 1060.92 2832
1895.51 1060.92 2832
1902.28 1060.92 2832
1909.05 1060.92 2832
1913.12 1059.42 2828
1919.88 1059.42 2828
1919.83 1055.68 2818
1913.58 1048.56 2799
1927.14 1052.31 2809
1940.05 1055.68 2818
1956.46 1060.92 2832
1963.23 1060.92 2832
1970 1060.92 2832
1976.78 1060.92 2832
1983.55 1060.92 2832
1983.99 1057.55 2823
1977.35 1050.43 2804
1976.98 1046.69 2794
1987.21 1048.56 2799
1993.9 1048.56 2799
2000.59 1048.56 2799
-1550.41 1009.65 2678
-1544 1009.65 2678
-1537.6 1009.65 2678
-1533.48 1011.15 2682
-1527.07 1011.15 2682
-1520.66 1011.15 2682
-1523.84 1017.56 2699
-1517.39 1017.56 2699
-1510.93 1017.56 2699
-1483.3 1003.24 2661
-1469.72 998.336 2648
-1470.57 1003.24 2661
-1482.91 1016.06 2695
-1476.47 1016.06 2695
-1484.21 1025.86 2721
-1480.42 1027.74 2726
-1480.93 1032.64 2739
-1474.38 1032.64 2739
-1467.83 1032.64 2739
-1468.75 1037.92 2753
-1464.29 1039.43 2757
-1457.69 1039.43 2757
-1473.21 1055.26 2799
-1469.13 1057.15 2804
-1462.43 1057.15 2804
-1455.72 1057.15 2804
-1355.5 1073.36 2847
-1357.69 1080.52 2866
-1350.84 1080.52 2866
-1362.75 1095.61 2906
-1355.8 1095.61 2906
-1348.85 1095.61 2906
-1341.9 1095.61 2906
-1323.46 1086.18 2881
-1312.01 1082.41 2871
-1305.14 1082.41 2871
-1289.68 1075.25 2852
-1282.86 1075.25 2852
-1278.28 1077.13 2857
-1279.9 1084.29 2876
-1273.03 1084.29 2876
-1270.55 1088.07 2886
-1263.65 1088.07 2886
-1256.75 1088.07 2886
-1245.52 1084.29 2876
-1056.7 1027.74 2726
-1050.18 1027.74 2726
-1043.66 1027.74 2726
-1030.3 1020.96 2708
-1022.31 1019.45 2704
-1015.84 1019.45 2704
-1009.38 1019.45 2704
-1006.25 1022.84 2713
-1015.97 1039.43 2757
-1014.51 1044.71 2771
-1007.88 1044.71 2771
-1001.25 1044.71 2771
-996.423 1046.59 2776
-989.785 1046.59 2776
-983.147 1046.59 2776
-976.509 1046.59 2776
-969.87 1046.59 2776
-963.232 1046.59 2776
-943.844 1032.64 2739
-943.454 1039.43 2757
-944.677 1048.1 2780
-938.029 1048.1 2780
-931.381 1048.1 2780
-931.053 1055.26 2799
-930.635 1062.43 2818
-923.896 1062.43 2818
-917.157 1062.43 2818
-910.419 1062.43 2818
-900.794 1059.03 2809
-894.077 1059.03 2809
-887.359 1059.03 2809
-875.94 1053.38 2794
-869.258 1053.38 2794
-862.577 1053.38 2794
-851.607 1048.1 2780
-841.008 1043.2 2767
-832.883 1041.32 2762
-819.398 1032.64 2739
-812.848 1032.64 2739
-805.121 1031.14 2735
-801.209 1034.53 2744
-794.647 1034.53 2744
-788.085 1034.53 2744
-778.96 1031.14 2735
-764.794 1020.96 2708
-757.199 1019.45 2704
-750.733 1019.45 2704
-739.312 1012.66 2686
-730.706 1009.65 2678
-725.384 1011.15 2682
-722.456 1016.06 2695
-716.011 1016.06 2695
-709.567 1016.06 2695
-700.774 1012.66 2686
-695.643 1014.55 2691
-689.208 1014.55 2691
-686.072 1019.45 2704
-685.135 1027.74 2726
-681.853 1032.64 2739
-675.303 1032.64 2739
-673.148 1039.43 2757
-666.555 1039.43 2757
-659.962 1039.43 2757
-653.37 1039.43 2757
-645.838 1037.92 2753
-643.435 1044.71 2771
-636.808 1044.71 2771
-630.182 1044.71 2771
-625.581 1048.1 2780
-621.16 1051.87 2790
-616.47 1055.26 2799
-609.777 1055.26 2799
-603.084 1055.26 2799
-597.456 1057.15 2804
-592.647 1060.54 2813
-585.92 1060.54 2813
-579.193 1060.54 2813
-572.466 1060.54 2813
-566.745 1062.43 2818
-560.007 1062.43 2818
-553.268 1062.43 2818
-539.159 1048.1 2780
-532.512 1048.1 2780
-525.864 1048.1 2780
-518.469 1046.59 2776
-511.831 1046.59 2776
-508.468 1053.38 2794
-501.787 1053.38 2794
-495.105 1053.38 2794
-486.851 1049.99 2785
-476.225 1041.32 2762
-469.621 1041.32 2762
-462.178 1039.43 2757
-454.924 1037.92 2753
-448.341 1037.92 2753
-443.201 1041.32 2762
-436.597 1041.32 2762
-429.992 1041.32 2762
-423.387 1041.32 2762
-416.782 1041.32 2762
-410.178 1041.32 2762
-403.573 1041.32 2762
-398.262 1044.71 2771
-391.635 1044.71 2771
-385.009 1044.71 2771
-379.065 1046.59 2776
-372.427 1046.59 2776
-365.789 1046.59 2776
-358.504 1044.71 2771
-351.877 1044.71 2771
-344.753 1043.2 2767
-336.425 1037.92 2753
-330.92 1041.32 2762
-324.315 1041.32 2762
-318.746 1044.71 2771
-312.12 1044.71 2771
-305.493 1044.71 2771
-298.867 1044.71 2771
-291.819 1043.2 2767
-285.202 1043.2 2767
-279.492 1046.59 2776
-272.853 1046.59 2776
-266.215 1046.59 2776
-258.735 1043.2 2767
-252.118 1043.2 2767
-245.058 1041.32 2762
-238.022 1039.43 2757
-231.429 1039.43 2757
-225.652 1043.2 2767
-219.035 1043.2 2767
-212.418 1043.2 2767
-205.801 1043.2 2767
-199.185 1043.2 2767
-192.568 1043.2 2767
-185.615 1041.32 2762
-178.427 1037.92 2753
-171.844 1037.92 2753
-164.72 1034.53 2744
-134.296 878.445 2330
-128.725 878.445 2330
-123.153 878.445 2330
-116.925 873.544 2317
-111.384 873.544 2317
-105.57 871.281 2311
-100.043 871.281 2311
-94.3536 869.773 2307
-88.8368 869.773 2307
-83.3201 869.773 2307
-77.7022 868.642 2304
-71.9106 865.249 2295
-66.4226 865.249 2295
-60.4301 858.086 2276
-54.77 854.693 2267
-49.1313 850.923 2257
-43.6178 848.661 2251
-38.235 848.661 2251
-32.8084 847.53 2248
-27.3595 845.267 2242
-21.8805 840.743 2230
-16.5479 840.743 2230
-11.1549 836.219 2218
-5.83782 834.334 2213
-0.542902 829.81 2201
4.72036 829.81 2201
9.98361 829.81 2201
15.2053 827.548 2195
20.3704 824.155 2186
25.5977 824.155 2186
30.8251 824.155 2186
36.0525 824.155 2186
41.3366 825.286 2189
46.6988 827.548 2195
52.0187 828.679 2198
57.2748 828.679 2198
62.9576 834.334 2213
68.4037 836.219 2218
74.3058 843.005 2236
79.6528 843.005 2236
85.3419 846.398 2245
91.9629 858.086 2276
97.5339 859.217 2279
102.984 859.217 2279
108.433 859.217 2279
113.733 858.086 2276
119.176 858.086 2276
124.619 858.086 2276
192.858 1089.95 2891
199.771 1089.95 2891
207.042 1091.84 2896
213.967 1091.84 2896
220.893 1091.84 2896
227.031 1088.07 2886
232.716 1082.41 2871
238.831 1079.02 2862
245.675 1079.02 2862
251.636 1075.25 2852
257.55 1071.48 2842
261.649 1060.54 2813
267.517 1057.15 2804
274.222 1057.15 2804
279.925 1053.38 2794
285.171 1048.1 2780
290.874 1044.71 2771
297.5 1044.71 2771
303.139 1041.32 2762
309.743 1041.32 2762
316.921 1043.2 2767
323.538 1043.2 2767
330.154 1043.2 2767
334.459 1036.04 2748
339.417 1031.14 2735
345.957 1031.14 2735
351.853 1029.25 2730
359.562 1032.64 2739
367.315 1036.04 2748
375.111 1039.43 2757
383.642 1044.71 2771
390.268 1044.71 2771
397.611 1046.59 2776
404.249 1046.59 2776
412.959 1051.87 2790
419.631 1051.87 2790
426.303 1051.87 2790
432.975 1051.87 2790
439.646 1051.87 2790
446.318 1051.87 2790
451.366 1048.1 2780
456.531 1044.71 2771
463.993 1046.59 2776
470.632 1046.59 2776
480.365 1053.38 2794
487.046 1053.38 2794
493.727 1053.38 2794
500.408 1053.38 2794
508.905 1057.15 2804
515.61 1057.15 2804
522.315 1057.15 2804
529.02 1057.15 2804
533.815 1053.38 2794
537.014 1046.59 2776
543.652 1046.59 2776
549.299 1044.71 2771
555.123 1043.2 2767
561.74 1043.2 2767
568.357 1043.2 2767
574.974 1043.2 2767
580.539 1041.32 2762
586.081 1039.43 2757
591.814 1037.92 2753
598.397 1037.92 2753
604.981 1037.92 2753
611.564 1037.92 2753
617.024 1036.04 2748
623.596 1036.04 2748
626.039 1029.25 2730
630.482 1025.86 2721
636.989 1025.86 2721
643.496 1025.86 2721
642.836 1014.55 2691
651.201 1017.56 2699
662.041 1024.35 2717
676.166 1036.04 2748
682.737 1036.04 2748
696.332 1046.59 2776
708.795 1055.26 2799
725.202 1069.59 2837
731.986 1069.59 2837
741.374 1073.36 2847
748.182 1073.36 2847
754.99 1073.36 2847
759.122 1069.59 2837
759.427 1060.54 2813
765.065 1059.03 2809
771.782 1059.03 2809
779.607 1060.54 2813
786.334 1060.54 2813
794.471 1062.43 2818
802.631 1064.31 2823
811.962 1067.71 2832
818.734 1067.71 2832
825.506 1067.71 2832
832.278 1067.71 2832
839.051 1067.71 2832
845.823 1067.71 2832
854.1 1069.59 2837
862.402 1071.48 2842
870.727 1073.36 2847
877.535 1073.36 2847
884.343 1073.36 2847
891.151 1073.36 2847
901.113 1077.13 2857
907.945 1077.13 2857
916.378 1079.02 2862
926.125 1082.41 2871
934.615 1084.29 2876
941.493 1084.29 2876
948.37 1084.29 2876
955.247 1084.29 2876
958.78 1080.52 2866
965.633 1080.52 2866
969.433 1077.13 2857
976.265 1077.13 2857
986.193 1080.52 2866
994.779 1082.41 2871
1001.64 1082.41 2871
1008.51 1082.41 2871
1015.38 1082.41 2871
1022.24 1082.41 2871
1022.3 1075.25 2852
1021.9 1067.71 2832
1027.22 1066.2 2828
1033.98 1066.2 2828
1040.74 1066.2 2828
1050.84 1069.59 2837
1057.62 1069.59 2837
1064.41 1069.59 2837
1067.79 1066.2 2828
1074.56 1066.2 2828
1075.58 1060.54 2813
1078.85 1057.15 2804
1085.55 1057.15 2804
1092.26 1057.15 2804
1084.46 1043.2 2767
1091.08 1043.2 2767
1097.7 1043.2 2767
1100.32 1039.43 2757
1099.69 1032.64 2739
1104.62 1031.14 2735
1114.82 1034.53 2744
1125.06 1037.92 2753
1137.4 1043.2 2767
1144.01 1043.2 2767
1150.63 1043.2 2767
1157.25 1043.2 2767
1163.86 1043.2 2767
1164.56 1037.92 2753
1171.14 1037.92 2753
1179.44 1039.43 2757
1186.03 1039.43 2757
1198.68 1044.71 2771
1211.39 1049.99 2785
1226.36 1057.15 2804
1233.07 1057.15 2804
1239.77 1057.15 2804
1246.48 1057.15 2804
1255.42 1059.03 2809
1262.14 1059.03 2809
1270.66 1060.54 2813
1281.93 1064.31 2823
1297.35 1071.48 2842
1304.15 1071.48 2842
1315.56 1075.25 2852
1322.38 1075.25 2852
1335.72 1080.52 2866
1342.57 1080.52 2866
1354.14 1084.29 2876
1363.38 1086.18 2881
1372.65 1088.07 2886
1379.55 1088.07 2886
1386.45 1088.07 2886
1395.76 1089.95 2891
1405.1 1091.84 2896
1412.03 1091.84 2896
1418.95 1091.84 2896
1425.88 1091.84 2896
1430.33 1089.95 2891
1437.24 1089.95 2891
1431.67 1080.52 2866
1431.5 1075.25 2852
1423.69 1064.31 2823
1430.44 1064.31 2823
1430.06 1059.03 2809
1438.83 1060.54 2813
1445.55 1060.54 2813
1452.28 1060.54 2813
1459.01 1060.54 2813
1465.73 1060.54 2813
1465.13 1055.26 2799
1467.09 1051.87 2790
1481.16 1057.15 2804
1487.87 1057.15 2804
1499.37 1060.54 2813
1506.09 1060.54 2813
1512.82 1060.54 2813
1519.55 1060.54 2813
1528.99 1062.43 2818
1535.73 1062.43 2818
1552.87 1069.59 2837
1559.65 1069.59 2837
1571.95 1073.36 2847
1584.31 1077.13 2857
1596.15 1080.52 2866
1603.01 1080.52 2866
1609.86 1080.52 2866
1614.46 1079.02 2862
1621.3 1079.02 2862
1633.26 1082.41 2871
1640.13 1082.41 2871
1649.86 1084.29 2876
1656.74 1084.29 2876
1663.62 1084.29 2876
1670.5 1084.29 2876
1674.46 1082.41 2871
1676.05 1079.02 2862
1682.9 1079.02 2862
1680.88 1073.36 2847
1681.76 1069.59 2837
1697.48 1075.25 2852
1704.3 1075.25 2852
1711.12 1075.25 2852
1726.37 1080.52 2866
1736.25 1082.41 2871
1749.18 1086.18 2881
1756.07 1086.18 2881
1762.96 1086.18 2881
1769.85 1086.18 2881
1776.74 1086.18 2881
1783.63 1086.18 2881
1790.52 1086.18 2881
1797.41 1086.18 2881
1804.3 1086.18 2881
1811.19 1086.18 2881
1818.08 1086.18 2881
1841.94 1088.07 2886
1848.84 1088.07 2886
1855.74 1088.07 2886
1862.64 1088.07 2886
1869.54 1088.07 2886
1873.19 1086.18 2881
1876.82 1084.29 2876
1880.42 1082.41 2871
1874.8 1075.25 2852
1881.62 1075.25 2852
1875.19 1067.71 2832
1879.31 1066.2 2828
1882.73 1064.31 2823
1889.49 1064.31 2823
1896.24 1064.31 2823
1902.99 1064.31 2823
1909.74 1064.31 2823
1916.49 1064.31 2823
1913.7 1059.03 2809
1917 1057.15 2804
1923.7 1057.15 2804
1940.05 1062.43 2818
1953.7 1066.2 2828
1960.46 1066.2 2828
1967.22 1066.2 2828
1973.98 1066.2 2828
1980.75 1066.2 2828
1983.99 1064.31 2823
1977.35 1057.15 2804
1976.98 1053.38 2794
1987.21 1055.26 2799
1993.9 1055.26 2799
2000.59 1055.26 2799
-1693.93 1029.34 2713
-1687.45 1029.34 2713
-1689.01 1034.27 2726
-1682.49 1034.27 2726
-1698.11 1047.93 2762
-1691.5 1047.93 2762
-1684.9 1047.93 2762
-1559.14 1017.58 2682
-1552.72 1017.58 2682
-1546.31 1017.58 2682
-1537.6 1016.06 2678
-1533.48 1017.58 2682
-1527.07 1017.58 2682
-1520.66 1017.58 2682
-1523.84 1024.03 2699
-1517.39 1024.03 2699
-1510.93 1024.03 2699
-1483.3 1009.61 2661
-1469.72 1004.68 2648
-1453.99 998.229 2631
-1464.21 1009.61 2661
-1457.84 1009.61 2661
-1470.02 1022.51 2695
-1470.64 1027.44 2708
-1469.03 1030.86 2717
-1462.53 1030.86 2717
-1456.04 1030.86 2717
-1456.47 1035.79 2730
-1462.16 1044.52 2753
-1455.58 1044.52 2753
-1473.21 1061.97 2799
-1469.13 1063.87 2804
-1462.43 1063.87 2804
-1455.72 1063.87 2804
-1355.5 1080.18 2847
-1357.69 1087.39 2866
-1350.84 1087.39 2866
-1358.06 1098.77 2896
-1351.13 1098.77 2896
-1344.21 1098.77 2896
-1337.28 1098.77 2896
-1323.46 1093.08 2881
-1309.72 1087.39 2866
-1302.87 1087.39 2866
-1289.68 1082.08 2852
-1282.86 1082.08 2852
-1278.28 1083.98 2857
-1277.68 1089.29 2871
-1270.81 1089.29 2871
-1270.55 1094.98 2886
-1263.65 1094.98 2886
-1256.75 1094.98 2886
-1245.52 1091.18 2876
-1051.13 1022.51 2695
-1056.7 1034.27 2726
-1050.18 1034.27 2726
-1043.66 1034.27 2726
-1030.3 1027.44 2708
-1020.42 1024.03 2699
-1013.96 1024.03 2699
-1006.02 1022.51 2695
-1001.06 1024.03 2699
-1014.5 1044.52 2753
-1013.04 1049.83 2767
-1006.43 1049.83 2767
-999.81 1049.83 2767
-994.629 1051.35 2771
-989.785 1053.24 2776
-983.147 1053.24 2776
-976.509 1053.24 2776
-969.87 1053.24 2776
-963.232 1053.24 2776
-939.364 1034.27 2726
-942.085 1044.52 2753
-938.56 1047.93 2762
-936.679 1053.24 2776
-930.041 1053.24 2776
-924.733 1054.76 2780
-922.709 1060.07 2794
-916.027 1060.07 2794
-909.346 1060.07 2794
-902.665 1060.07 2794
-895.983 1060.07 2794
-889.302 1060.07 2794
-882.621 1060.07 2794
-873.118 1056.66 2785
-863.658 1053.24 2776
-854.241 1049.83 2767
-847.625 1049.83 2767
-837.969 1046.03 2757
-827.456 1041.1 2744
-818.201 1037.69 2735
-811.661 1037.69 2735
-801 1032.38 2721
-794.493 1032.38 2721
-787.986 1032.38 2721
-781.479 1032.38 2721
-770.131 1025.93 2704
-759.993 1020.99 2691
-749.918 1016.06 2678
-743.514 1016.06 2678
-734.633 1012.65 2669
-726.068 1009.61 2661
-719.704 1009.61 2661
-718.971 1017.58 2682
-712.557 1017.58 2682
-706.144 1017.58 2682
-695.295 1011.13 2665
-690.99 1014.16 2673
-684.598 1014.16 2673
-682.773 1020.99 2691
-679.606 1025.93 2704
-678.616 1034.27 2726
-672.098 1034.27 2726
-668.753 1039.21 2739
-662.203 1039.21 2739
-655.654 1039.21 2739
-649.104 1039.21 2739
-643.727 1041.1 2744
-638.094 1042.62 2748
-632.672 1044.52 2753
-626.089 1044.52 2753
-621.531 1047.93 2762
-616.93 1051.35 2771
-610.303 1051.35 2771
-604.766 1053.24 2776
-598.128 1053.24 2776
-592.342 1054.76 2780
-585.694 1054.76 2780
-580.088 1056.66 2785
-573.428 1056.66 2785
-566.768 1056.66 2785
-559.103 1054.76 2780
-552.455 1054.76 2780
-545.807 1054.76 2780
-537.414 1051.35 2771
-530.021 1049.83 2767
-523.405 1049.83 2767
-514.92 1046.03 2757
-509.249 1047.93 2762
-503.554 1049.83 2767
-496.938 1049.83 2767
-490.321 1049.83 2767
-482.83 1047.93 2762
-474.674 1044.52 2753
-468.09 1044.52 2753
-459.16 1039.21 2739
-452.61 1039.21 2739
-446.875 1041.1 2744
-441.757 1044.52 2753
-435.174 1044.52 2753
-429.214 1046.03 2757
-422.621 1046.03 2757
-416.028 1046.03 2757
-409.435 1046.03 2757
-402.258 1044.52 2753
-396.968 1047.93 2762
-391.635 1051.35 2771
-385.009 1051.35 2771
-379.065 1053.24 2776
-372.427 1053.24 2776
-365.789 1053.24 2776
-358.504 1051.35 2771
-351.877 1051.35 2771
-344.13 1047.93 2762
-335.814 1042.62 2748
-329.243 1042.62 2748
-322.672 1042.62 2748
-316.675 1044.52 2753
-310.092 1044.52 2753
-303.509 1044.52 2753
-296.926 1044.52 2753
-290.342 1044.52 2753
-283.244 1042.62 2748
-276.672 1042.62 2748
-270.101 1042.62 2748
-263.53 1042.62 2748
-256.959 1042.62 2748
-250.387 1042.62 2748
-243.461 1041.1 2744
-235.345 1034.27 2726
-229.162 1035.79 2730
-222.634 1035.79 2730
-216.106 1035.79 2730
-209.578 1035.79 2730
-202.38 1032.38 2721
-195.873 1032.38 2721
-189.367 1032.38 2721
-182.86 1032.38 2721
-176.094 1030.86 2717
-168.473 1024.03 2699
-162.019 1024.03 2699
-154.066 1014.16 2673
-129.995 892.753 2353
-123.681 887.82 2340
-117.934 886.682 2337
-112.346 886.682 2337
-105.844 879.094 2317
-100.303 879.094 2317
-94.6399 877.956 2314
-89.1064 877.956 2314
-83.5729 877.956 2314
-77.8034 875.3 2307
-72.1926 874.162 2304
-66.6831 874.162 2304
-60.3504 862.4 2273
-54.77 860.123 2267
-49.1313 856.329 2257
-43.6178 854.053 2251
-38.235 854.053 2251
-32.8084 852.915 2248
-27.3595 850.638 2242
-21.8805 846.085 2230
-16.5479 846.085 2230
-11.1549 841.532 2218
-5.83782 839.635 2213
-0.543642 836.221 2204
4.72679 836.221 2204
9.98361 835.082 2201
15.1845 831.668 2192
20.3704 829.391 2186
25.5977 829.391 2186
30.7969 828.632 2184
36.0195 828.632 2184
41.3366 830.529 2189
46.6988 832.806 2195
52.0187 833.944 2198
57.2748 833.944 2198
62.9576 839.635 2213
68.4037 841.532 2218
74.3058 848.362 2236
79.6528 848.362 2236
85.3419 851.776 2245
91.7205 861.262 2270
97.5339 864.676 2279
102.984 864.676 2279
108.433 864.676 2279
113.733 863.538 2276
119.176 863.538 2276
124.619 863.538 2276
217.536 1082.08 2852
224.356 1082.08 2852
231.176 1082.08 2852
237.996 1082.08 2852
244.816 1082.08 2852
249.519 1072.97 2828
253.653 1061.97 2799
259.882 1060.07 2794
264.846 1053.24 2776
271.484 1053.24 2776
278.122 1053.24 2776
283.837 1049.83 2767
287.515 1039.21 2739
294.064 1039.21 2739
300.175 1037.69 2735
308.173 1042.62 2748
314.745 1042.62 2748
321.316 1042.62 2748
327.887 1042.62 2748
332.876 1037.69 2735
337.679 1032.38 2721
344.186 1032.38 2721
350.693 1032.38 2721
358.381 1035.79 2730
366.112 1039.21 2739
373.886 1042.62 2748
381.704 1046.03 2757
388.296 1046.03 2757
396.322 1049.83 2767
403.521 1051.35 2771
410.887 1053.24 2776
417.525 1053.24 2776
424.775 1054.76 2780
431.423 1054.76 2780
438.071 1054.76 2780
444.079 1053.24 2776
449.905 1051.35 2771
454.225 1046.03 2757
461.653 1047.93 2762
468.258 1047.93 2762
477.27 1053.24 2776
484.605 1054.76 2780
491.253 1054.76 2780
497.901 1054.76 2780
506.364 1058.56 2790
513.035 1058.56 2790
519.707 1058.56 2790
526.379 1058.56 2790
533.051 1058.56 2790
536.047 1051.35 2771
542.673 1051.35 2771
548.507 1049.83 2767
552.315 1044.52 2753
558.898 1044.52 2753
565.481 1044.52 2753
572.064 1044.52 2753
578.648 1044.52 2753
585.231 1044.52 2753
590.739 1042.62 2748
597.311 1042.62 2748
603.882 1042.62 2748
610.453 1042.62 2748
612.983 1035.79 2730
619.511 1035.79 2730
623.975 1032.38 2721
630.482 1032.38 2721
636.053 1030.86 2717
642.55 1030.86 2717
642.836 1020.99 2691
651.201 1024.03 2699
662.041 1030.86 2717
676.166 1042.62 2748
682.737 1042.62 2748
696.332 1053.24 2776
708.795 1061.97 2799
725.202 1076.39 2837
731.986 1076.39 2837
741.374 1080.18 2847
748.182 1080.18 2847
754.99 1080.18 2847
759.122 1076.39 2837
759.427 1067.28 2813
765.065 1065.76 2809
771.782 1065.76 2809
779.607 1067.28 2813
786.334 1067.28 2813
794.471 1069.18 2818
802.631 1071.08 2823
811.962 1074.49 2832
818.734 1074.49 2832
825.506 1074.49 2832
832.278 1074.49 2832
839.051 1074.49 2832
845.823 1074.49 2832
852.595 1074.49 2832
860.884 1076.39 2837
869.198 1078.28 2842
875.994 1078.28 2842
882.79 1078.28 2842
891.151 1080.18 2847
897.959 1080.18 2847
904.767 1080.18 2847
914.777 1083.98 2857
921.609 1083.98 2857
928.441 1083.98 2857
935.273 1083.98 2857
942.105 1083.98 2857
948.937 1083.98 2857
955.769 1083.98 2857
962.601 1083.98 2857
966.039 1080.18 2847
971.139 1078.28 2842
981.376 1082.08 2852
988.196 1082.08 2852
995.016 1082.08 2852
1001.84 1082.08 2852
1008.66 1082.08 2852
1015.48 1082.08 2852
1016.92 1076.39 2837
1016.85 1069.18 2818
1025.4 1071.08 2823
1032.15 1071.08 2823
1038.9 1071.08 2823
1045.65 1071.08 2823
1052.4 1071.08 2823
1055.4 1067.28 2813
1062.13 1067.28 2813
1067.34 1065.76 2809
1068.32 1060.07 2794
1075 1060.07 2794
1081.68 1060.07 2794
1082.91 1054.76 2780
1084.46 1049.83 2767
1091.08 1049.83 2767
1097.7 1049.83 2767
1100.32 1046.03 2757
1099.69 1039.21 2739
1106.24 1039.21 2739
1114.82 1041.1 2744
1125.06 1044.52 2753
1137.4 1049.83 2767
1144.01 1049.83 2767
1150.63 1049.83 2767
1157.25 1049.83 2767
1163.86 1049.83 2767
1164.56 1044.52 2753
1171.14 1044.52 2753
1179.44 1046.03 2757
1186.03 1046.03 2757
1198.68 1051.35 2771
1211.39 1056.66 2785
1226.36 1063.87 2804
1233.07 1063.87 2804
1239.77 1063.87 2804
1246.48 1063.87 2804
1255.42 1065.76 2809
1262.14 1065.76 2809
1270.66 1067.28 2813
1281.93 1071.08 2823
1297.35 1078.28 2842
1304.15 1078.28 2842
1315.56 1082.08 2852
1322.38 1082.08 2852
1335.72 1087.39 2866
1342.57 1087.39 2866
1356.49 1093.08 2881
1363.38 1093.08 2881
1372.65 1094.98 2886
1379.55 1094.98 2886
1386.45 1094.98 2886
1395.76 1096.88 2891
1405.1 1098.77 2896
1412.03 1098.77 2896
1418.95 1098.77 2896
1425.88 1098.77 2896
1430.33 1096.88 2891
1437.24 1096.88 2891
1431.67 1087.39 2866
1431.5 1082.08 2852
1423.69 1071.08 2823
1430.44 1071.08 2823
1430.06 1065.76 2809
1438.83 1067.28 2813
1445.55 1067.28 2813
1452.28 1067.28 2813
1459.01 1067.28 2813
1465.73 1067.28 2813
1465.13 1061.97 2799
1467.09 1058.56 2790
1481.16 1063.87 2804
1487.87 1063.87 2804
1499.37 1067.28 2813
1506.09 1067.28 2813
1512.82 1067.28 2813
1519.55 1067.28 2813
1528.99 1069.18 2818
1535.73 1069.18 2818
1552.87 1076.39 2837
1559.65 1076.39 2837
1571.95 1080.18 2847
1584.31 1083.98 2857
1596.15 1087.39 2866
1603.01 1087.39 2866
1609.86 1087.39 2866
1614.46 1085.87 2862
1621.3 1085.87 2862
1633.26 1089.29 2871
1640.13 1089.29 2871
1649.86 1091.18 2876
1656.74 1091.18 2876
1663.62 1091.18 2876
1670.5 1091.18 2876
1674.46 1089.29 2871
1676.05 1085.87 2862
1682.9 1085.87 2862
1680.88 1080.18 2847
1681.76 1076.39 2837
1697.48 1082.08 2852
1704.3 1082.08 2852
1711.12 1082.08 2852
1726.37 1087.39 2866
1736.25 1089.29 2871
1749.18 1093.08 2881
1756.07 1093.08 2881
1762.96 1093.08 2881
1769.85 1093.08 2881
1776.74 1093.08 2881
1783.63 1093.08 2881
1790.52 1093.08 2881
1797.41 1093.08 2881
1804.3 1093.08 2881
1811.19 1093.08 2881
1818.08 1093.08 2881
1841.94 1094.98 2886
1848.84 1094.98 2886
1855.74 1094.98 2886
1862.64 1094.98 2886
1869.54 1094.98 2886
1873.19 1093.08 2881
1876.82 1091.18 2876
1880.42 1089.29 2871
1874.8 1082.08 2852
1881.62 1082.08 2852
1875.19 1074.49 2832
1879.31 1072.97 2828
1882.73 1071.08 2823
1889.49 1071.08 2823
1896.24 1071.08 2823
1902.99 1071.08 2823
1909.74 1071.08 2823
1916.49 1071.08 2823
1913.7 1065.76 2809
1917 1063.87 2804
1923.7 1063.87 2804
1940.05 1069.18 2818
1953.7 1072.97 2828
1960.46 1072.97 2828
1967.22 1072.97 2828
1973.98 1072.97 2828
1980.75 1072.97 2828
1983.99 1071.08 2823
1977.35 1063.87 2804
1976.98 1060.07 2794
1983.66 1060.07 2794
1990.34 1060.07 2794
1997.02 1060.07 2794
-1693.93 1035.84 2713
-1687.45 1035.84 2713
-1689.01 1040.8 2726
-1682.49 1040.8 2726
-1698.11 1054.55 2762
-1691.5 1054.55 2762
-1684.9 1054.55 2762
-1559.14 1024 2682
-1552.72 1024 2682
-1546.31 1024 2682
-1537.6 1022.48 2678
-1523.76 1017.51 2665
-1517.39 1017.51 2665
-1511.02 1017.51 2665
-1504.64 1017.51 2665
-1498.27 1017.51 2665
-1491.9 1017.51 2665
-1476.05 1011.02 2648
-1451.4 998.422 2615
-1453.99 1004.53 2631
-1464.21 1015.99 2661
-1457.84 1015.99 2661
-1470.02 1028.97 2695
-1470.64 1033.93 2708
-1469.03 1037.37 2717
-1462.53 1037.37 2717
-1456.04 1037.37 2717
-1456.47 1042.33 2730
-1462.16 1051.11 2753
-1455.58 1051.11 2753
-1473.21 1068.67 2799
-1469.13 1070.58 2804
-1462.43 1070.58 2804
-1455.72 1070.58 2804
-1355.5 1087 2847
-1360.06 1096.16 2871
-1353.2 1096.16 2871
-1358.06 1105.71 2896
-1351.13 1105.71 2896
-1344.21 1105.71 2896
-1337.28 1105.71 2896
-1323.46 1099.98 2881
-1309.72 1094.26 2866
-1302.87 1094.26 2866
-1289.68 1088.91 2852
-1282.86 1088.91 2852
-1278.28 1090.82 2857
-1277.68 1096.16 2871
-1270.81 1096.16 2871
-1270.55 1101.89 2886
-1263.65 1101.89 2886
-1256.75 1101.89 2886
-1245.52 1098.07 2876
-1058.88 1024 2682
-1052.47 1024 2682
-1051.13 1028.97 2695
-1056.7 1040.8 2726
-1050.18 1040.8 2726
-1043.66 1040.8 2726
-1030.3 1033.93 2708
-1020.42 1030.49 2699
-1013.96 1030.49 2699
-1006.02 1028.97 2695
-1001.06 1030.49 2699
-1014.5 1051.11 2753
-1013.04 1056.46 2767
-1006.43 1056.46 2767
-999.81 1056.46 2767
-994.629 1057.98 2771
-989.785 1059.89 2776
-983.147 1059.89 2776
-976.509 1059.89 2776
-969.87 1059.89 2776
-963.232 1059.89 2776
-939.364 1040.8 2726
-942.085 1051.11 2753
-938.56 1054.55 2762
-936.679 1059.89 2776
-930.041 1059.89 2776
-924.733 1061.42 2780
-922.709 1066.77 2794
-916.027 1066.77 2794
-909.346 1066.77 2794
-902.665 1066.77 2794
-895.983 1066.77 2794
-889.302 1066.77 2794
-882.621 1066.77 2794
-873.118 1063.33 2785
-863.658 1059.89 2776
-854.241 1056.46 2767
-847.625 1056.46 2767
-837.969 1052.64 2757
-827.456 1047.68 2744
-818.201 1044.24 2735
-811.661 1044.24 2735
-801 1038.89 2721
-794.493 1038.89 2721
-787.986 1038.89 2721
-781.479 1038.89 2721
-770.131 1032.4 2704
-759.993 1027.44 2691
-749.918 1022.48 2678
-743.514 1022.48 2678
-734.633 1019.04 2669
-726.068 1015.99 2661
-719.704 1015.99 2661
-718.971 1024 2682
-712.557 1024 2682
-706.144 1024 2682
-695.295 1017.51 2665
-692.283 1022.48 2678
-685.879 1022.48 2678
-682.773 1027.44 2691
-676.338 1027.44 2691
-677.372 1038.89 2721
-670.865 1038.89 2721
-665.579 1040.8 2726
-659.06 1040.8 2726
-652.542 1040.8 2726
-644.838 1038.89 2721
-639.504 1040.8 2726
-633.914 1042.33 2730
-631.523 1049.2 2748
-624.951 1049.2 2748
-618.38 1049.2 2748
-614.926 1054.55 2762
-608.321 1054.55 2762
-602.805 1056.46 2767
-596.189 1056.46 2767
-589.572 1056.46 2767
-583.798 1057.98 2771
-577.172 1057.98 2771
-570.545 1057.98 2771
-563.919 1057.98 2771
-556.488 1056.46 2767
-549.872 1056.46 2767
-543.255 1056.46 2767
-533.923 1051.11 2753
-523.892 1044.24 2735
-517.352 1044.24 2735
-510.811 1044.24 2735
-505.93 1047.68 2744
-501.007 1051.11 2753
-494.423 1051.11 2753
-487.84 1051.11 2753
-480.383 1049.2 2748
-472.26 1045.77 2739
-465.71 1045.77 2739
-457.651 1042.33 2730
-450.462 1040.8 2726
-444.595 1042.33 2730
-440.313 1047.68 2744
-433.751 1047.68 2744
-427.19 1047.68 2744
-421.241 1049.2 2748
-414.67 1049.2 2748
-408.098 1049.2 2748
-401.527 1049.2 2748
-395.674 1051.11 2753
-391.07 1056.46 2767
-385.009 1057.98 2771
-378.383 1057.98 2771
-371.756 1057.98 2771
-364.603 1056.46 2767
-357.986 1056.46 2767
-350.735 1054.55 2762
-344.13 1054.55 2762
-335.325 1047.68 2744
-328.764 1047.68 2744
-322.202 1047.68 2744
-315.64 1047.68 2744
-309.529 1049.2 2748
-302.958 1049.2 2748
-296.386 1049.2 2748
-289.815 1049.2 2748
-282.316 1045.77 2739
-275.766 1045.77 2739
-268.823 1044.24 2735
-262.283 1044.24 2735
-255.743 1044.24 2735
-249.203 1044.24 2735
-241.42 1038.89 2721
-233.446 1032.4 2704
-227.316 1033.93 2708
-220.84 1033.93 2708
-214.364 1033.93 2708
-207.889 1033.93 2708
-200.744 1030.49 2699
-194.29 1030.49 2699
-187.835 1030.49 2699
-181.381 1030.49 2699
-174.085 1025.53 2686
-167.412 1024 2682
-160.998 1024 2682
-154.066 1020.57 2673
-131.1 906.025 2373
-124.369 898.389 2353
-117.934 892.28 2337
-112.346 892.28 2337
-106.301 888.462 2327
-100.563 886.935 2323
-94.7626 884.644 2317
-89.2219 884.644 2317
-83.6813 884.644 2317
-77.8034 880.826 2307
-72.1926 879.681 2304
-66.6831 879.681 2304
-60.3504 867.845 2273
-54.77 865.554 2267
-49.1313 861.736 2257
-43.6178 859.445 2251
-38.235 859.445 2251
-32.8084 858.3 2248
-27.3595 856.009 2242
-21.8805 851.427 2230
-16.5479 851.427 2230
-11.1549 846.846 2218
-5.83782 844.937 2213
-0.544382 842.646 2207
4.73322 842.646 2207
9.98361 840.355 2201
15.1845 836.919 2192
20.3983 835.773 2189
25.6329 835.773 2189
30.8674 835.773 2189
36.102 835.773 2189
41.3366 835.773 2189
46.7626 839.209 2198
52.1607 841.5 2204
57.4311 841.5 2204
62.9576 844.937 2213
68.4963 847.991 2221
74.3058 853.718 2236
79.6528 853.718 2236
85.2278 856.009 2242
91.7205 866.699 2270
97.2771 867.845 2273
102.713 867.845 2273
108.291 868.99 2276
113.733 868.99 2276
119.804 873.572 2288
125.276 873.572 2288
131.661 879.681 2304
137.766 883.499 2314
143.3 883.499 2314
148.833 883.499 2314
153.9 880.826 2307
233.574 1068.67 2799
240.267 1068.67 2799
246.96 1068.67 2799
253.2 1066.77 2794
256.44 1052.64 2757
262.174 1049.2 2748
268.746 1049.2 2748
274.916 1047.68 2744
280.965 1045.77 2739
287.095 1044.24 2735
293.635 1044.24 2735
298.639 1038.89 2721
305.706 1040.8 2726
312.225 1040.8 2726
318.744 1040.8 2726
325.262 1040.8 2726
331.172 1038.89 2721
336.066 1033.93 2708
342.541 1033.93 2708
349.017 1033.93 2708
357.199 1038.89 2721
364.909 1042.33 2730
373.342 1047.68 2744
380.458 1049.2 2748
387.029 1049.2 2748
394.889 1052.64 2757
402.21 1054.55 2762
408.815 1054.55 2762
415.42 1054.55 2762
422.789 1056.46 2767
429.405 1056.46 2767
436.022 1056.46 2767
442.639 1056.46 2767
448.444 1054.55 2762
453.566 1051.11 2753
460.149 1051.11 2753
466.732 1051.11 2753
477.27 1059.89 2776
483.908 1059.89 2776
491.253 1061.42 2780
497.901 1061.42 2780
504.549 1061.42 2780
511.197 1061.42 2780
517.844 1061.42 2780
524.492 1061.42 2780
531.14 1061.42 2780
536.047 1057.98 2771
542.673 1057.98 2771
545.731 1051.11 2753
552.315 1051.11 2753
558.898 1051.11 2753
565.481 1051.11 2753
572.064 1051.11 2753
578.648 1051.11 2753
585.231 1051.11 2753
590.739 1049.2 2748
597.311 1049.2 2748
603.882 1049.2 2748
610.453 1049.2 2748
612.983 1042.33 2730
619.511 1042.33 2730
623.975 1038.89 2721
630.482 1038.89 2721
636.053 1037.37 2717
642.55 1037.37 2717
642.836 1027.44 2691
651.201 1030.49 2699
662.041 1037.37 2717
677.396 1051.11 2753
683.98 1051.11 2753
696.332 1059.89 2776
708.795 1068.67 2799
716.766 1070.58 2804
723.471 1070.58 2804
738.77 1083.18 2837
745.554 1083.18 2837
752.338 1083.18 2837
747.617 1066.77 2794
754.298 1066.77 2794
760.979 1066.77 2794
769.034 1068.67 2799
777.113 1070.58 2804
783.818 1070.58 2804
793.061 1074.02 2813
802.631 1077.84 2823
809.382 1077.84 2823
816.132 1077.84 2823
822.883 1077.84 2823
831.103 1079.75 2828
837.865 1079.75 2828
844.628 1079.75 2828
851.391 1079.75 2828
858.153 1079.75 2828
864.916 1079.75 2828
870.137 1077.84 2823
876.888 1077.84 2823
882.074 1075.93 2818
890.389 1077.84 2823
900 1081.27 2832
906.772 1081.27 2832
913.544 1081.27 2832
921.941 1083.18 2837
928.726 1083.18 2837
935.51 1083.18 2837
940.633 1081.27 2832
946.067 1079.75 2828
952.83 1079.75 2828
959.592 1079.75 2828
966.355 1079.75 2828
973.118 1079.75 2828
979.88 1079.75 2828
986.643 1079.75 2828
993.405 1079.75 2828
998.4 1077.84 2823
1005.15 1077.84 2823
1005.09 1070.58 2804
1009.99 1068.67 2799
1018.5 1070.58 2804
1028.5 1074.02 2813
1035.22 1074.02 2813
1041.95 1074.02 2813
1047.19 1072.49 2809
1048.28 1066.77 2794
1054.96 1066.77 2794
1061.64 1066.77 2794
1062.97 1061.42 2780
1068.07 1059.89 2776
1074.71 1059.89 2776
1077.85 1056.46 2767
1084.46 1056.46 2767
1087.14 1052.64 2757
1093.73 1052.64 2757
1093.14 1045.77 2739
1099.69 1045.77 2739
1106.24 1045.77 2739
1114.82 1047.68 2744
1125.06 1051.11 2753
1131.64 1051.11 2753
1138.22 1051.11 2753
1144.81 1051.11 2753
1151.39 1051.11 2753
1157.97 1051.11 2753
1164.56 1051.11 2753
1171.14 1051.11 2753
1177.72 1051.11 2753
1184.31 1051.11 2753
1194.78 1054.55 2762
1207.48 1059.89 2776
1221.99 1066.77 2794
1228.67 1066.77 2794
1237.56 1068.67 2799
1246.48 1070.58 2804
1253.18 1070.58 2804
1259.89 1070.58 2804
1268.85 1072.49 2809
1279.66 1075.93 2818
1288.68 1077.84 2823
1295.43 1077.84 2823
1308.64 1083.18 2837
1315.42 1083.18 2837
1326.87 1087 2847
1333.67 1087 2847
1356.49 1099.98 2881
1363.38 1099.98 2881
1370.27 1099.98 2881
1377.16 1099.98 2881
1384.05 1099.98 2881
1393.35 1101.89 2886
1402.68 1103.8 2891
1409.59 1103.8 2891
1416.5 1103.8 2891
1423.42 1103.8 2891
1420.44 1096.16 2871
1427.3 1096.16 2871
1431.67 1094.26 2866
1416.94 1077.84 2823
1416.63 1072.49 2809
1423.35 1072.49 2809
1430.06 1072.49 2809
1436.78 1072.49 2809
1440.93 1070.58 2804
1447.63 1070.58 2804
1451.75 1068.67 2799
1455.83 1066.77 2794
1457.8 1063.33 2785
1461.84 1061.42 2780
1468.48 1061.42 2780
1475.13 1061.42 2780
1489.24 1066.77 2794
1501.28 1070.58 2804
1510.67 1072.49 2809
1517.39 1072.49 2809
1524.1 1072.49 2809
1533 1074.02 2813
1539.73 1074.02 2813
1546.46 1074.02 2813
1569.19 1085.09 2842
1578.76 1087 2847
1585.57 1087 2847
1592.38 1087 2847
1599.19 1087 2847
1603.17 1085.09 2842
1618.47 1090.82 2857
1625.3 1090.82 2857
1632.13 1090.82 2857
1638.96 1090.82 2857
1650.98 1094.26 2866
1657.83 1094.26 2866
1664.69 1094.26 2866
1669.21 1092.73 2862
1673.12 1090.82 2857
1679.96 1090.82 2857
1672.03 1081.27 2832
1681.76 1083.18 2837
1688.55 1083.18 2837
1701.31 1087 2847
1708.12 1087 2847
1717.94 1088.91 2852
1733.22 1094.26 2866
1740.08 1094.26 2866
1753.02 1098.07 2876
1759.9 1098.07 2876
1766.78 1098.07 2876
1773.66 1098.07 2876
1780.53 1098.07 2876
1784.3 1096.16 2871
1791.17 1096.16 2871
1798.03 1096.16 2871
1804.9 1096.16 2871
1811.77 1096.16 2871
1838.74 1099.98 2881
1845.63 1099.98 2881
1852.52 1099.98 2881
1859.41 1099.98 2881
1866.3 1099.98 2881
1869.94 1098.07 2876
1873.55 1096.16 2871
1867.98 1088.91 2852
1868.22 1085.09 2842
1875.02 1085.09 2842
1875.19 1081.27 2832
1875.98 1077.84 2823
1882.73 1077.84 2823
1889.49 1077.84 2823
1892.88 1075.93 2818
1899.62 1075.93 2818
1902.97 1074.02 2813
1909.7 1074.02 2813
1903.48 1066.77 2794
1917 1070.58 2804
1923.7 1070.58 2804
1940.05 1075.93 2818
1953.7 1079.75 2828
1960.46 1079.75 2828
1967.22 1079.75 2828
1973.98 1079.75 2828
1980.75 1079.75 2828
1983.99 1077.84 2823
1977.35 1070.58 2804
1976.98 1066.77 2794
1983.66 1066.77 2794
1990.34 1066.77 2794
1997.02 1066.77 2794
-1681.74 1026.97 2673
-1675.35 1026.97 2673
-1693.93 1042.34 2713
-1687.45 1042.34 2713
-1689.01 1047.33 2726
-1682.49 1047.33 2726
-1698.11 1061.16 2762
-1691.5 1061.16 2762
-1684.9 1061.16 2762
-1675.26 1059.24 2757
-1559.14 1030.43 2682
-1552.72 1030.43 2682
-1546.31 1030.43 2682
-1537.6 1028.89 2678
-1521.47 1022.36 2661
-1515.11 1022.36 2661
-1508.75 1022.36 2661
-1502.39 1022.36 2661
-1488.71 1017.37 2648
-1482.38 1017.37 2648
-1457.65 1004.69 2615
-1444.74 1000.08 2603
-1442.94 1003.15 2611
-1449.9 1012.37 2635
-1443.6 1012.37 2635
-1451.48 1022.36 2661
-1461.41 1033.89 2691
-1457.14 1035.42 2695
-1450.69 1035.42 2695
-1446.39 1036.96 2699
-1449.54 1043.88 2717
-1449.95 1048.87 2730
-1443.42 1048.87 2730
-1456.36 1063.09 2767
-1466.51 1075.38 2799
-1459.82 1075.38 2799
-1453.13 1075.38 2799
-1348.36 1088.06 2832
-1360.06 1103.04 2871
-1353.2 1103.04 2871
-1346.33 1103.04 2871
-1344.13 1106.88 2881
-1337.24 1106.88 2881
-1330.35 1106.88 2881
-1316.57 1101.12 2866
-1305.61 1097.66 2857
-1298.78 1097.66 2857
-1289.68 1095.74 2852
-1282.86 1095.74 2852
-1278.28 1097.66 2857
-1271.45 1097.66 2857
-1264.62 1097.66 2857
-1263.95 1103.04 2871
-1257.08 1103.04 2871
-1250.22 1103.04 2871
-1058.88 1030.43 2682
-1052.47 1030.43 2682
-1051.13 1035.42 2695
-1044.68 1035.42 2695
-1038.24 1035.42 2695
-1031.79 1035.42 2695
-1025.35 1035.42 2695
-1017.39 1033.89 2691
-1010.96 1033.89 2691
-996.311 1025.43 2669
-989.928 1025.43 2669
-989.811 1031.97 2686
-1007.92 1057.71 2753
-1001.33 1057.71 2753
-996.196 1059.24 2757
-993.193 1063.09 2767
-986.576 1063.09 2767
-979.959 1063.09 2767
-973.343 1063.09 2767
-952.401 1047.33 2726
-945.883 1047.33 2726
-939.364 1047.33 2726
-937.294 1052.33 2739
-936.861 1059.24 2757
-931.955 1061.16 2762
-925.35 1061.16 2762
-923.403 1066.54 2776
-918.085 1068.08 2780
-916.027 1073.46 2794
-909.346 1073.46 2794
-902.665 1073.46 2794
-894.701 1071.92 2790
-888.029 1071.92 2790
-879.778 1070 2785
-870.296 1066.54 2776
-863.658 1066.54 2776
-852.698 1061.16 2762
-846.093 1061.16 2762
-836.753 1057.71 2753
-825.948 1052.33 2739
-818.201 1050.79 2735
-811.661 1050.79 2735
-801 1045.41 2721
-794.493 1045.41 2721
-787.986 1045.41 2721
-781.479 1045.41 2721
-770.131 1038.88 2704
-763.665 1038.88 2704
-754.678 1035.42 2695
-748.234 1035.42 2695
-739.312 1031.97 2686
-729.342 1026.97 2673
-724.302 1028.89 2678
-717.898 1028.89 2678
-711.495 1028.89 2678
-705.091 1028.89 2678
-698.687 1028.89 2678
-692.283 1028.89 2678
-685.879 1028.89 2678
-679.475 1028.89 2678
-676.338 1033.89 2691
-677.372 1045.41 2721
-670.865 1045.41 2721
-665.579 1047.33 2726
-659.06 1047.33 2726
-652.542 1047.33 2726
-644.838 1045.41 2721
-639.504 1047.33 2726
-633.914 1048.87 2730
-631.523 1055.79 2748
-624.951 1055.79 2748
-618.38 1055.79 2748
-614.926 1061.16 2762
-608.321 1061.16 2762
-602.805 1063.09 2767
-596.189 1063.09 2767
-589.572 1063.09 2767
-583.798 1064.62 2771
-577.172 1064.62 2771
-570.545 1064.62 2771
-563.919 1064.62 2771
-556.488 1063.09 2767
-549.872 1063.09 2767
-543.255 1063.09 2767
-533.923 1057.71 2753
-523.892 1050.79 2735
-517.352 1050.79 2735
-510.811 1050.79 2735
-505.93 1054.25 2744
-501.007 1057.71 2753
-494.423 1057.71 2753
-487.84 1057.71 2753
-480.383 1055.79 2748
-472.26 1052.33 2739
-465.71 1052.33 2739
-457.651 1048.87 2730
-450.462 1047.33 2726
-444.595 1048.87 2730
-440.313 1054.25 2744
-433.751 1054.25 2744
-427.19 1054.25 2744
-421.241 1055.79 2748
-414.67 1055.79 2748
-408.098 1055.79 2748
-401.527 1055.79 2748
-395.674 1057.71 2753
-391.07 1063.09 2767
-385.009 1064.62 2771
-378.383 1064.62 2771
-371.756 1064.62 2771
-364.603 1063.09 2767
-357.986 1063.09 2767
-350.735 1061.16 2762
-344.13 1061.16 2762
-335.325 1054.25 2744
-328.764 1054.25 2744
-322.202 1054.25 2744
-315.64 1054.25 2744
-309.529 1055.79 2748
-302.958 1055.79 2748
-296.386 1055.79 2748
-289.815 1055.79 2748
-282.316 1052.33 2739
-275.766 1052.33 2739
-268.823 1050.79 2735
-262.283 1050.79 2735
-255.743 1050.79 2735
-249.203 1050.79 2735
-241.42 1045.41 2721
-233.446 1038.88 2704
-227.316 1040.42 2708
-220.84 1040.42 2708
-214.364 1040.42 2708
-207.889 1040.42 2708
-200.744 1036.96 2699
-194.29 1036.96 2699
-187.835 1036.96 2699
-181.381 1036.96 2699
-174.085 1031.97 2686
-167.412 1030.43 2682
-160.998 1030.43 2682
-154.066 1026.97 2673
-131.1 911.71 2373
-124.369 904.026 2353
-117.934 897.879 2337
-112.346 897.879 2337
-106.301 894.037 2327
-100.563 892.5 2323
-94.7626 890.195 2317
-89.2219 890.195 2317
-83.6813 890.195 2317
-77.8034 886.353 2307
-72.1926 885.2 2304
-66.6831 885.2 2304
-60.3504 873.29 2273
-54.77 870.985 2267
-49.1313 867.143 2257
-43.6178 864.837 2251
-38.235 864.837 2251
-32.8084 863.685 2248
-27.3961 862.532 2245
-21.8805 856.769 2230
-16.5479 856.769 2230
-11.1851 854.464 2224
-5.84309 851.006 2215
-0.545862 850.238 2213
4.74609 850.238 2213
9.99722 846.78 2204
15.2261 844.475 2198
20.3983 841.017 2189
25.6329 841.017 2189
30.8674 841.017 2189
36.102 841.017 2189
41.3366 841.017 2189
46.7626 844.475 2198
52.2317 847.933 2207
57.5093 847.933 2207
62.9576 850.238 2213
68.5888 854.464 2224
74.3058 859.074 2236
79.6528 859.074 2236
85.2278 861.38 2242
91.7205 872.137 2270
97.2771 873.29 2273
102.713 873.29 2273
108.291 874.443 2276
113.733 874.443 2276
119.804 879.053 2288
125.276 879.053 2288
131.661 885.2 2304
137.766 889.042 2314
143.3 889.042 2314
148.833 889.042 2314
153.9 886.353 2307
159.416 886.353 2307
164.933 886.353 2307
170.45 886.353 2307
242.46 1055.79 2748
249.032 1055.79 2748
255.603 1055.79 2748
261.793 1054.25 2744
268.354 1054.25 2744
274.415 1052.33 2739
280.965 1052.33 2739
283.841 1038.88 2704
290.307 1038.88 2704
296.224 1036.96 2699
305.706 1047.33 2726
312.225 1047.33 2726
318.744 1047.33 2726
325.262 1047.33 2726
330.686 1043.88 2717
336.066 1040.42 2708
342.541 1040.42 2708
349.661 1042.34 2713
356.149 1042.34 2713
363.706 1045.41 2721
372.118 1050.79 2735
379.904 1054.25 2744
386.466 1054.25 2744
394.316 1057.71 2753
401.482 1059.24 2757
408.075 1059.24 2757
414.668 1059.24 2757
422.025 1061.16 2762
428.629 1061.16 2762
435.234 1061.16 2762
441.839 1061.16 2762
446.982 1057.71 2753
451.259 1052.33 2739
460.149 1057.71 2753
466.732 1057.71 2753
474.863 1061.16 2762
483.036 1064.62 2771
489.663 1064.62 2771
496.289 1064.62 2771
503.823 1066.54 2776
511.197 1068.08 2780
517.844 1068.08 2780
524.492 1068.08 2780
530.376 1066.54 2776
534.306 1061.16 2762
540.911 1061.16 2762
545.731 1057.71 2753
551.311 1055.79 2748
557.883 1055.79 2748
564.454 1055.79 2748
571.025 1055.79 2748
577.597 1055.79 2748
584.168 1055.79 2748
590.739 1055.79 2748
597.311 1055.79 2748
603.882 1055.79 2748
607.565 1050.79 2735
612.983 1048.87 2730
619.511 1048.87 2730
620.994 1040.42 2708
627.47 1040.42 2708
633.009 1038.88 2704
639.475 1038.88 2704
642.836 1033.89 2691
651.201 1036.96 2699
662.041 1043.88 2717
677.396 1057.71 2753
683.98 1057.71 2753
696.332 1066.54 2776
703.983 1068.08 2780
713.188 1071.92 2790
720.891 1073.46 2794
727.573 1073.46 2794
734.254 1073.46 2794
740.935 1073.46 2794
747.617 1073.46 2794
754.298 1073.46 2794
760.979 1073.46 2794
767.66 1073.46 2794
774.342 1073.46 2794
781.023 1073.46 2794
789.114 1075.38 2799
795.807 1075.38 2799
803.934 1077.3 2804
810.639 1077.3 2804
818.802 1079.22 2809
825.519 1079.22 2809
832.236 1079.22 2809
838.953 1079.22 2809
845.671 1079.22 2809
852.388 1079.22 2809
859.105 1079.22 2809
865.822 1079.22 2809
872.539 1079.22 2809
879.256 1079.22 2809
887.235 1080.76 2813
897.14 1084.6 2823
903.891 1084.6 2823
910.641 1084.6 2823
919.017 1086.52 2828
925.779 1086.52 2828
932.542 1086.52 2828
937.644 1084.6 2823
944.394 1084.6 2823
951.145 1084.6 2823
954.503 1080.76 2813
961.229 1080.76 2813
967.956 1080.76 2813
974.683 1080.76 2813
981.41 1080.76 2813
986.731 1079.22 2809
991.68 1077.3 2804
998.385 1077.3 2804
1005.09 1077.3 2804
1006.74 1071.92 2790
1016.68 1075.38 2799
1025.21 1077.3 2804
1031.91 1077.3 2804
1038.62 1077.3 2804
1045.32 1077.3 2804
1048.28 1073.46 2794
1054.96 1073.46 2794
1060.12 1071.92 2790
1061.44 1066.54 2776
1068.07 1066.54 2776
1074.71 1066.54 2776
1077.85 1063.09 2767
1084.46 1063.09 2767
1087.14 1059.24 2757
1093.73 1059.24 2757
1093.14 1052.33 2739
1099.69 1052.33 2739
1106.24 1052.33 2739
1114.82 1054.25 2744
1123.01 1055.79 2748
1129.59 1055.79 2748
1136.16 1055.79 2748
1142.73 1055.79 2748
1149.3 1055.79 2748
1155.87 1055.79 2748
1162.44 1055.79 2748
1169.01 1055.79 2748
1175.59 1055.79 2748
1182.16 1055.79 2748
1192.62 1059.24 2757
1205.3 1064.62 2771
1214.12 1066.54 2776
1220.75 1066.54 2776
1235.35 1073.46 2794
1244.26 1075.38 2799
1253.18 1077.3 2804
1259.89 1077.3 2804
1268.85 1079.22 2809
1277.39 1080.76 2813
1288.68 1084.6 2823
1295.43 1084.6 2823
1308.64 1089.98 2837
1315.42 1089.98 2837
1326.87 1093.82 2847
1333.67 1093.82 2847
1356.49 1106.88 2881
1363.38 1106.88 2881
1370.27 1106.88 2881
1377.16 1106.88 2881
1384.05 1106.88 2881
1390.94 1106.88 2881
1397.83 1106.88 2881
1404.72 1106.88 2881
1411.6 1106.88 2881
1418.49 1106.88 2881
1420.44 1103.04 2871
1427.3 1103.04 2871
1431.67 1101.12 2866
1416.94 1084.6 2823
1416.63 1079.22 2809
1423.35 1079.22 2809
1430.06 1079.22 2809
1436.78 1079.22 2809
1440.93 1077.3 2804
1447.63 1077.3 2804
1449.15 1073.46 2794
1453.75 1071.92 2790
1455.19 1068.08 2780
1457.1 1064.62 2771
1463.73 1064.62 2771
1468.23 1063.09 2767
1489.24 1073.46 2794
1498.6 1075.38 2799
1505.29 1075.38 2799
1511.99 1075.38 2799
1521.39 1077.3 2804
1530.82 1079.22 2809
1537.54 1079.22 2809
1544.26 1079.22 2809
1566.43 1089.98 2837
1573.22 1089.98 2837
1580 1089.98 2837
1586.79 1089.98 2837
1593.57 1089.98 2837
1600.35 1089.98 2837
1607.14 1089.98 2837
1619.61 1093.82 2847
1626.42 1093.82 2847
1638.96 1097.66 2857
1645.8 1097.66 2857
1652.63 1097.66 2857
1659.46 1097.66 2857
1666.29 1097.66 2857
1670.2 1095.74 2852
1677.02 1095.74 2852
1672.03 1088.06 2832
1678.8 1088.06 2832
1688.55 1089.98 2837
1698.32 1091.9 2842
1705.12 1091.9 2842
1714.92 1093.82 2847
1724.76 1095.74 2852
1734.61 1097.66 2857
1746.93 1101.12 2866
1753.78 1101.12 2866
1760.64 1101.12 2866
1761.94 1097.66 2857
1774.34 1101.12 2866
1781.2 1101.12 2866
1788.05 1101.12 2866
1794.9 1101.12 2866
1801.76 1101.12 2866
1808.61 1101.12 2866
1856.58 1101.12 2866
1863.44 1101.12 2866
1870.29 1101.12 2866
1861.43 1091.9 2842
1861.65 1088.06 2832
1868.42 1088.06 2832
1872.54 1086.52 2828
1872.66 1082.68 2818
1876.07 1080.76 2813
1882.79 1080.76 2813
1889.52 1080.76 2813
1886.81 1075.38 2799
1887.41 1071.92 2790
1894.08 1071.92 2790
1893.94 1068.08 2780
1900.59 1068.08 2780
1923.7 1077.3 2804
1930.41 1077.3 2804
1937.12 1077.3 2804
1943.82 1077.3 2804
1960.26 1082.68 2818
1967 1082.68 2818
1973.74 1082.68 2818
1980.48 1082.68 2818
1977.35 1077.3 2804
1947.97 1057.71 2753
1954.55 1057.71 2753
