ply
format ascii 1.0
comment File generated
element vertex 2248
property float x
property float y
property float z
end_header
1103.53 1136.75 2380
1110.61 1138.18 2383
1116.31 1138.18 2383
1122.01 1138.18 2383
1127.71 1138.18 2383
1123.9 1128.63 2363
1132.89 1131.97 2370
1141.44 1134.84 2376
1147.12 1134.84 2376
1152.81 1134.84 2376
1160.44 1136.75 2380
1166.13 1136.75 2380
1171.82 1136.75 2380
1175.53 1134.84 2376
1181.22 1134.84 2376
1186.9 1134.84 2376
1192.58 1134.84 2376
1198.26 1134.84 2376
1202.42 1133.41 2373
1199.44 1125.29 2356
1205.08 1125.29 2356
1209.17 1123.85 2353
1202.92 1112.87 2330
1206.94 1111.44 2327
1212.5 1111.44 2327
1214.4 1108.09 2320
1216.79 1105.23 2314
1222.33 1105.23 2314
1227.86 1105.23 2314
1228.06 1100.45 2304
1231.97 1099.02 2301
1237.47 1099.02 2301
1241.35 1097.59 2298
1246.85 1097.59 2298
1252.34 1097.59 2298
1257.84 1097.59 2298
1263.33 1097.59 2298
1268.83 1097.59 2298
1274.32 1097.59 2298
1281.49 1099.02 2301
1292.58 1103.79 2311
1308.78 1112.87 2330
1314.35 1112.87 2330
1321.63 1114.3 2333
1327.21 1114.3 2333
1332.78 1114.3 2333
1336.64 1112.87 2330
1347.97 1117.65 2340
1362.83 1125.29 2356
1368.46 1125.29 2356
1374.09 1125.29 2356
1395.54 1138.18 2383
1401.24 1138.18 2383
1406.94 1138.18 2383
1400.78 1128.63 2363
1406.43 1128.63 2363
1413.87 1130.06 2366
1421.93 1131.97 2370
1427.6 1131.97 2370
1433.26 1131.97 2370
1442.57 1134.84 2376
1448.26 1134.84 2376
1462.51 1141.53 2390
1468.22 1141.53 2390
1482.57 1148.21 2404
1494.51 1152.99 2414
1504.63 1156.33 2421
1510.42 1156.33 2421
1520.6 1159.68 2428
1537.72 1168.27 2446
1543.57 1168.27 2446
1549.42 1168.27 2446
1539.37 1156.33 2421
1545.16 1156.33 2421
1555.43 1159.68 2428
1563.81 1161.59 2432
1569.63 1161.59 2432
1575.44 1161.59 2432
1578.66 1159.68 2428
1584.46 1159.68 2428
1588.3 1158.24 2425
1589.5 1154.9 2418
1592.64 1152.99 2414
1598.42 1152.99 2414
1599.54 1149.65 2407
1593.96 1141.53 2390
1588.29 1133.41 2373
1593.97 1133.41 2373
1592.9 1128.63 2363
1596.52 1127.2 2360
1599.45 1125.29 2356
1596.23 1119.08 2343
1601.83 1119.08 2343
1607.43 1119.08 2343
1610.97 1117.65 2340
1616.57 1117.65 2340
1622.16 1117.65 2340
1627.76 1117.65 2340
1633.35 1117.65 2340
1634.05 1114.3 2333
1639.62 1114.3 2333
1640.97 1111.44 2327
1650.78 1114.3 2333
1661.33 1117.65 2340
1671.2 1120.51 2346
1683.96 1125.29 2356
1689.59 1125.29 2356
1705.3 1131.97 2370
1710.97 1131.97 2370
1716.63 1131.97 2370
1719.39 1130.06 2366
1725.05 1130.06 2366
1733.64 1131.97 2370
1739.3 1131.97 2370
1744.97 1131.97 2370
1752.85 1133.41 2373
1768.9 1140.09 2387
1808.07 1161.59 2432
1813.88 1161.59 2432
1833.17 1170.18 2450
1839.03 1170.18 2450
1844.88 1170.18 2450
1842.43 1164.93 2439
1842.96 1161.59 2432
1838.13 1154.9 2418
1843.92 1154.9 2418
1812.98 1131.97 2370
-1651.29 1123.25 2340
-1645.7 1123.25 2340
-1640.1 1123.25 2340
-1629.62 1119.89 2333
-1619.86 1117.01 2327
-1614.3 1117.01 2327
-1608.73 1117.01 2327
-1603.17 1117.01 2327
-1594.86 1115.09 2323
-1589.3 1115.09 2323
-1583.75 1115.09 2323
-1605.37 1134.29 2363
-1606.49 1139.09 2373
-1600.81 1139.09 2373
-1595.14 1139.09 2373
-1582.76 1134.29 2363
-1575.11 1132.85 2360
-1569.47 1132.85 2360
-1487.62 1077.65 2245
-1482.25 1077.65 2245
-1474.91 1076.21 2242
-1469.55 1076.21 2242
-1464.19 1076.21 2242
-1458.83 1076.21 2242
-1443.74 1069.01 2227
-1427.44 1060.85 2210
-1425.37 1063.25 2215
-1420.07 1063.25 2215
-1414.77 1063.25 2215
-1409.48 1063.25 2215
-1423.2 1077.65 2245
-1417.83 1077.65 2245
-1412.46 1077.65 2245
-1407.09 1077.65 2245
-1401.73 1077.65 2245
-1379.56 1064.69 2218
-1372.4 1063.25 2215
-1372.66 1067.57 2224
-1390.09 1085.33 2261
-1384.68 1085.33 2261
-1379.28 1085.33 2261
-1379.34 1089.65 2270
-1373.91 1089.65 2270
-1368.48 1089.65 2270
-1348.04 1077.65 2245
-1359.66 1104.53 2301
-1388.88 1132.85 2360
-1383.23 1132.85 2360
-1377.59 1132.85 2360
-1363.81 1126.13 2346
-1352.99 1121.81 2337
-1347.4 1121.81 2337
-1321.14 1104.53 2301
-1303.06 1093.97 2279
-1294.19 1091.09 2273
-1288.76 1091.09 2273
-1283.32 1091.09 2273
-1277.89 1091.09 2273
-1267.41 1086.77 2264
-1262 1086.77 2264
-1251.04 1081.97 2254
-1251.17 1086.77 2264
-1245.76 1086.77 2264
-1240.34 1086.77 2264
-1231.11 1083.41 2257
-1219.2 1077.65 2245
-1213.83 1077.65 2245
-1210.08 1079.09 2248
-1204.7 1079.09 2248
-1199.32 1079.09 2248
-1193.95 1079.09 2248
-1188.57 1079.09 2248
-1180.04 1076.21 2242
-1169.96 1071.89 2233
-1164.62 1071.89 2233
-1170.19 1081.97 2254
-1164.8 1081.97 2254
-1159.41 1081.97 2254
-1154.02 1081.97 2254
-1148.63 1081.97 2254
-1140.19 1079.09 2248
-1134.82 1079.09 2248
-1129.44 1079.09 2248
-1124.07 1079.09 2248
-1118.69 1079.09 2248
-1110.34 1076.21 2242
-1104.98 1076.21 2242
-1099.62 1076.21 2242
-1098.65 1080.53 2251
-1093.27 1080.53 2251
-1087.89 1080.53 2251
-1082.5 1080.53 2251
-1077.12 1080.53 2251
-1071.74 1080.53 2251
-1059.25 1073.33 2236
-1051.07 1070.45 2230
-1057 1081.97 2254
-1051.61 1081.97 2254
-1052.25 1088.21 2267
-1053.75 1095.41 2282
-1067.13 1115.09 2323
-1061.58 1115.09 2323
-1056.02 1115.09 2323
-1050.47 1115.09 2323
-1044.91 1115.09 2323
-1036.67 1112.21 2317
-1029.8 1110.77 2314
-1024.26 1110.77 2314
-1018.73 1110.77 2314
-1011.88 1109.33 2311
-1004.62 1107.41 2307
-996.5 1104.53 2301
-990.997 1104.53 2301
-984.21 1103.09 2298
-979.993 1104.53 2301
-977.031 1107.41 2307
-971.515 1107.41 2307
-965.998 1107.41 2307
-960.481 1107.41 2307
-952.481 1104.53 2301
-946.978 1104.53 2301
-941.476 1104.53 2301
-932.313 1100.21 2292
-925.214 1098.29 2288
-919.743 1098.29 2288
-913.073 1096.85 2285
-907.609 1096.85 2285
-902.145 1096.85 2285
-899.427 1100.21 2292
-893.947 1100.21 2292
-888.466 1100.21 2292
-882.985 1100.21 2292
-878.653 1101.65 2295
-873.165 1101.65 2295
-869.945 1104.53 2301
-868.199 1109.33 2311
-863.793 1110.77 2314
-858.259 1110.77 2314
-857.517 1117.01 2327
-854.149 1119.89 2333
-850.025 1121.81 2337
-844.436 1121.81 2337
-839.925 1123.25 2340
-835.399 1124.69 2343
-832.275 1128.05 2350
-826.655 1128.05 2350
-822.084 1129.49 2353
-818.886 1132.85 2360
-813.243 1132.85 2360
-807.599 1132.85 2360
-799.577 1129.49 2353
-793.95 1129.49 2353
-784.973 1124.69 2343
-779.37 1124.69 2343
-772.777 1123.25 2340
-764.886 1119.89 2333
-759.307 1119.89 2333
-753.728 1119.89 2333
-746.225 1117.01 2327
-735.568 1109.33 2311
-725.935 1103.09 2298
-720.44 1103.09 2298
-714.945 1103.09 2298
-707.597 1100.21 2292
-699.053 1095.41 2282
-693.596 1095.41 2282
-687.234 1093.97 2279
-683.58 1096.85 2285
-678.115 1096.85 2285
-672.651 1096.85 2285
-664.559 1092.53 2276
-659.985 1093.97 2279
-654.536 1093.97 2279
-651.649 1098.29 2288
-646.178 1098.29 2288
-640.707 1098.29 2288
-635.235 1098.29 2288
-630.865 1100.21 2292
-625.384 1100.21 2292
-619.903 1100.21 2292
-616.835 1104.53 2301
-613.99 1109.33 2311
-608.463 1109.33 2311
-604.502 1112.21 2317
-602.322 1118.45 2330
-596.75 1118.45 2330
-591.179 1118.45 2330
-588.874 1124.69 2343
-584.018 1126.13 2346
-578.408 1126.13 2346
-572.798 1126.13 2346
-567.188 1126.13 2346
-561.578 1126.13 2346
-554.546 1123.25 2340
-548.951 1123.25 2340
-543.355 1123.25 2340
-537.76 1123.25 2340
-529.89 1118.45 2330
-524.318 1118.45 2330
-517.188 1115.09 2323
-510.972 1113.65 2320
-505.424 1113.65 2320
-499.876 1113.65 2320
-494.329 1113.65 2320
-488.781 1113.65 2320
-483.233 1113.65 2320
-477.685 1113.65 2320
-472.137 1113.65 2320
-465.986 1112.21 2317
-460.445 1112.21 2317
-454.905 1112.21 2317
-448.2 1109.33 2311
-441.908 1107.41 2307
-435.824 1105.97 2304
-430.314 1105.97 2304
-423.698 1103.09 2298
-417.111 1100.21 2292
-412.708 1103.09 2298
-407.744 1104.53 2301
-402.242 1104.53 2301
-396.74 1104.53 2301
-391.237 1104.53 2301
-385.735 1104.53 2301
-380.232 1104.53 2301
-374.73 1104.53 2301
-369.228 1104.53 2301
-363.725 1104.53 2301
-358.223 1104.53 2301
-352.72 1104.53 2301
-346.765 1103.09 2298
-341.27 1103.09 2298
-335.775 1103.09 2298
-330.28 1103.09 2298
-324.36 1101.65 2295
-318.872 1101.65 2295
-314.204 1104.53 2301
-308.701 1104.53 2301
-304.517 1109.33 2311
-298.99 1109.33 2311
-293.464 1109.33 2311
-287.938 1109.33 2311
-282.411 1109.33 2311
-276.885 1109.33 2311
-271.359 1109.33 2311
-265.833 1109.33 2311
-260.306 1109.33 2311
-254.78 1109.33 2311
-249.254 1109.33 2311
-243.727 1109.33 2311
-237.789 1107.41 2307
-232.272 1107.41 2307
-226.755 1107.41 2307
-221.238 1107.41 2307
-215.722 1107.41 2307
-210.843 1110.77 2314
-206.463 1117.01 2327
-200.898 1117.01 2327
-195.334 1117.01 2327
-189.769 1117.01 2327
-183.413 1112.21 2317
-177.872 1112.21 2317
-172.109 1110.77 2314
-165.855 1105.97 2304
-159.719 1101.65 2295
-154.231 1101.65 2295
-148.549 1100.21 2292
-22.5183 1101.65 2295
-17.0302 1101.65 2295
-11.5422 1101.65 2295
-6.02775 1096.85 2285
-0.563622 1096.85 2285
4.90051 1096.85 2285
15.5101 1074.77 2239
20.8642 1074.77 2239
26.2184 1074.77 2239
31.5302 1073.33 2236
36.7287 1069.01 2227
41.8842 1064.69 2218
47.1881 1064.69 2218
51.6164 1046.93 2181
56.467 1040.21 2167
61.4782 1037.33 2161
107.837 1035.89 2158
112.997 1035.89 2158
118.158 1035.89 2158
123.832 1040.21 2167
129.014 1040.21 2167
134.196 1040.21 2167
139.378 1040.21 2167
222.879 1093.97 2279
228.93 1096.85 2285
234.394 1096.85 2285
239.858 1096.85 2285
249.402 1115.09 2323
254.957 1115.09 2323
260.512 1115.09 2323
266.525 1117.01 2327
272.09 1117.01 2327
278.012 1118.45 2330
283.949 1119.89 2333
289.528 1119.89 2333
295.992 1123.25 2340
301.588 1123.25 2340
307.184 1123.25 2340
312.779 1123.25 2340
317.967 1121.81 2337
323.555 1121.81 2337
329.144 1121.81 2337
334.732 1121.81 2337
339.738 1119.89 2333
345.317 1119.89 2333
351.497 1121.81 2337
357.086 1121.81 2337
362.674 1121.81 2337
368.736 1123.25 2340
374.331 1123.25 2340
379.927 1123.25 2340
385.523 1123.25 2340
389.948 1119.89 2333
395.527 1119.89 2333
400.59 1118.45 2330
404.419 1113.65 2320
409.437 1112.21 2317
414.977 1112.21 2317
419.973 1110.77 2314
424.955 1109.33 2311
431.04 1110.77 2314
436.574 1110.77 2314
442.107 1110.77 2314
447.641 1110.77 2314
453.174 1110.77 2314
458.708 1110.77 2314
464.241 1110.77 2314
469.166 1109.33 2311
474.692 1109.33 2311
480.842 1110.77 2314
486.375 1110.77 2314
491.909 1110.77 2314
496.797 1109.33 2311
503.628 1112.21 2317
510.487 1115.09 2323
516.042 1115.09 2323
522.495 1117.01 2327
528.74 1118.45 2330
534.312 1118.45 2330
539.884 1118.45 2330
547.796 1123.25 2340
553.392 1123.25 2340
558.988 1123.25 2340
563.86 1121.81 2337
568.473 1119.89 2333
574.052 1119.89 2333
579.631 1119.89 2333
586.213 1121.81 2337
591.802 1121.81 2337
598.157 1123.25 2340
603.753 1123.25 2340
609.349 1123.25 2340
614.944 1123.25 2340
620.54 1123.25 2340
626.135 1123.25 2340
631.731 1123.25 2340
636.51 1121.81 2337
642.098 1121.81 2337
647.687 1121.81 2337
653.275 1121.81 2337
658.864 1121.81 2337
665.305 1123.25 2340
671.761 1124.69 2343
679.387 1128.05 2350
685.007 1128.05 2350
690.627 1128.05 2350
697.135 1129.49 2353
703.658 1130.93 2356
709.292 1130.93 2356
714.925 1130.93 2356
720.559 1130.93 2356
726.193 1130.93 2356
731.827 1130.93 2356
736.522 1129.49 2353
743.095 1130.93 2356
750 1132.85 2360
755.644 1132.85 2360
761.287 1132.85 2360
766.931 1132.85 2360
771.265 1130.93 2356
776.898 1130.93 2356
782.532 1130.93 2356
788.166 1130.93 2356
793.8 1130.93 2356
799.434 1130.93 2356
804.043 1129.49 2353
804.164 1121.81 2337
808.367 1119.89 2333
813.945 1119.89 2333
819.524 1119.89 2333
824.042 1118.45 2330
828.546 1117.01 2327
832.677 1115.09 2323
838.232 1115.09 2323
843.787 1115.09 2323
851.901 1118.45 2330
857.473 1118.45 2330
863.044 1118.45 2330
868.616 1118.45 2330
874.188 1118.45 2330
882.403 1121.81 2337
887.991 1121.81 2337
893.58 1121.81 2337
899.168 1121.81 2337
904.757 1121.81 2337
910.345 1121.81 2337
915.934 1121.81 2337
923.888 1124.69 2343
934.648 1130.93 2356
940.282 1130.93 2356
945.916 1130.93 2356
951.55 1130.93 2356
957.184 1130.93 2356
966.904 1135.73 2366
974.206 1137.65 2370
979.874 1137.65 2370
985.541 1137.65 2370
991.208 1137.65 2370
996.876 1137.65 2370
1002.54 1137.65 2370
1008.21 1137.65 2370
1009.6 1132.85 2360
1015.24 1132.85 2360
1017.86 1129.49 2353
1024.79 1130.93 2356
1032.17 1132.85 2360
1037.82 1132.85 2360
1043.46 1132.85 2360
1051.77 1135.73 2366
1057.43 1135.73 2366
1063.09 1135.73 2366
1067.39 1134.29 2363
1069.86 1130.93 2356
1075.5 1130.93 2356
1082.97 1132.85 2360
1093.22 1137.65 2370
1098.89 1137.65 2370
1104.56 1137.65 2370
1110.22 1137.65 2370
1115.89 1137.65 2370
1119.67 1135.73 2366
1123.9 1134.29 2363
1132.89 1137.65 2370
1141.44 1140.53 2376
1147.12 1140.53 2376
1152.81 1140.53 2376
1160.44 1142.45 2380
1166.13 1142.45 2380
1171.82 1142.45 2380
1175.53 1140.53 2376
1181.22 1140.53 2376
1186.9 1140.53 2376
1192.58 1140.53 2376
1198.26 1140.53 2376
1202.42 1139.09 2373
1199.44 1130.93 2356
1205.08 1130.93 2356
1209.17 1129.49 2353
1202.92 1118.45 2330
1206.94 1117.01 2327
1212.5 1117.01 2327
1214.4 1113.65 2320
1216.79 1110.77 2314
1222.33 1110.77 2314
1227.86 1110.77 2314
1228.06 1105.97 2304
1231.97 1104.53 2301
1237.47 1104.53 2301
1241.35 1103.09 2298
1246.85 1103.09 2298
1252.34 1103.09 2298
1257.84 1103.09 2298
1263.33 1103.09 2298
1268.83 1103.09 2298
1274.32 1103.09 2298
1281.49 1104.53 2301
1292.58 1109.33 2311
1308.78 1118.45 2330
1314.35 1118.45 2330
1321.63 1119.89 2333
1327.21 1119.89 2333
1332.78 1119.89 2333
1336.64 1118.45 2330
1347.97 1123.25 2340
1362.83 1130.93 2356
1368.46 1130.93 2356
1374.09 1130.93 2356
1395.54 1143.89 2383
1401.24 1143.89 2383
1406.94 1143.89 2383
1400.78 1134.29 2363
1406.43 1134.29 2363
1413.87 1135.73 2366
1421.93 1137.65 2370
1427.6 1137.65 2370
1433.26 1137.65 2370
1442.57 1140.53 2376
1448.26 1140.53 2376
1462.51 1147.25 2390
1468.22 1147.25 2390
1482.57 1153.97 2404
1494.51 1158.77 2414
1504.63 1162.13 2421
1510.42 1162.13 2421
1520.6 1165.49 2428
1537.72 1174.13 2446
1543.57 1174.13 2446
1549.42 1174.13 2446
1539.37 1162.13 2421
1545.16 1162.13 2421
1555.43 1165.49 2428
1563.81 1167.41 2432
1569.63 1167.41 2432
1575.44 1167.41 2432
1578.66 1165.49 2428
1584.46 1165.49 2428
1588.3 1164.05 2425
1589.5 1160.69 2418
1592.64 1158.77 2414
1598.42 1158.77 2414
1599.54 1155.41 2407
1593.96 1147.25 2390
1588.29 1139.09 2373
1593.97 1139.09 2373
1592.9 1134.29 2363
1596.52 1132.85 2360
1599.45 1130.93 2356
1596.23 1124.69 2343
1601.83 1124.69 2343
1607.43 1124.69 2343
1610.97 1123.25 2340
1616.57 1123.25 2340
1622.16 1123.25 2340
1627.76 1123.25 2340
1633.35 1123.25 2340
1634.05 1119.89 2333
1639.62 1119.89 2333
1640.97 1117.01 2327
1650.78 1119.89 2333
1661.33 1123.25 2340
1666.93 1123.25 2340
1676.81 1126.13 2346
1682.42 1126.13 2346
1698.1 1132.85 2360
1703.75 1132.85 2360
1711.56 1134.29 2363
1717.21 1134.29 2363
1722.87 1134.29 2363
1730.71 1135.73 2366
1736.37 1135.73 2366
1742.03 1135.73 2366
1747.68 1135.73 2366
1753.34 1135.73 2366
1779.07 1148.69 2393
1784.79 1148.69 2393
1809.22 1160.69 2418
1815.01 1160.69 2418
1820.79 1160.69 2418
1826.57 1160.69 2418
1832.35 1160.69 2418
1819.13 1148.69 2393
1824.85 1148.69 2393
1805.33 1132.85 2360
-1646.35 1125.48 2333
-1640.78 1125.48 2333
-1635.2 1125.48 2333
-1611.46 1112.94 2307
-1605.94 1112.94 2307
-1600.42 1112.94 2307
-1594.91 1112.94 2307
-1589.39 1112.94 2307
-1583.87 1112.94 2307
-1578.36 1112.94 2307
-1572.84 1112.94 2307
-1578.19 1120.66 2323
-1597.69 1138.5 2360
-1592.04 1138.5 2360
-1586.4 1138.5 2360
-1580.76 1138.5 2360
-1509.04 1090.75 2261
-1492.99 1083.03 2245
-1487.62 1083.03 2245
-1482.25 1083.03 2245
-1478.86 1084.47 2248
-1473.48 1084.47 2248
-1468.11 1084.47 2248
-1460.78 1083.03 2245
-1453.47 1081.58 2242
-1429.37 1067.59 2213
-1425.37 1068.55 2215
-1420.07 1068.55 2215
-1416.69 1070 2218
-1413.3 1071.45 2221
-1423.2 1083.03 2245
-1417.83 1083.03 2245
-1412.46 1083.03 2245
-1407.09 1083.03 2245
-1401.73 1083.03 2245
-1385.16 1074.34 2227
-1377.98 1072.9 2224
-1372.66 1072.9 2224
-1390.09 1090.75 2261
-1384.68 1090.75 2261
-1379.28 1090.75 2261
-1373.87 1090.75 2261
-1368.46 1090.75 2261
-1363.06 1090.75 2261
-1335.43 1072.9 2224
-1361.21 1097.98 2276
-1362.92 1103.77 2288
-1357.45 1103.77 2288
-1359.66 1110.04 2301
-1354.16 1110.04 2301
-1348.65 1110.04 2301
-1343.15 1110.04 2301
-1328.35 1102.32 2285
-1317.67 1097.98 2276
-1312.23 1097.98 2276
-1295.88 1088.82 2257
-1271.61 1072.9 2224
-1256.61 1064.69 2207
-1257.57 1070 2218
-1252.27 1070 2218
-1246.97 1070 2218
-1241.66 1070 2218
-1239.7 1072.9 2224
-1234.38 1072.9 2224
-1229.07 1072.9 2224
-1223.75 1072.9 2224
-1218.43 1072.9 2224
-1213.11 1072.9 2224
-1211.05 1075.79 2230
-1205.72 1075.79 2230
-1206.85 1081.58 2242
-1201.48 1081.58 2242
-1196.12 1081.58 2242
-1190.76 1081.58 2242
-1185.4 1081.58 2242
-1175.3 1077.24 2233
-1169.96 1077.24 2233
-1164.62 1077.24 2233
-1163.96 1081.58 2242
-1161.69 1084.47 2248
-1156.32 1084.47 2248
-1150.94 1084.47 2248
-1140.98 1080.13 2239
-1135.63 1080.13 2239
-1130.27 1080.13 2239
-1129.44 1084.47 2248
-1124.07 1084.47 2248
-1118.69 1084.47 2248
-1108.86 1080.13 2239
-1104.98 1081.58 2242
-1099.62 1081.58 2242
-1097.19 1084.47 2248
-1091.81 1084.47 2248
-1087.89 1085.92 2251
-1082.5 1085.92 2251
-1077.12 1085.92 2251
-1071.74 1085.92 2251
-1059.25 1078.69 2236
-1051.07 1075.79 2230
-1057 1087.37 2254
-1051.61 1087.37 2254
-1052.25 1093.64 2267
-1053.75 1100.88 2282
-1063 1116.31 2314
-1057.46 1116.31 2314
-1053.29 1117.76 2317
-1047.75 1117.76 2317
-1042.21 1117.76 2317
-1035.33 1116.31 2314
-1028.46 1114.87 2311
-1022.94 1114.87 2311
-1017.41 1114.87 2311
-1008.82 1111.49 2304
-1003.31 1111.49 2304
-992.602 1105.7 2292
-987.121 1105.7 2292
-981.641 1105.7 2292
-976.16 1105.7 2292
-971.949 1107.15 2295
-966.461 1107.15 2295
-960.973 1107.15 2295
-955.485 1107.15 2295
-948.755 1105.7 2292
-943.274 1105.7 2292
-936.157 1103.77 2288
-928.245 1100.88 2282
-921.575 1099.43 2279
-916.125 1099.43 2279
-909.477 1097.98 2276
-904.034 1097.98 2276
-898.591 1097.98 2276
-894.326 1099.43 2279
-888.876 1099.43 2279
-883.426 1099.43 2279
-880.288 1102.32 2285
-875.973 1103.77 2288
-870.501 1103.77 2288
-867.677 1107.15 2295
-864.443 1110.04 2301
-861.18 1112.94 2307
-855.663 1112.94 2307
-852.726 1116.31 2314
-853.05 1124.03 2330
-848.57 1125.48 2333
-842.991 1125.48 2333
-837.412 1125.48 2333
-833.259 1127.41 2337
-829.796 1130.3 2343
-824.193 1130.3 2343
-818.59 1130.3 2343
-816.457 1135.13 2353
-810.83 1135.13 2353
-805.204 1135.13 2353
-796.179 1130.3 2343
-789.564 1128.86 2340
-779.613 1122.59 2327
-774.048 1122.59 2327
-765.181 1117.76 2317
-757.673 1114.87 2311
-750.845 1112.94 2307
-745.328 1112.94 2307
-738.85 1111.49 2304
-731.43 1108.59 2298
-720.881 1100.88 2282
-715.424 1100.88 2282
-708.1 1097.98 2276
-700.805 1095.09 2270
-693.539 1092.19 2264
-688.125 1092.19 2264
-682.711 1092.19 2264
-679.99 1096.53 2273
-675.445 1097.98 2276
-670.002 1097.98 2276
-664.559 1097.98 2276
-659.985 1099.43 2279
-654.536 1099.43 2279
-651.649 1103.77 2288
-646.178 1103.77 2288
-640.707 1103.77 2288
-635.235 1103.77 2288
-630.865 1105.7 2292
-625.384 1105.7 2292
-619.903 1105.7 2292
-616.835 1110.04 2301
-613.99 1114.87 2311
-608.463 1114.87 2311
-604.502 1117.76 2317
-602.322 1124.03 2330
-596.75 1124.03 2330
-591.179 1124.03 2330
-588.874 1130.3 2343
-584.018 1131.75 2346
-578.408 1131.75 2346
-572.798 1131.75 2346
-567.188 1131.75 2346
-561.578 1131.75 2346
-554.546 1128.86 2340
-548.951 1128.86 2340
-543.355 1128.86 2340
-537.76 1128.86 2340
-529.89 1124.03 2330
-524.318 1124.03 2330
-517.188 1120.66 2323
-510.972 1119.21 2320
-505.424 1119.21 2320
-499.876 1119.21 2320
-494.329 1119.21 2320
-488.781 1119.21 2320
-483.233 1119.21 2320
-477.685 1119.21 2320
-472.137 1119.21 2320
-465.986 1117.76 2317
-460.445 1117.76 2317
-454.905 1117.76 2317
-448.2 1114.87 2311
-441.908 1112.94 2307
-435.824 1111.49 2304
-430.314 1111.49 2304
-423.698 1108.59 2298
-417.111 1105.7 2292
-412.708 1108.59 2298
-407.744 1110.04 2301
-402.242 1110.04 2301
-396.74 1110.04 2301
-391.237 1110.04 2301
-385.735 1110.04 2301
-380.232 1110.04 2301
-374.73 1110.04 2301
-369.228 1110.04 2301
-363.725 1110.04 2301
-358.223 1110.04 2301
-352.72 1110.04 2301
-346.765 1108.59 2298
-341.27 1108.59 2298
-335.775 1108.59 2298
-330.28 1108.59 2298
-324.36 1107.15 2295
-318.872 1107.15 2295
-314.204 1110.04 2301
-308.701 1110.04 2301
-304.517 1114.87 2311
-298.99 1114.87 2311
-293.464 1114.87 2311
-287.938 1114.87 2311
-282.411 1114.87 2311
-276.885 1114.87 2311
-271.359 1114.87 2311
-265.833 1114.87 2311
-260.306 1114.87 2311
-254.78 1114.87 2311
-249.254 1114.87 2311
-243.727 1114.87 2311
-237.789 1112.94 2307
-232.272 1112.94 2307
-226.755 1112.94 2307
-221.238 1112.94 2307
-215.722 1112.94 2307
-210.843 1116.31 2314
-206.463 1122.59 2327
-200.898 1122.59 2327
-195.334 1122.59 2327
-189.769 1122.59 2327
-183.413 1117.76 2317
-177.872 1117.76 2317
-172.109 1116.31 2314
-165.855 1111.49 2304
-159.719 1107.15 2295
-154.231 1107.15 2295
-148.549 1105.7 2292
-22.6752 1114.87 2311
-17.1489 1114.87 2311
-11.6226 1114.87 2311
15.4893 1078.69 2236
20.8363 1078.69 2236
26.1832 1078.69 2236
31.4879 1077.24 2233
36.7287 1074.34 2227
41.8275 1068.55 2215
47.1243 1068.55 2215
51.8767 1057.46 2192
56.467 1045.4 2167
61.3929 1041.06 2158
107.837 1041.06 2158
112.997 1041.06 2158
118.158 1041.06 2158
123.832 1045.4 2167
129.014 1045.4 2167
134.196 1045.4 2167
139.378 1045.4 2167
222.879 1099.43 2279
228.93 1102.32 2285
234.394 1102.32 2285
239.858 1102.32 2285
247.04 1110.04 2301
254.957 1120.66 2323
260.512 1120.66 2323
266.067 1120.66 2323
271.622 1120.66 2323
277.177 1120.66 2323
282.732 1120.66 2323
288.287 1120.66 2323
293.842 1120.66 2323
299.397 1120.66 2323
304.952 1120.66 2323
310.507 1120.66 2323
316.062 1120.66 2323
321.617 1120.66 2323
327.172 1120.66 2323
332.727 1120.66 2323
338.864 1122.59 2327
344.429 1122.59 2327
350.445 1124.03 2330
356.016 1124.03 2330
361.588 1124.03 2330
367.16 1124.03 2330
372.732 1124.03 2330
378.303 1124.03 2330
383.875 1124.03 2330
388.945 1122.59 2327
394.51 1122.59 2327
398.871 1119.21 2320
403.373 1116.31 2314
408.376 1114.87 2311
413.903 1114.87 2311
418.703 1112.94 2307
424.22 1112.94 2307
429.736 1112.94 2307
435.253 1112.94 2307
442.107 1116.31 2314
447.641 1116.31 2314
453.174 1116.31 2314
457.32 1112.94 2307
462.837 1112.94 2307
468.354 1112.94 2307
473.254 1111.49 2304
478.14 1110.04 2301
483.643 1110.04 2301
488.507 1108.59 2298
494.002 1108.59 2298
500.15 1110.04 2301
506.971 1112.94 2307
512.487 1112.94 2307
518.004 1112.94 2307
523.521 1112.94 2307
532.019 1119.21 2320
537.567 1119.21 2320
543.114 1119.21 2320
548.662 1119.21 2320
554.21 1119.21 2320
558.31 1116.31 2314
563.844 1116.31 2314
568.639 1114.87 2311
574.165 1114.87 2311
581.197 1117.76 2317
586.737 1117.76 2317
593.812 1120.66 2323
600.399 1122.59 2327
606.745 1124.03 2330
612.316 1124.03 2330
617.888 1124.03 2330
623.46 1124.03 2330
629.031 1124.03 2330
634.603 1124.03 2330
640.175 1124.03 2330
645.747 1124.03 2330
652.157 1125.48 2333
657.736 1125.48 2333
664.452 1127.41 2337
670.901 1128.86 2340
677.364 1130.3 2343
682.966 1130.3 2343
688.569 1130.3 2343
696.246 1133.68 2350
701.866 1133.68 2350
708.388 1135.13 2353
714.015 1135.13 2353
719.642 1135.13 2353
723.111 1131.75 2346
728.721 1131.75 2346
734.331 1131.75 2346
742.149 1135.13 2353
747.776 1135.13 2353
754.363 1136.58 2356
759.997 1136.58 2356
765.631 1136.58 2356
770.282 1135.13 2353
775.909 1135.13 2353
781.536 1135.13 2353
787.163 1135.13 2353
792.789 1135.13 2353
798.416 1135.13 2353
798.576 1127.41 2337
804.164 1127.41 2337
806.288 1122.59 2327
811.852 1122.59 2327
814.958 1119.21 2320
820.506 1119.21 2320
826.053 1119.21 2320
828.375 1114.87 2311
836.067 1117.76 2317
841.607 1117.76 2317
847.148 1117.76 2317
852.688 1117.76 2317
858.229 1117.76 2317
862.651 1116.31 2314
869.31 1117.76 2317
875.984 1119.21 2320
881.532 1119.21 2320
887.079 1119.21 2320
892.627 1119.21 2320
898.175 1119.21 2320
904.892 1120.66 2323
910.447 1120.66 2323
921.522 1127.41 2337
929.491 1130.3 2343
935.094 1130.3 2343
940.696 1130.3 2343
946.299 1130.3 2343
954.746 1133.68 2350
962.818 1136.58 2356
968.451 1136.58 2356
974.085 1136.58 2356
979.719 1136.58 2356
985.353 1136.58 2356
990.987 1136.58 2356
995.352 1135.13 2353
1000.98 1135.13 2353
1003.61 1131.75 2346
1009.22 1131.75 2346
1014.83 1131.75 2346
1017.83 1128.86 2340
1027.8 1133.68 2350
1033.42 1133.68 2350
1039.04 1133.68 2350
1044.66 1133.68 2350
1050.28 1133.68 2350
1055.9 1133.68 2350
1059.71 1131.75 2346
1065.32 1131.75 2346
1072.76 1133.68 2350
1078.38 1133.68 2350
1086.76 1136.58 2356
1092.4 1136.58 2356
1101.29 1139.95 2363
1106.94 1139.95 2363
1112.6 1139.95 2363
1114.93 1136.58 2356
1120.57 1136.58 2356
1126.2 1136.58 2356
1136.64 1141.4 2366
1142.3 1141.4 2366
1147.95 1141.4 2366
1153.61 1141.4 2366
1159.27 1141.4 2366
1164.93 1141.4 2366
1170.59 1141.4 2366
1176.24 1141.4 2366
1185.4 1144.78 2373
1191.07 1144.78 2373
1196.75 1144.78 2373
1193.81 1136.58 2356
1197.91 1135.13 2353
1203.54 1135.13 2353
1197.35 1124.03 2330
1199.31 1120.66 2323
1200.19 1116.31 2314
1205.73 1116.31 2314
1207.6 1112.94 2307
1209.96 1110.04 2301
1213.88 1108.59 2298
1219.37 1108.59 2298
1224.87 1108.59 2298
1228.76 1107.15 2295
1230.48 1103.77 2288
1235.95 1103.77 2288
1241.42 1103.77 2288
1246.89 1103.77 2288
1252.36 1103.77 2288
1256.19 1102.32 2285
1261.65 1102.32 2285
1267.11 1102.32 2285
1276.48 1105.7 2292
1281.96 1105.7 2292
1289.12 1107.15 2295
1294.61 1107.15 2295
1300.1 1107.15 2295
1305.59 1107.15 2295
1311.08 1107.15 2295
1316.56 1107.15 2295
1328.96 1112.94 2307
1336.79 1114.87 2311
1362.65 1131.75 2346
1368.26 1131.75 2346
1373.87 1131.75 2346
1381.22 1124.03 2330
1386.79 1124.03 2330
1394.15 1125.48 2333
1399.73 1125.48 2333
1407.72 1127.41 2337
1413.31 1127.41 2337
1424.36 1131.75 2346
1440.33 1139.95 2363
1453.94 1146.22 2376
1459.62 1146.22 2376
1473.94 1152.98 2390
1483.98 1156.35 2397
1502.77 1166.48 2418
1508.55 1166.48 2418
1514.33 1166.48 2418
1530.8 1174.69 2435
1536.62 1174.69 2435
1542.45 1174.69 2435
1537.46 1166.48 2418
1543.24 1166.48 2418
1550.95 1167.93 2421
1559.31 1169.86 2425
1565.11 1169.86 2425
1570.91 1169.86 2425
1574.1 1167.93 2421
1579.89 1167.93 2421
1585.68 1167.93 2421
1582.27 1161.18 2407
1588.03 1161.18 2407
1593.78 1161.18 2407
1588.24 1152.98 2390
1587.29 1148.15 2380
1583.61 1141.4 2366
1589.26 1141.4 2366
1588.18 1136.58 2356
1589.76 1133.68 2350
1590.62 1130.3 2343
1594.18 1128.86 2340
1599.78 1128.86 2340
1603.32 1127.41 2337
1610.97 1128.86 2340
1616.57 1128.86 2340
1622.16 1128.86 2340
1627.76 1128.86 2340
1631.26 1127.41 2337
1631.94 1124.03 2330
1637.52 1124.03 2330
1640.97 1122.59 2327
1646.54 1122.59 2327
1656.36 1125.48 2333
1666.93 1128.86 2340
1676.81 1131.75 2346
1682.42 1131.75 2346
1698.1 1138.5 2360
1703.75 1138.5 2360
1711.56 1139.95 2363
1717.21 1139.95 2363
1722.87 1139.95 2363
1730.71 1141.4 2366
1736.37 1141.4 2366
1742.03 1141.4 2366
1747.68 1141.4 2366
1753.34 1141.4 2366
1779.07 1154.42 2393
1784.79 1154.42 2393
1809.22 1166.48 2418
1815.01 1166.48 2418
1820.79 1166.48 2418
1826.57 1166.48 2418
1832.35 1166.48 2418
1819.13 1154.42 2393
1824.85 1154.42 2393
1805.33 1138.5 2360
-1617.42 1111.19 2292
-1620.38 1117.01 2304
-1614.87 1117.01 2304
-1609.36 1117.01 2304
-1603.85 1117.01 2304
-1598.34 1117.01 2304
-1588.68 1114.1 2298
-1583.19 1114.1 2298
-1577.69 1114.1 2298
-1572.2 1114.1 2298
-1566.7 1114.1 2298
-1565.28 1117.01 2304
-1561.81 1118.46 2307
-1556.29 1118.46 2307
-1550.77 1118.46 2307
-1528.51 1106.34 2282
-1515.04 1100.53 2270
-1509.62 1100.53 2270
-1489.61 1089.86 2248
-1484.23 1089.86 2248
-1478.86 1089.86 2248
-1473.48 1089.86 2248
-1468.11 1089.86 2248
-1460.78 1088.4 2245
-1453.47 1086.95 2242
-1432.6 1075.31 2218
-1429.23 1076.77 2221
-1423.92 1076.77 2221
-1418.61 1076.77 2221
-1417.11 1079.68 2227
-1423.2 1088.4 2245
-1417.83 1088.4 2245
-1412.46 1088.4 2245
-1407.09 1088.4 2245
-1401.73 1088.4 2245
-1385.16 1079.68 2227
-1377.98 1078.22 2224
-1372.66 1078.22 2224
-1390.09 1096.16 2261
-1384.68 1096.16 2261
-1379.28 1096.16 2261
-1373.87 1096.16 2261
-1368.46 1096.16 2261
-1363.06 1096.16 2261
-1351.64 1091.31 2251
-1361.21 1103.43 2276
-1362.92 1109.25 2288
-1357.45 1109.25 2288
-1351.98 1109.25 2288
-1341.21 1104.89 2279
-1335.76 1104.89 2279
-1330.31 1104.89 2279
-1321.37 1101.98 2273
-1296.25 1085.5 2239
-1290.9 1085.5 2239
-1276.93 1078.22 2224
-1261.89 1069.98 2207
-1251.49 1065.62 2198
-1251.34 1069.98 2207
-1246.06 1069.98 2207
-1240.78 1069.98 2207
-1235.5 1069.98 2207
-1230.23 1069.98 2207
-1213.29 1059.8 2186
-1208.07 1059.8 2186
-1206.14 1062.71 2192
-1200.9 1062.71 2192
-1195.66 1062.71 2192
-1195.3 1067.07 2201
-1202.47 1078.22 2224
-1197.16 1078.22 2224
-1191.84 1078.22 2224
-1186.52 1078.22 2224
-1181.2 1078.22 2224
-1175.88 1078.22 2224
-1170.57 1078.22 2224
-1165.25 1078.22 2224
-1159.93 1078.22 2224
-1162.4 1085.5 2239
-1157.04 1085.5 2239
-1151.69 1085.5 2239
-1146.34 1085.5 2239
-1137.92 1082.59 2233
-1132.58 1082.59 2233
-1124.22 1079.68 2227
-1123.41 1084.04 2236
-1118.06 1084.04 2236
-1112.72 1084.04 2236
-1107.37 1084.04 2236
-1099.07 1081.13 2230
-1093.73 1081.13 2230
-1088.4 1081.13 2230
-1080.15 1078.22 2224
-1074.84 1078.22 2224
-1076.73 1085.5 2239
-1071.38 1085.5 2239
-1066.02 1085.5 2239
-1053.56 1078.22 2224
-1043.06 1072.89 2213
-1045.74 1081.13 2230
-1040.41 1081.13 2230
-1046.22 1092.77 2254
-1045.44 1097.62 2264
-1048.3 1106.34 2282
-1042.84 1106.34 2282
-1046.02 1115.55 2301
-1040.52 1115.55 2301
-1035.02 1115.55 2301
-1029.51 1115.55 2301
-1024.01 1115.55 2301
-1018.51 1115.55 2301
-1013.01 1115.55 2301
-1004.88 1112.65 2295
-992.422 1104.89 2279
-986.972 1104.89 2279
-981.523 1104.89 2279
-976.073 1104.89 2279
-971.901 1106.34 2282
-966.444 1106.34 2282
-960.987 1106.34 2282
-955.53 1106.34 2282
-950.073 1106.34 2282
-944.616 1106.34 2282
-939.159 1106.34 2282
-932.474 1104.89 2279
-924.584 1101.98 2273
-919.149 1101.98 2273
-913.713 1101.98 2273
-905.88 1099.07 2267
-900.459 1099.07 2267
-895.038 1099.07 2267
-890.794 1100.53 2270
-885.366 1100.53 2270
-881.101 1101.98 2273
-876.821 1103.43 2276
-873.675 1106.34 2282
-868.219 1106.34 2282
-865.03 1109.25 2288
-862.188 1112.65 2295
-858.94 1115.55 2301
-853.438 1115.55 2301
-850.146 1118.46 2307
-849.389 1124.77 2320
-847.479 1129.61 2330
-841.907 1129.61 2330
-837.412 1131.07 2333
-831.833 1131.07 2333
-827.671 1133.01 2337
-822.082 1133.01 2337
-816.494 1133.01 2337
-811.946 1134.46 2340
-806.351 1134.46 2340
-800.755 1134.46 2340
-792.781 1131.07 2333
-785.177 1128.16 2327
-776.262 1123.31 2317
-770.722 1123.31 2317
-763.2 1120.4 2311
-756.362 1118.46 2307
-748.892 1115.55 2301
-743.39 1115.55 2301
-736.926 1114.1 2298
-726.338 1106.34 2282
-718.985 1103.43 2276
-713.543 1103.43 2276
-706.233 1100.53 2270
-698.953 1097.62 2264
-690.476 1092.77 2254
-687.213 1096.16 2261
-681.806 1096.16 2261
-677.297 1097.62 2264
-674.554 1101.98 2273
-669.119 1101.98 2273
-663.683 1101.98 2273
-658.248 1101.98 2273
-652.812 1101.98 2273
-649.086 1104.89 2279
-643.636 1104.89 2279
-639.026 1106.34 2282
-634.402 1107.8 2285
-628.938 1107.8 2285
-623.474 1107.8 2285
-618.01 1107.8 2285
-614.422 1111.19 2292
-611.333 1115.55 2301
-606.62 1117.01 2304
-601.111 1117.01 2304
-598.962 1123.31 2317
-594.189 1124.77 2320
-591.179 1129.61 2330
-585.607 1129.61 2330
-580.035 1129.61 2330
-576.929 1134.46 2340
-571.333 1134.46 2340
-565.738 1134.46 2340
-559.424 1133.01 2337
-553.836 1133.01 2337
-548.247 1133.01 2337
-541.033 1129.61 2330
-535.461 1129.61 2330
-528.298 1126.22 2323
-522.743 1126.22 2323
-515.852 1123.31 2317
-509.651 1121.86 2314
-504.771 1123.31 2317
-499.23 1123.31 2317
-493.689 1123.31 2317
-488.149 1123.31 2317
-481.983 1121.86 2314
-476.45 1121.86 2314
-470.916 1121.86 2314
-465.383 1121.86 2314
-459.253 1120.4 2311
-453.727 1120.4 2311
-447.425 1118.46 2307
-441.333 1117.01 2304
-435.256 1115.55 2301
-429.754 1115.55 2301
-422.592 1111.19 2292
-417.111 1111.19 2292
-411.63 1111.19 2292
-407.213 1114.1 2298
-401.717 1114.1 2298
-396.222 1114.1 2298
-390.727 1114.1 2298
-385.232 1114.1 2298
-379.737 1114.1 2298
-374.241 1114.1 2298
-368.746 1114.1 2298
-363.251 1114.1 2298
-357.756 1114.1 2298
-352.261 1114.1 2298
-346.313 1112.65 2295
-340.825 1112.65 2295
-335.337 1112.65 2295
-328.842 1109.25 2288
-322.523 1106.34 2282
-317.483 1107.8 2285
-312.975 1111.19 2292
-307.494 1111.19 2292
-303.199 1115.55 2301
-298.473 1118.46 2307
-292.956 1118.46 2307
-287.439 1118.46 2307
-281.556 1117.01 2304
-275.687 1115.55 2301
-270.185 1115.55 2301
-264.682 1115.55 2301
-259.856 1118.46 2307
-254.339 1118.46 2307
-248.822 1118.46 2307
-242.989 1117.01 2304
-237.789 1118.46 2307
-232.272 1118.46 2307
-226.755 1118.46 2307
-220.375 1114.1 2298
-214.88 1114.1 2298
-210.569 1120.4 2311
-205.309 1121.86 2314
-199.776 1121.86 2314
-194.242 1121.86 2314
-188.709 1121.86 2314
-182.938 1120.4 2311
-177.412 1120.4 2311
-171.365 1117.01 2304
-165.207 1112.65 2295
-159.023 1107.8 2285
-153.559 1107.8 2285
-148.095 1107.8 2285
-139.385 1082.59 2233
-22.6752 1120.4 2311
-17.1489 1120.4 2311
-11.6226 1120.4 2311
-6.00401 1103.43 2276
-0.561402 1103.43 2276
4.8812 1103.43 2276
15.4893 1084.04 2236
20.8363 1084.04 2236
26.1832 1084.04 2236
31.4879 1082.59 2233
36.7287 1079.68 2227
41.8275 1073.86 2215
47.1243 1073.86 2215
51.8767 1062.71 2192
56.467 1050.59 2167
61.3929 1046.23 2158
107.837 1046.23 2158
112.997 1046.23 2158
118.158 1046.23 2158
123.832 1050.59 2167
129.014 1050.59 2167
134.196 1050.59 2167
139.378 1050.59 2167
144.36 1049.13 2164
222.879 1104.89 2279
228.93 1107.8 2285
234.394 1107.8 2285
239.858 1107.8 2285
247.04 1115.55 2301
254.957 1126.22 2323
260.512 1126.22 2323
266.067 1126.22 2323
271.622 1126.22 2323
277.177 1126.22 2323
282.732 1126.22 2323
288.287 1126.22 2323
293.842 1126.22 2323
299.397 1126.22 2323
304.952 1126.22 2323
310.507 1126.22 2323
316.062 1126.22 2323
321.617 1126.22 2323
327.172 1126.22 2323
332.727 1126.22 2323
338.864 1128.16 2327
344.429 1128.16 2327
350.445 1129.61 2330
356.016 1129.61 2330
361.588 1129.61 2330
367.16 1129.61 2330
372.732 1129.61 2330
378.303 1129.61 2330
383.875 1129.61 2330
388.945 1128.16 2327
394.51 1128.16 2327
398.871 1124.77 2320
403.373 1121.86 2314
408.376 1120.4 2311
413.903 1120.4 2311
418.703 1118.46 2307
424.22 1118.46 2307
429.736 1118.46 2307
435.253 1118.46 2307
440.77 1118.46 2307
443.965 1112.65 2295
449.453 1112.65 2295
454.347 1111.19 2292
459.827 1111.19 2292
464.496 1109.25 2288
469.351 1107.8 2285
474.815 1107.8 2285
480.28 1107.8 2285
485.744 1107.8 2285
491.208 1107.8 2285
496.672 1107.8 2285
503.674 1111.19 2292
509.155 1111.19 2292
515.31 1112.65 2295
521.479 1114.1 2298
528.35 1117.01 2304
534.554 1118.46 2307
540.071 1118.46 2307
545.588 1118.46 2307
550.388 1117.01 2304
555.897 1117.01 2304
560.676 1115.55 2301
565.44 1114.1 2298
571.681 1115.55 2301
578.688 1118.46 2307
584.205 1118.46 2307
591.511 1121.86 2314
599.367 1126.22 2323
604.922 1126.22 2323
610.477 1126.22 2323
617.092 1128.16 2327
622.657 1128.16 2327
628.222 1128.16 2327
633.786 1128.16 2327
638.252 1126.22 2323
643.807 1126.22 2323
650.48 1128.16 2327
656.044 1128.16 2327
663.315 1131.07 2333
670.041 1133.01 2337
676.496 1134.46 2340
682.092 1134.46 2340
687.688 1134.46 2340
694.172 1135.92 2343
699.775 1135.92 2343
706.281 1137.37 2346
711.891 1137.37 2346
717.501 1137.37 2346
722.186 1135.92 2343
727.789 1135.92 2343
733.392 1135.92 2343
738.049 1134.46 2340
743.644 1134.46 2340
749.24 1134.46 2340
754.835 1134.46 2340
760.431 1134.46 2340
766.027 1134.46 2340
771.622 1134.46 2340
777.218 1134.46 2340
782.814 1134.46 2340
787.399 1133.01 2337
792.987 1133.01 2337
798.576 1133.01 2337
799.347 1126.22 2323
800.744 1120.4 2311
806.27 1120.4 2311
811.796 1120.4 2311
817.323 1120.4 2311
820.357 1117.01 2304
824.791 1115.55 2301
832.458 1118.46 2307
837.975 1118.46 2307
844.954 1120.4 2311
850.48 1120.4 2311
856.007 1120.4 2311
861.533 1120.4 2311
868.185 1121.86 2314
874.851 1123.31 2317
880.392 1123.31 2317
885.932 1123.31 2317
891.473 1123.31 2317
897.014 1123.31 2317
903.723 1124.77 2320
909.271 1124.77 2320
917.579 1128.16 2327
928.301 1134.46 2340
933.896 1134.46 2340
940.696 1135.92 2343
946.299 1135.92 2343
951.902 1135.92 2343
960.365 1139.31 2350
965.985 1139.31 2350
971.605 1139.31 2350
978.472 1140.76 2353
984.098 1140.76 2353
989.725 1140.76 2353
994.083 1139.31 2350
998.001 1137.37 2346
1003.61 1137.37 2346
1009.22 1137.37 2346
1010.94 1133.01 2337
1017.83 1134.46 2340
1023.43 1134.46 2340
1030.34 1135.92 2343
1035.94 1135.92 2343
1041.55 1135.92 2343
1047.15 1135.92 2343
1052.75 1135.92 2343
1058.36 1135.92 2343
1063.96 1135.92 2343
1069.56 1135.92 2343
1076.54 1137.37 2346
1084 1139.31 2350
1089.62 1139.31 2350
1096.63 1140.76 2353
1102.26 1140.76 2353
1107.89 1140.76 2353
1113.51 1140.76 2353
1115.81 1137.37 2346
1119.99 1135.92 2343
1125.59 1135.92 2343
1131.19 1135.92 2343
1136.8 1135.92 2343
1143.86 1137.37 2346
1149.47 1137.37 2346
1155.08 1137.37 2346
1160.69 1137.37 2346
1166.3 1137.37 2346
1170.41 1135.92 2343
1176.01 1135.92 2343
1181.62 1135.92 2343
1187.22 1135.92 2343
1189.77 1133.01 2337
1195.36 1133.01 2337
1190.67 1123.31 2317
1191.05 1118.46 2307
1195.01 1117.01 2304
1200.52 1117.01 2304
1202.89 1114.1 2298
1206.8 1112.65 2295
1212.29 1112.65 2295
1217.78 1112.65 2295
1221.67 1111.19 2292
1225.01 1109.25 2288
1227.25 1106.34 2282
1232.71 1106.34 2282
1238.17 1106.34 2282
1243.62 1106.34 2282
1249.08 1106.34 2282
1256.19 1107.8 2285
1261.65 1107.8 2285
1267.11 1107.8 2285
1270.91 1106.34 2282
1276.36 1106.34 2282
1285.19 1109.25 2288
1290.66 1109.25 2288
1296.13 1109.25 2288
1299.9 1107.8 2285
1305.36 1107.8 2285
1303.94 1101.98 2273
1309.38 1101.98 2273
1321.76 1107.8 2285
1327.22 1107.8 2285
1332.68 1107.8 2285
1331.12 1101.98 2273
1378.61 1118.46 2307
1396.13 1128.16 2327
1401.7 1128.16 2327
1407.26 1128.16 2327
1416.47 1131.07 2333
1424.48 1133.01 2337
1435.58 1137.37 2346
1441.19 1137.37 2346
1465.3 1151.92 2376
1473.46 1153.85 2380
1489.72 1162.1 2397
1495.45 1162.1 2397
1514.33 1172.28 2418
1520.11 1172.28 2418
1525.9 1172.28 2418
1531.68 1172.28 2418
1537.46 1172.28 2418
1531.76 1163.55 2400
1537.49 1163.55 2400
1541.3 1162.1 2397
1547.04 1162.1 2397
1550.18 1160.16 2393
1552 1157.25 2387
1557.71 1157.25 2387
1563.41 1157.25 2387
1564.52 1153.85 2380
1570.21 1153.85 2380
1575.9 1153.85 2380
1578.94 1151.92 2376
1577.95 1147.07 2366
1572.9 1139.31 2350
1578.52 1139.31 2350
1584.14 1139.31 2350
1587.05 1137.37 2346
1586.55 1133.01 2337
1592.14 1133.01 2337
1597.73 1133.01 2337
1603.32 1133.01 2337
1608.9 1133.01 2337
1614.49 1133.01 2337
1620.08 1133.01 2337
1625.67 1133.01 2337
1631.26 1133.01 2337
1631.94 1129.61 2330
1637.52 1129.61 2330
1640.97 1128.16 2327
1646.54 1128.16 2327
1656.36 1131.07 2333
1666.93 1134.46 2340
1676.81 1137.37 2346
1682.42 1137.37 2346
1695.23 1142.22 2356
1700.86 1142.22 2356
1709.39 1144.16 2360
1715.03 1144.16 2360
1720.68 1144.16 2360
1726.32 1144.16 2360
1731.96 1144.16 2360
1737.61 1144.16 2360
1743.25 1144.16 2360
1753.34 1147.07 2366
1769.41 1153.85 2380
1775.1 1153.85 2380
1793.51 1162.1 2397
1809.75 1168.88 2411
1815.52 1168.88 2411
1821.28 1168.88 2411
1824.02 1166.94 2407
1816.85 1158.7 2390
1794.35 1140.76 2353
1799.98 1140.76 2353
-1598.12 1099.63 2257
-1617.42 1116.68 2292
-1620.38 1122.53 2304
-1614.87 1122.53 2304
-1609.36 1122.53 2304
-1603.85 1122.53 2304
-1598.34 1122.53 2304
-1588.68 1119.6 2298
-1583.19 1119.6 2298
-1577.69 1119.6 2298
-1572.2 1119.6 2298
-1566.7 1119.6 2298
-1565.28 1122.53 2304
-1561.81 1123.99 2307
-1556.29 1123.99 2307
-1550.77 1123.99 2307
-1528.51 1111.81 2282
-1515.04 1105.96 2270
-1509.62 1105.96 2270
-1489.61 1095.24 2248
-1484.23 1095.24 2248
-1478.86 1095.24 2248
-1473.48 1095.24 2248
-1468.11 1095.24 2248
-1460.78 1093.78 2245
-1453.47 1092.32 2242
-1436.48 1083.55 2224
-1431.16 1083.55 2224
-1423.92 1082.09 2221
-1418.61 1082.09 2221
-1417.11 1085.01 2227
-1423.2 1093.78 2245
-1417.83 1093.78 2245
-1412.46 1093.78 2245
-1407.09 1093.78 2245
-1401.73 1093.78 2245
-1385.16 1085.01 2227
-1377.98 1083.55 2224
-1372.66 1083.55 2224
-1390.09 1101.58 2261
-1384.68 1101.58 2261
-1379.28 1101.58 2261
-1373.87 1101.58 2261
-1368.46 1101.58 2261
-1363.06 1101.58 2261
-1351.64 1096.71 2251
-1361.21 1108.89 2276
-1362.92 1114.73 2288
-1357.45 1114.73 2288
-1351.98 1114.73 2288
-1341.21 1110.35 2279
-1335.76 1110.35 2279
-1330.31 1110.35 2279
-1321.37 1107.42 2273
-1296.25 1090.86 2239
-1290.9 1090.86 2239
-1276.93 1083.55 2224
-1261.89 1075.27 2207
-1251.49 1070.88 2198
-1246.23 1070.88 2198
-1240.98 1070.88 2198
-1235.72 1070.88 2198
-1227.11 1067.96 2192
-1221.87 1067.96 2192
-1212.18 1064.06 2184
-1206.96 1064.06 2184
-1201.74 1064.06 2184
-1196.52 1064.06 2184
-1191.29 1064.06 2184
-1186.07 1064.06 2184
-1191.66 1073.81 2204
-1188.01 1075.27 2207
-1182.73 1075.27 2207
-1177.45 1075.27 2207
-1172.17 1075.27 2207
-1171.13 1079.17 2215
-1165.83 1079.17 2215
-1160.53 1079.17 2215
-1155.23 1079.17 2215
-1159.28 1087.94 2233
-1153.94 1087.94 2233
-1148.6 1087.94 2233
-1143.26 1087.94 2233
-1136.4 1086.47 2230
-1131.06 1086.47 2230
-1122.7 1083.55 2224
-1118.89 1085.01 2227
-1113.56 1085.01 2227
-1108.24 1085.01 2227
-1102.91 1085.01 2227
-1096.11 1083.55 2224
-1090.79 1083.55 2224
-1085.47 1083.55 2224
-1077.24 1080.63 2218
-1066.62 1075.27 2207
-1061.34 1075.27 2207
-1056.07 1075.27 2207
-1050.79 1075.27 2207
-1039.83 1069.42 2195
-1031.75 1066.5 2189
-1032.14 1072.35 2201
-1026.88 1072.35 2201
-1021.61 1072.35 2201
-1022.82 1079.17 2215
-1024.41 1086.47 2230
-1019.08 1086.47 2230
-1013.75 1086.47 2230
-1008.41 1086.47 2230
-1011.18 1095.24 2248
-1005.8 1095.24 2248
-1000.43 1095.24 2248
-995.05 1095.24 2248
-989.674 1095.24 2248
-984.298 1095.24 2248
-977.616 1093.78 2245
-973.547 1095.24 2248
-970.755 1098.17 2254
-965.365 1098.17 2254
-964.234 1103.04 2264
-958.821 1103.04 2264
-953.407 1103.04 2264
-947.993 1103.04 2264
-942.579 1103.04 2264
-935.923 1101.58 2261
-930.516 1101.58 2261
-925.11 1101.58 2261
-916.855 1098.17 2254
-911.466 1098.17 2254
-906.076 1098.17 2254
-898.288 1095.24 2248
-892.912 1095.24 2248
-887.537 1095.24 2248
-885.693 1099.63 2257
-880.296 1099.63 2257
-879.938 1105.96 2270
-874.509 1105.96 2270
-871.378 1108.89 2276
-865.936 1108.89 2276
-862.762 1111.81 2282
-861.061 1116.68 2292
-857.82 1119.6 2298
-852.325 1119.6 2298
-847.935 1121.07 2301
-849.389 1130.32 2320
-843.841 1130.32 2320
-838.294 1130.32 2320
-832.746 1130.32 2320
-828.268 1131.78 2323
-822.713 1131.78 2323
-817.158 1131.78 2323
-810.554 1130.32 2320
-805.007 1130.32 2320
-799.459 1130.32 2320
-793.911 1130.32 2320
-788.363 1130.32 2320
-781.803 1128.86 2317
-774.252 1125.94 2311
-768.726 1125.94 2311
-759.897 1121.07 2301
-754.395 1121.07 2301
-747.916 1119.6 2298
-742.421 1119.6 2298
-732.757 1113.27 2285
-724.428 1108.89 2276
-717.09 1105.96 2270
-711.662 1105.96 2270
-704.367 1103.04 2264
-698.027 1101.58 2261
-689.557 1096.71 2251
-685.086 1098.17 2254
-679.696 1098.17 2254
-676.4 1101.58 2261
-673.664 1105.96 2270
-668.236 1105.96 2270
-662.807 1105.96 2270
-658.248 1107.42 2273
-652.812 1107.42 2273
-648.232 1108.89 2276
-642.789 1108.89 2276
-637.346 1108.89 2276
-632.737 1110.35 2279
-627.287 1110.35 2279
-621.837 1110.35 2279
-616.387 1110.35 2279
-612.546 1113.27 2285
-610.536 1119.6 2298
-605.83 1121.07 2301
-600.328 1121.07 2301
-596.377 1123.99 2307
-591.884 1125.94 2311
-588.642 1130.32 2320
-583.094 1130.32 2320
-578.293 1131.78 2323
-572.738 1131.78 2323
-568.159 1133.73 2327
-562.595 1133.73 2327
-557.03 1133.73 2327
-551.466 1133.73 2327
-545.901 1133.73 2327
-540.337 1133.73 2327
-532.474 1128.86 2317
-526.933 1128.86 2317
-521.393 1128.86 2317
-514.516 1125.94 2311
-507.448 1122.53 2304
-501.938 1122.53 2304
-496.429 1122.53 2304
-490.28 1121.07 2301
-484.778 1121.07 2301
-479.275 1121.07 2301
-473.773 1121.07 2301
-468.271 1121.07 2301
-462.165 1119.6 2298
-456.67 1119.6 2298
-451.174 1119.6 2298
-445.097 1118.14 2295
-439.035 1116.68 2292
-432.797 1114.73 2288
-427.326 1114.73 2288
-420.195 1110.35 2279
-413.654 1107.42 2273
-408.218 1107.42 2273
-402.783 1107.42 2273
-397.347 1107.42 2273
-391.912 1107.42 2273
-387.496 1110.35 2279
-382.047 1110.35 2279
-377.093 1111.81 2282
-371.636 1111.81 2282
-366.179 1111.81 2282
-360.722 1111.81 2282
-355.265 1111.81 2282
-349.808 1111.81 2282
-343.446 1108.89 2276
-338.003 1108.89 2276
-332.56 1108.89 2276
-327.118 1108.89 2276
-320.827 1105.96 2270
-315.816 1107.42 2273
-312.019 1113.27 2285
-306.555 1113.27 2285
-302.013 1116.68 2292
-296.92 1118.14 2295
-291.432 1118.14 2295
-285.944 1118.14 2295
-280.456 1118.14 2295
-274.129 1114.73 2288
-269.48 1118.14 2295
-263.992 1118.14 2295
-258.504 1118.14 2295
-253.016 1118.14 2295
-247.528 1118.14 2295
-240.985 1113.27 2285
-235.521 1113.27 2285
-230.057 1113.27 2285
-224.888 1114.73 2288
-219.416 1114.73 2288
-213.945 1114.73 2288
-209.112 1118.14 2295
-205.043 1125.94 2311
-199.517 1125.94 2311
-193.991 1125.94 2311
-187.893 1122.53 2304
-181.671 1118.14 2295
-176.183 1118.14 2295
-170.472 1116.68 2292
-164.271 1111.81 2282
-158.397 1108.89 2276
-152.954 1108.89 2276
-147.317 1107.42 2273
-139.385 1087.94 2233
-22.6752 1125.94 2311
-17.1489 1125.94 2311
-11.6226 1125.94 2311
-6.00401 1108.89 2276
-0.561402 1108.89 2276
4.8812 1108.89 2276
26.0427 1083.55 2224
31.361 1083.55 2224
36.6792 1083.55 2224
41.6765 1075.27 2207
46.9541 1075.27 2207
51.8767 1067.96 2192
56.467 1055.78 2167
107.687 1049.93 2155
112.997 1051.4 2158
118.158 1051.4 2158
123.832 1055.78 2167
129.014 1055.78 2167
134.196 1055.78 2167
139.378 1055.78 2167
144.36 1054.32 2164
222.585 1108.89 2276
228.329 1110.35 2279
233.778 1110.35 2279
239.228 1110.35 2279
245.322 1113.27 2285
254.957 1131.78 2323
260.512 1131.78 2323
266.067 1131.78 2323
271.271 1130.32 2320
276.819 1130.32 2320
282.367 1130.32 2320
285.557 1121.07 2301
291.439 1122.53 2304
296.948 1122.53 2304
302.851 1123.99 2307
308.368 1123.99 2307
314.429 1125.94 2311
319.955 1125.94 2311
325.904 1127.4 2314
331.438 1127.4 2314
337.408 1128.86 2317
342.949 1128.86 2317
348.489 1128.86 2317
354.03 1128.86 2317
359.571 1128.86 2317
365.111 1128.86 2317
370.652 1128.86 2317
375.706 1127.4 2314
381.239 1127.4 2314
386.271 1125.94 2311
391.797 1125.94 2311
397.324 1125.94 2311
402.153 1123.99 2307
406.609 1121.07 2301
412.112 1121.07 2301
417.614 1121.07 2301
422.013 1118.14 2295
427.501 1118.14 2295
432.989 1118.14 2295
438.477 1118.14 2295
443.965 1118.14 2295
449.453 1118.14 2295
454.347 1116.68 2292
459.827 1116.68 2292
464.496 1114.73 2288
469.351 1113.27 2285
474.815 1113.27 2285
480.28 1113.27 2285
485.744 1113.27 2285
491.208 1113.27 2285
496.672 1113.27 2285
503.674 1116.68 2292
509.155 1116.68 2292
515.31 1118.14 2295
521.479 1119.6 2298
528.35 1122.53 2304
534.554 1123.99 2307
540.071 1123.99 2307
545.588 1123.99 2307
550.388 1122.53 2304
555.897 1122.53 2304
560.676 1121.07 2301
565.44 1119.6 2298
571.681 1121.07 2301
578.688 1123.99 2307
584.205 1123.99 2307
591.511 1127.4 2314
599.367 1131.78 2323
604.922 1131.78 2323
610.477 1131.78 2323
617.092 1133.73 2327
622.657 1133.73 2327
628.222 1133.73 2327
633.786 1133.73 2327
638.252 1131.78 2323
643.807 1131.78 2323
650.48 1133.73 2327
656.044 1133.73 2327
663.315 1136.66 2333
670.041 1138.61 2337
676.496 1140.07 2340
682.092 1140.07 2340
687.688 1140.07 2340
694.172 1141.53 2343
699.775 1141.53 2343
706.281 1142.99 2346
711.891 1142.99 2346
717.501 1142.99 2346
722.186 1141.53 2343
727.789 1141.53 2343
733.392 1141.53 2343
738.049 1140.07 2340
743.644 1140.07 2340
749.24 1140.07 2340
754.835 1140.07 2340
760.431 1140.07 2340
766.027 1140.07 2340
771.622 1140.07 2340
777.218 1140.07 2340
782.814 1140.07 2340
787.399 1138.61 2337
792.987 1138.61 2337
798.576 1138.61 2337
799.347 1131.78 2323
800.744 1125.94 2311
806.27 1125.94 2311
811.796 1125.94 2311
817.323 1125.94 2311
820.357 1122.53 2304
824.791 1121.07 2301
832.458 1123.99 2307
837.975 1123.99 2307
844.954 1125.94 2311
850.48 1125.94 2311
856.007 1125.94 2311
861.533 1125.94 2311
868.185 1127.4 2314
874.851 1128.86 2317
880.392 1128.86 2317
885.932 1128.86 2317
891.473 1128.86 2317
897.014 1128.86 2317
903.723 1130.32 2320
