ply
format ascii 1.0
comment File generated
element vertex 2253
property float x
property float y
property float z
end_header
223.419 359.965 2230
229.367 360.933 2236
234.714 360.933 2236
241.672 363.354 2251
248.481 365.453 2264
253.895 365.453 2264
259.309 365.453 2264
490.8 480.868 2979
497.924 480.868 2979
505.047 480.868 2979
516.813 485.226 3006
526.79 487.809 3022
537.021 490.553 3039
544.288 490.553 3039
552.463 491.36 3044
559.742 491.36 3044
567.021 491.36 3044
574.3 491.36 3044
579.478 489.584 3033
586.73 489.584 3033
593.983 489.584 3033
601.236 489.584 3033
608.489 489.584 3033
616.96 490.553 3039
624.227 490.553 3039
631.494 490.553 3039
638.761 490.553 3039
646.029 490.553 3039
653.296 490.553 3039
660.563 490.553 3039
665.413 488.777 3028
670.21 487.001 3017
677.425 487.001 3017
682.143 485.226 3006
683.14 480.868 2979
690.263 480.868 2979
698.557 481.675 2984
705.693 481.675 2984
712.829 481.675 2984
719.964 481.675 2984
728.562 482.643 2990
735.712 482.643 2990
742.862 482.643 2990
748.507 481.675 2984
755.643 481.675 2984
764.312 482.643 2990
771.462 482.643 2990
778.612 482.643 2990
784.185 481.675 2984
791.321 481.675 2984
797.119 480.868 2979
808.562 483.45 2995
818.72 485.226 3006
828.93 487.001 3017
836.145 487.001 3017
847.832 489.584 3033
859.878 492.328 3050
867.171 492.328 3050
874.465 492.328 3050
881.758 492.328 3050
885.845 490.553 3039
891.349 489.584 3033
901.861 491.36 3044
909.14 491.36 3044
924.849 495.88 3072
940.995 500.561 3101
962.785 508.147 3148
970.313 508.147 3148
998.341 518.801 3214
1016.04 523.966 3246
1023.81 523.966 3246
1031.57 523.966 3246
1039.33 523.966 3246
1050.96 525.904 3258
1061.03 527.033 3265
1068.84 527.033 3265
1084.89 531.069 3290
1097.07 533.167 3303
1118.35 539.624 3343
1126.35 539.624 3343
1153 548.502 3398
1177.87 556.412 3447
1190.93 558.672 3461
1199.21 558.672 3461
1207.49 558.672 3461
1221.03 561.093 3476
1236.77 564.483 3497
1245.13 564.483 3497
1256.36 565.774 3505
1267.27 566.904 3512
1281.12 569.325 3527
1289.55 569.325 3527
1300.56 570.455 3534
1314.57 572.876 3549
1329.02 575.459 3565
1337.54 575.459 3565
1346.07 575.459 3565
1360.29 577.88 3580
1368.86 577.88 3580
1377.42 577.88 3580
1385.98 577.88 3580
1388.69 575.459 3565
1397.22 575.459 3565
1399.44 572.876 3549
1396.42 568.195 3520
1392.86 563.353 3490
1383.94 556.412 3447
1392.19 556.412 3447
1383.37 549.632 3405
1374.34 542.852 3363
1363.48 535.427 3317
1371.41 535.427 3317
1371.02 532.199 3297
1373.47 530.1 3284
1375.86 528.002 3271
1381.14 527.033 3265
1388.95 527.033 3265
1393.76 525.904 3258
1401.55 525.904 3258
1409.34 525.904 3258
1417.13 525.904 3258
1424.92 525.904 3258
1432.72 525.904 3258
1440.51 525.904 3258
1451.41 527.033 3265
1459.22 527.033 3265
1467.02 527.033 3265
1474.83 527.033 3265
1482.64 527.033 3265
1490.45 527.033 3265
1495.04 525.904 3258
1502.83 525.904 3258
1510.62 525.904 3258
1509.56 522.837 3239
1514.49 521.868 3233
1516.58 519.931 3221
1509.61 514.927 3190
1517.24 514.927 3190
1510.52 510.084 3160
1506.55 506.21 3136
1497.15 500.561 3101
1504.57 500.561 3101
1489.55 493.135 3055
1478.24 487.001 3017
1453.94 476.671 2953
1448.14 472.474 2927
1455.14 472.474 2927
1444.16 466.663 2891
1446.05 465.048 2881
1445.38 462.627 2866
1452.23 462.627 2866
1454.5 461.174 2857
1461.33 461.174 2857
1463.03 459.56 2847
1469.83 459.56 2847
1476.64 459.56 2847
1478.24 457.946 2837
1485.02 457.946 2837
1489.18 457.139 2832
1495.95 457.139 2832
1502.72 457.139 2832
1507.36 456.493 2828
1514.13 456.493 2828
1520.89 456.493 2828
1524.95 455.686 2823
1528.99 454.879 2818
1533 454.072 2813
1539.73 454.072 2813
1544.26 453.426 2809
1548.21 452.619 2804
1549.37 451.005 2794
1556.05 451.005 2794
1562.74 451.005 2794
1567.17 450.359 2790
1573.84 450.359 2790
1582.78 451.005 2794
1589.46 451.005 2794
1596.14 451.005 2794
1605.69 451.812 2799
1612.38 451.812 2799
1619.08 451.812 2799
1625.77 451.812 2799
1632.46 451.812 2799
1639.16 451.812 2799
1648.79 452.619 2804
1655.5 452.619 2804
1665.17 453.426 2809
1671.88 453.426 2809
1678.6 453.426 2809
1687.72 454.072 2813
1694.44 454.072 2813
1704.19 454.879 2818
1710.93 454.879 2818
1717.67 454.879 2818
1721.35 454.072 2813
1728.08 454.072 2813
1734.8 454.072 2813
1741.53 454.072 2813
1748.26 454.072 2813
1752.49 453.426 2809
1759.21 453.426 2809
1765.92 453.426 2809
1772.64 453.426 2809
1776.19 452.619 2804
1782.9 452.619 2804
1789.6 452.619 2804
1796.31 452.619 2804
1799.8 451.812 2799
1806.49 451.812 2799
1807.35 450.359 2790
1814.02 450.359 2790
1820.7 450.359 2790
1820.82 448.745 2780
1827.47 448.745 2780
1834.11 448.745 2780
1834.8 447.292 2771
1841.43 447.292 2771
1851.39 448.099 2776
1858.03 448.099 2776
1864.67 448.099 2776
1867.93 447.292 2771
1874.56 447.292 2771
1881.19 447.292 2771
1885.09 446.647 2767
1888.29 445.84 2762
1894.89 445.84 2762
1901.5 445.84 2762
1908.1 445.84 2762
1911.24 445.033 2757
1917.83 445.033 2757
1927.91 445.84 2762
1934.52 445.84 2762
1941.12 445.84 2762
1947.73 445.84 2762
1954.33 445.84 2762
1960.94 445.84 2762
1967.54 445.84 2762
1974.15 445.84 2762
1980.75 445.84 2762
1987.36 445.84 2762
1990.35 445.033 2757
1990.43 443.58 2748
1994.09 442.934 2744
2003.57 443.58 2748
2016.72 445.033 2757
2023.32 445.033 2757
2029.91 445.033 2757
2036.5 445.033 2757
2043.09 445.033 2757
2046.71 444.387 2753
2056.28 445.033 2757
2062.87 445.033 2757
2069.47 445.033 2757
2076.06 445.033 2757
2072.83 442.934 2744
2086.21 444.387 2753
2113.32 448.745 2780
2123.78 449.552 2785
2130.44 449.552 2785
-2131.62 466.38 2847
-2124.81 466.38 2847
-2118 466.38 2847
-2107.49 465.561 2842
-2108.08 467.199 2852
-2108.63 468.837 2862
-2101.79 468.837 2862
-2094.94 468.837 2862
-2088.1 468.837 2862
-2077.62 468.018 2857
-2070.79 468.018 2857
-2056.73 466.38 2847
-2049.92 466.38 2847
-2039.53 465.561 2842
-2043.46 468.018 2857
-2036.63 468.018 2857
-2064.61 476.045 2906
-2057.66 476.045 2906
-2050.71 476.045 2906
-2043.76 476.045 2906
-2036.81 476.045 2906
-2012.4 471.95 2881
-2005.51 471.95 2881
-1995.15 471.131 2876
-1988.27 471.131 2876
-1981.4 471.131 2876
-1974.52 471.131 2876
-1967.64 471.131 2876
-1960.76 471.131 2876
-1953.89 471.131 2876
-1947.01 471.131 2876
-1940.13 471.131 2876
-1933.26 471.131 2876
-1926.38 471.131 2876
-1929.51 473.588 2891
-1922.6 473.588 2891
-1925.62 476.045 2906
-1925.94 477.847 2917
-1918.96 477.847 2917
-1911.99 477.847 2917
-1905.01 477.847 2917
-1904.54 479.485 2927
-1904.03 481.124 2937
-1897 481.124 2937
-1903.49 484.564 2958
-1923.35 491.444 3000
-1930.23 495.048 3022
-1923 495.048 3022
-1922.75 496.85 3033
-1950.86 506.023 3089
-1943.47 506.023 3089
-1947.37 508.972 3107
-1939.94 508.972 3107
-1935.62 509.791 3112
-1928.18 509.791 3112
-1924.44 510.774 3118
-1935.43 515.688 3148
-1935.25 517.654 3160
-1927.69 517.654 3160
-1931.07 520.603 3178
-1923.47 520.603 3178
-1915.87 520.603 3178
-1908.27 520.603 3178
-1897.09 519.62 3172
-1914.52 526.5 3214
-1929.38 532.725 3252
-1921.6 532.725 3252
-1936.19 538.95 3290
-1947.66 544.356 3323
-1959.56 549.926 3357
-1951.54 549.926 3357
-1943.51 549.926 3357
-1947.01 553.202 3377
-1967.07 561.229 3426
-1958.88 561.229 3426
-1970.61 566.962 3461
-1974.81 570.566 3483
-1966.48 570.566 3483
-1958.15 570.566 3483
-1970.54 576.628 3520
-1962.12 576.628 3520
-1965.91 580.231 3542
-1957.44 580.231 3542
-1948.97 580.231 3542
-1944.34 581.378 3549
-1935.85 581.378 3549
-1927.36 581.378 3549
-1923.2 582.689 3557
-1927.08 586.456 3580
-1918.52 586.456 3580
-1909.96 586.456 3580
-1901.4 586.456 3580
-1892.83 586.456 3580
-1888.48 587.767 3588
-1879.9 587.767 3588
-1874.97 588.914 3595
-1870.53 590.224 3603
-1861.92 590.224 3603
-1853.3 590.224 3603
-1844.68 590.224 3603
-1836.07 590.224 3603
-1827.45 590.224 3603
-1818.84 590.224 3603
-1814.24 591.535 3611
-1805.6 591.535 3611
-1796.97 591.535 3611
-1784.37 590.224 3603
-1783.64 592.845 3619
-1778.91 594.156 3627
-1774.14 595.466 3635
-1765.45 595.466 3635
-1756.76 595.466 3635
-1751.43 596.613 3642
-1758.51 602.019 3675
-1749.73 602.019 3675
-1740.94 602.019 3675
-1739.69 604.64 3691
-1734.62 605.95 3699
-1725.77 605.95 3699
-1728.53 610.046 3724
-1727.01 612.667 3740
-1730.01 616.926 3766
-1721.01 616.926 3766
-1719.73 619.711 3783
-1714.75 621.185 3792
-1713.33 623.97 3809
-1704.22 623.97 3809
-1695.12 623.97 3809
-1686.01 623.97 3809
-1676.9 623.97 3809
-1656.41 619.711 3783
-1628.63 612.667 3740
-1588.08 600.708 3667
-1565.53 595.466 3635
-1556.83 595.466 3635
-1537.92 591.535 3611
-1516.16 586.456 3580
-1494.54 581.378 3549
-1486.05 581.378 3549
-1468.41 577.774 3527
-1453.76 575.317 3512
-1439.19 572.86 3497
-1430.83 572.86 3497
-1407.82 566.962 3461
-1396.72 565.816 3454
-1371.57 558.935 3412
-1363.42 558.935 3412
-1341.35 553.202 3377
-1322.62 548.779 3350
-1306.76 545.503 3330
-1298.8 545.503 3330
-1290.83 545.503 3330
-1282.87 545.503 3330
-1274.91 545.503 3330
-1266.94 545.503 3330
-1258.98 545.503 3330
-1251.02 545.503 3330
-1235.59 542.226 3310
-1227.67 542.226 3310
-1219.76 542.226 3310
-1211.84 542.226 3310
-1203.93 542.226 3310
-1188.79 538.95 3290
-1180.92 538.95 3290
-1170.91 537.967 3284
-1160.93 536.984 3278
-1153.1 536.984 3278
-1160.98 544.356 3323
-1153.03 544.356 3323
-1151.98 547.632 3343
-1143.98 547.632 3343
-1135.99 547.632 3343
-1128 547.632 3343
-886.599 477.847 2917
-879.624 477.847 2917
-872.648 477.847 2917
-865.673 477.847 2917
-841.561 476.045 2906
-834.612 476.045 2906
-827.663 476.045 2906
-820.714 476.045 2906
-813.765 476.045 2906
-808.204 476.864 2911
-801.243 476.864 2911
-798.647 479.485 2927
-791.648 479.485 2927
-784.648 479.485 2927
-777.649 479.485 2927
-770.65 479.485 2927
-763.651 479.485 2927
-756.651 479.485 2927
-749.652 479.485 2927
-740.115 477.847 2917
-733.14 477.847 2917
-729.898 480.305 2932
-722.887 480.305 2932
-722.224 484.564 2958
-715.151 484.564 2958
-708.077 484.564 2958
-691.287 477.847 2917
-654.587 508.972 3107
-647.157 508.972 3107
-639.727 508.972 3107
-634.257 563.522 3440
-633.856 570.566 3483
-625.527 570.566 3483
-619.679 572.86 3497
-611.317 572.86 3497
-602.954 572.86 3497
-594.592 572.86 3497
-590.085 576.628 3520
-581.668 576.628 3520
-575.531 578.921 3534
-567.08 578.921 3534
-561 581.378 3549
-555.004 583.999 3565
-547.552 585.146 3572
-539.01 585.146 3572
-531.657 586.456 3580
-524.265 587.767 3588
-520.14 592.845 3619
-511.486 592.845 3619
-502.832 592.845 3619
-494.178 592.845 3619
-485.524 592.845 3619
-476.87 592.845 3619
-467.18 591.535 3611
-458.545 591.535 3611
-449.91 591.535 3611
-441.275 591.535 3611
-432.64 591.535 3611
-425.884 594.156 3627
-419.857 597.923 3650
-411.128 597.923 3650
-402.4 597.923 3650
-395.505 600.708 3667
-387.58 602.019 3675
-378.792 602.019 3675
-372.42 605.95 3699
-365.246 608.735 3716
-358.661 612.667 3740
-349.718 612.667 3740
-342.323 615.452 3757
-335.646 619.711 3783
-328.068 622.496 3800
-318.981 622.496 3800
-312.748 628.229 3835
-305.715 632.652 3862
-300.625 641.498 3916
-291.261 641.498 3916
-283.912 646.085 3944
-274.481 646.085 3944
-265.049 646.085 3944
-255.035 644.611 3935
-243.315 638.549 3898
-233.994 638.549 3898
-225.191 640.024 3907
-215.849 640.024 3907
-206.506 640.024 3907
-194.892 632.652 3862
-102.972 350.891 2142
-97.8496 350.891 2142
-92.7274 350.891 2142
-87.6053 350.891 2142
-82.4831 350.891 2142
-77.4332 351.219 2144
-72.3062 351.219 2144
-67.2732 351.71 2147
-62.1391 351.71 2147
-57.005 351.71 2147
-51.8709 351.71 2147
-46.802 352.201 2150
-41.6607 352.201 2150
-36.5194 352.201 2150
-31.3781 352.201 2150
-26.2368 352.201 2150
-21.0955 352.201 2150
-15.9542 352.201 2150
-10.8129 352.201 2150
-5.67954 352.693 2153
-0.531062 352.693 2153
4.61741 352.693 2153
9.76589 352.693 2153
14.9144 352.693 2153
20.1094 353.512 2158
25.305 354.003 2161
30.67 356.297 2175
35.8711 356.297 2175
41.0722 356.297 2175
46.3371 356.788 2178
51.6874 357.771 2184
56.91 357.771 2184
62.2748 358.59 2189
67.5094 358.59 2189
72.8436 359.082 2192
78.0854 359.082 2192
83.4411 359.573 2195
88.8113 360.065 2198
94.1957 360.556 2201
99.459 360.556 2201
104.865 361.047 2204
110.135 361.047 2204
115.72 362.03 2210
121.005 362.03 2210
126.29 362.03 2210
131.396 361.539 2207
136.673 361.539 2207
141.951 361.539 2207
147.229 361.539 2207
152.506 361.539 2207
157.784 361.539 2207
162.618 360.556 2201
167.881 360.556 2201
173.853 362.03 2210
179.381 362.522 2213
184.839 362.849 2215
190.136 362.849 2215
195.433 362.849 2215
200.73 362.849 2215
206.026 362.849 2215
211.323 362.849 2215
217.207 363.832 2221
223.419 365.307 2230
229.367 366.29 2236
234.714 366.29 2236
241.672 368.747 2251
248.481 370.876 2264
253.895 370.876 2264
259.309 370.876 2264
490.8 488.004 2979
497.924 488.004 2979
505.047 488.004 2979
516.813 492.427 3006
529.754 497.833 3039
537.905 498.652 3044
545.184 498.652 3044
553.552 499.635 3050
562.868 501.437 3061
570.188 501.437 3061
577.508 501.437 3061
583.681 500.454 3055
592.147 501.437 3061
599.467 501.437 3061
606.787 501.437 3061
614.106 501.437 3061
622.644 502.419 3067
629.978 502.419 3067
637.312 502.419 3067
644.647 502.419 3067
651.981 502.419 3067
659.315 502.419 3067
665.345 501.437 3061
668.929 498.652 3044
672.654 496.031 3028
679.894 496.031 3028
684.639 494.229 3017
689.331 492.427 3006
693.971 490.625 2995
698.557 488.823 2984
708.295 490.625 2995
715.457 490.625 2995
723.825 491.444 3000
730.999 491.444 3000
738.173 491.444 3000
745.347 491.444 3000
751.266 490.625 2995
758.428 490.625 2995
768.402 492.427 3006
775.59 492.427 3006
782.779 492.427 3006
789.967 492.427 3006
798.481 493.246 3011
805.681 493.246 3011
812.881 493.246 3011
827.708 497.833 3039
841.02 501.437 3061
848.339 501.437 3061
858.734 503.239 3072
867.772 504.221 3078
876.838 505.204 3084
884.213 505.204 3084
891.588 505.204 3084
897.213 504.221 3078
904.574 504.221 3078
915.193 506.023 3089
922.58 506.023 3089
931.773 507.006 3095
951.616 513.723 3136
964.62 516.671 3154
972.162 516.671 3154
998.341 526.5 3214
1006.03 526.5 3214
1017.81 528.63 3227
1025.53 528.63 3227
1039.33 531.742 3246
1055.16 535.838 3271
1069.15 538.95 3290
1077.02 538.95 3290
1084.89 538.95 3290
1106.04 545.503 3330
1136.75 556.642 3398
1144.88 556.642 3398
1167.26 563.522 3440
1187.78 569.42 3476
1196.09 569.42 3476
1204.41 569.42 3476
1217.6 571.713 3490
1228.41 572.86 3497
1242.08 575.317 3512
1250.47 575.317 3512
1261.74 576.628 3520
1272.68 577.774 3527
1286.57 580.231 3542
1295.04 580.231 3542
1306.08 581.378 3549
1320.49 583.999 3565
1331.63 585.146 3572
1340.17 585.146 3572
1351.73 586.456 3580
1363.33 587.767 3588
1371.91 587.767 3588
1380.49 587.767 3588
1389.07 587.767 3588
1388.69 583.999 3565
1397.22 583.999 3565
1399.44 581.378 3549
1401.97 578.921 3534
1398.85 574.17 3505
1389.56 566.962 3461
1397.84 566.962 3461
1397.59 563.522 3440
1388.65 556.642 3398
1379.92 549.926 3357
1387.95 549.926 3357
1379.34 543.373 3317
1375.98 538.95 3290
1378.8 536.984 3278
1381.14 534.855 3265
1388.95 534.855 3265
1396.76 534.855 3265
1401.55 533.708 3258
1409.34 533.708 3258
1417.13 533.708 3258
1422.3 532.725 3252
1430.08 532.725 3252
1437.85 532.725 3252
1448.3 533.708 3258
1456.09 533.708 3258
1467.02 534.855 3265
1474.83 534.855 3265
1482.64 534.855 3265
1490.45 534.855 3265
1495.04 533.708 3258
1500.07 532.725 3252
1507.84 532.725 3252
1509.56 530.596 3239
1514.49 529.613 3233
1516.58 527.647 3221
1509.61 522.569 3190
1517.24 522.569 3190
1510.52 517.654 3160
1506.55 513.723 3136
1497.15 507.989 3101
1504.57 507.989 3101
1492.48 501.437 3061
1480.69 495.048 3022
1458.87 485.383 2963
1453.09 481.124 2937
1460.11 481.124 2937
1449.15 475.226 2901
1446.05 471.95 2881
1445.38 469.493 2866
1452.23 469.493 2866
1454.5 468.018 2857
1461.33 468.018 2857
1463.03 466.38 2847
1469.83 466.38 2847
1476.64 466.38 2847
1478.24 464.742 2837
1485.02 464.742 2837
1489.18 463.923 2832
1495.95 463.923 2832
1502.72 463.923 2832
1507.36 463.268 2828
1514.13 463.268 2828
1520.89 463.268 2828
1524.95 462.449 2823
1528.99 461.63 2818
1533 460.811 2813
1539.73 460.811 2813
1544.26 460.155 2809
1548.21 459.336 2804
1552.15 458.517 2799
1558.84 458.517 2799
1562.74 457.698 2794
1567.17 457.043 2790
1573.84 457.043 2790
1582.78 457.698 2794
1592.3 458.517 2799
1599 458.517 2799
1608.56 459.336 2804
1615.26 459.336 2804
1621.97 459.336 2804
1628.68 459.336 2804
1635.38 459.336 2804
1642.09 459.336 2804
1651.73 460.155 2809
1658.45 460.155 2809
1667.54 460.811 2813
1674.26 460.811 2813
1683.98 461.63 2818
1690.72 461.63 2818
1697.46 461.63 2818
1704.19 461.63 2818
1710.93 461.63 2818
1717.67 461.63 2818
1724.41 461.63 2818
1731.15 461.63 2818
1737.89 461.63 2818
1744.63 461.63 2818
1751.36 461.63 2818
1754.98 460.811 2813
1761.71 460.811 2813
1768.44 460.811 2813
1775.16 460.811 2813
1781.89 460.811 2813
1786.07 460.155 2809
1792.79 460.155 2809
1799.51 460.155 2809
1803.01 459.336 2804
1806.49 458.517 2799
1809.94 457.698 2794
1816.62 457.698 2794
1820.7 457.043 2790
1824.09 456.224 2785
1830.75 456.224 2785
1837.41 456.224 2785
1840.76 455.405 2780
1844.75 454.749 2776
1851.39 454.749 2776
1858.03 454.749 2776
1864.67 454.749 2776
1867.93 453.93 2771
1874.56 453.93 2771
1881.19 453.93 2771
1885.09 453.275 2767
1884.87 451.637 2757
1891.46 451.637 2757
1898.05 451.637 2757
1904.65 451.637 2757
1911.24 451.637 2757
1915.05 450.982 2753
1924.42 451.637 2757
1931.02 451.637 2757
1937.61 451.637 2757
1944.2 451.637 2757
1954.33 452.456 2762
1960.94 452.456 2762
1967.54 452.456 2762
1974.15 452.456 2762
1980.75 452.456 2762
1987.36 452.456 2762
1990.35 451.637 2757
1990.43 450.163 2748
1994.09 449.507 2744
2003.57 450.163 2748
2016.72 451.637 2757
2023.32 451.637 2757
2029.91 451.637 2757
2036.5 451.637 2757
2043.09 451.637 2757
2040.02 449.507 2744
2053.3 450.982 2753
2059.88 450.982 2753
2066.46 450.982 2753
2069.28 450.163 2748
2072.83 449.507 2744
2079.39 449.507 2744
2085.96 449.507 2744
2092.52 449.507 2744
2095.25 448.688 2739
-2131.62 473.2 2847
-2124.81 473.2 2847
-2118 473.2 2847
-2107.49 472.369 2842
-2108.08 474.031 2852
-2108.63 475.693 2862
-2101.79 475.693 2862
-2094.94 475.693 2862
-2088.1 475.693 2862
-2077.62 474.862 2857
-2070.79 474.862 2857
-2056.73 473.2 2847
-2049.92 473.2 2847
-2039.53 472.369 2842
-2043.46 474.862 2857
-2036.63 474.862 2857
-2064.61 483.007 2906
-2057.66 483.007 2906
-2050.71 483.007 2906
-2043.76 483.007 2906
-2036.81 483.007 2906
-2012.4 478.851 2881
-2005.51 478.851 2881
-1995.15 478.02 2876
-1988.27 478.02 2876
-1981.4 478.02 2876
-1974.52 478.02 2876
-1967.64 478.02 2876
-1960.76 478.02 2876
-1953.89 478.02 2876
-1947.01 478.02 2876
-1940.13 478.02 2876
-1933.26 478.02 2876
-1926.38 478.02 2876
-1929.51 480.514 2891
-1922.6 480.514 2891
-1925.62 483.007 2906
-1925.94 484.835 2917
-1918.96 484.835 2917
-1911.99 484.835 2917
-1905.01 484.835 2917
-1904.54 486.497 2927
-1904.03 488.159 2937
-1897 488.159 2937
-1903.49 491.65 2958
-1923.35 498.63 3000
-1930.23 502.287 3022
-1923 502.287 3022
-1922.75 504.115 3033
-1950.86 513.423 3089
-1943.47 513.423 3089
-1947.37 516.415 3107
-1939.94 516.415 3107
-1935.62 517.246 3112
-1928.18 517.246 3112
-1924.44 518.243 3118
-1935.43 523.229 3148
-1935.25 525.224 3160
-1927.69 525.224 3160
-1931.07 528.216 3178
-1923.47 528.216 3178
-1915.87 528.216 3178
-1908.27 528.216 3178
-1897.09 527.219 3172
-1914.52 534.199 3214
-1929.38 540.515 3252
-1921.6 540.515 3252
-1936.19 546.831 3290
-1947.66 552.316 3323
-1959.56 557.967 3357
-1951.54 557.967 3357
-1943.51 557.967 3357
-1947.01 561.292 3377
-1967.07 569.436 3426
-1958.88 569.436 3426
-1970.61 575.253 3461
-1974.81 578.91 3483
-1966.48 578.91 3483
-1958.15 578.91 3483
-1970.54 585.06 3520
-1962.12 585.06 3520
-1965.91 588.716 3542
-1957.44 588.716 3542
-1948.97 588.716 3542
-1944.34 589.88 3549
-1935.85 589.88 3549
-1927.36 589.88 3549
-1923.2 591.209 3557
-1927.08 595.032 3580
-1918.52 595.032 3580
-1909.96 595.032 3580
-1901.4 595.032 3580
-1892.83 595.032 3580
-1888.48 596.362 3588
-1879.9 596.362 3588
-1874.97 597.525 3595
-1870.53 598.855 3603
-1861.92 598.855 3603
-1853.3 598.855 3603
-1844.68 598.855 3603
-1836.07 598.855 3603
-1827.45 598.855 3603
-1818.84 598.855 3603
-1810.22 598.855 3603
-1801.6 598.855 3603
-1792.99 598.855 3603
-1784.37 598.855 3603
-1779.7 600.185 3611
-1774.99 601.514 3619
-1766.33 601.514 3619
-1757.68 601.514 3619
-1752.89 602.844 3627
-1744.22 602.844 3627
-1746.55 606.667 3650
-1737.82 606.667 3650
-1740.94 610.822 3675
-1739.69 613.482 3691
-1734.62 614.811 3699
-1725.77 614.811 3699
-1728.53 618.967 3724
-1727.01 621.626 3740
-1730.01 625.947 3766
-1721.01 625.947 3766
-1719.73 628.773 3783
-1718.37 631.599 3800
-1720.98 635.92 3826
-1711.83 635.92 3826
-1702.68 635.92 3826
-1686.01 633.094 3809
-1676.9 633.094 3809
-1656.41 628.773 3783
-1628.63 621.626 3740
-1588.08 609.493 3667
-1565.53 604.174 3635
-1556.83 604.174 3635
-1537.92 600.185 3611
-1516.16 595.032 3580
-1494.54 589.88 3549
-1486.05 589.88 3549
-1468.41 586.223 3527
-1457.08 585.06 3520
-1442.49 582.567 3505
-1434.1 582.567 3505
-1410.67 576.417 3468
-1399.55 575.253 3461
-1374.39 568.272 3419
-1366.21 568.272 3419
-1344.13 562.455 3384
-1325.38 557.967 3357
-1311.86 555.641 3343
-1303.87 555.641 3343
-1295.87 555.641 3343
-1285.57 554.643 3337
-1285.24 557.967 3357
-1282.16 560.128 3370
-1274.1 560.128 3370
-1266.05 560.128 3370
-1257.99 560.128 3370
-1247.33 558.965 3363
-1239.29 558.965 3363
-1231.25 558.965 3363
-1223.21 558.965 3363
-1213 557.967 3357
-1204.97 557.967 3357
-1191.95 555.641 3343
-1183.96 555.641 3343
-1175.96 555.641 3343
-1177.4 560.128 3370
-1169.34 560.128 3370
-1161.28 560.128 3370
-1150.83 558.965 3363
-1142.79 558.965 3363
-1128 555.641 3343
-1115.65 553.48 3330
-886.599 484.835 2917
-879.624 484.835 2917
-872.648 484.835 2917
-865.673 484.835 2917
-841.561 483.007 2906
-834.612 483.007 2906
-827.663 483.007 2906
-820.714 483.007 2906
-813.765 483.007 2906
-808.204 483.838 2911
-801.243 483.838 2911
-798.647 486.497 2927
-791.648 486.497 2927
-784.648 486.497 2927
-777.649 486.497 2927
-770.65 486.497 2927
-763.651 486.497 2927
-756.651 486.497 2927
-749.652 486.497 2927
-742.652 486.497 2927
-735.653 486.497 2927
-729.898 487.328 2932
-722.887 487.328 2932
-722.224 491.65 2958
-715.151 491.65 2958
-708.077 491.65 2958
-691.287 484.835 2917
-654.587 516.415 3107
-647.157 516.415 3107
-738.765 596.362 3588
-730.185 596.362 3588
-721.605 596.362 3588
-642.483 571.763 3440
-642.185 578.91 3483
-633.856 578.91 3483
-634.687 587.387 3534
-626.236 587.387 3534
-617.785 587.387 3534
-608.127 586.223 3527
-599.693 586.223 3527
-593.773 588.716 3542
-587.782 591.209 3557
-581.719 593.703 3572
-573.177 593.703 3572
-565.9 595.032 3580
-558.585 596.362 3588
-550.005 596.362 3588
-541.425 596.362 3588
-533.884 597.525 3595
-526.456 598.855 3603
-520.14 601.514 3619
-511.486 601.514 3619
-502.832 601.514 3619
-494.178 601.514 3619
-485.524 601.514 3619
-476.87 601.514 3619
-467.18 600.185 3611
-458.545 600.185 3611
-449.91 600.185 3611
-441.275 600.185 3611
-432.64 600.185 3611
-425.884 602.844 3627
-419.857 606.667 3650
-411.128 606.667 3650
-402.4 606.667 3650
-395.505 609.493 3667
-387.58 610.822 3675
-378.792 610.822 3675
-372.42 614.811 3699
-365.246 617.637 3716
-358.661 621.626 3740
-349.718 621.626 3740
-343.144 625.947 3766
-337.155 631.599 3800
-328.845 633.094 3809
-319.736 633.094 3809
-313.482 638.912 3844
-305.715 641.904 3862
-300.625 650.879 3916
-291.261 650.879 3916
-283.912 655.533 3944
-274.481 655.533 3944
-265.049 655.533 3944
-255.035 654.037 3935
-245.001 652.375 3925
-234.534 649.383 3907
-225.191 649.383 3907
-215.849 649.383 3907
-206.506 649.383 3907
-194.892 641.904 3862
-102.972 356.022 2142
-97.8496 356.022 2142
-92.7274 356.022 2142
-87.6053 356.022 2142
-82.4831 356.022 2142
-77.4332 356.355 2144
-72.3062 356.355 2144
-67.2732 356.853 2147
-62.1391 356.853 2147
-57.005 356.853 2147
-51.8709 356.853 2147
-46.802 357.352 2150
-41.6607 357.352 2150
-36.5194 357.352 2150
-31.3781 357.352 2150
-26.2368 357.352 2150
-21.0955 357.352 2150
-15.9542 357.352 2150
-10.8129 357.352 2150
-5.67954 357.85 2153
-0.531062 357.85 2153
4.61741 357.85 2153
9.76589 357.85 2153
14.9144 357.85 2153
20.1094 358.681 2158
25.305 359.18 2161
30.67 361.507 2175
35.8711 361.507 2175
41.0722 361.507 2175
46.3371 362.006 2178
51.6874 363.003 2184
56.91 363.003 2184
62.2748 363.834 2189
67.5094 363.834 2189
72.8436 364.333 2192
78.0854 364.333 2192
83.4411 364.831 2195
88.8113 365.33 2198
94.1957 365.829 2201
99.459 365.829 2201
104.865 366.327 2204
110.285 366.826 2207
115.72 367.324 2210
121.005 367.324 2210
126.29 367.324 2210
131.396 366.826 2207
136.673 366.826 2207
141.951 366.826 2207
147.229 366.826 2207
152.506 366.826 2207
157.784 366.826 2207
162.618 365.829 2201
167.881 365.829 2201
173.853 367.324 2210
179.381 367.823 2213
184.839 368.155 2215
190.136 368.155 2215
195.433 368.155 2215
200.73 368.155 2215
206.026 368.155 2215
211.323 368.155 2215
217.207 369.153 2221
223.419 370.649 2230
229.367 371.646 2236
234.714 371.646 2236
241.672 374.139 2251
248.481 376.3 2264
253.895 376.3 2264
259.309 376.3 2264
529.754 505.113 3039
537.905 505.944 3044
545.184 505.944 3044
555.548 508.769 3061
562.868 508.769 3061
570.188 508.769 3061
577.508 508.769 3061
584.827 508.769 3061
592.147 508.769 3061
602.796 511.595 3078
610.157 511.595 3078
617.517 511.595 3078
624.877 511.595 3078
632.238 511.595 3078
639.598 511.595 3078
646.959 511.595 3078
654.319 511.595 3078
661.68 511.595 3078
669.04 511.595 3078
673.983 509.766 3067
676.208 505.944 3044
683.487 505.944 3044
689.632 505.113 3039
693 502.287 3022
696.519 499.628 3006
702.303 498.63 3000
709.477 498.63 3000
716.651 498.63 3000
723.825 498.63 3000
730.999 498.63 3000
738.173 498.63 3000
745.347 498.63 3000
752.521 498.63 3000
761.214 499.628 3006
771.214 501.456 3017
778.428 501.456 3017
785.643 501.456 3017
792.858 501.456 3017
802.989 503.284 3028
810.23 503.284 3028
820.441 505.113 3039
835.334 509.766 3067
845.69 511.595 3078
853.051 511.595 3078
865.163 514.42 3095
874.256 515.418 3101
881.671 515.418 3101
889.087 515.418 3101
894.768 514.42 3095
902.169 514.42 3095
909.57 514.42 3095
922.008 517.246 3112
929.449 517.246 3112
944.116 521.235 3136
962.54 527.219 3172
970.125 527.219 3172
977.71 527.219 3172
989.023 529.213 3184
1006.03 534.199 3214
1017.81 536.36 3227
1025.53 536.36 3227
1039.33 539.518 3246
1061.29 546.831 3290
1079.88 552.316 3323
1087.82 552.316 3323
1100.39 554.643 3337
1119.33 560.128 3370
1146.12 569.436 3426
1154.31 569.436 3426
1176.76 576.417 3468
1192.57 580.073 3490
1203.32 581.237 3497
1211.68 581.237 3497
1220.05 581.237 3497
1231.22 582.567 3505
1244.91 585.06 3520
1253.32 585.06 3520
1264.25 586.223 3527
1278.1 588.716 3542
1289.11 589.88 3549
1297.59 589.88 3549
1311.97 592.539 3565
1323.09 593.703 3572
1334.61 595.032 3580
1343.17 595.032 3580
1351.73 595.032 3580
1365.99 597.525 3595
1374.59 597.525 3595
1383.19 597.525 3595
1391.78 597.525 3595
1388.69 592.539 3565
1397.22 592.539 3565
1399.44 589.88 3549
1401.97 587.387 3534
1398.85 582.567 3505
1389.56 575.253 3461
1397.84 575.253 3461
1400.43 572.926 3447
1388.65 564.782 3398
1379.92 557.967 3357
1387.95 557.967 3357
1379.34 551.319 3317
1384.35 550.156 3310
1383.85 546.831 3290
1383.68 543.673 3271
1391.5 543.673 3271
1396.76 542.676 3265
1401.55 541.513 3258
1409.34 541.513 3258
1417.13 541.513 3258
1422.3 540.515 3252
1430.08 540.515 3252
1437.85 540.515 3252
1445.63 540.515 3252
1453.41 540.515 3252
1463.88 541.513 3258
1471.67 541.513 3258
1479.46 541.513 3258
1487.25 541.513 3258
1492.29 540.515 3252
1494.07 538.355 3239
1501.81 538.355 3239
1506.76 537.357 3233
1511.68 536.36 3227
1513.28 534.199 3214
1506.77 529.213 3184
1514.38 529.213 3184
1507.66 524.227 3154
1503.67 520.238 3130
1494.26 514.42 3095
1501.66 514.42 3095
1495.41 509.766 3067
1486.08 504.115 3033
1469.21 495.971 2984
1463.48 491.65 2958
1470.55 491.65 2958
1457.15 484.835 2917
1448.56 479.682 2886
1447.9 477.189 2871
1454.76 477.189 2871
1457.05 475.693 2862
1461.33 474.862 2857
1463.03 473.2 2847
1469.83 473.2 2847
1474.05 472.369 2842
1478.24 471.538 2837
1482.41 470.707 2832
1489.18 470.707 2832
1495.95 470.707 2832
1502.72 470.707 2832
1507.36 470.042 2828
1511.45 469.211 2823
1518.2 469.211 2823
1522.25 468.38 2818
1526.28 467.549 2813
1533 467.549 2813
1539.73 467.549 2813
1544.26 466.884 2809
1548.21 466.053 2804
1552.15 465.222 2799
1558.84 465.222 2799
1562.74 464.391 2794
1567.17 463.726 2790
1573.84 463.726 2790
1582.78 464.391 2794
1592.3 465.222 2799
1599 465.222 2799
1608.56 466.053 2804
1615.26 466.053 2804
1621.97 466.053 2804
1628.68 466.053 2804
1635.38 466.053 2804
1642.09 466.053 2804
1651.73 466.884 2809
1658.45 466.884 2809
1667.54 467.549 2813
1674.26 467.549 2813
1683.98 468.38 2818
1690.72 468.38 2818
1697.46 468.38 2818
1704.19 468.38 2818
1710.93 468.38 2818
1720.72 469.211 2823
1727.47 469.211 2823
1734.22 469.211 2823
1740.97 469.211 2823
1747.72 469.211 2823
1754.47 469.211 2823
1754.98 467.549 2813
1764.84 468.38 2818
1771.58 468.38 2818
1778.32 468.38 2818
1785.06 468.38 2818
1788.62 467.549 2813
1795.34 467.549 2813
1799.51 466.884 2809
1806.23 466.884 2809
1809.72 466.053 2804
1813.18 465.222 2799
1819.88 465.222 2799
1823.31 464.391 2794
1827.37 463.726 2790
1834.04 463.726 2790
1840.71 463.726 2790
1844.07 462.895 2785
1847.41 462.064 2780
1854.06 462.064 2780
1860.7 462.064 2780
1864.67 461.399 2776
1871.3 461.399 2776
1874.56 460.568 2771
1881.19 460.568 2771
1885.09 459.903 2767
1884.87 458.241 2757
1891.46 458.241 2757
1898.05 458.241 2757
1904.65 458.241 2757
1908.47 457.577 2753
1915.05 457.577 2753
1924.42 458.241 2757
1931.02 458.241 2757
1937.61 458.241 2757
1944.2 458.241 2757
1954.33 459.072 2762
1964.49 459.903 2767
1971.1 459.903 2767
1977.72 459.903 2767
1984.34 459.903 2767
1990.95 459.903 2767
1990.35 458.241 2757
1990.43 456.745 2748
1997 456.745 2748
2007.21 457.577 2753
2024.04 459.903 2767
2030.66 459.903 2767
2037.27 459.903 2767
2043.89 459.903 2767
2050.51 459.903 2767
2046.71 457.577 2753
2056.28 458.241 2757
2062.87 458.241 2757
2069.47 458.241 2757
2076.06 458.241 2757
2079.63 457.577 2753
2089.24 458.241 2757
2095.84 458.241 2757
2102.43 458.241 2757
2105.96 457.577 2753
-2139.11 481.706 2857
-2138.99 483.224 2866
-2132.14 483.224 2866
-2128.99 484.067 2871
-2133.21 486.596 2886
-2144.73 490.811 2911
-2137.77 490.811 2911
-2130.81 490.811 2911
-2123.85 490.811 2911
-2116.89 490.811 2911
-2095.43 487.439 2891
-2088.52 487.439 2891
-2081.6 487.439 2891
-2074.69 487.439 2891
-2067.78 487.439 2891
-2108.62 498.736 2958
-2131.39 505.817 3000
-2124.22 505.817 3000
-2117.04 505.817 3000
-2109.87 505.817 3000
-2087.98 502.276 2979
-2080.85 502.276 2979
-2041.01 494.352 2932
-2002.09 486.596 2886
-1991.73 485.753 2881
-1988.29 486.596 2886
-1981.39 486.596 2886
-1974.48 486.596 2886
-1974.4 488.282 2896
-1967.48 488.282 2896
-1960.55 488.282 2896
-1953.62 488.282 2896
-1946.7 488.282 2896
-1939.77 488.282 2896
-1939.52 489.968 2906
-1932.57 489.968 2906
-1932.91 491.823 2917
-1929.24 492.666 2922
-1928.83 494.352 2932
-1921.82 494.352 2932
-1918.07 495.195 2937
-1914.3 496.038 2942
-1941.63 504.974 2995
-1934.47 504.974 2995
-1944.68 509.526 3022
-1944.5 511.381 3033
-1955.14 516.102 3061
-1947.82 516.102 3061
-1958.25 520.823 3089
-1965.39 524.701 3112
-1957.94 524.701 3112
-1958.02 526.724 3124
-1950.55 526.724 3124
-1946.81 527.736 3130
-1939.33 527.736 3130
-1939.25 529.759 3142
-1946.49 533.805 3166
-1949.95 536.84 3184
-1942.33 536.84 3184
-1945.66 539.875 3202
-1938 539.875 3202
-1930.34 539.875 3202
-1922.68 539.875 3202
-1918.62 540.887 3208
-1933.58 547.294 3246
-1951.92 554.713 3290
-1944.06 554.713 3290
-1955.61 560.277 3323
-1971.11 567.021 3363
-1971.24 569.381 3377
-1963.16 569.381 3377
-1987.51 578.823 3433
-1983.33 580.003 3440
-1987.17 583.544 3461
-1978.89 583.544 3461
-1991.11 589.614 3497
-1995.79 593.492 3520
-1987.37 593.492 3520
-1978.95 593.492 3520
-1970.54 593.492 3520
-1969.92 595.852 3534
-1969.8 598.381 3549
-1961.31 598.381 3549
-1952.82 598.381 3549
-1944.34 598.381 3549
-1935.85 598.381 3549
-1927.36 598.381 3549
-1923.2 599.73 3557
-1927.08 603.608 3580
-1918.52 603.608 3580
-1909.96 603.608 3580
-1901.4 603.608 3580
-1892.83 603.608 3580
-1888.48 604.957 3588
-1879.9 604.957 3588
-1874.97 606.137 3595
-1866.38 606.137 3595
-1861.92 607.486 3603
-1853.3 607.486 3603
-1844.68 607.486 3603
-1836.07 607.486 3603
-1827.45 607.486 3603
-1818.84 607.486 3603
-1810.22 607.486 3603
-1801.6 607.486 3603
-1792.99 607.486 3603
-1784.37 607.486 3603
-1775.76 607.486 3603
-1771.06 608.835 3611
-1762.43 608.835 3611
-1753.79 608.835 3611
-1749.03 610.184 3619
-1744.22 611.533 3627
-1746.55 615.411 3650
-1737.82 615.411 3650
-1732.88 616.759 3658
-1732.15 619.626 3675
-1730.87 622.323 3691
-1722.04 622.323 3691
-1724.82 626.539 3716
-1727.01 630.585 3740
-1730.01 634.969 3766
-1721.01 634.969 3766
-1719.73 637.835 3783
-1718.37 640.701 3800
-1720.98 645.085 3826
-1711.83 645.085 3826
-1702.68 645.085 3826
-1686.01 642.219 3809
-1676.9 642.219 3809
-1656.41 637.835 3783
-1628.63 630.585 3740
-1588.08 618.277 3667
-1565.53 612.882 3635
-1556.83 612.882 3635
-1537.92 608.835 3611
-1516.16 603.608 3580
-1494.54 598.381 3549
-1486.05 598.381 3549
-1468.41 594.672 3527
-1457.08 593.492 3520
-1442.49 590.963 3505
-1434.1 590.963 3505
-1410.67 584.724 3468
-1399.55 583.544 3461
-1374.39 576.463 3419
-1366.21 576.463 3419
-1344.13 570.562 3384
-1325.38 566.009 3357
-1311.86 563.649 3343
-1303.87 563.649 3343
-1295.87 563.649 3343
-1285.57 562.637 3337
-1285.24 566.009 3357
-1282.16 568.201 3370
-1274.1 568.201 3370
-1266.05 568.201 3370
-1257.99 568.201 3370
-1247.33 567.021 3363
-1239.29 567.021 3363
-1231.25 567.021 3363
-1223.21 567.021 3363
-1213 566.009 3357
-1204.97 566.009 3357
-1191.95 563.649 3343
-1183.96 563.649 3343
-1175.96 563.649 3343
-1177.4 568.201 3370
-1169.34 568.201 3370
-1161.28 568.201 3370
-1150.83 567.021 3363
-1142.79 567.021 3363
-1128 563.649 3343
-1115.65 561.457 3330
-886.599 491.823 2917
-879.624 491.823 2917
-872.648 491.823 2917
-865.673 491.823 2917
-841.561 489.968 2906
-834.612 489.968 2906
-827.663 489.968 2906
-820.714 489.968 2906
-813.765 489.968 2906
-808.204 490.811 2911
-801.243 490.811 2911
-798.647 493.509 2927
-791.648 493.509 2927
-784.648 493.509 2927
-777.649 493.509 2927
-770.65 493.509 2927
-763.651 493.509 2927
-756.651 493.509 2927
-749.652 493.509 2927
-742.652 493.509 2927
-735.653 493.509 2927
-729.898 494.352 2932
-722.887 494.352 2932
-722.224 498.736 2958
-715.151 498.736 2958
-708.077 498.736 2958
-738.765 604.957 3588
-730.185 604.957 3588
-721.605 604.957 3588
-642.483 580.003 3440
-642.185 587.253 3483
-633.856 587.253 3483
-634.687 595.852 3534
-626.236 595.852 3534
-617.785 595.852 3534
-608.127 594.672 3527
-599.693 594.672 3527
-593.773 597.201 3542
-587.782 599.73 3557
-581.719 602.259 3572
-573.177 602.259 3572
-565.9 603.608 3580
-558.585 604.957 3588
-550.005 604.957 3588
-541.425 604.957 3588
-533.884 606.137 3595
-526.456 607.486 3603
-520.14 610.184 3619
-511.486 610.184 3619
-502.832 610.184 3619
-494.178 610.184 3619
-485.524 610.184 3619
-476.87 610.184 3619
-467.18 608.835 3611
-458.545 608.835 3611
-449.91 608.835 3611
-441.275 608.835 3611
-432.64 608.835 3611
-425.884 611.533 3627
-419.857 615.411 3650
-411.128 615.411 3650
-402.4 615.411 3650
-395.505 618.277 3667
-387.58 619.626 3675
-378.792 619.626 3675
-372.42 623.672 3699
-365.246 626.539 3716
-358.661 630.585 3740
-349.718 630.585 3740
-343.144 634.969 3766
-337.155 640.701 3800
-328.845 642.219 3809
-319.736 642.219 3809
-313.482 648.12 3844
-305.715 651.155 3862
-300.625 660.26 3916
-291.261 660.26 3916
-283.912 664.981 3944
-274.481 664.981 3944
-265.049 664.981 3944
-255.035 663.463 3935
-245.001 661.777 3925
-234.534 658.742 3907
-225.191 658.742 3907
-214.357 654.19 3880
-204.127 651.155 3862
-107.64 359.636 2133
-102.683 360.142 2136
-97.8496 361.153 2142
-92.7274 361.153 2142
-87.6053 361.153 2142
-82.4831 361.153 2142
-77.3609 361.153 2142
-72.2387 361.153 2142
-67.2732 361.996 2147
-62.1391 361.996 2147
-57.005 361.996 2147
-51.8709 361.996 2147
-46.802 362.502 2150
-41.6607 362.502 2150
-36.5194 362.502 2150
-31.3781 362.502 2150
-26.2368 362.502 2150
-21.0955 362.502 2150
-15.9542 362.502 2150
-10.8129 362.502 2150
-5.67162 362.502 2150
-0.530322 362.502 2150
4.61098 362.502 2150
9.76589 363.008 2153
14.9144 363.008 2153
20.0628 363.008 2153
25.2699 363.851 2158
30.6277 366.211 2172
35.8216 366.211 2172
41.0722 366.717 2175
46.2733 366.717 2175
51.6164 367.729 2181
56.8318 367.729 2181
62.1326 368.235 2184
67.5094 369.078 2189
72.7439 369.078 2189
77.9785 369.078 2189
83.4411 370.089 2195
88.8113 370.595 2198
94.1957 371.101 2201
99.459 371.101 2201
104.865 371.607 2204
110.285 372.113 2207
115.72 372.618 2210
121.005 372.618 2210
126.29 372.618 2210
131.574 372.618 2210
136.859 372.618 2210
142.144 372.618 2210
147.229 372.113 2207
152.506 372.113 2207
157.784 372.113 2207
162.618 371.101 2201
167.881 371.101 2201
173.381 371.607 2204
179.137 372.618 2210
184.422 372.618 2210
189.707 372.618 2210
194.992 372.618 2210
200.277 372.618 2210
205.561 372.618 2210
210.846 372.618 2210
216.913 373.967 2218
222.518 374.473 2221
227.829 374.473 2221
233.14 374.473 2221
238.451 374.473 2221
243.762 374.473 2221
249.073 374.473 2221
252.437 371.607 2204
529.754 512.393 3039
537.905 513.236 3044
545.184 513.236 3044
555.548 516.102 3061
562.868 516.102 3061
570.188 516.102 3061
577.508 516.102 3061
588.075 518.968 3078
596.596 519.98 3084
606.125 521.834 3095
613.526 521.834 3095
620.928 521.834 3095
628.329 521.834 3095
636.962 522.846 3101
644.378 522.846 3101
651.793 522.846 3101
659.208 522.846 3101
666.624 522.846 3101
674.039 522.846 3101
680.136 521.834 3095
683.761 518.968 3078
691.121 518.968 3078
693.262 515.09 3055
700.568 515.09 3055
706.715 514.247 3050
714.008 514.247 3050
718.7 512.393 3039
725.967 512.393 3039
733.235 512.393 3039
740.502 512.393 3039
747.769 512.393 3039
755.036 512.393 3039
760.798 511.381 3033
769.57 512.393 3039
780.928 515.09 3055
788.233 515.09 3055
795.538 515.09 3055
802.844 515.09 3055
810.149 515.09 3055
814.511 513.236 3044
828 517.114 3067
842.96 521.834 3095
853.658 523.858 3107
861.088 523.858 3107
869.915 524.701 3112
879.049 525.712 3118
886.505 525.712 3118
893.961 525.712 3118
901.417 525.712 3118
903.918 522.846 3101
914.566 524.701 3112
922.008 524.701 3112
936.617 528.747 3136
954.954 534.817 3172
971.643 539.875 3202
979.3 539.875 3202
986.957 539.875 3202
1002.38 544.09 3227
1016.04 547.294 3246
1029.8 550.497 3265
1037.61 550.497 3265
1059.82 558.085 3310
1076.45 562.637 3337
1086.38 563.649 3343
1094.37 563.649 3343
1115.88 570.562 3384
1128.63 572.922 3398
1150.8 580.003 3440
1159.03 580.003 3440
1181.85 587.253 3483
1194.96 589.614 3497
1203.32 589.614 3497
1211.68 589.614 3497
1222.84 590.963 3505
1231.22 590.963 3505
1244.91 593.492 3520
1253.32 593.492 3520
1264.25 594.672 3527
1278.1 597.201 3542
1289.11 598.381 3549
1297.59 598.381 3549
1311.97 601.079 3565
1323.09 602.259 3572
1334.61 603.608 3580
1343.17 603.608 3580
1354.75 604.957 3588
1365.99 606.137 3595
1374.59 606.137 3595
1383.19 606.137 3595
1391.78 606.137 3595
1388.69 601.079 3565
1397.22 601.079 3565
1399.44 598.381 3549
1401.97 595.852 3534
1398.85 590.963 3505
1389.56 583.544 3461
1397.84 583.544 3461
1400.43 581.184 3447
1388.65 572.922 3398
1379.92 566.009 3357
1387.95 566.009 3357
1379.34 559.265 3317
1384.35 558.085 3310
1386.79 555.893 3297
1394.68 555.893 3297
1391.5 551.509 3271
1396.76 550.497 3265
1401.55 549.317 3258
1409.34 549.317 3258
1417.13 549.317 3258
1422.3 548.306 3252
1430.08 548.306 3252
1437.85 548.306 3252
1445.63 548.306 3252
1453.41 548.306 3252
1463.88 549.317 3258
1471.67 549.317 3258
1479.46 549.317 3258
1487.25 549.317 3258
1492.29 548.306 3252
1494.07 546.114 3239
1501.81 546.114 3239
1506.76 545.102 3233
1511.68 544.09 3227
1513.28 541.899 3214
1506.77 536.84 3184
1514.38 536.84 3184
1513.39 533.805 3166
1512.32 530.771 3148
1505.36 525.712 3118
1512.82 525.712 3118
1506.13 520.823 3089
1499.8 516.102 3061
1485.46 508.683 3017
1473.87 502.276 2979
1480.99 502.276 2979
1472.13 496.881 2947
1456.09 489.125 2901
1452.94 485.753 2881
1459.83 485.753 2881
1461.63 484.067 2871
1463.89 482.549 2862
1465.6 480.863 2852
1472.42 480.863 2852
1474.05 479.177 2842
1478.24 478.334 2837
1482.41 477.491 2832
1489.18 477.491 2832
1495.95 477.491 2832
1502.72 477.491 2832
1507.36 476.817 2828
1511.45 475.974 2823
1518.2 475.974 2823
1522.25 475.131 2818
1526.28 474.288 2813
1533 474.288 2813
1539.73 474.288 2813
1544.26 473.613 2809
1548.21 472.77 2804
1552.15 471.927 2799
1558.84 471.927 2799
1562.74 471.084 2794
1567.17 470.41 2790
1573.84 470.41 2790
1582.78 471.084 2794
1592.3 471.927 2799
1599 471.927 2799
1608.56 472.77 2804
1615.26 472.77 2804
1621.97 472.77 2804
1628.68 472.77 2804
1635.38 472.77 2804
1642.09 472.77 2804
1651.73 473.613 2809
1658.45 473.613 2809
1667.54 474.288 2813
1677.24 475.131 2818
1683.98 475.131 2818
1690.72 475.131 2818
1697.46 475.131 2818
1704.19 475.131 2818
1710.93 475.131 2818
1720.72 475.974 2823
1727.47 475.974 2823
1734.22 475.974 2823
1740.97 475.974 2823
1747.72 475.974 2823
1754.47 475.974 2823
1758.1 475.131 2818
1764.84 475.131 2818
1771.58 475.131 2818
1778.32 475.131 2818
1785.06 475.131 2818
1791.8 475.131 2818
1798.54 475.131 2818
1802.07 474.288 2813
1808.8 474.288 2813
1809.72 472.77 2804
1813.18 471.927 2799
1819.88 471.927 2799
1823.31 471.084 2794
1827.37 470.41 2790
1834.04 470.41 2790
1840.71 470.41 2790
1844.07 469.567 2785
1847.41 468.724 2780
1854.06 468.724 2780
1860.7 468.724 2780
1864.67 468.049 2776
1871.3 468.049 2776
1874.56 467.206 2771
1881.19 467.206 2771
1885.09 466.532 2767
1884.87 464.846 2757
1891.46 464.846 2757
1895.3 464.171 2753
1901.88 464.171 2753
1908.47 464.171 2753
1915.05 464.171 2753
1921.63 464.171 2753
1928.22 464.171 2753
1934.8 464.171 2753
1941.38 464.171 2753
1950.8 464.846 2757
1964.49 466.532 2767
1971.1 466.532 2767
1977.72 466.532 2767
1984.34 466.532 2767
1990.95 466.532 2767
1990.35 464.846 2757
1990.43 463.328 2748
1997 463.328 2748
2007.21 464.171 2753
2024.04 466.532 2767
2030.66 466.532 2767
2037.27 466.532 2767
2043.89 466.532 2767
2050.51 466.532 2767
2046.71 464.171 2753
2056.28 464.846 2757
2062.87 464.846 2757
2069.47 464.846 2757
2076.06 464.846 2757
2079.63 464.171 2753
2089.24 464.846 2757
2095.84 464.846 2757
2102.43 464.846 2757
2105.96 464.171 2753
-2145.84 490.089 2866
-2142.72 490.944 2871
-2135.86 490.944 2871
-2140.11 493.509 2886
-2151.69 497.784 2911
-2175.68 504.966 2953
-2168.61 504.966 2953
-2161.55 504.966 2953
-2150.11 503.94 2947
-2143.07 503.94 2947
-2136.02 503.94 2947
-2128.97 503.94 2947
-2118.32 503.085 2942
-2122.77 505.821 2958
-2115.7 505.821 2958
-2138.56 513.003 3000
-2186.81 526.342 3078
-2179.45 526.342 3078
-2172.09 526.342 3078
-2148.55 522.409 3055
-2125.82 518.646 3033
-2118.57 518.646 3033
-2073.73 509.412 2979
-2034 501.375 2932
-2023.53 500.52 2927
-2005.51 497.784 2911
-1998.55 497.784 2911
-1991.59 497.784 2911
-1981.22 496.929 2906
-1977.67 497.784 2911
-1970.7 497.784 2911
-1963.74 497.784 2911
-1956.78 497.784 2911
-1943.12 496.074 2901
-1942.86 497.784 2911
-1935.9 497.784 2911
-1939.54 500.52 2927
-1939.14 502.23 2937
-1935.41 503.085 2942
-1928.37 503.085 2942
-1935.05 506.676 2963
-1948.79 512.148 2995
-1963.02 517.792 3028
-1955.78 517.792 3028
-1962.7 521.554 3050
-1962.46 523.435 3061
-1955.14 523.435 3061
-1973.27 530.275 3101
-1972.83 532.156 3112
-1980.54 536.26 3136
-1973.04 536.26 3136
-1973.07 538.312 3148
-1965.54 538.312 3148
-1958.01 538.312 3148
-1950.48 538.312 3148
-1950.36 540.364 3160
-1957.56 544.468 3184
-1960.97 547.546 3202
-1953.31 547.546 3202
-1952.95 549.598 3214
-1945.26 549.598 3214
-1937.58 549.598 3214
-1929.89 549.598 3214
-1933.57 552.847 3233
-1948.47 559.345 3271
-1971.5 568.237 3323
-1963.56 568.237 3323
-1979.15 575.077 3363
-1999.83 583.456 3412
-2003.93 587.047 3433
-1995.72 587.047 3433
-2003.72 591.835 3461
-1999.48 593.032 3468
-2007.84 597.991 3497
-1999.47 597.991 3497
-2004.21 601.924 3520
-1999.76 603.121 3527
-1991.32 603.121 3527
-1982.89 603.121 3527
-1974.46 603.121 3527
-1974.38 605.686 3542
-1969.8 606.883 3549
-1961.31 606.883 3549
-1952.82 606.883 3549
-1944.34 606.883 3549
-1935.85 606.883 3549
-1927.36 606.883 3549
-1923.2 608.251 3557
-1927.08 612.184 3580
-1918.52 612.184 3580
-1909.96 612.184 3580
-1901.4 612.184 3580
-1892.83 612.184 3580
-1884.27 612.184 3580
-1875.71 612.184 3580
-1871.32 613.552 3588
-1866.38 614.749 3595
-1857.78 614.749 3595
-1849.18 614.749 3595
-1840.59 614.749 3595
-1828.42 613.552 3588
-1819.84 613.552 3588
-1811.26 613.552 3588
-1806.2 614.749 3595
-1797.6 614.749 3595
-1792.99 616.117 3603
-1784.37 616.117 3603
-1775.76 616.117 3603
-1771.06 617.485 3611
-1762.43 617.485 3611
-1753.79 617.485 3611
-1745.16 617.485 3611
-1744.22 620.221 3627
-1742.72 622.786 3642
-1734.01 622.786 3642
-1732.88 625.522 3658
-1724.14 625.522 3658
-1723.36 628.429 3675
-1714.57 628.429 3675
-1724.82 635.44 3716
-1727.01 639.544 3740
-1733.69 645.358 3774
-1724.66 645.358 3774
-1727.46 649.804 3800
-1730.13 654.25 3826
-1725.03 655.789 3835
-1715.86 655.789 3835
-1706.69 655.789 3835
-1697.52 655.789 3835
-1688.35 655.789 3835
-1663.85 649.804 3800
-1636.04 642.451 3757
-1591.54 628.429 3675
-1568.54 622.786 3642
-1559.83 622.786 3642
-1541.33 618.853 3619
-1519.54 613.552 3588
-1494.54 606.883 3549
-1486.05 606.883 3549
-1468.41 603.121 3527
-1457.08 601.924 3520
-1445.37 600.556 3512
-1436.97 600.556 3512
-1410.67 593.032 3468
-1399.55 591.835 3461
-1374.39 584.653 3419
-1366.21 584.653 3419
-1344.13 578.668 3384
-1330.52 576.274 3370
-1317.36 574.051 3357
-1309.33 574.051 3357
-1301.3 574.051 3357
-1293.27 574.051 3357
-1292.9 577.471 3377
-1292.82 581.062 3398
-1284.69 581.062 3398
-1276.56 581.062 3398
-1268.44 581.062 3398
-1265.51 583.456 3412
-1267.67 588.244 3440
-1259.44 588.244 3440
-1251.21 588.244 3440
-1245.52 589.441 3447
-1237.27 589.441 3447
-1229.03 589.441 3447
-1213.35 585.85 3426
-1205.16 585.85 3426
-1196.97 585.85 3426
-1188.77 585.85 3426
-1178.17 584.653 3419
-1158.02 578.668 3384
-1149.92 578.668 3384
-1128 571.657 3343
-1115.65 569.434 3330
-841.561 496.929 2906
-834.612 496.929 2906
-827.663 496.929 2906
-820.714 496.929 2906
-813.765 496.929 2906
-808.204 497.784 2911
-801.243 497.784 2911
-798.647 500.52 2927
-791.648 500.52 2927
-784.648 500.52 2927
-777.649 500.52 2927
-770.65 500.52 2927
-763.651 500.52 2927
-756.651 500.52 2927
-749.652 500.52 2927
-742.652 500.52 2927
-735.653 500.52 2927
-728.654 500.52 2927
-738.765 613.552 3588
-730.185 613.552 3588
-721.605 613.552 3588
-713.025 613.552 3588
-653.129 597.991 3497
-651.588 604.318 3534
-643.137 604.318 3534
-637.38 606.883 3549
-628.894 606.883 3549
-620.407 606.883 3549
-613.3 608.251 3557
-604.794 608.251 3557
-597.629 609.619 3565
-590.261 610.816 3572
-583.022 612.184 3580
-574.461 612.184 3580
-568.271 614.749 3595
-560.92 616.117 3603
-552.304 616.117 3603
-543.688 616.117 3603
-535.072 616.117 3603
-526.456 616.117 3603
-520.14 618.853 3619
-511.486 618.853 3619
-503.944 620.221 3627
-495.27 620.221 3627
-486.597 620.221 3627
-476.87 618.853 3619
-468.215 618.853 3619
-458.545 617.485 3611
-449.91 617.485 3611
-441.275 617.485 3611
-433.599 618.853 3619
-426.824 621.589 3635
-419.857 624.154 3650
-411.128 624.154 3650
-402.4 624.154 3650
-394.535 625.522 3658
-387.58 628.429 3675
-378.792 628.429 3675
-371.615 631.165 3691
-365.246 635.44 3716
-358.661 639.544 3740
-349.718 639.544 3740
-343.144 643.99 3766
-337.155 649.804 3800
-329.622 652.882 3818
-320.492 652.882 3818
-313.482 657.328 3844
-307.852 665.023 3889
-300.625 669.641 3916
-291.261 669.641 3916
-283.912 674.429 3944
-274.481 674.429 3944
-265.049 674.429 3944
-255.035 672.89 3935
-245.001 671.18 3925
-234.534 668.102 3907
-225.191 668.102 3907
-213.363 660.406 3862
-204.127 660.406 3862
-107.64 364.745 2133
