ply
format ascii 1.0
comment File generated
element vertex 2156
property float x
property float y
property float z
end_header
841.641 -233.676 2818
851.391 -234.506 2828
858.153 -234.506 2828
864.916 -234.506 2828
871.679 -234.506 2828
878.441 -234.506 2828
883.639 -234.091 2823
890.389 -234.091 2823
895.551 -233.676 2818
902.29 -233.676 2818
907.415 -233.262 2813
914.142 -233.262 2813
920.869 -233.262 2813
927.596 -233.262 2813
934.322 -233.262 2813
1217.47 -297.527 3588
1236.65 -300.098 3619
1250.81 -301.424 3635
1259.5 -301.424 3635
1270.63 -302.005 3642
1284.96 -303.332 3658
1293.71 -303.332 3658
1302.46 -303.332 3658
1311.21 -303.332 3658
1319.95 -303.332 3658
1328.7 -303.332 3658
1331.6 -302.005 3642
1334.79 -300.761 3627
1343.46 -300.761 3627
1352.13 -300.761 3627
1354.8 -299.434 3611
1363.44 -299.434 3611
1369.03 -298.771 3603
1377.65 -298.771 3603
1386.27 -298.771 3603
1391.78 -298.107 3595
1397.65 -297.527 3588
1406.23 -297.527 3588
1414.81 -297.527 3588
1423.39 -297.527 3588
1431.97 -297.527 3588
1440.55 -297.527 3588
1449.13 -297.527 3588
1454.46 -296.864 3580
1463.02 -296.864 3580
1471.59 -296.864 3580
1480.15 -296.864 3580
1485.38 -296.2 3572
1490.99 -295.62 3565
1496.15 -294.956 3557
1504.66 -294.956 3557
1506.79 -293.712 3542
1511.83 -293.049 3534
1520.28 -293.049 3534
1528.73 -293.049 3534
1527.62 -291.225 3512
1532.95 -290.644 3505
1537.82 -289.981 3497
1530.26 -286.996 3461
1538.54 -286.996 3461
1540.56 -285.835 3447
1548.8 -285.835 3447
1557.04 -285.835 3447
1565.29 -285.835 3447
1563.94 -284.093 3426
1572.14 -284.093 3426
1564.18 -281.191 3391
1572.29 -281.191 3391
1580.4 -281.191 3391
1588.51 -281.191 3391
1574.02 -277.211 3343
1511.08 -230.94 2785
1517.74 -230.94 2785
1524.4 -230.94 2785
1523.37 -229.779 2771
1522.26 -228.618 2757
1523.86 -227.872 2748
1528.21 -227.54 2744
1534.77 -227.54 2744
1541.33 -227.54 2744
1540 -226.379 2730
1539.16 -225.301 2717
1550.78 -226.048 2726
1557.3 -226.048 2726
1563.81 -226.048 2726
1570.33 -226.048 2726
1576.85 -226.048 2726
1583.37 -226.048 2726
1589.89 -226.048 2726
1591.14 -225.301 2717
1597.63 -225.301 2717
1601.77 -224.969 2713
1608.26 -224.969 2713
1606.41 -223.809 2699
1610.48 -223.477 2695
1616.92 -223.477 2695
1620.96 -223.145 2691
1614.09 -221.321 2669
1615.61 -220.658 2661
1621.97 -220.658 2661
1620.38 -219.58 2648
1618.73 -218.502 2635
1625.03 -218.502 2635
1631.33 -218.502 2635
1637.63 -218.502 2635
1641.44 -218.17 2631
1645.22 -217.838 2627
1646.48 -217.175 2619
1652.74 -217.175 2619
1659 -217.175 2619
1665.26 -217.175 2619
1671.53 -217.175 2619
1677.79 -217.175 2619
1681.48 -216.843 2615
1682.57 -216.18 2607
1688.81 -216.18 2607
1695.04 -216.18 2607
1701.27 -216.18 2607
1702.27 -215.516 2599
1708.48 -215.516 2599
1714.7 -215.516 2599
1717.6 -215.102 2594
1723.81 -215.102 2594
1730.01 -215.102 2594
1733.53 -214.77 2590
1739.73 -214.77 2590
1743.22 -214.438 2586
1746.7 -214.107 2582
1752.88 -214.107 2582
1759.05 -214.107 2582
1765.23 -214.107 2582
1768.66 -213.775 2578
1770 -213.194 2571
1776.15 -213.194 2571
1782.3 -213.194 2571
1790.53 -213.443 2574
1796.69 -213.443 2574
1802.84 -213.443 2574
1809 -213.443 2574
1815.15 -213.443 2574
1819.19 -213.194 2571
1825.33 -213.194 2571
1831.48 -213.194 2571
1837.63 -213.194 2571
1843.78 -213.194 2571
1844.17 -212.531 2563
1850.3 -212.531 2563
1856.43 -212.531 2563
1865.46 -212.863 2567
1871.6 -212.863 2567
1877.74 -212.863 2567
1880.94 -212.531 2563
1887.07 -212.531 2563
1899.11 -213.194 2571
1905.26 -213.194 2571
1911.41 -213.194 2571
1917.55 -213.194 2571
1923.7 -213.194 2571
1929.85 -213.194 2571
1936 -213.194 2571
1939.12 -212.863 2567
1945.26 -212.863 2567
1951.4 -212.863 2567
1957.54 -212.863 2567
1963.68 -212.863 2567
-2453.94 -278.141 3454
-2445.68 -278.141 3454
-2437.42 -278.141 3454
-2414.39 -276.45 3433
-2371.84 -272.504 3384
-2363.75 -272.504 3384
-2350.78 -271.941 3377
-2352.42 -273.068 3391
-2353.99 -274.195 3405
-2345.85 -274.195 3405
-2337.71 -274.195 3405
-2324.77 -273.632 3398
-2307.1 -272.504 3384
-2299.01 -272.504 3384
-2281.44 -271.377 3370
-2282.83 -272.504 3384
-2284.15 -273.632 3398
-2285.4 -274.759 3412
-2277.24 -274.759 3412
-2278.39 -275.886 3426
-2270.2 -275.886 3426
-2266.63 -276.45 3433
-2258.42 -276.45 3433
-2250.21 -276.45 3433
-2251.14 -277.578 3447
-2285.19 -282.812 3512
-2276.79 -282.812 3512
-2268.4 -282.812 3512
-2260 -282.812 3512
-2251.6 -282.812 3512
-2243.2 -282.812 3512
-2225.26 -281.604 3497
-2221.97 -282.248 3505
-2213.59 -282.248 3505
-2205.2 -282.248 3505
-2196.82 -282.248 3505
-1924.52 -298.515 3707
-1920.31 -299.239 3716
-1911.42 -299.239 3716
-1902.54 -299.239 3716
-1876.84 -296.582 3683
-1868.03 -296.582 3683
-1846.6 -294.569 3658
-1833.83 -293.925 3650
-1825.11 -293.925 3650
-1816.38 -293.925 3650
-1803.69 -293.28 3642
-1794.98 -293.28 3642
-1818.15 -298.515 3707
-1838.08 -303.266 3766
-1829.08 -303.266 3766
-1823.94 -303.91 3774
-1814.91 -303.91 3774
-1805.89 -303.91 3774
-1784.96 -301.897 3749
-1796.36 -305.359 3792
-1791.07 -306.004 3800
-1885.15 -323.72 4020
-1875.53 -323.72 4020
-1865.92 -323.72 4020
-1865.08 -325.25 4039
-1855.42 -325.25 4039
-1845.76 -325.25 4039
-1836.11 -325.25 4039
-1826.45 -325.25 4039
-1816.79 -325.25 4039
-1807.13 -325.25 4039
-1755.19 -317.6 3944
-999.666 -231.999 2881
-992.776 -231.999 2881
-985.887 -231.999 2881
-978.997 -231.999 2881
-973.795 -232.402 2886
-966.894 -232.402 2886
-959.993 -232.402 2886
-953.091 -232.402 2886
-946.19 -232.402 2886
-939.289 -232.402 2886
-932.387 -232.402 2886
-925.486 -232.402 2886
-918.585 -232.402 2886
-905.366 -230.791 2866
-897.258 -230.469 2862
-890.414 -230.469 2862
-884.805 -230.791 2866
-877.952 -230.791 2866
-871.098 -230.791 2866
-864.245 -230.791 2866
-857.391 -230.791 2866
-850.538 -230.791 2866
-843.684 -230.791 2866
-836.831 -230.791 2866
-829.977 -230.791 2866
-823.124 -230.791 2866
-816.27 -230.791 2866
-805.463 -229.664 2852
-797.243 -229.261 2847
-790.435 -229.261 2847
-783.627 -229.261 2847
-776.819 -229.261 2847
-767.306 -228.456 2837
-760.522 -228.456 2837
-752.409 -228.053 2832
-745.637 -228.053 2832
-738.865 -228.053 2832
-733.385 -228.456 2837
-726.601 -228.456 2837
-719.817 -228.456 2837
-711.776 -228.053 2832
-705.004 -228.053 2832
-697.246 -227.731 2828
-692.681 -228.456 2837
-687.105 -228.859 2842
-680.309 -228.859 2842
-673.513 -228.859 2842
-666.717 -228.859 2842
-659.921 -228.859 2842
-653.125 -228.859 2842
-646.329 -228.859 2842
-644.934 -230.791 2866
-645.872 -233.61 2901
-638.935 -233.61 2901
-631.998 -233.61 2901
-674.936 -263.968 3278
-669.539 -264.935 3290
-665.694 -266.545 3310
-657.779 -266.545 3310
-653.791 -268.156 3330
-647.185 -268.72 3337
-645.527 -271.377 3370
-637.468 -271.377 3370
-632.024 -272.504 3384
-627.804 -274.195 3405
-619.661 -274.195 3405
-611.519 -274.195 3405
-603.377 -274.195 3405
-594.01 -273.632 3398
-585.885 -273.632 3398
-575.379 -272.504 3384
-566.113 -271.941 3377
-556.881 -271.377 3370
-548.822 -271.377 3370
-539.64 -270.813 3363
-531.598 -270.813 3363
-522.622 -270.33 3357
-514.595 -270.33 3357
-503.549 -268.72 3337
-495.569 -268.72 3337
-487.59 -268.72 3337
-479.61 -268.72 3337
-471.63 -268.72 3337
-464.484 -269.203 3343
-457.446 -269.766 3350
-449.435 -269.766 3350
-441.424 -269.766 3350
-432.507 -269.203 3343
-423.751 -268.72 3337
-417.391 -269.766 3350
-410.236 -270.33 3357
-402.208 -270.33 3357
-394.181 -270.33 3357
-385.348 -269.766 3350
-377.337 -269.766 3350
-369.326 -269.766 3350
-361.315 -269.766 3350
-353.304 -269.766 3350
-345.294 -269.766 3350
-337.283 -269.766 3350
-329.272 -269.766 3350
-321.261 -269.766 3350
-313.25 -269.766 3350
-305.239 -269.766 3350
-297.228 -269.766 3350
-289.822 -270.33 3357
-284.648 -273.068 3391
-276.539 -273.068 3391
-271.755 -276.45 3433
-264.083 -277.014 3440
-256.378 -277.578 3447
-248.135 -277.578 3447
-239.892 -277.578 3447
-147.511 -176.757 2195
-142.262 -176.757 2195
-137.013 -176.757 2195
-130.744 -175.388 2178
-125.19 -174.905 2172
-119.996 -174.905 2172
-114.537 -174.503 2167
-109.356 -174.503 2167
-104.029 -174.261 2164
-98.8546 -174.261 2164
-93.4201 -173.778 2158
-88.2596 -173.778 2158
-82.9067 -173.375 2153
-77.7582 -173.375 2153
-72.5085 -173.134 2150
-67.1792 -172.65 2144
-61.9076 -172.248 2139
-56.7926 -172.248 2139
-51.5326 -171.765 2133
-46.3884 -171.604 2131
-41.1763 -171.12 2125
-36.0948 -171.12 2125
-31.0133 -171.12 2125
-25.8707 -170.718 2120
-20.7717 -170.476 2117
-15.7093 -170.476 2117
-10.647 -170.476 2117
-5.57666 -170.235 2114
-0.521442 -170.235 2114
4.52948 -170.074 2112
9.57992 -170.074 2112
14.6096 -169.832 2109
19.6249 -169.59 2106
24.6375 -169.429 2104
29.6688 -169.429 2104
34.6507 -169.188 2101
39.6181 -168.946 2098
44.6351 -168.946 2098
49.652 -168.946 2098
54.6169 -168.785 2096
59.5437 -168.544 2093
64.5487 -168.544 2093
69.5537 -168.544 2093
74.5587 -168.544 2093
79.5637 -168.544 2093
84.5687 -168.544 2093
89.5737 -168.544 2093
94.5787 -168.544 2093
99.5837 -168.544 2093
104.589 -168.544 2093
109.594 -168.544 2093
114.599 -168.544 2093
119.489 -168.383 2091
124.49 -168.383 2091
129.118 -167.899 2085
134.104 -167.899 2085
138.756 -167.497 2080
143.592 -167.336 2078
148.347 -167.094 2075
153.309 -167.094 2075
157.508 -166.289 2065
162.21 -166.047 2062
166.736 -165.645 2057
171.654 -165.645 2057
175.887 -165 2049
179.904 -164.195 2039
184.146 -163.631 2032
189.005 -163.631 2032
193.387 -163.229 2027
198.038 -163.068 2025
202.58 -162.826 2022
207.21 -162.665 2020
212.041 -162.665 2020
216.549 -162.424 2017
221.153 -162.262 2015
225.635 -162.021 2012
231.362 -162.665 2020
236.193 -162.665 2020
241.023 -162.665 2020
246.097 -162.826 2022
250.932 -162.826 2022
255.768 -162.826 2022
260.603 -162.826 2022
408.989 -242.065 3006
416.177 -242.065 3006
423.366 -242.065 3006
426.687 -239.891 2979
433.81 -239.891 2979
439.306 -239.005 2968
446.403 -239.005 2968
448 -236.106 2932
455.011 -236.106 2932
460.447 -235.301 2922
467.434 -235.301 2922
471.012 -233.61 2901
475.478 -232.402 2886
482.379 -232.402 2886
488.433 -231.999 2881
493.603 -231.194 2871
499.597 -230.791 2866
506.45 -230.791 2866
512.587 -230.469 2862
519.431 -230.469 2862
526.275 -230.469 2862
533.119 -230.469 2862
539.02 -230.066 2857
545.852 -230.066 2857
551.716 -229.664 2852
558.536 -229.664 2852
565.356 -229.664 2852
571.173 -229.261 2847
576.966 -228.859 2842
583.762 -228.859 2842
591.597 -229.261 2847
598.405 -229.261 2847
605.213 -229.261 2847
610.946 -228.859 2842
617.743 -228.859 2842
624.539 -228.859 2842
631.335 -228.859 2842
638.131 -228.859 2842
644.927 -228.859 2842
650.576 -228.456 2837
656.202 -228.053 2832
662.038 -227.731 2828
668.8 -227.731 2828
675.563 -227.731 2828
682.326 -227.731 2828
689.088 -227.731 2828
695.851 -227.731 2828
702.613 -227.731 2828
709.376 -227.731 2828
716.139 -227.731 2828
722.901 -227.731 2828
729.664 -227.731 2828
735.124 -227.328 2823
741.875 -227.328 2823
748.626 -227.328 2823
755.376 -227.328 2823
762.127 -227.328 2823
768.878 -227.328 2823
775.628 -227.328 2823
782.379 -227.328 2823
786.334 -226.523 2813
794.471 -226.926 2818
801.209 -226.926 2818
807.948 -226.926 2818
814.687 -226.926 2818
821.425 -226.926 2818
828.164 -226.926 2818
836.384 -227.328 2823
843.135 -227.328 2823
851.391 -227.731 2828
858.153 -227.731 2828
864.916 -227.731 2828
871.679 -227.731 2828
878.441 -227.731 2828
883.639 -227.328 2823
890.389 -227.328 2823
895.551 -226.926 2818
902.29 -226.926 2818
907.415 -226.523 2813
914.142 -226.523 2813
922.506 -226.926 2818
929.244 -226.926 2818
939.305 -227.731 2828
946.067 -227.731 2828
952.83 -227.731 2828
1217.47 -288.932 3588
1236.65 -291.428 3619
1253.22 -293.28 3642
1261.92 -293.28 3642
1273.43 -293.925 3650
1284.96 -294.569 3658
1296.89 -295.294 3667
1305.66 -295.294 3667
1314.43 -295.294 3667
1323.2 -295.294 3667
1331.97 -295.294 3667
1334.52 -293.925 3650
1337.73 -292.717 3635
1343.46 -292.072 3627
1352.13 -292.072 3627
1360.81 -292.072 3627
1366.46 -291.428 3619
1372.07 -290.784 3611
1380.71 -290.784 3611
1389.34 -290.784 3611
1394.88 -290.14 3603
1397.65 -288.932 3588
1408.98 -289.496 3595
1417.57 -289.496 3595
1426.17 -289.496 3595
1434.77 -289.496 3595
1440.55 -288.932 3588
1449.13 -288.932 3588
1454.46 -288.288 3580
1463.02 -288.288 3580
1471.59 -288.288 3580
1480.15 -288.288 3580
1485.38 -287.643 3572
1490.99 -287.08 3565
1496.15 -286.436 3557
1504.66 -286.436 3557
1506.79 -285.228 3542
1511.83 -284.583 3534
1520.28 -284.583 3534
1528.73 -284.583 3534
1527.62 -282.812 3512
1532.95 -282.248 3505
1537.82 -281.604 3497
1530.26 -278.705 3461
1538.54 -278.705 3461
1540.56 -277.578 3447
1548.8 -277.578 3447
1557.04 -277.578 3447
1565.29 -277.578 3447
1563.94 -275.886 3426
1572.14 -275.886 3426
1564.18 -273.068 3391
1572.29 -273.068 3391
1580.4 -273.068 3391
1588.51 -273.068 3391
1574.02 -269.203 3343
1511.08 -224.268 2785
1517.74 -224.268 2785
1524.4 -224.268 2785
1523.37 -223.141 2771
1522.26 -222.014 2757
1523.86 -221.289 2748
1528.21 -220.967 2744
1534.77 -220.967 2744
1541.33 -220.967 2744
1540 -219.839 2730
1541.43 -219.115 2721
1553.05 -219.839 2730
1559.58 -219.839 2730
1566.11 -219.839 2730
1572.64 -219.839 2730
1582.06 -220.242 2735
1588.6 -220.242 2735
1595.14 -220.242 2735
1601.68 -220.242 2735
1608.22 -220.242 2735
1609.44 -219.517 2726
1613 -219.115 2721
1619.51 -219.115 2721
1621.23 -218.47 2713
1627.72 -218.47 2713
1623.36 -217.021 2695
1629.81 -217.021 2695
1630.79 -216.296 2686
1637.21 -216.296 2686
1630.79 -214.605 2665
1626.71 -213.236 2648
1633.05 -213.236 2648
1639.38 -213.236 2648
1645.71 -213.236 2648
1652.04 -213.236 2648
1655.87 -212.914 2644
1654.02 -211.867 2631
1660.31 -211.867 2631
1664.07 -211.545 2627
1670.35 -211.545 2627
1676.63 -211.545 2627
1682.92 -211.545 2627
1689.2 -211.545 2627
1690.32 -210.901 2619
1693.99 -210.579 2615
1700.24 -210.579 2615
1706.49 -210.579 2615
1710.13 -210.257 2611
1713.74 -209.935 2607
1719.98 -209.935 2607
1726.21 -209.935 2607
1729.79 -209.612 2603
1733.34 -209.29 2599
1736.21 -208.888 2594
1742.41 -208.888 2594
1745.92 -208.566 2590
1749.41 -208.244 2586
1755.59 -208.244 2586
1761.78 -208.244 2586
1765.23 -207.921 2582
1771.4 -207.921 2582
1772.07 -207.277 2574
1780.99 -207.599 2578
1787.15 -207.599 2578
1793.31 -207.599 2578
1799.48 -207.599 2578
1805.64 -207.599 2578
1811.81 -207.599 2578
1817.97 -207.599 2578
1824.14 -207.599 2578
1827.46 -207.277 2574
1833.62 -207.277 2574
1837.63 -207.036 2571
1843.78 -207.036 2571
1849.93 -207.036 2571
1858.24 -207.277 2574
1864.4 -207.277 2574
1870.55 -207.277 2574
1876.71 -207.277 2574
1882.86 -207.277 2574
1883.88 -206.714 2567
1892.96 -207.036 2571
1899.11 -207.036 2571
1905.26 -207.036 2571
1911.41 -207.036 2571
1917.55 -207.036 2571
1923.7 -207.036 2571
1929.85 -207.036 2571
1936 -207.036 2571
1939.12 -206.714 2567
1945.26 -206.714 2567
1956.72 -207.277 2574
1962.88 -207.277 2574
1969.03 -207.277 2574
-2453.94 -269.867 3454
-2445.68 -269.867 3454
-2437.42 -269.867 3454
-2414.39 -268.226 3433
-2371.84 -264.398 3384
-2363.75 -264.398 3384
-2350.78 -263.851 3377
-2352.42 -264.945 3391
-2353.99 -266.039 3405
-2345.85 -266.039 3405
-2337.71 -266.039 3405
-2324.77 -265.492 3398
-2307.1 -264.398 3384
-2299.01 -264.398 3384
-2281.44 -263.304 3370
-2282.83 -264.398 3384
-2284.15 -265.492 3398
-2285.4 -266.586 3412
-2277.24 -266.586 3412
-2278.39 -267.679 3426
-2270.2 -267.679 3426
-2266.63 -268.226 3433
-2258.42 -268.226 3433
-2250.21 -268.226 3433
-2251.14 -269.32 3447
-2285.19 -274.399 3512
-2276.79 -274.399 3512
-2268.4 -274.399 3512
-2260 -274.399 3512
-2251.6 -274.399 3512
-2243.2 -274.399 3512
-2225.26 -273.227 3497
-2216.9 -273.227 3497
-2213.59 -273.852 3505
-2205.2 -273.852 3505
-2196.82 -273.852 3505
-1924.52 -289.634 3707
-1920.31 -290.338 3716
-1911.42 -290.338 3716
-1902.54 -290.338 3716
-1876.84 -287.759 3683
-1868.03 -287.759 3683
-1846.6 -285.806 3658
-1826.3 -284.009 3635
-1813.61 -283.384 3627
-1808.91 -284.009 3635
-1800.22 -284.009 3635
-1794.98 -284.556 3642
-1818.15 -289.634 3707
-1829.78 -292.916 3749
-1820.82 -292.916 3749
-1823.94 -294.869 3774
-1814.91 -294.869 3774
-1805.89 -294.869 3774
-1784.96 -292.916 3749
-1796.36 -296.276 3792
-1791.07 -296.901 3800
-1858.42 -309.636 3963
-1848.94 -309.636 3963
-1839.46 -309.636 3963
-1834.14 -310.339 3972
-1824.64 -310.339 3972
-1815.15 -310.339 3972
-1822.92 -313.308 4010
-1813.33 -313.308 4010
-1803.74 -313.308 4010
-1785.65 -311.824 3991
-1755.19 -308.152 3944
-999.666 -225.098 2881
-992.776 -225.098 2881
-985.887 -225.098 2881
-978.997 -225.098 2881
-973.795 -225.488 2886
-966.894 -225.488 2886
-959.993 -225.488 2886
-953.091 -225.488 2886
-946.19 -225.488 2886
-939.289 -225.488 2886
-932.387 -225.488 2886
-925.486 -225.488 2886
-918.585 -225.488 2886
-905.366 -223.926 2866
-897.258 -223.613 2862
-890.414 -223.613 2862
-884.805 -223.926 2866
-877.952 -223.926 2866
-871.098 -223.926 2866
-864.245 -223.926 2866
-857.391 -223.926 2866
-850.538 -223.926 2866
-843.684 -223.926 2866
-836.831 -223.926 2866
-829.977 -223.926 2866
-823.124 -223.926 2866
-816.27 -223.926 2866
-805.463 -222.832 2852
-797.243 -222.441 2847
-790.435 -222.441 2847
-783.627 -222.441 2847
-776.819 -222.441 2847
-767.306 -221.66 2837
-760.522 -221.66 2837
-752.409 -221.269 2832
-745.637 -221.269 2832
-738.865 -221.269 2832
-733.385 -221.66 2837
-726.601 -221.66 2837
-719.817 -221.66 2837
-711.776 -221.269 2832
-705.004 -221.269 2832
-697.246 -220.957 2828
-692.681 -221.66 2837
-687.105 -222.05 2842
-680.309 -222.05 2842
-673.513 -222.05 2842
-666.717 -222.05 2842
-659.921 -222.05 2842
-653.125 -222.05 2842
-646.329 -222.05 2842
-644.934 -223.926 2866
-645.872 -226.66 2901
-638.935 -226.66 2901
-631.998 -226.66 2901
-668.318 -256.585 3284
-663.08 -257.6 3297
-655.196 -257.6 3297
-653.791 -260.179 3330
-647.185 -260.726 3337
-645.527 -263.304 3370
-637.468 -263.304 3370
-632.024 -264.398 3384
-627.804 -266.039 3405
-619.661 -266.039 3405
-611.519 -266.039 3405
-603.377 -266.039 3405
-592.787 -264.945 3391
-584.678 -264.945 3391
-574.189 -263.851 3377
-564.94 -263.304 3370
-555.724 -262.757 3363
-547.682 -262.757 3363
-539.64 -262.757 3363
-531.598 -262.757 3363
-522.622 -262.288 3357
-514.595 -262.288 3357
-503.549 -260.726 3337
-495.569 -260.726 3337
-487.59 -260.726 3337
-479.61 -260.726 3337
-471.63 -260.726 3337
-463.65 -260.726 3337
-456.49 -261.194 3343
-448.496 -261.194 3343
-440.502 -261.194 3343
-430.826 -260.179 3330
-422.862 -260.179 3330
-415.772 -260.726 3337
-407.792 -260.726 3337
-399.812 -260.726 3337
-391.832 -260.726 3337
-383.852 -260.726 3337
-375.873 -260.726 3337
-367.893 -260.726 3337
-359.158 -260.179 3330
-350.457 -259.632 3323
-342.511 -259.632 3323
-334.564 -259.632 3323
-326.618 -259.632 3323
-318.672 -259.632 3323
-310.725 -259.632 3323
-302.779 -259.632 3323
-295.454 -260.179 3330
-289.217 -261.741 3350
-283.473 -263.851 3377
-275.398 -263.851 3377
-270.647 -267.133 3419
-264.083 -268.773 3440
-255.857 -268.773 3440
-247.631 -268.773 3440
-152.76 -171.499 2195
-147.511 -171.499 2195
-142.262 -171.499 2195
-137.013 -171.499 2195
-130.744 -170.171 2178
-125.19 -169.702 2172
-119.996 -169.702 2172
-114.537 -169.312 2167
-109.356 -169.312 2167
-104.029 -169.077 2164
-98.8546 -169.077 2164
-93.4201 -168.608 2158
-88.2596 -168.608 2158
-82.9067 -168.218 2153
-77.7582 -168.218 2153
-72.5085 -167.983 2150
-67.1792 -167.514 2144
-61.9076 -167.124 2139
-56.7926 -167.124 2139
-51.5326 -166.655 2133
-46.3884 -166.499 2131
-41.1763 -166.03 2125
-36.0948 -166.03 2125
-31.0133 -166.03 2125
-25.8707 -165.639 2120
-20.7717 -165.405 2117
-15.7093 -165.405 2117
-10.647 -165.405 2117
-5.57666 -165.171 2114
-0.521442 -165.171 2114
4.52948 -165.014 2112
9.57992 -165.014 2112
14.6096 -164.78 2109
19.6249 -164.545 2106
24.6024 -164.155 2101
29.6265 -164.155 2101
34.6012 -163.92 2098
39.6181 -163.92 2098
44.6351 -163.92 2098
49.652 -163.92 2098
54.5387 -163.53 2093
59.5437 -163.53 2093
64.5487 -163.53 2093
69.5537 -163.53 2093
74.4874 -163.374 2091
79.4877 -163.374 2091
84.5687 -163.53 2093
89.5737 -163.53 2093
94.5787 -163.53 2093
99.5837 -163.53 2093
104.589 -163.53 2093
109.594 -163.53 2093
114.599 -163.53 2093
119.489 -163.374 2091
124.49 -163.374 2091
129.118 -162.905 2085
134.104 -162.905 2085
138.756 -162.514 2080
143.592 -162.358 2078
148.347 -162.123 2075
153.309 -162.123 2075
157.508 -161.342 2065
162.21 -161.108 2062
166.736 -160.717 2057
171.654 -160.717 2057
175.887 -160.092 2049
179.904 -159.311 2039
184.146 -158.764 2032
189.005 -158.764 2032
193.387 -158.373 2027
198.038 -158.217 2025
202.58 -157.982 2022
207.21 -157.826 2020
212.041 -157.826 2020
216.549 -157.592 2017
221.153 -157.436 2015
225.635 -157.201 2012
231.362 -157.826 2020
236.193 -157.826 2020
241.023 -157.826 2020
246.097 -157.982 2022
250.932 -157.982 2022
255.768 -157.982 2022
260.603 -157.982 2022
397.56 -228.301 2922
404.548 -228.301 2922
412.239 -228.692 2927
419.239 -228.692 2927
426.238 -228.692 2927
432.497 -228.301 2922
439.485 -228.301 2922
444.791 -227.442 2911
451.752 -227.442 2911
457.138 -226.66 2901
464.075 -226.66 2901
468.577 -225.488 2886
474.654 -225.098 2881
481.543 -225.098 2881
486.737 -224.316 2871
493.603 -224.316 2871
498.899 -223.613 2862
505.743 -223.613 2862
512.587 -223.613 2862
519.431 -223.613 2862
526.275 -223.613 2862
533.119 -223.613 2862
539.02 -223.222 2857
545.852 -223.222 2857
551.716 -222.832 2852
558.536 -222.832 2852
565.356 -222.832 2852
571.173 -222.441 2847
576.966 -222.05 2842
583.762 -222.05 2842
591.597 -222.441 2847
598.405 -222.441 2847
605.213 -222.441 2847
610.946 -222.05 2842
617.743 -222.05 2842
624.539 -222.05 2842
631.335 -222.05 2842
638.131 -222.05 2842
644.927 -222.05 2842
650.576 -221.66 2837
656.202 -221.269 2832
662.038 -220.957 2828
668.8 -220.957 2828
675.563 -220.957 2828
682.326 -220.957 2828
689.088 -220.957 2828
695.851 -220.957 2828
702.613 -220.957 2828
709.376 -220.957 2828
716.139 -220.957 2828
722.901 -220.957 2828
729.664 -220.957 2828
735.124 -220.566 2823
741.875 -220.566 2823
748.626 -220.566 2823
755.376 -220.566 2823
762.127 -220.566 2823
768.878 -220.566 2823
775.628 -220.566 2823
782.379 -220.566 2823
786.334 -219.785 2813
793.061 -219.785 2813
801.209 -220.175 2818
807.948 -220.175 2818
814.687 -220.175 2818
821.425 -220.175 2818
828.164 -220.175 2818
836.384 -220.566 2823
843.135 -220.566 2823
851.391 -220.957 2828
858.153 -220.957 2828
864.916 -220.957 2828
871.679 -220.957 2828
876.888 -220.566 2823
883.639 -220.566 2823
890.389 -220.566 2823
895.551 -220.175 2818
900.689 -219.785 2813
907.415 -219.785 2813
914.142 -219.785 2813
922.506 -220.175 2818
929.244 -220.175 2818
939.305 -220.957 2828
946.067 -220.957 2828
952.83 -220.957 2828
1226.05 -280.337 3588
1253.22 -284.556 3642
1261.92 -284.556 3642
1273.43 -285.181 3650
1284.96 -285.806 3658
1296.89 -286.509 3667
1305.66 -286.509 3667
1314.43 -286.509 3667
1323.2 -286.509 3667
1331.97 -286.509 3667
1334.52 -285.181 3650
1337.73 -284.009 3635
1343.46 -283.384 3627
1352.13 -283.384 3627
1360.81 -283.384 3627
1366.46 -282.759 3619
1372.07 -282.134 3611
1380.71 -282.134 3611
1389.34 -282.134 3611
1394.88 -281.509 3603
1397.65 -280.337 3588
1408.98 -280.884 3595
1417.57 -280.884 3595
1426.17 -280.884 3595
1434.77 -280.884 3595
1440.55 -280.337 3588
1449.13 -280.337 3588
1454.46 -279.712 3580
1463.02 -279.712 3580
1468.3 -279.087 3572
1476.84 -279.087 3572
1482.47 -278.54 3565
1487.65 -277.915 3557
1489.85 -276.743 3542
1498.32 -276.743 3542
1497.43 -275.024 3520
1499.43 -273.852 3505
1507.81 -273.852 3505
1516.19 -273.852 3505
1508.48 -270.961 3468
1513.71 -270.414 3461
1509.67 -268.226 3433
1499.31 -264.945 3391
1507.42 -264.945 3391
1494.08 -261.194 3343
1493.08 -259.632 3323
1501.03 -259.632 3323
1508.98 -259.632 3323
1514.18 -259.163 3317
1522.12 -259.163 3317
1532.82 -259.632 3323
1540.76 -259.632 3323
1548.71 -259.632 3323
1556.66 -259.632 3323
1488.84 -214.394 2744
1502.48 -215.409 2757
1509.08 -215.409 2757
1515.67 -215.409 2757
1515.08 -214.394 2744
1508.89 -212.597 2721
1520.41 -213.3 2730
1526.94 -213.3 2730
1533.47 -213.3 2730
1540 -213.3 2730
1541.43 -212.597 2721
1553.05 -213.3 2730
1559.58 -213.3 2730
1566.11 -213.3 2730
1572.64 -213.3 2730
1582.06 -213.69 2735
1588.6 -213.69 2735
1595.14 -213.69 2735
1601.68 -213.69 2735
1608.22 -213.69 2735
1609.44 -212.987 2726
1613 -212.597 2721
1619.51 -212.597 2721
1621.23 -211.971 2713
1627.72 -211.971 2713
1623.36 -210.565 2695
1629.81 -210.565 2695
1630.79 -209.862 2686
1637.21 -209.862 2686
1630.79 -208.221 2665
1626.71 -206.893 2648
1633.05 -206.893 2648
1639.38 -206.893 2648
1645.71 -206.893 2648
1652.04 -206.893 2648
1655.87 -206.58 2644
1654.02 -205.565 2631
1660.31 -205.565 2631
1664.07 -205.252 2627
1670.35 -205.252 2627
1676.63 -205.252 2627
1682.92 -205.252 2627
1689.2 -205.252 2627
1690.32 -204.627 2619
1693.99 -204.315 2615
1700.24 -204.315 2615
1706.49 -204.315 2615
1710.13 -204.002 2611
1713.74 -203.69 2607
1719.98 -203.69 2607
1726.21 -203.69 2607
1729.79 -203.377 2603
1733.34 -203.064 2599
1736.21 -202.674 2594
1742.41 -202.674 2594
1745.92 -202.361 2590
1749.41 -202.049 2586
1755.59 -202.049 2586
1761.78 -202.049 2586
1765.23 -201.736 2582
1771.4 -201.736 2582
1772.07 -201.111 2574
1780.99 -201.424 2578
1787.15 -201.424 2578
1793.31 -201.424 2578
1799.48 -201.424 2578
1805.64 -201.424 2578
1811.81 -201.424 2578
1817.97 -201.424 2578
1824.14 -201.424 2578
1827.46 -201.111 2574
1833.62 -201.111 2574
1837.63 -200.877 2571
1843.78 -200.877 2571
1849.93 -200.877 2571
1858.24 -201.111 2574
1864.4 -201.111 2574
1870.55 -201.111 2574
1876.71 -201.111 2574
1882.86 -201.111 2574
1883.88 -200.564 2567
1892.96 -200.877 2571
1899.11 -200.877 2571
1905.26 -200.877 2571
1911.41 -200.877 2571
1917.55 -200.877 2571
1920.71 -200.564 2567
1926.85 -200.564 2567
1932.99 -200.564 2567
1939.12 -200.564 2567
1945.26 -200.564 2567
1956.72 -201.111 2574
1962.88 -201.111 2574
1969.03 -201.111 2574
-2041.02 -206.457 2726
-2034.5 -206.457 2726
-2027.99 -206.457 2726
-2453.94 -261.593 3454
-2445.68 -261.593 3454
-2437.42 -261.593 3454
-2414.39 -260.003 3433
-2371.84 -256.291 3384
-2363.75 -256.291 3384
-2350.78 -255.761 3377
-2352.42 -256.822 3391
-2353.99 -257.882 3405
-2345.85 -257.882 3405
-2337.71 -257.882 3405
-2329.56 -257.882 3405
-2321.42 -257.882 3405
-2313.28 -257.882 3405
-2300.4 -257.352 3398
-2292.27 -257.352 3398
-2293.56 -258.412 3412
-2294.77 -259.472 3426
-2286.58 -259.472 3426
-2283.04 -260.003 3433
-2274.83 -260.003 3433
-2275.87 -261.063 3447
-2267.63 -261.063 3447
-2259.38 -261.063 3447
-2274.65 -263.789 3483
-2290.4 -266.592 3520
-2281.98 -266.592 3520
-2278.08 -267.122 3527
-2269.65 -267.122 3527
-2261.22 -267.122 3527
-2252.78 -267.122 3527
-2239.89 -266.592 3520
-2231.48 -266.592 3520
-2223.06 -266.592 3520
-2214.64 -266.592 3520
-2191.81 -264.85 3497
-2153.51 -293.857 3880
-2144.23 -293.857 3880
-2134.96 -293.857 3880
-2120.75 -293.175 3871
-2111.49 -293.175 3871
-1964.28 -282.648 3732
-1955.35 -282.648 3732
-1946.43 -282.648 3732
-1946.33 -283.935 3749
-1937.36 -283.935 3749
-1928.4 -283.935 3749
-1919.43 -283.935 3749
-1910.47 -283.935 3749
-1901.5 -283.935 3749
-1859.22 -278.937 3683
-1833.83 -276.437 3650
-1817.61 -275.301 3635
-1808.91 -275.301 3635
-1800.22 -275.301 3635
-1794.98 -275.831 3642
-1818.15 -280.754 3707
-1829.78 -283.935 3749
-1820.82 -283.935 3749
-1823.94 -285.829 3774
-1814.91 -285.829 3774
-1805.89 -285.829 3774
-1784.96 -283.935 3749
-1779.78 -284.541 3757
-1791.07 -287.798 3800
-1781.98 -287.798 3800
-1772.89 -287.798 3800
-1826.47 -298.022 3935
-1817.06 -298.022 3935
-1807.65 -298.022 3935
-1798.24 -298.022 3935
-1801.56 -300.143 3963
-1792.08 -300.143 3963
-1782.6 -300.143 3963
-1760.6 -298.022 3935
-1751.19 -298.022 3935
-1709.47 -292.493 3862
-1018.67 -216.378 2857
-1011.83 -216.378 2857
-1005 -216.378 2857
-998.17 -216.378 2857
-999.666 -218.196 2881
-992.776 -218.196 2881
-985.887 -218.196 2881
-978.997 -218.196 2881
-973.795 -218.575 2886
-966.894 -218.575 2886
-959.993 -218.575 2886
-953.091 -218.575 2886
-946.19 -218.575 2886
-939.289 -218.575 2886
-932.387 -218.575 2886
-925.486 -218.575 2886
-918.585 -218.575 2886
-905.366 -217.06 2866
-897.258 -216.757 2862
-890.414 -216.757 2862
-884.805 -217.06 2866
-877.952 -217.06 2866
-871.098 -217.06 2866
-865.753 -217.439 2871
-858.887 -217.439 2871
-852.022 -217.439 2871
-845.156 -217.439 2871
-838.291 -217.439 2871
-831.425 -217.439 2871
-824.56 -217.439 2871
-817.694 -217.439 2871
-809.417 -217.06 2866
-800.043 -216.378 2857
-793.211 -216.378 2857
-786.379 -216.378 2857
-778.183 -216 2852
-770.011 -215.621 2847
-763.203 -215.621 2847
-755.066 -215.242 2842
-746.954 -214.864 2837
-740.17 -214.864 2837
-734.678 -215.242 2842
-727.882 -215.242 2842
-721.086 -215.242 2842
-713.033 -214.864 2837
-706.249 -214.864 2837
-698.232 -214.485 2832
-693.901 -215.242 2842
-687.105 -215.242 2842
-681.506 -215.621 2847
-674.698 -215.621 2847
-667.89 -215.621 2847
-659.921 -215.242 2842
-654.274 -215.621 2847
-647.466 -215.621 2847
-644.934 -217.06 2866
-645.872 -219.711 2901
-638.935 -219.711 2901
-631.998 -219.711 2901
-668.318 -248.718 3284
-661.672 -249.172 3290
-653.805 -249.172 3290
-653.791 -252.202 3330
-648.349 -253.186 3343
-645.527 -255.231 3370
-637.468 -255.231 3370
-632.024 -256.291 3384
-627.804 -257.882 3405
-619.661 -257.882 3405
-611.519 -257.882 3405
-603.377 -257.882 3405
-592.787 -256.822 3391
-584.678 -256.822 3391
-574.189 -255.761 3377
-563.766 -254.701 3363
-555.724 -254.701 3363
-547.682 -254.701 3363
-539.64 -254.701 3363
-531.598 -254.701 3363
-520.443 -253.186 3343
-512.449 -253.186 3343
-503.549 -252.732 3337
-494.53 -252.202 3330
-486.567 -252.202 3330
-478.604 -252.202 3330
-469.651 -251.672 3323
-462.678 -252.202 3330
-454.715 -252.202 3330
-446.752 -252.202 3330
-438.789 -252.202 3330
-429.144 -251.217 3317
-421.212 -251.217 3317
-414.027 -251.672 3323
-406.936 -252.202 3330
-398.973 -252.202 3330
-391.01 -252.202 3330
-383.047 -252.202 3330
-375.084 -252.202 3330
-367.121 -252.202 3330
-357.756 -251.217 3317
-349.086 -250.687 3310
-341.892 -251.217 3317
-333.96 -251.217 3317
-326.028 -251.217 3317
-318.096 -251.217 3317
-310.164 -251.217 3317
-302.232 -251.217 3317
-294.3 -251.217 3317
-286.886 -251.672 3323
-281.207 -253.716 3350
-273.196 -253.716 3350
-269.539 -257.882 3405
-261.934 -258.412 3412
-253.775 -258.412 3412
-245.615 -258.412 3412
-152.76 -166.241 2195
-147.511 -166.241 2195
-142.262 -166.241 2195
-136.639 -165.787 2189
-130.744 -164.954 2178
-125.19 -164.499 2172
-119.996 -164.499 2172
-114.643 -164.272 2169
-109.356 -164.12 2167
-104.029 -163.893 2164
-98.8546 -163.893 2164
-93.6798 -163.893 2164
-88.2596 -163.439 2158
-82.9837 -163.212 2155
-77.8304 -163.212 2155
-72.5085 -162.833 2150
-67.2732 -162.606 2147
-61.9944 -162.227 2142
-56.8722 -162.227 2142
-51.6051 -161.773 2136
-46.432 -161.545 2133
-41.2344 -161.167 2128
-36.1457 -161.167 2128
-31.0133 -160.94 2125
-25.8707 -160.561 2120
-20.7717 -160.334 2117
-15.7093 -160.334 2117
-10.647 -160.334 2117
-5.57666 -160.106 2114
-0.521442 -160.106 2114
4.52948 -159.955 2112
9.57992 -159.955 2112
14.6096 -159.728 2109
19.6249 -159.501 2106
24.6024 -159.122 2101
29.6265 -159.122 2101
34.6012 -158.895 2098
39.6181 -158.895 2098
44.6351 -158.895 2098
49.652 -158.895 2098
54.5387 -158.516 2093
59.5437 -158.516 2093
64.487 -158.365 2091
69.4872 -158.365 2091
74.4874 -158.365 2091
79.4877 -158.365 2091
84.4879 -158.365 2091
89.4881 -158.365 2091
94.5787 -158.516 2093
99.5837 -158.516 2093
104.589 -158.516 2093
109.594 -158.516 2093
114.599 -158.516 2093
119.604 -158.516 2093
124.49 -158.365 2091
129.304 -158.137 2088
134.297 -158.137 2088
138.756 -157.531 2080
143.592 -157.38 2078
148.347 -157.153 2075
153.309 -157.153 2075
157.508 -156.395 2065
162.21 -156.168 2062
166.736 -155.789 2057
171.654 -155.789 2057
175.887 -155.184 2049
180.169 -154.653 2042
184.599 -154.275 2037
189.47 -154.275 2037
193.387 -153.517 2027
198.234 -153.517 2027
202.58 -153.139 2022
207.415 -153.139 2022
212.251 -153.139 2022
216.549 -152.76 2017
221.153 -152.609 2015
225.635 -152.381 2012
231.362 -152.987 2020
236.193 -152.987 2020
241.023 -152.987 2020
245.854 -152.987 2020
250.684 -152.987 2020
255.515 -152.987 2020
260.345 -152.987 2020
392.662 -218.575 2886
399.564 -218.575 2886
410.831 -220.923 2917
417.806 -220.923 2917
424.782 -220.923 2917
431.757 -220.923 2917
434.822 -218.954 2891
441.735 -218.954 2891
448.649 -218.954 2891
455.562 -218.954 2891
461.675 -218.575 2886
468.577 -218.575 2886
473.007 -217.439 2871
479.872 -217.439 2871
486.737 -217.439 2871
492.743 -217.06 2866
498.899 -216.757 2862
505.743 -216.757 2862
512.587 -216.757 2862
519.431 -216.757 2862
526.275 -216.757 2862
533.119 -216.757 2862
539.02 -216.378 2857
545.852 -216.378 2857
551.716 -216 2852
558.536 -216 2852
565.356 -216 2852
571.173 -215.621 2847
576.966 -215.242 2842
583.762 -215.242 2842
591.597 -215.621 2847
598.405 -215.621 2847
605.213 -215.621 2847
610.946 -215.242 2842
617.743 -215.242 2842
624.539 -215.242 2842
631.335 -215.242 2842
638.131 -215.242 2842
644.927 -215.242 2842
650.576 -214.864 2837
656.202 -214.485 2832
662.974 -214.485 2832
669.746 -214.485 2832
675.563 -214.182 2828
682.326 -214.182 2828
689.088 -214.182 2828
695.851 -214.182 2828
702.613 -214.182 2828
709.376 -214.182 2828
716.139 -214.182 2828
722.901 -214.182 2828
729.664 -214.182 2828
736.426 -214.182 2828
741.875 -213.803 2823
748.626 -213.803 2823
755.376 -213.803 2823
762.127 -213.803 2823
768.878 -213.803 2823
775.628 -213.803 2823
782.379 -213.803 2823
787.732 -213.425 2818
794.471 -213.425 2818
801.209 -213.425 2818
807.948 -213.425 2818
814.687 -213.425 2818
821.425 -213.425 2818
828.164 -213.425 2818
836.384 -213.803 2823
843.135 -213.803 2823
851.391 -214.182 2828
858.153 -214.182 2828
864.916 -214.182 2828
871.679 -214.182 2828
876.888 -213.803 2823
883.639 -213.803 2823
890.389 -213.803 2823
893.962 -213.046 2813
900.689 -213.046 2813
907.415 -213.046 2813
915.767 -213.425 2818
922.506 -213.425 2818
929.244 -213.425 2818
939.305 -214.182 2828
946.067 -214.182 2828
952.83 -214.182 2828
956.199 -213.425 2818
1253.22 -275.831 3642
1261.92 -275.831 3642
1276.22 -277.043 3658
1288.12 -277.725 3667
1299.72 -278.331 3675
1308.51 -278.331 3675
1317.3 -278.331 3675
1326.09 -278.331 3675
1334.88 -278.331 3675
1340.74 -277.725 3667
1343.25 -276.437 3650
1346.42 -275.301 3635
1355.12 -275.301 3635
1363.81 -275.301 3635
1369.48 -274.695 3627
1378.15 -274.695 3627
1386.83 -274.695 3627
1392.42 -274.09 3619
1397.98 -273.484 3611
1403.5 -272.878 3603
1412.11 -272.878 3603
1420.73 -272.878 3603
1429.34 -272.878 3603
1437.96 -272.878 3603
1443.36 -272.272 3595
1451.96 -272.272 3595
1454.46 -271.136 3580
1459.76 -270.53 3572
1465.42 -270 3565
1473.94 -270 3565
1475.82 -268.788 3549
1481.38 -268.258 3542
1483.54 -267.122 3527
1491.97 -267.122 3527
1484.66 -264.32 3490
1477.61 -261.593 3454
1476.84 -260.003 3433
1485.04 -260.003 3433
1493.25 -260.003 3433
1495.34 -258.942 3419
1464.38 -252.202 3330
1469.25 -251.672 3323
1477.19 -251.672 3323
1465.03 -248.263 3278
1461.18 -246.294 3252
1468.96 -246.294 3252
1482.64 -247.279 3265
1490.45 -247.279 3265
1498.25 -247.279 3265
1514.83 -248.718 3284
1528.71 -249.702 3297
1536.59 -249.702 3297
1544.48 -249.702 3297
1495.4 -207.82 2744
1501.96 -207.82 2744
1508.52 -207.82 2744
1507.35 -206.76 2730
1508.89 -206.078 2721
1520.41 -206.76 2730
1526.94 -206.76 2730
1533.47 -206.76 2730
1540 -206.76 2730
1544.26 -206.457 2726
1553.05 -206.76 2730
1559.58 -206.76 2730
1566.11 -206.76 2730
1572.64 -206.76 2730
1582.06 -207.139 2735
1588.6 -207.139 2735
1595.14 -207.139 2735
1601.68 -207.139 2735
1608.22 -207.139 2735
1609.44 -206.457 2726
1613 -206.078 2721
1619.51 -206.078 2721
1621.23 -205.472 2713
1627.72 -205.472 2713
1628.79 -204.791 2704
1629.81 -204.109 2695
1633.83 -203.806 2691
1640.26 -203.806 2691
1635.68 -202.443 2673
1634.7 -201.534 2661
1641.06 -201.534 2661
1647.43 -201.534 2661
1653.79 -201.534 2661
1654.54 -200.853 2652
1658.38 -200.55 2648
1662.19 -200.247 2644
1668.52 -200.247 2644
1674.84 -200.247 2644
1678.62 -199.944 2640
1681.74 -199.565 2635
1688.04 -199.565 2635
1691.77 -199.262 2631
1690.32 -198.353 2619
1696.58 -198.353 2619
1702.84 -198.353 2619
1709.1 -198.353 2619
1712.75 -198.05 2615
1713.74 -197.444 2607
1719.98 -197.444 2607
1726.21 -197.444 2607
1729.79 -197.141 2603
1736.01 -197.141 2603
1739.56 -196.839 2599
1745.77 -196.839 2599
1748.62 -196.46 2594
1754.82 -196.46 2594
1761.02 -196.46 2594
1767.23 -196.46 2594
1770.69 -196.157 2590
1771.4 -195.551 2582
1774.82 -195.248 2578
1783.75 -195.551 2582
1789.92 -195.551 2582
1798.88 -195.854 2586
1805.06 -195.854 2586
1811.25 -195.854 2586
1817.43 -195.854 2586
1820.79 -195.551 2582
1826.97 -195.551 2582
1830.3 -195.248 2578
1836.47 -195.248 2578
1839.77 -194.945 2574
1845.93 -194.945 2574
1852.08 -194.945 2574
1858.24 -194.945 2574
1864.4 -194.945 2574
1870.55 -194.945 2574
1876.71 -194.945 2574
1882.86 -194.945 2574
1883.88 -194.415 2567
1892.96 -194.718 2571
1899.11 -194.718 2571
1905.26 -194.718 2571
1911.41 -194.718 2571
1917.55 -194.718 2571
1920.71 -194.415 2567
1926.85 -194.415 2567
1932.99 -194.415 2567
1939.12 -194.415 2567
1945.26 -194.415 2567
1956.72 -194.945 2574
1962.88 -194.945 2574
1969.03 -194.945 2574
-2041.02 -199.927 2726
-2034.5 -199.927 2726
-2027.99 -199.927 2726
-2453.94 -253.319 3454
-2445.68 -253.319 3454
-2437.42 -253.319 3454
-2389.78 -249.212 3398
-2366.93 -247.672 3377
-2358.86 -247.672 3377
-2350.78 -247.672 3377
-2352.42 -248.698 3391
-2349.15 -249.212 3398
-2341.02 -249.212 3398
-2332.9 -249.212 3398
-2334.35 -250.239 3412
-2326.19 -250.239 3412
-2318.03 -250.239 3412
-2305.14 -249.725 3405
-2296.99 -249.725 3405
-2302.97 -251.265 3426
-2294.77 -251.265 3426
-2286.58 -251.265 3426
-2283.04 -251.779 3433
-2274.83 -251.779 3433
-2275.87 -252.806 3447
-2267.63 -252.806 3447
-2268.56 -253.832 3461
-2283.79 -256.473 3497
-2309.27 -260.286 3549
-2300.78 -260.286 3549
-2312.32 -262.56 3580
-2303.76 -262.56 3580
-2295.19 -262.56 3580
-2271.94 -260.873 3557
-2263.44 -260.873 3557
-2289.16 -264.833 3611
-2280.53 -264.833 3611
-2271.89 -264.833 3611
-2172.82 -285.882 3898
-2163.5 -285.882 3898
-2154.18 -285.882 3898
-2134.96 -284.562 3880
-2120.75 -283.902 3871
-2111.49 -283.902 3871
-2068.56 -279.355 3809
-1951.52 -270.701 3691
-1964.28 -273.708 3732
-1955.35 -273.708 3732
-1946.43 -273.708 3732
-1946.33 -274.954 3749
-1937.36 -274.954 3749
-1928.4 -274.954 3749
-1919.43 -274.954 3749
-1910.47 -274.954 3749
-1901.5 -274.954 3749
-1859.22 -270.114 3683
-1833.83 -267.694 3650
-1817.61 -266.594 3635
-1808.91 -266.594 3635
-1800.22 -266.594 3635
-1794.98 -267.107 3642
-1818.15 -271.874 3707
-1825.39 -274.294 3740
-1816.45 -274.294 3740
-1811.85 -274.954 3749
-1802.89 -274.954 3749
-1793.92 -274.954 3749
-1784.96 -274.954 3749
-1775.99 -274.954 3749
-1778.81 -276.788 3774
-1781.98 -278.695 3800
-1772.89 -278.695 3800
-1784.23 -281.922 3844
-1779.19 -282.582 3853
-1782.38 -284.562 3880
-1773.1 -284.562 3880
-1772.01 -285.882 3898
-1762.69 -285.882 3898
-1753.37 -285.882 3898
-1740.02 -285.222 3889
-1726.71 -284.562 3880
-1709.47 -283.242 3862
-1688.35 -281.262 3835
-1679.17 -281.262 3835
-1647.36 -277.448 3783
-1117.82 -210.195 2866
-1110.97 -210.195 2866
-1104.12 -210.195 2866
-1084.22 -211.661 2886
-1077.31 -211.661 2886
-1075.98 -212.762 2901
-1069.04 -212.762 2901
-1062.1 -212.762 2901
-1053.35 -212.395 2896
-1044.61 -212.028 2891
-1035.91 -211.661 2886
-1029.01 -211.661 2886
-1016.79 -210.561 2871
-1008.17 -210.195 2866
-1001.31 -210.195 2866
-997.931 -210.928 2876
-991.053 -210.928 2876
-984.176 -210.928 2876
-978.997 -211.295 2881
-972.108 -211.295 2881
-965.219 -211.295 2881
-958.329 -211.295 2881
-949.789 -210.928 2876
-942.911 -210.928 2876
-936.034 -210.928 2876
-929.157 -210.928 2876
-920.676 -210.561 2871
-913.81 -210.561 2871
-905.366 -210.195 2866
-895.691 -209.535 2857
-890.414 -209.901 2862
-884.805 -210.195 2866
-877.952 -210.195 2866
-871.098 -210.195 2866
-865.753 -210.561 2871
-858.887 -210.561 2871
-852.022 -210.561 2871
-845.156 -210.561 2871
-838.291 -210.561 2871
-831.425 -210.561 2871
-824.56 -210.561 2871
-817.694 -210.561 2871
-809.417 -210.195 2866
-802.563 -210.195 2866
-795.71 -210.195 2866
-786.379 -209.535 2857
-779.547 -209.535 2857
-772.715 -209.535 2857
-765.883 -209.535 2857
-756.395 -208.801 2847
-749.587 -208.801 2847
-742.779 -208.801 2847
-735.971 -208.801 2847
-729.163 -208.801 2847
-722.354 -208.801 2847
-714.29 -208.434 2842
-707.494 -208.434 2842
-699.465 -208.068 2837
-695.122 -208.801 2847
-688.314 -208.801 2847
-681.506 -208.801 2847
-674.698 -208.801 2847
-667.89 -208.801 2847
-661.082 -208.801 2847
-654.274 -208.801 2847
-647.466 -208.801 2847
-644.934 -210.195 2866
-645.872 -212.762 2901
-638.935 -212.762 2901
-631.998 -212.762 2901
-668.318 -240.851 3284
-661.672 -241.291 3290
-653.805 -241.291 3290
-655.165 -244.738 3337
-651.064 -246.205 3357
-646.867 -247.672 3377
-638.792 -247.672 3377
-634.639 -249.212 3398
-627.804 -249.725 3405
-619.661 -249.725 3405
-611.519 -249.725 3405
-602.136 -249.212 3398
-592.787 -248.698 3391
-584.678 -248.698 3391
-574.189 -247.672 3377
-563.766 -246.645 3363
-554.733 -246.205 3357
-546.705 -246.205 3357
-537.554 -245.691 3350
-529.543 -245.691 3350
-520.443 -245.178 3343
-512.449 -245.178 3343
-503.549 -244.738 3337
-493.49 -243.711 3323
-485.544 -243.711 3323
-477.598 -243.711 3323
-468.803 -243.271 3317
-460.871 -243.271 3317
-452.939 -243.271 3317
-445.008 -243.271 3317
-437.076 -243.271 3317
-428.238 -242.758 3310
-421.212 -243.271 3317
-413.28 -243.271 3317
-406.081 -243.711 3323
-398.135 -243.711 3323
-390.188 -243.711 3323
-382.242 -243.711 3323
-374.296 -243.711 3323
-365.688 -243.271 3317
-357.001 -242.758 3310
-348.348 -242.244 3303
-340.449 -242.244 3303
-332.551 -242.244 3303
-324.652 -242.244 3303
-316.754 -242.244 3303
-308.855 -242.244 3303
-300.957 -242.244 3303
-293.679 -242.758 3310
-286.368 -243.271 3317
-279.528 -244.225 3330
-271.565 -244.225 3330
-266.214 -246.645 3363
-261.396 -249.725 3405
-253.254 -249.725 3405
-245.111 -249.725 3405
-152.76 -160.983 2195
-147.511 -160.983 2195
-142.262 -160.983 2195
-136.639 -160.543 2189
-130.744 -159.736 2178
-125.363 -159.516 2175
-120.161 -159.516 2175
-114.802 -159.296 2172
-109.456 -159.076 2169
-104.174 -158.929 2167
-98.9916 -158.929 2167
-93.6798 -158.709 2164
-88.2596 -158.269 2158
-83.0992 -158.269 2158
-77.9388 -158.269 2158
-72.5085 -157.683 2150
-67.2732 -157.463 2147
-61.9944 -157.096 2142
-56.8722 -157.096 2142
-51.6051 -156.656 2136
-46.432 -156.436 2133
-41.2344 -156.069 2128
-36.1457 -156.069 2128
-31.0133 -155.849 2125
-25.8707 -155.482 2120
-20.8012 -155.482 2120
-15.7093 -155.262 2117
-10.647 -155.262 2117
-5.57666 -155.042 2114
-0.521442 -155.042 2114
4.52948 -154.896 2112
9.57992 -154.896 2112
14.6096 -154.676 2109
19.6249 -154.456 2106
24.6024 -154.089 2101
29.6265 -154.089 2101
34.6012 -153.869 2098
39.6181 -153.869 2098
44.5925 -153.722 2096
49.6047 -153.722 2096
54.5387 -153.502 2093
59.4868 -153.355 2091
64.487 -153.355 2091
69.4872 -153.355 2091
74.4874 -153.355 2091
79.4877 -153.355 2091
84.4879 -153.355 2091
89.4881 -153.355 2091
94.5787 -153.502 2093
99.5837 -153.502 2093
104.589 -153.502 2093
109.594 -153.502 2093
114.599 -153.502 2093
119.604 -153.502 2093
124.49 -153.355 2091
129.304 -153.135 2088
134.297 -153.135 2088
138.756 -152.549 2080
143.592 -152.402 2078
148.347 -152.182 2075
153.309 -152.182 2075
157.508 -151.449 2065
162.21 -151.229 2062
166.736 -150.862 2057
171.654 -150.862 2057
175.887 -150.275 2049
180.169 -149.762 2042
184.599 -149.395 2037
189.47 -149.395 2037
193.387 -148.662 2027
198.234 -148.662 2027
202.58 -148.295 2022
207.415 -148.295 2022
212.251 -148.295 2022
216.549 -147.928 2017
221.153 -147.782 2015
225.635 -147.562 2012
231.362 -148.148 2020
236.193 -148.148 2020
241.023 -148.148 2020
245.854 -148.148 2020
250.684 -148.148 2020
255.515 -148.148 2020
260.345 -148.148 2020
392.662 -211.661 2886
399.564 -211.661 2886
406.465 -211.661 2886
413.366 -211.661 2886
420.267 -211.661 2886
427.169 -211.661 2886
434.07 -211.661 2886
440.971 -211.661 2886
447.873 -211.661 2886
454.774 -211.661 2886
461.675 -211.661 2886
466.953 -210.928 2876
473.007 -210.561 2871
479.872 -210.561 2871
485.89 -210.195 2866
492.056 -209.901 2862
498.899 -209.901 2862
505.743 -209.901 2862
512.587 -209.901 2862
519.431 -209.901 2862
526.275 -209.901 2862
533.119 -209.901 2862
539.02 -209.535 2857
545.852 -209.535 2857
551.716 -209.168 2852
558.536 -209.168 2852
565.356 -209.168 2852
571.173 -208.801 2847
577.981 -208.801 2847
584.789 -208.801 2847
591.597 -208.801 2847
598.405 -208.801 2847
605.213 -208.801 2847
610.946 -208.434 2842
617.743 -208.434 2842
624.539 -208.434 2842
631.335 -208.434 2842
638.131 -208.434 2842
644.927 -208.434 2842
650.576 -208.068 2837
656.202 -207.701 2832
662.974 -207.701 2832
669.746 -207.701 2832
675.563 -207.408 2828
683.291 -207.701 2832
690.063 -207.701 2832
696.835 -207.701 2832
702.613 -207.408 2828
709.376 -207.408 2828
716.139 -207.408 2828
722.901 -207.408 2828
729.664 -207.408 2828
736.426 -207.408 2828
743.189 -207.408 2828
748.626 -207.041 2823
755.376 -207.041 2823
762.127 -207.041 2823
768.878 -207.041 2823
775.628 -207.041 2823
782.379 -207.041 2823
789.13 -207.041 2823
795.88 -207.041 2823
801.209 -206.674 2818
807.948 -206.674 2818
814.687 -206.674 2818
821.425 -206.674 2818
829.633 -207.041 2823
836.384 -207.041 2823
843.135 -207.041 2823
851.391 -207.408 2828
858.153 -207.408 2828
864.916 -207.408 2828
871.679 -207.408 2828
876.888 -207.041 2823
883.639 -207.041 2823
890.389 -207.041 2823
893.962 -206.308 2813
900.689 -206.308 2813
907.415 -206.308 2813
915.767 -206.674 2818
922.506 -206.674 2818
929.244 -206.674 2818
939.305 -207.408 2828
946.067 -207.408 2828
952.83 -207.408 2828
956.199 -206.674 2818
1279.36 -268.941 3667
1293.75 -270.114 3683
1314.22 -272.534 3716
1323.11 -272.534 3716
1332 -272.534 3716
1337.63 -271.874 3707
1346.5 -271.874 3707
1346.59 -270.114 3683
1349.51 -268.941 3667
1358.28 -268.941 3667
1367.05 -268.941 3667
1369.44 -267.694 3650
1375.14 -267.107 3642
1381.19 -266.594 3635
1389.89 -266.594 3635
1395.5 -266.007 3627
1401.08 -265.42 3619
1403.5 -264.247 3603
1412.11 -264.247 3603
1420.73 -264.247 3603
1429.34 -264.247 3603
1437.96 -264.247 3603
1443.36 -263.66 3595
1451.96 -263.66 3595
1454.46 -262.56 3580
1456.89 -261.46 3565
1462.13 -260.873 3557
1470.64 -260.873 3557
1472.91 -259.773 3542
1478.03 -259.186 3534
1480.59 -258.159 3520
1489.01 -258.159 3520
1469.35 -253.319 3454
1462.64 -250.752 3419
1467.8 -250.239 3412
1472.93 -249.725 3405
1481.07 -249.725 3405
1462.1 -245.178 3343
1461.3 -243.711 3323
1460.4 -242.244 3303
1468.3 -242.244 3303
1461.9 -239.898 3271
1463.88 -238.944 3258
1474.83 -239.458 3265
1488.54 -240.411 3278
1496.38 -240.411 3278
1512.94 -241.804 3297
1520.82 -241.804 3297
1528.71 -241.804 3297
1536.59 -241.804 3297
1544.48 -241.804 3297
1492.67 -200.88 2739
1499.22 -200.88 2739
1505.77 -200.88 2739
1507.35 -200.22 2730
1513.88 -200.22 2730
1520.41 -200.22 2730
1526.94 -200.22 2730
1533.47 -200.22 2730
1540 -200.22 2730
1544.26 -199.927 2726
1553.05 -200.22 2730
1559.58 -200.22 2730
1566.11 -200.22 2730
1572.64 -200.22 2730
1579.16 -200.22 2730
1585.69 -200.22 2730
1592.22 -200.22 2730
1598.75 -200.22 2730
1605.28 -200.22 2730
1606.49 -199.56 2721
1610.63 -199.267 2717
1617.13 -199.267 2717
1621.23 -198.973 2713
1627.72 -198.973 2713
1631.2 -198.607 2708
1635.25 -198.313 2704
1636.25 -197.653 2695
1642.7 -197.653 2695
1638.74 -196.407 2678
1642.07 -196.04 2673
1643.53 -195.453 2665
1649.9 -195.453 2665
1656.28 -195.453 2665
1660.15 -195.16 2661
1660.88 -194.5 2652
1664.71 -194.206 2648
1671.04 -194.206 2648
1674.84 -193.913 2644
1681.16 -193.913 2644
1687.48 -193.913 2644
1693.81 -193.913 2644
1694.34 -193.253 2635
1695.48 -192.666 2627
1696.58 -192.079 2619
1702.84 -192.079 2619
1709.1 -192.079 2619
1715.37 -192.079 2619
1713.74 -191.199 2607
1719.98 -191.199 2607
1726.21 -191.199 2607
1729.79 -190.906 2603
1736.01 -190.906 2603
1742.24 -190.906 2603
