ply
format ascii 1.0
comment File generated
element vertex 2148
property float x
property float y
property float z
end_header
105.388 -826.609 2109
110.431 -826.609 2109
115.748 -828.568 2114
120.804 -828.568 2114
125.859 -828.568 2114
131.41 -831.704 2122
137.063 -835.231 2131
142.159 -835.231 2131
147.255 -835.231 2131
152.35 -835.231 2131
157.816 -837.191 2136
162.923 -837.191 2136
168.661 -840.327 2144
174.031 -841.503 2147
179.666 -843.854 2153
184.814 -843.854 2153
190.139 -844.638 2155
195.292 -844.638 2155
200.725 -845.814 2158
205.885 -845.814 2158
211.632 -848.166 2164
217.108 -849.341 2167
222.495 -850.125 2169
227.681 -850.125 2169
234.479 -856.004 2184
239.921 -856.788 2186
245.148 -856.788 2186
250.375 -856.788 2186
255.603 -856.788 2186
714.792 -1564.25 3991
724.336 -1564.25 3991
733.88 -1564.25 3991
739.884 -1556.8 3972
747.685 -1553.27 3963
757.161 -1553.27 3963
764.703 -1549.35 3953
1449.92 -1486.25 3792
1458.98 -1486.25 3792
1468.05 -1486.25 3792
1477.12 -1486.25 3792
1486.19 -1486.25 3792
1488.16 -1479.19 3774
1483.69 -1465.87 3740
1489.44 -1462.73 3732
1498.37 -1462.73 3732
1497.2 -1452.93 3707
1502.81 -1449.8 3699
1511.66 -1449.8 3699
1520.5 -1449.8 3699
1529.35 -1449.8 3699
1538.19 -1449.8 3699
1543.69 -1446.66 3691
1552.52 -1446.66 3691
1561.34 -1446.66 3691
1559.96 -1437.26 3667
1564.88 -1433.73 3658
-2824.57 -1483.79 3809
-2834.68 -1493.92 3835
-2825.51 -1493.92 3835
-2816.33 -1493.92 3835
-2800.58 -1490.41 3826
-2791.43 -1490.41 3826
-2751.01 -1473.66 3783
-2723.12 -1463.53 3757
-2696.07 -1453.79 3732
-2723.87 -1473.66 3783
-2714.82 -1473.66 3783
-2705.78 -1473.66 3783
-2696.73 -1473.66 3783
-2687.68 -1473.66 3783
-2660.23 -1463.53 3757
-2633.6 -1453.79 3732
-2619.05 -1450.68 3724
-2610.15 -1450.68 3724
-2601.24 -1450.68 3724
-2597.9 -1453.79 3732
-2600.77 -1460.42 3749
-2603.56 -1467.04 3766
-2594.56 -1467.04 3766
-2585.55 -1467.04 3766
-2576.54 -1467.04 3766
-2567.54 -1467.04 3766
-2558.53 -1467.04 3766
-2549.53 -1467.04 3766
-2540.52 -1467.04 3766
-2531.52 -1467.04 3766
-2522.51 -1467.04 3766
-2496.15 -1456.91 3740
-2476.57 -1450.68 3724
-2467.66 -1450.68 3724
-2431.69 -1434.7 3683
-1438.83 -1551.18 3982
-1429.31 -1551.18 3982
-1422.99 -1554.69 3991
-1413.45 -1554.69 3991
-1403.91 -1554.69 3991
-1381.09 -1539.88 3953
-1361.92 -1528.98 3925
-1333.92 -1507.94 3871
-1324.67 -1507.94 3871
-1309.29 -1500.93 3853
-1279.5 -1477.17 3792
-1264.4 -1470.15 3774
-1252.71 -1467.04 3766
-1243.71 -1467.04 3766
-1234.7 -1467.04 3766
-1225.7 -1467.04 3766
-1213.78 -1463.53 3757
-1204.8 -1463.53 3757
-1190.4 -1456.91 3740
-1181.46 -1456.91 3740
-1167.5 -1450.68 3724
-1158.6 -1450.68 3724
-1147.22 -1447.56 3716
-1133.13 -1440.94 3699
-77.9388 -840.644 2158
-72.7783 -840.644 2158
-67.6179 -840.644 2158
-62.4575 -840.644 2158
-57.297 -840.644 2158
-52.0641 -839.476 2155
-46.802 -837.528 2150
-41.6026 -836.359 2147
-36.4685 -836.359 2147
-31.3343 -836.359 2147
-26.2002 -836.359 2147
-21.0367 -835.191 2144
-15.8281 -830.906 2133
-10.7274 -830.906 2133
-5.61359 -828.958 2128
-0.524156 -827.789 2125
4.54021 -824.673 2117
9.6026 -824.673 2117
14.6442 -823.504 2114
19.6528 -821.557 2109
24.6024 -818.44 2101
29.6265 -818.44 2101
34.6507 -818.44 2101
39.6748 -818.44 2101
44.6989 -818.44 2101
49.794 -819.609 2104
54.8253 -819.609 2104
59.8566 -819.609 2104
64.7954 -818.44 2101
69.8196 -818.44 2101
74.8437 -818.44 2101
79.8678 -818.44 2101
84.7707 -817.272 2098
90.0445 -819.609 2104
95.1661 -820.388 2106
100.202 -820.388 2106
105.388 -821.557 2109
110.431 -821.557 2109
115.748 -823.504 2114
120.804 -823.504 2114
125.859 -823.504 2114
131.41 -826.621 2122
137.063 -830.127 2131
142.159 -830.127 2131
147.255 -830.127 2131
152.35 -830.127 2131
157.816 -832.074 2136
162.923 -832.074 2136
168.661 -835.191 2144
174.274 -837.528 2150
179.832 -839.476 2155
184.986 -839.476 2155
190.139 -839.476 2155
195.564 -840.644 2158
200.725 -840.644 2158
205.885 -840.644 2158
212.121 -844.929 2169
217.308 -844.929 2169
224.239 -851.552 2186
229.466 -851.552 2186
234.693 -851.552 2186
241.238 -856.226 2198
246.494 -856.226 2198
251.75 -856.226 2198
256.304 -853.889 2192
261.546 -853.889 2192
266.788 -853.889 2192
714.792 -1554.69 3991
724.336 -1554.69 3991
733.88 -1554.69 3991
739.884 -1547.28 3972
749.382 -1547.28 3972
758.881 -1547.28 3972
768.379 -1547.28 3972
1473.24 -1500.93 3853
1482.45 -1500.93 3853
1491.67 -1500.93 3853
1490.36 -1490.41 3826
1499.51 -1490.41 3826
1495.26 -1477.17 3792
1497.18 -1470.15 3774
1492.64 -1456.91 3740
1501.58 -1456.91 3740
1510.52 -1456.91 3740
1519.47 -1456.91 3740
1528.41 -1456.91 3740
1534.07 -1453.79 3732
1542.99 -1453.79 3732
1551.92 -1453.79 3732
1557.49 -1450.68 3724
1566.4 -1450.68 3724
1575.3 -1450.68 3724
1570.17 -1437.82 3691
1568.73 -1428.47 3667
1566.74 -1418.73 3642
1575.45 -1418.73 3642
-2824.57 -1474.66 3809
-2834.68 -1484.73 3835
-2825.51 -1484.73 3835
-2816.33 -1484.73 3835
-2788.13 -1474.66 3809
-2779.02 -1474.66 3809
-2732.1 -1454.53 3757
-2710.79 -1447.95 3740
-2690.29 -1441.76 3724
-2723.87 -1464.6 3783
-2714.82 -1464.6 3783
-2705.78 -1464.6 3783
-2696.73 -1464.6 3783
-2687.68 -1464.6 3783
-2660.23 -1454.53 3757
-2633.6 -1444.85 3732
-2619.05 -1441.76 3724
-2610.15 -1441.76 3724
-2601.24 -1441.76 3724
-2597.9 -1444.85 3732
-2600.77 -1451.43 3749
-2603.56 -1458.02 3766
-2594.56 -1458.02 3766
-2585.55 -1458.02 3766
-2576.54 -1458.02 3766
-2567.54 -1458.02 3766
-2558.53 -1458.02 3766
-2549.53 -1458.02 3766
-2522.98 -1447.95 3740
-2514.04 -1447.95 3740
-2505.1 -1447.95 3740
-2485.47 -1441.76 3724
-2449.3 -1425.88 3683
-2423.93 -1416.2 3658
-2415.18 -1416.2 3658
-1438.83 -1541.64 3982
-1429.31 -1541.64 3982
-1419.79 -1541.64 3982
-1399.99 -1530.41 3953
-1390.54 -1530.41 3953
-1374.8 -1523.44 3935
-1355.67 -1512.6 3907
-1330.82 -1495.18 3862
-1321.59 -1495.18 3862
-1309.29 -1491.7 3853
-1279.5 -1468.08 3792
-1270.43 -1468.08 3792
-1258.37 -1464.6 3783
-1249.32 -1464.6 3783
-1240.28 -1464.6 3783
-1231.23 -1464.6 3783
-1222.18 -1464.6 3783
-1213.14 -1464.6 3783
-1201.23 -1461.11 3774
-1192.2 -1461.11 3774
-1180.67 -1458.02 3766
-1171.66 -1458.02 3766
-1162.66 -1458.02 3766
-1133.13 -1432.08 3699
-84.6395 -850.961 2198
-79.3834 -850.961 2198
-74.1273 -850.961 2198
-67.7119 -836.636 2161
-62.5443 -836.636 2161
-57.3767 -836.636 2161
-52.1366 -835.475 2158
-46.9109 -834.313 2155
-41.6026 -831.216 2147
-36.4685 -831.216 2147
-31.3343 -831.216 2147
-26.2002 -831.216 2147
-21.0367 -830.055 2144
-15.8281 -825.796 2133
-10.7274 -825.796 2133
-5.62678 -825.796 2133
-0.524156 -822.699 2125
4.54021 -819.602 2117
9.6026 -819.602 2117
14.6442 -818.44 2114
19.6528 -816.504 2109
24.6024 -813.407 2101
29.6265 -813.407 2101
34.6507 -813.407 2101
39.6748 -813.407 2101
44.6989 -813.407 2101
49.794 -814.569 2104
54.8253 -814.569 2104
59.8566 -814.569 2104
64.7954 -813.407 2101
69.8196 -813.407 2101
74.8437 -813.407 2101
79.8678 -813.407 2101
84.7707 -812.246 2098
90.0445 -814.569 2104
95.1661 -815.343 2106
100.202 -815.343 2106
105.388 -816.504 2109
110.431 -816.504 2109
115.748 -818.44 2114
120.804 -818.44 2114
125.859 -818.44 2114
131.41 -821.537 2122
137.063 -825.022 2131
142.159 -825.022 2131
147.255 -825.022 2131
152.493 -825.796 2133
157.816 -826.958 2136
162.923 -826.958 2136
168.897 -831.216 2147
174.274 -832.378 2150
179.832 -834.313 2155
184.986 -834.313 2155
190.404 -835.475 2158
196.108 -837.798 2164
201.562 -838.959 2167
206.744 -838.959 2167
213.001 -843.218 2178
219.011 -846.315 2186
226.393 -854.445 2207
231.67 -854.445 2207
236.948 -854.445 2207
242.225 -854.445 2207
247.503 -854.445 2207
252.781 -854.445 2207
257.006 -850.961 2198
261.546 -848.638 2192
266.788 -848.638 2192
714.792 -1545.13 3991
724.336 -1545.13 3991
733.88 -1545.13 3991
739.884 -1537.77 3972
749.382 -1537.77 3972
758.881 -1537.77 3972
768.379 -1537.77 3972
1473.24 -1491.7 3853
1482.45 -1491.7 3853
1491.67 -1491.7 3853
1490.36 -1481.25 3826
1499.51 -1481.25 3826
1495.26 -1468.08 3792
1497.18 -1461.11 3774
1492.64 -1447.95 3740
1501.58 -1447.95 3740
1510.52 -1447.95 3740
1519.47 -1447.95 3740
1528.41 -1447.95 3740
1534.07 -1444.85 3732
1542.99 -1444.85 3732
1551.92 -1444.85 3732
1557.49 -1441.76 3724
1566.4 -1441.76 3724
1575.3 -1441.76 3724
1570.17 -1428.98 3691
1568.73 -1419.69 3667
1566.74 -1410.01 3642
1575.45 -1410.01 3642
-2897.24 -1503.25 3907
-2887.9 -1503.25 3907
-2878.55 -1503.25 3907
-2869.21 -1503.25 3907
-2788.13 -1465.54 3809
-2779.02 -1465.54 3809
-2763.37 -1462.08 3800
-2717.32 -1442.45 3749
-2726.41 -1452.07 3774
-2723.87 -1455.54 3783
-2714.82 -1455.54 3783
-2705.78 -1455.54 3783
-2696.73 -1455.54 3783
-2687.68 -1455.54 3783
-2678.64 -1455.54 3783
-2645.6 -1442.45 3749
-2624.68 -1435.91 3732
-2615.75 -1435.91 3732
-2601.24 -1432.83 3724
-2597.9 -1435.91 3732
-2606.32 -1445.53 3757
-2603.56 -1448.99 3766
-2594.56 -1448.99 3766
-2585.55 -1448.99 3766
-2576.54 -1448.99 3766
-2567.54 -1448.99 3766
-2558.53 -1448.99 3766
-2549.53 -1448.99 3766
-2529.05 -1442.45 3749
-2520.09 -1442.45 3749
-2511.12 -1442.45 3749
-2485.47 -1432.83 3724
-2465.26 -1426.29 3707
-2456.4 -1426.29 3707
-2415.18 -1407.44 3658
-1438.83 -1532.1 3982
-1429.31 -1532.1 3982
-1419.79 -1532.1 3982
-1399.99 -1520.94 3953
-1390.54 -1520.94 3953
-1374.8 -1514.02 3935
-1355.67 -1503.25 3907
-1330.82 -1485.93 3862
-1321.59 -1485.93 3862
-1303.18 -1475.54 3835
-1285.23 -1465.54 3809
-1276.13 -1465.54 3809
-1270.01 -1469 3818
-1260.88 -1469 3818
-1251.75 -1469 3818
-1234.16 -1459 3792
-1225.09 -1459 3792
-1216.02 -1459 3792
-1204.09 -1455.54 3783
-1195.04 -1455.54 3783
-1191.33 -1462.08 3800
-1182.24 -1462.08 3800
-1173.15 -1462.08 3800
-84.6395 -845.696 2198
-79.3834 -845.696 2198
-74.1273 -845.696 2198
-67.7119 -831.46 2161
-62.5443 -831.46 2161
-57.3767 -831.46 2161
-52.1366 -830.305 2158
-46.9109 -829.151 2155
-41.6026 -826.073 2147
-36.4685 -826.073 2147
-31.3343 -826.073 2147
-26.2002 -826.073 2147
-21.0367 -824.919 2144
-15.8281 -820.686 2133
-10.7274 -820.686 2133
-5.62678 -820.686 2133
-0.524156 -817.608 2125
4.54021 -814.53 2117
9.6026 -814.53 2117
14.6442 -813.376 2114
19.6528 -811.452 2109
24.6024 -808.374 2101
29.6265 -808.374 2101
34.6507 -808.374 2101
39.6748 -808.374 2101
44.6989 -808.374 2101
49.794 -809.529 2104
54.8253 -809.529 2104
59.8566 -809.529 2104
64.7954 -808.374 2101
69.8196 -808.374 2101
74.8437 -808.374 2101
79.8678 -808.374 2101
84.7707 -807.22 2098
90.0445 -809.529 2104
95.1661 -810.298 2106
100.202 -810.298 2106
105.238 -810.298 2106
110.431 -811.452 2109
115.639 -812.607 2112
120.689 -812.607 2112
125.859 -813.376 2114
131.41 -816.454 2122
137.063 -819.917 2131
142.159 -819.917 2131
147.255 -819.917 2131
152.493 -820.686 2133
157.816 -821.841 2136
162.923 -821.841 2136
168.897 -826.073 2147
174.274 -827.227 2150
179.832 -829.151 2155
184.986 -829.151 2155
190.404 -830.305 2158
196.108 -832.614 2164
201.562 -833.768 2167
206.744 -833.768 2167
213.001 -838 2178
219.011 -841.079 2186
226.393 -849.158 2207
231.67 -849.158 2207
236.948 -849.158 2207
242.225 -849.158 2207
247.503 -849.158 2207
252.781 -849.158 2207
257.006 -845.696 2198
261.546 -843.387 2192
266.788 -843.387 2192
667.074 -1535.56 3991
676.618 -1535.56 3991
686.161 -1535.56 3991
692.393 -1528.25 3972
707.987 -1520.94 3953
722.703 -1532.1 3982
732.225 -1532.1 3982
741.747 -1532.1 3982
751.269 -1532.1 3982
760.791 -1532.1 3982
768.379 -1528.25 3972
772.394 -1517.48 3944
1473.24 -1482.47 3853
1482.45 -1482.47 3853
1491.67 -1482.47 3853
1493.87 -1475.54 3835
1503.04 -1475.54 3835
1505.51 -1469 3818
1504.32 -1459 3792
1506.21 -1452.07 3774
1515.23 -1452.07 3774
1510.52 -1438.99 3740
1519.47 -1438.99 3740
1528.41 -1438.99 3740
1537.35 -1438.99 3740
1546.3 -1438.99 3740
1555.24 -1438.99 3740
1564.19 -1438.99 3740
1573.13 -1438.99 3740
1582.07 -1438.99 3740
1584.21 -1432.83 3724
1568.73 -1410.9 3667
1573.63 -1407.44 3658
1582.37 -1407.44 3658
-2897.24 -1493.89 3907
-2887.9 -1493.89 3907
-2878.55 -1493.89 3907
-2869.21 -1493.89 3907
-2788.13 -1456.41 3809
-2779.02 -1456.41 3809
-2763.37 -1452.97 3800
-2717.32 -1433.47 3749
-2726.41 -1443.03 3774
-2723.87 -1446.47 3783
-2714.82 -1446.47 3783
-2705.78 -1446.47 3783
-2696.73 -1446.47 3783
-2687.68 -1446.47 3783
-2678.64 -1446.47 3783
-2645.6 -1433.47 3749
-2624.68 -1426.97 3732
-2615.75 -1426.97 3732
-2601.24 -1423.91 3724
-2597.9 -1426.97 3732
-2606.32 -1436.53 3757
-2603.56 -1439.97 3766
-2594.56 -1439.97 3766
-2585.55 -1439.97 3766
-2576.54 -1439.97 3766
-2567.54 -1439.97 3766
-2552.42 -1436.53 3757
-2543.43 -1436.53 3757
-2529.05 -1433.47 3749
-2520.09 -1433.47 3749
-2511.12 -1433.47 3749
-2480.13 -1420.85 3716
-2465.26 -1417.41 3707
-2456.4 -1417.41 3707
-2404.62 -1392.56 3642
-1414.98 -1497.33 3916
-1405.62 -1497.33 3916
-1403.03 -1504.59 3935
-1393.62 -1504.59 3935
-1384.21 -1504.59 3935
-1368.16 -1497.33 3916
-1340.06 -1476.68 3862
-1330.82 -1476.68 3862
-1321.59 -1476.68 3862
-1303.18 -1466.36 3835
-1285.23 -1456.41 3809
-1276.13 -1456.41 3809
-1270.01 -1459.86 3818
-1260.88 -1459.86 3818
-1251.75 -1459.86 3818
-1234.16 -1449.91 3792
-1225.09 -1449.91 3792
-1216.02 -1449.91 3792
-1204.09 -1446.47 3783
-1195.04 -1446.47 3783
-1191.33 -1452.97 3800
-1182.24 -1452.97 3800
-1173.15 -1452.97 3800
-91.6951 -857.254 2242
-86.3338 -857.254 2242
-80.9725 -857.254 2242
-75.0042 -850.372 2224
-68.5893 -836.989 2189
-63.1232 -833.93 2181
-57.9077 -833.93 2181
-52.2091 -826.283 2161
-46.9762 -825.136 2158
-41.7576 -823.989 2155
-36.6044 -823.989 2155
-31.4219 -823.224 2153
-26.2734 -823.224 2153
-21.0367 -819.783 2144
-15.8726 -817.871 2139
-10.7576 -817.871 2139
-5.62678 -815.577 2133
-0.524156 -812.518 2125
4.54021 -809.459 2117
9.6026 -809.459 2117
14.6442 -808.312 2114
19.6249 -805.253 2106
24.6375 -804.488 2104
29.6688 -804.488 2104
34.6507 -803.341 2101
39.7692 -805.253 2106
44.8053 -805.253 2106
49.8414 -805.253 2106
54.8253 -804.488 2104
59.8566 -804.488 2104
64.8879 -804.488 2104
69.9193 -804.488 2104
74.9505 -804.488 2104
79.8678 -803.341 2101
84.8919 -803.341 2101
90.0445 -804.488 2104
95.1661 -805.253 2106
100.202 -805.253 2106
105.238 -805.253 2106
110.431 -806.4 2109
115.639 -807.547 2112
120.689 -807.547 2112
126.038 -809.459 2117
131.41 -811.371 2122
137.063 -814.812 2131
142.159 -814.812 2131
147.393 -815.577 2133
152.493 -815.577 2133
158.037 -817.871 2139
163.152 -817.871 2139
169.133 -822.077 2150
174.517 -823.224 2153
180.083 -825.136 2158
185.243 -825.136 2158
190.933 -827.43 2164
196.561 -829.342 2169
202.027 -830.489 2172
207.221 -830.489 2172
213.588 -835.077 2184
220.514 -841.577 2201
226.7 -845.019 2210
231.985 -845.019 2210
237.27 -845.019 2210
242.555 -845.019 2210
247.84 -845.019 2210
252.781 -843.872 2207
257.357 -841.577 2201
261.546 -838.136 2192
266.788 -838.136 2192
620.075 -1504.59 3935
635.403 -1518.74 3972
644.902 -1518.74 3972
654.4 -1518.74 3972
675.097 -1544.36 4039
686.451 -1548.18 4049
696.133 -1548.18 4049
705.815 -1548.18 4049
713.731 -1544.36 4039
713.18 -1522.56 3982
722.703 -1522.56 3982
732.225 -1522.56 3982
741.747 -1522.56 3982
751.269 -1522.56 3982
760.791 -1522.56 3982
766.638 -1515.3 3963
772.394 -1508.03 3944
769.138 -1483.56 3880
771.194 -1469.8 3844
780.386 -1469.8 3844
1491.38 -1500.77 3925
1500.77 -1500.77 3925
1510.16 -1500.77 3925
1509.09 -1490.44 3898
1500.88 -1473.24 3853
1510.09 -1473.24 3853
1508.66 -1462.91 3826
1507.5 -1452.97 3800
1513.39 -1449.91 3792
1522.46 -1449.91 3792
1510.52 -1430.03 3740
1519.47 -1430.03 3740
1532.09 -1433.47 3749
1541.05 -1433.47 3749
1550.02 -1433.47 3749
1558.98 -1433.47 3749
1567.95 -1433.47 3749
1573.13 -1430.03 3740
1582.07 -1430.03 3740
1584.21 -1423.91 3724
1572.15 -1405.18 3675
1573.63 -1398.68 3658
1582.37 -1398.68 3658
-2897.24 -1484.53 3907
-2915.24 -1498.59 3944
-2905.81 -1498.59 3944
-2896.38 -1498.59 3944
-2840.1 -1474.27 3880
-2830.83 -1474.27 3880
-2788.82 -1457.17 3835
-2748.49 -1440.83 3792
-2739.42 -1440.83 3792
-2736.11 -1443.87 3800
-2727.02 -1443.87 3800
-2730.81 -1450.71 3818
-2721.68 -1450.71 3818
-2712.55 -1450.71 3818
-2685.01 -1440.83 3792
-2669.59 -1437.41 3783
-2654.22 -1433.99 3774
-2645.19 -1433.99 3774
-2630.58 -1430.95 3766
-2615.31 -1427.53 3757
-2606.32 -1427.53 3757
-2621.54 -1440.83 3792
-2612.47 -1440.83 3792
-2603.4 -1440.83 3792
-2588.17 -1437.41 3783
-2579.13 -1437.41 3783
-2563.97 -1433.99 3774
-2554.94 -1433.99 3774
-2540.52 -1430.95 3766
-2531.52 -1430.95 3766
-2516.48 -1427.53 3757
-2496.15 -1421.07 3740
-2481.89 -1418.03 3732
-2472.96 -1418.03 3732
-2458.76 -1414.99 3724
-1396.25 -1487.95 3916
-1386.89 -1487.95 3916
-1377.52 -1487.95 3916
-1361.87 -1481.11 3898
-1346.3 -1474.27 3880
-1330.82 -1467.43 3862
-1321.59 -1467.43 3862
-1303.18 -1457.17 3835
-1290.97 -1453.75 3826
-1279.14 -1450.71 3818
-1270.01 -1450.71 3818
-1260.88 -1450.71 3818
-1251.75 -1450.71 3818
-1242.62 -1450.71 3818
-1230.58 -1447.29 3809
-1221.47 -1447.29 3809
-1212.37 -1447.29 3809
-1203.26 -1447.29 3809
-1194.15 -1447.29 3809
-1185.04 -1447.29 3809
-1175.93 -1447.29 3809
-102.829 -855.303 2251
-97.4461 -855.303 2251
-92.0632 -855.303 2251
-86.3338 -851.883 2242
-80.9725 -851.883 2242
-75.0042 -845.044 2224
-68.8713 -835.165 2198
-63.21 -829.845 2184
-57.9874 -829.845 2184
-52.6198 -827.566 2178
-47.1068 -822.246 2164
-41.932 -822.246 2164
-36.7572 -822.246 2164
-31.5825 -822.246 2164
-26.3345 -819.966 2158
-21.125 -818.067 2153
-15.9097 -814.647 2144
-10.7828 -814.647 2144
-5.63469 -811.607 2136
-0.524156 -807.427 2125
4.54664 -805.528 2120
9.6162 -805.528 2120
14.6442 -803.248 2114
19.6808 -802.488 2112
24.661 -800.208 2106
29.697 -800.208 2106
34.7331 -800.208 2106
39.7692 -800.208 2106
44.8053 -800.208 2106
49.8414 -800.208 2106
54.8775 -800.208 2106
59.9135 -800.208 2106
64.8879 -799.448 2104
69.9193 -799.448 2104
74.9505 -799.448 2104
79.9818 -799.448 2104
84.8919 -798.308 2101
90.0445 -799.448 2104
95.1661 -800.208 2106
100.202 -800.208 2106
105.238 -800.208 2106
110.431 -801.348 2109
115.639 -802.488 2112
120.689 -802.488 2112
126.216 -805.528 2120
131.595 -807.427 2125
137.063 -809.707 2131
142.159 -809.707 2131
147.6 -811.607 2136
152.922 -812.747 2139
158.259 -813.887 2142
163.381 -813.887 2142
169.369 -818.067 2153
174.922 -819.966 2158
180.584 -822.246 2164
185.758 -822.246 2164
191.639 -825.286 2172
197.377 -827.566 2178
203.143 -829.845 2184
208.366 -829.845 2184
214.664 -834.025 2195
221.115 -838.585 2207
228.137 -845.044 2224
233.455 -845.044 2224
238.773 -845.044 2224
244.091 -845.044 2224
249.41 -845.044 2224
254.384 -843.904 2221
258.058 -838.585 2207
261.904 -834.025 2195
267.153 -834.025 2195
596.977 -1484.53 3907
606.32 -1484.53 3907
620.075 -1495.17 3935
635.403 -1509.22 3972
644.902 -1509.22 3972
654.4 -1509.22 3972
675.097 -1534.68 4039
686.451 -1538.48 4049
696.133 -1538.48 4049
705.815 -1538.48 4049
713.731 -1534.68 4039
716.583 -1520.24 4001
726.151 -1520.24 4001
732.225 -1513.02 3982
741.747 -1513.02 3982
751.269 -1513.02 3982
760.791 -1513.02 3982
766.638 -1505.8 3963
772.394 -1498.59 3944
774.49 -1484.53 3907
783.833 -1484.53 3907
793.176 -1484.53 3907
802.519 -1484.53 3907
1491.38 -1491.37 3925
1500.77 -1491.37 3925
1510.16 -1491.37 3925
1509.09 -1481.11 3898
1500.88 -1464.01 3853
1510.09 -1464.01 3853
1508.66 -1453.75 3826
1507.5 -1443.87 3800
1513.39 -1440.83 3792
1522.46 -1440.83 3792
1510.52 -1421.07 3740
1519.47 -1421.07 3740
1532.09 -1424.49 3749
1541.05 -1424.49 3749
1550.02 -1424.49 3749
1558.98 -1424.49 3749
1567.95 -1424.49 3749
1573.13 -1421.07 3740
1582.07 -1421.07 3740
1584.21 -1414.99 3724
1572.15 -1396.37 3675
1573.63 -1389.92 3658
1582.37 -1389.92 3658
-2897.24 -1475.17 3907
-2915.24 -1489.14 3944
-2905.81 -1489.14 3944
-2896.38 -1489.14 3944
-2859.87 -1475.17 3907
-2850.52 -1475.17 3907
-2815 -1461.57 3871
-2767.33 -1441.56 3818
-2739.42 -1431.75 3792
-2767.79 -1451.38 3844
-2758.6 -1451.38 3844
-2749.41 -1451.38 3844
-2740.21 -1451.38 3844
-2731.02 -1451.38 3844
-2703.42 -1441.56 3818
-2669.59 -1428.35 3783
-2660.55 -1428.35 3783
-2651.5 -1428.35 3783
-2636.17 -1424.95 3774
-2627.14 -1424.95 3774
-2630.6 -1431.75 3792
-2621.54 -1431.75 3792
-2612.47 -1431.75 3792
-2603.4 -1431.75 3792
-2594.33 -1431.75 3792
-2585.26 -1431.75 3792
-2563.97 -1424.95 3774
-2554.94 -1424.95 3774
-2540.52 -1421.93 3766
-2531.52 -1421.93 3766
-2516.48 -1418.53 3757
-2496.15 -1412.11 3740
-2487.21 -1412.11 3740
-2478.26 -1412.11 3740
-2464.04 -1409.09 3732
-1380.51 -1471.77 3898
-1371.19 -1471.77 3898
-1361.87 -1471.77 3898
-1346.3 -1464.97 3880
-1337.03 -1464.97 3880
-1327.75 -1464.97 3880
-1303.18 -1447.98 3835
-1294.01 -1447.98 3835
-1279.14 -1441.56 3818
-1270.01 -1441.56 3818
-1260.88 -1441.56 3818
-1251.75 -1441.56 3818
-1242.62 -1441.56 3818
-1233.49 -1441.56 3818
-1224.36 -1441.56 3818
-1212.37 -1438.17 3809
-1208.63 -1444.58 3826
-1205.12 -1451.38 3844
-1195.93 -1451.38 3844
-1186.74 -1451.38 3844
-102.829 -849.911 2251
-97.4461 -849.911 2251
-92.0632 -849.911 2251
-86.3338 -846.513 2242
-80.9725 -846.513 2242
-75.0042 -839.716 2224
-68.8713 -829.9 2198
-63.2679 -825.369 2186
-58.0405 -825.369 2186
-52.6923 -823.481 2181
-47.4116 -822.348 2178
-41.9901 -818.195 2167
-36.8082 -818.195 2167
-31.6262 -818.195 2167
-26.4077 -817.062 2164
-21.174 -814.797 2158
-15.932 -810.644 2147
-10.7978 -810.644 2147
-5.65052 -808.756 2142
-0.526869 -806.49 2136
4.55093 -801.204 2122
9.62527 -801.204 2122
14.6858 -800.449 2120
19.6808 -797.429 2112
24.661 -795.163 2106
29.697 -795.163 2106
34.7331 -795.163 2106
39.7692 -795.163 2106
44.8053 -795.163 2106
49.8414 -795.163 2106
54.8775 -795.163 2106
59.9135 -795.163 2106
64.9496 -795.163 2106
69.9857 -795.163 2106
75.0218 -795.163 2106
79.9818 -794.408 2104
85.0132 -794.408 2104
90.1301 -795.163 2106
95.1661 -795.163 2106
100.202 -795.163 2106
105.238 -795.163 2106
110.589 -797.429 2112
115.748 -798.184 2114
120.804 -798.184 2114
126.216 -800.449 2120
131.781 -803.47 2128
137.191 -805.358 2133
142.292 -805.358 2133
147.807 -807.623 2139
153.137 -808.756 2142
158.407 -809.511 2144
163.534 -809.511 2144
169.526 -813.664 2155
174.922 -814.797 2158
181.251 -820.083 2172
186.445 -820.083 2172
191.904 -821.216 2175
197.92 -824.614 2184
203.143 -824.614 2184
208.366 -824.614 2184
214.957 -829.9 2198
221.416 -834.43 2210
228.137 -839.716 2224
233.455 -839.716 2224
238.773 -839.716 2224
244.091 -839.716 2224
249.41 -839.716 2224
254.728 -839.716 2224
258.994 -836.318 2215
263.336 -833.298 2207
268.614 -833.298 2207
587.634 -1475.17 3907
596.977 -1475.17 3907
606.32 -1475.17 3907
620.075 -1485.74 3935
635.403 -1499.71 3972
644.902 -1499.71 3972
654.4 -1499.71 3972
675.097 -1525.01 4039
686.451 -1528.78 4049
696.133 -1528.78 4049
705.815 -1528.78 4049
713.731 -1525.01 4039
716.583 -1510.66 4001
726.151 -1510.66 4001
732.225 -1503.49 3982
741.747 -1503.49 3982
751.269 -1503.49 3982
760.791 -1503.49 3982
768.379 -1499.71 3972
772.394 -1489.14 3944
774.49 -1475.17 3907
783.833 -1475.17 3907
793.176 -1475.17 3907
802.519 -1475.17 3907
1491.38 -1481.96 3925
1500.77 -1481.96 3925
1510.16 -1481.96 3925
1509.09 -1471.77 3898
1500.88 -1454.78 3853
1510.09 -1454.78 3853
1508.66 -1444.58 3826
1507.5 -1434.77 3800
1513.39 -1431.75 3792
1522.46 -1431.75 3792
1510.52 -1412.11 3740
1519.47 -1412.11 3740
1532.09 -1415.51 3749
1541.05 -1415.51 3749
1550.02 -1415.51 3749
1558.98 -1415.51 3749
1567.95 -1415.51 3749
1573.13 -1412.11 3740
1582.07 -1412.11 3740
1584.21 -1406.07 3724
1572.15 -1387.57 3675
1570.19 -1378.13 3650
1578.91 -1378.13 3650
-2897.24 -1465.81 3907
-2915.24 -1479.69 3944
-2905.81 -1479.69 3944
-2896.38 -1479.69 3944
-2859.87 -1465.81 3907
-2850.52 -1465.81 3907
-2815 -1452.3 3871
-2767.33 -1432.42 3818
-2739.42 -1422.66 3792
-2767.79 -1442.17 3844
-2758.6 -1442.17 3844
-2749.41 -1442.17 3844
-2740.21 -1442.17 3844
-2731.02 -1442.17 3844
-2703.42 -1432.42 3818
-2669.59 -1419.29 3783
-2660.55 -1419.29 3783
-2651.5 -1419.29 3783
-2636.17 -1415.91 3774
-2627.14 -1415.91 3774
-2630.6 -1422.66 3792
-2621.54 -1422.66 3792
-2612.47 -1422.66 3792
-2603.4 -1422.66 3792
-2594.33 -1422.66 3792
-2585.26 -1422.66 3792
-2563.97 -1415.91 3774
-2554.94 -1415.91 3774
-2540.52 -1412.91 3766
-2531.52 -1412.91 3766
-2516.48 -1409.53 3757
-2496.15 -1403.15 3740
-2487.21 -1403.15 3740
-2478.26 -1403.15 3740
-2469.32 -1403.15 3740
-1380.51 -1462.43 3898
-1371.19 -1462.43 3898
-1361.87 -1462.43 3898
-1352.55 -1462.43 3898
-1337.03 -1455.68 3880
-1327.75 -1455.68 3880
-1309.29 -1445.55 3853
-1294.01 -1438.8 3835
-1281.82 -1435.42 3826
-1275.67 -1438.8 3835
-1266.5 -1438.8 3835
-1257.32 -1438.8 3835
-1254.01 -1445.55 3853
-1244.8 -1445.55 3853
-1235.58 -1445.55 3853
-1226.37 -1445.55 3853
-1217.16 -1445.55 3853
-1224.87 -1465.81 3907
-1215.53 -1465.81 3907
-1206.19 -1465.81 3907
-102.829 -844.519 2251
-97.4461 -844.519 2251
-92.0632 -844.519 2251
-86.3338 -841.142 2242
-80.9725 -841.142 2242
-75.0042 -834.389 2224
-68.8713 -824.634 2198
-63.2679 -820.132 2186
-58.0405 -820.132 2186
-52.6923 -818.256 2181
-47.4116 -817.131 2178
-41.9901 -813.004 2167
-36.8082 -813.004 2167
-31.6262 -813.004 2167
-26.4077 -811.878 2164
-21.174 -809.627 2158
-15.932 -805.5 2147
-10.7978 -805.5 2147
-5.65052 -803.625 2142
-0.526869 -801.373 2136
4.55093 -796.121 2122
9.62527 -796.121 2122
14.6858 -795.371 2120
19.6808 -792.369 2112
24.661 -790.118 2106
29.697 -790.118 2106
34.7331 -790.118 2106
39.7692 -790.118 2106
44.8053 -790.118 2106
49.8414 -790.118 2106
54.8775 -790.118 2106
59.9135 -790.118 2106
64.9496 -790.118 2106
69.9857 -790.118 2106
75.0218 -790.118 2106
79.9818 -789.368 2104
85.0132 -789.368 2104
90.1301 -790.118 2106
95.1661 -790.118 2106
100.202 -790.118 2106
105.238 -790.118 2106
110.589 -792.369 2112
115.748 -793.12 2114
120.804 -793.12 2114
126.216 -795.371 2120
131.781 -798.372 2128
137.191 -800.248 2133
142.292 -800.248 2133
147.807 -802.499 2139
153.137 -803.625 2142
158.407 -804.375 2144
163.534 -804.375 2144
169.526 -808.502 2155
174.922 -809.627 2158
181.251 -814.88 2172
186.445 -814.88 2172
191.904 -816.005 2175
197.92 -819.382 2184
203.143 -819.382 2184
208.366 -819.382 2184
214.957 -824.634 2198
221.416 -829.136 2210
228.137 -834.389 2224
233.455 -834.389 2224
238.773 -834.389 2224
244.091 -834.389 2224
249.41 -834.389 2224
254.728 -834.389 2224
258.994 -831.012 2215
263.336 -828.011 2207
268.614 -828.011 2207
587.634 -1465.81 3907
596.977 -1465.81 3907
606.32 -1465.81 3907
617.081 -1469.18 3916
629.484 -1476.31 3935
644.902 -1490.19 3972
654.4 -1490.19 3972
673.593 -1511.95 4030
686.451 -1519.08 4049
696.133 -1519.08 4049
705.815 -1519.08 4049
713.731 -1515.33 4039
716.583 -1501.07 4001
726.151 -1501.07 4001
732.225 -1493.95 3982
741.747 -1493.95 3982
751.269 -1493.95 3982
760.791 -1493.95 3982
768.379 -1490.19 3972
772.394 -1479.69 3944
774.49 -1465.81 3907
783.833 -1465.81 3907
793.176 -1465.81 3907
802.519 -1465.81 3907
1481.13 -1462.43 3898
1490.45 -1462.43 3898
1499.77 -1462.43 3898
1491.67 -1445.55 3853
1493.87 -1438.8 3835
1503.04 -1438.8 3835
1495.26 -1422.66 3792
1504.32 -1422.66 3792
1492.64 -1403.15 3740
1501.58 -1403.15 3740
1504.06 -1397.15 3724
1512.97 -1397.15 3724
1525.14 -1400.15 3732
1541.05 -1406.53 3749
1550.02 -1406.53 3749
1558.98 -1406.53 3749
1567.95 -1406.53 3749
1573.13 -1403.15 3740
1582.07 -1403.15 3740
1576.98 -1390.77 3707
1572.15 -1378.77 3675
1570.19 -1369.39 3650
1578.91 -1369.39 3650
-2897.24 -1456.45 3907
-2915.24 -1470.24 3944
-2905.81 -1470.24 3944
-2896.38 -1470.24 3944
-2859.87 -1456.45 3907
-2850.52 -1456.45 3907
-2815 -1443.03 3871
-2767.33 -1423.27 3818
-2739.42 -1413.58 3792
-2767.79 -1432.96 3844
-2758.6 -1432.96 3844
-2749.41 -1432.96 3844
-2740.21 -1432.96 3844
-2731.02 -1432.96 3844
-2703.42 -1423.27 3818
-2669.59 -1410.22 3783
-2660.55 -1410.22 3783
-2651.5 -1410.22 3783
-2636.17 -1406.87 3774
-2627.14 -1406.87 3774
-2630.6 -1413.58 3792
-2621.54 -1413.58 3792
-2612.47 -1413.58 3792
-2603.4 -1413.58 3792
-2594.33 -1413.58 3792
-2585.26 -1413.58 3792
-2563.97 -1406.87 3774
-2554.94 -1406.87 3774
-2540.52 -1403.89 3766
-2531.52 -1403.89 3766
-2516.48 -1400.53 3757
-2496.15 -1394.19 3740
-2487.21 -1394.19 3740
-2478.26 -1394.19 3740
-2469.32 -1394.19 3740
-1380.51 -1453.09 3898
-1371.19 -1453.09 3898
-1361.87 -1453.09 3898
-1352.55 -1453.09 3898
-1337.03 -1446.38 3880
-1327.75 -1446.38 3880
-1309.29 -1436.32 3853
-1294.01 -1429.61 3835
-1281.82 -1426.25 3826
-1275.67 -1429.61 3835
-1266.5 -1429.61 3835
-1257.32 -1429.61 3835
-1254.01 -1436.32 3853
-1244.8 -1436.32 3853
-1235.58 -1436.32 3853
-1226.37 -1436.32 3853
-1217.16 -1436.32 3853
-1224.87 -1456.45 3907
-1215.53 -1456.45 3907
-1206.19 -1456.45 3907
-106.241 -823.842 2210
-102.418 -835.771 2242
-97.0564 -835.771 2242
-91.6951 -835.771 2242
-85.6407 -829.061 2224
-80.3224 -829.061 2224
-74.7007 -825.706 2215
-68.7773 -818.251 2195
-63.2679 -814.896 2186
-58.0405 -814.896 2186
-52.6923 -813.032 2181
-47.4769 -813.032 2181
-42.0289 -808.558 2169
-36.8422 -808.558 2169
-31.6554 -808.558 2169
-26.4443 -807.813 2167
-21.174 -804.458 2158
-15.932 -800.357 2147
-10.7978 -800.357 2147
-5.65052 -798.493 2142
-0.526869 -796.257 2136
4.5638 -793.274 2128
9.65249 -793.274 2128
14.6858 -790.292 2120
19.6808 -787.31 2112
24.6961 -786.192 2109
29.7393 -786.192 2109
34.7331 -785.073 2106
39.7692 -785.073 2106
44.8053 -785.073 2106
49.8414 -785.073 2106
54.8775 -785.073 2106
59.9135 -785.073 2106
64.9496 -785.073 2106
69.9857 -785.073 2106
75.0218 -785.073 2106
80.0579 -785.073 2106
85.0132 -784.328 2104
90.2584 -786.192 2109
95.3017 -786.192 2109
100.345 -786.192 2109
105.388 -786.192 2109
110.589 -787.31 2112
115.748 -788.056 2114
120.804 -788.056 2114
126.335 -791.038 2122
131.781 -793.274 2128
137.191 -795.138 2133
142.292 -795.138 2133
147.807 -797.375 2139
153.137 -798.493 2142
158.407 -799.239 2144
163.534 -799.239 2144
169.526 -803.339 2155
174.922 -804.458 2158
181.251 -809.677 2172
186.445 -809.677 2172
192.168 -811.913 2178
197.92 -814.15 2184
203.887 -817.132 2192
209.129 -817.132 2192
214.957 -819.369 2198
221.716 -824.961 2213
228.137 -829.061 2224
233.455 -829.061 2224
238.773 -829.061 2224
244.091 -829.061 2224
249.41 -829.061 2224
254.728 -829.061 2224
259.695 -827.943 2221
265.006 -827.943 2221
270.317 -827.943 2221
274.884 -825.706 2215
587.634 -1456.45 3907
596.977 -1456.45 3907
606.32 -1456.45 3907
615.662 -1456.45 3907
629.484 -1466.89 3935
640.356 -1470.24 3944
649.787 -1470.24 3944
673.593 -1502.3 4030
684.755 -1505.66 4039
694.414 -1505.66 4039
704.072 -1505.66 4039
712.14 -1502.3 4030
716.583 -1491.49 4001
726.151 -1491.49 4001
732.225 -1484.41 3982
739.884 -1480.68 3972
749.382 -1480.68 3972
758.881 -1480.68 3972
768.379 -1480.68 3972
772.394 -1470.24 3944
774.49 -1456.45 3907
783.833 -1456.45 3907
793.176 -1456.45 3907
1453.77 -1426.25 3826
1462.92 -1426.25 3826
1472.07 -1426.25 3826
1481.21 -1426.25 3826
1473.61 -1410.22 3783
1482.66 -1410.22 3783
1485 -1403.89 3766
1483.69 -1394.19 3740
1486.25 -1388.23 3724
1488.33 -1381.89 3707
1497.2 -1381.89 3707
1496.31 -1372.95 3683
1505.12 -1372.95 3683
1527.49 -1385.25 3716
1536.38 -1385.25 3716
1545.26 -1385.25 3716
1550.38 -1381.89 3707
1559.25 -1381.89 3707
1568.11 -1381.89 3707
1570.17 -1375.93 3691
1568.73 -1366.98 3667
1573.63 -1363.63 3658
1582.37 -1363.63 3658
-2897.24 -1447.09 3907
-2908.59 -1457.46 3935
-2899.18 -1457.46 3935
-2889.77 -1457.46 3935
-2833.52 -1433.76 3871
-2824.26 -1433.76 3871
-2776.46 -1414.13 3818
-2748.49 -1404.5 3792
-2739.42 -1404.5 3792
-2749.07 -1414.13 3818
-2739.94 -1414.13 3818
-2730.81 -1414.13 3818
-2721.68 -1414.13 3818
-2712.55 -1414.13 3818
-2703.42 -1414.13 3818
-2669.59 -1401.16 3783
-2660.55 -1401.16 3783
-2651.5 -1401.16 3783
-2636.17 -1397.83 3774
-2627.14 -1397.83 3774
-2624.36 -1401.16 3783
-2615.31 -1401.16 3783
-2606.27 -1401.16 3783
-2603.4 -1404.5 3792
-2594.33 -1404.5 3792
-2585.26 -1404.5 3792
-2563.97 -1397.83 3774
-2554.94 -1397.83 3774
-2540.52 -1394.87 3766
-2531.52 -1394.87 3766
-2511.12 -1388.57 3749
-2496.15 -1385.24 3740
-2487.21 -1385.24 3740
-2478.26 -1385.24 3740
-2469.32 -1385.24 3740
-1399.99 -1464.13 3953
-1390.54 -1464.13 3953
-1381.09 -1464.13 3953
-1355.67 -1447.09 3907
-1343.23 -1443.76 3898
-1333.91 -1443.76 3898
-1318.47 -1437.09 3880
-1300.08 -1427.09 3853
-1284.84 -1420.42 3835
-1281.65 -1427.09 3853
-1272.44 -1427.09 3853
-1263.23 -1427.09 3853
-1256.94 -1430.42 3862
-1247.71 -1430.42 3862
-1241.36 -1433.76 3871
-1232.1 -1433.76 3871
-1231.37 -1443.76 3898
-1224.87 -1447.09 3907
-1215.53 -1447.09 3907
-1206.19 -1447.09 3907
-106.241 -818.548 2210
-101.321 -821.511 2218
-96.0175 -821.511 2218
-90.7136 -821.511 2218
-85.2941 -820.4 2215
-79.9974 -820.4 2215
-74.3297 -816.326 2204
-68.6833 -811.881 2192
-63.2679 -809.659 2186
-58.0405 -809.659 2186
-52.6923 -807.807 2181
-47.4769 -807.807 2181
-42.0289 -803.363 2169
-36.8422 -803.363 2169
-31.6554 -803.363 2169
-26.4443 -802.622 2167
-21.2035 -800.399 2161
-16.0359 -800.399 2161
-10.8381 -798.177 2155
-5.66371 -795.214 2147
-0.528349 -793.362 2142
4.57023 -789.288 2131
9.6661 -789.288 2131
14.6996 -785.955 2122
19.7274 -784.103 2117
24.7312 -782.251 2112
29.7816 -782.251 2112
34.7826 -781.14 2109
39.8259 -781.14 2109
44.8691 -781.14 2109
49.9124 -781.14 2109
54.8775 -780.028 2106
59.9135 -780.028 2106
64.9496 -780.028 2106
69.9857 -780.028 2106
75.0218 -780.028 2106
80.0579 -780.028 2106
85.0132 -779.288 2104
90.2584 -781.14 2109
95.3017 -781.14 2109
100.345 -781.14 2109
105.388 -781.14 2109
110.589 -782.251 2112
115.748 -782.991 2114
120.804 -782.991 2114
126.335 -785.955 2122
131.781 -788.177 2128
137.191 -790.029 2133
142.292 -790.029 2133
147.807 -792.251 2139
153.137 -793.362 2142
158.407 -794.103 2144
163.534 -794.103 2144
169.369 -797.436 2153
174.922 -799.288 2158
181.001 -803.363 2169
186.188 -803.363 2169
192.168 -806.696 2178
197.92 -808.918 2184
203.887 -811.881 2192
209.129 -811.881 2192
214.957 -814.104 2198
221.716 -819.659 2213
228.137 -823.734 2224
233.455 -823.734 2224
238.773 -823.734 2224
244.421 -824.845 2227
249.746 -824.845 2227
255.071 -824.845 2227
260.046 -823.734 2224
265.364 -823.734 2224
270.683 -823.734 2224
274.884 -820.4 2215
587.634 -1447.09 3907
596.977 -1447.09 3907
606.32 -1447.09 3907
615.662 -1447.09 3907
623.566 -1443.76 3898
638.894 -1457.46 3935
648.304 -1457.46 3935
657.714 -1457.46 3935
683.229 -1492.65 4030
692.866 -1492.65 4030
702.503 -1492.65 4030
707.016 -1481.91 4001
707.987 -1464.13 3953
717.439 -1464.13 3953
726.892 -1464.13 3953
739.884 -1471.16 3972
749.382 -1471.16 3972
758.881 -1471.16 3972
766.638 -1467.83 3963
770.631 -1457.46 3935
774.49 -1447.09 3907
783.833 -1447.09 3907
793.176 -1447.09 3907
802.519 -1447.09 3907
1453.77 -1417.09 3826
1462.92 -1417.09 3826
1472.07 -1417.09 3826
1481.21 -1417.09 3826
1473.61 -1401.16 3783
1482.66 -1401.16 3783
1485 -1394.87 3766
1483.69 -1385.24 3740
1486.25 -1379.31 3724
1488.33 -1373.01 3707
1497.2 -1373.01 3707
1496.31 -1364.12 3683
1505.12 -1364.12 3683
1527.49 -1376.35 3716
1536.38 -1376.35 3716
1545.26 -1376.35 3716
1550.38 -1373.01 3707
1559.25 -1373.01 3707
1568.11 -1373.01 3707
1570.17 -1367.09 3691
1568.73 -1358.2 3667
1573.63 -1354.86 3658
1582.37 -1354.86 3658
-2887.9 -1437.73 3907
-2878.55 -1437.73 3907
-2869.21 -1437.73 3907
-2788.13 -1401.67 3809
-2779.02 -1401.67 3809
-2757.55 -1395.41 3792
-2735.44 -1388.79 3774
-2726.41 -1388.79 3774
-2730.35 -1395.41 3792
-2721.28 -1395.41 3792
-2717.94 -1398.36 3800
-2708.85 -1398.36 3800
-2699.76 -1398.36 3800
-2678.64 -1392.1 3783
-2657.59 -1385.84 3766
-2642.26 -1382.53 3757
-2633.28 -1382.53 3757
-2624.29 -1382.53 3757
-2615.31 -1382.53 3757
-2624.36 -1392.1 3783
-2615.31 -1392.1 3783
-2606.27 -1392.1 3783
-2603.4 -1395.41 3792
-2594.33 -1395.41 3792
-2585.26 -1395.41 3792
-2570.08 -1392.1 3783
-2561.04 -1392.1 3783
-2545.92 -1388.79 3774
-2536.89 -1388.79 3774
-2511.12 -1379.59 3749
-2502.16 -1379.59 3749
-2493.19 -1379.59 3749
-2484.23 -1379.59 3749
-2453.48 -1367.44 3716
-1406.72 -1461.65 3972
-1397.22 -1461.65 3972
-1387.73 -1461.65 3972
-1371.63 -1454.66 3953
-1359.08 -1451.35 3944
-1349.65 -1451.35 3944
-1337.16 -1448.03 3935
-1321.34 -1441.04 3916
-1308.96 -1437.73 3907
-1296.62 -1434.42 3898
-1287.3 -1434.42 3898
-1277.98 -1434.42 3898
-1271.59 -1437.73 3907
-1262.24 -1437.73 3907
-1252.9 -1437.73 3907
-1243.56 -1437.73 3907
-1245.9 -1451.35 3944
-1236.47 -1451.35 3944
-1227.04 -1451.35 3944
-1217.61 -1451.35 3944
-106.241 -813.254 2210
-101.321 -816.198 2218
-96.0175 -816.198 2218
-90.7136 -816.198 2218
-85.2941 -815.094 2215
-79.9974 -815.094 2215
-74.3297 -811.046 2204
-68.6833 -806.63 2192
-63.2679 -804.422 2186
-58.0405 -804.422 2186
-52.6923 -802.583 2181
-47.4769 -802.583 2181
-42.0289 -798.167 2169
-36.8422 -798.167 2169
-31.6554 -798.167 2169
-26.4443 -797.431 2167
-21.2329 -796.327 2164
-16.0581 -796.327 2164
-10.8381 -793.015 2155
-5.66371 -790.071 2147
-0.528349 -788.231 2142
4.57452 -784.919 2133
9.67517 -784.919 2133
14.7412 -783.079 2128
19.774 -780.871 2122
24.7898 -779.031 2117
29.8521 -779.031 2117
34.8651 -777.927 2114
39.8825 -777.191 2112
44.9329 -777.191 2112
49.9834 -777.191 2112
54.9556 -776.087 2109
59.9989 -776.087 2109
65.0421 -776.087 2109
70.0854 -776.087 2109
75.1287 -776.087 2109
80.1719 -776.087 2109
85.0132 -774.247 2104
90.2584 -776.087 2109
95.3017 -776.087 2109
100.345 -776.087 2109
105.388 -776.087 2109
110.589 -777.191 2112
115.748 -777.927 2114
120.804 -777.927 2114
126.335 -780.871 2122
131.781 -783.079 2128
137.191 -784.919 2133
142.292 -784.919 2133
147.807 -787.127 2139
153.137 -788.231 2142
158.407 -788.967 2144
163.534 -788.967 2144
169.369 -792.279 2153
174.922 -794.119 2158
181.001 -798.167 2169
186.188 -798.167 2169
192.168 -801.479 2178
197.92 -803.687 2184
203.887 -806.63 2192
209.129 -806.63 2192
214.957 -808.838 2198
221.716 -814.358 2213
228.137 -818.406 2224
233.455 -818.406 2224
238.773 -818.406 2224
247.055 -828.342 2251
252.437 -828.342 2251
257.82 -828.342 2251
260.046 -818.406 2224
265.364 -818.406 2224
270.683 -818.406 2224
274.884 -815.094 2215
587.634 -1437.73 3907
596.977 -1437.73 3907
606.32 -1437.73 3907
615.662 -1437.73 3907
623.566 -1434.42 3898
638.894 -1448.03 3935
648.304 -1448.03 3935
657.714 -1448.03 3935
683.229 -1482.99 4030
692.866 -1482.99 4030
702.503 -1482.99 4030
707.016 -1472.32 4001
707.987 -1454.66 3953
717.439 -1454.66 3953
726.892 -1454.66 3953
739.884 -1461.65 3972
749.382 -1461.65 3972
758.881 -1461.65 3972
766.638 -1458.34 3963
770.631 -1448.03 3935
774.49 -1437.73 3907
783.833 -1437.73 3907
793.176 -1437.73 3907
802.519 -1437.73 3907
1434.01 -1388.79 3774
1443.03 -1388.79 3774
1452.06 -1388.79 3774
1461.08 -1388.79 3774
1460.37 -1379.59 3749
1469.33 -1379.59 3749
1468.44 -1370.39 3724
1477.35 -1370.39 3724
1476.27 -1361.19 3699
1472.27 -1349.41 3667
1481.04 -1349.41 3667
1489.81 -1349.41 3667
1501.85 -1352.36 3675
1513.92 -1355.3 3683
1529.35 -1361.19 3699
1538.19 -1361.19 3699
1550.38 -1364.13 3707
1559.25 -1364.13 3707
1568.11 -1364.13 3707
1566.77 -1355.3 3683
1568.73 -1349.41 3667
1573.63 -1346.1 3658
1582.37 -1346.1 3658
-2752.63 -1361.47 3724
-2743.72 -1361.47 3724
-2753.18 -1370.61 3749
-2744.21 -1370.61 3749
-2735.25 -1370.61 3749
-2726.28 -1370.61 3749
-2710.79 -1367.32 3740
-2701.85 -1367.32 3740
-2717.39 -1379.75 3774
-2708.36 -1379.75 3774
-2705.78 -1383.04 3783
-2696.73 -1383.04 3783
-2687.68 -1383.04 3783
-2666.6 -1376.82 3766
-2651.24 -1373.53 3757
-2642.26 -1373.53 3757
-2633.28 -1373.53 3757
-2624.29 -1373.53 3757
-2615.31 -1373.53 3757
-2624.36 -1383.04 3783
-2615.31 -1383.04 3783
-2606.27 -1383.04 3783
-2603.4 -1386.33 3792
-2594.33 -1386.33 3792
-2585.26 -1386.33 3792
-2570.08 -1383.04 3783
-2561.04 -1383.04 3783
-2545.92 -1379.75 3774
-2536.89 -1379.75 3774
-2522.51 -1376.82 3766
-2507.5 -1373.53 3757
-2493.19 -1370.61 3749
-2484.23 -1370.61 3749
-2453.48 -1358.54 3716
-1406.72 -1452.13 3972
-1397.22 -1452.13 3972
-1387.73 -1452.13 3972
-1378.23 -1452.13 3972
-1365.63 -1448.84 3963
-1356.15 -1448.84 3963
-1346.67 -1448.84 3963
-1330.79 -1441.9 3944
-1318.34 -1438.61 3935
-1314.92 -1445.19 3953
-1305.46 -1445.19 3953
-1296.01 -1445.19 3953
-1286.56 -1445.19 3953
-1277.11 -1445.19 3953
-1267.65 -1445.19 3953
-1255.34 -1441.9 3944
-1245.9 -1441.9 3944
-1242.43 -1448.84 3963
-1232.95 -1448.84 3963
-1223.48 -1448.84 3963
-105.664 -803.573 2198
-100.408 -803.573 2198
-95.1517 -803.573 2198
-89.8956 -803.573 2198
-84.6395 -803.573 2198
-79.3834 -803.573 2198
-73.925 -801.379 2192
-68.4953 -799.186 2186
-63.2679 -799.186 2186
-58.0405 -799.186 2186
-52.6923 -797.358 2181
-47.4769 -797.358 2181
-42.0289 -792.971 2169
-36.8422 -792.971 2169
-31.6554 -792.971 2169
-26.4443 -792.24 2167
-21.2329 -791.143 2164
-16.0581 -791.143 2164
-10.8381 -787.853 2155
-5.66371 -784.928 2147
-0.528349 -783.1 2142
4.57452 -779.81 2133
9.67517 -779.81 2133
14.7412 -777.982 2128
19.774 -775.788 2122
24.7898 -773.96 2117
29.8521 -773.96 2117
34.8651 -772.863 2114
39.8825 -772.132 2112
44.9329 -772.132 2112
49.9834 -772.132 2112
54.9556 -771.035 2109
59.9989 -771.035 2109
65.0421 -771.035 2109
70.0854 -771.035 2109
75.1287 -771.035 2109
80.1719 -771.035 2109
85.0132 -769.207 2104
90.2584 -771.035 2109
95.3017 -771.035 2109
100.345 -771.035 2109
105.388 -771.035 2109
110.589 -772.132 2112
115.748 -772.863 2114
120.804 -772.863 2114
126.335 -775.788 2122
131.781 -777.982 2128
137.191 -779.81 2133
142.292 -779.81 2133
147.807 -782.003 2139
153.137 -783.1 2142
158.407 -783.831 2144
163.534 -783.831 2144
169.369 -787.121 2153
174.922 -788.949 2158
180.834 -792.24 2167
186.016 -792.24 2167
191.639 -794.068 2172
197.377 -796.261 2178
203.608 -800.283 2189
208.843 -800.283 2189
214.957 -803.573 2198
221.716 -809.057 2213
227.829 -811.982 2221
233.14 -811.982 2221
238.451 -811.982 2221
247.055 -822.949 2251
252.437 -822.949 2251
257.82 -822.949 2251
260.046 -813.078 2224
265.364 -813.078 2224
270.683 -813.078 2224
576.805 -1402.05 3835
585.975 -1402.05 3835
595.146 -1402.05 3835
604.317 -1402.05 3835
614.927 -1405.34 3844
629.964 -1418.5 3880
639.243 -1418.5 3880
656.042 -1434.95 3925
667.124 -1438.61 3935
676.533 -1438.61 3935
685.943 -1438.61 3935
693.586 -1434.95 3925
702.972 -1434.95 3925
712.358 -1434.95 3925
713.469 -1418.5 3880
722.747 -1418.5 3880
732.025 -1418.5 3880
741.303 -1418.5 3880
750.582 -1418.5 3880
759.86 -1418.5 3880
767.354 -1415.21 3871
783.833 -1428.37 3907
793.176 -1428.37 3907
802.519 -1428.37 3907
1434.01 -1379.75 3774
1443.03 -1379.75 3774
1452.06 -1379.75 3774
1451.4 -1370.61 3749
1460.37 -1370.61 3749
1469.33 -1370.61 3749
1465.29 -1358.54 3716
1470.6 -1355.25 3707
1476.27 -1352.33 3699
1475.48 -1343.55 3675
1484.27 -1343.55 3675
1489.81 -1340.63 3667
1501.85 -1343.55 3675
1510.64 -1343.55 3675
1532.65 -1355.25 3707
1541.52 -1355.25 3707
1550.38 -1355.25 3707
1559.25 -1355.25 3707
1568.11 -1355.25 3707
1570.17 -1349.4 3691
1568.73 -1340.63 3667
1573.63 -1337.34 3658
1582.37 -1337.34 3658
-2752.63 -1352.55 3724
-2743.72 -1352.55 3724
-2753.18 -1361.63 3749
-2744.21 -1361.63 3749
-2735.25 -1361.63 3749
-2726.28 -1361.63 3749
-2710.79 -1358.36 3740
-2701.85 -1358.36 3740
-2717.39 -1370.71 3774
-2708.36 -1370.71 3774
-2705.78 -1373.98 3783
-2696.73 -1373.98 3783
-2687.68 -1373.98 3783
-2666.6 -1367.8 3766
-2639.25 -1358.36 3740
-2636.63 -1361.63 3749
-2627.67 -1361.63 3749
-2618.7 -1361.63 3749
-2609.74 -1361.63 3749
-2618.12 -1370.71 3774
-2615.31 -1373.98 3783
-2606.27 -1373.98 3783
-2603.4 -1377.24 3792
-2594.33 -1377.24 3792
-2585.26 -1377.24 3792
-2570.08 -1373.98 3783
-2561.04 -1373.98 3783
-2545.92 -1370.71 3774
-2536.89 -1370.71 3774
-2527.87 -1370.71 3774
-2513.5 -1367.8 3766
-2498.51 -1364.53 3757
-2489.53 -1364.53 3757
-2453.48 -1349.64 3716
-1406.72 -1442.62 3972
-1397.22 -1442.62 3972
-1387.73 -1442.62 3972
-1378.23 -1442.62 3972
-1365.63 -1439.35 3963
-1356.15 -1439.35 3963
-1346.67 -1439.35 3963
-1330.79 -1432.45 3944
-1318.34 -1429.18 3935
-1314.92 -1435.72 3953
-1305.46 -1435.72 3953
-1296.01 -1435.72 3953
-1286.56 -1435.72 3953
-1277.11 -1435.72 3953
-1267.65 -1435.72 3953
-1255.34 -1432.45 3944
-1245.9 -1432.45 3944
-1242.43 -1439.35 3963
-1232.95 -1439.35 3963
-1223.48 -1439.35 3963
-110.314 -793.949 2186
-105.087 -793.949 2186
-99.8596 -793.949 2186
-94.6322 -793.949 2186
-89.4048 -793.949 2186
-84.1774 -793.949 2186
-78.95 -793.949 2186
-73.7226 -793.949 2186
-68.3386 -792.133 2181
-63.1232 -792.133 2181
-57.9077 -792.133 2181
-52.6923 -792.133 2181
-47.4769 -792.133 2181
-42.0289 -787.775 2169
-36.8422 -787.775 2169
-31.6554 -787.775 2169
-26.4443 -787.049 2167
-21.2329 -785.959 2164
-16.0581 -785.959 2164
-10.8381 -782.69 2155
-5.66371 -779.785 2147
-0.528349 -777.969 2142
4.58739 -776.879 2139
9.70239 -776.879 2139
14.7412 -772.884 2128
19.774 -770.705 2122
24.7898 -768.889 2117
29.8521 -768.889 2117
34.8651 -767.799 2114
39.8825 -767.073 2112
44.9329 -767.073 2112
49.9834 -767.073 2112
55.0338 -767.073 2112
59.9989 -765.983 2109
65.0421 -765.983 2109
70.0854 -765.983 2109
75.1287 -765.983 2109
80.1719 -765.983 2109
85.094 -764.894 2106
90.2584 -765.983 2109
95.3017 -765.983 2109
100.345 -765.983 2109
105.388 -765.983 2109
110.589 -767.073 2112
115.748 -767.799 2114
120.804 -767.799 2114
126.335 -770.705 2122
131.781 -772.884 2128
137.191 -774.7 2133
142.292 -774.7 2133
147.6 -775.789 2136
152.922 -776.879 2139
158.259 -777.969 2142
163.381 -777.969 2142
169.133 -780.874 2150
174.517 -781.964 2153
180.584 -785.959 2164
185.758 -785.959 2164
191.198 -787.049 2167
197.105 -789.954 2175
203.143 -793.223 2184
208.366 -793.223 2184
214.077 -795.039 2189
221.716 -803.756 2213
227.213 -804.482 2215
232.51 -804.482 2215
238.451 -806.661 2221
247.055 -817.557 2251
252.437 -817.557 2251
257.82 -817.557 2251
570.337 -1377.24 3792
579.405 -1377.24 3792
588.473 -1377.24 3792
597.541 -1377.24 3792
610.768 -1386.69 3818
622.658 -1392.86 3835
631.829 -1392.86 3835
645.512 -1402.67 3862
665.428 -1425.55 3925
674.814 -1425.55 3925
684.2 -1425.55 3925
682.453 -1402.67 3862
688.465 -1396.13 3844
704.19 -1409.21 3880
713.469 -1409.21 3880
722.747 -1409.21 3880
732.025 -1409.21 3880
741.303 -1409.21 3880
748.841 -1405.94 3871
756.335 -1402.67 3862
763.786 -1399.4 3853
776.611 -1405.94 3871
785.868 -1405.94 3871
795.124 -1405.94 3871
1434.01 -1370.71 3774
1443.03 -1370.71 3774
1452.06 -1370.71 3774
1457.99 -1367.8 3766
1460.37 -1361.63 3749
1469.33 -1361.63 3749
1478.3 -1361.63 3749
1474.17 -1349.64 3716
1479.47 -1346.37 3707
1475.48 -1334.75 3675
1484.27 -1334.75 3675
1486.15 -1328.58 3658
1501.85 -1334.75 3675
1510.64 -1334.75 3675
1532.65 -1346.37 3707
1541.52 -1346.37 3707
1550.38 -1346.37 3707
1559.25 -1346.37 3707
1568.11 -1346.37 3707
1570.17 -1340.56 3691
1568.73 -1331.84 3667
-2752.63 -1343.63 3724
-2743.72 -1343.63 3724
-2740.69 -1346.51 3732
-2731.77 -1346.51 3732
-2722.85 -1346.51 3732
-2713.92 -1346.51 3732
-2705 -1346.51 3732
-2684.51 -1340.74 3716
-2711.63 -1358.78 3766
-2702.62 -1358.78 3766
-2693.62 -1358.78 3766
-2684.61 -1358.78 3766
-2675.61 -1358.78 3766
-2648.19 -1349.4 3740
-2627.96 -1343.63 3724
-2619.05 -1343.63 3724
-2610.15 -1343.63 3724
-2601.24 -1343.63 3724
-2603.47 -1349.4 3740
-2606.32 -1355.53 3757
-2609.09 -1361.67 3774
-2600.07 -1361.67 3774
-2603.4 -1368.16 3792
-2594.33 -1368.16 3792
-2585.26 -1368.16 3792
-2570.08 -1364.91 3783
-2561.04 -1364.91 3783
-2545.92 -1361.67 3774
-2536.89 -1361.67 3774
-2527.87 -1361.67 3774
-2513.5 -1358.78 3766
-2498.51 -1355.53 3757
-2489.53 -1355.53 3757
-2453.48 -1340.74 3716
-1407.42 -1443.57 4001
-1397.86 -1443.57 4001
-1391.41 -1446.82 4010
-1381.82 -1446.82 4010
-1372.23 -1446.82 4010
-1356.19 -1439.96 3991
-1346.64 -1439.96 3991
-1334.09 -1436.71 3982
-1324.56 -1436.71 3982
-1315.04 -1436.71 3982
-1305.52 -1436.71 3982
-1296 -1436.71 3982
-1289.38 -1439.96 3991
-1279.84 -1439.96 3991
-1270.3 -1439.96 3991
-1260.75 -1439.96 3991
-1251.21 -1439.96 3991
-1241.66 -1439.96 3991
-1223.48 -1429.86 3963
-110.92 -793.042 2198
-105.664 -793.042 2198
-100.408 -793.042 2198
-95.0218 -791.96 2195
-89.4048 -788.713 2186
-84.1004 -787.991 2184
-78.8778 -787.991 2184
-73.554 -786.909 2181
-68.2446 -785.826 2178
-63.0363 -785.826 2178
-57.8281 -785.826 2178
-52.6198 -785.826 2178
-47.2809 -783.661 2172
-41.9901 -781.857 2167
