ply
format ascii 1.0
comment File generated
element vertex 2248
property float x
property float y
property float z
end_header
555.352 1115.85 2257
560.749 1115.85 2257
566.146 1115.85 2257
568.505 1109.92 2245
573.873 1109.92 2245
579.242 1109.92 2245
586.954 1114.37 2254
592.344 1114.37 2254
599.59 1117.83 2261
604.997 1117.83 2261
610.404 1117.83 2261
615.81 1117.83 2261
622.041 1119.31 2264
629.118 1122.28 2270
637.062 1126.73 2279
644.203 1129.69 2285
649.668 1129.69 2285
657.139 1133.15 2292
665.221 1137.6 2301
670.724 1137.6 2301
676.226 1137.6 2301
682.617 1139.09 2304
688.127 1139.09 2304
694.54 1140.57 2307
700.056 1140.57 2307
705.573 1140.57 2307
711.09 1140.57 2307
716.607 1140.57 2307
721.184 1139.09 2304
724.802 1136.12 2298
726.165 1129.69 2285
731.629 1129.69 2285
735.158 1126.73 2279
740.608 1126.73 2279
747.04 1128.21 2282
752.497 1128.21 2282
757.954 1128.21 2282
763.411 1128.21 2282
765.835 1123.76 2273
770.253 1122.28 2270
775.681 1122.28 2270
780.077 1120.79 2267
783.419 1117.83 2261
790.919 1120.79 2267
798.448 1123.76 2273
803.883 1123.76 2273
809.319 1123.76 2273
816.905 1126.73 2279
825.602 1131.18 2288
831.073 1131.18 2288
840.201 1136.12 2298
846.8 1137.6 2301
852.303 1137.6 2301
857.805 1137.6 2301
862.182 1136.12 2298
867.677 1136.12 2298
874.312 1137.6 2301
879.815 1137.6 2301
885.317 1137.6 2301
890.819 1137.6 2301
896.322 1137.6 2301
901.824 1137.6 2301
906.144 1136.12 2298
912.829 1137.6 2301
918.331 1137.6 2301
923.834 1137.6 2301
929.336 1137.6 2301
934.838 1137.6 2301
940.341 1137.6 2301
945.843 1137.6 2301
951.346 1137.6 2301
955.601 1136.12 2298
961.096 1136.12 2298
970.377 1140.57 2307
975.893 1140.57 2307
981.41 1140.57 2307
986.927 1140.57 2307
992.443 1140.57 2307
997.96 1140.57 2307
998.257 1134.64 2295
998.06 1128.21 2282
1003.52 1128.21 2282
1011.63 1131.18 2288
1017.1 1131.18 2288
1022.57 1131.18 2288
1024 1126.73 2279
1029.45 1126.73 2279
1030.81 1122.28 2270
1028.93 1114.37 2254
1031.57 1111.4 2248
1036.95 1111.4 2248
1036.76 1105.47 2236
1040.71 1103.98 2233
1043.24 1101.02 2227
1048.56 1101.02 2227
1056.73 1103.98 2233
1062.07 1103.98 2233
1067.41 1103.98 2233
1072.74 1103.98 2233
1079.53 1105.47 2236
1084.88 1105.47 2236
1093.15 1108.43 2242
1098.51 1108.43 2242
1103.88 1108.43 2242
1106.27 1105.47 2236
1113.11 1106.95 2239
1119.96 1108.43 2242
1136.36 1119.31 2264
1141.78 1119.31 2264
1150.23 1122.28 2270
1158.71 1125.24 2276
1168.76 1129.69 2285
1174.22 1129.69 2285
1179.69 1129.69 2285
1185.15 1129.69 2285
1190.62 1129.69 2285
1196.08 1129.69 2285
1199.97 1128.21 2282
1205.42 1128.21 2282
1212.47 1129.69 2285
1217.94 1129.69 2285
1223.4 1129.69 2285
1228.87 1129.69 2285
1234.33 1129.69 2285
1241.42 1131.18 2288
1246.89 1131.18 2288
1252.36 1131.18 2288
1252.89 1126.73 2279
1258.34 1126.73 2279
1263.79 1126.73 2279
1269.24 1126.73 2279
1271.33 1123.76 2273
1276.77 1123.76 2273
1275.43 1117.83 2261
1271.77 1109.92 2245
1277.14 1109.92 2245
1282.51 1109.92 2245
1287.88 1109.92 2245
1293.25 1109.92 2245
1298.62 1109.92 2245
1307.47 1112.88 2251
1312.85 1112.88 2251
1318.24 1112.88 2251
1329.5 1117.83 2261
1336.68 1119.31 2264
1349.2 1125.24 2276
1354.65 1125.24 2276
1361.88 1126.73 2279
1369.13 1128.21 2282
1378.2 1131.18 2288
1383.67 1131.18 2288
1391.57 1133.15 2292
1400.71 1136.12 2298
1406.21 1136.12 2298
1411.7 1136.12 2298
1422.75 1140.57 2307
1434.46 1145.51 2317
1443.73 1148.48 2323
1449.28 1148.48 2323
1463.6 1155.4 2337
1477.37 1161.83 2350
1482.98 1161.83 2350
1488.6 1161.83 2350
1494.22 1161.83 2350
1497.29 1159.85 2346
1494.57 1153.42 2333
1500.15 1153.42 2333
1501.86 1150.46 2327
1504.83 1148.48 2323
1508.44 1147 2320
1513.98 1147 2320
1519.53 1147 2320
1525.08 1147 2320
1528.65 1145.51 2317
1534.19 1145.51 2317
1539.73 1145.51 2317
1543.27 1144.03 2314
1548.8 1144.03 2314
1552.32 1142.55 2311
1557.85 1142.55 2311
1558.64 1139.09 2304
1558.04 1134.64 2295
1558.76 1131.18 2288
1566.96 1133.15 2292
1572.44 1133.15 2292
1577.92 1133.15 2292
1583.41 1133.15 2292
1588.89 1133.15 2292
1579.06 1122.28 2270
1607.43 1134.64 2295
1612.92 1134.64 2295
1618.41 1134.64 2295
1623.89 1134.64 2295
1631.51 1136.12 2298
1637.01 1136.12 2298
1646.79 1139.09 2304
1652.3 1139.09 2304
1657.81 1139.09 2304
1663.32 1139.09 2304
1668.83 1139.09 2304
1674.34 1139.09 2304
1682.04 1140.57 2307
1687.55 1140.57 2307
1693.07 1140.57 2307
1698.59 1140.57 2307
1701.89 1139.09 2304
1705.17 1137.6 2301
1710.68 1137.6 2301
1704.24 1129.69 2285
1694 1119.31 2264
1699.41 1119.31 2264
1697.29 1114.37 2254
1702.68 1114.37 2254
1698.98 1108.43 2242
1706.62 1109.92 2245
1724.19 1117.83 2261
1729.6 1117.83 2261
-1605.94 1146.1 2307
-1600.42 1146.1 2307
-1594.91 1146.1 2307
-1587.32 1144.6 2304
-1581.81 1144.6 2304
-1576.3 1144.6 2304
-1557.84 1135.17 2285
-1561.21 1141.62 2298
-1555.71 1141.62 2298
-1550.22 1141.62 2298
-1544.72 1141.62 2298
-1539.23 1141.62 2298
-1533.73 1141.62 2298
-1530.23 1143.11 2301
-1524.73 1143.11 2301
-1523.19 1146.1 2307
-1524.25 1151.06 2317
-1518.71 1151.06 2317
-1513.17 1151.06 2317
-1509.58 1152.55 2320
-1504.03 1152.55 2320
-1498.48 1152.55 2320
-1487.15 1148.08 2311
-1463.03 1133.68 2282
-1446.07 1124.73 2264
-1426.66 1113.8 2242
-1421.3 1113.8 2242
-1412.15 1110.82 2236
-1412.46 1115.29 2245
-1407.09 1115.29 2245
-1401.73 1115.29 2245
-1394.49 1113.8 2242
-1371.16 1099.4 2213
-1362.17 1096.42 2207
-1356.89 1096.42 2207
-1351.61 1096.42 2207
-1340.84 1091.95 2198
-1331.94 1088.96 2192
-1326.7 1088.96 2192
-1313.02 1082.01 2178
-1307.81 1082.01 2178
-1296.02 1076.54 2167
-1290.84 1076.54 2167
-1282.1 1073.56 2161
-1276.93 1073.56 2161
-1273.53 1075.05 2164
-1268.35 1075.05 2164
-1263.18 1075.05 2164
-1264.4 1080.52 2175
-1259.2 1080.52 2175
-1254 1080.52 2175
-1248.8 1080.52 2175
-1240.17 1077.54 2169
-1234.98 1077.54 2169
-1229.79 1077.54 2169
-1224.6 1077.54 2169
-1219.42 1077.54 2169
-1214.23 1077.54 2169
-1209.04 1077.54 2169
-1205.52 1079.03 2172
-1200.33 1079.03 2172
-1195.14 1079.03 2172
-1189.94 1079.03 2172
-1184.75 1079.03 2172
-1177.92 1077.54 2169
-1171.66 1076.54 2167
-1164.86 1075.05 2164
-1159.68 1075.05 2164
-1148.64 1069.59 2153
-1143.49 1069.59 2153
-1133.59 1065.12 2144
-1128.46 1065.12 2144
-1123.33 1065.12 2144
-1118.2 1065.12 2144
-1114.64 1066.61 2147
-1113.64 1070.58 2155
-1108.48 1070.58 2155
-1116.64 1083.5 2181
-1112.95 1084.99 2184
-1107.73 1084.99 2184
-1102.51 1084.99 2184
-1102.81 1090.45 2195
-1097.56 1090.45 2195
-1092.31 1090.45 2195
-1082.61 1085.98 2186
-1077.38 1085.98 2186
-1076.57 1090.45 2195
-1078.64 1097.91 2210
-1073.36 1097.91 2210
-1077.74 1107.84 2230
-1082.5 1118.28 2251
-1079.99 1121.26 2257
-1074.59 1121.26 2257
-1073.93 1126.22 2267
-1071.34 1129.2 2273
-1067.31 1130.69 2276
-1061.87 1130.69 2276
-1057.82 1132.19 2279
-1052.37 1132.19 2279
-1046.92 1132.19 2279
-1041.47 1132.19 2279
-1031.93 1127.71 2270
-1020.62 1121.26 2257
-1015.22 1121.26 2257
-1005.8 1116.78 2248
-999.09 1115.29 2245
-988.41 1109.33 2233
-983.07 1109.33 2233
-976.417 1107.84 2230
-977.616 1115.29 2245
-972.248 1115.29 2245
-966.879 1115.29 2245
-961.511 1115.29 2245
-944.643 1101.88 2218
-945.692 1109.33 2233
-940.352 1109.33 2233
-935.012 1109.33 2233
-929.672 1109.33 2233
-921.849 1106.35 2227
-916.524 1106.35 2227
-909.971 1104.86 2224
-903.432 1103.37 2221
-898.121 1103.37 2221
-892.81 1103.37 2221
-888.698 1104.86 2224
-883.379 1104.86 2224
-883.983 1112.31 2239
-882.161 1116.78 2248
-876.785 1116.78 2248
-872.573 1118.28 2251
-869.501 1121.26 2257
-869.081 1127.71 2270
-863.653 1127.71 2270
-858.225 1127.71 2270
-855.051 1130.69 2276
-855.581 1138.64 2292
-850.1 1138.64 2292
-844.619 1138.64 2292
-840.236 1140.13 2295
-834.748 1140.13 2295
-829.26 1140.13 2295
-823.772 1140.13 2295
-815.788 1136.66 2288
-811.734 1138.64 2292
-806.253 1138.64 2292
-800.772 1138.64 2292
-795.291 1138.64 2292
-788.432 1136.66 2288
-782.96 1136.66 2288
-776.47 1135.17 2285
-769.993 1133.68 2282
-763.531 1132.19 2279
-758.082 1132.19 2279
-749.66 1127.71 2270
-743.248 1126.22 2267
-736.85 1124.73 2264
-731.436 1124.73 2264
-725.06 1123.24 2261
-716.471 1118.28 2251
-711.088 1118.28 2251
-705.705 1118.28 2251
-700.322 1118.28 2251
-694.939 1118.28 2251
-693.539 1124.73 2264
-688.125 1124.73 2264
-682.711 1124.73 2264
-679.092 1127.71 2270
-674.554 1129.2 2273
-669.119 1129.2 2273
-663.683 1129.2 2273
-657.379 1127.71 2270
-651.951 1127.71 2270
-647.377 1129.2 2273
-641.942 1129.2 2273
-639.867 1135.17 2285
-634.402 1135.17 2285
-628.938 1135.17 2285
-623.474 1135.17 2285
-615.576 1130.69 2276
-610.938 1132.19 2279
-606.285 1133.68 2282
-600.828 1133.68 2282
-595.371 1133.68 2282
-589.914 1133.68 2282
-584.457 1133.68 2282
-579 1133.68 2282
-572.035 1130.69 2276
-564.352 1126.22 2267
-558.931 1126.22 2267
-553.51 1126.22 2267
-544.946 1119.77 2254
-539.556 1119.77 2254
-536.536 1124.73 2264
-531.122 1124.73 2264
-525.708 1124.73 2264
-520.294 1124.73 2264
-513.288 1121.26 2257
-507.891 1121.26 2257
-502.494 1121.26 2257
-497.096 1121.26 2257
-493.224 1124.73 2264
-487.81 1124.73 2264
-482.396 1124.73 2264
-476.983 1124.73 2264
-472.194 1126.22 2267
-466.772 1126.22 2267
-461.351 1126.22 2267
-456.534 1127.71 2270
-451.105 1127.71 2270
-446.266 1129.2 2273
-440.831 1129.2 2273
-435.395 1129.2 2273
-429.96 1129.2 2273
-424.524 1129.2 2273
-419.089 1129.2 2273
-412.016 1124.73 2264
-405.345 1121.26 2257
-400.656 1123.24 2261
-396.298 1126.22 2267
-390.877 1126.22 2267
-386.476 1129.2 2273
-381.041 1129.2 2273
-375.605 1129.2 2273
-369.681 1127.71 2270
-363.29 1124.73 2264
-357.877 1124.73 2264
-352.463 1124.73 2264
-347.049 1124.73 2264
-341.182 1123.24 2261
-335.181 1121.26 2257
-329.784 1121.26 2257
-324.387 1121.26 2257
-318.142 1118.28 2251
-314.148 1123.24 2261
-309.561 1126.22 2267
-304.14 1126.22 2267
-299.114 1127.71 2270
-293.686 1127.71 2270
-288.639 1129.2 2273
-283.203 1129.2 2273
-277.768 1129.2 2273
-271.973 1127.71 2270
-266.545 1127.71 2270
-260.426 1124.73 2264
-254.674 1123.24 2261
-249.268 1123.24 2261
-243.861 1123.24 2261
-238.454 1123.24 2261
-233.047 1123.24 2261
-227.238 1121.26 2257
-221.546 1119.77 2254
-216.156 1119.77 2254
-210.766 1119.77 2254
-204.829 1116.78 2248
-199.187 1115.29 2245
-193.819 1115.29 2245
-188.199 1113.8 2242
-181.614 1106.35 2227
-176.289 1106.35 2227
-170.963 1106.35 2227
-164.745 1100.39 2215
-159.089 1097.91 2210
-153.386 1094.93 2204
-148.116 1094.93 2204
-142.456 1091.95 2198
-137.2 1091.95 2198
-132.665 1097.91 2210
-127.553 1099.4 2213
-122.261 1099.4 2213
-117.392 1103.37 2221
-112.081 1103.37 2221
-106.77 1103.37 2221
-100.956 1097.91 2210
-95.2815 1093.44 2201
-89.6502 1088.96 2192
-84.4085 1088.96 2192
-79.1667 1088.96 2192
-73.925 1088.96 2192
-68.4953 1085.98 2186
-63.21 1084.99 2184
-58.2794 1090.45 2195
-53.0305 1090.45 2195
-48.0428 1096.42 2207
-42.7652 1096.42 2207
-37.4876 1096.42 2207
-32.1662 1094.93 2204
-26.8958 1094.93 2204
-21.5371 1090.45 2195
-16.2882 1090.45 2195
89.8618 1104.86 2224
95.1801 1104.86 2224
100.498 1104.86 2224
105.817 1104.86 2224
110.435 1097.91 2210
115.72 1097.91 2210
192.698 1084.99 2184
198.102 1085.98 2186
203.887 1088.96 2192
209.129 1088.96 2192
214.371 1088.96 2192
221.917 1100.39 2215
228.444 1106.35 2227
233.77 1106.35 2227
240.706 1113.8 2242
246.396 1115.29 2245
253.895 1124.73 2264
259.309 1124.73 2264
265.776 1129.2 2273
271.211 1129.2 2273
277.012 1130.69 2276
282.454 1130.69 2276
288.276 1132.19 2279
294.113 1133.68 2282
300.882 1138.64 2292
306.363 1138.64 2292
311.844 1138.64 2292
317.74 1140.13 2295
323.228 1140.13 2295
328.716 1140.13 2295
334.204 1140.13 2295
341.025 1144.6 2304
346.985 1146.1 2307
352.502 1146.1 2307
358.64 1148.08 2311
364.166 1148.08 2311
369.692 1148.08 2311
375.218 1148.08 2311
381.239 1149.57 2314
387.274 1151.06 2317
393.323 1152.55 2320
398.871 1152.55 2320
404.419 1152.55 2320
409.967 1152.55 2320
416.052 1154.04 2323
421.607 1154.04 2323
427.162 1154.04 2323
433.462 1156.03 2327
439.592 1157.52 2330
445.737 1159.01 2333
451.316 1159.01 2333
456.895 1159.01 2333
461.879 1157.52 2330
467.451 1157.52 2330
473.023 1157.52 2330
478.595 1157.52 2330
482.712 1154.04 2323
488.267 1154.04 2323
492.546 1151.06 2317
498.087 1151.06 2317
502.975 1149.57 2314
508.509 1149.57 2314
513.376 1148.08 2311
515.31 1140.13 2295
518.529 1135.17 2285
523.993 1135.17 2285
529.457 1135.17 2285
534.921 1135.17 2285
538.966 1132.19 2279
541.549 1126.22 2267
546.97 1126.22 2267
551.66 1124.73 2264
555.352 1121.26 2257
560.749 1121.26 2257
566.146 1121.26 2257
568.505 1115.29 2245
573.873 1115.29 2245
579.242 1115.29 2245
586.954 1119.77 2254
592.344 1119.77 2254
599.59 1123.24 2261
604.997 1123.24 2261
610.404 1123.24 2261
615.81 1123.24 2261
622.041 1124.73 2264
629.118 1127.71 2270
637.062 1132.19 2279
644.203 1135.17 2285
649.668 1135.17 2285
657.139 1138.64 2292
665.221 1143.11 2301
670.724 1143.11 2301
676.226 1143.11 2301
682.617 1144.6 2304
688.127 1144.6 2304
694.54 1146.1 2307
700.056 1146.1 2307
705.573 1146.1 2307
711.09 1146.1 2307
716.607 1146.1 2307
721.184 1144.6 2304
724.802 1141.62 2298
726.165 1135.17 2285
731.629 1135.17 2285
735.158 1132.19 2279
740.608 1132.19 2279
747.04 1133.68 2282
752.497 1133.68 2282
757.954 1133.68 2282
763.411 1133.68 2282
765.835 1129.2 2273
770.253 1127.71 2270
775.681 1127.71 2270
780.077 1126.22 2267
783.419 1123.24 2261
790.919 1126.22 2267
798.448 1129.2 2273
803.883 1129.2 2273
809.319 1129.2 2273
816.905 1132.19 2279
825.602 1136.66 2288
831.073 1136.66 2288
840.201 1141.62 2298
846.8 1143.11 2301
852.303 1143.11 2301
857.805 1143.11 2301
862.182 1141.62 2298
867.677 1141.62 2298
874.312 1143.11 2301
879.815 1143.11 2301
885.317 1143.11 2301
890.819 1143.11 2301
896.322 1143.11 2301
901.824 1143.11 2301
895.103 1127.71 2270
905.291 1133.68 2282
910.748 1133.68 2282
916.205 1133.68 2282
921.662 1133.68 2282
927.119 1133.68 2282
932.576 1133.68 2282
938.033 1133.68 2282
942.25 1132.19 2279
948.947 1133.68 2282
955.659 1135.17 2285
964.067 1138.64 2292
969.548 1138.64 2292
977.581 1141.62 2298
983.077 1141.62 2298
988.572 1141.62 2298
992.769 1140.13 2295
993.908 1135.17 2285
994.123 1129.2 2273
996.92 1126.22 2267
1006.32 1130.69 2276
1011.76 1130.69 2276
1017.21 1130.69 2276
1019.95 1127.71 2270
1025.38 1127.71 2270
1020.82 1116.78 2248
1026.19 1116.78 2248
1024.69 1109.33 2233
1030.03 1109.33 2233
1029.8 1103.37 2221
1032.32 1100.39 2215
1037.61 1100.39 2215
1042.91 1100.39 2215
1047.26 1099.4 2213
1051.13 1097.91 2210
1058.8 1100.39 2215
1066.98 1103.37 2221
1073.74 1104.86 2224
1079.06 1104.86 2224
1088.76 1109.33 2233
1094.1 1109.33 2233
1099.44 1109.33 2233
1101.82 1106.35 2227
1107.14 1106.35 2227
1118.46 1112.31 2239
1134.86 1123.24 2261
1140.26 1123.24 2261
1147.19 1124.73 2264
1157.19 1129.2 2273
1165.69 1132.19 2279
1171.14 1132.19 2279
1176.59 1132.19 2279
1182.04 1132.19 2279
1187.49 1132.19 2279
1192.94 1132.19 2279
1196.81 1130.69 2276
1202.25 1130.69 2276
1207.7 1130.69 2276
1213.14 1130.69 2276
1218.58 1130.69 2276
1225.64 1132.19 2279
1231.09 1132.19 2279
1236.54 1132.19 2279
1240.35 1130.69 2276
1245.8 1130.69 2276
1249.59 1129.2 2273
1255.02 1129.2 2273
1260.46 1129.2 2273
1259.21 1123.24 2261
1262.38 1121.26 2257
1267.78 1121.26 2257
1264.71 1113.8 2242
1270.08 1113.8 2242
1270.32 1109.33 2233
1275.66 1109.33 2233
1281 1109.33 2233
1286.34 1109.33 2233
1291.68 1109.33 2233
1298.76 1110.82 2236
1309.35 1115.29 2245
1314.72 1115.29 2245
1323.62 1118.28 2251
1332.54 1121.26 2257
1342.09 1124.73 2264
1347.51 1124.73 2264
1356.5 1127.71 2270
1365.53 1130.69 2276
1370.98 1130.69 2276
1376.42 1130.69 2276
1387.32 1135.17 2285
1394.62 1136.66 2288
1406.21 1141.62 2298
1411.7 1141.62 2298
1419.05 1143.11 2301
1428.27 1146.1 2307
1441.86 1152.55 2320
1451.78 1156.03 2327
1457.34 1156.03 2327
1471.08 1162.49 2340
1476.67 1162.49 2340
1482.27 1162.49 2340
1487.87 1162.49 2340
1488.99 1159.01 2333
1488.17 1154.04 2323
1493.72 1154.04 2323
1495.4 1151.06 2317
1499 1149.57 2314
1504.53 1149.57 2314
1510.07 1149.57 2314
1515.6 1149.57 2314
1521.14 1149.57 2314
1524.69 1148.08 2311
1530.22 1148.08 2311
1535.74 1148.08 2311
1538.6 1146.1 2307
1544.12 1146.1 2307
1543.59 1141.62 2298
1549.08 1141.62 2298
1550.52 1138.64 2292
1549.21 1133.68 2282
1554.67 1133.68 2282
1560.13 1133.68 2282
1559.41 1129.2 2273
1564.84 1129.2 2273
1568.21 1127.71 2270
1573.63 1127.71 2270
1579.06 1127.71 2270
1588.68 1130.69 2276
1607.43 1140.13 2295
1612.92 1140.13 2295
1618.41 1140.13 2295
1623.89 1140.13 2295
1618.02 1132.19 2279
1629.88 1136.66 2288
1642.5 1141.62 2298
1648 1141.62 2298
1653.49 1141.62 2298
1661.15 1143.11 2301
1668.83 1144.6 2304
1674.34 1144.6 2304
1679.85 1144.6 2304
1685.36 1144.6 2304
1690.87 1144.6 2304
1696.38 1144.6 2304
1701.89 1144.6 2304
1705.17 1143.11 2301
1710.68 1143.11 2301
1704.24 1135.17 2285
1694 1124.73 2264
1691.9 1119.77 2254
1695.03 1118.28 2251
1700.42 1118.28 2251
1689.89 1107.84 2230
1704.34 1113.8 2242
1709.7 1113.8 2242
1715.06 1113.8 2242
-1603.85 1150.12 2304
-1598.34 1150.12 2304
-1592.83 1150.12 2304
-1587.32 1150.12 2304
-1581.81 1150.12 2304
-1576.3 1150.12 2304
-1557.84 1140.64 2285
-1554.41 1142.14 2288
-1548.94 1142.14 2288
-1543.47 1142.14 2288
-1535.98 1140.64 2285
-1528.51 1139.14 2282
-1529.73 1144.13 2292
-1528.24 1147.13 2298
-1522.74 1147.13 2298
-1517.25 1147.13 2298
-1513.72 1148.63 2301
-1508.22 1148.63 2301
-1502.72 1148.63 2301
-1497.22 1148.63 2301
-1491.71 1148.63 2301
-1486.21 1148.63 2301
-1472.34 1142.14 2288
-1451.49 1130.16 2264
-1432.02 1119.17 2242
-1409.48 1105.7 2215
-1409.89 1110.19 2224
-1404.57 1110.19 2224
-1401.14 1111.69 2227
-1395.81 1111.69 2227
-1390.49 1111.69 2227
-1374.59 1103.2 2210
-1365.59 1100.21 2204
-1352.91 1094.22 2192
-1347.67 1094.22 2192
-1342.43 1094.22 2192
-1333.52 1091.22 2186
-1325.26 1088.72 2181
-1320.04 1088.72 2181
-1313.02 1087.23 2178
-1304.21 1084.23 2172
-1296.02 1081.74 2167
-1290.84 1081.74 2167
-1282.1 1078.74 2161
-1276.93 1078.74 2161
-1273.53 1080.24 2164
-1268.35 1080.24 2164
-1263.18 1080.24 2164
-1264.4 1085.73 2175
-1259.2 1085.73 2175
-1254 1085.73 2175
-1248.8 1085.73 2175
-1240.17 1082.73 2169
-1234.98 1082.73 2169
-1229.79 1082.73 2169
-1224.6 1082.73 2169
-1219.42 1082.73 2169
-1214.23 1082.73 2169
-1209.04 1082.73 2169
-1205.52 1084.23 2172
-1200.33 1084.23 2172
-1195.14 1084.23 2172
-1189.94 1084.23 2172
-1184.75 1084.23 2172
-1177.92 1082.73 2169
-1172.74 1082.73 2169
-1164.86 1080.24 2164
-1159.68 1080.24 2164
-1148.64 1074.75 2153
-1143.49 1074.75 2153
-1133.59 1070.25 2144
-1128.46 1070.25 2144
-1123.33 1070.25 2144
-1118.2 1070.25 2144
-1114.64 1071.75 2147
-1113.64 1075.75 2155
-1108.48 1075.75 2155
-1116.64 1088.72 2181
-1112.95 1090.22 2184
-1107.73 1090.22 2184
-1102.51 1090.22 2184
-1102.81 1095.71 2195
-1097.56 1095.71 2195
-1092.31 1095.71 2195
-1082.61 1091.22 2186
-1077.38 1091.22 2186
-1076.57 1095.71 2195
-1078.64 1103.2 2210
-1073.36 1103.2 2210
-1077.74 1113.18 2230
-1082.5 1123.67 2251
-1079.99 1126.66 2257
-1074.59 1126.66 2257
-1073.93 1131.65 2267
-1071.34 1134.65 2273
-1067.31 1136.15 2276
-1061.87 1136.15 2276
-1057.82 1137.64 2279
-1052.37 1137.64 2279
-1046.92 1137.64 2279
-1041.47 1137.64 2279
-1031.93 1133.15 2270
-1020.62 1126.66 2257
-1015.22 1126.66 2257
-1005.8 1122.17 2248
-999.09 1120.67 2245
-988.41 1114.68 2233
-983.07 1114.68 2233
-976.417 1113.18 2230
-977.616 1120.67 2245
-972.248 1120.67 2245
-966.879 1120.67 2245
-961.511 1120.67 2245
-944.643 1107.19 2218
-945.692 1114.68 2233
-940.352 1114.68 2233
-935.012 1114.68 2233
-929.672 1114.68 2233
-921.849 1111.69 2227
-916.524 1111.69 2227
-909.971 1110.19 2224
-903.432 1108.69 2221
-898.121 1108.69 2221
-892.81 1108.69 2221
-888.698 1110.19 2224
-883.379 1110.19 2224
-883.983 1117.68 2239
-882.161 1122.17 2248
-876.785 1122.17 2248
-872.573 1123.67 2251
-869.501 1126.66 2257
-869.081 1133.15 2270
-863.653 1133.15 2270
-858.225 1133.15 2270
-855.051 1136.15 2276
-855.581 1144.13 2292
-850.1 1144.13 2292
-844.619 1144.13 2292
-840.236 1145.63 2295
-834.748 1145.63 2295
-829.26 1145.63 2295
-823.772 1145.63 2295
-815.788 1142.14 2288
-810.317 1142.14 2288
-804.846 1142.14 2288
-797.278 1139.14 2282
-791.821 1139.14 2282
-786.364 1139.14 2282
-780.907 1139.14 2282
-774.431 1137.64 2279
-767.969 1136.15 2276
-760.516 1133.15 2270
-755.088 1133.15 2270
-748.669 1131.65 2267
-739.969 1126.66 2257
-732.619 1123.67 2251
-727.236 1123.67 2251
-721.854 1123.67 2251
-714.561 1120.67 2245
-707.297 1117.68 2239
-701.943 1117.68 2239
-695.656 1116.18 2236
-690.309 1116.18 2236
-685.881 1117.68 2239
-682.35 1120.67 2245
-676.982 1120.67 2245
-671.613 1120.67 2245
-667.135 1122.17 2248
-661.759 1122.17 2248
-656.384 1122.17 2248
-649.271 1119.17 2242
-643.048 1117.68 2239
-638.548 1119.17 2242
-633.187 1119.17 2242
-632.026 1126.66 2257
-626.629 1126.66 2257
-621.231 1126.66 2257
-615.834 1126.66 2257
-609.626 1125.16 2254
-604.236 1125.16 2254
-598.846 1125.16 2254
-593.456 1125.16 2254
-588.066 1125.16 2254
-582.676 1125.16 2254
-575.749 1122.17 2248
-570.373 1122.17 2248
-563.49 1119.17 2242
-558.128 1119.17 2242
-549.808 1113.18 2230
-544.476 1113.18 2230
-536.242 1107.19 2218
-530.938 1107.19 2218
-527.056 1110.19 2224
-521.738 1110.19 2224
-516.42 1110.19 2224
-511.101 1110.19 2224
-505.101 1108.69 2221
-499.79 1108.69 2221
-493.811 1107.19 2218
-488.507 1107.19 2218
-487.124 1116.18 2236
-481.777 1116.18 2236
-476.43 1116.18 2236
-471.083 1116.18 2236
-468.236 1122.17 2248
-463.478 1123.67 2251
-458.095 1123.67 2251
-453.316 1125.16 2254
-449.913 1130.16 2264
-444.499 1130.16 2264
-439.085 1130.16 2264
-433.671 1130.16 2264
-428.257 1130.16 2264
-422.843 1130.16 2264
-416.139 1126.66 2257
-410.742 1126.66 2257
-405.345 1126.66 2257
-399.416 1125.16 2254
-394.55 1126.66 2257
-389.153 1126.66 2257
-384.436 1128.66 2261
-379.029 1128.66 2261
-373.622 1128.66 2261
-367.564 1126.66 2257
-360.242 1120.67 2245
-354.873 1120.67 2245
-349.505 1120.67 2245
-344.136 1120.67 2245
-336.957 1114.68 2233
-330.726 1111.69 2227
-325.401 1111.69 2227
-320.075 1111.69 2227
-315.174 1113.18 2230
-312.342 1122.17 2248
-307.786 1125.16 2254
-302.396 1125.16 2254
-297.401 1126.66 2257
-292.004 1126.66 2257
-287.115 1128.66 2261
-281.708 1128.66 2261
-276.301 1128.66 2261
-270.895 1128.66 2261
-265.488 1128.66 2261
-260.081 1128.66 2261
-254.224 1126.66 2257
-248.827 1126.66 2257
-243.429 1126.66 2257
-238.032 1126.66 2257
-231.398 1120.67 2245
-226.03 1120.67 2245
-220.956 1122.17 2248
-215.58 1122.17 2248
-210.205 1122.17 2248
-204.556 1120.67 2245
-198.655 1117.68 2239
-193.301 1117.68 2239
-187.443 1114.68 2233
-180.635 1105.7 2215
-174.943 1103.2 2210
-169.658 1103.2 2210
-163.927 1100.21 2204
-158.441 1098.71 2201
-152.551 1094.22 2192
-147.309 1094.22 2192
-141.873 1092.72 2189
-136.639 1092.72 2189
-131.944 1097.21 2198
-126.688 1097.21 2198
-121.432 1097.21 2198
-116.652 1101.7 2207
-111.374 1101.7 2207
-106.097 1101.7 2207
-100.408 1097.21 2198
-94.6322 1091.22 2186
-89.4048 1091.22 2186
-84.1774 1091.22 2186
-78.95 1091.22 2186
-73.7226 1091.22 2186
-68.4326 1090.22 2184
-62.9495 1085.73 2175
-57.7484 1085.73 2175
-52.5473 1085.73 2175
-48.0428 1101.7 2207
-42.7652 1101.7 2207
-37.4876 1101.7 2207
-32.0349 1095.71 2195
-26.786 1095.71 2195
-21.5371 1095.71 2195
-16.2882 1095.71 2195
84.7716 1113.18 2230
90.1042 1113.18 2230
95.4369 1113.18 2230
100.769 1113.18 2230
105.959 1111.69 2227
111.135 1110.19 2224
116.453 1110.19 2224
120.512 1098.71 2201
125.261 1094.22 2192
130.324 1092.72 2189
135.559 1092.72 2189
139.378 1081.74 2167
144.56 1081.74 2167
148.775 1074.75 2153
153.923 1074.75 2153
180.584 1080.24 2164
185.758 1080.24 2164
192.168 1087.23 2178
197.377 1087.23 2178
203.887 1094.22 2192
209.129 1094.22 2192
214.371 1094.22 2192
219.913 1095.71 2195
226.393 1101.7 2207
231.67 1101.7 2207
236.948 1101.7 2207
244.421 1111.69 2227
251.092 1117.68 2239
256.446 1117.68 2239
262.502 1120.67 2245
268.228 1122.17 2248
274.334 1125.16 2254
279.724 1125.16 2254
285.493 1126.66 2257
291.793 1130.16 2264
298.782 1136.15 2276
304.225 1136.15 2276
309.667 1136.15 2276
315.11 1136.15 2276
320.552 1136.15 2276
325.995 1136.15 2276
331.438 1136.15 2276
337.768 1139.14 2282
343.676 1140.64 2285
349.141 1140.64 2285
355.07 1142.14 2288
361.172 1144.13 2292
366.653 1144.13 2292
372.134 1144.13 2292
378.109 1145.63 2295
384.098 1147.13 2298
390.102 1148.63 2301
395.604 1148.63 2301
401.107 1148.63 2301
406.609 1148.63 2301
411.574 1147.13 2298
417.069 1147.13 2298
422.565 1147.13 2298
428.619 1148.63 2301
434.687 1150.12 2304
440.197 1150.12 2304
445.706 1150.12 2304
451.803 1151.62 2307
457.32 1151.62 2307
462.837 1151.62 2307
468.354 1151.62 2307
473.254 1150.12 2304
478.764 1150.12 2304
484.273 1150.12 2304
489.145 1148.63 2301
494.647 1148.63 2301
500.15 1148.63 2301
505.652 1148.63 2301
509.822 1145.63 2295
511.717 1137.64 2279
515.805 1134.65 2273
521.241 1134.65 2273
526.676 1134.65 2273
530.707 1131.65 2267
534.709 1128.66 2261
539.16 1126.66 2257
544.558 1126.66 2257
549.955 1126.66 2257
551.661 1119.17 2242
556.277 1117.68 2239
561.631 1117.68 2239
566.226 1116.18 2236
571.573 1116.18 2236
576.919 1116.18 2236
583.829 1119.17 2242
589.19 1119.17 2242
596.143 1122.17 2248
602.321 1123.67 2251
607.704 1123.67 2251
613.087 1123.67 2251
620.118 1126.66 2257
626.624 1128.66 2261
632.869 1130.16 2264
639.129 1131.65 2267
644.55 1131.65 2267
652.551 1136.15 2276
659.729 1139.14 2282
665.185 1139.14 2282
670.642 1139.14 2282
676.099 1139.14 2282
681.556 1139.14 2282
687.013 1139.14 2282
692.47 1139.14 2282
697.927 1139.14 2282
702.459 1137.64 2279
707.909 1137.64 2279
712.42 1136.15 2276
715.97 1133.15 2270
720.445 1131.65 2267
725.866 1131.65 2267
728.061 1126.66 2257
734.758 1128.66 2261
740.165 1128.66 2261
745.572 1128.66 2261
750.979 1128.66 2261
756.385 1128.66 2261
759.434 1125.16 2254
762.788 1122.17 2248
768.163 1122.17 2248
773.539 1122.17 2248
777.875 1120.67 2245
782.197 1119.17 2242
790.72 1123.67 2251
796.103 1123.67 2251
802.554 1125.16 2254
811.528 1130.16 2264
820.19 1134.65 2273
825.625 1134.65 2273
831.06 1134.65 2273
836.496 1134.65 2273
841.931 1134.65 2273
847.367 1134.65 2273
851.677 1133.15 2270
852.196 1126.66 2257
860.253 1130.16 2264
865.667 1130.16 2264
875.698 1136.15 2276
881.141 1136.15 2276
886.583 1136.15 2276
892.026 1136.15 2276
895.103 1133.15 2270
905.291 1139.14 2282
910.748 1139.14 2282
916.205 1139.14 2282
921.662 1139.14 2282
927.119 1139.14 2282
932.576 1139.14 2282
938.033 1139.14 2282
942.25 1137.64 2279
948.947 1139.14 2282
955.659 1140.64 2285
964.067 1144.13 2292
969.548 1144.13 2292
977.581 1147.13 2298
983.077 1147.13 2298
988.572 1147.13 2298
992.769 1145.63 2295
993.908 1140.64 2285
994.123 1134.65 2273
996.92 1131.65 2267
1006.32 1136.15 2276
1011.76 1136.15 2276
1017.21 1136.15 2276
1019.95 1133.15 2270
1025.38 1133.15 2270
1020.82 1122.17 2248
1026.19 1122.17 2248
1024.69 1114.68 2233
1030.03 1114.68 2233
1029.8 1108.69 2221
1032.32 1105.7 2215
1037.61 1105.7 2215
1042.91 1105.7 2215
1047.26 1104.7 2213
1051.13 1103.2 2210
1058.8 1105.7 2215
1066.98 1108.69 2221
1073.74 1110.19 2224
1079.06 1110.19 2224
1088.76 1114.68 2233
1094.1 1114.68 2233
1099.44 1114.68 2233
1101.82 1111.69 2227
1107.14 1111.69 2227
1118.46 1117.68 2239
1134.86 1128.66 2261
1140.26 1128.66 2261
1147.19 1130.16 2264
1157.19 1134.65 2273
1165.69 1137.64 2279
1171.14 1137.64 2279
1176.59 1137.64 2279
1182.04 1137.64 2279
1187.49 1137.64 2279
1192.94 1137.64 2279
1196.81 1136.15 2276
1202.25 1136.15 2276
1207.7 1136.15 2276
1213.14 1136.15 2276
1218.58 1136.15 2276
1225.64 1137.64 2279
1231.09 1137.64 2279
1236.54 1137.64 2279
1240.35 1136.15 2276
1245.8 1136.15 2276
1249.59 1134.65 2273
1255.02 1134.65 2273
1260.46 1134.65 2273
1259.21 1128.66 2261
1262.38 1126.66 2257
1267.78 1126.66 2257
1264.71 1119.17 2242
1270.08 1119.17 2242
1270.32 1114.68 2233
1275.66 1114.68 2233
1281 1114.68 2233
1286.34 1114.68 2233
1291.68 1114.68 2233
1298.76 1116.18 2236
1309.35 1120.67 2245
1314.72 1120.67 2245
1323.62 1123.67 2251
1332.54 1126.66 2257
1342.09 1130.16 2264
1347.51 1130.16 2264
1356.5 1133.15 2270
1365.53 1136.15 2276
1370.98 1136.15 2276
1376.42 1136.15 2276
1387.32 1140.64 2285
1394.62 1142.14 2288
1406.21 1147.13 2298
1411.7 1147.13 2298
1419.05 1148.63 2301
1428.27 1151.62 2307
1441.86 1158.11 2320
1451.78 1161.61 2327
1457.34 1161.61 2327
1471.08 1168.09 2340
1476.67 1168.09 2340
1482.27 1168.09 2340
1487.87 1168.09 2340
1488.99 1164.6 2333
1488.17 1159.61 2323
1493.72 1159.61 2323
1493.47 1155.12 2314
1497.06 1153.62 2311
1490.23 1144.13 2292
1495.71 1144.13 2292
1501.19 1144.13 2292
1506.67 1144.13 2292
1512.15 1144.13 2292
1517.63 1144.13 2292
1520.46 1142.14 2288
1523.93 1140.64 2285
1529.39 1140.64 2285
1532.84 1139.14 2282
1538.3 1139.14 2282
1541.73 1137.64 2279
1532.24 1126.66 2257
1535.59 1125.16 2254
1540.98 1125.16 2254
1546.37 1125.16 2254
1553.83 1126.66 2257
1559.23 1126.66 2257
1571.56 1131.65 2267
1576.98 1131.65 2267
1588.68 1136.15 2276
1607.43 1145.63 2295
1612.92 1145.63 2295
1618.41 1145.63 2295
1621.77 1144.13 2292
1615.89 1136.15 2276
1627.75 1140.64 2285
1635.35 1142.14 2288
1640.83 1142.14 2288
1646.3 1142.14 2288
1654.66 1144.13 2292
1660.14 1144.13 2292
1665.62 1144.13 2292
1677.66 1148.63 2301
1685.36 1150.12 2304
1690.87 1150.12 2304
1696.38 1150.12 2304
1701.89 1150.12 2304
1700.73 1145.63 2295
1706.21 1145.63 2295
1697.53 1136.15 2276
1686.51 1125.16 2254
1689.65 1123.67 2251
1683.74 1116.18 2236
1689.09 1116.18 2236
1683.07 1108.69 2221
1699.78 1116.18 2236
1709.7 1119.17 2242
1715.06 1119.17 2242
-1597.59 1151.13 2295
-1596.26 1154.14 2301
-1590.76 1154.14 2301
-1585.26 1154.14 2301
-1573.57 1149.62 2292
-1568.09 1149.62 2292
-1543.52 1135.58 2264
-1542.19 1138.59 2270
-1536.76 1138.59 2270
-1531.33 1138.59 2270
-1525.9 1138.59 2270
-1514.44 1134.08 2261
-1515.04 1138.59 2270
-1513.61 1141.6 2276
-1508.16 1141.6 2276
-1502.72 1141.6 2276
-1497.28 1141.6 2276
-1487.9 1138.59 2270
-1482.47 1138.59 2270
-1477.05 1138.59 2270
-1469.67 1137.08 2267
-1462.31 1135.58 2264
-1456.9 1135.58 2264
-1435.46 1123.04 2239
-1414.77 1111 2215
-1402.48 1105.49 2204
-1397.21 1105.49 2204
-1391.94 1105.49 2204
-1390.44 1108.49 2210
-1385.16 1108.49 2210
-1379.87 1108.49 2210
-1363.39 1099.47 2192
-1351.33 1093.95 2181
-1346.12 1093.95 2181
-1340.9 1093.95 2181
-1335.69 1093.95 2181
-1328.64 1092.44 2178
-1323.43 1092.44 2178
-1318.23 1092.44 2178
-1309.4 1089.43 2172
-1301.2 1086.93 2167
-1294.23 1085.42 2164
-1289.05 1085.42 2164
-1282.1 1083.92 2161
-1276.93 1083.92 2161
-1271.76 1083.92 2161
-1268.35 1085.42 2164
-1263.18 1085.42 2164
-1262.66 1089.43 2172
-1257.46 1089.43 2172
-1252.27 1089.43 2172
-1247.07 1089.43 2172
-1237.31 1085.42 2164
-1232.13 1085.42 2164
-1229.79 1087.93 2169
-1224.6 1087.93 2169
-1219.42 1087.93 2169
-1214.23 1087.93 2169
-1209.04 1087.93 2169
-1203.86 1087.93 2169
-1198.67 1087.93 2169
-1195.14 1089.43 2172
-1189.94 1089.43 2172
-1184.75 1089.43 2172
-1177.92 1087.93 2169
-1172.74 1087.93 2169
-1161.63 1082.41 2158
-1156.47 1082.41 2158
-1148.64 1079.9 2153
-1138.71 1075.39 2144
-1132.53 1074.39 2142
-1127.41 1074.39 2142
-1119.14 1071.38 2136
-1115.6 1072.88 2139
-1112.04 1074.39 2142
-1111.05 1078.4 2150
-1105.91 1078.4 2150
-1100.77 1078.4 2150
-1098.18 1080.91 2155
-1093.02 1080.91 2155
-1087.87 1080.91 2155
-1082.72 1080.91 2155
-1077.56 1080.91 2155
-1072.41 1080.91 2155
-1067.26 1080.91 2155
-1063.58 1082.41 2158
-1059.89 1083.92 2161
-1064.49 1093.95 2181
-1059.27 1093.95 2181
-1063.72 1103.98 2201
-1069.52 1115.52 2224
-1065.64 1117.02 2227
-1060.31 1117.02 2227
-1059.25 1121.54 2236
-1055.32 1123.04 2239
-1051.37 1124.55 2242
-1046.01 1124.55 2242
-1040.65 1124.55 2242
-1035.28 1124.55 2242
-1029.92 1124.55 2242
-1023.19 1123.04 2239
-1017.84 1123.04 2239
-1015.2 1126.05 2245
-1009.83 1126.05 2245
-1004.46 1126.05 2245
-993.75 1120.03 2233
-987.082 1118.53 2230
-981.75 1118.53 2230
-975.103 1117.02 2227
-969.778 1117.02 2227
-964.453 1117.02 2227
-959.127 1117.02 2227
-952.517 1115.52 2224
-939.958 1106.99 2207
-934.681 1106.99 2207
-937.825 1117.02 2227
-932.5 1117.02 2227
-927.174 1117.02 2227
-920.607 1115.52 2224
-915.289 1115.52 2224
-909.971 1115.52 2224
-902.212 1112.51 2218
-896.908 1112.51 2218
-891.604 1112.51 2218
-886.3 1112.51 2218
-879.805 1111 2215
-880.43 1118.53 2230
-878.629 1123.04 2239
-875.615 1126.05 2245
-872.573 1129.06 2251
-867.19 1129.06 2251
-861.807 1129.06 2251
-857.566 1130.56 2254
-852.176 1130.56 2254
-851.669 1137.08 2267
-848.488 1140.09 2273
-843.053 1140.09 2273
-837.617 1140.09 2273
-835.477 1144.61 2282
-830.02 1144.61 2282
-824.563 1144.61 2282
-819.106 1144.61 2282
-813.649 1144.61 2282
-808.192 1144.61 2282
-802.735 1144.61 2282
-797.278 1144.61 2282
-791.821 1144.61 2282
-786.364 1144.61 2282
-780.907 1144.61 2282
-774.431 1143.1 2279
-767.969 1141.6 2276
-760.516 1138.59 2270
-755.088 1138.59 2270
-748.669 1137.08 2267
-739.969 1132.07 2257
-732.619 1129.06 2251
-727.236 1129.06 2251
-721.854 1129.06 2251
-714.561 1126.05 2245
-707.297 1123.04 2239
-701.943 1123.04 2239
-695.656 1121.54 2236
-690.309 1121.54 2236
-685.881 1123.04 2239
-682.35 1126.05 2245
-676.982 1126.05 2245
-671.613 1126.05 2245
-667.135 1127.55 2248
-661.759 1127.55 2248
-656.384 1127.55 2248
-649.271 1124.55 2242
-643.048 1123.04 2239
-638.548 1124.55 2242
-633.187 1124.55 2242
-632.026 1132.07 2257
-626.629 1132.07 2257
-621.231 1132.07 2257
-615.834 1132.07 2257
-609.626 1130.56 2254
-604.236 1130.56 2254
-598.846 1130.56 2254
-593.456 1130.56 2254
-588.066 1130.56 2254
-582.676 1130.56 2254
-575.749 1127.55 2248
-570.373 1127.55 2248
-563.49 1124.55 2242
-558.128 1124.55 2242
-549.808 1118.53 2230
-544.476 1118.53 2230
-536.242 1112.51 2218
-530.938 1112.51 2218
-527.056 1115.52 2224
-521.738 1115.52 2224
-516.42 1115.52 2224
-511.101 1115.52 2224
-505.101 1114.01 2221
-499.79 1114.01 2221
-493.811 1112.51 2218
-488.507 1112.51 2218
-487.124 1121.54 2236
-481.777 1121.54 2236
-476.43 1121.54 2236
-471.083 1121.54 2236
-468.236 1127.55 2248
-463.478 1129.06 2251
-458.095 1129.06 2251
-453.316 1130.56 2254
-449.913 1135.58 2264
-444.499 1135.58 2264
-439.085 1135.58 2264
-433.671 1135.58 2264
-428.257 1135.58 2264
-422.843 1135.58 2264
-416.139 1132.07 2257
-410.742 1132.07 2257
-405.345 1132.07 2257
-399.416 1130.56 2254
-394.55 1132.07 2257
-389.153 1132.07 2257
-384.436 1134.08 2261
-379.029 1134.08 2261
-373.622 1134.08 2261
-367.564 1132.07 2257
-360.242 1126.05 2245
-354.873 1126.05 2245
-349.505 1126.05 2245
-344.136 1126.05 2245
-336.957 1120.03 2233
-330.726 1117.02 2227
-325.401 1117.02 2227
-320.075 1117.02 2227
-315.174 1118.53 2230
-312.342 1127.55 2248
-307.786 1130.56 2254
-302.396 1130.56 2254
-297.401 1132.07 2257
-292.004 1132.07 2257
-287.115 1134.08 2261
-281.708 1134.08 2261
-276.301 1134.08 2261
-270.895 1134.08 2261
-265.488 1134.08 2261
-260.081 1134.08 2261
-252.196 1123.04 2239
-246.842 1123.04 2239
-241.488 1123.04 2239
-236.134 1123.04 2239
-230.78 1123.04 2239
-225.426 1123.04 2239
-220.072 1123.04 2239
-214.717 1123.04 2239
-209.363 1123.04 2239
-204.009 1123.04 2239
-197.59 1117.02 2227
-192.265 1117.02 2227
-185.932 1111 2215
-179.983 1106.99 2207
-174.468 1105.49 2204
-169.197 1105.49 2204
-163.704 1103.98 2201
-158.009 1100.97 2195
-152.551 1099.47 2192
-147.309 1099.47 2192
-141.549 1095.45 2184
-136.326 1095.45 2184
-131.224 1096.46 2186
-125.997 1096.46 2186
-120.769 1096.46 2186
-115.542 1096.46 2186
-110.314 1096.46 2186
-105.087 1096.46 2186
-99.8596 1096.46 2186
-94.5456 1095.45 2184
-88.6277 1086.93 2167
-83.4458 1086.93 2167
-78.3361 1087.93 2169
-73.1493 1087.93 2169
-67.9626 1087.93 2169
-62.7758 1087.93 2169
-57.6688 1089.43 2172
-52.4749 1089.43 2172
-47.7163 1099.47 2192
-42.4746 1099.47 2192
-37.2328 1099.47 2192
-31.9911 1099.47 2192
-26.6761 1096.46 2186
-21.3703 1092.44 2178
-16.162 1092.44 2178
-10.9537 1092.44 2178
74.0067 1117.02 2227
79.3322 1117.02 2227
84.9997 1121.54 2236
90.4679 1123.04 2239
95.822 1123.04 2239
101.176 1123.04 2239
106.245 1120.03 2233
111.285 1117.02 2227
116.61 1117.02 2227
121.005 1108.49 2210
125.432 1100.97 2195
130.503 1099.47 2192
135.744 1099.47 2192
139.7 1089.43 2172
144.56 1086.93 2167
149.535 1085.42 2164
154.71 1085.42 2164
159.663 1083.92 2161
164.602 1082.41 2158
169.998 1083.92 2161
175.814 1087.93 2169
181.001 1087.93 2169
186.188 1087.93 2169
190.933 1085.42 2164
196.561 1087.93 2169
202.585 1092.44 2178
207.793 1092.44 2178
213.001 1092.44 2178
219.612 1099.47 2192
224.854 1099.47 2192
230.096 1099.47 2192
235.66 1100.97 2195
241.567 1103.98 2201
249.073 1114.01 2221
254.384 1114.01 2221
260.748 1118.53 2230
267.154 1123.04 2239
273.238 1126.05 2245
278.607 1126.05 2245
284.355 1127.55 2248
290.504 1130.56 2254
296.813 1134.08 2261
302.22 1134.08 2261
307.626 1134.08 2261
313.033 1134.08 2261
318.44 1134.08 2261
323.846 1134.08 2261
328.671 1132.07 2257
335.548 1137.08 2267
340.969 1137.08 2267
346.39 1137.08 2267
352.277 1138.59 2270
357.705 1138.59 2270
364.093 1141.6 2276
369.536 1141.6 2276
375.473 1143.1 2279
380.922 1143.1 2279
386.372 1143.1 2279
391.822 1143.1 2279
397.272 1143.1 2279
402.722 1143.1 2279
408.171 1143.1 2279
413.621 1143.1 2279
419.071 1143.1 2279
425.079 1144.61 2282
431.668 1147.62 2288
438.477 1151.13 2295
443.965 1151.13 2295
450.041 1152.63 2298
455.536 1152.63 2298
461.031 1152.63 2298
466.526 1152.63 2298
470.789 1149.62 2292
476.27 1149.62 2292
481.751 1149.62 2292
486.381 1147.62 2288
490.563 1144.61 2282
496.02 1144.61 2282
501.477 1144.61 2282
506.267 1143.1 2279
509.696 1138.59 2270
512.175 1132.07 2257
517.572 1132.07 2257
522.969 1132.07 2257
527.664 1130.56 2254
532.344 1129.06 2251
536.294 1126.05 2245
541.662 1126.05 2245
547.031 1126.05 2245
550.185 1121.54 2236
554.786 1120.03 2233
560.126 1120.03 2233
561.667 1112.51 2218
567.738 1114.01 2221
575.371 1118.53 2230
580.704 1118.53 2230
586.037 1118.53 2230
591.369 1118.53 2230
596.702 1118.53 2230
602.034 1118.53 2230
610.635 1124.55 2242
615.997 1124.55 2242
622.189 1126.05 2245
629.235 1129.06 2251
635.464 1130.56 2254
640.854 1130.56 2254
648.251 1134.08 2261
655.392 1137.08 2267
660.813 1137.08 2267
666.234 1137.08 2267
672.544 1138.59 2270
677.972 1138.59 2270
683.401 1138.59 2270
687.919 1137.08 2267
693.34 1137.08 2267
698.761 1137.08 2267
704.182 1137.08 2267
705.534 1130.56 2254
709.031 1127.55 2248
713.453 1126.05 2245
718.822 1126.05 2245
724.19 1126.05 2245
731.509 1129.06 2251
737.874 1130.56 2254
743.264 1130.56 2254
748.654 1130.56 2254
754.044 1130.56 2254
757.412 1127.55 2248
760.752 1124.55 2242
766.113 1124.55 2242
770.442 1123.04 2239
773.717 1120.03 2233
779.057 1120.03 2233
787.558 1124.55 2242
792.92 1124.55 2242
800.417 1127.55 2248
807.944 1130.56 2254
816.942 1135.58 2264
822.356 1135.58 2264
828.867 1137.08 2267
835.392 1138.59 2270
840.82 1138.59 2270
846.248 1138.59 2270
846.799 1132.07 2257
849.931 1129.06 2251
857.594 1132.07 2257
865.667 1135.58 2264
871.081 1135.58 2264
876.495 1135.58 2264
881.909 1135.58 2264
888.499 1137.08 2267
893.92 1137.08 2267
899.341 1137.08 2267
905.959 1138.59 2270
911.387 1138.59 2270
916.816 1138.59 2270
922.244 1138.59 2270
927.672 1138.59 2270
933.1 1138.59 2270
938.529 1138.59 2270
945.204 1140.09 2273
951.895 1141.6 2276
959.861 1144.61 2282
965.318 1144.61 2282
972.051 1146.11 2285
977.515 1146.11 2285
982.979 1146.11 2285
987.146 1144.61 2282
988.688 1140.09 2273
990.187 1135.58 2264
991.203 1130.56 2254
996.594 1130.56 2254
999.316 1127.55 2248
1004.69 1127.55 2248
1008.72 1126.05 2245
1014.09 1126.05 2245
1009.92 1115.52 2224
1006.11 1105.49 2204
1011.38 1105.49 2204
1016.65 1105.49 2204
1017.75 1100.97 2195
1021.6 1099.47 2192
1020.28 1092.44 2178
1025.49 1092.44 2178
1032.12 1093.95 2181
1037.33 1093.95 2181
1044.94 1096.46 2186
1053.05 1099.47 2192
1062.64 1103.98 2201
1067.9 1103.98 2201
1074.62 1105.49 2204
1081.36 1106.99 2207
1088.12 1108.49 2210
1093.4 1108.49 2210
1102.67 1112.51 2218
1115.46 1120.03 2233
1132.85 1132.07 2257
1138.25 1132.07 2257
1147.19 1135.58 2264
1154.13 1137.08 2267
1164.16 1141.6 2276
1169.6 1141.6 2276
1175.04 1141.6 2276
1180.48 1141.6 2276
1185.93 1141.6 2276
1191.37 1141.6 2276
1196.81 1141.6 2276
1202.25 1141.6 2276
1207.7 1141.6 2276
1213.14 1141.6 2276
1218.58 1141.6 2276
1224.02 1141.6 2276
1229.47 1141.6 2276
1234.91 1141.6 2276
1238.72 1140.09 2273
1244.15 1140.09 2273
1247.94 1138.59 2270
1253.37 1138.59 2270
1253.81 1134.08 2261
1259.21 1134.08 2261
1259.03 1129.06 2251
1264.41 1129.06 2251
1264.71 1124.55 2242
1264.98 1120.03 2233
1270.32 1120.03 2233
1275.66 1120.03 2233
1281 1120.03 2233
1286.34 1120.03 2233
1288.21 1117.02 2227
1297.02 1120.03 2233
1307.6 1124.55 2242
1312.97 1124.55 2242
1320.09 1126.05 2245
1332.54 1132.07 2257
1342.09 1135.58 2264
1347.51 1135.58 2264
1356.5 1138.59 2270
1365.53 1141.6 2276
1370.98 1141.6 2276
1376.42 1141.6 2276
1385.5 1144.61 2282
1394.62 1147.62 2288
1402.54 1149.62 2292
1408.02 1149.62 2292
1419.05 1154.14 2301
1428.27 1157.15 2307
1441.86 1163.67 2320
1451.78 1167.18 2327
1457.34 1167.18 2327
1471.08 1173.7 2340
1476.67 1173.7 2340
1482.27 1173.7 2340
1487.87 1173.7 2340
1488.99 1170.19 2333
1488.17 1165.17 2323
1493.72 1165.17 2323
1493.47 1160.66 2314
1497.06 1159.15 2311
1490.23 1149.62 2292
1495.71 1149.62 2292
1501.19 1149.62 2292
1506.67 1149.62 2292
1512.15 1149.62 2292
1517.63 1149.62 2292
1520.46 1147.62 2288
1523.93 1146.11 2285
1529.39 1146.11 2285
1532.84 1144.61 2282
1538.3 1144.61 2282
1541.73 1143.1 2279
1532.24 1132.07 2257
1535.59 1130.56 2254
1540.98 1130.56 2254
1546.37 1130.56 2254
1553.83 1132.07 2257
1559.23 1132.07 2257
1571.56 1137.08 2267
1576.98 1137.08 2267
1588.68 1141.6 2276
1607.43 1151.13 2295
1612.92 1151.13 2295
1618.41 1151.13 2295
1621.77 1149.62 2292
1615.89 1141.6 2276
1627.75 1146.11 2285
1635.35 1147.62 2288
1640.83 1147.62 2288
1646.3 1147.62 2288
1654.66 1149.62 2292
1660.14 1149.62 2292
1665.62 1149.62 2292
1677.66 1154.14 2301
1685.36 1155.64 2304
1690.87 1155.64 2304
1696.38 1155.64 2304
1701.89 1155.64 2304
1700.73 1151.13 2295
1706.21 1151.13 2295
1697.53 1141.6 2276
1686.51 1130.56 2254
1689.65 1129.06 2251
1683.74 1121.54 2236
1689.09 1121.54 2236
1687.61 1117.02 2227
1699.78 1121.54 2236
1709.7 1124.55 2242
1715.06 1124.55 2242
-1680.89 1131.43 2245
-1675.52 1131.43 2245
-1581 1148.56 2279
-1575.55 1148.56 2279
-1570.1 1148.56 2279
-1552.29 1139.49 2261
-1546.88 1139.49 2261
-1532.61 1132.94 2248
-1536.07 1139.49 2261
-1530.66 1139.49 2261
-1525.26 1139.49 2261
-1519.85 1139.49 2261
-1511.76 1137.48 2257
-1511.04 1141 2264
-1509.62 1144.03 2270
-1504.19 1144.03 2270
-1498.76 1144.03 2270
-1493.33 1144.03 2270
-1485.94 1142.52 2267
-1480.52 1142.52 2267
-1471.19 1139.49 2261
-1463.19 1137.48 2257
-1446.17 1128.4 2239
-1440.81 1128.4 2239
-1420.07 1116.31 2215
-1394.97 1100.69 2184
-1387.84 1099.17 2181
-1391.5 1106.23 2195
-1386.25 1106.23 2195
-1381 1106.23 2195
-1375.76 1106.23 2195
-1370.51 1106.23 2195
-1354.68 1097.66 2178
-1342.66 1092.12 2167
-1342.42 1096.15 2175
-1337.22 1096.15 2175
-1332.01 1096.15 2175
-1323.15 1093.13 2169
-1316.75 1092.12 2167
-1311.57 1092.12 2167
-1306.39 1092.12 2167
-1297.6 1089.09 2161
-1290.64 1087.58 2158
-1285.48 1087.58 2158
-1280.32 1087.58 2158
-1275.16 1087.58 2158
-1271.76 1089.09 2161
-1266.6 1089.09 2161
-1261.43 1089.09 2161
-1260.91 1093.13 2169
-1255.73 1093.13 2169
-1250.54 1093.13 2169
-1245.35 1093.13 2169
-1237.31 1090.61 2164
-1238.39 1096.15 2175
-1233.19 1096.15 2175
-1227.99 1096.15 2175
-1222.79 1096.15 2175
-1217.59 1096.15 2175
-1214.06 1097.66 2178
-1210.52 1099.17 2181
-1205.3 1099.17 2181
-1200.09 1099.17 2181
-1194.87 1099.17 2181
-1189.66 1099.17 2181
-1182.81 1097.66 2178
-1174.36 1094.64 2172
-1167.55 1093.13 2169
-1162.36 1093.13 2169
-1152.91 1089.09 2161
-1141.9 1083.55 2150
-1133.59 1080.53 2144
-1128.46 1080.53 2144
-1122.28 1079.52 2142
-1117.16 1079.52 2142
-1112.04 1079.52 2142
-1109.5 1082.04 2147
-1104.37 1082.04 2147
-1099.23 1082.04 2147
-1092.57 1080.53 2144
-1087.44 1080.53 2144
-1081.31 1079.52 2142
-1074.68 1078.01 2139
-1069.56 1078.01 2139
-1064.45 1078.01 2139
-1059.33 1078.01 2139
-1056.68 1080.53 2144
-1056.95 1086.07 2155
-1054.72 1089.09 2161
-1049.56 1089.09 2161
-1052.61 1097.66 2178
-1051.24 1101.69 2186
-1048.89 1104.72 2192
-1043.65 1104.72 2192
-1038.4 1104.72 2192
-1037.4 1109.25 2201
-1034.96 1112.28 2207
-1029.68 1112.28 2207
-1027.18 1115.3 2213
-1021.89 1115.3 2213
-1016.6 1115.3 2213
-1011.31 1115.3 2213
-1004.65 1113.79 2210
-999.369 1113.79 2210
-994.084 1113.79 2210
-988.799 1113.79 2210
-982.179 1112.28 2207
-975.574 1110.77 2204
-970.303 1110.77 2204
-965.033 1110.77 2204
-959.762 1110.77 2204
-954.492 1110.77 2204
-949.221 1110.77 2204
-942.666 1109.25 2201
-936.125 1107.74 2198
-934.681 1112.28 2207
-929.403 1112.28 2207
-924.125 1112.28 2207
-918.848 1112.28 2207
-909.845 1107.74 2198
-904.589 1107.74 2198
-901.788 1110.77 2204
-896.517 1110.77 2204
-891.247 1110.77 2204
-887.182 1112.28 2207
-883.103 1113.79 2210
-877.819 1113.79 2210
-874.508 1116.31 2215
-876.275 1125.38 2233
-875.615 1131.43 2245
-870.247 1131.43 2245
-867.19 1134.45 2251
-861.807 1134.45 2251
-856.424 1134.45 2251
-851.041 1134.45 2251
-845.659 1134.45 2251
-845.128 1141 2264
-839.715 1141 2264
-834.301 1141 2264
-831.083 1144.03 2270
-825.655 1144.03 2270
-820.227 1144.03 2270
-814.799 1144.03 2270
-809.37 1144.03 2270
-806.067 1147.05 2276
-801.68 1148.56 2279
-796.23 1148.56 2279
-790.78 1148.56 2279
-785.33 1148.56 2279
-779.881 1148.56 2279
-773.411 1147.05 2276
-766.957 1145.54 2273
-760.516 1144.03 2270
-755.088 1144.03 2270
-745.366 1137.48 2257
-738.002 1134.45 2251
-732.619 1134.45 2251
-727.236 1134.45 2251
-719.929 1131.43 2245
-711.696 1126.89 2236
-704.454 1123.87 2230
-699.121 1123.87 2230
-693.789 1123.87 2230
-686.604 1120.84 2224
-681.286 1120.84 2224
-678.703 1125.38 2233
-673.363 1125.38 2233
-668.023 1125.38 2233
-664.464 1128.4 2239
-659.11 1128.4 2239
-653.756 1128.4 2239
-645.795 1123.87 2230
-639.601 1122.36 2227
-634.276 1122.36 2227
-631.492 1126.89 2236
-626.145 1126.89 2236
-621.631 1128.4 2239
-616.277 1128.4 2239
-610.923 1128.4 2239
-605.569 1128.4 2239
-601.019 1129.92 2242
-596.455 1131.43 2245
-591.086 1131.43 2245
-585.718 1131.43 2245
-580.349 1131.43 2245
-574.212 1129.92 2242
-568.851 1129.92 2242
-562.736 1128.4 2239
-555.141 1123.87 2230
-546.85 1117.82 2218
-541.546 1117.82 2218
-534.308 1113.79 2210
-529.023 1113.79 2210
-524.449 1115.3 2213
-519.627 1116.31 2215
-514.33 1116.31 2215
-509.033 1116.31 2215
-503.736 1116.31 2215
-498.44 1116.31 2215
-491.362 1112.28 2207
-487.846 1116.31 2215
-483.203 1117.82 2218
-477.899 1117.82 2218
-472.595 1117.82 2218
-470.451 1125.38 2233
-465.112 1125.38 2233
-461.007 1128.4 2239
-455.653 1128.4 2239
-451.506 1131.43 2245
-447.926 1135.96 2254
-443.125 1137.48 2257
-437.728 1137.48 2257
-432.33 1137.48 2257
-426.933 1137.48 2257
-421.536 1137.48 2257
-416.139 1137.48 2257
-410.196 1135.96 2254
-404.267 1134.45 2251
-397.289 1129.92 2242
-391.928 1129.92 2242
-386.567 1129.92 2242
-381.205 1129.92 2242
-375.844 1129.92 2242
-370.483 1129.92 2242
-365.122 1129.92 2242
-357.835 1123.87 2230
-352.028 1122.36 2227
-346.702 1122.36 2227
-340.457 1119.33 2221
-333.034 1112.28 2207
-326.865 1109.25 2201
-321.602 1109.25 2201
-316.338 1109.25 2201
-311.499 1110.77 2204
-308.591 1119.33 2221
-303.689 1120.84 2224
-298.371 1120.84 2224
-294.239 1125.38 2233
-288.899 1125.38 2233
-283.559 1125.38 2233
-278.219 1125.38 2233
-273.979 1129.92 2242
-268.618 1129.92 2242
-263.257 1129.92 2242
-257.895 1129.92 2242
-252.196 1128.4 2239
-246.842 1128.4 2239
-241.488 1128.4 2239
-236.134 1128.4 2239
-230.78 1128.4 2239
-225.426 1128.4 2239
-220.072 1128.4 2239
-214.717 1128.4 2239
-209.363 1128.4 2239
-204.009 1128.4 2239
-197.59 1122.36 2227
-192.265 1122.36 2227
-185.932 1116.31 2215
-179.983 1112.28 2207
-174.468 1110.77 2204
-169.197 1110.77 2204
-163.704 1109.25 2201
-158.009 1106.23 2195
-152.551 1104.72 2192
-147.309 1104.72 2192
