ply
format ascii 1.0
comment File generated
element vertex 2247
property float x
property float y
property float z
end_header
1486.18 1126.84 2497
1483.79 1120.52 2483
1489.73 1120.52 2483
1488.44 1115.1 2471
1494.34 1115.1 2471
1500.25 1115.1 2471
1504.33 1113.75 2468
1510.24 1113.75 2468
1516.14 1113.75 2468
1531.29 1120.52 2483
1537.23 1120.52 2483
1543.17 1120.52 2483
1549.1 1120.52 2483
1555.04 1120.52 2483
1553.43 1115.1 2471
1559.34 1115.1 2471
1560.82 1111.94 2464
1559.72 1106.98 2453
1561.11 1103.82 2446
1566.96 1103.82 2446
1568.31 1100.66 2439
1574.14 1100.66 2439
1582.57 1102.47 2443
1588.41 1102.47 2443
1596.21 1103.82 2446
1602.06 1103.82 2446
1607.91 1103.82 2446
1613.76 1103.82 2446
1619.6 1103.82 2446
1616.15 1097.5 2432
1614.63 1092.54 2421
1609.04 1084.87 2404
1614.79 1084.87 2404
1617.84 1083.06 2400
1623.58 1083.06 2400
1629.32 1083.06 2400
1635.06 1083.06 2400
1640.8 1083.06 2400
1646.54 1083.06 2400
1666.73 1092.54 2421
1672.52 1092.54 2421
1678.31 1092.54 2421
1684.1 1092.54 2421
1689.89 1092.54 2421
1690.78 1089.38 2414
1696.55 1089.38 2414
1690.34 1081.71 2397
1696.07 1081.71 2397
1703.93 1083.06 2400
1712.52 1084.87 2404
1718.27 1084.87 2404
1729.03 1088.03 2411
1754.95 1100.66 2439
1765.83 1103.82 2446
1771.68 1103.82 2446
1777.53 1103.82 2446
1783.38 1103.82 2446
1784.11 1100.66 2439
1806.09 1110.59 2461
1811.97 1110.59 2461
1820.07 1111.94 2464
1825.97 1111.94 2464
1831.86 1111.94 2464
1837.75 1111.94 2464
1838.4 1108.78 2457
1833.77 1102.47 2443
1839.61 1102.47 2443
1826.57 1091.18 2418
1816.44 1081.71 2397
1783.4 1058.69 2346
-1744.18 1060.23 2337
-1738.59 1060.23 2337
-1733 1060.23 2337
-1724.46 1058.41 2333
-1716.67 1057.05 2330
-1703.75 1052.52 2320
-1698.21 1052.52 2320
-1692.66 1052.52 2320
-1687.11 1052.52 2320
-1686.64 1055.69 2327
-1681.07 1055.69 2327
-1675.51 1055.69 2327
-1669.94 1055.69 2327
-1661.52 1053.88 2323
-1655.96 1053.88 2323
-1648.28 1052.52 2320
-1633.52 1046.62 2307
-1628.01 1046.62 2307
-1622.49 1046.62 2307
-1616.97 1046.62 2307
-1611.46 1046.62 2307
-1605.94 1046.62 2307
-1600.42 1046.62 2307
-1594.91 1046.62 2307
-1596.28 1051.16 2317
-1590.74 1051.16 2317
-1585.2 1051.16 2317
-1579.66 1051.16 2317
-1567.32 1046.62 2307
-1561.81 1046.62 2307
-1556.29 1046.62 2307
-1548.76 1045.26 2304
-1543.25 1045.26 2304
-1533.73 1042.54 2298
-1528.24 1042.54 2298
-1520.75 1041.18 2295
-1510.64 1038 2288
-1499.25 1033.92 2279
-1493.8 1033.92 2279
-1488.35 1033.92 2279
-1480.95 1032.56 2276
-1477.45 1033.92 2279
-1477.82 1038 2288
-1474.92 1039.81 2292
-1469.44 1039.81 2292
-1463.96 1039.81 2292
-1458.48 1039.81 2292
-1452.99 1039.81 2292
-1447.51 1039.81 2292
-1442.03 1039.81 2292
-1438.43 1041.18 2295
-1436.69 1043.9 2301
-1431.19 1043.9 2301
-1425.69 1043.9 2301
-1423.89 1046.62 2307
-1422.67 1049.8 2314
-1417.14 1049.8 2314
-1411.61 1049.8 2314
-1413.97 1055.69 2327
-1412.04 1058.41 2333
-1406.46 1058.41 2333
-1400.88 1058.41 2333
-1395.3 1058.41 2333
-1389.72 1058.41 2333
-1384.15 1058.41 2333
-1380.93 1060.23 2337
-1375.34 1060.23 2337
-1369.75 1060.23 2337
-1364.16 1060.23 2337
-1358.58 1060.23 2337
-1352.99 1060.23 2337
-1350.86 1062.95 2343
-1345.26 1062.95 2343
-1343.66 1066.13 2350
-1338.04 1066.13 2350
-1341.49 1073.39 2366
-1335.83 1073.39 2366
-1330.17 1073.39 2366
-1315.56 1066.13 2350
-1309.94 1066.13 2350
-1300.43 1062.95 2343
-1291.51 1060.23 2337
-1223.56 1064.31 2346
-1220.02 1066.13 2350
-1214.41 1066.13 2350
-1208.79 1066.13 2350
-1208.29 1070.66 2360
-1205.7 1073.39 2366
-1200.04 1073.39 2366
-1208.01 1085.64 2393
-1205.81 1088.81 2400
-1200.07 1088.81 2400
-1194.33 1088.81 2400
-1185.12 1085.64 2393
-1168.07 1075.2 2370
-1173.68 1085.64 2393
-1167.96 1085.64 2393
-1162.24 1085.64 2393
-1158.45 1087.45 2397
-1162.81 1096.98 2418
-1157.03 1096.98 2418
-1154.58 1100.15 2425
-1155.41 1106.5 2439
-1159.95 1116.48 2461
-1154.07 1116.48 2461
-1151.45 1119.66 2468
-1145.55 1119.66 2468
-1139.64 1119.66 2468
-1123.64 1109.68 2446
-1117.79 1109.68 2446
-1100.57 1098.34 2421
-1094.78 1098.34 2421
-1087.64 1096.98 2418
-1073.81 1088.81 2400
-1069.85 1090.63 2404
-1064.1 1090.63 2404
-1058.35 1090.63 2404
-1052.6 1090.63 2404
-1046.85 1090.63 2404
-1036.34 1085.64 2393
-1030.62 1085.64 2393
-1024.9 1085.64 2393
-1019.18 1085.64 2393
-1010.91 1082.91 2387
-1005.2 1082.91 2387
-992.378 1075.2 2370
-983.796 1072.03 2363
-972.764 1066.13 2350
-967.144 1066.13 2350
-961.525 1066.13 2350
-955.905 1066.13 2350
-950.286 1066.13 2350
-944.666 1066.13 2350
-939.047 1066.13 2350
-934.619 1067.49 2353
-928.992 1067.49 2353
-923.365 1067.49 2353
-917.738 1067.49 2353
-912.112 1067.49 2353
-906.485 1067.49 2353
-902.007 1068.85 2356
-896.373 1068.85 2356
-890.739 1068.85 2356
-890.365 1075.2 2370
-885.817 1076.56 2373
-880.142 1076.56 2373
-879.627 1082.91 2387
-875.017 1084.27 2390
-869.302 1084.27 2390
-863.587 1084.27 2390
-857.872 1084.27 2390
-852.156 1084.27 2390
-846.441 1084.27 2390
-840.726 1084.27 2390
-835.011 1084.27 2390
-829.296 1084.27 2390
-823.58 1084.27 2390
-814.443 1079.74 2380
-807.393 1077.92 2376
-801.711 1077.92 2376
-799.714 1082.91 2387
-794.006 1082.91 2387
-788.298 1082.91 2387
-781.279 1081.1 2383
-775.58 1081.1 2383
-769.882 1081.1 2383
-763.221 1079.74 2380
-754.347 1075.2 2370
-749.628 1076.56 2373
-743.953 1076.56 2373
-738.278 1076.56 2373
-732.604 1076.56 2373
-731.218 1082.91 2387
-725.51 1082.91 2387
-719.802 1082.91 2387
-719.18 1090.63 2404
-713.431 1090.63 2404
-708.565 1091.99 2407
-702.809 1091.99 2407
-697.054 1091.99 2407
-693.308 1095.16 2414
-687.536 1095.16 2414
-681.763 1095.16 2414
-675.99 1095.16 2414
-668.274 1091.99 2407
-662.518 1091.99 2407
-655.944 1090.63 2404
-650.195 1090.63 2404
-645.251 1091.99 2407
-642.417 1096.98 2418
-636.635 1096.98 2418
-631.636 1098.34 2421
-625.846 1098.34 2421
-620.057 1098.34 2421
-614.268 1098.34 2421
-608.478 1098.34 2421
-600.946 1095.16 2414
-595.174 1095.16 2414
-588.669 1093.8 2411
-581.936 1091.99 2407
-576.18 1091.99 2407
-570.424 1091.99 2407
-563.026 1088.81 2400
-555.662 1085.64 2393
-549.94 1085.64 2393
-545.809 1088.81 2400
-540.97 1090.63 2404
-535.221 1090.63 2404
-530.133 1091.99 2407
-525.903 1095.16 2414
-520.992 1096.98 2418
-515.21 1096.98 2418
-509.427 1096.98 2418
-502.812 1095.16 2414
-497.04 1095.16 2414
-491.267 1095.16 2414
-488.31 1101.51 2428
-482.504 1101.51 2428
-478.857 1106.5 2439
-473.025 1106.5 2439
-467.193 1106.5 2439
-461.36 1106.5 2439
-456.275 1108.32 2443
-450.433 1108.32 2443
-447.139 1114.67 2457
-443.778 1121.02 2471
-437.869 1121.02 2471
-431.96 1121.02 2471
-426.741 1122.84 2475
-420.822 1122.84 2475
-414.904 1122.84 2475
-408.985 1122.84 2475
-402.415 1121.02 2471
-396.506 1121.02 2471
-390.598 1121.02 2471
-383.599 1117.85 2464
-377.707 1117.85 2464
-371.815 1117.85 2464
-368.15 1124.65 2479
-362.222 1124.65 2479
-356.294 1124.65 2479
-350.931 1126.47 2483
-346.522 1131.46 2494
-340.558 1131.46 2494
-334.997 1132.82 2497
-329.553 1134.63 2501
-324.089 1136.45 2505
-318.099 1136.45 2505
-312.109 1136.45 2505
-305.63 1134.63 2501
-299.649 1134.63 2501
-292.847 1131.46 2494
-285.157 1124.65 2479
-279.229 1124.65 2479
-273.301 1124.65 2479
-269.315 1132.82 2497
-263.344 1132.82 2497
-257.785 1134.63 2501
-251.804 1134.63 2501
-245.824 1134.63 2501
-239.843 1134.63 2501
-233.488 1132.82 2497
-226.515 1127.83 2486
-220.57 1127.83 2486
-213.33 1121.02 2471
-206.246 1114.67 2457
-198.903 1106.5 2439
-193.625 1109.68 2446
-187.775 1109.68 2446
-182.224 1111.49 2450
-176.365 1111.49 2450
-170.506 1111.49 2450
-164.379 1109.68 2446
-153.604 1075.2 2370
-89.3374 1052.52 2320
-83.7896 1052.52 2320
-78.8151 1060.23 2337
-73.2266 1060.23 2337
-67.6382 1060.23 2337
-62.0497 1060.23 2337
-55.9055 1049.8 2314
-50.2197 1046.62 2307
-44.7029 1046.62 2307
-39.1352 1045.26 2304
-33.4506 1039.81 2292
-27.9209 1038 2288
-22.273 1029.83 2270
-16.8447 1029.83 2270
-11.4014 1028.47 2267
-5.97235 1027.11 2264
-0.553755 1018.49 2245
4.81472 1018.49 2245
10.1832 1018.49 2245
15.4893 1014.41 2236
20.7524 1010.33 2227
26.0778 1010.33 2227
31.2764 1006.24 2218
36.4978 1003.97 2213
41.6198 999.891 2204
46.8902 999.891 2204
52.1607 999.891 2204
57.4311 999.891 2204
62.7869 1001.25 2207
68.0645 1001.25 2207
73.608 1004.88 2215
78.9047 1004.88 2215
84.2014 1004.88 2215
89.1749 1001.25 2207
94.4525 1001.25 2207
99.5946 999.891 2204
104.58 997.169 2198
109.836 997.169 2198
115.092 997.169 2198
120.348 997.169 2198
125.261 994.447 2192
130.503 994.447 2192
136.302 998.53 2201
141.565 998.53 2201
147.762 1004.88 2215
153.266 1006.24 2218
158.57 1006.24 2218
163.874 1006.24 2218
221.054 1051.16 2317
228.16 1058.41 2333
234.14 1060.23 2337
239.728 1060.23 2337
248.781 1075.2 2370
255.844 1081.1 2383
263.079 1087.45 2397
268.811 1087.45 2397
276.49 1095.16 2414
282.262 1095.16 2414
288.035 1095.16 2414
293.807 1095.16 2414
299.208 1093.8 2411
304.973 1093.8 2411
311.125 1095.16 2414
316.898 1095.16 2414
322.67 1095.16 2414
328.443 1095.16 2414
334.216 1095.16 2414
339.002 1091.99 2407
343.756 1088.81 2400
349.495 1088.81 2400
355.826 1090.63 2404
361.575 1090.63 2404
367.323 1090.63 2404
374.624 1095.16 2414
380.397 1095.16 2414
386.169 1095.16 2414
390.805 1091.99 2407
396.067 1090.63 2404
402.317 1091.99 2407
408.751 1093.8 2411
414.516 1093.8 2411
420.282 1093.8 2411
425.34 1091.99 2407
431.096 1091.99 2407
433.767 1084.27 2390
439.482 1084.27 2390
445.197 1084.27 2390
454.12 1091.99 2407
459.876 1091.99 2407
466.405 1093.8 2411
474.912 1100.15 2425
481.306 1101.51 2428
487.112 1101.51 2428
492.918 1101.51 2428
498.108 1100.15 2425
503.907 1100.15 2425
510.336 1101.51 2428
516.143 1101.51 2428
521.949 1101.51 2428
527.755 1101.51 2428
533.561 1101.51 2428
539.367 1101.51 2428
543.601 1098.34 2421
551.887 1103.33 2432
563.435 1114.67 2457
569.311 1114.67 2457
575.186 1114.67 2457
584.373 1121.02 2471
592.193 1124.65 2479
598.121 1124.65 2479
604.049 1124.65 2479
609.977 1124.65 2479
615.905 1124.65 2479
621.833 1124.65 2479
626.748 1122.84 2475
632.666 1122.84 2475
638.585 1122.84 2475
643.462 1121.02 2471
646.743 1116.48 2461
651.567 1114.67 2457
654.499 1109.68 2446
660.348 1109.68 2446
664.291 1106.5 2439
672.046 1109.68 2446
677.895 1109.68 2446
683.745 1109.68 2446
689.594 1109.68 2446
694.59 1108.32 2443
701.292 1109.68 2446
707.141 1109.68 2446
712.99 1109.68 2446
715.607 1104.69 2435
717.282 1098.34 2421
723.071 1098.34 2421
726.753 1095.16 2414
732.525 1095.16 2414
738.298 1095.16 2414
744.071 1095.16 2414
749.843 1095.16 2414
755.616 1095.16 2414
767.066 1103.33 2432
775.106 1106.5 2439
786.702 1114.67 2457
792.577 1114.67 2457
798.453 1114.67 2457
804.328 1114.67 2457
810.204 1114.67 2457
814.75 1112.86 2453
817.271 1108.32 2443
819.407 1103.33 2432
826.24 1104.69 2435
832.063 1104.69 2435
841.671 1109.68 2446
853.757 1117.85 2464
866.278 1126.47 2483
872.216 1126.47 2483
879.214 1127.83 2486
885.159 1127.83 2486
891.104 1127.83 2486
897.049 1127.83 2486
904.446 1129.64 2490
914.422 1134.63 2501
921.875 1136.45 2505
927.865 1136.45 2505
935.347 1138.26 2509
941.346 1138.26 2509
947.346 1138.26 2509
951.826 1136.45 2505
956.287 1134.63 2501
965.346 1138.26 2509
972.507 1139.62 2512
981.63 1143.25 2520
987.656 1143.25 2520
993.682 1143.25 2520
999.708 1143.25 2520
1005.73 1143.25 2520
1011.76 1143.25 2520
1013.34 1138.26 2509
1019.34 1138.26 2509
1031.47 1145.07 2524
1037.51 1145.07 2524
1045.2 1146.88 2528
1052.91 1148.7 2532
1060.22 1150.06 2535
1066.28 1150.06 2535
1075.72 1153.69 2543
1081.81 1153.69 2543
1087.89 1153.69 2543
1092.25 1151.87 2539
1098.32 1151.87 2539
1102.65 1150.06 2535
1102.15 1143.25 2520
1108.18 1143.25 2520
1105.8 1134.63 2501
1108.67 1131.46 2494
1111.06 1127.83 2486
1117.01 1127.83 2486
1119.79 1124.65 2479
1122.08 1121.02 2471
1127.99 1121.02 2471
1133.9 1121.02 2471
1135.2 1116.48 2461
1139.23 1114.67 2457
1146.97 1116.48 2461
1157.54 1121.02 2471
1163.45 1121.02 2471
1169.35 1121.02 2471
1173.84 1119.66 2468
1177.83 1117.85 2464
1183.72 1117.85 2464
1189.61 1117.85 2464
1204.72 1126.47 2483
1214.07 1129.64 2490
1225.42 1134.63 2501
1231.4 1134.63 2501
1241.34 1138.26 2509
1247.34 1138.26 2509
1253.34 1138.26 2509
1259.33 1138.26 2509
1265.33 1138.26 2509
1269.31 1136.45 2505
1275.3 1136.45 2505
1279.24 1134.63 2501
1283.17 1132.82 2497
1279.85 1124.65 2479
1285.77 1124.65 2479
1287.53 1121.02 2471
1286.11 1114.67 2457
1286.2 1109.68 2446
1286.24 1104.69 2435
1292.07 1104.69 2435
1296.29 1103.33 2432
1298.36 1100.15 2425
1298.24 1095.16 2414
1304.01 1095.16 2414
1309.79 1095.16 2414
1319.37 1098.34 2421
1331.18 1103.33 2432
1337 1103.33 2432
1342.82 1103.33 2432
1356.39 1109.68 2446
1364.47 1111.49 2450
1370.33 1111.49 2450
1382.37 1116.48 2461
1388.25 1116.48 2461
1398.1 1119.66 2468
1407.99 1122.84 2475
1424.76 1131.46 2494
1430.72 1131.46 2494
1436.69 1131.46 2494
1433.97 1124.65 2479
1446.29 1129.64 2490
1452.25 1129.64 2490
1460.54 1131.46 2494
1466.51 1131.46 2494
1472.47 1131.46 2494
1478.43 1131.46 2494
1477.85 1126.47 2483
1470.64 1116.48 2461
1476.53 1116.48 2461
1477.59 1112.86 2453
1483.46 1112.86 2453
1489.33 1112.86 2453
1495.19 1112.86 2453
1501.06 1112.86 2453
1500.78 1108.32 2443
1515.26 1114.67 2457
1523.61 1116.48 2461
1531.36 1117.85 2464
1537.25 1117.85 2464
1543.14 1117.85 2464
1549.03 1117.85 2464
1554.93 1117.85 2464
1551.95 1111.49 2450
1555.26 1109.68 2446
1547.71 1100.15 2425
1553.51 1100.15 2425
1563.81 1103.33 2432
1569.63 1103.33 2432
1575.44 1103.33 2432
1588.41 1108.32 2443
1596.21 1109.68 2446
1602.06 1109.68 2446
1607.91 1109.68 2446
1611.78 1108.32 2443
1617.62 1108.32 2443
1611.5 1100.15 2425
1609.96 1095.16 2414
1606.36 1088.81 2400
1612.1 1088.81 2400
1617.84 1088.81 2400
1623.58 1088.81 2400
1629.32 1088.81 2400
1635.06 1088.81 2400
1638.75 1087.45 2397
1644.48 1087.45 2397
1655.03 1090.63 2404
1670.45 1096.98 2418
1676.23 1096.98 2418
1682.02 1096.98 2418
1687.8 1096.98 2418
1685.88 1091.99 2407
1691.63 1091.99 2407
1690.34 1087.45 2397
1696.07 1087.45 2397
1696.83 1084.27 2390
1704.68 1085.64 2393
1710.4 1085.64 2393
1724.01 1090.63 2404
1734.8 1093.8 2411
1745.62 1096.98 2418
1751.4 1096.98 2418
1757.18 1096.98 2418
1760.05 1095.16 2414
1763.63 1093.8 2411
1769.39 1093.8 2411
1775.16 1093.8 2411
1804.56 1108.32 2443
1815.59 1111.49 2450
1821.45 1111.49 2450
1827.31 1111.49 2450
1827.93 1108.32 2443
1815.01 1096.98 2418
1820.79 1096.98 2418
1810.71 1087.45 2397
1813.41 1085.64 2393
1783.4 1064.31 2346
-1744.18 1065.83 2337
-1738.59 1065.83 2337
-1733 1065.83 2337
-1727.42 1065.83 2337
-1716.67 1062.64 2330
-1703.75 1058.07 2320
-1698.21 1058.07 2320
-1692.66 1058.07 2320
-1687.11 1058.07 2320
-1681.56 1058.07 2320
-1676.01 1058.07 2320
-1670.47 1058.07 2320
-1664.92 1058.07 2320
-1659.37 1058.07 2320
-1653.82 1058.07 2320
-1644.01 1055.34 2314
-1633.52 1052.15 2307
-1628.01 1052.15 2307
-1622.49 1052.15 2307
-1616.97 1052.15 2307
-1611.46 1052.15 2307
-1601.76 1049.41 2301
-1596.26 1049.41 2301
-1590.76 1049.41 2301
-1596.28 1056.71 2317
-1590.74 1056.71 2317
-1585.2 1056.71 2317
-1579.66 1056.71 2317
-1572.08 1055.34 2314
-1564.51 1053.97 2311
-1558.99 1053.97 2311
-1548.76 1050.78 2304
-1543.25 1050.78 2304
-1533.73 1048.04 2298
-1528.24 1048.04 2298
-1520.75 1046.67 2295
-1510.64 1043.48 2288
-1499.25 1039.38 2279
-1493.8 1039.38 2279
-1488.35 1039.38 2279
-1479 1036.64 2273
-1473.56 1036.64 2273
-1477.82 1043.48 2288
-1472.34 1043.48 2288
-1466.87 1043.48 2288
-1461.4 1043.48 2288
-1455.93 1043.48 2288
-1450.46 1043.48 2288
-1441.2 1040.74 2282
-1435.74 1040.74 2282
-1434.05 1043.48 2288
-1432.94 1046.67 2295
-1427.46 1046.67 2295
-1421.97 1046.67 2295
-1420.18 1049.41 2301
-1414.68 1049.41 2301
-1409.18 1049.41 2301
-1409.78 1053.97 2311
-1406.07 1055.34 2314
-1405.99 1059.44 2323
-1400.43 1059.44 2323
-1397.28 1061.27 2327
-1391.71 1061.27 2327
-1387.94 1062.64 2330
-1382.37 1062.64 2330
-1378.57 1064 2333
-1375.34 1065.83 2337
-1369.75 1065.83 2337
-1364.16 1065.83 2337
-1358.58 1065.83 2337
-1352.99 1065.83 2337
-1350.86 1068.56 2343
-1345.26 1068.56 2343
-1339.65 1068.56 2343
-1334.05 1068.56 2343
-1335.82 1074.49 2356
-1330.18 1074.49 2356
-1324.55 1074.49 2356
-1315.56 1071.76 2350
-1309.94 1071.76 2350
-1300.43 1068.56 2343
-1298.7 1071.76 2350
-1296.38 1074.49 2356
-1298.42 1080.88 2370
-1292.75 1080.88 2370
-1287.08 1080.88 2370
-1237.22 1067.2 2340
-1231.62 1067.2 2340
-1226.02 1067.2 2340
-1223.56 1069.93 2346
-1220.02 1071.76 2350
-1214.41 1071.76 2350
-1208.79 1071.76 2350
-1206.24 1074.49 2356
-1205.7 1079.05 2366
-1200.04 1079.05 2366
-1206.5 1090 2390
-1205.81 1094.56 2400
-1200.07 1094.56 2400
-1194.33 1094.56 2400
-1182.15 1088.63 2387
-1168.07 1080.88 2370
-1167.3 1085.44 2380
-1161.61 1085.44 2380
-1162.24 1091.37 2393
-1158.45 1093.19 2397
-1162.81 1102.77 2418
-1157.03 1102.77 2418
-1154.58 1105.96 2425
-1165.84 1122.38 2461
-1166.55 1128.77 2475
-1160.63 1128.77 2475
-1154.71 1128.77 2475
-1148.79 1128.77 2475
-1142.88 1128.77 2475
-1133.74 1125.57 2468
-1122.81 1120.56 2457
-1111.94 1115.54 2446
-1106.09 1115.54 2446
-1088.99 1104.14 2421
-1072.47 1093.19 2397
-1066.73 1093.19 2397
-1061 1093.19 2397
-1055.27 1093.19 2397
-1047.79 1091.37 2393
-1039.45 1088.63 2387
-1033.74 1088.63 2387
-1028.04 1088.63 2387
-1022.33 1088.63 2387
-1016.62 1088.63 2387
-1006.25 1083.61 2376
-1000.57 1083.61 2376
-989.446 1077.69 2363
-976.718 1069.93 2346
-971.108 1069.93 2346
-967.144 1071.76 2350
-961.525 1071.76 2350
-955.905 1071.76 2350
-948.668 1069.93 2346
-943.058 1069.93 2346
-937.448 1069.93 2346
-931.838 1069.93 2346
-927.807 1071.76 2350
-922.188 1071.76 2350
-916.568 1071.76 2350
-910.949 1071.76 2350
-905.329 1071.76 2350
-899.71 1071.76 2350
-894.09 1071.76 2350
-889.605 1073.12 2353
-886.608 1076.32 2360
-884.697 1080.88 2370
-879.03 1080.88 2370
-874.468 1082.25 2373
-873.919 1088.63 2387
-868.211 1088.63 2387
-862.503 1088.63 2387
-854.282 1085.44 2380
-848.591 1085.44 2380
-842.9 1085.44 2380
-835.801 1083.61 2376
-830.12 1083.61 2376
-824.438 1083.61 2376
-818.756 1083.61 2376
-811.021 1080.88 2370
-802.975 1077.69 2363
-797.324 1077.69 2363
-792.679 1079.05 2366
-787.021 1079.05 2366
-781.363 1079.05 2366
-775.705 1079.05 2366
-770.048 1079.05 2366
-764.39 1079.05 2366
-757.77 1077.69 2363
-749.891 1074.49 2356
-745.521 1076.32 2360
-739.877 1076.32 2360
-734.234 1076.32 2360
-728.59 1076.32 2360
-723.866 1077.69 2363
-720.343 1080.88 2370
-714.676 1080.88 2370
-709.906 1082.25 2373
-704.231 1082.25 2373
-700.617 1085.44 2380
-694.926 1085.44 2380
-691.262 1088.63 2387
-686.415 1090 2390
-680.7 1090 2390
-674.985 1090 2390
-669.27 1090 2390
-662.721 1088.63 2387
-657.013 1088.63 2387
-647.485 1082.25 2373
-640.999 1080.88 2370
-636.136 1082.25 2373
-632.322 1085.44 2380
-626.63 1085.44 2380
-621.722 1086.81 2383
-616.023 1086.81 2383
-612.117 1090 2390
-606.402 1090 2390
-601.441 1091.37 2393
-595.719 1091.37 2393
-589.996 1091.37 2393
-584.274 1091.37 2393
-577.826 1090 2390
-572.111 1090 2390
-566.396 1090 2390
-559.977 1088.63 2387
-552.643 1085.44 2380
-546.033 1083.61 2376
-541.943 1086.81 2383
-537.82 1090 2390
-532.104 1090 2390
-528.592 1094.56 2400
-524.378 1097.75 2407
-518.622 1097.75 2407
-512.866 1097.75 2407
-507.11 1097.75 2407
-500.729 1096.38 2404
-496.422 1099.58 2411
-490.656 1099.58 2411
-485.494 1100.95 2414
-481.113 1104.14 2421
-475.323 1104.14 2421
-469.534 1104.14 2421
-464.511 1105.96 2425
-458.712 1105.96 2425
-453.473 1107.33 2428
-447.667 1107.33 2428
-444.591 1114.17 2443
-441.982 1122.38 2461
-437.337 1125.57 2468
-431.435 1125.57 2468
-426.051 1126.94 2471
-420.142 1126.94 2471
-414.233 1126.94 2471
-407.829 1125.57 2468
-401.275 1123.75 2464
-394.902 1122.38 2461
-389.017 1122.38 2461
-382.509 1120.56 2457
-376.634 1120.56 2457
-371.815 1123.75 2464
-365.922 1123.75 2464
-360.03 1123.75 2464
-355.144 1126.94 2471
-350.366 1130.59 2479
-344.994 1132.41 2483
-339.056 1132.41 2483
-334.594 1137.43 2494
-328.63 1137.43 2494
-323.572 1140.62 2501
-317.591 1140.62 2501
-311.611 1140.62 2501
-303.43 1132.41 2483
-297.493 1132.41 2483
-291.085 1130.59 2479
-284.697 1128.77 2475
-278.328 1126.94 2471
-273.301 1130.59 2479
-267.373 1130.59 2479
-261.445 1130.59 2479
-255.93 1132.41 2483
-250.697 1135.61 2490
-244.742 1135.61 2490
-238.788 1135.61 2490
-231.431 1128.77 2475
-223.508 1118.73 2453
-217.642 1118.73 2453
-210.222 1110.52 2435
-203.224 1104.14 2421
-196.049 1096.38 2404
-191.091 1100.95 2414
-185.319 1100.95 2414
-179.844 1102.77 2418
-174.062 1102.77 2418
-168.279 1102.77 2418
-162.228 1100.95 2414
-153.604 1080.88 2370
-78.8151 1065.83 2337
-73.2266 1065.83 2337
-67.6382 1065.83 2337
-62.0497 1065.83 2337
-55.9055 1055.34 2314
-50.2197 1052.15 2307
-44.7029 1052.15 2307
-39.1352 1050.78 2304
-33.4506 1045.3 2292
-27.9209 1043.48 2288
-22.273 1035.27 2270
-16.8447 1035.27 2270
-11.4014 1033.9 2267
-5.97235 1032.54 2264
-0.553755 1023.87 2245
4.81472 1023.87 2245
10.1832 1023.87 2245
15.4893 1019.77 2236
20.7524 1015.66 2227
26.0778 1015.66 2227
31.2764 1011.56 2218
36.4978 1009.28 2213
41.6765 1006.54 2207
46.9541 1006.54 2207
52.2317 1006.54 2207
57.5093 1006.54 2207
62.7869 1006.54 2207
68.0645 1006.54 2207
73.608 1010.19 2215
78.9047 1010.19 2215
84.2014 1010.19 2215
89.1749 1006.54 2207
94.4525 1006.54 2207
99.5946 1005.17 2204
104.58 1002.43 2198
109.686 1001.07 2195
114.935 1001.07 2195
120.184 1001.07 2195
125.261 999.698 2192
130.503 999.698 2192
136.302 1003.8 2201
141.565 1003.8 2201
147.762 1010.19 2215
153.266 1011.56 2218
158.57 1011.56 2218
163.874 1011.56 2218
221.054 1056.71 2317
228.16 1064 2333
234.14 1065.83 2337
239.728 1065.83 2337
248.781 1080.88 2370
255.844 1086.81 2383
263.079 1093.19 2397
268.811 1093.19 2397
276.49 1100.95 2414
282.262 1100.95 2414
288.035 1100.95 2414
293.807 1100.95 2414
299.208 1099.58 2411
304.973 1099.58 2411
311.125 1100.95 2414
316.898 1100.95 2414
322.67 1100.95 2414
328.443 1100.95 2414
334.216 1100.95 2414
339.002 1097.75 2407
343.756 1094.56 2400
349.495 1094.56 2400
355.826 1096.38 2404
361.575 1096.38 2404
367.323 1096.38 2404
374.624 1100.95 2414
380.397 1100.95 2414
386.169 1100.95 2414
390.805 1097.75 2407
396.067 1096.38 2404
402.317 1097.75 2407
408.751 1099.58 2411
414.516 1099.58 2411
420.282 1099.58 2411
425.34 1097.75 2407
431.096 1097.75 2407
433.767 1090 2390
439.482 1090 2390
445.197 1090 2390
454.12 1097.75 2407
459.876 1097.75 2407
466.405 1099.58 2411
474.912 1105.96 2425
481.306 1107.33 2428
487.112 1107.33 2428
492.918 1107.33 2428
498.108 1105.96 2425
503.907 1105.96 2425
510.336 1107.33 2428
516.143 1107.33 2428
521.949 1107.33 2428
527.755 1107.33 2428
533.561 1107.33 2428
539.367 1107.33 2428
543.601 1104.14 2421
551.887 1109.15 2432
563.435 1120.56 2457
569.311 1120.56 2457
575.186 1120.56 2457
584.373 1126.94 2471
592.193 1130.59 2479
598.121 1130.59 2479
604.049 1130.59 2479
609.977 1130.59 2479
615.905 1130.59 2479
621.833 1130.59 2479
626.748 1128.77 2475
632.666 1128.77 2475
638.585 1128.77 2475
643.462 1126.94 2471
646.743 1122.38 2461
651.567 1120.56 2457
654.499 1115.54 2446
660.348 1115.54 2446
664.291 1112.35 2439
672.046 1115.54 2446
677.895 1115.54 2446
683.745 1115.54 2446
689.594 1115.54 2446
694.59 1114.17 2443
701.292 1115.54 2446
707.141 1115.54 2446
712.99 1115.54 2446
715.607 1110.52 2435
717.282 1104.14 2421
723.071 1104.14 2421
726.753 1100.95 2414
732.525 1100.95 2414
738.298 1100.95 2414
744.071 1100.95 2414
746.737 1096.38 2404
752.486 1096.38 2404
761.388 1100.95 2414
772.881 1109.15 2432
782.219 1114.17 2443
788.061 1114.17 2443
794.878 1115.54 2446
800.727 1115.54 2446
806.576 1115.54 2446
811.429 1114.17 2443
813.591 1109.15 2432
817.048 1105.96 2425
822.847 1105.96 2425
828.646 1105.96 2425
837.886 1110.52 2435
853.757 1123.75 2464
861.045 1125.57 2468
866.946 1125.57 2468
875.324 1128.77 2475
881.242 1128.77 2475
887.161 1128.77 2475
890.553 1125.57 2468
900.451 1130.59 2479
910.401 1135.61 2490
917.827 1137.43 2494
923.791 1137.43 2494
932.364 1140.62 2501
938.345 1140.62 2501
944.326 1140.62 2501
947.646 1137.43 2494
949.404 1132.41 2483
955.342 1132.41 2483
966.7 1138.8 2497
972.671 1138.8 2497
978.642 1138.8 2497
984.613 1138.8 2497
990.584 1138.8 2497
996.555 1138.8 2497
1001.32 1137.43 2494
1007.29 1137.43 2494
1008.78 1132.41 2483
1017.58 1135.61 2490
1023.53 1135.61 2490
1032.38 1138.8 2497
1043.34 1144.27 2509
1050.6 1145.64 2512
1056.6 1145.64 2512
1062.61 1145.64 2512
1068.62 1145.64 2512
1074.62 1145.64 2512
1077.62 1142.45 2505
1083.61 1142.45 2505
1087.86 1140.62 2501
1092.09 1138.8 2497
1098.06 1138.8 2497
1100.94 1135.61 2490
1102 1130.59 2479
1101.23 1123.75 2464
1107.12 1123.75 2464
1109.85 1120.56 2457
1115.73 1120.56 2457
1119.78 1118.73 2453
1125.64 1118.73 2453
1131.51 1118.73 2453
1132.74 1114.17 2443
1138.58 1114.17 2443
1152.85 1122.38 2461
1158.74 1122.38 2461
1164.62 1122.38 2461
1170.51 1122.38 2461
1172.57 1118.73 2453
1182.28 1122.38 2461
1188.16 1122.38 2461
1200.84 1128.77 2475
1210.66 1132.41 2483
1220.03 1135.61 2490
1225.98 1135.61 2490
1235.4 1138.8 2497
1245.35 1142.45 2505
1251.34 1142.45 2505
1257.33 1142.45 2505
1263.32 1142.45 2505
1265.25 1138.8 2497
1271.22 1138.8 2497
1277.2 1138.8 2497
1273.92 1130.59 2479
1275.72 1126.94 2471
1281.62 1126.94 2471
1280.24 1120.56 2457
1280.36 1115.54 2446
1282.52 1112.35 2439
1286.24 1110.52 2435
1292.07 1110.52 2435
1294.16 1107.33 2428
1292.47 1100.95 2414
1296.63 1099.58 2411
1302.39 1099.58 2411
1302.19 1094.56 2400
1307.93 1094.56 2400
1315.86 1096.38 2404
1330.95 1104.14 2421
1336.74 1104.14 2421
1342.53 1104.14 2421
1340.52 1097.75 2407
1342.36 1094.56 2400
1348.1 1094.56 2400
1353.84 1094.56 2400
1359.58 1094.56 2400
1387.51 1112.35 2439
1393.34 1112.35 2439
1399.17 1112.35 2439
1405 1112.35 2439
1406.79 1109.15 2432
1423.06 1117.36 2450
1428.92 1117.36 2450
1434.78 1117.36 2450
1442.4 1118.73 2453
1448.26 1118.73 2453
1454.13 1118.73 2453
1458.21 1117.36 2450
1449.13 1105.96 2425
1454.93 1105.96 2425
1452.29 1099.58 2411
1458.06 1099.58 2411
1463.82 1099.58 2411
1469.59 1099.58 2411
1481.48 1104.14 2421
1487.26 1104.14 2421
1499.84 1109.15 2432
1507.51 1110.52 2435
1513.33 1110.52 2435
1519.16 1110.52 2435
1524.98 1110.52 2435
1530.8 1110.52 2435
1536.62 1110.52 2435
1538.01 1107.33 2428
1534.92 1100.95 2414
1540.69 1100.95 2414
1546.46 1100.95 2414
1552.24 1100.95 2414
1558.01 1100.95 2414
1566.37 1102.77 2418
1576.71 1105.96 2425
1589.03 1110.52 2435
1594.85 1110.52 2435
1600.68 1110.52 2435
1595.28 1102.77 2418
1601.06 1102.77 2418
1604.19 1100.95 2414
1600.62 1094.56 2400
1599.67 1090 2390
1605.39 1090 2390
1611.1 1090 2390
1621.55 1093.19 2397
1627.28 1093.19 2397
1633.02 1093.19 2397
1638.75 1093.19 2397
1644.48 1093.19 2397
1650.21 1093.19 2397
1660.78 1096.38 2404
1668.61 1097.75 2407
1674.36 1097.75 2407
1680.12 1097.75 2407
1680.97 1094.56 2400
1686.71 1094.56 2400
1690.34 1093.19 2397
1693.24 1091.37 2393
1691.86 1086.81 2383
1697.56 1086.81 2383
1703.26 1086.81 2383
1716.13 1091.37 2393
1726.89 1094.56 2400
1735.51 1096.38 2404
1741.26 1096.38 2404
1747.01 1096.38 2404
1742.55 1090 2390
1746.07 1088.63 2387
1753.98 1090 2390
1759.7 1090 2390
1765.41 1090 2390
1771.13 1090 2390
1776.84 1090 2390
1767.64 1080.88 2370
1768.07 1077.69 2363
1773.72 1077.69 2363
1779.37 1077.69 2363
1775.2 1071.76 2350
1777.79 1069.93 2346
1773.52 1064 2333
-1750.9 1075.55 2346
-1745.29 1075.55 2346
-1739.68 1075.55 2346
-1731.85 1074.18 2343
-1721.83 1071.43 2337
-1711.1 1068.22 2330
-1705.53 1068.22 2330
-1697.77 1066.84 2327
-1687.11 1063.63 2320
-1681.56 1063.63 2320
-1676.01 1063.63 2320
-1670.47 1063.63 2320
-1664.92 1063.63 2320
-1659.37 1063.63 2320
-1653.82 1063.63 2320
-1644.01 1060.88 2314
-1633.52 1057.67 2307
-1628.01 1057.67 2307
-1627.41 1060.88 2314
-1621.88 1060.88 2314
-1616.35 1060.88 2314
-1610.81 1060.88 2314
-1605.28 1060.88 2314
-1599.75 1060.88 2314
-1603.17 1066.84 2327
-1597.6 1066.84 2327
-1592.04 1066.84 2327
-1586.47 1066.84 2327
-1580.91 1066.84 2327
-1568.58 1062.26 2317
-1563.03 1062.26 2317
-1555.48 1060.88 2314
-1547.93 1059.51 2311
-1535.73 1054.92 2301
-1530.23 1054.92 2301
-1520.75 1052.17 2295
-1513.28 1050.8 2292
-1499.25 1044.84 2279
-1493.8 1044.84 2279
-1488.35 1044.84 2279
-1479 1042.08 2273
-1473.56 1042.08 2273
-1477.82 1048.96 2288
-1472.34 1048.96 2288
-1466.87 1048.96 2288
-1461.4 1048.96 2288
-1455.93 1048.96 2288
-1450.46 1048.96 2288
-1441.2 1046.21 2282
-1435.74 1046.21 2282
-1434.05 1048.96 2288
-1432.94 1052.17 2295
-1427.46 1052.17 2295
-1421.97 1052.17 2295
-1420.18 1054.92 2301
-1414.68 1054.92 2301
-1409.18 1054.92 2301
-1409.78 1059.51 2311
-1406.07 1060.88 2314
-1405.99 1065.01 2323
-1400.43 1065.01 2323
-1397.28 1066.84 2327
-1391.71 1066.84 2327
-1387.94 1068.22 2330
-1382.37 1068.22 2330
-1378.57 1069.59 2333
-1375.34 1071.43 2337
-1369.75 1071.43 2337
-1364.16 1071.43 2337
-1358.58 1071.43 2337
-1352.99 1071.43 2337
-1350.86 1074.18 2343
-1345.26 1074.18 2343
-1339.65 1074.18 2343
-1334.05 1074.18 2343
-1335.82 1080.14 2356
-1330.18 1080.14 2356
-1324.55 1080.14 2356
-1315.56 1077.39 2350
-1309.94 1077.39 2350
-1300.43 1074.18 2343
-1298.7 1077.39 2350
-1296.38 1080.14 2356
-1298.42 1086.56 2370
-1292.75 1086.56 2370
-1287.08 1086.56 2370
-1265.19 1072.8 2340
-1259.6 1072.8 2340
-1235.91 1066.84 2327
-1237.22 1072.8 2340
-1231.62 1072.8 2340
-1226.02 1072.8 2340
-1223.56 1075.55 2346
-1220.02 1077.39 2350
-1214.41 1077.39 2350
-1208.79 1077.39 2350
-1206.24 1080.14 2356
-1205.7 1084.72 2366
-1200.04 1084.72 2366
-1206.5 1095.72 2390
-1205.81 1100.31 2400
-1200.07 1100.31 2400
-1194.33 1100.31 2400
-1182.15 1094.35 2387
-1163.14 1081.97 2360
-1165.34 1089.31 2376
-1159.66 1089.31 2376
-1155.92 1091.14 2380
-1156.51 1097.1 2393
-1154.16 1100.31 2400
-1148.42 1100.31 2400
-1154.58 1111.77 2425
-1165.84 1128.28 2461
-1166.55 1134.69 2475
-1160.63 1134.69 2475
-1154.71 1134.69 2475
-1148.79 1134.69 2475
-1142.88 1134.69 2475
-1133.74 1131.48 2468
-1122.81 1126.44 2457
-1111.94 1121.4 2446
-1106.09 1121.4 2446
-1088.99 1109.94 2421
-1072.47 1098.93 2397
-1064.95 1097.1 2393
-1059.23 1097.1 2393
-1053.51 1097.1 2393
-1045.16 1094.35 2387
-1039.45 1094.35 2387
-1033.74 1094.35 2387
-1028.04 1094.35 2387
-1022.33 1094.35 2387
-1011.94 1089.31 2376
-1003.71 1086.56 2370
-998.045 1086.56 2370
-986.515 1080.14 2356
-975.469 1074.18 2343
-969.866 1074.18 2343
-964.263 1074.18 2343
-958.661 1074.18 2343
-953.058 1074.18 2343
-946.242 1072.8 2340
-940.646 1072.8 2340
-933.852 1071.43 2337
-930.647 1074.18 2343
-925.044 1074.18 2343
-919.441 1074.18 2343
-913.838 1074.18 2343
-908.235 1074.18 2343
-903.788 1075.55 2346
-898.178 1075.55 2346
-892.568 1075.55 2346
-886.958 1075.55 2346
-883.978 1078.76 2353
-880.964 1081.97 2360
-875.321 1081.97 2360
-870.783 1083.35 2363
-865.132 1083.35 2363
-859.482 1083.35 2363
-853.831 1083.35 2363
-848.18 1083.35 2363
-841.46 1081.97 2360
-835.816 1081.97 2360
-827.711 1078.76 2353
-822.084 1078.76 2353
-816.457 1078.76 2353
-810.83 1078.76 2353
-804.177 1077.39 2350
-796.179 1074.18 2343
-790.576 1074.18 2343
-787.318 1077.39 2350
-781.699 1077.39 2350
-776.079 1077.39 2350
-767.181 1072.8 2340
-761.586 1072.8 2340
-755.99 1072.8 2340
-749.432 1071.43 2337
-741.616 1068.22 2330
-738.255 1071.43 2337
-733.607 1072.8 2340
-728.012 1072.8 2340
-723.342 1074.18 2343
-719.884 1077.39 2350
-715.176 1078.76 2353
-709.549 1078.76 2353
-704.82 1080.14 2356
-699.186 1080.14 2356
-695.613 1083.35 2363
-689.962 1083.35 2363
-686.339 1086.56 2370
-680.671 1086.56 2370
-675.858 1087.93 2373
-670.184 1087.93 2373
-664.509 1087.93 2373
-656.891 1084.72 2366
-651.233 1084.72 2366
-642.847 1080.14 2356
-637.213 1080.14 2356
-634.26 1084.72 2366
-628.602 1084.72 2366
-622.944 1084.72 2366
-617.286 1084.72 2366
-612.663 1086.56 2370
-608.532 1089.31 2376
-602.85 1089.31 2376
-597.168 1089.31 2376
-591.487 1089.31 2376
-585.805 1089.31 2376
-580.123 1089.31 2376
-574.441 1089.31 2376
-568.76 1089.31 2376
-563.078 1089.31 2376
-556.692 1087.93 2373
-551.018 1087.93 2373
-544.654 1086.56 2370
-538.986 1086.56 2370
-533.994 1087.93 2373
-528.32 1087.93 2373
-524.848 1092.52 2383
-520.674 1095.72 2390
-514.959 1095.72 2390
-509.244 1095.72 2390
-504.16 1097.1 2393
-499.271 1098.93 2397
-494.157 1100.31 2400
-488.418 1100.31 2400
-483.483 1102.14 2404
-478.331 1103.52 2407
-472.575 1103.52 2407
-466.819 1103.52 2407
-461.829 1105.35 2411
-456.064 1105.35 2411
-450.859 1106.73 2414
-445.086 1106.73 2414
-440.587 1109.94 2421
-438.749 1120.02 2443
-435.388 1126.44 2457
-429.513 1126.44 2457
-424.327 1128.28 2461
-418.442 1128.28 2461
-412.557 1128.28 2461
-406.011 1126.44 2457
-398.995 1123.23 2450
-392.495 1121.4 2446
-386.646 1121.4 2446
-380.33 1120.02 2443
-374.488 1120.02 2443
-370.758 1126.44 2457
-365.477 1128.28 2461
-359.592 1128.28 2461
-353.707 1128.28 2461
-348.811 1131.48 2468
-343.326 1132.86 2471
-337.417 1132.86 2471
-333.118 1138.36 2483
-327.181 1138.36 2483
-321.243 1138.36 2483
-314.29 1134.69 2475
-308.371 1134.69 2475
-301.964 1132.86 2471
-293.06 1121.4 2446
-287.211 1121.4 2446
-281.016 1120.02 2443
-274.724 1118.19 2439
-270.104 1123.23 2450
-264.569 1124.61 2453
-258.703 1124.61 2453
-252.837 1124.61 2453
-246.669 1123.23 2450
-240.811 1123.23 2450
-234.952 1123.23 2450
-227.691 1116.36 2435
-219.317 1103.52 2407
-213.561 1103.52 2407
-206.942 1098.93 2397
-200.37 1094.35 2387
-194.336 1092.52 2383
-189.429 1097.1 2393
-183.707 1097.1 2393
-177.984 1097.1 2393
-172.262 1097.1 2393
-166.54 1097.1 2393
-160.817 1097.1 2393
-153.604 1086.56 2370
-146.439 1075.55 2346
-89.9921 1071.43 2337
-84.4036 1071.43 2337
-79.1186 1075.55 2346
-73.5086 1075.55 2346
-67.8986 1075.55 2346
-62.0497 1071.43 2337
-56.3646 1069.59 2333
-50.4374 1062.26 2317
-44.8967 1062.26 2317
-39.1862 1057.67 2307
-33.6695 1057.67 2307
-27.9697 1050.8 2292
-22.4201 1047.59 2285
-16.956 1047.59 2285
-11.4315 1042.08 2273
-5.98027 1039.33 2267
-0.556715 1034.75 2257
4.84046 1034.75 2257
10.1832 1029.25 2245
15.4893 1025.12 2236
20.7524 1021 2227
26.0778 1021 2227
31.2764 1016.87 2218
36.4978 1014.58 2213
41.6765 1011.83 2207
46.9541 1011.83 2207
52.2317 1011.83 2207
57.5093 1011.83 2207
62.7869 1011.83 2207
68.0645 1011.83 2207
73.608 1015.49 2215
78.9047 1015.49 2215
84.2014 1015.49 2215
89.1749 1011.83 2207
94.4525 1011.83 2207
99.5946 1010.45 2204
104.58 1007.7 2198
109.536 1004.95 2192
114.778 1004.95 2192
120.019 1004.95 2192
125.09 1003.57 2189
130.324 1003.57 2189
135.559 1003.57 2189
140.793 1003.57 2189
147.762 1015.49 2215
153.059 1015.49 2215
158.356 1015.49 2215
228.16 1069.59 2333
234.14 1071.43 2337
239.728 1071.43 2337
248.361 1084.72 2366
255.092 1089.31 2376
263.079 1098.93 2397
268.811 1098.93 2397
275.344 1102.14 2404
281.444 1103.52 2407
287.2 1103.52 2407
292.955 1103.52 2407
298.711 1103.52 2407
304.973 1105.35 2411
310.739 1105.35 2411
316.504 1105.35 2411
322.269 1105.35 2411
327.083 1102.14 2404
332.831 1102.14 2404
338.017 1100.31 2400
343.756 1100.31 2400
349.495 1100.31 2400
354.79 1098.93 2397
360.522 1098.93 2397
366.254 1098.93 2397
370.899 1095.72 2390
376.615 1095.72 2390
382.33 1095.72 2390
387.558 1094.35 2387
392.607 1092.52 2383
397.804 1091.14 2380
403.495 1091.14 2380
408.499 1089.31 2376
413.135 1086.56 2370
418.802 1086.56 2370
424.47 1086.56 2370
428.866 1083.35 2363
434.517 1083.35 2363
442.589 1089.31 2376
448.271 1089.31 2376
457.201 1097.1 2393
462.923 1097.1 2393
470.8 1102.14 2404
476.549 1102.14 2404
482.297 1102.14 2404
488.046 1102.14 2404
492.973 1100.31 2400
498.712 1100.31 2400
505.923 1103.52 2407
511.678 1103.52 2407
517.434 1103.52 2407
522.538 1102.14 2404
528.287 1102.14 2404
534.035 1102.14 2404
542.029 1106.73 2414
550.298 1111.77 2425
557.702 1114.98 2432
563.518 1114.98 2432
575.186 1126.44 2457
581.062 1126.44 2457
589.565 1131.48 2468
595.467 1131.48 2468
603.074 1134.69 2475
608.992 1134.69 2475
614.911 1134.69 2475
619.074 1131.48 2468
624.975 1131.48 2468
630.877 1131.48 2468
636.779 1131.48 2468
642.68 1131.48 2468
646.743 1128.28 2461
648.65 1121.4 2446
648.88 1111.77 2425
656.568 1114.98 2432
662.384 1114.98 2432
670.123 1118.19 2439
675.955 1118.19 2439
681.788 1118.19 2439
687.62 1118.19 2439
690.325 1113.15 2428
695.271 1111.77 2425
701.07 1111.77 2425
706.869 1111.77 2425
709.435 1106.73 2414
711.06 1100.31 2400
716.799 1100.31 2400
720.431 1097.1 2393
726.153 1097.1 2393
731.875 1097.1 2393
739.755 1100.31 2400
746.737 1102.14 2404
752.486 1102.14 2404
761.388 1106.73 2414
772.881 1114.98 2432
782.219 1120.02 2443
788.061 1120.02 2443
794.878 1121.4 2446
800.727 1121.4 2446
806.576 1121.4 2446
811.429 1120.02 2443
813.591 1114.98 2432
817.048 1111.77 2425
822.847 1111.77 2425
828.646 1111.77 2425
837.886 1116.36 2435
853.757 1129.65 2464
861.045 1131.48 2468
866.946 1131.48 2468
875.324 1134.69 2475
881.242 1134.69 2475
887.161 1134.69 2475
890.553 1131.48 2468
900.451 1136.53 2479
910.401 1141.57 2490
917.827 1143.4 2494
923.791 1143.4 2494
932.364 1146.61 2501
938.345 1146.61 2501
944.326 1146.61 2501
947.646 1143.4 2494
949.404 1138.36 2483
955.342 1138.36 2483
966.7 1144.78 2497
972.671 1144.78 2497
978.642 1144.78 2497
984.613 1144.78 2497
990.584 1144.78 2497
996.555 1144.78 2497
1001.32 1143.4 2494
1007.29 1143.4 2494
1008.78 1138.36 2483
1017.58 1141.57 2490
1023.53 1141.57 2490
1032.38 1144.78 2497
1043.34 1150.28 2509
1050.6 1151.66 2512
1056.6 1151.66 2512
1062.61 1151.66 2512
1068.62 1151.66 2512
1074.62 1151.66 2512
1077.62 1148.45 2505
1083.61 1148.45 2505
1087.86 1146.61 2501
1092.09 1144.78 2497
1098.06 1144.78 2497
1100.94 1141.57 2490
1102 1136.53 2479
1101.23 1129.65 2464
1107.12 1129.65 2464
1109.85 1126.44 2457
1115.73 1126.44 2457
1119.78 1124.61 2453
1125.64 1124.61 2453
1131.51 1124.61 2453
1132.74 1120.02 2443
1138.58 1120.02 2443
1152.85 1128.28 2461
1158.74 1128.28 2461
1164.62 1128.28 2461
1170.51 1128.28 2461
1172.57 1124.61 2453
1182.28 1128.28 2461
1188.16 1128.28 2461
1200.84 1134.69 2475
1210.66 1138.36 2483
1220.03 1141.57 2490
1225.98 1141.57 2490
1235.4 1144.78 2497
1245.35 1148.45 2505
1251.34 1148.45 2505
1257.33 1148.45 2505
1263.32 1148.45 2505
1265.25 1144.78 2497
1271.22 1144.78 2497
1277.2 1144.78 2497
1273.92 1136.53 2479
1275.72 1132.86 2471
1281.62 1132.86 2471
1280.24 1126.44 2457
1280.36 1121.4 2446
1282.52 1118.19 2439
1286.24 1116.36 2435
1292.07 1116.36 2435
1294.16 1113.15 2428
1292.47 1106.73 2414
1296.63 1105.35 2411
1302.39 1105.35 2411
1302.19 1100.31 2400
1307.93 1100.31 2400
1315.86 1102.14 2404
1330.95 1109.94 2421
1336.74 1109.94 2421
1342.53 1109.94 2421
1340.52 1103.52 2407
1342.36 1100.31 2400
1348.1 1100.31 2400
1338.61 1087.93 2373
1344.29 1087.93 2373
1355.65 1092.52 2383
1363.63 1094.35 2387
1369.34 1094.35 2387
1376.78 1095.72 2390
1390.59 1102.14 2404
1406.21 1109.94 2421
1412 1109.94 2421
1417.79 1109.94 2421
1425.93 1111.77 2425
1431.73 1111.77 2425
1437.53 1111.77 2425
1439.16 1108.56 2418
1440.76 1105.35 2411
1433.93 1095.72 2390
1441.45 1097.1 2393
1447.17 1097.1 2393
1459.57 1102.14 2404
1465.32 1102.14 2404
1481.48 1109.94 2421
1487.26 1109.94 2421
1501.69 1116.36 2435
1516.8 1123.23 2450
1522.66 1123.23 2450
1528.51 1123.23 2450
1531.87 1121.4 2446
1530.8 1116.36 2435
1536.62 1116.36 2435
1529.15 1106.73 2414
1534.92 1106.73 2414
1536.22 1103.52 2407
1541.98 1103.52 2407
1545.81 1102.14 2404
1548.97 1100.31 2400
1554.71 1100.31 2400
1563.05 1102.14 2404
1568.8 1102.14 2404
1574.55 1102.14 2404
1580.3 1102.14 2404
1586.05 1102.14 2404
1591.79 1102.14 2404
1588.24 1095.72 2390
1591.95 1094.35 2387
1588.29 1087.93 2373
1598.67 1091.14 2380
1604.36 1091.14 2380
1610.05 1091.14 2380
1615.74 1091.14 2380
1621.43 1091.14 2380
1627.13 1091.14 2380
1632.82 1091.14 2380
1640.57 1092.52 2383
1653.18 1097.1 2393
1658.9 1097.1 2393
1664.62 1097.1 2393
1670.35 1097.1 2393
1671.87 1094.35 2387
1677.58 1094.35 2387
1678.35 1091.14 2380
1684.04 1091.14 2380
1686.89 1089.31 2376
1692.57 1089.31 2376
1701.11 1091.14 2380
1706.8 1091.14 2380
1717.53 1094.35 2387
1723.24 1094.35 2387
1728.95 1094.35 2387
1734.66 1094.35 2387
1740.36 1094.35 2387
1735.83 1087.93 2373
1746.64 1091.14 2380
1752.33 1091.14 2380
1758.03 1091.14 2380
1758.53 1087.93 2373
1764.2 1087.93 2373
1764.66 1084.72 2366
1768.07 1083.35 2363
1768.47 1080.14 2356
1774.1 1080.14 2356
1772.18 1075.55 2346
1777.79 1075.55 2346
1773.52 1069.59 2333
-1750.9 1081.17 2346
-1745.29 1081.17 2346
-1739.68 1081.17 2346
-1731.85 1079.79 2343
-1721.83 1077.02 2337
-1711.1 1073.8 2330
-1705.53 1073.8 2330
-1697.77 1072.42 2327
-1687.11 1069.19 2320
-1681.56 1069.19 2320
-1676.01 1069.19 2320
-1670.47 1069.19 2320
-1664.92 1069.19 2320
-1657.23 1067.81 2317
-1651.68 1067.81 2317
-1644.01 1066.42 2314
-1631.4 1061.82 2304
-1625.89 1061.82 2304
-1627.41 1066.42 2314
-1621.88 1066.42 2314
-1616.35 1066.42 2314
-1610.81 1066.42 2314
-1605.28 1066.42 2314
-1599.75 1066.42 2314
-1603.17 1072.42 2327
-1597.6 1072.42 2327
-1592.04 1072.42 2327
-1586.47 1072.42 2327
-1580.91 1072.42 2327
-1568.58 1067.81 2317
-1563.03 1067.81 2317
-1555.48 1066.42 2314
-1547.93 1065.04 2311
-1535.73 1060.43 2301
-1530.23 1060.43 2301
-1520.75 1057.67 2295
-1513.28 1056.29 2292
-1499.25 1050.29 2279
-1491.84 1048.91 2276
-1486.39 1048.91 2276
-1479 1047.53 2273
-1473.56 1047.53 2273
-1462.31 1043.38 2264
-1458.83 1044.76 2267
-1453.41 1044.76 2267
-1447.99 1044.76 2267
-1440.66 1043.38 2264
-1435.24 1043.38 2264
-1429.83 1043.38 2264
-1428.19 1046.15 2270
-1424.64 1047.53 2273
-1422.95 1050.29 2279
-1417.5 1050.29 2279
-1412.06 1050.29 2279
-1414.63 1056.29 2292
-1412.84 1059.05 2298
-1407.34 1059.05 2298
-1403.68 1060.43 2301
-1404.25 1065.04 2311
-1402.36 1067.81 2317
-1396.82 1067.81 2317
-1393.08 1069.19 2320
-1387.53 1069.19 2320
-1383.77 1070.57 2323
-1378.21 1070.57 2323
-1375.02 1072.42 2327
-1369.46 1072.42 2327
-1363.89 1072.42 2327
-1358.33 1072.42 2327
-1352.76 1072.42 2327
-1347.2 1072.42 2327
-1343.36 1073.8 2330
-1337.79 1073.8 2330
-1333.93 1075.18 2333
-1334.05 1079.79 2343
-1328.45 1079.79 2343
-1322.84 1079.79 2343
-1317.24 1079.79 2343
-1311.64 1079.79 2343
-1306.04 1079.79 2343
-1297.1 1077.02 2337
-1298.7 1083.02 2350
-1296.38 1085.78 2356
-1298.42 1092.23 2370
-1292.75 1092.23 2370
-1287.08 1092.23 2370
-1265.19 1078.41 2340
-1259.6 1078.41 2340
-1235.91 1072.42 2327
-1237.22 1078.41 2340
-1231.62 1078.41 2340
-1226.02 1078.41 2340
-1221.99 1079.79 2343
-1216.39 1079.79 2343
-1210.79 1079.79 2343
-1202.1 1077.02 2337
-1203.17 1083.02 2350
-1200.6 1085.78 2356
-1194.97 1085.78 2356
-1197.92 1093.62 2373
-1199.28 1100.07 2387
-1193.57 1100.07 2387
-1187.86 1100.07 2387
-1173.73 1092.23 2370
-1163.14 1087.62 2360
-1165.34 1095 2376
-1159.66 1095 2376
-1155.92 1096.84 2380
-1156.51 1102.83 2393
-1154.16 1106.06 2400
-1148.42 1106.06 2400
-1154.58 1117.58 2425
-1165.84 1134.17 2461
-1166.55 1140.62 2475
-1160.63 1140.62 2475
-1154.71 1140.62 2475
-1148.79 1140.62 2475
-1142.88 1140.62 2475
-1133.74 1137.4 2468
-1122.81 1132.33 2457
-1111.94 1127.26 2446
-1106.09 1127.26 2446
-1088.99 1115.74 2421
-1072.47 1104.68 2397
-1064.95 1102.83 2393
-1059.23 1102.83 2393
-1053.51 1102.83 2393
-1045.16 1100.07 2387
-1039.45 1100.07 2387
-1033.74 1100.07 2387
-1028.04 1100.07 2387
-1022.33 1100.07 2387
-1011.94 1095 2376
-1003.71 1092.23 2370
-998.045 1092.23 2370
-986.515 1085.78 2356
-975.469 1079.79 2343
-969.866 1079.79 2343
-964.263 1079.79 2343
-958.661 1079.79 2343
-953.058 1079.79 2343
-946.242 1078.41 2340
-940.646 1078.41 2340
-933.852 1077.02 2337
-930.647 1079.79 2343
-925.044 1079.79 2343
-919.441 1079.79 2343
-913.838 1079.79 2343
-908.235 1079.79 2343
-903.788 1081.17 2346
-898.178 1081.17 2346
-892.568 1081.17 2346
-886.958 1081.17 2346
-883.978 1084.4 2353
-880.964 1087.62 2360
-875.321 1087.62 2360
-870.783 1089.01 2363
-865.132 1089.01 2363
-859.482 1089.01 2363
-853.831 1089.01 2363
-848.18 1089.01 2363
-841.46 1087.62 2360
-835.816 1087.62 2360
-827.711 1084.4 2353
-822.084 1084.4 2353
-816.457 1084.4 2353
-810.83 1084.4 2353
-804.177 1083.02 2350
-796.179 1079.79 2343
-790.576 1079.79 2343
-787.318 1083.02 2350
-781.699 1083.02 2350
-776.079 1083.02 2350
-767.181 1078.41 2340
-761.586 1078.41 2340
-755.99 1078.41 2340
-749.432 1077.02 2337
-741.616 1073.8 2330
-738.255 1077.02 2337
-733.607 1078.41 2340
-728.012 1078.41 2340
-723.342 1079.79 2343
-719.884 1083.02 2350
-715.176 1084.4 2353
-709.549 1084.4 2353
-704.82 1085.78 2356
-699.186 1085.78 2356
-695.613 1089.01 2363
-689.962 1089.01 2363
-686.339 1092.23 2370
-680.671 1092.23 2370
-675.858 1093.62 2373
-670.184 1093.62 2373
-664.509 1093.62 2373
-656.891 1090.39 2366
-651.233 1090.39 2366
-642.847 1085.78 2356
-637.213 1085.78 2356
-634.26 1090.39 2366
-628.602 1090.39 2366
-622.944 1090.39 2366
-617.286 1090.39 2366
-612.663 1092.23 2370
-608.532 1095 2376
-602.85 1095 2376
-597.168 1095 2376
-591.487 1095 2376
-585.805 1095 2376
-580.123 1095 2376
-574.441 1095 2376
-568.76 1095 2376
-563.078 1095 2376
-555.989 1092.23 2370
-550.321 1092.23 2370
-542.356 1087.62 2360
-536.712 1087.62 2360
-533.319 1092.23 2370
-527.652 1092.23 2370
-522.645 1093.62 2373
-518.495 1096.84 2380
-513.451 1098.22 2383
-507.752 1098.22 2383
-502.896 1100.07 2387
-497.813 1101.45 2390
-492.716 1102.83 2393
-486.993 1102.83 2393
-482.075 1104.68 2397
-477.734 1107.9 2404
-471.986 1107.9 2404
-466.237 1107.9 2404
-460.488 1107.9 2404
-454.74 1107.9 2404
-448.991 1107.9 2404
-442.505 1106.06 2400
-436.766 1106.06 2400
-434.798 1115.74 2421
-432.907 1125.88 2443
-427.065 1125.88 2443
-421.223 1125.88 2443
-415.381 1125.88 2443
-409.539 1125.88 2443
-403.697 1125.88 2443
-395.413 1118.96 2428
-388.483 1115.74 2421
-382.694 1115.74 2421
-376.905 1115.74 2421
-372.188 1118.96 2428
-366.382 1118.96 2428
-361.17 1120.81 2432
-355.354 1120.81 2432
-349.539 1120.81 2432
-343.723 1120.81 2432
-337.908 1120.81 2432
-332.092 1120.81 2432
-326.276 1120.81 2432
-320.461 1120.81 2432
-313.739 1117.58 2425
-307.94 1117.58 2425
-301.643 1115.74 2421
-295.487 1114.35 2418
-288.866 1111.13 2411
-283.101 1111.13 2411
-276.07 1106.06 2400
-269.993 1104.68 2397
-264.261 1104.68 2397
-258.853 1106.06 2400
-253.114 1106.06 2400
-247.374 1106.06 2400
-241.635 1106.06 2400
-235.896 1106.06 2400
-229.869 1104.68 2397
-221.613 1092.23 2370
-215.034 1087.62 2360
-209.391 1087.62 2360
-203.402 1085.78 2356
-197.516 1084.4 2353
-191.889 1084.4 2353
-187.054 1089.01 2363
-181.941 1092.23 2370
-176.274 1092.23 2370
-170.606 1092.23 2370
-163.756 1084.4 2353
-158.129 1084.4 2353
-152.502 1084.4 2353
-146.688 1083.02 2350
-97.0529 1093.62 2373
-91.3783 1093.62 2373
-85.7038 1093.62 2373
-79.6919 1089.01 2363
-74.0413 1089.01 2363
-68.3907 1089.01 2363
-62.6604 1087.62 2360
-56.7753 1083.02 2350
-50.938 1078.41 2340
-45.3424 1078.41 2340
-39.6278 1075.18 2333
-34.0051 1073.8 2330
-28.2748 1067.81 2317
-22.6066 1061.82 2304
-17.097 1061.82 2304
-11.507 1054.44 2288
-6.02775 1053.06 2285
-0.559922 1046.15 2270
4.86834 1046.15 2270
10.2376 1040.16 2257
15.5517 1034.63 2245
20.8083 1029.1 2233
26.1481 1029.1 2233
31.3187 1023.57 2221
36.4978 1019.88 2213
41.6765 1017.11 2207
46.9541 1017.11 2207
52.2317 1017.11 2207
57.5093 1017.11 2207
62.7869 1017.11 2207
68.0645 1017.11 2207
73.4418 1018.5 2210
78.7266 1018.5 2210
84.0114 1018.5 2210
89.1749 1017.11 2207
94.4525 1017.11 2207
99.5946 1015.73 2204
104.58 1012.97 2198
109.536 1010.2 2192
114.778 1010.2 2192
120.019 1010.2 2192
124.804 1006.51 2184
130.026 1006.51 2184
135.559 1008.82 2189
140.793 1008.82 2189
146.028 1008.82 2189
234.14 1077.02 2337
239.728 1077.02 2337
248.046 1089.01 2363
254.448 1092.23 2370
260.774 1095 2376
266.456 1095 2376
274.543 1104.68 2397
280.625 1106.06 2400
286.364 1106.06 2400
292.104 1106.06 2400
296.229 1100.07 2387
301.431 1098.22 2383
307.645 1100.07 2387
313.353 1100.07 2387
319.061 1100.07 2387
324.77 1100.07 2387
329.508 1096.84 2380
335.2 1096.84 2380
340.318 1095 2376
345.563 1093.62 2373
351.238 1093.62 2373
356.912 1093.62 2373
362.587 1093.62 2373
367.175 1090.39 2366
372.833 1090.39 2366
378.491 1090.39 2366
383.661 1089.01 2363
389.312 1089.01 2363
394.963 1089.01 2363
