ply
format ascii 1.0
comment File generated
element vertex 2262
property float x
property float y
property float z
end_header
-227.88 11.8047 2067
-222.937 11.8047 2067
-218.521 11.8333 2072
-213.876 11.8504 2075
-208.914 11.8504 2075
-204.247 11.8676 2078
-202.73 12.0732 2114
-197.675 12.0732 2114
-193.622 12.136 2125
-189.073 12.1702 2131
-185.617 12.2787 2150
-180.476 12.2787 2150
-175.987 12.3244 2158
-171.064 12.3416 2161
-166.511 12.3873 2169
-161.324 12.3873 2169
-156.137 12.3873 2169
-150.95 12.3873 2169
-145.764 12.3873 2169
-140.577 12.3873 2169
-135.265 12.3758 2167
-130.083 12.3758 2167
-124.901 12.3758 2167
-119.719 12.3758 2167
-114.22 12.3416 2161
-108.75 12.3073 2155
-103.597 12.3073 2155
-98.4435 12.3073 2155
-93.0738 12.2787 2150
-87.8098 12.2616 2147
-82.3676 12.2159 2139
-77.2526 12.2159 2139
-72.0364 12.1988 2136
-66.8346 12.1817 2133
-61.676 12.1702 2131
-56.5802 12.1702 2131
-51.4843 12.1702 2131
-46.3231 12.1531 2128
-41.2344 12.1531 2128
-36.1457 12.1531 2128
-31.0571 12.1531 2128
-25.9684 12.1531 2128
-20.8797 12.1531 2128
-15.791 12.1531 2128
-10.7174 12.1702 2131
-5.6215 12.1702 2131
-0.526129 12.1817 2133
4.57452 12.1817 2133
9.67517 12.1817 2133
14.7758 12.1817 2133
19.8765 12.1817 2133
24.9771 12.1817 2133
30.1201 12.1988 2136
35.2279 12.1988 2136
40.3357 12.1988 2136
45.5074 12.2159 2139
50.7407 12.2445 2144
55.8676 12.2445 2144
60.9946 12.2445 2144
66.1216 12.2445 2144
71.2485 12.2445 2144
76.3755 12.2445 2144
81.7305 12.2787 2150
86.8718 12.2787 2150
92.0131 12.2787 2150
97.1544 12.2787 2150
102.438 12.2959 2153
107.587 12.2959 2153
112.84 12.3073 2155
117.993 12.3073 2155
123.318 12.3244 2158
128.479 12.3244 2158
134.01 12.3587 2164
139.185 12.3587 2164
144.36 12.3587 2164
149.88 12.3873 2169
155.282 12.4044 2172
160.697 12.4215 2175
165.898 12.4215 2175
171.335 12.4387 2178
176.544 12.4387 2178
182.002 12.4558 2181
187.218 12.4558 2181
192.874 12.4843 2186
198.373 12.5015 2189
203.608 12.5015 2189
208.843 12.5015 2189
214.664 12.5357 2195
219.913 12.5357 2195
225.469 12.5529 2198
230.726 12.5529 2198
236.948 12.6043 2207
242.555 12.6214 2210
247.84 12.6214 2210
253.124 12.6214 2210
258.994 12.65 2215
266.08 12.7356 2230
271.778 12.7528 2233
277.118 12.7528 2233
283.596 12.8042 2242
291.793 12.9298 2264
298.388 12.9812 2273
303.824 12.9812 2273
309.667 12.9983 2276
315.94 13.0326 2282
322.242 13.0669 2288
327.714 13.0669 2288
333.185 13.0669 2288
338.212 13.0497 2285
344.128 13.0669 2288
349.599 13.0669 2288
355.07 13.0669 2288
360.542 13.0669 2288
366.013 13.0669 2288
371.484 13.0669 2288
376.461 13.0497 2285
380.922 13.0155 2279
384.846 12.9641 2270
390.275 12.9641 2270
522.708 16.8933 2958
529.781 16.8933 2958
536.854 16.8933 2958
541.905 16.8305 2947
548.952 16.8305 2947
556 16.8305 2947
559.226 16.7162 2927
565.258 16.6877 2922
572.245 16.6877 2922
577.052 16.6249 2911
583.01 16.5963 2906
587.929 16.5392 2896
594.854 16.5392 2896
600.74 16.5106 2891
607.654 16.5106 2891
614.567 16.5106 2891
621.48 16.5106 2891
628.393 16.5106 2891
635.307 16.5106 2891
642.22 16.5106 2891
649.133 16.5106 2891
656.046 16.5106 2891
662.96 16.5106 2891
669.873 16.5106 2891
676.786 16.5106 2891
683.699 16.5106 2891
690.613 16.5106 2891
697.526 16.5106 2891
704.439 16.5106 2891
711.352 16.5106 2891
718.266 16.5106 2891
727.687 16.5677 2901
734.625 16.5677 2901
741.562 16.5677 2901
748.499 16.5677 2901
755.436 16.5677 2901
762.373 16.5677 2901
769.31 16.5677 2901
776.247 16.5677 2901
783.185 16.5677 2901
790.122 16.5677 2901
797.059 16.5677 2901
803.996 16.5677 2901
810.933 16.5677 2901
817.871 16.5677 2901
824.808 16.5677 2901
833.178 16.5963 2906
840.128 16.5963 2906
847.077 16.5963 2906
854.026 16.5963 2906
860.975 16.5963 2906
867.924 16.5963 2906
874.873 16.5963 2906
878.788 16.5392 2896
885.713 16.5392 2896
892.638 16.5392 2896
901.117 16.5677 2901
914.627 16.6877 2922
923.191 16.7162 2927
930.191 16.7162 2927
941.993 16.8019 2942
957.415 16.9504 2968
973.287 17.1046 2995
980.449 17.1046 2995
998.493 17.293 3028
1011.05 17.3844 3044
1027.69 17.5443 3072
1035.04 17.5443 3072
1057.99 17.807 3118
1088 18.184 3184
1101.81 18.2868 3202
1109.47 18.2868 3202
1134.57 18.5723 3252
1155.69 18.7893 3290
1184.78 19.132 3350
1192.79 19.132 3350
1212.99 19.3262 3384
1231.19 19.4861 3412
1239.35 19.4861 3412
1247.5 19.4861 3412
1255.66 19.4861 3412
1258.64 19.4061 3398
1287.64 19.726 3454
1295.9 19.726 3454
1306.8 19.7659 3461
1315.08 19.7659 3461
1323.35 19.7659 3461
1331.63 19.7659 3461
1339.91 19.7659 3461
1337.28 19.606 3433
1331.77 19.4061 3398
1339.89 19.4061 3398
1331.75 19.172 3357
1334.19 19.092 3343
1336.97 19.0178 3330
1344.93 19.0178 3330
1347.61 18.9435 3317
1349.82 18.8636 3303
1357.72 18.8636 3303
1365.62 18.8636 3303
1368.11 18.7893 3290
1373.47 18.7551 3284
1381.32 18.7551 3284
1386.64 18.7208 3278
1394.48 18.7208 3278
1399.32 18.6808 3271
1401.55 18.6066 3258
1409.34 18.6066 3258
1417.13 18.6066 3258
1424.92 18.6066 3258
1432.72 18.6066 3258
1454.66 18.7893 3290
1477.19 18.9778 3323
1485.14 18.9778 3323
1511.06 19.2062 3363
1528.59 19.3262 3384
1543.03 19.4061 3398
1551.16 19.4061 3398
1559.29 19.4061 3398
1567.41 19.4061 3398
1575.54 19.4061 3398
1583.66 19.4061 3398
1588.51 19.3662 3391
1590.03 19.2862 3377
1598.1 19.2862 3377
1606.18 19.2862 3377
1614.25 19.2862 3377
1615.6 19.2062 3363
1620.75 19.172 3357
1628.78 19.172 3357
1636.8 19.172 3357
1661.49 19.3662 3391
1669.6 19.3662 3391
1677.71 19.3662 3391
1685.82 19.3662 3391
1676.94 19.172 3357
1681.46 19.132 3350
1689.47 19.132 3350
1690.89 19.0578 3337
1701.92 19.092 3343
1723.73 19.2462 3370
1735.38 19.2862 3377
1743.46 19.2862 3377
1751.54 19.2862 3377
1759.61 19.2862 3377
1767.69 19.2862 3377
1779.44 19.3262 3384
1787.53 19.3262 3384
1799.34 19.3662 3391
1807.45 19.3662 3391
1815.56 19.3662 3391
1819.9 19.3262 3384
1824.21 19.2862 3377
1817.64 19.132 3350
1825.65 19.132 3350
1804.65 18.8293 3297
1791.1 18.6066 3258
1788.4 18.4981 3239
1796.14 18.4981 3239
1793.86 18.3953 3221
1780.87 18.184 3184
1771.63 18.0126 3154
1765.64 17.8756 3130
1773.12 17.8756 3130
1747.61 17.5443 3072
1701.83 17.0132 2979
1676.25 16.6877 2922
1668.26 16.5392 2896
1675.19 16.5392 2896
1667.59 16.3964 2871
1660.46 16.2593 2847
1658.48 16.1737 2832
1665.26 16.1737 2832
1666.71 16.1223 2823
1670.5 16.0937 2818
1668.91 16.0138 2804
1675.61 16.0138 2804
1679.32 15.9852 2799
1686.01 15.9852 2799
1692.7 15.9852 2799
1699.4 15.9852 2799
1706.09 15.9852 2799
1709.72 15.9567 2794
1713.95 15.9338 2790
1717.54 15.9053 2785
1724.2 15.9053 2785
1719.67 15.8025 2767
1726.29 15.8025 2767
1729.77 15.7739 2762
1736.38 15.7739 2762
1737.3 15.7225 2753
1740.72 15.694 2748
1747.29 15.694 2748
1753.86 15.694 2748
1757.87 15.6711 2744
1761.21 15.6426 2739
1765.18 15.6197 2735
1771.72 15.6197 2735
1778.26 15.6197 2735
1778.93 15.5683 2726
1779.55 15.5169 2717
1783.42 15.4941 2713
1789.91 15.4941 2713
1787.13 15.4141 2699
1790.92 15.3913 2695
1797.37 15.3913 2695
1803.81 15.3913 2695
1810.26 15.3913 2695
1814.01 15.3684 2691
1823.15 15.3913 2695
1829.59 15.3913 2695
1836.04 15.3913 2695
1839.75 15.3684 2691
1846.18 15.3684 2691
1846.42 15.317 2682
1852.83 15.317 2682
1856.47 15.2942 2678
1862.88 15.2942 2678
1863 15.2428 2669
1869.38 15.2428 2669
1875.76 15.2428 2669
1879.33 15.2199 2665
1885.7 15.2199 2665
1892.07 15.2199 2665
1895.59 15.1971 2661
1901.96 15.1971 2661
1908.32 15.1971 2661
1908.21 15.1457 2652
1914.55 15.1457 2652
1917.99 15.1228 2648
1924.33 15.1228 2648
1927.74 15.1 2644
1934.07 15.1 2644
1940.39 15.1 2644
1946.71 15.1 2644
1953.03 15.1 2644
1959.36 15.1 2644
1965.68 15.1 2644
1972 15.1 2644
1978.32 15.1 2644
1984.65 15.1 2644
1990.97 15.1 2644
1997.29 15.1 2644
2006.64 15.1228 2648
2019.06 15.1685 2656
2042.19 15.2942 2678
2048.59 15.2942 2678
-2071.72 22.4308 2767
-2065.1 22.4308 2767
-2061.46 22.4633 2771
-2054.84 22.4633 2771
-2048.21 22.4633 2771
-2041.58 22.4633 2771
-2034.96 22.4633 2771
-2025.4 22.4308 2767
-2015.14 22.3903 2762
-2008.53 22.3903 2762
-2001.93 22.3903 2762
-1991.71 22.3498 2757
-1975.76 22.2444 2744
-1969.2 22.2444 2744
-1962.64 22.2444 2744
-1956.07 22.2444 2744
-1945.96 22.2039 2739
-1936.58 22.1714 2735
-1930.04 22.1714 2735
-2448.7 28.7134 3542
-2440.23 28.7134 3542
-2479.13 29.2728 3611
-2470.5 29.2728 3611
-2461.86 29.2728 3611
-2453.23 29.2728 3611
-2455.43 29.4025 3627
-2467.67 29.6538 3658
-2486.48 29.9861 3699
-2477.63 29.9861 3699
-2480.13 30.124 3716
-2471.25 30.124 3716
-2462.36 30.124 3716
-2453.48 30.124 3716
-2444.59 30.124 3716
-2414.07 29.8564 3683
-2405.27 29.8564 3683
-2391.25 29.7916 3675
-2382.47 29.7916 3675
-2373.68 29.7916 3675
-2385.48 30.051 3707
-2376.62 30.051 3707
-2367.75 30.051 3707
-2358.89 30.051 3707
-2350.02 30.051 3707
-2331.05 29.9213 3691
-2327.26 29.9861 3699
-2334.08 30.1888 3724
-2325.18 30.1888 3724
-2316.27 30.1888 3724
-2302.41 30.124 3716
-2278.1 29.9213 3691
-2254.51 29.7267 3667
-2255.54 29.8564 3683
-2246.74 29.8564 3683
-2247.65 29.9861 3699
-2249.1 30.124 3716
-2245.03 30.1888 3724
-2236.13 30.1888 3724
-2246.96 30.4563 3757
-2274.31 30.9508 3818
-2265.18 30.9508 3818
-2256.05 30.9508 3818
-2246.92 30.9508 3818
-2232.52 30.8779 3809
-2223.41 30.8779 3809
-2214.3 30.8779 3809
-2220.24 31.0886 3835
-2211.07 31.0886 3835
-2201.9 31.0886 3835
-2187.58 31.0157 3826
-2163.63 30.8049 3800
-2150.01 30.7401 3792
-2140.94 30.7401 3792
-2131.87 30.7401 3792
-2122.81 30.7401 3792
-2113.74 30.7401 3792
-2104.67 30.7401 3792
-2076.26 30.4563 3757
-2072.23 30.5293 3766
-2063.22 30.5293 3766
-2054.22 30.5293 3766
-2045.21 30.5293 3766
-2036.21 30.5293 3766
-2022.35 30.4563 3757
-2013.37 30.4563 3757
-2004.39 30.4563 3757
-1995.4 30.4563 3757
-1986.42 30.4563 3757
-1977.43 30.4563 3757
-1964.26 30.3915 3749
-1964.16 30.5293 3766
-1968.65 30.7401 3792
-1968.37 30.8779 3809
-1959.26 30.8779 3809
-1950.15 30.8779 3809
-1941.04 30.8779 3809
-1931.94 30.8779 3809
-1905.16 30.5941 3774
-1892.11 30.5293 3766
-1896.11 30.7401 3792
-1891.02 30.8049 3800
-1881.94 30.8049 3800
-1872.85 30.8049 3800
-1855.42 30.6671 3783
-1846.38 30.6671 3783
-1837.33 30.6671 3783
-1828.29 30.6671 3783
-1782.69 30.051 3707
-1773.83 30.051 3707
-1761.15 29.9861 3699
-1752.31 29.9861 3699
-1743.46 29.9861 3699
-1734.62 29.9861 3699
-1725.77 29.9861 3699
-1716.93 29.9861 3699
-1708.08 29.9861 3699
-1707.04 30.124 3716
-1698.16 30.124 3716
-1689.27 30.124 3716
-1672.7 29.9861 3699
-1660.25 29.9213 3691
-1651.43 29.9213 3691
-1642.6 29.9213 3691
-1630.23 29.8564 3683
-1610.42 29.6538 3658
-1601.67 29.6538 3658
-1575.94 29.3376 3619
-1556.9 29.1431 3595
-1545.28 29.0863 3588
-1536.7 29.0863 3588
-1505.13 28.6486 3534
-1487.36 28.4702 3512
-1476.01 28.4135 3505
-1467.63 28.4135 3505
-1455.92 28.3486 3497
-1447.56 28.3486 3497
-1424.38 28.0568 3461
-1416.1 28.0568 3461
-1399.28 27.8865 3440
-1376.9 27.6028 3405
-1304.85 26.3139 3246
-1297.08 26.3139 3246
-1289.32 26.3139 3246
-1268.92 26.0545 3214
-1256.53 25.9572 3202
-1237.17 25.714 3172
-1229.59 25.714 3172
-1210.44 25.4708 3142
-1191.45 25.2276 3112
-1175.25 25.0411 3089
-1167.87 25.0411 3089
-1152.21 24.8628 3067
-1132.19 24.5872 3033
-1119 24.4575 3017
-1113.63 24.498 3022
-1106.4 24.498 3022
-1099.18 24.498 3022
-1091.95 24.498 3022
-1080.77 24.4088 3011
-1073.57 24.4088 3011
-1064.6 24.3683 3006
-1053.55 24.2791 2995
-1042.54 24.19 2984
-1035.41 24.19 2984
-1026.55 24.1494 2979
-1019.42 24.1494 2979
-1006.86 24.0197 2963
-999.777 24.0197 2963
-991.016 23.9792 2958
-982.279 23.9387 2953
-975.218 23.9387 2953
-968.156 23.9387 2953
-961.095 23.9387 2953
-954.033 23.9387 2953
-945.048 23.89 2947
-938.001 23.89 2947
-930.953 23.89 2947
-922.339 23.8495 2942
-915.303 23.8495 2942
-908.268 23.8495 2942
-899.701 23.809 2937
-891.158 23.7684 2932
-884.147 23.7684 2932
-878.632 23.809 2937
-871.608 23.809 2937
-866.057 23.8495 2942
-860.482 23.89 2947
-853.435 23.89 2947
-846.387 23.89 2947
-839.34 23.89 2947
-832.293 23.89 2947
-825.246 23.89 2947
-818.199 23.89 2947
-809.775 23.8495 2942
-801.376 23.809 2937
-793 23.7684 2932
-785.989 23.7684 2932
-778.978 23.7684 2932
-771.966 23.7684 2932
-764.955 23.7684 2932
-757.944 23.7684 2932
-750.932 23.7684 2932
-742.652 23.7279 2927
-734.396 23.6874 2922
-727.409 23.6874 2922
-719.189 23.6468 2917
-712.214 23.6468 2917
-703.787 23.5982 2911
-696.826 23.5982 2911
-686.31 23.4766 2896
-678.212 23.436 2891
-671.299 23.436 2891
-664.386 23.436 2891
-657.473 23.436 2891
-650.559 23.436 2891
-642.533 23.3955 2886
-636.733 23.436 2891
-629.82 23.436 2891
-626.138 23.5576 2906
-620.254 23.5982 2911
-614.557 23.6468 2917
-607.582 23.6468 2917
-605.754 23.8495 2942
-618.459 24.6358 3039
-624.868 25.1871 3107
-617.438 25.1871 3107
-619.236 25.5681 3154
-634.385 26.5165 3271
-662.958 28.0568 3461
-654.681 28.0568 3461
-650.514 28.2351 3483
-643.476 28.2919 3490
-636.404 28.3486 3497
-628.042 28.3486 3497
-619.679 28.3486 3497
-611.317 28.3486 3497
-602.954 28.3486 3497
-594.592 28.3486 3497
-586.23 28.3486 3497
-577.867 28.3486 3497
-569.505 28.3486 3497
-561.143 28.3486 3497
-552.78 28.3486 3497
-541.148 28.1784 3476
-532.836 28.1784 3476
-518.035 27.8298 3433
-504.628 27.5461 3398
-492.411 27.3191 3370
-484.353 27.3191 3370
-470.641 26.9948 3330
-286.484 17.0076 2098
-281.467 17.0076 2098
-276.45 17.0076 2098
-271.174 16.9913 2096
-264.765 16.9022 2085
-259.779 16.9022 2085
-254.549 16.886 2083
-249.209 16.8616 2080
-244.235 16.8616 2080
-239.261 16.8616 2080
-233.386 16.7968 2072
-227.88 16.7562 2067
-222.937 16.7562 2067
-218.521 16.7968 2072
-214.185 16.8454 2078
-209.216 16.8454 2078
-204.935 16.9022 2085
-202.73 17.1373 2114
-197.675 17.1373 2114
-193.622 17.2264 2125
-189.073 17.2751 2131
-185.617 17.4291 2150
-180.476 17.4291 2150
-175.987 17.4939 2158
-171.302 17.5426 2164
-166.511 17.5831 2169
-161.324 17.5831 2169
-156.137 17.5831 2169
-150.95 17.5831 2169
-145.764 17.5831 2169
-140.577 17.5831 2169
-135.265 17.5669 2167
-130.083 17.5669 2167
-124.901 17.5669 2167
-119.719 17.5669 2167
-114.22 17.5183 2161
-108.75 17.4696 2155
-103.597 17.4696 2155
-98.4435 17.4696 2155
-93.0738 17.4291 2150
-87.8098 17.4048 2147
-82.3676 17.3399 2139
-77.2526 17.3399 2139
-72.0364 17.3156 2136
-66.8346 17.2913 2133
-61.676 17.2751 2131
-56.5802 17.2751 2131
-51.4843 17.2751 2131
-46.3231 17.2507 2128
-41.2344 17.2507 2128
-36.1457 17.2507 2128
-31.0571 17.2507 2128
-25.9684 17.2507 2128
-20.8797 17.2507 2128
-15.8132 17.2751 2131
-10.7174 17.2751 2131
-5.6215 17.2751 2131
-0.526129 17.2913 2133
4.57452 17.2913 2133
9.67517 17.2913 2133
14.7758 17.2913 2133
19.8765 17.2913 2133
24.9771 17.2913 2133
30.1201 17.3156 2136
35.2279 17.3156 2136
40.3924 17.3399 2139
45.5074 17.3399 2139
50.7407 17.3805 2144
55.8676 17.3805 2144
60.9946 17.3805 2144
66.1216 17.3805 2144
71.2485 17.3805 2144
76.3755 17.3805 2144
81.7305 17.4291 2150
86.8718 17.4291 2150
92.0131 17.4291 2150
97.1544 17.4291 2150
102.438 17.4534 2153
107.687 17.4696 2155
112.997 17.4939 2158
118.158 17.4939 2158
123.318 17.4939 2158
128.657 17.5183 2161
134.01 17.5426 2164
139.185 17.5426 2164
144.36 17.5426 2164
149.88 17.5831 2169
155.282 17.6074 2172
160.697 17.6318 2175
165.898 17.6318 2175
171.335 17.6561 2178
176.544 17.6561 2178
182.002 17.6804 2181
187.218 17.6804 2181
192.874 17.7209 2186
198.373 17.7452 2189
203.608 17.7452 2189
208.843 17.7452 2189
214.664 17.7939 2195
219.913 17.7939 2195
225.469 17.8182 2198
230.726 17.8182 2198
236.948 17.8912 2207
242.555 17.9155 2210
247.84 17.9155 2210
253.124 17.9155 2210
258.994 17.956 2215
266.08 18.0776 2230
271.778 18.1019 2233
277.118 18.1019 2233
283.596 18.1749 2242
291.793 18.3532 2264
298.388 18.4262 2273
303.824 18.4262 2273
309.667 18.4505 2276
315.94 18.4992 2282
322.242 18.5478 2288
327.714 18.5478 2288
333.185 18.5478 2288
338.212 18.5235 2285
344.128 18.5478 2288
349.599 18.5478 2288
355.691 18.5802 2292
361.172 18.5802 2292
366.653 18.5802 2292
372.134 18.5802 2292
376.955 18.5478 2288
381.925 18.5235 2285
387.389 18.5235 2285
392.854 18.5235 2285
522.708 23.9792 2958
529.781 23.9792 2958
536.854 23.9792 2958
541.905 23.89 2947
548.952 23.89 2947
556 23.89 2947
559.226 23.7279 2927
565.258 23.6874 2922
572.245 23.6874 2922
577.052 23.5982 2911
583.01 23.5576 2906
587.929 23.4766 2896
594.854 23.4766 2896
600.74 23.436 2891
607.654 23.436 2891
614.567 23.436 2891
621.48 23.436 2891
628.393 23.436 2891
635.307 23.436 2891
642.22 23.436 2891
649.133 23.436 2891
656.046 23.436 2891
662.96 23.436 2891
669.873 23.436 2891
676.786 23.436 2891
683.699 23.436 2891
690.613 23.436 2891
697.526 23.436 2891
704.439 23.436 2891
712.583 23.4766 2896
719.508 23.4766 2896
727.687 23.5171 2901
734.625 23.5171 2901
741.562 23.5171 2901
748.499 23.5171 2901
755.436 23.5171 2901
763.687 23.5576 2906
770.636 23.5576 2906
777.585 23.5576 2906
784.535 23.5576 2906
791.484 23.5576 2906
798.433 23.5576 2906
805.382 23.5576 2906
812.331 23.5576 2906
819.28 23.5576 2906
827.651 23.5982 2911
834.612 23.5982 2911
841.573 23.5982 2911
848.534 23.5982 2911
855.495 23.5982 2911
862.456 23.5982 2911
869.417 23.5982 2911
874.873 23.5576 2906
880.305 23.5171 2901
887.242 23.5171 2901
892.638 23.4766 2896
902.67 23.5576 2906
914.627 23.6874 2922
923.191 23.7279 2927
930.191 23.7279 2927
941.993 23.8495 2942
957.415 24.0603 2968
973.287 24.2791 2995
980.449 24.2791 2995
998.493 24.5466 3028
1011.05 24.6764 3044
1027.69 24.9033 3072
1035.04 24.9033 3072
1057.99 25.2762 3118
1088 25.8113 3184
1101.81 25.9572 3202
1109.47 25.9572 3202
1134.57 26.3625 3252
1155.69 26.6706 3290
1187.26 27.2137 3357
1195.29 27.2137 3357
1212.99 27.4326 3384
1233.71 27.7163 3419
1244.43 27.7731 3426
1252.62 27.7731 3426
1260.82 27.7731 3426
1269.01 27.7731 3426
1287.64 28 3454
1295.9 28 3454
1315.11 28.2351 3483
1323.44 28.2351 3483
1331.77 28.2351 3483
1337.4 28.1784 3476
1345.71 28.1784 3476
1342.73 27.9433 3447
1337.26 27.6596 3412
1345.41 27.6596 3412
1342.47 27.4326 3384
1339.78 27.2137 3357
1345 27.157 3350
1353.01 27.157 3350
1347.61 26.8894 3317
1349.82 26.7759 3303
1357.72 26.7759 3303
1365.62 26.7759 3303
1368.11 26.6706 3290
1373.47 26.6219 3284
1381.32 26.6219 3284
1386.64 26.5733 3278
1394.48 26.5733 3278
1399.32 26.5165 3271
1401.55 26.4112 3258
1409.34 26.4112 3258
1417.13 26.4112 3258
1424.92 26.4112 3258
1432.72 26.4112 3258
1457.75 26.7273 3297
1477.19 26.9381 3323
1485.14 26.9381 3323
1511.06 27.2623 3363
1531.75 27.4893 3391
1543.03 27.5461 3398
1551.16 27.5461 3398
1565.71 27.6596 3412
1573.87 27.6596 3412
1582.03 27.6596 3412
1586.93 27.6028 3405
1595.07 27.6028 3405
1603.21 27.6028 3405
1611.35 27.6028 3405
1609.51 27.4326 3384
1617.6 27.4326 3384
1622.33 27.3758 3377
1620.75 27.2137 3357
1628.78 27.2137 3357
1636.8 27.2137 3357
1661.49 27.4893 3391
1669.6 27.4893 3391
1677.71 27.4893 3391
1685.82 27.4893 3391
1676.94 27.2137 3357
1681.46 27.157 3350
1689.47 27.157 3350
1690.89 27.0516 3337
1701.92 27.1002 3343
1723.73 27.3191 3370
1735.38 27.3758 3377
1743.46 27.3758 3377
1751.54 27.3758 3377
1759.61 27.3758 3377
1767.69 27.3758 3377
1779.44 27.4326 3384
1787.53 27.4326 3384
1799.34 27.4893 3391
1807.45 27.4893 3391
1815.56 27.4893 3391
1819.9 27.4326 3384
1824.21 27.3758 3377
1817.64 27.157 3350
1825.65 27.157 3350
1804.65 26.7273 3297
1791.1 26.4112 3258
1788.4 26.2571 3239
1796.14 26.2571 3239
1793.86 26.1112 3221
1780.87 25.8113 3184
1771.63 25.5681 3154
1765.64 25.3735 3130
1773.12 25.3735 3130
1747.61 24.9033 3072
1701.83 24.1494 2979
1676.25 23.6874 2922
1668.26 23.4766 2896
1675.19 23.4766 2896
1667.59 23.2739 2871
1660.46 23.0794 2847
1658.48 22.9578 2832
1665.26 22.9578 2832
1666.71 22.8848 2823
1670.5 22.8443 2818
1671.88 22.7713 2809
1678.6 22.7713 2809
1679.32 22.6902 2799
1686.01 22.6902 2799
1692.7 22.6902 2799
1699.4 22.6902 2799
1706.09 22.6902 2799
1712.78 22.6902 2799
1716.41 22.6497 2794
1717.54 22.5768 2785
1724.2 22.5768 2785
1722.15 22.4633 2771
1726.29 22.4308 2767
1729.77 22.3903 2762
1736.38 22.3903 2762
1737.3 22.3173 2753
1740.72 22.2768 2748
1747.29 22.2768 2748
1753.86 22.2768 2748
1757.87 22.2444 2744
1761.21 22.2039 2739
1765.18 22.1714 2735
1771.72 22.1714 2735
1778.26 22.1714 2735
1778.93 22.0985 2726
1782.17 22.0579 2721
1786.05 22.0255 2717
1792.55 22.0255 2717
1790.44 21.9201 2704
1790.92 21.8472 2695
1797.37 21.8472 2695
1803.81 21.8472 2695
1810.26 21.8472 2695
1816.7 21.8472 2695
1823.15 21.8472 2695
1829.59 21.8472 2695
1836.04 21.8472 2695
1839.75 21.8147 2691
1846.18 21.8147 2691
1846.42 21.7418 2682
1852.83 21.7418 2682
1856.47 21.7094 2678
1862.88 21.7094 2678
1863 21.6364 2669
1869.38 21.6364 2669
1875.76 21.6364 2669
1879.33 21.604 2665
1879.33 21.531 2656
1889.23 21.5715 2661
1895.59 21.5715 2661
1901.96 21.5715 2661
1908.32 21.5715 2661
1908.21 21.4986 2652
1914.55 21.4986 2652
1917.99 21.4662 2648
1924.33 21.4662 2648
1927.74 21.4337 2644
1934.07 21.4337 2644
1940.39 21.4337 2644
1946.71 21.4337 2644
1953.03 21.4337 2644
1959.36 21.4337 2644
1965.68 21.4337 2644
1972 21.4337 2644
1978.32 21.4337 2644
1984.65 21.4337 2644
1996.99 21.4986 2652
2003.33 21.4986 2652
2012.71 21.531 2656
2028.94 21.6364 2669
2052.1 21.8147 2691
2058.54 21.8147 2691
-2071.72 29.0592 2767
-2065.1 29.0592 2767
-2061.46 29.1012 2771
-2054.84 29.1012 2771
-2048.21 29.1012 2771
-2041.58 29.1012 2771
-2034.96 29.1012 2771
-2025.4 29.0592 2767
-2015.14 29.0067 2762
-2008.53 29.0067 2762
-2001.93 29.0067 2762
-1991.71 28.9542 2757
-1975.76 28.8177 2744
-1969.2 28.8177 2744
-1962.64 28.8177 2744
-1956.07 28.8177 2744
-1945.96 28.7652 2739
-1936.58 28.7231 2735
-1930.04 28.7231 2735
-2479.13 37.923 3611
-2470.5 37.923 3611
-2461.86 37.923 3611
-2453.23 37.923 3611
-2455.43 38.091 3627
-2467.67 38.4165 3658
-2486.48 38.8471 3699
-2477.63 38.8471 3699
-2480.13 39.0257 3716
-2471.25 39.0257 3716
-2462.36 39.0257 3716
-2453.48 39.0257 3716
-2444.59 39.0257 3716
-2414.07 38.6791 3683
-2405.27 38.6791 3683
-2391.25 38.5951 3675
-2382.47 38.5951 3675
-2373.68 38.5951 3675
-2385.48 38.9311 3707
-2376.62 38.9311 3707
-2367.75 38.9311 3707
-2358.89 38.9311 3707
-2350.02 38.9311 3707
-2331.05 38.7631 3691
-2327.26 38.8471 3699
-2334.08 39.1097 3724
-2325.18 39.1097 3724
-2316.27 39.1097 3724
-2302.41 39.0257 3716
-2278.1 38.7631 3691
-2254.51 38.5111 3667
-2255.54 38.6791 3683
-2246.74 38.6791 3683
-2247.65 38.8471 3699
-2249.1 39.0257 3716
-2245.03 39.1097 3724
-2236.13 39.1097 3724
-2246.96 39.4563 3757
-2274.31 40.0969 3818
-2265.18 40.0969 3818
-2256.05 40.0969 3818
-2246.92 40.0969 3818
-2232.52 40.0024 3809
-2223.41 40.0024 3809
-2214.3 40.0024 3809
-2220.24 40.2754 3835
-2211.07 40.2754 3835
-2201.9 40.2754 3835
-2187.58 40.1809 3826
-2163.63 39.9078 3800
-2150.01 39.8238 3792
-2140.94 39.8238 3792
-2131.87 39.8238 3792
-2122.81 39.8238 3792
-2113.74 39.8238 3792
-2104.67 39.8238 3792
-2076.26 39.4563 3757
-2072.23 39.5508 3766
-2063.22 39.5508 3766
-2054.22 39.5508 3766
-2045.21 39.5508 3766
-2036.21 39.5508 3766
-2022.35 39.4563 3757
-2013.37 39.4563 3757
-2004.39 39.4563 3757
-1995.4 39.4563 3757
-1986.42 39.4563 3757
-1977.43 39.4563 3757
-1964.26 39.3722 3749
-1964.16 39.5508 3766
-1968.65 39.8238 3792
-1968.37 40.0024 3809
-1959.26 40.0024 3809
-1950.15 40.0024 3809
-1941.04 40.0024 3809
-1931.94 40.0024 3809
-1905.16 39.6348 3774
-1892.11 39.5508 3766
-1896.11 39.8238 3792
-1891.02 39.9078 3800
-1881.94 39.9078 3800
-1872.85 39.9078 3800
-1855.42 39.7293 3783
-1846.38 39.7293 3783
-1837.33 39.7293 3783
-1828.29 39.7293 3783
-1782.69 38.9311 3707
-1773.83 38.9311 3707
-1761.15 38.8471 3699
-1752.31 38.8471 3699
-1743.46 38.8471 3699
-1734.62 38.8471 3699
-1725.77 38.8471 3699
-1716.93 38.8471 3699
-1708.08 38.8471 3699
-1707.04 39.0257 3716
-1698.16 39.0257 3716
-1689.27 39.0257 3716
-1672.7 38.8471 3699
-1660.25 38.7631 3691
-1651.43 38.7631 3691
-1642.6 38.7631 3691
-1630.23 38.6791 3683
-1610.42 38.4165 3658
-1601.67 38.4165 3658
-1575.94 38.007 3619
-1556.9 37.7549 3595
-1545.28 37.6814 3588
-1536.7 37.6814 3588
-1505.13 37.1143 3534
-1487.36 36.8832 3512
-1476.01 36.8097 3505
-1467.63 36.8097 3505
-1455.92 36.7257 3497
-1447.56 36.7257 3497
-1424.38 36.3476 3461
-1416.1 36.3476 3461
-1396.44 36.0536 3433
-1376.9 35.7595 3405
-1302.03 34.0162 3239
-1294.29 34.0162 3239
-1286.54 34.0162 3239
-1268.92 33.7536 3214
-1256.53 33.6276 3202
-1237.17 33.3125 3172
-1229.59 33.3125 3172
-1210.44 32.9975 3142
-1191.45 32.6824 3112
-1175.25 32.4409 3089
-1167.87 32.4409 3089
-1152.21 32.2098 3067
-1132.19 31.8528 3033
-1119 31.6847 3017
-1113.63 31.7372 3022
-1106.4 31.7372 3022
-1099.18 31.7372 3022
-1091.95 31.7372 3022
-1080.77 31.6217 3011
-1073.57 31.6217 3011
-1064.6 31.5692 3006
-1053.55 31.4537 2995
-1042.54 31.3382 2984
-1035.41 31.3382 2984
-1026.55 31.2856 2979
-1019.42 31.2856 2979
-1006.86 31.1176 2963
-999.777 31.1176 2963
-991.016 31.0651 2958
-982.279 31.0126 2953
-975.218 31.0126 2953
-968.156 31.0126 2953
-961.095 31.0126 2953
-954.033 31.0126 2953
-945.048 30.9496 2947
-938.001 30.9496 2947
-930.953 30.9496 2947
-922.339 30.8971 2942
-915.303 30.8971 2942
-908.268 30.8971 2942
-899.701 30.8446 2937
-891.158 30.792 2932
-884.147 30.792 2932
-878.632 30.8446 2937
-871.608 30.8446 2937
-866.057 30.8971 2942
-860.482 30.9496 2947
-853.435 30.9496 2947
-846.387 30.9496 2947
-839.34 30.9496 2947
-832.293 30.9496 2947
-825.246 30.9496 2947
-818.199 30.9496 2947
-809.775 30.8971 2942
-801.376 30.8446 2937
-793 30.792 2932
-785.989 30.792 2932
-778.978 30.792 2932
-771.966 30.792 2932
-764.955 30.792 2932
-757.944 30.792 2932
-750.932 30.792 2932
-742.652 30.7395 2927
-734.396 30.687 2922
-727.409 30.687 2922
-719.189 30.6345 2917
-712.214 30.6345 2917
-703.787 30.5715 2911
-696.826 30.5715 2911
-686.31 30.414 2896
-678.212 30.3615 2891
-671.299 30.3615 2891
-664.386 30.3615 2891
-657.473 30.3615 2891
-650.559 30.3615 2891
-641.42 30.2564 2881
-636.733 30.3615 2891
-629.82 30.3615 2891
-625.061 30.4665 2901
-619.189 30.519 2906
-614.557 30.6345 2917
-607.582 30.6345 2917
-602.666 30.7395 2927
-618.459 31.9158 3039
-624.868 32.6299 3107
-617.438 32.6299 3107
-618.058 33.0605 3148
-634.385 34.3522 3271
-662.958 36.3476 3461
-654.681 36.3476 3461
-650.514 36.5787 3483
-643.476 36.6522 3490
-636.404 36.7257 3497
-628.042 36.7257 3497
-619.679 36.7257 3497
-611.317 36.7257 3497
-602.954 36.7257 3497
-594.592 36.7257 3497
-586.23 36.7257 3497
-577.867 36.7257 3497
-569.505 36.7257 3497
-561.143 36.7257 3497
-552.78 36.7257 3497
-541.148 36.5052 3476
-532.836 36.5052 3476
-518.035 36.0536 3433
-504.628 35.686 3398
-492.411 35.392 3370
-484.353 35.392 3370
-470.641 34.9719 3330
-286.211 22.0123 2096
-281.199 22.0123 2096
-276.186 22.0123 2096
-270.786 21.9808 2093
-264.765 21.8968 2085
-259.779 21.8968 2085
-254.182 21.8443 2080
-249.209 21.8443 2080
-243.648 21.7918 2075
-238.686 21.7918 2075
-232.823 21.7078 2067
-227.88 21.7078 2067
-222.937 21.7078 2067
-218.521 21.7603 2072
-214.185 21.8233 2078
-209.216 21.8233 2078
-204.935 21.8968 2085
-202.73 22.2014 2114
-197.675 22.2014 2114
-193.622 22.3169 2125
-189.073 22.3799 2131
-185.617 22.5794 2150
-180.476 22.5794 2150
-175.987 22.6635 2158
-171.302 22.7265 2164
-166.511 22.779 2169
-161.324 22.779 2169
-156.137 22.779 2169
-150.95 22.779 2169
-145.764 22.779 2169
-140.577 22.779 2169
-135.265 22.758 2167
-130.083 22.758 2167
-124.901 22.758 2167
-119.719 22.758 2167
-114.22 22.695 2161
-108.75 22.6319 2155
-103.501 22.6109 2153
-98.3521 22.6109 2153
-93.0738 22.5794 2150
-87.8098 22.5479 2147
-82.3676 22.4639 2139
-77.2526 22.4639 2139
-72.0364 22.4324 2136
-66.8346 22.4009 2133
-61.676 22.3799 2131
-56.5802 22.3799 2131
-51.4843 22.3799 2131
-46.3231 22.3484 2128
-41.2344 22.3484 2128
-36.1457 22.3484 2128
-31.0571 22.3484 2128
-25.9684 22.3484 2128
-20.8797 22.3484 2128
-15.8132 22.3799 2131
-10.7174 22.3799 2131
-5.6215 22.3799 2131
-0.526129 22.4009 2133
4.57452 22.4009 2133
9.67517 22.4009 2133
14.7758 22.4009 2133
19.8765 22.4009 2133
24.9771 22.4009 2133
30.1201 22.4324 2136
35.2279 22.4324 2136
40.3924 22.4639 2139
45.5074 22.4639 2139
50.7407 22.5164 2144
55.8676 22.5164 2144
60.9946 22.5164 2144
66.1216 22.5164 2144
71.2485 22.5164 2144
76.3755 22.5164 2144
81.7305 22.5794 2150
86.8718 22.5794 2150
92.0131 22.5794 2150
97.1544 22.5794 2150
102.438 22.6109 2153
107.687 22.6319 2155
112.997 22.6635 2158
118.158 22.6635 2158
123.318 22.6635 2158
128.657 22.695 2161
134.01 22.7265 2164
139.185 22.7265 2164
144.36 22.7265 2164
149.88 22.779 2169
155.282 22.8105 2172
160.697 22.842 2175
165.898 22.842 2175
171.335 22.8735 2178
176.544 22.8735 2178
181.752 22.8735 2178
186.96 22.8735 2178
192.874 22.9575 2186
198.102 22.9575 2186
203.329 22.9575 2186
208.556 22.9575 2186
214.664 23.052 2195
219.913 23.052 2195
225.469 23.0835 2198
230.726 23.0835 2198
236.948 23.1781 2207
242.555 23.2096 2210
247.84 23.2096 2210
253.124 23.2096 2210
258.994 23.2621 2215
266.08 23.4196 2230
271.778 23.4511 2233
277.118 23.4511 2233
283.216 23.5141 2239
291.793 23.7767 2264
297.6 23.8082 2267
303.022 23.8082 2267
309.259 23.8712 2273
315.525 23.9342 2279
321.397 23.9657 2282
326.854 23.9657 2282
332.311 23.9657 2282
337.768 23.9657 2282
344.128 24.0287 2288
349.599 24.0287 2288
355.691 24.0707 2292
361.172 24.0707 2292
366.653 24.0707 2292
372.134 24.0707 2292
376.955 24.0287 2288
381.925 23.9972 2285
387.389 23.9972 2285
392.854 23.9972 2285
522.708 31.0651 2958
529.781 31.0651 2958
536.854 31.0651 2958
541.905 30.9496 2947
548.952 30.9496 2947
556 30.9496 2947
559.226 30.7395 2927
565.258 30.687 2922
572.245 30.687 2922
577.052 30.5715 2911
583.01 30.519 2906
587.929 30.414 2896
594.854 30.414 2896
600.74 30.3615 2891
607.654 30.3615 2891
614.567 30.3615 2891
621.48 30.3615 2891
628.393 30.3615 2891
635.307 30.3615 2891
642.22 30.3615 2891
649.133 30.3615 2891
656.046 30.3615 2891
662.96 30.3615 2891
669.873 30.3615 2891
676.786 30.3615 2891
683.699 30.3615 2891
690.613 30.3615 2891
697.526 30.3615 2891
704.439 30.3615 2891
712.583 30.414 2896
719.508 30.414 2896
727.687 30.4665 2901
734.625 30.4665 2901
741.562 30.4665 2901
748.499 30.4665 2901
755.436 30.4665 2901
763.687 30.519 2906
770.636 30.519 2906
777.585 30.519 2906
784.535 30.519 2906
791.484 30.519 2906
798.433 30.519 2906
805.382 30.519 2906
812.331 30.519 2906
819.28 30.519 2906
827.651 30.5715 2911
834.612 30.5715 2911
841.573 30.5715 2911
848.534 30.5715 2911
855.495 30.5715 2911
862.456 30.5715 2911
869.417 30.5715 2911
874.873 30.519 2906
880.305 30.4665 2901
887.242 30.4665 2901
892.638 30.414 2896
902.67 30.519 2906
911.184 30.5715 2911
921.614 30.687 2922
928.602 30.687 2922
938.791 30.792 2932
952.577 31.0126 2953
969.712 31.3382 2984
976.848 31.3382 2984
991.238 31.5692 3006
1007.39 31.8528 3033
1026.02 32.2098 3067
1033.36 32.2098 3067
1057.99 32.7454 3118
1081.85 33.2495 3166
1101.81 33.6276 3202
1109.47 33.6276 3202
1134.57 34.1527 3252
1155.69 34.5518 3290
1187.26 35.2554 3357
1195.29 35.2554 3357
1212.99 35.539 3384
1233.71 35.9066 3419
1244.43 35.9801 3426
1252.62 35.9801 3426
1260.82 35.9801 3426
1269.01 35.9801 3426
1298.45 36.5787 3483
1306.78 36.5787 3483
1317.75 36.6522 3490
1326.1 36.6522 3490
1334.44 36.6522 3490
1342.79 36.6522 3490
1351.13 36.6522 3490
1354.03 36.5052 3476
1345.49 36.0536 3433
1353.69 36.0536 3433
1350.8 35.7595 3405
1347.76 35.4655 3377
1355.84 35.4655 3377
1363.91 35.4655 3377
1350.05 34.8984 3323
1352.69 34.7618 3310
1357.72 34.6883 3303
1365.62 34.6883 3303
1371.02 34.6253 3297
1370.96 34.4258 3278
1375.86 34.3522 3271
1383.68 34.3522 3271
1391.5 34.3522 3271
1399.32 34.3522 3271
1401.55 34.2157 3258
1406.75 34.1527 3252
1414.52 34.1527 3252
1422.3 34.1527 3252
1432.72 34.2157 3258
1466.59 34.8353 3317
1483.42 35.0454 3337
1491.4 35.0454 3337
1517.35 35.4655 3377
1534.91 35.686 3398
1549.39 35.833 3412
1557.55 35.833 3412
1568.92 35.9066 3419
1577.1 35.9066 3419
1585.27 35.9066 3419
1593.45 35.9066 3419
1601.63 35.9066 3419
1609.8 35.9066 3419
1617.98 35.9066 3419
1619.5 35.7595 3405
1624.29 35.686 3398
1625.69 35.539 3384
1620.75 35.2554 3357
1631.69 35.3184 3363
1639.73 35.3184 3363
1654.63 35.4655 3377
1662.71 35.4655 3377
1670.78 35.4655 3377
1678.86 35.4655 3377
1676.94 35.2554 3357
1677.94 35.1084 3343
1685.94 35.1084 3343
1690.89 35.0454 3337
1698.87 35.0454 3337
1709.92 35.1084 3343
1731.79 35.392 3370
1739.85 35.392 3370
1747.9 35.392 3370
1755.96 35.392 3370
1767.69 35.4655 3377
1775.76 35.4655 3377
1783.84 35.4655 3377
1799.34 35.6125 3391
1807.45 35.6125 3391
1815.56 35.6125 3391
1819.9 35.539 3384
1813.41 35.2554 3357
1810.59 35.0454 3337
1818.57 35.0454 3337
1800.82 34.5518 3290
1787.8 34.1527 3252
1785.08 33.9532 3233
1792.81 33.9532 3233
1789.96 33.7536 3214
1780.87 33.4386 3184
1771.63 33.1235 3154
1758.87 32.7454 3118
1766.32 32.7454 3118
1741.35 32.1468 3061
1701.83 31.2856 2979
1673.38 30.6345 2917
1665.38 30.3615 2891
1672.3 30.3615 2891
1667.59 30.1514 2871
1660.46 29.8994 2847
1658.48 29.7418 2832
1665.26 29.7418 2832
1666.71 29.6473 2823
1673.46 29.6473 2823
1674.26 29.5423 2813
1680.99 29.5423 2813
1685.32 29.5003 2809
1689.02 29.4478 2804
1695.73 29.4478 2804
1702.43 29.4478 2804
1709.14 29.4478 2804
1712.78 29.3953 2799
1716.41 29.3428 2794
1720.62 29.3008 2790
1727.29 29.3008 2790
1725.26 29.1537 2776
1726.29 29.0592 2767
1732.9 29.0592 2767
1739.52 29.0592 2767
1737.3 28.9122 2753
1740.72 28.8597 2748
1747.29 28.8597 2748
1753.86 28.8597 2748
1757.87 28.8177 2744
1761.21 28.7652 2739
1765.18 28.7231 2735
1771.72 28.7231 2735
1778.26 28.7231 2735
1778.93 28.6286 2726
1782.17 28.5761 2721
1786.05 28.5341 2717
1792.55 28.5341 2717
1790.44 28.3976 2704
1793.58 28.3451 2699
1797.37 28.3031 2695
1803.81 28.3031 2695
1810.26 28.3031 2695
1816.7 28.3031 2695
1823.15 28.3031 2695
1829.59 28.3031 2695
1836.04 28.3031 2695
1839.75 28.2611 2691
1846.18 28.2611 2691
1846.42 28.1665 2682
1852.83 28.1665 2682
1859.25 28.1665 2682
1862.88 28.1245 2678
1863 28.03 2669
1869.38 28.03 2669
1875.76 28.03 2669
1879.33 27.988 2665
1879.33 27.8935 2656
1889.23 27.946 2661
1895.59 27.946 2661
1901.96 27.946 2661
1908.32 27.946 2661
1908.21 27.8515 2652
1914.55 27.8515 2652
1917.99 27.8095 2648
1924.33 27.8095 2648
1927.74 27.7675 2644
1934.07 27.7675 2644
1940.39 27.7675 2644
1946.71 27.7675 2644
1953.03 27.7675 2644
1959.36 27.7675 2644
1965.68 27.7675 2644
1972 27.7675 2644
1978.32 27.7675 2644
1984.65 27.7675 2644
2000 27.8935 2656
2006.36 27.8935 2656
2016.5 27.946 2661
2031.98 28.072 2673
2058.2 28.3451 2699
2064.66 28.3451 2699
-2074.72 35.7392 2771
-2068.09 35.7392 2771
-2061.46 35.7392 2771
-2054.84 35.7392 2771
-2048.21 35.7392 2771
-2041.58 35.7392 2771
-2034.96 35.7392 2771
-2028.33 35.7392 2771
-2018.79 35.6876 2767
-2012.17 35.6876 2767
-2005.55 35.6876 2767
-1995.32 35.6231 2762
-1975.76 35.3909 2744
-1969.2 35.3909 2744
-1962.64 35.3909 2744
-1956.07 35.3909 2744
-1945.96 35.3265 2739
-1933.04 35.2104 2730
-1926.51 35.2104 2730
-2479.13 46.5731 3611
-2502.65 47.1793 3658
-2493.91 47.1793 3658
-2485.16 47.1793 3658
-2476.41 47.1793 3658
-2545.92 48.6754 3774
-2536.89 48.6754 3774
-2527.87 48.6754 3774
-2542.2 49.1269 3809
-2533.1 49.1269 3809
-2523.99 49.1269 3809
-2491.77 48.6754 3774
-2466.3 48.353 3749
-2446.19 48.1337 3732
-2437.27 48.1337 3732
-2423.14 48.0306 3724
-2414.23 48.0306 3724
-2405.33 48.0306 3724
-2412.51 48.353 3749
-2403.54 48.353 3749
-2394.58 48.353 3749
-2385.61 48.353 3749
-2376.65 48.353 3749
-2356.95 48.1337 3732
-2342.99 48.0306 3724
-2344.11 48.2369 3740
-2335.17 48.2369 3740
-2326.23 48.2369 3740
-2317.28 48.2369 3740
-2278.1 47.6049 3691
-2269.27 47.6049 3691
-2260.44 47.6049 3691
-2246.74 47.5018 3683
-2247.65 47.7081 3699
-2249.1 47.9274 3716
-2245.03 48.0306 3724
-2236.13 48.0306 3724
-2246.96 48.4562 3757
-2279.08 49.3461 3826
-2269.93 49.3461 3826
-2260.78 49.3461 3826
-2251.63 49.3461 3826
-2232.52 49.1269 3809
-2223.41 49.1269 3809
-2214.3 49.1269 3809
-2220.24 49.4622 3835
-2211.07 49.4622 3835
-2207.07 49.5783 3844
-2197.88 49.5783 3844
-2188.68 49.5783 3844
-2205.01 50.1587 3889
-2195.71 50.1587 3889
-2186.41 50.1587 3889
-2177.11 50.1587 3889
-2157.77 49.9265 3871
-2148.52 49.9265 3871
-2124.34 49.5783 3844
-2110.19 49.4622 3835
-2101.02 49.4622 3835
-2091.85 49.4622 3835
-2059.33 48.9076 3792
-2040.53 48.6754 3774
-2031.51 48.6754 3774
-2041.24 49.1269 3809
-2032.13 49.1269 3809
-2023.02 49.1269 3809
-2013.91 49.1269 3809
-2004.8 49.1269 3809
-1977.36 48.6754 3774
-2009.54 49.6943 3853
-2000.32 49.6943 3853
-1991.11 49.6943 3853
-1981.89 49.6943 3853
-1972.68 49.6943 3853
-1963.47 49.6943 3853
-1954.25 49.6943 3853
-1940.5 49.5783 3844
-1922.26 49.3461 3826
-1904.61 49.1269 3809
-1895.5 49.1269 3809
-1881.94 49.0108 3800
-1872.85 49.0108 3800
-1859.84 48.9076 3792
-1854.68 49.0108 3800
-1845.59 49.0108 3800
-1836.5 49.0108 3800
-1827.41 49.0108 3800
-1818.33 49.0108 3800
-1809.24 49.0108 3800
-1771.73 48.2369 3740
-1762.79 48.2369 3740
-1753.84 48.2369 3740
-1744.9 48.2369 3740
-1724.82 47.9274 3716
-1719.62 48.0306 3724
-1710.72 48.0306 3724
-1701.81 48.0306 3724
-1692.91 48.0306 3724
-1680.39 47.9274 3716
-1671.5 47.9274 3716
-1662.61 47.9274 3716
-1653.73 47.9274 3716
-1644.84 47.9274 3716
-1621.43 47.5018 3683
-1612.62 47.5018 3683
-1589.44 47.0761 3650
-1567.29 46.6763 3619
-1548.3 46.3668 3595
-1539.7 46.3668 3595
-1511.51 45.7735 3549
-1496.67 45.58 3534
-1478.96 45.2963 3512
-1470.56 45.2963 3512
-1462.16 45.2963 3512
-1447.56 45.1028 3497
-1430.55 44.832 3476
-1422.24 44.832 3476
-1396.44 44.2774 3433
-1376.9 43.9162 3405
-1302.03 41.7752 3239
-1294.29 41.7752 3239
-1286.54 41.7752 3239
-1268.92 41.4528 3214
-1256.53 41.298 3202
-1237.17 40.9111 3172
-1229.59 40.9111 3172
-1210.44 40.5242 3142
-1193.74 40.2146 3118
-1175.25 39.8406 3089
-1167.87 39.8406 3089
-1154.09 39.6213 3072
-1132.19 39.1183 3033
-1119 38.912 3017
-1111.79 38.912 3017
-1104.57 38.912 3017
-1097.36 38.912 3017
-1087.97 38.8346 3011
-1080.77 38.8346 3011
-1073.57 38.8346 3011
-1062.48 38.6927 3000
-1051.79 38.5637 2990
-1044.64 38.5637 2990
-1037.49 38.5637 2990
-1028.27 38.4864 2984
-1019.42 38.4219 2979
-1006.86 38.2155 2963
-999.777 38.2155 2963
-991.016 38.151 2958
-982.279 38.0865 2953
-975.218 38.0865 2953
-969.796 38.151 2958
-962.722 38.151 2958
-955.649 38.151 2958
-946.972 38.0865 2953
-939.91 38.0865 2953
-930.953 38.0091 2947
-923.906 38.0091 2947
-915.303 37.9447 2942
-908.268 37.9447 2942
-901.233 37.9447 2942
-892.678 37.8802 2937
-887.163 37.9447 2942
-880.127 37.9447 2942
-873.092 37.9447 2942
-867.529 38.0091 2947
-860.482 38.0091 2947
-853.435 38.0091 2947
-848.111 38.0865 2953
-841.049 38.0865 2953
-833.988 38.0865 2953
-826.926 38.0865 2953
-819.865 38.0865 2953
-811.151 38.0091 2947
-801.376 37.8802 2937
-793 37.8157 2932
-785.989 37.8157 2932
-778.978 37.8157 2932
-771.966 37.8157 2932
-764.955 37.8157 2932
-757.944 37.8157 2932
-749.652 37.7512 2927
-742.652 37.7512 2927
-734.396 37.6867 2922
-727.409 37.6867 2922
-717.71 37.5448 2911
-710.749 37.5448 2911
-702.579 37.4803 2906
-695.629 37.4803 2906
-686.31 37.3514 2896
-678.212 37.2869 2891
-671.299 37.2869 2891
-664.386 37.2869 2891
-656.335 37.2224 2886
-649.434 37.2224 2886
-641.42 37.1579 2881
-636.733 37.2869 2891
-629.82 37.2869 2891
-623.984 37.3514 2896
-619.189 37.4803 2906
-614.557 37.6222 2917
-607.582 37.6222 2917
-602.666 37.7512 2927
-618.459 39.1957 3039
-624.868 40.0728 3107
-617.438 40.0728 3107
-618.058 40.6016 3148
-627.015 41.6978 3233
-662.958 44.6385 3461
-654.681 44.6385 3461
-651.821 45.0125 3490
-644.766 45.1028 3497
-640.59 45.3995 3520
-632.172 45.3995 3520
-623.755 45.3995 3520
-613.939 45.2963 3512
-605.541 45.2963 3512
-597.142 45.2963 3512
-587.571 45.206 3505
-580.346 45.2963 3512
-571.948 45.2963 3512
-563.549 45.2963 3512
-552.78 45.1028 3497
-543.328 45.0125 3490
-534.982 45.0125 3490
-522.261 44.6385 3461
-509.826 44.2774 3433
-496.503 43.826 3398
-488.377 43.826 3398
-286.484 27.0591 2098
-281.467 27.0591 2098
-276.45 27.0591 2098
-270.139 26.9301 2088
-264.511 26.8656 2083
-259.53 26.8656 2083
-254.182 26.827 2080
-249.209 26.827 2080
-243.648 26.7625 2075
-238.686 26.7625 2075
-232.823 26.6593 2067
-227.88 26.6593 2067
-223.476 26.7238 2072
-218.838 26.7625 2075
-214.7 26.8656 2083
-209.719 26.8656 2083
-205.525 26.9688 2091
-203.497 27.3686 2122
-198.423 27.3686 2122
-194.169 27.4847 2131
-189.516 27.5492 2136
-185.876 27.7685 2153
-180.728 27.7685 2153
-176.232 27.8717 2161
-171.302 27.9103 2164
-166.511 27.9748 2169
-161.324 27.9748 2169
-156.137 27.9748 2169
-150.95 27.9748 2169
-145.764 27.9748 2169
-140.577 27.9748 2169
-135.39 27.9748 2169
-130.203 27.9748 2169
-124.901 27.949 2167
-119.719 27.949 2167
-114.062 27.833 2158
-108.649 27.7685 2153
-103.501 27.7685 2153
-98.3521 27.7685 2153
-93.0738 27.7298 2150
-87.8098 27.6911 2147
-82.3676 27.5879 2139
-77.2526 27.5879 2139
-72.0364 27.5492 2136
-66.8346 27.5105 2133
-61.676 27.4847 2131
-56.5802 27.4847 2131
-51.4843 27.4847 2131
-46.3231 27.446 2128
-41.2344 27.446 2128
-36.1457 27.446 2128
-31.0571 27.446 2128
-25.9684 27.446 2128
-20.8797 27.446 2128
-15.8132 27.4847 2131
-10.7174 27.4847 2131
-5.6215 27.4847 2131
-0.526129 27.5105 2133
4.57452 27.5105 2133
9.67517 27.5105 2133
14.7758 27.5105 2133
19.8765 27.5105 2133
25.0122 27.5492 2136
30.1201 27.5492 2136
35.2279 27.5492 2136
40.3924 27.5879 2139
45.5712 27.6266 2142
50.7407 27.6524 2144
55.8676 27.6524 2144
60.9946 27.6524 2144
66.1216 27.6524 2144
71.3482 27.6911 2147
76.4823 27.6911 2147
81.7305 27.7298 2150
86.8718 27.7298 2150
92.1415 27.7685 2153
97.29 27.7685 2153
102.438 27.7685 2153
107.687 27.7943 2155
112.997 27.833 2158
118.158 27.833 2158
123.318 27.833 2158
128.657 27.8717 2161
134.01 27.9103 2164
139.185 27.9103 2164
144.36 27.9103 2164
149.88 27.9748 2169
155.282 28.0135 2172
160.697 28.0522 2175
165.898 28.0522 2175
171.099 28.0522 2175
176.544 28.0909 2178
181.752 28.0909 2178
186.96 28.0909 2178
192.874 28.1941 2186
198.102 28.1941 2186
203.329 28.1941 2186
208.556 28.1941 2186
214.371 28.2715 2192
219.913 28.3102 2195
225.469 28.3489 2198
230.726 28.3489 2198
236.948 28.4649 2207
242.555 28.5036 2210
247.84 28.5036 2210
253.124 28.5036 2210
258.994 28.5681 2215
266.08 28.7616 2230
271.778 28.8003 2233
277.118 28.8003 2233
283.216 28.8777 2239
291.406 29.1614 2261
297.207 29.2001 2264
302.621 29.2001 2264
308.851 29.2775 2270
315.525 29.3936 2279
320.975 29.3936 2279
326.425 29.3936 2279
331.874 29.3936 2279
337.768 29.4323 2282
344.729 29.5612 2292
350.21 29.5612 2292
356.622 29.6386 2298
362.117 29.6386 2298
367.613 29.6386 2298
373.108 29.6386 2298
377.614 29.5612 2292
381.925 29.471 2285
387.389 29.471 2285
392.854 29.471 2285
517.377 38.28 2968
524.475 38.28 2968
531.572 38.28 2968
535.947 38.0865 2953
543.008 38.0865 2953
550.07 38.0865 2953
556 38.0091 2947
559.226 37.7512 2927
565.258 37.6867 2922
572.245 37.6867 2922
577.052 37.5448 2911
583.01 37.4803 2906
587.929 37.3514 2896
594.854 37.3514 2896
600.74 37.2869 2891
607.654 37.2869 2891
614.567 37.2869 2891
621.48 37.2869 2891
628.393 37.2869 2891
635.307 37.2869 2891
642.22 37.2869 2891
649.133 37.2869 2891
656.046 37.2869 2891
662.96 37.2869 2891
669.873 37.2869 2891
676.786 37.2869 2891
683.699 37.2869 2891
690.613 37.2869 2891
697.526 37.2869 2891
704.439 37.2869 2891
712.583 37.3514 2896
719.508 37.3514 2896
727.687 37.4159 2901
734.625 37.4159 2901
742.84 37.4803 2906
749.789 37.4803 2906
756.738 37.4803 2906
763.687 37.4803 2906
770.636 37.4803 2906
777.585 37.4803 2906
785.884 37.5448 2911
792.845 37.5448 2911
799.807 37.5448 2911
806.768 37.5448 2911
813.729 37.5448 2911
820.69 37.5448 2911
827.651 37.5448 2911
834.612 37.5448 2911
841.573 37.5448 2911
850.283 37.6222 2917
857.259 37.6222 2917
864.234 37.6222 2917
869.417 37.5448 2911
876.378 37.5448 2911
881.822 37.4803 2906
888.771 37.4803 2906
894.179 37.4159 2901
904.223 37.5448 2911
914.627 37.6867 2922
921.614 37.6867 2922
928.602 37.6867 2922
937.19 37.7512 2927
954.189 38.151 2958
969.712 38.4864 2984
976.848 38.4864 2984
991.238 38.7701 3006
1013.04 39.3376 3050
1026.02 39.5569 3067
1033.36 39.5569 3067
1062.07 40.3694 3130
1081.85 40.8337 3166
1101.81 41.298 3202
1109.47 41.298 3202
1136.66 42.0203 3258
1165.18 42.7812 3317
1189.38 43.3745 3363
1197.42 43.3745 3363
1218.01 43.826 3398
1238.76 44.2774 3433
1252.06 44.4579 3447
1260.3 44.4579 3447
1268.54 44.4579 3447
1276.79 44.4579 3447
1298.45 44.9222 3483
1306.78 44.9222 3483
1317.75 45.0125 3490
1326.1 45.0125 3490
1334.44 45.0125 3490
1342.79 45.0125 3490
1351.13 45.0125 3490
1354.03 44.832 3476
1345.49 44.2774 3433
1353.69 44.2774 3433
1350.8 43.9162 3405
1347.76 43.5551 3377
1355.84 43.5551 3377
1363.91 43.5551 3377
1350.05 42.8586 3323
1352.69 42.691 3310
1357.72 42.6007 3303
1365.62 42.6007 3303
1371.02 42.5233 3297
1365.53 42.1106 3265
1375.86 42.188 3271
1383.68 42.188 3271
1391.5 42.188 3271
1399.32 42.188 3271
1401.55 42.0203 3258
1406.75 41.9429 3252
1414.52 41.9429 3252
1422.3 41.9429 3252
1430.08 41.9429 3252
1466.59 42.7812 3317
1483.42 43.0392 3337
1491.4 43.0392 3337
1517.35 43.5551 3377
1534.91 43.826 3398
1549.39 44.0065 3412
1557.55 44.0065 3412
1568.92 44.0968 3419
1577.1 44.0968 3419
1585.27 44.0968 3419
1593.45 44.0968 3419
1601.63 44.0968 3419
1609.8 44.0968 3419
1617.98 44.0968 3419
1619.5 43.9162 3405
1624.29 43.826 3398
1625.69 43.6454 3384
1620.75 43.2971 3357
1631.69 43.3745 3363
1639.73 43.3745 3363
1654.63 43.5551 3377
1662.71 43.5551 3377
1670.78 43.5551 3377
1678.86 43.5551 3377
1676.94 43.2971 3357
1674.93 43.0392 3337
1682.91 43.0392 3337
1690.89 43.0392 3337
1691.74 42.8586 3323
1706.85 43.0392 3337
1714.83 43.0392 3337
1722.81 43.0392 3337
1730.79 43.0392 3337
1738.77 43.0392 3337
1753.55 43.2069 3350
1761.56 43.2069 3350
1769.57 43.2069 3350
1777.59 43.2069 3350
1785.6 43.2069 3350
1793.61 43.2069 3350
1794.63 43.0392 3337
1802.61 43.0392 3337
1792.14 42.6007 3303
1800.04 42.6007 3303
1787.14 42.1106 3265
1777.35 41.6978 3233
1774.59 41.4528 3214
1782.28 41.4528 3214
1773.26 41.0659 3184
1770.8 40.8337 3166
1754.78 40.292 3124
1739.69 39.7761 3084
1747.06 39.7761 3084
1728.84 39.1957 3039
1686.97 38.0865 2953
1667.07 37.4803 2906
1662.5 37.2224 2886
1669.4 37.2224 2886
1664.69 36.9644 2866
1660.46 36.7194 2847
1658.48 36.5259 2832
1665.26 36.5259 2832
1666.71 36.4098 2823
1673.46 36.4098 2823
1674.26 36.2809 2813
1680.99 36.2809 2813
1685.32 36.2293 2809
1689.02 36.1648 2804
1695.73 36.1648 2804
1702.43 36.1648 2804
1709.14 36.1648 2804
1712.78 36.1003 2799
1716.41 36.0358 2794
1720.62 35.9842 2790
1727.29 35.9842 2790
1725.26 35.8037 2776
1726.29 35.6876 2767
1732.9 35.6876 2767
1739.52 35.6876 2767
1737.3 35.507 2753
1740.72 35.4425 2748
1747.29 35.4425 2748
1753.86 35.4425 2748
1757.87 35.3909 2744
1761.21 35.3265 2739
1765.18 35.2749 2735
1771.72 35.2749 2735
1778.26 35.2749 2735
1778.93 35.1588 2726
1782.17 35.0943 2721
1786.05 35.0427 2717
1792.55 35.0427 2717
1790.44 34.875 2704
1793.58 34.8105 2699
1797.37 34.759 2695
1803.81 34.759 2695
1810.26 34.759 2695
1816.7 34.759 2695
1823.15 34.759 2695
1829.59 34.759 2695
1836.04 34.759 2695
1836.33 34.6429 2686
1842.75 34.6429 2686
1846.42 34.5913 2682
1852.83 34.5913 2682
1859.25 34.5913 2682
1859.4 34.4752 2673
1863 34.4236 2669
1869.38 34.4236 2669
1875.76 34.4236 2669
1876.5 34.3204 2661
1879.33 34.256 2656
1885.68 34.256 2656
1892.03 34.256 2656
1898.38 34.256 2656
1904.74 34.256 2656
1908.21 34.2044 2652
1914.55 34.2044 2652
1917.99 34.1528 2648
1924.33 34.1528 2648
1927.74 34.1012 2644
1934.07 34.1012 2644
1940.39 34.1012 2644
1946.71 34.1012 2644
1953.03 34.1012 2644
1959.36 34.1012 2644
1965.68 34.1012 2644
1972 34.1012 2644
1978.32 34.1012 2644
1984.65 34.1012 2644
2000 34.256 2656
2006.36 34.256 2656
2016.5 34.3204 2661
2031.98 34.4752 2673
2058.2 34.8105 2699
2064.66 34.8105 2699
-2074.72 42.3771 2771
-2068.09 42.3771 2771
-2061.46 42.3771 2771
-2054.84 42.3771 2771
-2048.21 42.3771 2771
-2041.58 42.3771 2771
-2038.63 42.4536 2776
-2031.99 42.4536 2776
-2025.35 42.4536 2776
-2018.71 42.4536 2776
-2012.08 42.4536 2776
-1995.32 42.2395 2762
-1969.28 41.8266 2735
-1965.61 41.8877 2739
-1959.06 41.8877 2739
-1952.51 41.8877 2739
-1939.57 41.7501 2730
-1930.21 41.6889 2726
-1923.69 41.6889 2726
