ply
format ascii 1.0
comment File generated
element vertex 2251
property float x
property float y
property float z
end_header
69.7299 375.801 2261
75.1366 375.801 2261
80.5433 375.801 2261
86.1782 376.798 2267
92.2053 379.292 2282
97.7907 379.79 2285
103.255 379.79 2285
109.052 380.954 2292
114.833 381.951 2298
120.485 382.45 2301
125.987 382.45 2301
131.661 382.948 2304
137.588 384.112 2311
143.114 384.112 2311
148.64 384.112 2311
154.166 384.112 2311
159.693 384.112 2311
273.53 635.92 3826
282.679 635.92 3826
295.261 643.399 3871
308.057 650.879 3916
319.691 655.533 3944
330.708 658.691 3963
340.185 658.691 3963
352.132 663.345 3991
362.582 665.007 4001
372.15 665.007 4001
381.717 665.007 4001
395.979 672.985 4049
409.669 679.633 4089
419.447 679.633 4089
429.225 679.633 4089
439.003 679.633 4089
550.466 504.115 3033
557.719 504.115 3033
564.972 504.115 3033
569.206 501.456 3017
576.421 501.456 3017
578.412 496.968 2990
585.562 496.968 2990
590.532 495.14 2979
597.655 495.14 2979
608.027 497.799 2995
617.449 499.628 3006
624.637 499.628 3006
634.137 501.456 3017
641.352 501.456 3017
648.566 501.456 3017
653.39 499.628 3006
654.645 495.14 2979
660.658 494.309 2974
668.892 495.14 2979
676.016 495.14 2979
683.14 495.14 2979
690.263 495.14 2979
699.962 496.968 2990
708.295 497.799 2995
715.457 497.799 2995
727.927 501.456 3017
735.141 501.456 3017
743.586 502.287 3022
750.812 502.287 3022
758.039 502.287 3022
765.266 502.287 3022
772.492 502.287 3022
779.719 502.287 3022
786.945 502.287 3022
794.172 502.287 3022
801.398 502.287 3022
807.287 501.456 3017
814.501 501.456 3017
820.082 500.459 3011
828.93 501.456 3017
836.145 501.456 3017
847.832 504.115 3033
858.186 505.944 3044
865.465 505.944 3044
872.744 505.944 3044
880.023 505.944 3044
887.303 505.944 3044
894.582 505.944 3044
901.861 505.944 3044
905.855 504.115 3033
913.107 504.115 3033
910.346 498.63 3000
917.52 498.63 3000
902.193 486.497 2927
1167.53 580.073 3490
1175.88 580.073 3490
1196.78 586.223 3527
1210.34 588.716 3542
1218.81 588.716 3542
1227.28 588.716 3542
1235.75 588.716 3542
1246.67 589.88 3549
1255.16 589.88 3549
1263.65 589.88 3549
1272.13 589.88 3549
1278.1 588.716 3542
1286.57 588.716 3542
1295.04 588.716 3542
1303.51 588.716 3542
1317.53 591.209 3557
1329.02 592.539 3565
1337.54 592.539 3565
1348.71 593.703 3572
1360.29 595.032 3580
1368.86 595.032 3580
1377.42 595.032 3580
1385.98 595.032 3580
1391.42 593.703 3572
1399.96 593.703 3572
1399.44 589.88 3549
1396.42 585.06 3520
1392.86 580.073 3490
1386.75 574.09 3454
1395.01 574.09 3454
1383.37 565.945 3405
1371.89 557.967 3357
1374.17 555.641 3343
1382.16 555.641 3343
1384.75 553.48 3330
1389.78 552.316 3323
1395.21 551.319 3317
1403.14 551.319 3317
1399.58 546.831 3290
1396.76 542.676 3265
1404.56 542.676 3265
1409.34 541.513 3258
1417.13 541.513 3258
1422.3 540.515 3252
1427.44 539.518 3246
1432.11 538.355 3239
1442.96 539.518 3246
1450.73 539.518 3246
1458.49 539.518 3246
1466.25 539.518 3246
1474.01 539.518 3246
1481.77 539.518 3246
1486.32 538.355 3239
1491.3 537.357 3233
1499.03 537.357 3233
1501.17 535.363 3221
1502.78 533.202 3208
1504.8 531.208 3196
1498.25 526.221 3166
1505.82 526.221 3166
1504.79 523.229 3148
1500.79 519.24 3124
1488.94 512.592 3084
1496.32 512.592 3084
1487.12 506.941 3050
1483.63 503.284 3028
1469.21 495.971 2984
1463.48 491.65 2958
1470.55 491.65 2958
1459.64 485.666 2922
1448.56 479.682 2886
1450.42 478.02 2876
1457.3 478.02 2876
1459.08 476.358 2866
1463.89 475.693 2862
1468.17 474.862 2857
1475 474.862 2857
1481.83 474.862 2857
1486.06 474.031 2852
1490.26 473.2 2847
1497.07 473.2 2847
1503.87 473.2 2847
1510.68 473.2 2847
1514.83 472.369 2842
1518.94 471.538 2837
1525.73 471.538 2837
1529.81 470.707 2832
1534.41 470.042 2828
1538.45 469.211 2823
1545.2 469.211 2823
1551.95 469.211 2823
1555.94 468.38 2818
1559.91 467.549 2813
1566.64 467.549 2813
1571.12 466.884 2809
1575.03 466.053 2804
1576.1 464.391 2794
1582.78 464.391 2794
1589.46 464.391 2794
1596.14 464.391 2794
1605.69 465.222 2799
1615.26 466.053 2804
1621.97 466.053 2804
1628.68 466.053 2804
1635.38 466.053 2804
1642.09 466.053 2804
1648.79 466.053 2804
1655.5 466.053 2804
1665.17 466.884 2809
1674.26 467.549 2813
1680.99 467.549 2813
1687.72 467.549 2813
1694.44 467.549 2813
1701.17 467.549 2813
1707.9 467.549 2813
1714.62 467.549 2813
1721.35 467.549 2813
1728.08 467.549 2813
1734.8 467.549 2813
1741.53 467.549 2813
1748.26 467.549 2813
1754.98 467.549 2813
1761.71 467.549 2813
1768.44 467.549 2813
1775.16 467.549 2813
1779.36 466.884 2809
1782.9 466.053 2804
1789.6 466.053 2804
1796.31 466.053 2804
1803.01 466.053 2804
1806.49 465.222 2799
1813.18 465.222 2799
1819.88 465.222 2799
1823.31 464.391 2794
1827.37 463.726 2790
1834.04 463.726 2790
1840.71 463.726 2790
1844.07 462.895 2785
1850.73 462.895 2785
1854.06 462.064 2780
1860.7 462.064 2780
1867.35 462.064 2780
1871.3 461.399 2776
1871.85 459.903 2767
1878.47 459.903 2767
1885.09 459.903 2767
1884.87 458.241 2757
1891.46 458.241 2757
1898.05 458.241 2757
1904.65 458.241 2757
1911.24 458.241 2757
1915.05 457.577 2753
1921.63 457.577 2753
1928.22 457.577 2753
1931.28 456.745 2748
1937.86 456.745 2748
1947.97 457.577 2753
1957.39 458.241 2757
1963.98 458.241 2757
1970.57 458.241 2757
1977.17 458.241 2757
1983.76 458.241 2757
1987.46 457.577 2753
1990.43 456.745 2748
1997 456.745 2748
2010.13 458.241 2757
2020.38 459.072 2762
2026.99 459.072 2762
2037.27 459.903 2767
2043.89 459.903 2767
2057.18 461.399 2776
2063.81 461.399 2776
2080.89 463.726 2790
2090.56 464.391 2794
2104.75 466.053 2804
2111.45 466.053 2804
2118.16 466.053 2804
2131.68 467.549 2813
2138.41 467.549 2813
2145.13 467.549 2813
2151.86 467.549 2813
-2071.72 466.532 2767
-2071.82 468.049 2776
-2065.18 468.049 2776
-2058.54 468.049 2776
-2058.56 469.567 2785
-2058.53 471.084 2794
-2055.52 471.927 2799
-2048.83 471.927 2799
-2042.13 471.927 2799
-2035.44 471.927 2799
-2028.75 471.927 2799
-2015.55 470.41 2790
-2005.28 469.567 2785
-2012.26 472.77 2804
-2005.55 472.77 2804
-1998.85 472.77 2804
-2036.42 484.91 2876
-2036.6 486.596 2886
-2029.69 486.596 2886
-2022.79 486.596 2886
-2015.89 486.596 2886
-2008.99 486.596 2886
-1991.68 484.067 2871
-1981.36 483.224 2866
-1974.51 483.224 2866
-1967.65 483.224 2866
-1960.8 483.224 2866
-1947.81 481.706 2857
-1950.49 484.067 2871
-1947.01 484.91 2876
-1940.13 484.91 2876
-1936.62 485.753 2881
-1929.73 485.753 2881
-1926.17 486.596 2886
-1919.27 486.596 2886
-1915.69 487.439 2891
-1912.07 488.282 2896
-1908.44 489.125 2901
-1901.5 489.125 2901
-1897.83 489.968 2906
-1904.54 493.509 2927
-1917.64 498.736 2958
-1910.57 498.736 2958
-1920.23 503.119 2984
-1941.3 510.538 3028
-1951.3 515.09 3055
-1944 515.09 3055
-1958.25 520.823 3089
-1965.39 524.701 3112
-1957.94 524.701 3112
-1961.78 527.736 3130
-1954.3 527.736 3130
-1950.55 528.747 3136
-1943.05 528.747 3136
-1939.25 529.759 3142
-1942.8 532.794 3160
-1953.62 537.852 3190
-1945.99 537.852 3190
-1942.01 538.864 3196
-1968.26 548.306 3252
-1960.48 548.306 3252
-1952.71 548.306 3252
-1918.62 540.887 3208
-1922.26 544.09 3227
-1956.08 555.893 3297
-1948.19 555.893 3297
-1947.96 558.085 3310
-1959.39 563.649 3343
-1959.56 566.009 3357
-1951.54 566.009 3357
-1975.35 575.282 3412
-1987.37 581.184 3447
-1995.78 586.073 3476
-1987.47 586.073 3476
-1991.11 589.614 3497
-1987.28 590.963 3505
-1978.9 590.963 3505
-1970.52 590.963 3505
-1974.46 594.672 3527
-1966.02 594.672 3527
-1961.47 595.852 3534
-1953.02 595.852 3534
-1944.57 595.852 3534
-1936.12 595.852 3534
-1927.67 595.852 3534
-1919.22 595.852 3534
-1918.88 598.381 3549
-1914.7 599.73 3557
-1910.48 601.079 3565
-1901.95 601.079 3565
-1893.43 601.079 3565
-1884.9 601.079 3565
-1876.38 601.079 3565
-1867.85 601.079 3565
-1867.15 603.608 3580
-1862.74 604.957 3588
-1854.16 604.957 3588
-1845.58 604.957 3588
-1837 604.957 3588
-1828.42 604.957 3588
-1819.84 604.957 3588
-1811.26 604.957 3588
-1806.2 606.137 3595
-1797.6 606.137 3595
-1789.01 606.137 3595
-1780.41 606.137 3595
-1771.81 606.137 3595
-1771.06 608.835 3611
-1766.33 610.184 3619
-1757.68 610.184 3619
-1749.03 610.184 3619
-1740.37 610.184 3619
-1742.72 614.062 3642
-1734.01 614.062 3642
-1740.94 619.626 3675
-1747.23 625.021 3707
-1742.59 626.539 3716
-1733.7 626.539 3716
-1751.74 636.318 3774
-1746.87 637.835 3783
-1741.96 639.353 3792
-1732.89 639.353 3792
-1735.64 643.736 3818
-1726.51 643.736 3818
-1720.98 645.085 3826
-1711.83 645.085 3826
-1702.68 645.085 3826
-1689.99 643.736 3818
-1680.86 643.736 3818
-1663.85 640.701 3800
-1636.04 633.451 3757
-1598.47 622.323 3691
-1571.99 615.411 3650
-1563.26 615.411 3650
-1544.73 611.533 3627
-1522.51 606.137 3595
-1494.54 598.381 3549
-1486.05 598.381 3549
-1468.41 594.672 3527
-1457.08 593.492 3520
-1439.19 589.614 3497
-1430.83 589.614 3497
-1407.82 583.544 3461
-1399.55 583.544 3461
-1377.2 577.643 3426
-1369.01 577.643 3426
-1341.35 569.381 3377
-1330.52 568.201 3370
-1322.46 568.201 3370
-1311.67 567.021 3363
-1303.63 567.021 3363
-1290.58 564.829 3350
-1282.56 564.829 3350
-1269.61 562.637 3337
-1261.63 562.637 3337
-1253.65 562.637 3337
-1245.67 562.637 3337
-1239.91 563.649 3343
-1237.08 566.009 3357
-1229.05 566.009 3357
-1221.02 566.009 3357
-1210.47 564.829 3350
-1202.46 564.829 3350
-1191.95 563.649 3343
-1183.96 563.649 3343
-1175.96 563.649 3343
-1167.97 563.649 3343
-870.008 457.427 2713
-873.388 462.654 2744
-876.935 468.049 2776
-870.296 468.049 2776
-866.458 469.567 2785
-865.664 472.77 2804
-861.716 474.288 2813
-854.989 474.288 2813
-848.263 474.288 2813
-840.339 473.613 2809
-833.622 473.613 2809
-826.905 473.613 2809
-829.823 479.177 2842
-823.027 479.177 2842
-816.231 479.177 2842
-809.435 479.177 2842
-802.639 479.177 2842
-790.522 475.974 2823
-789.047 479.177 2842
-782.251 479.177 2842
-780.912 482.549 2862
-775.15 483.224 2866
-774.998 487.439 2891
-768.085 487.439 2891
-766.437 490.811 2911
-762.346 492.666 2922
-755.359 492.666 2922
-748.371 492.666 2922
-738.593 490.811 2911
-727.646 595.852 3534
-720.823 597.201 3542
-712.353 597.201 3542
-703.883 597.201 3542
-695.413 597.201 3542
-686.943 597.201 3542
-664.299 584.724 3468
-652.033 581.184 3447
-643.79 581.184 3447
-639.419 584.724 3468
-637.86 590.963 3505
-629.478 590.963 3505
-621.097 590.963 3505
-612.715 590.963 3505
-604.334 590.963 3505
-595.952 590.963 3505
-588.744 592.143 3512
-583.981 595.852 3534
-576.833 597.201 3542
-568.363 597.201 3542
-562.264 599.73 3557
-553.759 599.73 3557
-546.479 601.079 3565
-537.954 601.079 3565
-531.657 603.608 3580
-523.096 603.608 3580
-518.99 608.835 3611
-510.355 608.835 3611
-502.832 610.184 3619
-494.178 610.184 3619
-485.524 610.184 3619
-476.87 610.184 3619
-467.18 608.835 3611
-457.53 607.486 3603
-450.907 610.184 3619
-442.253 610.184 3619
-434.557 611.533 3627
-428.585 615.411 3650
-420.777 616.759 3658
-412.029 616.759 3658
-405.156 619.626 3675
-398.957 623.672 3699
-390.955 625.021 3707
-382.09 625.021 3707
-376.548 630.585 3740
-369.276 633.451 3757
-364.415 640.701 3800
-355.328 640.701 3800
-347.062 642.219 3809
-338.752 643.736 3818
-329.622 643.736 3818
-320.492 643.736 3818
-311.362 643.736 3818
-302.865 645.085 3826
-296.479 651.155 3862
-287.244 651.155 3862
-279.953 655.707 3889
-271.279 657.225 3898
-261.958 657.225 3898
-252.637 657.225 3898
-242.192 654.19 3880
-231.293 649.638 3853
-220.523 645.085 3826
-211.374 645.085 3826
-201.802 643.736 3818
-110.466 369.078 2189
-105.231 369.078 2189
-99.9966 369.078 2189
-94.6322 368.572 2186
-89.4048 368.572 2186
-84.1774 368.572 2186
-78.95 368.572 2186
-73.7226 368.572 2186
-68.4326 368.235 2184
-63.21 368.235 2184
-57.9874 368.235 2184
-52.7648 368.235 2184
-47.4769 367.729 2181
-42.2614 367.729 2181
-37.046 367.729 2181
-31.8306 367.729 2181
-26.6151 367.729 2181
-21.3408 366.717 2175
-16.1397 366.717 2175
-10.9236 366.211 2172
-5.72175 365.706 2169
-0.535749 366.211 2172
4.6839 368.235 2184
9.9065 368.235 2184
15.143 368.572 2186
20.4822 370.595 2198
25.8085 371.607 2204
31.079 371.607 2204
36.7287 375.485 2227
42.1674 376.496 2233
47.571 377.002 2236
52.918 377.002 2236
58.6558 379.531 2251
64.0386 379.531 2251
69.7299 381.217 2261
75.1366 381.217 2261
80.5433 381.217 2261
86.1782 382.229 2267
92.3265 385.264 2285
97.9191 385.77 2288
103.39 385.77 2288
109.195 386.95 2295
114.833 387.456 2298
120.642 388.467 2304
126.152 388.467 2304
131.833 388.973 2307
137.588 389.648 2311
143.3 390.153 2314
148.833 390.153 2314
154.567 390.659 2317
160.107 390.659 2317
281.323 663.463 3935
290.732 663.463 3935
300.142 663.463 3935
310.26 664.981 3944
322.772 671.388 3982
332.294 671.388 3982
343.447 674.591 4001
355.573 679.481 4030
366.026 680.998 4039
376.614 682.684 4049
386.297 682.684 4049
398.913 687.742 4079
409.669 689.428 4089
419.447 689.428 4089
429.225 689.428 4089
439.003 689.428 4089
550.466 511.381 3033
557.719 511.381 3033
564.972 511.381 3033
569.206 508.683 3017
576.421 508.683 3017
578.412 504.131 2990
585.562 504.131 2990
591.523 503.119 2984
597.655 502.276 2979
608.027 504.974 2995
617.449 506.829 3006
624.637 506.829 3006
634.137 508.683 3017
641.352 508.683 3017
648.566 508.683 3017
653.39 506.829 3006
654.645 502.276 2979
660.658 501.433 2974
668.892 502.276 2979
676.016 502.276 2979
683.14 502.276 2979
690.263 502.276 2979
699.962 504.131 2990
708.295 504.974 2995
715.457 504.974 2995
727.927 508.683 3017
735.141 508.683 3017
745.062 510.538 3028
752.303 510.538 3028
759.544 510.538 3028
768.051 511.381 3033
775.304 511.381 3033
782.557 511.381 3033
791.372 512.393 3039
798.639 512.393 3039
805.906 512.393 3039
813.173 512.393 3039
823.41 514.247 3050
832.066 515.09 3055
839.371 515.09 3055
846.676 515.09 3055
853.982 515.09 3055
864.67 517.114 3067
872.005 517.114 3067
879.339 517.114 3067
886.673 517.114 3067
892.258 516.102 3061
899.578 516.102 3061
908.675 517.114 3067
916.009 517.114 3067
923.343 517.114 3067
922.181 512.393 3039
929.448 512.393 3039
902.193 493.509 2927
1172.55 590.963 3505
1180.93 590.963 3505
1196.78 594.672 3527
1210.34 597.201 3542
1218.81 597.201 3542
1227.28 597.201 3542
1235.75 597.201 3542
1246.67 598.381 3549
1255.16 598.381 3549
1263.65 598.381 3549
1272.13 598.381 3549
1278.1 597.201 3542
1286.57 597.201 3542
1295.04 597.201 3542
1303.51 597.201 3542
1317.53 599.73 3557
1329.02 601.079 3565
1337.54 601.079 3565
1348.71 602.259 3572
1360.29 603.608 3580
1368.86 603.608 3580
1377.42 603.608 3580
1385.98 603.608 3580
1391.42 602.259 3572
1399.96 602.259 3572
1399.44 598.381 3549
1396.42 593.492 3520
1392.86 588.434 3490
1386.75 582.364 3454
1395.01 582.364 3454
1383.37 574.102 3405
1371.89 566.009 3357
1374.17 563.649 3343
1382.16 563.649 3343
1384.75 561.457 3330
1389.78 560.277 3323
1395.21 559.265 3317
1403.14 559.265 3317
1399.58 554.713 3290
1399.32 551.509 3271
1404.56 550.497 3265
1409.34 549.317 3258
1417.13 549.317 3258
1422.3 548.306 3252
1427.44 547.294 3246
1432.11 546.114 3239
1442.96 547.294 3246
1450.73 547.294 3246
1458.49 547.294 3246
1466.25 547.294 3246
1474.01 547.294 3246
1481.77 547.294 3246
1486.32 546.114 3239
1491.3 545.102 3233
1499.03 545.102 3233
1501.17 543.079 3221
1502.78 540.887 3208
1504.8 538.864 3196
1501.09 534.817 3172
1508.68 534.817 3172
1507.66 531.782 3154
1500.79 526.724 3124
1494.26 521.834 3095
1501.66 521.834 3095
1492.48 516.102 3061
1491.47 513.236 3044
1474.62 504.974 2995
1468.43 500.422 2968
1475.52 500.422 2968
1467.14 495.195 2937
1451.07 487.439 2891
1452.94 485.753 2881
1459.83 485.753 2881
1464.17 484.91 2876
1465.94 483.224 2866
1470.73 482.549 2862
1477.58 482.549 2862
1481.83 481.706 2857
1486.06 480.863 2852
1490.26 480.02 2847
1497.07 480.02 2847
1503.87 480.02 2847
1510.68 480.02 2847
1514.83 479.177 2842
1518.94 478.334 2837
1525.73 478.334 2837
1529.81 477.491 2832
1534.41 476.817 2828
1538.45 475.974 2823
1545.2 475.974 2823
1551.95 475.974 2823
1555.94 475.131 2818
1559.91 474.288 2813
1566.64 474.288 2813
1571.12 473.613 2809
1575.03 472.77 2804
1576.1 471.084 2794
1582.78 471.084 2794
1589.46 471.084 2794
1596.14 471.084 2794
1605.69 471.927 2799
1615.26 472.77 2804
1621.97 472.77 2804
1628.68 472.77 2804
1635.38 472.77 2804
1642.09 472.77 2804
1648.79 472.77 2804
1655.5 472.77 2804
1665.17 473.613 2809
1674.26 474.288 2813
1680.99 474.288 2813
1687.72 474.288 2813
1694.44 474.288 2813
1701.17 474.288 2813
1707.9 474.288 2813
1714.62 474.288 2813
1721.35 474.288 2813
1728.08 474.288 2813
1734.8 474.288 2813
1741.53 474.288 2813
1748.26 474.288 2813
1754.98 474.288 2813
1761.71 474.288 2813
1768.44 474.288 2813
1775.16 474.288 2813
1779.36 473.613 2809
1782.9 472.77 2804
1789.6 472.77 2804
1796.31 472.77 2804
1803.01 472.77 2804
1806.49 471.927 2799
1813.18 471.927 2799
1819.88 471.927 2799
1823.31 471.084 2794
1827.37 470.41 2790
1834.04 470.41 2790
1840.71 470.41 2790
1847.38 470.41 2790
1850.73 469.567 2785
1857.39 469.567 2785
1864.05 469.567 2785
1870.71 469.567 2785
1871.3 468.049 2776
1874.56 467.206 2771
1881.19 467.206 2771
1885.09 466.532 2767
1884.87 464.846 2757
1891.46 464.846 2757
1898.05 464.846 2757
1904.65 464.846 2757
1911.24 464.846 2757
1915.05 464.171 2753
1921.63 464.171 2753
1928.22 464.171 2753
1931.28 463.328 2748
1937.86 463.328 2748
1947.97 464.171 2753
1957.39 464.846 2757
1963.98 464.846 2757
1970.57 464.846 2757
1977.17 464.846 2757
1983.76 464.846 2757
1987.46 464.171 2753
1990.43 463.328 2748
1997 463.328 2748
2013.78 465.689 2762
2024.04 466.532 2767
2030.66 466.532 2767
2037.27 466.532 2767
2043.89 466.532 2767
2057.18 468.049 2776
2063.81 468.049 2776
2083.88 471.084 2794
2098.04 472.77 2804
2111.5 474.288 2813
2118.23 474.288 2813
2128.73 475.131 2818
2135.47 475.131 2818
2146.01 475.974 2823
2152.76 475.974 2823
2159.51 475.974 2823
-2064.23 471.45 2757
-2057.64 471.45 2757
-2054.77 472.305 2762
-2048.16 472.305 2762
-2051.91 474.699 2776
-2051.9 476.238 2785
-2048.91 477.093 2790
-2042.24 477.093 2790
-2035.57 477.093 2790
-2025.26 476.238 2785
-2018.6 476.238 2785
-2011.94 476.238 2785
-2005.28 476.238 2785
-1992.16 474.699 2776
-1985.52 474.699 2776
-2036.6 493.509 2886
-2080.33 505.821 2958
-2073.26 505.821 2958
-2066.18 505.821 2958
-2030.57 498.81 2917
-2009.03 495.219 2896
-2002.1 495.219 2896
-1981.4 491.799 2876
-1974.52 491.799 2876
-1964.22 490.944 2871
-1953.95 490.089 2866
-1953.89 491.799 2876
-1950.4 492.654 2881
-1943.51 492.654 2881
-1939.98 493.509 2886
-1933.08 493.509 2886
-1926.17 493.509 2886
-1919.27 493.509 2886
-1919 495.219 2896
-1918.68 496.929 2906
-1915.02 497.784 2911
-1908.05 497.784 2911
-1911.54 500.52 2927
-1914.3 503.085 2942
-1934.5 510.267 2984
-1927.36 510.267 2984
-1937.6 514.884 3011
-1955.4 521.554 3050
-1951.3 522.409 3055
-1962.45 527.368 3084
-1969.66 531.301 3107
-1976.75 535.234 3130
-1969.27 535.234 3130
-1973.07 538.312 3148
-1965.54 538.312 3148
-1961.74 539.338 3154
-1954.2 539.338 3154
-1950.36 540.364 3160
-1961.25 545.494 3190
-1953.62 545.494 3190
-1945.99 545.494 3190
-1949.3 548.572 3208
-1941.63 548.572 3208
-1933.96 548.572 3208
-1926.29 548.572 3208
-1929.98 551.821 3227
-1937.16 556.096 3252
-1963.79 566.014 3310
-1955.87 566.014 3310
-1971.5 572.854 3350
-1995.72 582.259 3405
-1991.67 583.456 3412
-1983.51 583.456 3412
-1999.67 590.638 3454
-2004.09 594.4 3476
-2007.84 597.991 3497
-1999.47 597.991 3497
-2004.21 601.924 3520
-1999.76 603.121 3527
-1991.32 603.121 3527
-1982.89 603.121 3527
-1974.46 603.121 3527
-1966.02 603.121 3527
-1969.8 606.883 3549
-1961.31 606.883 3549
-1952.82 606.883 3549
-1944.34 606.883 3549
-1935.85 606.883 3549
-1927.36 606.883 3549
-1918.88 606.883 3549
-1914.7 608.251 3557
-1910.48 609.619 3565
-1901.95 609.619 3565
-1893.43 609.619 3565
-1884.9 609.619 3565
-1876.38 609.619 3565
-1867.85 609.619 3565
-1862.98 610.816 3572
-1858.59 612.184 3580
-1850.03 612.184 3580
-1841.47 612.184 3580
-1832.91 612.184 3580
-1824.35 612.184 3580
-1819.84 613.552 3588
-1811.26 613.552 3588
-1806.2 614.749 3595
-1797.6 614.749 3595
-1789.01 614.749 3595
-1780.41 614.749 3595
-1771.81 614.749 3595
-1771.06 617.485 3611
-1762.43 617.485 3611
-1753.79 617.485 3611
-1749.03 618.853 3619
-1740.37 618.853 3619
-1742.72 622.786 3642
-1734.01 622.786 3642
-1740.94 628.429 3675
-1735.92 629.797 3683
-1738.37 633.901 3707
-1729.5 633.901 3707
-1732.24 638.176 3732
-1742.71 645.358 3774
-1737.82 646.897 3783
-1728.78 646.897 3783
-1723.82 648.436 3792
-1718.37 649.804 3800
-1717.38 652.882 3818
-1708.25 652.882 3818
-1699.12 652.882 3818
-1682.02 649.804 3800
-1672.94 649.804 3800
-1652.47 645.358 3774
-1632.55 641.083 3749
-1591.54 628.429 3675
-1565.53 621.589 3635
-1556.83 621.589 3635
-1541.33 618.853 3619
-1519.54 613.552 3588
-1491.59 605.686 3542
-1483.12 605.686 3542
-1465.49 601.924 3520
-1447.56 597.991 3497
-1439.19 597.991 3497
-1430.83 597.991 3497
-1407.82 591.835 3461
-1396.72 590.638 3454
-1377.2 585.85 3426
-1369.01 585.85 3426
-1344.13 578.668 3384
-1333.28 577.471 3377
-1322.46 576.274 3370
-1314.4 576.274 3370
-1306.34 576.274 3370
-1295.58 575.077 3363
-1285.24 574.051 3357
-1284.83 577.471 3377
-1276.75 577.471 3377
-1268.68 577.471 3377
-1260.6 577.471 3377
-1252.52 577.471 3377
-1259.93 584.653 3419
-1251.75 584.653 3419
-1243.57 584.653 3419
-1217.69 576.274 3370
-1209.64 576.274 3370
-1191.95 571.657 3343
-1183.96 571.657 3343
-1175.96 571.657 3343
-1167.97 571.657 3343
-873.388 469.227 2744
-878.198 475.383 2780
-871.55 475.383 2780
-866.458 476.238 2785
-865.664 479.487 2804
-863.248 481.881 2818
-856.509 481.881 2818
-849.77 481.881 2818
-843.032 481.881 2818
-836.293 481.881 2818
-826.905 480.342 2809
-832.743 487.695 2852
-825.923 487.695 2852
-819.103 487.695 2852
-810.859 486.84 2847
-802.639 485.985 2842
-790.522 482.736 2823
-783.772 482.736 2823
-761.171 494.364 2891
-762.346 499.665 2922
-755.359 499.665 2922
-748.371 499.665 2922
-738.593 497.784 2911
-736.097 604.318 3534
-727.646 604.318 3534
-720.823 605.686 3542
-712.353 605.686 3542
-703.883 605.686 3542
-695.413 605.686 3542
-686.943 605.686 3542
-669.854 597.991 3497
-656.005 593.032 3468
-647.712 593.032 3468
-646.241 599.359 3505
-640.59 601.924 3520
-632.172 601.924 3520
-624.995 603.121 3527
-616.561 603.121 3527
-608.127 603.121 3527
-599.693 603.121 3527
-592.432 604.318 3534
-586.46 606.883 3549
-579.276 608.251 3557
-570.77 608.251 3557
-565.9 612.184 3580
-557.339 612.184 3580
-548.778 612.184 3580
-540.218 612.184 3580
-532.845 613.552 3588
-526.456 616.117 3603
-520.14 618.853 3619
-511.486 618.853 3619
-503.944 620.221 3627
-495.27 620.221 3627
-486.597 620.221 3627
-477.924 620.221 3627
-468.215 618.853 3619
-459.561 618.853 3619
-450.907 618.853 3619
-442.253 618.853 3619
-435.516 621.589 3635
-428.585 624.154 3650
-420.777 625.522 3658
-412.029 625.522 3658
-405.156 628.429 3675
-398.094 631.165 3691
-390.111 632.533 3699
-381.266 632.533 3699
-376.548 639.544 3740
-369.276 642.451 3757
-362.785 646.897 3783
-353.739 646.897 3783
-345.513 648.436 3792
-337.155 649.804 3800
-328.068 649.804 3800
-318.981 649.804 3800
-310.628 651.343 3809
-302.232 652.882 3818
-296.479 660.406 3862
-287.244 660.406 3862
-279.305 663.484 3880
-270.026 663.484 3880
-260.748 663.484 3880
-251.47 663.484 3880
-240.506 658.867 3853
-230.212 655.789 3835
-220.523 654.25 3826
-211.374 654.25 3826
-199.476 645.358 3774
-110.92 375.861 2198
-105.664 375.861 2198
-100.408 375.861 2198
-94.7621 374.322 2189
-89.5275 374.322 2189
-84.1774 373.809 2186
-78.95 373.809 2186
-73.7226 373.809 2186
-68.4953 373.809 2186
-63.2679 373.809 2186
-58.0405 373.809 2186
-52.7648 373.467 2184
-47.4769 372.954 2181
-42.2614 372.954 2181
-37.046 372.954 2181
-31.8306 372.954 2181
-26.6151 372.954 2181
-21.3408 371.928 2175
-16.1397 371.928 2175
-10.9236 371.415 2172
-5.72966 371.415 2172
-0.535749 371.415 2172
4.6839 373.467 2184
9.9065 373.467 2184
15.143 373.809 2186
20.5101 376.374 2201
25.8085 376.887 2204
31.079 376.887 2204
36.7287 380.82 2227
42.1674 381.846 2233
47.571 382.359 2236
52.918 382.359 2236
58.6558 384.924 2251
64.124 385.437 2254
69.7299 386.634 2261
75.336 387.66 2267
80.7571 387.66 2267
86.2922 388.173 2270
92.3265 390.738 2285
97.9191 391.251 2288
103.39 391.251 2288
109.195 392.448 2295
114.833 392.961 2298
120.642 393.987 2304
126.152 393.987 2304
131.833 394.5 2307
137.588 395.184 2311
143.3 395.697 2314
148.833 395.697 2314
154.567 396.21 2317
160.107 396.21 2317
281.323 672.89 3935
290.732 672.89 3935
300.142 672.89 3935
310.26 674.429 3944
322.772 680.927 3982
332.294 680.927 3982
343.447 684.176 4001
355.573 689.135 4030
366.026 690.674 4039
376.614 692.384 4049
386.297 692.384 4049
398.913 697.514 4079
409.669 699.224 4089
419.447 699.224 4089
429.225 699.224 4089
561.992 515.91 3017
569.206 515.91 3017
576.421 515.91 3017
578.412 511.293 2990
585.562 511.293 2990
591.523 510.267 2984
597.655 509.412 2979
608.027 512.148 2995
617.449 514.029 3006
624.637 514.029 3006
634.137 515.91 3017
641.352 515.91 3017
648.566 515.91 3017
653.39 514.029 3006
654.645 509.412 2979
660.658 508.557 2974
667.77 508.557 2974
674.881 508.557 2974
681.993 508.557 2974
690.263 509.412 2979
699.962 511.293 2990
708.295 512.148 2995
715.457 512.148 2995
727.927 515.91 3017
735.141 515.91 3017
745.062 517.792 3028
752.303 517.792 3028
759.544 517.792 3028
768.051 518.646 3033
775.304 518.646 3033
782.557 518.646 3033
791.372 519.672 3039
798.639 519.672 3039
805.906 519.672 3039
813.173 519.672 3039
823.41 521.554 3050
832.066 522.409 3055
839.371 522.409 3055
846.676 522.409 3055
853.982 522.409 3055
864.67 524.461 3067
872.005 524.461 3067
879.339 524.461 3067
886.673 524.461 3067
892.258 523.435 3061
899.578 523.435 3061
908.675 524.461 3067
916.009 524.461 3067
923.343 524.461 3067
922.181 519.672 3039
929.448 519.672 3039
1172.55 599.359 3505
1180.93 599.359 3505
1196.78 603.121 3527
1210.34 605.686 3542
1218.81 605.686 3542
1227.28 605.686 3542
1235.75 605.686 3542
1246.67 606.883 3549
1255.16 606.883 3549
1263.65 606.883 3549
1272.13 606.883 3549
1278.1 605.686 3542
1286.57 605.686 3542
1295.04 605.686 3542
1303.51 605.686 3542
1317.53 608.251 3557
1329.02 609.619 3565
1337.54 609.619 3565
1348.71 610.816 3572
1360.29 612.184 3580
1368.86 612.184 3580
1377.42 612.184 3580
1385.98 612.184 3580
1385.58 608.251 3557
1394.08 608.251 3557
1393.52 604.318 3534
1393.24 600.556 3512
1387.27 594.4 3476
1381.13 588.244 3440
1389.36 588.244 3440
1383.37 582.259 3405
1371.89 574.051 3357
1371.7 570.631 3337
1379.68 570.631 3337
1384.75 569.434 3330
1389.78 568.237 3323
1395.21 567.211 3317
1403.14 567.211 3317
1399.58 562.594 3290
1399.32 559.345 3271
1404.56 558.319 3265
1409.34 557.122 3258
1417.13 557.122 3258
1422.3 556.096 3252
1427.44 555.07 3246
1432.11 553.873 3239
1439.85 553.873 3239
1447.6 553.873 3239
1458.49 555.07 3246
1466.25 555.07 3246
1474.01 555.07 3246
1478.58 553.873 3239
1483.57 552.847 3233
1488.53 551.821 3227
1496.25 551.821 3227
1497.91 549.598 3214
1499.97 547.546 3202
1504.8 546.52 3196
1501.09 542.416 3172
1508.68 542.416 3172
1507.66 539.338 3154
1500.79 534.208 3124
1494.26 529.249 3095
1501.66 529.249 3095
1492.48 523.435 3061
1491.47 520.528 3044
1474.62 512.148 2995
1468.43 507.531 2968
1475.52 507.531 2968
1467.14 502.23 2937
1451.07 494.364 2891
1452.94 492.654 2881
1459.83 492.654 2881
1464.17 491.799 2876
1465.94 490.089 2866
1470.73 489.405 2862
1477.58 489.405 2862
1481.83 488.55 2857
1486.06 487.695 2852
1490.26 486.84 2847
1494.44 485.985 2842
1501.23 485.985 2842
1508.03 485.985 2842
1512.16 485.13 2837
1516.27 484.275 2832
1523.04 484.275 2832
1527.65 483.591 2828
1534.41 483.591 2828
1538.45 482.736 2823
1545.2 482.736 2823
1549.2 481.881 2818
1553.18 481.026 2813
1559.91 481.026 2813
1566.64 481.026 2813
1571.12 480.342 2809
1575.03 479.487 2804
1576.1 477.777 2794
1582.78 477.777 2794
1589.46 477.777 2794
1596.14 477.777 2794
1605.69 478.632 2799
1615.26 479.487 2804
1621.97 479.487 2804
1628.68 479.487 2804
1635.38 479.487 2804
1642.09 479.487 2804
1648.79 479.487 2804
1655.5 479.487 2804
1665.17 480.342 2809
1674.26 481.026 2813
1680.99 481.026 2813
1687.72 481.026 2813
1694.44 481.026 2813
1701.17 481.026 2813
1707.9 481.026 2813
1714.62 481.026 2813
1718.9 480.342 2809
1728.08 481.026 2813
1734.8 481.026 2813
1741.53 481.026 2813
1748.26 481.026 2813
1754.98 481.026 2813
1761.71 481.026 2813
1768.44 481.026 2813
1775.16 481.026 2813
1779.36 480.342 2809
1782.9 479.487 2804
1789.6 479.487 2804
1796.31 479.487 2804
1803.01 479.487 2804
1806.49 478.632 2799
1813.18 478.632 2799
1819.88 478.632 2799
1823.31 477.777 2794
1827.37 477.093 2790
1834.04 477.093 2790
1840.71 477.093 2790
1847.38 477.093 2790
1850.73 476.238 2785
1857.39 476.238 2785
1864.05 476.238 2785
1870.71 476.238 2785
1874 475.383 2780
1874.56 473.844 2771
1881.19 473.844 2771
1887.81 473.844 2771
1884.87 471.45 2757
1891.46 471.45 2757
1898.05 471.45 2757
1904.65 471.45 2757
1911.24 471.45 2757
1915.05 470.766 2753
1921.63 470.766 2753
1928.22 470.766 2753
1931.28 469.911 2748
1937.86 469.911 2748
1947.97 470.766 2753
1957.39 471.45 2757
1963.98 471.45 2757
1970.57 471.45 2757
1977.17 471.45 2757
1983.76 471.45 2757
1987.46 470.766 2753
1990.43 469.911 2748
1997 469.911 2748
2013.78 472.305 2762
2024.04 473.16 2767
2030.66 473.16 2767
2043.9 474.699 2776
2050.54 474.699 2776
2067.55 477.093 2790
2074.22 477.093 2790
2091.34 479.487 2804
2108.52 481.881 2818
2122.76 483.591 2828
2129.52 483.591 2828
2143.08 485.13 2837
2161.24 487.695 2852
2171.86 488.55 2857
2178.69 488.55 2857
2185.52 488.55 2857
-2064.23 478.055 2757
-2057.64 478.055 2757
-2054.77 478.922 2762
-2048.16 478.922 2762
-2051.91 481.349 2776
-2051.9 482.91 2785
-2048.91 483.777 2790
-2042.24 483.777 2790
-2035.57 483.777 2790
-2025.26 482.91 2785
-2018.6 482.91 2785
-2011.94 482.91 2785
-2005.28 482.91 2785
-1992.16 481.349 2776
-1985.52 481.349 2776
-2036.6 500.423 2886
-2102.84 518.456 2990
-2095.69 518.456 2990
-2088.54 518.456 2990
-2066.07 514.641 2968
-2027.06 506.665 2922
-2016.62 505.798 2917
-1995.18 502.157 2896
-1988.25 502.157 2896
-1971.06 499.556 2881
-1960.76 498.689 2876
-1967.48 502.157 2896
-1960.55 502.157 2896
-1953.62 502.157 2896
-1946.7 502.157 2896
-1939.77 502.157 2896
-1932.85 502.157 2896
-1925.92 502.157 2896
-1928.94 504.758 2911
-1935.84 508.399 2932
-1928.83 508.399 2932
-1921.82 508.399 2932
-1935.05 513.774 2963
-1952.04 520.19 3000
-1952 522.097 3011
-1944.8 522.097 3011
-1976.85 532.675 3072
-1977.2 534.755 3084
-1969.83 534.755 3084
-1987.91 541.691 3124
-1988.04 543.772 3136
-1991.91 546.893 3154
-1984.37 546.893 3154
-1988.11 550.014 3172
-1980.52 550.014 3172
-1976.67 551.055 3178
-1969.07 551.055 3178
-1965.17 552.095 3184
-1972.32 556.256 3208
-1968.32 557.297 3214
-1960.63 557.297 3214
-1960.85 559.551 3227
-1953.13 559.551 3227
-1949.03 560.591 3233
-1941.3 560.591 3233
-1941.34 562.846 3246
-1952.64 568.394 3278
-1995.23 583.133 3363
-1987.19 583.133 3363
-1999.75 589.202 3398
-1999.83 591.629 3412
-2016.18 598.912 3454
-2007.93 598.912 3454
-2016.46 603.941 3483
-2008.13 603.941 3483
-2012.43 607.755 3505
-2004.05 607.755 3505
-2008.19 611.57 3527
-1999.76 611.57 3527
-1991.32 611.57 3527
-1982.89 611.57 3527
-1974.46 611.57 3527
-1978.28 615.385 3549
-1969.8 615.385 3549
-1961.31 615.385 3549
-1952.82 615.385 3549
-1944.34 615.385 3549
-1935.85 615.385 3549
-1927.36 615.385 3549
-1918.88 615.385 3549
-1914.7 616.772 3557
-1910.48 618.159 3565
-1901.95 618.159 3565
-1893.43 618.159 3565
-1880.67 616.772 3557
-1872.17 616.772 3557
-1863.66 616.772 3557
-1859.33 618.159 3565
-1854.44 619.373 3572
-1845.9 619.373 3572
-1837.35 619.373 3572
-1832.91 620.76 3580
-1824.35 620.76 3580
-1815.79 620.76 3580
-1807.23 620.76 3580
-1802.68 622.147 3588
-1794.1 622.147 3588
-1789.01 623.361 3595
-1780.41 623.361 3595
-1771.81 623.361 3595
-1767.14 624.748 3603
-1762.43 626.135 3611
-1753.79 626.135 3611
-1749.03 627.523 3619
-1740.37 627.523 3619
-1746.55 632.898 3650
-1737.82 632.898 3650
-1740.94 637.233 3675
-1735.92 638.62 3683
-1738.37 642.781 3707
-1729.5 642.781 3707
-1732.24 647.116 3732
-1734.86 651.451 3757
-1730.01 653.012 3766
-1721.01 653.012 3766
-1723.82 657.52 3792
-1718.37 658.907 3800
-1709.28 658.907 3800
-1700.2 658.907 3800
-1691.11 658.907 3800
-1682.02 658.907 3800
-1672.94 658.907 3800
-1652.47 654.399 3774
-1632.55 650.064 3749
-1595.01 638.62 3683
-1568.54 631.511 3642
-1559.83 631.511 3642
-1544.73 628.91 3627
-1522.51 623.361 3595
-1494.54 615.385 3549
-1486.05 615.385 3549
-1462.16 608.969 3512
-1447.56 606.368 3497
-1436.31 605.154 3490
-1427.97 605.154 3490
-1407.82 600.126 3461
-1393.89 597.698 3447
-1374.39 592.843 3419
-1366.21 592.843 3419
-1346.92 587.988 3391
-1336.04 586.774 3384
-1322.46 584.347 3370
-1314.4 584.347 3370
-1306.34 584.347 3370
-1295.58 583.133 3363
-1292.9 585.561 3377
-1292.82 589.202 3398
-1287.34 590.416 3405
-1279.19 590.416 3405
-1271.05 590.416 3405
-1268.1 592.843 3419
-1267.67 596.484 3440
-1259.44 596.484 3440
-1258.85 600.126 3461
-1253.1 601.34 3468
-1244.81 601.34 3468
-1236.52 601.34 3468
-878.198 482.043 2780
-871.55 482.043 2780
-866.458 482.91 2785
-865.664 486.204 2804
-863.248 488.632 2818
-856.509 488.632 2818
-849.77 488.632 2818
-843.032 488.632 2818
-836.293 488.632 2818
-826.905 487.071 2809
-835.663 496.261 2862
-828.819 496.261 2862
-821.975 496.261 2862
-812.283 494.527 2852
-802.639 492.793 2842
-906.074 637.233 3675
-897.286 637.233 3675
-896.235 642.781 3707
-887.37 642.781 3707
-878.506 642.781 3707
-783.042 637.233 3675
-774.254 637.233 3675
-765.466 637.233 3675
-732.382 616.772 3557
-723.876 616.772 3557
-715.37 616.772 3557
-706.864 616.772 3557
-698.358 616.772 3557
-689.852 616.772 3557
-678.473 614.171 3542
-661.491 606.368 3497
-657.424 610.356 3520
-655.829 616.772 3557
-647.323 616.772 3557
-640.254 618.159 3565
-631.729 618.159 3565
-623.204 618.159 3565
-614.679 618.159 3565
-603.434 615.385 3549
-596.288 616.772 3557
-590.261 619.373 3572
-583.022 620.76 3580
-574.461 620.76 3580
-565.9 620.76 3580
-559.674 623.361 3595
-551.078 623.361 3595
-542.481 623.361 3595
-535.072 624.748 3603
-527.625 626.135 3611
-521.29 628.91 3627
-512.617 628.91 3627
-503.944 628.91 3627
-495.27 628.91 3627
-486.597 628.91 3627
-477.924 628.91 3627
-469.25 628.91 3627
-459.561 627.523 3619
-450.907 627.523 3619
-442.253 627.523 3619
-436.355 631.511 3642
-428.585 632.898 3650
-420.777 634.285 3658
-412.029 634.285 3658
-405.156 637.233 3675
-398.094 640.007 3691
-390.111 641.394 3699
-381.266 641.394 3699
-374.938 645.729 3724
-368.49 650.064 3749
-361.155 653.012 3766
-352.149 653.012 3766
-345.513 657.52 3792
-336.445 657.52 3792
-327.377 657.52 3792
-318.309 657.52 3792
-309.894 658.907 3800
-301.519 660.468 3809
-293.716 663.416 3826
-284.567 663.416 3826
-278.009 669.658 3862
-268.774 669.658 3862
-259.539 669.658 3862
-249.72 668.097 3853
-238.821 663.416 3826
-229.672 663.416 3826
-217.526 654.399 3774
-208.501 654.399 3774
-199.476 654.399 3774
-110.92 381.126 2198
-105.664 381.126 2198
-100.408 381.126 2198
-95.0218 380.606 2195
-89.6502 380.085 2192
-84.2929 379.565 2189
-79.0584 379.565 2189
-73.8238 379.565 2189
-68.5893 379.565 2189
-63.3547 379.565 2189
-58.1201 379.565 2189
-52.8131 379.045 2186
-47.5422 378.698 2184
-42.3196 378.698 2184
-37.097 378.698 2184
-31.8743 378.698 2184
-26.6151 378.178 2181
-21.3703 377.658 2178
-16.162 377.658 2178
-10.9387 377.138 2175
-5.72966 376.618 2172
-0.537229 377.658 2178
4.68819 379.045 2186
9.91558 379.045 2186
15.2261 381.126 2198
20.5381 382.166 2204
25.9373 384.074 2215
31.2341 384.074 2215
36.7287 386.154 2227
42.1674 387.195 2233
47.7625 389.276 2245
53.131 389.276 2245
58.6558 390.316 2251
64.3231 392.05 2261
69.8224 392.57 2264
75.4357 393.61 2270
80.8639 393.61 2270
86.5203 394.651 2276
92.4478 396.732 2288
98.2186 397.945 2295
103.707 397.945 2295
109.337 398.466 2298
114.983 398.986 2301
120.642 399.506 2304
126.152 399.506 2304
131.833 400.026 2307
137.766 401.24 2314
143.485 401.76 2317
149.026 401.76 2317
154.567 401.76 2317
160.107 401.76 2317
281.323 682.316 3935
290.732 682.316 3935
300.829 683.876 3944
313.249 690.466 3982
325.041 695.321 4010
334.63 695.321 4010
347.567 702.083 4049
358.132 703.817 4059
369.651 707.285 4079
379.405 707.285 4079
389.159 707.285 4079
398.913 707.285 4079
408.667 707.285 4079
418.421 707.285 4079
570.116 517.416 2984
577.251 517.416 2984
584.387 517.416 2984
591.523 517.416 2984
596.652 515.682 2974
607.012 518.456 2990
617.449 521.23 3006
624.637 521.23 3006
634.137 523.138 3017
641.352 523.138 3017
648.566 523.138 3017
653.39 521.23 3006
653.546 515.682 2974
660.658 515.682 2974
670.015 517.416 2984
677.151 517.416 2984
684.286 517.416 2984
692.812 518.456 2990
699.962 518.456 2990
708.295 519.323 2995
715.457 519.323 2995
727.927 523.138 3017
741.72 527.819 3044
748.999 527.819 3044
756.278 527.819 3044
759.544 525.045 3028
768.051 525.912 3033
775.304 525.912 3033
782.557 525.912 3033
791.372 526.952 3039
798.639 526.952 3039
805.906 526.952 3039
813.173 526.952 3039
823.41 528.86 3050
832.066 529.727 3055
839.371 529.727 3055
846.676 529.727 3055
853.982 529.727 3055
864.67 531.808 3067
872.005 531.808 3067
879.339 531.808 3067
886.673 531.808 3067
892.258 530.767 3061
899.578 530.767 3061
908.675 531.808 3067
916.009 531.808 3067
923.343 531.808 3067
922.181 526.952 3039
929.448 526.952 3039
1104.25 589.202 3398
1112.38 589.202 3398
1129.73 594.057 3426
1147.23 598.912 3454
1172.55 607.755 3505
1180.93 607.755 3505
1196.78 611.57 3527
1205.21 611.57 3527
1213.64 611.57 3527
1222.08 611.57 3527
1235.75 614.171 3542
1246.67 615.385 3549
1255.16 615.385 3549
1263.65 615.385 3549
1272.13 615.385 3549
1278.1 614.171 3542
1286.57 614.171 3542
1295.04 614.171 3542
1303.51 614.171 3542
1320.49 618.159 3565
1331.63 619.373 3572
1340.17 619.373 3572
1354.75 622.147 3588
1363.33 622.147 3588
1371.91 622.147 3588
1380.49 622.147 3588
1389.07 622.147 3588
1385.58 616.772 3557
1394.08 616.772 3557
1393.52 612.784 3534
1396.42 610.356 3520
1390.07 603.941 3483
1386.75 598.912 3454
1395.01 598.912 3454
1389.05 592.843 3419
1374.34 583.133 3363
1374.17 579.665 3343
1382.16 579.665 3343
1381.84 576.197 3323
1389.78 576.197 3323
1395.21 575.157 3317
1403.14 575.157 3317
1399.58 570.475 3290
1399.32 567.18 3271
1404.56 566.14 3265
1409.34 564.926 3258
1417.13 564.926 3258
1422.3 563.886 3252
1424.36 561.632 3239
1432.11 561.632 3239
1439.85 561.632 3239
1447.6 561.632 3239
1455.34 561.632 3239
1463.09 561.632 3239
1470.83 561.632 3239
1478.58 561.632 3239
1480.82 559.551 3227
1485.77 558.511 3221
1493.47 558.511 3221
1497.91 557.297 3214
1499.97 555.216 3202
1504.8 554.176 3196
1501.09 550.014 3172
1508.68 550.014 3172
1507.66 546.893 3154
1503.67 542.732 3130
1497.15 537.703 3101
1504.57 537.703 3101
1495.41 531.808 3067
1494.41 528.86 3050
1480.04 521.23 3006
1476.34 517.416 2984
1483.48 517.416 2984
1475.13 512.04 2953
1456.09 503.024 2901
1457.98 501.29 2891
1464.9 501.29 2891
1464.17 498.689 2876
1468.49 497.822 2871
1472.79 496.955 2866
1479.64 496.955 2866
1484.42 496.261 2862
1486.06 494.527 2852
1487.64 492.793 2842
1494.44 492.793 2842
1501.23 492.793 2842
1505.38 491.926 2837
1509.5 491.059 2832
1514.13 490.366 2828
1520.89 490.366 2828
1527.65 490.366 2828
1531.7 489.499 2823
1535.73 488.632 2818
1542.47 488.632 2818
1546.46 487.765 2813
1553.18 487.765 2813
1557.69 487.071 2809
1564.41 487.071 2809
1568.33 486.204 2804
1572.23 485.337 2799
1576.1 484.47 2794
1580.51 483.777 2790
1589.46 484.47 2794
1596.14 484.47 2794
1602.82 484.47 2794
1612.38 485.337 2799
1619.08 485.337 2799
1625.77 485.337 2799
1635.38 486.204 2804
1642.09 486.204 2804
1648.79 486.204 2804
1655.5 486.204 2804
1662.2 486.204 2804
1671.88 487.071 2809
1678.6 487.071 2809
1685.32 487.071 2809
1692.03 487.071 2809
1695.73 486.204 2804
1705.47 487.071 2809
1712.19 487.071 2809
1718.9 487.071 2809
1728.08 487.765 2813
1734.8 487.765 2813
1741.53 487.765 2813
1748.26 487.765 2813
1754.98 487.765 2813
1761.71 487.765 2813
1768.44 487.765 2813
1772.64 487.071 2809
1779.36 487.071 2809
1782.9 486.204 2804
1789.6 486.204 2804
1796.31 486.204 2804
1803.01 486.204 2804
1806.49 485.337 2799
1809.94 484.47 2794
1816.62 484.47 2794
1823.31 484.47 2794
1827.37 483.777 2790
1834.04 483.777 2790
1840.71 483.777 2790
1847.38 483.777 2790
1850.73 482.91 2785
1857.39 482.91 2785
1864.05 482.91 2785
1870.71 482.91 2785
1874 482.043 2780
1874.56 480.482 2771
1881.19 480.482 2771
1887.81 480.482 2771
1884.87 478.055 2757
1891.46 478.055 2757
1898.05 478.055 2757
1904.65 478.055 2757
1911.24 478.055 2757
1915.05 477.361 2753
1921.63 477.361 2753
1928.22 477.361 2753
1931.28 476.494 2748
1937.86 476.494 2748
1947.97 477.361 2753
1957.39 478.055 2757
1963.98 478.055 2757
1970.57 478.055 2757
1977.17 478.055 2757
1983.76 478.055 2757
1987.46 477.361 2753
1990.43 476.494 2748
1997 476.494 2748
2013.78 478.922 2762
2024.04 479.789 2767
2030.66 479.789 2767
2043.9 481.349 2776
2050.54 481.349 2776
2067.55 483.777 2790
2074.22 483.777 2790
2091.34 486.204 2804
2108.52 488.632 2818
2122.76 490.366 2828
2129.52 490.366 2828
2143.08 491.926 2837
2161.24 494.527 2852
2171.86 495.394 2857
2178.69 495.394 2857
2185.52 495.394 2857
-2102.84 525.619 2990
-2095.69 525.619 2990
-2088.54 525.619 2990
-2066.07 521.751 2968
-2027.06 513.665 2922
-2016.62 512.786 2917
-1995.18 509.094 2896
-1988.25 509.094 2896
-1971.06 506.457 2881
-1960.76 505.578 2876
-1967.48 509.094 2896
-1960.55 509.094 2896
-1953.62 509.094 2896
-1946.7 509.094 2896
-1939.77 509.094 2896
-1932.85 509.094 2896
-1925.92 509.094 2896
-1928.94 511.731 2911
-1935.84 515.423 2932
-1928.83 515.423 2932
-1921.82 515.423 2932
-1935.05 520.872 2963
-1952.04 527.377 3000
-1952 529.31 3011
-1944.8 529.31 3011
-1976.85 540.034 3072
-1977.2 542.143 3084
-1969.83 542.143 3084
-1987.91 549.175 3124
-1988.04 551.284 3136
-1991.91 554.448 3154
-1984.37 554.448 3154
-1988.11 557.613 3172
-1980.52 557.613 3172
-1976.67 558.668 3178
-1969.07 558.668 3178
-1965.17 559.722 3184
-1972.32 563.941 3208
-1968.32 564.996 3214
-1960.63 564.996 3214
-1960.85 567.281 3227
-1953.13 567.281 3227
-1949.03 568.336 3233
-1941.3 568.336 3233
-1941.34 570.621 3246
-1952.64 576.247 3278
-1995.23 591.189 3363
-1987.19 591.189 3363
-1999.75 597.342 3398
-1999.83 599.803 3412
-2016.18 607.186 3454
-2007.93 607.186 3454
-2016.46 612.284 3483
-2008.13 612.284 3483
-2012.43 616.152 3505
-2004.05 616.152 3505
-2008.19 620.019 3527
-1999.76 620.019 3527
-1991.32 620.019 3527
-1982.89 620.019 3527
-1974.46 620.019 3527
-1978.28 623.886 3549
-1969.8 623.886 3549
-1961.31 623.886 3549
-1952.82 623.886 3549
-1944.34 623.886 3549
-1935.85 623.886 3549
-1927.36 623.886 3549
-1918.88 623.886 3549
-1914.7 625.293 3557
-1910.48 626.699 3565
-1901.95 626.699 3565
-1893.43 626.699 3565
-1880.67 625.293 3557
-1872.17 625.293 3557
-1863.66 625.293 3557
-1859.33 626.699 3565
-1854.44 627.93 3572
-1845.9 627.93 3572
-1837.35 627.93 3572
-1832.91 629.336 3580
-1824.35 629.336 3580
-1815.79 629.336 3580
-1807.23 629.336 3580
-1802.68 630.742 3588
-1794.1 630.742 3588
-1789.01 631.973 3595
-1780.41 631.973 3595
-1771.81 631.973 3595
-1767.14 633.379 3603
-1762.43 634.786 3611
-1753.79 634.786 3611
-1749.03 636.192 3619
-1740.37 636.192 3619
-1746.55 641.641 3650
-1737.82 641.641 3650
-1740.94 646.036 3675
-1735.92 647.443 3683
-1738.37 651.662 3707
-1729.5 651.662 3707
-1735.96 657.463 3740
-1734.86 660.451 3757
-1730.01 662.033 3766
-1721.01 662.033 3766
-1727.46 668.01 3800
-1718.37 668.01 3800
-1713.33 669.592 3809
-1704.22 669.592 3809
-1695.12 669.592 3809
-1686.01 669.592 3809
-1676.9 669.592 3809
-1656.41 665.022 3783
-1636.04 660.451 3757
-1595.01 647.443 3683
-1575.43 643.048 3658
-1566.68 643.048 3658
-1548.14 639.005 3635
-1525.9 633.379 3603
-1497.91 625.293 3557
-1489.4 625.293 3557
-1462.16 617.382 3512
-1450.87 616.152 3505
-1436.31 613.515 3490
-1427.97 613.515 3490
-1407.82 608.417 3461
-1393.89 605.956 3447
-1374.39 601.033 3419
-1366.21 601.033 3419
-1346.92 596.111 3391
-1336.04 594.881 3384
-1322.46 592.42 3370
-1314.4 592.42 3370
-1306.34 592.42 3370
-1298.28 592.42 3370
-1295.58 594.881 3384
-1295.48 598.572 3405
-1292.63 601.033 3419
-1284.45 601.033 3419
-1276.28 601.033 3419
-1275.89 604.725 3440
-1275.4 608.417 3461
-1267.13 608.417 3461
-1261.4 609.647 3468
-1263.58 614.745 3497
-1255.22 614.745 3497
-1246.86 614.745 3497
-1238.5 614.745 3497
-1238.22 618.788 3520
-1234.7 621.25 3534
-1226.25 621.25 3534
-1217.8 621.25 3534
-1209.35 621.25 3534
-1200.89 621.25 3534
-878.198 488.702 2780
-871.55 488.702 2780
-866.458 489.581 2785
-865.664 492.921 2804
-863.248 495.382 2818
-856.509 495.382 2818
-849.77 495.382 2818
-843.032 495.382 2818
-836.293 495.382 2818
-826.905 493.8 2809
-835.663 503.117 2862
-828.819 503.117 2862
-821.975 503.117 2862
-812.283 501.359 2852
-802.639 499.601 2842
-925.069 653.244 3716
-916.183 653.244 3716
-907.297 653.244 3716
-898.411 653.244 3716
-889.525 653.244 3716
-880.639 653.244 3716
-875.506 656.056 3732
-866.582 656.056 3732
-857.657 656.056 3732
-846.914 654.65 3724
-838.009 654.65 3724
-829.103 654.65 3724
-820.198 654.65 3724
-809.55 653.244 3716
-797.001 650.255 3699
-788.156 650.255 3699
-777.625 648.849 3691
-767.132 647.443 3683
-758.325 647.443 3683
-749.518 647.443 3683
-740.711 647.443 3683
-725.346 641.641 3650
-715.047 640.235 3642
-706.338 640.235 3642
-691.69 634.786 3611
-681.542 633.379 3603
-672.926 633.379 3603
-667.26 636.192 3619
-658.606 636.192 3619
-649.952 636.192 3619
-641.298 636.192 3619
-632.644 636.192 3619
-621.231 633.379 3603
-608.704 629.336 3580
-600.144 629.336 3580
-592.905 630.742 3588
-584.325 630.742 3588
-575.745 630.742 3588
-569.536 633.379 3603
-560.92 633.379 3603
-552.304 633.379 3603
-543.688 633.379 3603
-535.072 633.379 3603
-527.625 634.786 3611
-521.29 637.598 3627
-512.617 637.598 3627
-503.944 637.598 3627
-495.27 637.598 3627
-486.597 637.598 3627
-477.924 637.598 3627
-469.25 637.598 3627
-459.561 636.192 3619
-450.907 636.192 3619
-442.253 636.192 3619
-436.355 640.235 3642
-428.585 641.641 3650
-420.777 643.048 3658
-412.029 643.048 3658
-405.156 646.036 3675
-398.094 648.849 3691
-390.111 650.255 3699
-381.266 650.255 3699
-374.938 654.65 3724
-368.49 659.045 3749
-361.155 662.033 3766
-352.149 662.033 3766
-345.513 666.604 3792
-336.445 666.604 3792
-327.377 666.604 3792
-318.309 666.604 3792
-309.894 668.01 3800
-301.519 669.592 3809
-293.716 672.581 3826
-284.567 672.581 3826
-278.009 678.909 3862
-268.774 678.909 3862
-259.539 678.909 3862
-249.72 677.327 3853
-238.821 672.581 3826
-229.672 672.581 3826
-217.526 663.44 3774
-208.501 663.44 3774
-199.476 663.44 3774
-111.071 386.919 2201
-105.808 386.919 2201
-100.545 386.919 2201
-95.1517 386.391 2198
-89.7729 385.864 2195
-84.524 385.864 2195
-79.2751 385.864 2195
-74.0262 385.864 2195
-68.7773 385.864 2195
-63.5283 385.864 2195
-58.2794 385.864 2195
-52.8856 384.809 2189
-47.5857 384.282 2186
-42.3583 384.282 2186
-37.1309 384.282 2186
-31.9035 384.282 2186
-26.6517 383.93 2184
-21.3997 383.403 2181
-16.1843 383.403 2181
-10.9537 382.875 2178
-5.74549 382.875 2178
-0.538709 383.93 2184
4.69462 384.809 2189
9.92918 384.809 2189
15.2469 386.919 2201
20.566 387.973 2207
26.0427 390.962 2224
31.361 390.962 2224
36.8277 392.544 2233
42.394 394.653 2245
47.954 396.236 2254
53.344 396.236 2254
58.734 396.236 2254
64.4085 397.993 2264
70.0074 399.048 2270
75.6351 400.103 2276
81.0777 400.103 2276
86.7484 401.158 2282
92.7306 403.443 2295
98.4754 404.498 2301
103.978 404.498 2301
109.48 404.498 2301
115.132 405.025 2304
120.799 405.553 2307
126.316 405.553 2307
132.061 406.256 2311
137.766 406.783 2314
143.485 407.31 2317
149.026 407.31 2317
154.567 407.31 2317
160.107 407.31 2317
281.966 693.324 3944
291.397 693.324 3944
300.829 693.324 3944
315.452 704.927 4010
328.202 711.783 4049
337.885 711.783 4049
349.284 715.298 4069
360.779 718.814 4089
370.557 718.814 4089
380.335 718.814 4089
390.113 718.814 4089
398.913 717.056 4079
670.015 524.564 2984
677.151 524.564 2984
684.286 524.564 2984
692.812 525.619 2990
699.962 525.619 2990
