ply
format ascii 1.0
comment File generated
element vertex 2249
property float x
property float y
property float z
end_header
755.207 444.427 2927
762.207 444.427 2927
769.206 444.427 2927
776.205 444.427 2927
781.867 443.668 2922
788.854 443.668 2922
795.841 443.668 2922
806.95 445.946 2937
813.973 445.946 2937
820.997 445.946 2937
828.02 445.946 2937
835.043 445.946 2937
842.066 445.946 2937
849.09 445.946 2937
854.655 445.186 2932
861.667 445.186 2932
868.678 445.186 2932
874.196 444.427 2927
879.69 443.668 2922
886.677 443.668 2922
893.665 443.668 2922
897.262 441.998 2911
904.223 441.998 2911
916.192 444.427 2927
931.392 448.375 2953
938.453 448.375 2953
962.485 456.422 3006
994.834 468.266 3084
1028.86 480.716 3166
1036.43 480.716 3166
1055.87 486.182 3202
1115.01 509.717 3357
1136.75 515.942 3398
1144.88 515.942 3398
1169.63 523.382 3447
1192.57 529.911 3490
1206.07 532.189 3505
1214.46 532.189 3505
1225.28 533.252 3512
1233.68 533.252 3512
1242.08 533.252 3512
1250.47 533.252 3512
1253.5 530.974 3497
1259.33 529.911 3490
1267.68 529.911 3490
1276.02 529.911 3490
1284.37 529.911 3490
1298.27 532.189 3505
1317.46 536.592 3534
1325.91 536.592 3534
1337.39 537.807 3542
1345.86 537.807 3542
1354.33 537.807 3542
1362.8 537.807 3542
1368.17 536.592 3534
1371.17 534.467 3520
1379.58 534.467 3520
1378.93 530.974 3497
1364.68 522.32 3440
1367.32 520.194 3426
1355.84 512.754 3377
1363.91 512.754 3377
1352.9 505.617 3330
1347.37 500.607 3297
1352.38 499.544 3290
1360.25 499.544 3290
1365.62 498.633 3284
1370.96 497.722 3278
1375.86 496.659 3271
1381.14 495.748 3265
1388.95 495.748 3265
1393.76 494.685 3258
1401.55 494.685 3258
1409.34 494.685 3258
1417.13 494.685 3258
1424.92 494.685 3258
1435.79 495.748 3265
1446.25 496.659 3271
1454.08 496.659 3271
1461.9 496.659 3271
1475.56 498.633 3284
1483.41 498.633 3284
1491.27 498.633 3284
1493.19 496.659 3271
1498.25 495.748 3265
1500.07 493.774 3252
1507.84 493.774 3252
1506.76 490.889 3233
1505.59 488.004 3214
1507.63 486.182 3202
1501.09 481.627 3172
1508.68 481.627 3172
1499.05 476.161 3136
1489.74 470.847 3101
1472.53 463.103 3050
1479.82 463.103 3050
1457.86 453.993 2990
1451.78 449.893 2963
1438.68 443.668 2922
1440.23 441.998 2911
1447.19 441.998 2911
1444.16 438.961 2891
1443.54 436.683 2876
1447.9 435.924 2871
1454.76 435.924 2871
1457.05 434.558 2862
1463.89 434.558 2862
1468.17 433.799 2857
1475 433.799 2857
1479.24 433.039 2852
1480.85 431.521 2842
1485.02 430.762 2837
1489.18 430.003 2832
1495.95 430.003 2832
1502.72 430.003 2832
1509.5 430.003 2832
1514.13 429.395 2828
1520.89 429.395 2828
1524.95 428.636 2823
1528.99 427.877 2818
1530.82 426.51 2809
1537.54 426.51 2809
1541.51 425.751 2804
1548.21 425.751 2804
1547.15 423.625 2790
1553.83 423.625 2790
1560.5 423.625 2790
1567.17 423.625 2790
1576.1 424.233 2794
1585.61 424.992 2799
1592.3 424.992 2799
1599 424.992 2799
1605.69 424.992 2799
1612.38 424.992 2799
1619.08 424.992 2799
1625.77 424.992 2799
1635.38 425.751 2804
1642.09 425.751 2804
1651.73 426.51 2809
1658.45 426.51 2809
1667.54 427.118 2813
1677.24 427.877 2818
1683.98 427.877 2818
1693.72 428.636 2823
1700.47 428.636 2823
1707.22 428.636 2823
1713.97 428.636 2823
1720.72 428.636 2823
1727.47 428.636 2823
1731.15 427.877 2818
1734.8 427.118 2813
1741.53 427.118 2813
1748.26 427.118 2813
1754.98 427.118 2813
1761.71 427.118 2813
1768.44 427.118 2813
1775.16 427.118 2813
1779.36 426.51 2809
1782.9 425.751 2804
1789.6 425.751 2804
1793.1 424.992 2799
1796.58 424.233 2794
1803.26 424.233 2794
1809.94 424.233 2794
1816.62 424.233 2794
1817.43 422.866 2785
1820.82 422.107 2780
1827.47 422.107 2780
1834.11 422.107 2780
1838.11 421.5 2776
1841.43 420.741 2771
1845.39 420.133 2767
1852 420.133 2767
1858.62 420.133 2767
1867.93 420.741 2771
1874.56 420.741 2771
1881.19 420.741 2771
1885.09 420.133 2767
1884.87 418.615 2757
1898.32 420.133 2767
1904.94 420.133 2767
1911.55 420.133 2767
1918.17 420.133 2767
1924.79 420.133 2767
1931.4 420.133 2767
1938.02 420.133 2767
1944.64 420.133 2767
1951.25 420.133 2767
1957.87 420.133 2767
1967.33 420.741 2771
1973.95 420.741 2771
1980.58 420.741 2771
1987.21 420.741 2771
1993.83 420.741 2771
2000.46 420.741 2771
2004.19 420.133 2767
1994.09 416.641 2744
1997.01 415.882 2739
2016.72 418.615 2757
2023.32 418.615 2757
2029.91 418.615 2757
2036.5 418.615 2757
2043.09 418.615 2757
2036.31 415.882 2739
2046.58 416.641 2744
2053.15 416.641 2744
2059.71 416.641 2744
2062.5 415.882 2739
2062.26 414.515 2730
2065.75 413.908 2726
2072.27 413.908 2726
2074.98 413.149 2721
2081.48 413.149 2721
-2106.16 433.856 2813
-2099.44 433.856 2813
-2092.71 433.856 2813
-2079.31 432.468 2804
-2068.91 431.697 2799
-2076.21 434.627 2818
-2069.47 434.627 2818
-2062.73 434.627 2818
-2056 434.627 2818
-2042.71 433.239 2809
-2038.89 433.856 2813
-2032.17 433.856 2813
-2025.44 433.856 2813
-2018.71 433.856 2813
-2011.99 433.856 2813
-1991.72 430.926 2794
-1995.69 433.239 2809
-2019.42 439.871 2852
-2012.6 439.871 2852
-2005.78 439.871 2852
-1998.96 439.871 2852
-1985.16 438.329 2842
-1978.36 438.329 2842
-1958.38 435.399 2823
-1951.63 435.399 2823
-1948.33 436.17 2828
-1941.57 436.17 2828
-1934.8 436.17 2828
-1928.04 436.17 2828
-1921.28 436.17 2828
-1914.51 436.17 2828
-1907.75 436.17 2828
-1903.68 436.787 2832
-1896.91 436.787 2832
-1890.13 436.787 2832
-1883.36 436.787 2832
-1886.53 439.1 2847
-1886.32 440.643 2857
-1879.49 440.643 2857
-1872.66 440.643 2857
-1865.83 440.643 2857
-1864.85 442.031 2866
-1867.72 444.344 2881
-1860.83 444.344 2881
-1866.81 447.429 2901
-1866.29 448.971 2911
-1866.35 450.668 2922
-1859.37 450.668 2922
-1865.06 453.752 2942
-1868.13 456.22 2958
-1884.33 461.927 2995
-1877.17 461.927 2995
-1870.01 461.927 2995
-1862.85 461.927 2995
-1855.68 461.927 2995
-1841.73 460.23 2984
-1851.2 464.394 3011
-1878.29 473.031 3067
-1874.01 473.803 3072
-1866.66 473.803 3072
-1862.95 474.728 3078
-1855.59 474.728 3078
-1848.23 474.728 3078
-1840.87 474.728 3078
-1833.51 474.728 3078
-1871.24 486.45 3154
-1877.88 490.151 3178
-1887.93 494.778 3208
-1906.05 501.564 3252
-1916.95 506.5 3284
-1909.1 506.5 3284
-1912.25 509.43 3303
-1927.41 515.6 3343
-1946.97 523.003 3391
-1938.87 523.003 3391
-1938.73 525.162 3405
-1946.46 529.48 3433
-1950.11 532.719 3454
-1941.85 532.719 3454
-1941.43 534.879 3468
-1945.4 538.272 3490
-1945.38 540.585 3505
-1936.99 540.585 3505
-1932.47 541.665 3512
-1928.45 542.899 3520
-1920.03 542.899 3520
-1911.62 542.899 3520
-1906.98 543.978 3527
-1898.55 543.978 3527
-1901.9 547.371 3549
-1893.42 547.371 3549
-1889.18 548.605 3557
-1880.67 548.605 3557
-1880.06 550.919 3572
-1871.52 550.919 3572
-1867.15 552.153 3580
-1862.74 553.387 3588
-1861.92 555.7 3603
-1853.3 555.7 3603
-1848.78 556.934 3611
-1840.14 556.934 3611
-1831.51 556.934 3611
-1822.87 556.934 3611
-1822.28 559.402 3627
-1817.61 560.635 3635
-1812.4 561.715 3642
-1803.69 561.715 3642
-1802.86 564.183 3658
-1798.53 565.571 3667
-1793.67 566.805 3675
-1784.88 566.805 3675
-1779.96 568.039 3683
-1771.15 568.039 3683
-1778.13 573.128 3716
-1769.25 573.128 3716
-1784.05 580.84 3766
-1791.07 586.084 3800
-1781.98 586.084 3800
-1772.89 586.084 3800
-1767.98 587.472 3809
-1770.88 591.482 3835
-1761.71 591.482 3835
-1752.54 591.482 3835
-1755.64 595.646 3862
-1758.62 599.811 3889
-1753.37 601.199 3898
-1744.04 601.199 3898
-1734.72 601.199 3898
-1725.4 601.199 3898
-1716.08 601.199 3898
-1679.17 591.482 3835
-1654.76 586.084 3800
-1623.59 578.218 3749
-1582.75 566.805 3675
-1573.97 566.805 3675
-1541.33 558.168 3619
-1516.16 552.153 3580
-1497.91 548.605 3557
-1489.4 548.605 3557
-1465.49 542.899 3520
-1444.66 538.272 3490
-1430.55 536.112 3476
-1422.24 536.112 3476
-1404.98 532.719 3454
-1385.4 528.401 3426
-1368.76 525.162 3405
-1360.62 525.162 3405
-1335.79 518.684 3363
-1311.96 512.515 3323
-1298.91 510.51 3310
-1288.27 509.43 3303
-1280.37 509.43 3303
-1270.16 508.505 3297
-1255 505.574 3278
-1237.27 501.564 3252
-1229.49 501.564 3252
-1214.58 498.634 3233
-1197.51 494.778 3208
-1174.27 488.3 3166
-1166.69 488.3 3166
-1156.93 487.375 3160
-1142.82 484.599 3142
-1133.14 483.673 3136
-1125.64 483.673 3136
-1109.59 479.972 3112
-1094 476.424 3089
-1084.85 475.653 3084
-1071.54 473.031 3067
-1064.2 473.031 3067
-1056.87 473.031 3067
-1049.54 473.031 3067
-1032.69 468.713 3039
-1025.42 468.713 3039
-1001.74 461.155 2990
-964.982 447.429 2901
-953.091 445.115 2886
-946.19 445.115 2886
-939.289 445.115 2886
-921.403 439.871 2852
-902.076 433.856 2813
-895.35 433.856 2813
-887.359 433.239 2809
-880.642 433.239 2809
-876.725 434.627 2818
-882.027 440.643 2857
-875.195 440.643 2857
-872.618 442.802 2871
-865.753 442.802 2871
-858.887 442.802 2871
-852.022 442.802 2871
-845.156 442.802 2871
-851.722 449.896 2917
-844.747 449.896 2917
-837.771 449.896 2917
-830.796 449.896 2917
-822.126 448.971 2911
-819.645 451.439 2927
-814.034 452.21 2932
-807.023 452.21 2932
-800.011 452.21 2932
-791.648 451.439 2927
-787.329 452.981 2937
-780.306 452.981 2937
-774.599 453.752 2942
-767.564 453.752 2942
-760.529 453.752 2942
-753.494 453.752 2942
-743.921 452.21 2932
-733.14 449.896 2917
-726.164 449.896 2917
-719.189 449.896 2917
-712.214 449.896 2917
-705.238 449.896 2917
-698.263 449.896 2917
-687.495 447.429 2901
-678.212 445.886 2891
-665.494 442.031 2866
-658.641 442.031 2866
-649.872 470.409 3050
-658.168 481.823 3124
-650.698 481.823 3124
-646.934 484.599 3142
-639.42 484.599 3142
-631.907 484.599 3142
-624.393 484.599 3142
-616.88 484.599 3142
-609.366 484.599 3142
-601.853 484.599 3142
-594.339 484.599 3142
-591.308 488.3 3166
-585.95 490.151 3178
-580.534 492.002 3190
-572.906 492.002 3190
-569.531 495.704 3214
-566.215 499.559 3239
-559.677 500.639 3246
-551.915 500.639 3246
-544.153 500.639 3246
-536.39 500.639 3246
-531.722 503.569 3265
-523.915 503.569 3265
-516.107 503.569 3265
-550.178 545.058 3534
-547.552 550.919 3572
-539.01 550.919 3572
-532.845 553.387 3588
-526.456 555.7 3603
-518.99 556.934 3611
-510.355 556.934 3611
-503.944 559.402 3627
-495.27 559.402 3627
-486.597 559.402 3627
-476.87 558.168 3619
-467.18 556.934 3611
-458.545 556.934 3611
-449.91 556.934 3611
-441.275 556.934 3611
-435.516 560.635 3635
-432.46 568.039 3683
-425.493 570.506 3699
-416.648 570.506 3699
-408.684 571.74 3707
-400.79 573.128 3716
-392.748 574.362 3724
-383.843 574.362 3724
-375.743 575.596 3732
-368.49 578.218 3749
-360.292 579.452 3757
-351.308 579.452 3757
-344.693 583.462 3783
-336.445 584.85 3792
-328.068 586.084 3800
-318.981 586.084 3800
-309.894 586.084 3800
-302.232 588.86 3818
-294.407 591.482 3835
-285.236 591.482 3835
-276.065 591.482 3835
-266.895 591.482 3835
-258.329 592.87 3844
-249.137 592.87 3844
-239.945 592.87 3844
-229.672 590.094 3826
-220.062 588.86 3818
-210.932 588.86 3818
-200.427 584.85 3792
-111.071 339.466 2201
-105.808 339.466 2201
-100.545 339.466 2201
-94.6322 337.152 2186
-89.2003 336.381 2181
-83.8694 335.919 2178
-78.8778 336.844 2184
-73.6552 336.844 2184
-68.4326 336.844 2184
-63.21 336.844 2184
-57.9874 336.844 2184
-52.5473 335.456 2175
-47.3462 335.456 2175
-42.1452 335.456 2175
-36.9441 335.456 2175
-31.743 335.456 2175
-26.5419 335.456 2175
-21.282 334.53 2169
-16.0952 334.53 2169
-10.9085 334.53 2169
-5.71647 334.222 2167
-0.534516 334.222 2167
4.64744 334.222 2167
9.83846 334.53 2169
15.0252 334.53 2169
20.2678 335.456 2175
25.5392 336.381 2181
30.952 338.541 2195
36.201 338.541 2195
41.5632 339.466 2201
47.0817 341.317 2213
52.421 341.625 2215
57.7177 341.625 2215
63.3559 343.476 2227
68.9589 344.864 2236
74.4055 345.327 2239
79.7596 345.327 2239
85.3419 346.252 2245
91.3568 348.72 2261
97.2771 350.571 2273
102.713 350.571 2273
108.433 351.496 2279
114.333 352.884 2288
120.642 355.352 2304
126.152 355.352 2304
132.233 356.894 2314
138.123 357.82 2320
143.671 357.82 2320
149.219 357.82 2320
155.634 359.825 2333
161.697 360.904 2340
167.292 360.904 2340
172.888 360.904 2340
300.142 606.905 3935
313.249 614.154 3982
322.772 614.154 3982
332.294 614.154 3982
341.816 614.154 3982
339.162 592.87 3844
349.17 594.258 3853
360.895 598.422 3880
370.173 598.422 3880
380.332 599.811 3889
398.949 614.154 3982
410.42 617.085 4001
419.988 617.085 4001
432.669 621.557 4030
445.489 626.03 4059
457.438 629.115 4079
467.192 629.115 4079
476.946 629.115 4079
488.988 457.762 2968
500.598 461.927 2995
507.76 461.927 2995
514.922 461.927 2995
522.084 461.927 2995
530.129 462.698 3000
537.303 462.698 3000
546.474 464.394 3011
553.674 464.394 3011
560.874 464.394 3011
567.131 463.623 3006
573.173 462.698 3000
580.347 462.698 3000
587.521 462.698 3000
594.694 462.698 3000
601.868 462.698 3000
609.042 462.698 3000
616.216 462.698 3000
623.39 462.698 3000
629.513 461.927 2995
635.612 461.155 2990
642.762 461.155 2990
649.912 461.155 2990
650.03 456.22 2958
655.993 455.449 2953
663.054 455.449 2953
668.754 454.523 2947
674.655 453.752 2942
681.69 453.752 2942
688.725 453.752 2942
695.76 453.752 2942
701.601 452.981 2937
709.831 453.752 2942
716.866 453.752 2942
723.901 453.752 2942
730.937 453.752 2942
737.972 453.752 2942
745.007 453.752 2942
752.042 453.752 2942
759.077 453.752 2942
763.509 452.21 2932
770.52 452.21 2932
777.531 452.21 2932
784.542 452.21 2932
790.204 451.439 2927
797.203 451.439 2927
805.576 452.21 2932
813.973 452.981 2937
820.997 452.981 2937
829.43 453.752 2942
836.465 453.752 2942
843.5 453.752 2942
850.535 453.752 2942
856.113 452.981 2937
860.197 451.439 2927
867.197 451.439 2927
874.196 451.439 2927
881.195 451.439 2927
888.195 451.439 2927
895.194 451.439 2927
899.111 449.896 2917
906.087 449.896 2917
917.757 452.21 2932
931.392 455.449 2953
938.453 455.449 2953
987.46 475.653 3084
1005.8 480.897 3118
1038.61 492.927 3196
1046.25 492.927 3196
1066.09 498.634 3233
1115.01 517.759 3357
1136.75 524.082 3398
1144.88 524.082 3398
1172.01 532.719 3454
1192.57 538.272 3490
1206.07 540.585 3505
1214.46 540.585 3505
1225.28 541.665 3512
1233.68 541.665 3512
1242.08 541.665 3512
1250.47 541.665 3512
1253.5 539.351 3497
1259.33 538.272 3490
1267.68 538.272 3490
1276.02 538.272 3490
1284.37 538.272 3490
1298.27 540.585 3505
1314.85 543.978 3527
1323.29 543.978 3527
1334.36 545.058 3534
1342.82 545.058 3534
1351.27 545.058 3534
1359.72 545.058 3534
1368.17 545.058 3534
1371.17 542.899 3520
1379.58 542.899 3520
1373.41 537.192 3483
1364.68 530.56 3440
1358.94 525.162 3405
1355.84 520.843 3377
1363.91 520.843 3377
1347.61 511.59 3317
1347.37 508.505 3297
1352.38 507.425 3290
1360.25 507.425 3290
1365.62 506.5 3284
1370.96 505.574 3278
1375.86 504.495 3271
1378.18 502.49 3258
1385.97 502.49 3258
1388.63 500.639 3246
1398.97 501.564 3252
1406.75 501.564 3252
1414.52 501.564 3252
1422.3 501.564 3252
1430.08 501.564 3252
1440.51 502.49 3258
1451.41 503.569 3265
1459.22 503.569 3265
1469.72 504.495 3271
1477.54 504.495 3271
1485.36 504.495 3271
1490.45 503.569 3265
1495.04 502.49 3258
1497.3 500.639 3246
1505.06 500.639 3246
1503.97 497.709 3227
1505.59 495.704 3214
1507.63 493.853 3202
1498.25 488.3 3166
1505.82 488.3 3166
1501.92 484.599 3142
1492.62 479.201 3107
1474.94 471.181 3055
1482.25 471.181 3055
1460.3 461.927 2995
1451.78 456.991 2963
1438.68 450.668 2922
1440.23 448.971 2911
1447.19 448.971 2911
1444.16 445.886 2891
1443.54 443.573 2876
1447.9 442.802 2871
1454.76 442.802 2871
1457.05 441.414 2862
1463.89 441.414 2862
1468.17 440.643 2857
1475 440.643 2857
1479.24 439.871 2852
1480.85 438.329 2842
1485.02 437.558 2837
1491.81 437.558 2837
1498.59 437.558 2837
1505.38 437.558 2837
1509.5 436.787 2832
1514.13 436.17 2828
1520.89 436.17 2828
1527.65 436.17 2828
1528.99 434.627 2818
1530.82 433.239 2809
1537.54 433.239 2809
1541.51 432.468 2804
1548.21 432.468 2804
1547.15 430.309 2790
1553.83 430.309 2790
1560.5 430.309 2790
1567.17 430.309 2790
1573.84 430.309 2790
1582.78 430.926 2794
1592.3 431.697 2799
1599 431.697 2799
1605.69 431.697 2799
1612.38 431.697 2799
1619.08 431.697 2799
1625.77 431.697 2799
1632.46 431.697 2799
1639.16 431.697 2799
1648.79 432.468 2804
1655.5 432.468 2804
1665.17 433.239 2809
1674.26 433.856 2813
1680.99 433.856 2813
1690.72 434.627 2818
1697.46 434.627 2818
1704.19 434.627 2818
1710.93 434.627 2818
1717.67 434.627 2818
1724.41 434.627 2818
1728.08 433.856 2813
1732.34 433.239 2809
1739.05 433.239 2809
1745.77 433.239 2809
1754.98 433.856 2813
1761.71 433.856 2813
1768.44 433.856 2813
1772.64 433.239 2809
1779.36 433.239 2809
1779.72 431.697 2799
1786.41 431.697 2799
1789.9 430.926 2794
1796.58 430.926 2794
1803.26 430.926 2794
1809.94 430.926 2794
1816.62 430.926 2794
1817.43 429.538 2785
1820.82 428.767 2780
1827.47 428.767 2780
1834.11 428.767 2780
1834.8 427.379 2771
1838.77 426.762 2767
1845.39 426.762 2767
1852 426.762 2767
1858.62 426.762 2767
1865.24 426.762 2767
1871.85 426.762 2767
1878.47 426.762 2767
1885.09 426.762 2767
1884.87 425.219 2757
1894.89 425.99 2762
1904.94 426.762 2767
1911.55 426.762 2767
1918.17 426.762 2767
1921.31 425.99 2762
1931.4 426.762 2767
1938.02 426.762 2767
1944.64 426.762 2767
1951.25 426.762 2767
1957.87 426.762 2767
1967.33 427.379 2771
1973.95 427.379 2771
1980.58 427.379 2771
1987.21 427.379 2771
1993.83 427.379 2771
2000.46 427.379 2771
2004.19 426.762 2767
1994.09 423.214 2744
2000.65 423.214 2744
2016.72 425.219 2757
2023.32 425.219 2757
2029.91 425.219 2757
2036.5 425.219 2757
2043.09 425.219 2757
2036.31 422.443 2739
2042.86 422.443 2739
2049.41 422.443 2739
2055.96 422.443 2739
2062.5 422.443 2739
2052.44 419.05 2717
2052.11 417.662 2708
2058.59 417.662 2708
2065.06 417.662 2708
2071.54 417.662 2708
-2099.42 439.185 2804
-2092.72 439.185 2804
-2086.01 439.185 2804
-2079.31 439.185 2804
-2068.91 438.402 2799
-2072.53 440.595 2813
-2065.8 440.595 2813
-2059.07 440.595 2813
-2049.43 439.968 2809
-2042.71 439.968 2809
-2038.89 440.595 2813
-2032.17 440.595 2813
-2025.44 440.595 2813
-2018.71 440.595 2813
-2011.99 440.595 2813
-1991.72 437.619 2794
-1995.69 439.968 2809
-2019.42 446.703 2852
-2012.6 446.703 2852
-2005.78 446.703 2852
-1998.96 446.703 2852
-1985.16 445.137 2842
-1978.36 445.137 2842
-1958.38 442.161 2823
-1951.63 442.161 2823
-1948.33 442.944 2828
-1941.57 442.944 2828
-1934.8 442.944 2828
-1928.04 442.944 2828
-1921.28 442.944 2828
-1914.51 442.944 2828
-1907.75 442.944 2828
-1900.99 442.944 2828
-1894.23 442.944 2828
-1890.13 443.571 2832
-1883.36 443.571 2832
-1886.53 445.92 2847
-1879.72 445.92 2847
-1879.49 447.486 2857
-1872.66 447.486 2857
-1865.83 447.486 2857
-1864.85 448.896 2866
-1867.72 451.246 2881
-1860.83 451.246 2881
-1866.81 454.378 2901
-1866.29 455.944 2911
-1866.35 457.667 2922
-1859.37 457.667 2922
-1865.06 460.8 2942
-1868.13 463.306 2958
-1884.33 469.101 2995
-1877.17 469.101 2995
-1870.01 469.101 2995
-1862.85 469.101 2995
-1855.68 469.101 2995
-1841.73 467.378 2984
-1851.2 471.607 3011
-1878.29 480.378 3067
-1874.01 481.162 3072
-1866.66 481.162 3072
-1862.95 482.101 3078
-1855.59 482.101 3078
-1848.23 482.101 3078
-1840.87 482.101 3078
-1833.51 482.101 3078
-1871.24 494.005 3154
-1863.69 494.005 3154
-1887.93 502.463 3208
-1906.05 509.355 3252
-1916.95 514.367 3284
-1909.1 514.367 3284
-1912.25 517.343 3303
-1927.41 523.608 3343
-1946.97 531.126 3391
-1938.87 531.126 3391
-1938.73 533.319 3405
-1946.46 537.704 3433
-1950.11 540.993 3454
-1941.85 540.993 3454
-1941.43 543.186 3468
-1945.4 546.632 3490
-1945.38 548.982 3505
-1936.99 548.982 3505
-1932.47 550.078 3512
-1928.45 551.331 3520
-1920.03 551.331 3520
-1911.62 551.331 3520
-1906.98 552.427 3527
-1898.55 552.427 3527
-1898.15 554.777 3542
-1889.68 554.777 3542
-1889.18 557.126 3557
-1880.67 557.126 3557
-1876.38 558.379 3565
-1867.85 558.379 3565
-1867.15 560.729 3580
-1862.74 561.982 3588
-1861.92 564.331 3603
-1853.3 564.331 3603
-1844.68 564.331 3603
-1840.14 565.584 3611
-1831.51 565.584 3611
-1822.87 565.584 3611
-1818.26 566.837 3619
-1813.61 568.09 3627
-1808.91 569.343 3635
-1800.22 569.343 3635
-1794.98 570.44 3642
-1794.12 572.946 3658
-1789.76 574.355 3667
-1780.99 574.355 3667
-1776.09 575.608 3675
-1771.15 576.861 3683
-1770 579.367 3699
-1761.15 579.367 3699
-1771.73 585.789 3740
-1770.8 588.452 3757
-1774.01 592.524 3783
-1764.96 592.524 3783
-1760.09 593.934 3792
-1758.87 596.596 3809
-1757.58 599.259 3826
-1748.43 599.259 3826
-1743.37 600.669 3835
-1758.62 609.127 3889
-1753.37 610.536 3898
-1744.04 610.536 3898
-1734.72 610.536 3898
-1725.4 610.536 3898
-1716.08 610.536 3898
-1679.17 600.669 3835
-1654.76 595.187 3800
-1623.59 587.199 3749
-1582.75 575.608 3675
-1573.97 575.608 3675
-1548.14 569.343 3635
-1519.54 561.982 3588
-1497.91 557.126 3557
-1489.4 557.126 3557
-1468.41 552.427 3527
-1450.87 548.982 3505
-1436.31 546.632 3490
-1427.97 546.632 3490
-1413.93 544.439 3476
-1396.72 540.993 3454
-1371.57 534.415 3412
-1363.42 534.415 3412
-1338.57 527.837 3370
-1317.49 522.668 3337
-1304.01 520.475 3323
-1293.73 519.535 3317
-1285.79 519.535 3317
-1272.47 517.343 3303
-1257.3 514.367 3284
-1247.16 513.427 3278
-1239.32 513.427 3278
-1221.72 509.355 3252
-1206.85 506.379 3233
-1189.84 502.463 3208
-1182.17 502.463 3208
-1159.12 495.885 3166
-1149.37 494.945 3160
-1141.81 494.945 3160
-1134.26 494.945 3160
-1124.56 494.005 3154
-1098.25 485.704 3101
-1084.85 483.041 3084
-1071.54 480.378 3067
-1064.2 480.378 3067
-1056.87 480.378 3067
-1049.54 480.378 3067
-1032.69 475.993 3039
-1025.42 475.993 3039
-1001.74 468.318 2990
-964.982 454.378 2901
-953.091 452.029 2886
-946.19 452.029 2886
-939.289 452.029 2886
-921.403 446.703 2852
-902.076 440.595 2813
-895.35 440.595 2813
-887.359 439.968 2809
-880.642 439.968 2809
-876.725 441.378 2818
-882.027 447.486 2857
-875.195 447.486 2857
-872.618 449.679 2871
-865.753 449.679 2871
-858.887 449.679 2871
-852.022 449.679 2871
-845.156 449.679 2871
-851.722 456.884 2917
-844.747 456.884 2917
-837.771 456.884 2917
-830.796 456.884 2917
-822.126 455.944 2911
-819.645 458.45 2927
-814.034 459.234 2932
-807.023 459.234 2932
-800.011 459.234 2932
-791.648 458.45 2927
-788.67 460.8 2942
-781.634 460.8 2942
-774.599 460.8 2942
-767.564 460.8 2942
-760.529 460.8 2942
-753.494 460.8 2942
-743.921 459.234 2932
-734.396 457.667 2922
-727.409 457.667 2922
-719.189 456.884 2917
-712.214 456.884 2917
-705.238 456.884 2917
-698.263 456.884 2917
-687.495 454.378 2901
-678.212 452.812 2891
-665.494 448.896 2866
-658.641 448.896 2866
-649.872 477.716 3050
-658.168 489.306 3124
-650.698 489.306 3124
-648.169 493.065 3148
-640.641 493.065 3148
-633.114 493.065 3148
-625.586 493.065 3148
-619.236 494.005 3154
-611.694 494.005 3154
-606.45 495.885 3166
-598.879 495.885 3166
-594.67 498.704 3184
-587.056 498.704 3184
-580.534 499.644 3190
-572.906 499.644 3190
-569.531 503.403 3214
-566.215 507.318 3239
-559.677 508.415 3246
-551.915 508.415 3246
-581.368 543.186 3468
-574.397 544.439 3476
-568.365 546.632 3490
-560.019 546.632 3490
-556.416 551.331 3520
-556.094 559.476 3572
-550.005 561.982 3588
-541.425 561.982 3588
-532.845 561.982 3588
-526.456 564.331 3603
-520.14 566.837 3619
-511.486 566.837 3619
-503.944 568.09 3627
-495.27 568.09 3627
-486.597 568.09 3627
-476.87 566.837 3619
-468.215 566.837 3619
-458.545 565.584 3611
-449.91 565.584 3611
-441.275 565.584 3611
-435.516 569.343 3635
-432.46 576.861 3683
-425.493 579.367 3699
-416.648 579.367 3699
-408.684 580.62 3707
-400.79 582.03 3716
-392.748 583.283 3724
-383.843 583.283 3724
-375.743 584.536 3732
-368.49 587.199 3749
-360.292 588.452 3757
-351.308 588.452 3757
-344.693 592.524 3783
-336.445 593.934 3792
-328.068 595.187 3800
-318.981 595.187 3800
-309.894 595.187 3800
-302.232 598.006 3818
-294.407 600.669 3835
-285.236 600.669 3835
-276.065 600.669 3835
-266.895 600.669 3835
-258.329 602.078 3844
-249.137 602.078 3844
-239.945 602.078 3844
-229.672 599.259 3826
-220.062 598.006 3818
-210.932 598.006 3818
-200.427 593.934 3792
-111.071 344.738 2201
-105.808 344.738 2201
-100.545 344.738 2201
-94.7621 342.859 2189
-89.4048 342.389 2186
-83.9849 341.606 2181
-78.95 342.389 2186
-73.7226 342.389 2186
-68.4953 342.389 2186
-63.2679 342.389 2186
-58.0405 342.389 2186
-52.6198 341.136 2178
-47.3462 340.666 2175
-42.2033 341.136 2178
-36.995 341.136 2178
-31.7868 341.136 2178
-26.5419 340.666 2175
-21.3114 340.196 2172
-16.1175 340.196 2172
-10.9085 339.726 2169
-5.72175 339.726 2169
-0.535009 339.726 2169
4.65173 339.726 2169
9.85207 340.196 2172
15.046 340.196 2172
20.2958 341.136 2178
25.5977 342.389 2186
31.0366 344.738 2201
36.2999 344.738 2201
41.7331 346.148 2210
47.1243 346.931 2215
52.563 347.871 2221
57.8741 347.871 2221
63.6119 350.22 2236
69.1439 351.16 2242
74.6049 351.63 2245
79.9734 351.63 2245
85.5699 352.57 2251
91.5993 355.076 2267
97.4055 356.486 2276
102.848 356.486 2276
108.576 357.425 2282
114.833 359.931 2298
120.642 360.871 2304
126.152 360.871 2304
132.233 362.437 2314
138.123 363.377 2320
143.671 363.377 2320
149.219 363.377 2320
155.634 365.413 2333
162.388 368.076 2350
168.007 368.076 2350
173.627 368.076 2350
300.142 616.332 3935
313.249 623.693 3982
322.772 623.693 3982
332.294 623.693 3982
341.816 623.693 3982
342.338 607.717 3880
352.432 609.127 3889
361.732 609.127 3889
371.032 609.127 3889
380.332 609.127 3889
398.949 623.693 3982
410.42 626.669 4001
419.988 626.669 4001
435.782 635.753 4059
445.489 635.753 4059
457.438 638.886 4079
467.192 638.886 4079
476.946 638.886 4079
488.988 464.872 2968
500.598 469.101 2995
511.49 472.547 3017
518.704 472.547 3017
525.919 472.547 3017
532.073 471.607 3011
537.303 469.884 3000
546.474 471.607 3011
553.674 471.607 3011
560.874 471.607 3011
567.131 470.824 3006
573.173 469.884 3000
580.347 469.884 3000
587.521 469.884 3000
593.703 469.101 2995
601.868 469.884 3000
609.042 469.884 3000
616.216 469.884 3000
623.39 469.884 3000
629.513 469.101 2995
635.612 468.318 2990
642.762 468.318 2990
649.912 468.318 2990
650.03 463.306 2958
655.993 462.523 2953
663.054 462.523 2953
668.754 461.583 2947
674.655 460.8 2942
681.69 460.8 2942
688.725 460.8 2942
695.76 460.8 2942
702.796 460.8 2942
709.831 460.8 2942
716.866 460.8 2942
726.608 462.523 2953
733.669 462.523 2953
740.731 462.523 2953
749.059 463.306 2958
756.132 463.306 2958
763.206 463.306 2958
767.415 461.583 2947
774.462 461.583 2947
781.509 461.583 2947
785.88 460.017 2937
792.904 460.017 2937
798.565 459.234 2932
806.95 460.017 2937
816.745 461.583 2947
823.792 461.583 2947
832.531 462.523 2953
839.592 462.523 2953
846.654 462.523 2953
853.715 462.523 2953
857.57 460.8 2942
864.606 460.8 2942
871.641 460.8 2942
878.676 460.8 2942
882.701 459.234 2932
889.712 459.234 2932
896.723 459.234 2932
903.735 459.234 2932
910.746 459.234 2932
927.461 464.089 2963
934.546 464.089 2963
941.631 464.089 2963
990.982 484.764 3095
1021.29 495.885 3166
1044.46 503.403 3214
1052.14 503.403 3214
1072.36 509.355 3252
1092.76 515.306 3290
1136.75 532.222 3398
1144.88 532.222 3398
1174.38 542.09 3461
1194.96 547.728 3497
1208.48 550.078 3512
1216.88 550.078 3512
1225.28 550.078 3512
1233.68 550.078 3512
1242.08 550.078 3512
1247.98 548.982 3505
1253.5 547.728 3497
1259.33 546.632 3490
1267.68 546.632 3490
1276.02 546.632 3490
1286.95 547.728 3497
1298.27 548.982 3505
1312.24 551.331 3520
1320.66 551.331 3520
1334.36 553.524 3534
1342.82 553.524 3534
1351.27 553.524 3534
1359.72 553.524 3534
1368.17 553.524 3534
1371.17 551.331 3520
1379.58 551.331 3520
1370.65 544.439 3476
1364.68 538.801 3440
1353.35 531.126 3391
1350.22 526.74 3363
1358.26 526.74 3363
1344.77 518.439 3310
1347.37 516.403 3297
1349.91 514.367 3284
1357.77 514.367 3284
1365.62 514.367 3284
1368.03 512.331 3271
1373.33 511.391 3265
1373.1 508.415 3246
1380.87 508.415 3246
1388.63 508.415 3246
1396.39 508.415 3246
1401.12 507.318 3239
1408.87 507.318 3239
1416.61 507.318 3239
1424.36 507.318 3239
1435.2 508.415 3246
1445.63 509.355 3252
1453.41 509.355 3252
1463.88 510.294 3258
1471.67 510.294 3258
1479.46 510.294 3258
1484.51 509.355 3252
1492.29 509.355 3252
1494.07 507.318 3239
1501.81 507.318 3239
1497.91 503.403 3214
1505.59 503.403 3214
1507.63 501.523 3202
1501.09 496.824 3172
1508.68 496.824 3172
1504.79 493.065 3148
1497.9 488.366 3118
1486.05 482.101 3078
1493.41 482.101 3078
1473.46 473.33 3022
1465.01 468.318 2990
1446.07 460.017 2937
1443.19 456.884 2917
1450.17 456.884 2917
1444.16 452.812 2891
1443.54 450.462 2876
1447.9 449.679 2871
1454.76 449.679 2871
1457.05 448.27 2862
1463.89 448.27 2862
1468.17 447.486 2857
1475 447.486 2857
1479.24 446.703 2852
1480.85 445.137 2842
1487.64 445.137 2842
1491.81 444.354 2837
1498.59 444.354 2837
1505.38 444.354 2837
1509.5 443.571 2832
1514.13 442.944 2828
1520.89 442.944 2828
1527.65 442.944 2828
1528.99 441.378 2818
1530.82 439.968 2809
1537.54 439.968 2809
1544.26 439.968 2809
1548.21 439.185 2804
1547.15 436.992 2790
1553.83 436.992 2790
1557.7 436.209 2785
1564.36 436.209 2785
1573.84 436.992 2790
1580.51 436.992 2790
1589.46 437.619 2794
1596.14 437.619 2794
1602.82 437.619 2794
1609.5 437.619 2794
1619.08 438.402 2799
1625.77 438.402 2799
1632.46 438.402 2799
1639.16 438.402 2799
1648.79 439.185 2804
1655.5 439.185 2804
1662.2 439.185 2804
1674.26 440.595 2813
1680.99 440.595 2813
1687.72 440.595 2813
1694.44 440.595 2813
1704.19 441.378 2818
1710.93 441.378 2818
1717.67 441.378 2818
1724.41 441.378 2818
1728.08 440.595 2813
1732.34 439.968 2809
1739.05 439.968 2809
1742.66 439.185 2804
1749.37 439.185 2804
1756.07 439.185 2804
1762.78 439.185 2804
1769.48 439.185 2804
1776.19 439.185 2804
1776.54 437.619 2794
1783.22 437.619 2794
1789.9 437.619 2794
1796.58 437.619 2794
1803.26 437.619 2794
1807.35 436.992 2790
1814.02 436.992 2790
1817.43 436.209 2785
1820.82 435.426 2780
1827.47 435.426 2780
1834.11 435.426 2780
1834.8 434.016 2771
1838.77 433.39 2767
1845.39 433.39 2767
1852 433.39 2767
1858.62 433.39 2767
1865.24 433.39 2767
1871.85 433.39 2767
1878.47 433.39 2767
1881.68 432.607 2762
1884.87 431.824 2757
1894.89 432.607 2762
1901.5 432.607 2762
1908.1 432.607 2762
1914.7 432.607 2762
1921.31 432.607 2762
1931.4 433.39 2767
1938.02 433.39 2767
1944.64 433.39 2767
1951.25 433.39 2767
1957.87 433.39 2767
1967.33 434.016 2771
1973.95 434.016 2771
1980.58 434.016 2771
1987.21 434.016 2771
1993.83 434.016 2771
2000.46 434.016 2771
2004.19 433.39 2767
1994.09 429.788 2744
2000.65 429.788 2744
2020.38 432.607 2762
2026.99 432.607 2762
2033.59 432.607 2762
2040.2 432.607 2762
2046.8 432.607 2762
2040.02 429.788 2744
2046.58 429.788 2744
2053.15 429.788 2744
2059.71 429.788 2744
2062.5 429.004 2739
2045.64 424.149 2708
2042.26 422.113 2695
2048.71 422.113 2695
2055.15 422.113 2695
2051.65 420.077 2682
-2099.42 445.902 2804
-2092.72 445.902 2804
-2086.01 445.902 2804
-2079.31 445.902 2804
-2076.3 446.697 2809
-2072.53 447.333 2813
-2065.8 447.333 2813
-2059.07 447.333 2813
-2056 448.129 2818
-2049.26 448.129 2818
-2042.52 448.129 2818
-2032.17 447.333 2813
-2025.44 447.333 2813
-2015.84 446.697 2809
-2009.13 446.697 2809
-1995.28 445.107 2799
-1995.69 446.697 2809
-2022.96 454.33 2857
-2016.13 454.33 2857
-2009.3 454.33 2857
-2002.47 454.33 2857
-1985.16 451.945 2842
-1978.36 451.945 2842
-1968.1 451.15 2837
-1957.86 450.355 2832
-1951.08 450.355 2832
-1944.31 450.355 2832
-1937.54 450.355 2832
-1928.04 449.719 2828
-1921.28 449.719 2828
-1914.51 449.719 2828
-1907.75 449.719 2828
-1900.99 449.719 2828
-1894.23 449.719 2828
-1893.47 451.15 2837
-1886.69 451.15 2837
-1886.53 452.74 2847
-1879.72 452.74 2847
-1872.91 452.74 2847
-1866.11 452.74 2847
-1862.56 453.535 2852
-1859 454.33 2857
-1864.48 457.352 2876
-1857.6 457.352 2876
-1860.38 459.737 2891
-1863.08 462.123 2906
-1866.35 464.667 2922
-1859.37 464.667 2922
-1861.89 467.052 2937
-1864.97 469.597 2953
-1884.33 476.276 2995
-1877.17 476.276 2995
-1873.13 477.071 3000
-1865.96 477.071 3000
-1865.6 478.82 3011
-1858.4 478.82 3011
-1875.18 485.022 3050
-1881.35 488.521 3072
-1881.33 490.429 3084
-1873.95 490.429 3084
-1866.58 490.429 3084
-1859.2 490.429 3084
-1854.83 491.224 3089
-1847.45 491.224 3089
-1860.91 496.79 3124
-1878.36 503.469 3166
-1870.78 503.469 3166
-1887.93 510.148 3208
-1906.05 517.145 3252
-1916.95 522.234 3284
-1909.1 522.234 3284
-1920.35 527.481 3317
-1927.41 531.616 3343
-1946.97 539.249 3391
-1938.87 539.249 3391
-1946.7 543.702 3419
-1950.43 547.041 3440
-1954.06 550.381 3461
-1945.78 550.381 3461
-1941.43 551.494 3468
-1945.4 554.992 3490
-1949.26 558.491 3512
-1940.86 558.491 3512
-1936.87 559.763 3520
-1928.45 559.763 3520
-1923.85 560.876 3527
-1915.42 560.876 3527
-1910.77 561.989 3534
-1906.62 563.262 3542
-1898.15 563.262 3542
-1889.68 563.262 3542
-1893.43 566.919 3565
-1884.9 566.919 3565
-1876.38 566.919 3565
-1867.85 566.919 3565
-1862.98 568.032 3572
-1862.74 570.577 3588
-1861.92 572.962 3603
-1853.3 572.962 3603
-1844.68 572.962 3603
-1840.14 574.234 3611
-1831.51 574.234 3611
-1822.87 574.234 3611
-1818.26 575.506 3619
-1813.61 576.779 3627
-1808.91 578.051 3635
-1800.22 578.051 3635
-1791.53 578.051 3635
-1790.19 580.436 3650
-1789.76 583.14 3667
-1780.99 583.14 3667
-1776.09 584.412 3675
-1767.3 584.412 3675
-1766.17 586.956 3691
-1757.34 586.956 3691
-1771.73 594.748 3740
-1767.03 596.18 3749
-1761.82 597.452 3757
-1752.83 597.452 3757
-1755.92 601.586 3783
-1751.02 603.018 3792
-1749.77 605.721 3809
-1740.66 605.721 3809
-1739.28 608.424 3826
-1758.62 618.443 3889
-1753.37 619.874 3898
-1744.04 619.874 3898
-1734.72 619.874 3898
-1725.4 619.874 3898
-1716.08 619.874 3898
-1679.17 609.856 3835
-1654.76 604.29 3800
-1623.59 596.18 3749
-1582.75 584.412 3675
-1573.97 584.412 3675
-1548.14 578.051 3635
-1519.54 570.577 3588
-1497.91 565.647 3557
-1489.4 565.647 3557
-1468.41 560.876 3527
-1450.87 557.378 3505
-1436.31 554.992 3490
-1427.97 554.992 3490
-1413.93 552.766 3476
-1396.72 549.268 3454
-1371.57 542.589 3412
-1363.42 542.589 3412
-1338.57 535.91 3370
-1317.49 530.662 3337
-1304.01 528.435 3323
-1293.73 527.481 3317
-1285.79 527.481 3317
-1272.47 525.255 3303
-1257.3 522.234 3284
-1247.16 521.279 3278
-1239.32 521.279 3278
-1221.72 517.145 3252
-1206.85 514.123 3233
-1189.84 510.148 3208
-1182.17 510.148 3208
-1159.12 503.469 3166
-1149.37 502.515 3160
-1141.81 502.515 3160
-1134.26 502.515 3160
-1124.56 501.56 3154
-1098.25 493.132 3101
-1084.85 490.429 3084
-1071.54 487.725 3067
-1064.2 487.725 3067
-1056.87 487.725 3067
-1049.54 487.725 3067
-1032.69 483.273 3039
-1025.42 483.273 3039
-1001.74 475.481 2990
-959.993 458.942 2886
-951.44 458.147 2881
-944.551 458.147 2881
-934.407 456.557 2871
-919.788 452.74 2847
-900.794 446.697 2809
-894.077 446.697 2809
-887.359 446.697 2809
-880.642 446.697 2809
-875.169 447.333 2813
-878.939 452.74 2847
-872.131 452.74 2847
-869.882 455.126 2862
-863.039 455.126 2862
-856.195 455.126 2862
-849.351 455.126 2862
-841.035 454.33 2857
-849.97 462.918 2911
-843.009 462.918 2911
-836.048 462.918 2911
-826.239 461.327 2901
-820.714 462.123 2906
-815.165 462.918 2911
-812.646 465.462 2927
-805.647 465.462 2927
-798.647 465.462 2927
-791.648 465.462 2927
-788.67 467.847 2942
-781.634 467.847 2942
-774.599 467.847 2942
-767.564 467.847 2942
-760.529 467.847 2942
-753.494 467.847 2942
-743.921 466.257 2932
-734.396 464.667 2922
-727.409 464.667 2922
-719.189 463.872 2917
-712.214 463.872 2917
-705.238 463.872 2917
-698.263 463.872 2917
-687.495 461.327 2901
-678.212 459.737 2891
-658.168 496.79 3124
-650.698 496.79 3124
-648.169 500.606 3148
-640.641 500.606 3148
-633.114 500.606 3148
-625.586 500.606 3148
-619.236 501.56 3154
-611.694 501.56 3154
-606.45 503.469 3166
-598.879 503.469 3166
-594.67 506.331 3184
-587.056 506.331 3184
-580.534 507.285 3190
-572.906 507.285 3190
-569.531 511.102 3214
-566.215 515.077 3239
-559.677 516.191 3246
-551.915 516.191 3246
-581.368 551.494 3468
-574.397 552.766 3476
-568.365 554.992 3490
-560.019 554.992 3490
-556.416 559.763 3520
-556.094 568.032 3572
-550.005 570.577 3588
-541.425 570.577 3588
-532.845 570.577 3588
-526.456 572.962 3603
-520.14 575.506 3619
-511.486 575.506 3619
-503.944 576.779 3627
-495.27 576.779 3627
-486.597 576.779 3627
-476.87 575.506 3619
-468.215 575.506 3619
-458.545 574.234 3611
-449.91 574.234 3611
-441.275 574.234 3611
-435.516 578.051 3635
-430.581 583.14 3667
-424.573 586.956 3691
-415.747 586.956 3691
-407.802 588.228 3699
-399.82 589.501 3707
-391.904 590.932 3716
-383.018 590.932 3716
-374.938 592.204 3724
-367.605 594.748 3740
-359.525 596.18 3749
-350.56 596.18 3749
-344.693 601.586 3783
-336.445 603.018 3792
-327.377 603.018 3792
-318.309 603.018 3792
-309.894 604.29 3800
-301.519 605.721 3809
-293.102 607.152 3818
-283.972 607.152 3818
-275.418 608.424 3826
-266.268 608.424 3826
-257.119 608.424 3826
-247.97 608.424 3826
-238.821 608.424 3826
-229.192 607.152 3818
-218.563 603.018 3792
-209.495 603.018 3792
-199.952 601.586 3783
-110.769 349.057 2195
-105.52 349.057 2195
-100.271 349.057 2195
-94.7621 348.103 2189
-89.4048 347.626 2186
-83.9849 346.831 2181
-78.95 347.626 2186
-73.7226 347.626 2186
-68.4953 347.626 2186
-63.2679 347.626 2186
-58.0405 347.626 2186
-52.6198 346.353 2178
-47.3462 345.876 2175
-42.2033 346.353 2178
-36.995 346.353 2178
-31.7868 346.353 2178
-26.5419 345.876 2175
-21.3114 345.399 2172
-16.1175 345.399 2172
-10.9085 344.922 2169
-5.72175 344.922 2169
-0.535009 344.922 2169
4.65173 344.922 2169
9.85207 345.399 2172
15.046 345.399 2172
20.2958 346.353 2178
25.5977 347.626 2186
31.0366 350.011 2201
36.2999 350.011 2201
41.7331 351.442 2210
47.1243 352.237 2215
52.563 353.191 2221
57.8741 353.191 2221
63.6119 355.577 2236
69.1439 356.531 2242
74.6049 357.008 2245
79.9734 357.008 2245
85.5699 357.962 2251
91.5993 360.507 2267
97.4055 361.938 2276
102.848 361.938 2276
108.576 362.892 2282
114.833 365.436 2298
120.642 366.39 2304
126.152 366.39 2304
132.233 367.981 2314
138.123 368.935 2320
143.671 368.935 2320
149.219 368.935 2320
155.634 371.002 2333
162.388 373.705 2350
168.007 373.705 2350
173.627 373.705 2350
300.142 625.758 3935
309.552 625.758 3935
318.962 625.758 3935
328.372 625.758 3935
330.742 612.718 3853
342.338 617.012 3880
352.432 618.443 3889
361.732 618.443 3889
371.032 618.443 3889
380.332 618.443 3889
398.949 633.232 3982
410.42 636.253 4001
419.988 636.253 4001
435.782 645.477 4059
445.489 645.477 4059
457.438 648.657 4079
467.192 648.657 4079
478.115 650.248 4089
487.893 650.248 4089
497.671 650.248 4089
488.988 471.982 2968
500.598 476.276 2995
511.49 479.774 3017
518.704 479.774 3017
525.919 479.774 3017
532.073 478.82 3011
537.303 477.071 3000
545.566 478.025 3006
552.754 478.025 3006
559.943 478.025 3006
565.999 477.071 3000
573.173 477.071 3000
579.379 476.276 2995
586.541 476.276 2995
593.703 476.276 2995
601.868 477.071 3000
609.042 477.071 3000
616.216 477.071 3000
623.39 477.071 3000
629.513 476.276 2995
635.612 475.481 2990
642.762 475.481 2990
649.912 475.481 2990
650.03 470.392 2958
655.993 469.597 2953
663.054 469.597 2953
668.754 468.643 2947
674.655 467.847 2942
681.69 467.847 2942
688.725 467.847 2942
695.76 467.847 2942
702.796 467.847 2942
709.831 467.847 2942
718.084 468.643 2947
727.838 470.392 2958
734.912 470.392 2958
741.985 470.392 2958
750.325 471.187 2963
757.41 471.187 2963
764.496 471.187 2963
770.279 470.392 2958
777.353 470.392 2958
784.426 470.392 2958
790.162 469.597 2953
794.253 467.847 2942
801.289 467.847 2942
811.346 469.597 2953
819.793 470.392 2958
826.867 470.392 2958
835.35 471.187 2963
842.435 471.187 2963
849.521 471.187 2963
856.606 471.187 2963
860.777 469.597 2953
867.838 469.597 2953
874.9 469.597 2953
880.169 468.643 2947
887.217 468.643 2947
894.264 468.643 2947
901.311 468.643 2947
908.358 468.643 2947
918.822 470.392 2958
932.469 473.731 2979
974.287 491.224 3089
981.674 491.224 3089
994.824 494.086 3107
1023.22 504.423 3172
1052.58 515.077 3239
1060.33 515.077 3239
1082.91 522.234 3284
1095.08 524.301 3297
1139.09 541.475 3405
1147.24 541.475 3405
1184.22 554.992 3490
1200.08 558.491 3512
1208.48 558.491 3512
1216.88 558.491 3512
1225.28 558.491 3512
1233.68 558.491 3512
1242.08 558.491 3512
1250.47 558.491 3512
1253.5 556.106 3497
1261.86 556.106 3497
1270.22 556.106 3497
1278.58 556.106 3497
1286.95 556.106 3497
1300.86 558.491 3512
1312.24 559.763 3520
1320.66 559.763 3520
1334.36 561.989 3534
1342.82 561.989 3534
1351.27 561.989 3534
1359.72 561.989 3534
1368.17 561.989 3534
1371.17 559.763 3520
1379.58 559.763 3520
1382.09 557.378 3505
1373.01 550.381 3461
1364.53 543.702 3419
1355.84 537.023 3377
1363.91 537.023 3377
1355.74 530.662 3337
1355.55 527.481 3317
1352.38 523.188 3290
1360.25 523.188 3290
1365.62 522.234 3284
1373.47 522.234 3284
1373.33 519.212 3265
1378.18 518.099 3258
1385.97 518.099 3258
1388.63 516.191 3246
1396.39 516.191 3246
1401.12 515.077 3239
1408.87 515.077 3239
1416.61 515.077 3239
1424.36 515.077 3239
1435.2 516.191 3246
1445.63 517.145 3252
1453.41 517.145 3252
1463.88 518.099 3258
1471.67 518.099 3258
1479.46 518.099 3258
1484.51 517.145 3252
1492.29 517.145 3252
1494.07 515.077 3239
1501.81 515.077 3239
1497.91 511.102 3214
1505.59 511.102 3214
1507.63 509.194 3202
1501.09 504.423 3172
1508.68 504.423 3172
1504.79 500.606 3148
1497.9 495.836 3118
1486.05 489.475 3078
1493.41 489.475 3078
1473.46 480.569 3022
1465.01 475.481 2990
1448.53 467.847 2942
1443.19 463.872 2917
1450.17 463.872 2917
1446.66 460.532 2896
1443.54 457.352 2876
1447.9 456.557 2871
1454.76 456.557 2871
1457.05 455.126 2862
1463.89 455.126 2862
1468.17 454.33 2857
1475 454.33 2857
1479.24 453.535 2852
1480.85 451.945 2842
1487.64 451.945 2842
1491.81 451.15 2837
1498.59 451.15 2837
1505.38 451.15 2837
1512.16 451.15 2837
1516.27 450.355 2832
1523.04 450.355 2832
1527.65 449.719 2828
1528.99 448.129 2818
1533 447.333 2813
1539.73 447.333 2813
1544.26 446.697 2809
1548.21 445.902 2804
1549.37 444.312 2794
1556.05 444.312 2794
1560.5 443.676 2790
1564.36 442.881 2785
1573.84 443.676 2790
1580.51 443.676 2790
1589.46 444.312 2794
1596.14 444.312 2794
1602.82 444.312 2794
1609.5 444.312 2794
1619.08 445.107 2799
1625.77 445.107 2799
1632.46 445.107 2799
1639.16 445.107 2799
1648.79 445.902 2804
1655.5 445.902 2804
1665.17 446.697 2809
1674.26 447.333 2813
1680.99 447.333 2813
1687.72 447.333 2813
1694.44 447.333 2813
1704.19 448.129 2818
1710.93 448.129 2818
1717.67 448.129 2818
1724.41 448.129 2818
1731.15 448.129 2818
1734.8 447.333 2813
1741.53 447.333 2813
1748.26 447.333 2813
1749.37 445.902 2804
1756.07 445.902 2804
1762.78 445.902 2804
1769.48 445.902 2804
1776.19 445.902 2804
1779.72 445.107 2799
1786.41 445.107 2799
1789.9 444.312 2794
1796.58 444.312 2794
1803.26 444.312 2794
1807.35 443.676 2790
1814.02 443.676 2790
1817.43 442.881 2785
1820.82 442.086 2780
1827.47 442.086 2780
1834.11 442.086 2780
1834.8 440.654 2771
1838.77 440.018 2767
1848.05 440.654 2771
1854.68 440.654 2771
1861.31 440.654 2771
1865.24 440.018 2767
1871.85 440.018 2767
1878.47 440.018 2767
1881.68 439.223 2762
1884.87 438.428 2757
1894.89 439.223 2762
1901.5 439.223 2762
1908.1 439.223 2762
1914.7 439.223 2762
1921.31 439.223 2762
1931.4 440.018 2767
1938.02 440.018 2767
1944.64 440.018 2767
1951.25 440.018 2767
1957.87 440.018 2767
1967.33 440.654 2771
1973.95 440.654 2771
1980.58 440.654 2771
1987.21 440.654 2771
1993.83 440.654 2771
2000.46 440.654 2771
2004.19 440.018 2767
1997 436.997 2748
2003.57 436.997 2748
2020.38 439.223 2762
2026.99 439.223 2762
2033.59 439.223 2762
2040.2 439.223 2762
2046.8 439.223 2762
2040.02 436.361 2744
2046.58 436.361 2744
2053.15 436.361 2744
2059.71 436.361 2744
2066.27 436.361 2744
2049.41 431.431 2713
2045.29 429.205 2699
2048.71 428.569 2695
2055.15 428.569 2695
2051.65 426.501 2682
-2106.16 454.072 2813
-2099.44 454.072 2813
-2092.71 454.072 2813
-2083.02 453.426 2809
-2079.26 454.072 2813
-2072.53 454.072 2813
-2065.8 454.072 2813
-2059.07 454.072 2813
-2056 454.879 2818
-2049.26 454.879 2818
-2042.52 454.879 2818
-2032.17 454.072 2813
-2025.44 454.072 2813
-2015.84 453.426 2809
-2009.13 453.426 2809
-1995.28 451.812 2799
-1995.69 453.426 2809
-2022.96 461.174 2857
-2019.66 461.982 2862
-2012.82 461.982 2862
-2005.97 461.982 2862
-1992.14 460.367 2852
-1985.32 460.367 2852
-1968.1 457.946 2837
-1961.31 457.946 2837
-1957.97 458.753 2842
-1951.18 458.753 2842
-1944.38 458.753 2842
-1937.58 458.753 2842
-1937.58 460.367 2852
-1930.76 460.367 2852
-1923.94 460.367 2852
-1913.76 459.56 2847
-1906.95 459.56 2847
-1900.15 459.56 2847
-1893.34 459.56 2847
-1896.47 461.982 2862
-1895.57 463.434 2871
-1888.7 463.434 2871
-1881.84 463.434 2871
-1874.97 463.434 2871
-1871.36 464.241 2876
-1870.96 465.856 2886
-1864.06 465.856 2886
-1870.03 469.084 2906
-1866.29 469.891 2911
-1866.35 471.667 2922
-1859.37 471.667 2922
-1861.89 474.088 2937
-1878.23 480.06 2974
-1887.48 484.257 3000
-1880.3 484.257 3000
-1886.87 487.809 3022
-1886.48 489.584 3033
-1886.04 491.36 3044
-1878.77 491.36 3044
-1888.7 495.88 3072
-1899.12 500.561 3101
-1905.73 504.273 3124
-1898.26 504.273 3124
-1894.42 505.242 3130
-1886.94 505.242 3130
-1879.45 505.242 3130
-1871.97 505.242 3130
-1871.63 507.179 3142
-1903.27 517.833 3208
-1895.6 517.833 3208
-1910.29 523.966 3246
-1924.8 530.1 3284
-1924.54 532.199 3297
-1916.66 532.199 3297
-1931.93 538.656 3337
-1955.08 547.372 3391
-1959.03 550.762 3412
-1950.87 550.762 3412
-1962.64 556.412 3447
-1958.37 557.542 3454
-1958.01 559.802 3468
-1949.72 559.802 3468
-1945.91 561.093 3476
-1953.76 565.774 3505
-1953.7 568.195 3520
-1945.28 568.195 3520
-1940.72 569.325 3527
-1932.28 569.325 3527
-1927.67 570.455 3534
-1919.22 570.455 3534
-1910.77 570.455 3534
-1906.62 571.747 3542
-1906.19 574.168 3557
-1897.69 574.168 3557
-1893.43 575.459 3565
-1884.9 575.459 3565
-1880.06 576.589 3572
-1871.52 576.589 3572
-1862.98 576.589 3572
-1862.74 579.172 3588
-1861.92 581.593 3603
-1853.3 581.593 3603
-1844.68 581.593 3603
-1836.07 581.593 3603
-1831.51 582.884 3611
-1822.87 582.884 3611
-1814.24 582.884 3611
-1813.61 585.467 3627
-1804.93 585.467 3627
-1796.26 585.467 3627
-1791.53 586.758 3635
-1786.27 587.888 3642
-1781.46 589.18 3650
-1772.74 589.18 3650
-1772.22 591.924 3667
-1763.46 591.924 3667
-1766.17 595.798 3691
-1757.34 595.798 3691
-1756.1 598.381 3707
-1762.79 603.708 3740
-1758.06 605.16 3749
-1749.1 605.16 3749
-1743.85 606.452 3757
-1746.87 610.649 3783
-1741.96 612.101 3792
-1732.89 612.101 3792
-1739.28 617.59 3826
-1738.27 620.495 3844
-1753.37 629.212 3898
-1744.04 629.212 3898
-1734.72 629.212 3898
-1705.48 621.948 3853
-1696.27 621.948 3853
-1679.17 619.042 3835
-1647.36 610.649 3783
-1623.59 605.16 3749
-1582.75 593.215 3675
-1573.97 593.215 3675
-1548.14 586.758 3635
-1522.51 580.302 3595
-1497.91 574.168 3557
-1489.4 574.168 3557
-1471.32 570.455 3534
-1457.08 568.195 3520
-1442.49 565.774 3505
-1434.1 565.774 3505
-1419.62 563.353 3490
-1402.38 559.802 3468
-1382.83 555.282 3440
-1374.6 555.282 3440
-1346.92 547.372 3391
-1325.38 541.884 3357
-1309.51 538.656 3337
-1298.8 537.526 3330
-1290.83 537.526 3330
-1277.86 535.427 3317
-1267.25 534.297 3310
-1251.73 531.069 3290
-1243.86 531.069 3290
-1233.74 530.1 3284
-1225.88 530.1 3284
-1203.94 523.966 3246
-1198.39 524.935 3252
-1190.61 524.935 3252
-1187.56 527.033 3265
-1203.24 537.526 3330
-1195.28 537.526 3330
-1187.31 537.526 3330
-1179.35 537.526 3330
-1166.82 535.427 3317
-1158.88 535.427 3317
-1070.1 497.817 3084
-1056.87 495.072 3067
-1049.54 495.072 3067
-1042.2 495.072 3067
-1034.87 495.072 3067
-989.341 476.671 2953
-958.329 465.048 2881
-946.486 462.627 2866
-939.633 462.627 2866
-928.223 460.367 2852
-913.649 456.493 2828
-900.794 453.426 2809
-894.077 453.426 2809
-882.621 451.005 2794
-875.94 451.005 2794
-875.169 454.072 2813
-877.396 458.753 2842
-872.131 459.56 2847
-865.323 459.56 2847
-861.531 461.174 2857
-854.699 461.174 2857
-847.867 461.174 2857
-841.035 461.174 2857
-847.05 468.277 2901
-840.113 468.277 2901
-833.176 468.277 2901
-824.815 467.47 2896
-817.89 467.47 2896
-815.165 469.891 2911
-812.646 472.474 2927
-805.647 472.474 2927
-800.011 473.281 2932
-793 473.281 2932
-791.618 476.671 2953
-784.557 476.671 2953
-777.495 476.671 2953
-767.564 474.895 2942
-760.529 474.895 2942
-753.494 474.895 2942
-743.921 473.281 2932
-735.653 472.474 2927
-728.654 472.474 2927
