ply
format ascii 1.0
comment File generated
element vertex 2158
property float x
property float y
property float z
end_header
161.703 -84.3837 2120
166.773 -84.3837 2120
172.004 -84.4633 2122
177.329 -84.5827 2125
182.411 -84.5827 2125
187.492 -84.5827 2125
193.117 -84.8215 2131
198.399 -84.9011 2133
203.5 -84.9011 2133
208.894 -85.0205 2136
214.302 -85.1399 2139
219.417 -85.1399 2139
224.532 -85.1399 2139
229.969 -85.2594 2142
235.311 -85.339 2144
241.447 -85.6972 2153
246.596 -85.6972 2153
251.744 -85.6972 2153
256.893 -85.6972 2153
262.041 -85.6972 2153
267.19 -85.6972 2153
272.338 -85.6972 2153
398.86 -118.774 2984
405.996 -118.774 2984
413.132 -118.774 2984
419.563 -118.575 2979
426.687 -118.575 2979
433.81 -118.575 2979
438.566 -117.938 2963
445.651 -117.938 2963
451.973 -117.739 2958
459.046 -117.739 2958
466.12 -117.739 2958
473.193 -117.739 2958
480.267 -117.739 2958
487.34 -117.739 2958
493.578 -117.54 2953
500.639 -117.54 2953
507.701 -117.54 2953
514.762 -117.54 2953
521.824 -117.54 2953
528.885 -117.54 2953
533.043 -116.903 2937
540.066 -116.903 2937
547.09 -116.903 2937
554.113 -116.903 2937
561.136 -116.903 2937
566.225 -116.505 2927
573.224 -116.505 2927
578.241 -116.107 2917
583.01 -115.669 2906
588.944 -115.47 2901
595.881 -115.47 2901
600.74 -115.072 2891
607.654 -115.072 2891
613.504 -114.873 2886
619.33 -114.674 2881
626.22 -114.674 2881
633.109 -114.674 2881
638.888 -114.475 2876
644.642 -114.276 2871
651.508 -114.276 2871
658.373 -114.276 2871
665.239 -114.276 2871
672.104 -114.276 2871
678.97 -114.276 2871
685.835 -114.276 2871
691.494 -114.077 2866
698.347 -114.077 2866
705.201 -114.077 2866
712.054 -114.077 2866
718.908 -114.077 2866
725.761 -114.077 2866
732.615 -114.077 2866
739.468 -114.077 2866
745.28 -113.918 2862
752.124 -113.918 2862
758.968 -113.918 2862
765.812 -113.918 2862
772.656 -113.918 2862
779.5 -113.918 2862
786.344 -113.918 2862
793.188 -113.918 2862
800.031 -113.918 2862
806.875 -113.918 2862
812.298 -113.719 2857
819.13 -113.719 2857
825.962 -113.719 2857
832.794 -113.719 2857
839.625 -113.719 2857
846.457 -113.719 2857
853.289 -113.719 2857
860.121 -113.719 2857
866.953 -113.719 2857
873.785 -113.719 2857
880.617 -113.719 2857
887.449 -113.719 2857
894.281 -113.719 2857
901.113 -113.719 2857
907.945 -113.719 2857
914.777 -113.719 2857
919.996 -113.52 2852
928.441 -113.719 2857
936.91 -113.918 2862
943.754 -113.918 2862
951.926 -114.077 2866
965.47 -114.873 2886
974.056 -115.072 2891
980.969 -115.072 2891
987.883 -115.072 2891
1282.75 -144.368 3627
1291.42 -144.368 3627
1300.09 -144.368 3627
1314.18 -144.965 3642
1322.89 -144.965 3642
1331.6 -144.965 3642
1337.73 -144.686 3635
1346.42 -144.686 3635
1355.12 -144.686 3635
1360.81 -144.368 3627
1372.5 -144.686 3635
1381.19 -144.686 3635
1389.89 -144.686 3635
1398.58 -144.686 3635
1404.17 -144.368 3627
1394.54 -142.497 3580
1403.1 -142.497 3580
1405.74 -141.9 3565
1411.1 -141.581 3557
1407.63 -140.387 3527
1413.25 -140.109 3520
1421.67 -140.109 3520
1423.99 -139.512 3505
1429.11 -139.193 3497
1431.71 -138.636 3483
1440.04 -138.636 3483
1442.13 -138.039 3468
1447.5 -137.76 3461
1444 -136.646 3433
1452.21 -136.646 3433
1448.51 -135.531 3405
1450.66 -134.974 3391
1458.77 -134.974 3391
1469.9 -135.253 3398
1481.07 -135.531 3405
1489.22 -135.531 3405
1497.36 -135.531 3405
1505.5 -135.531 3405
1513.64 -135.531 3405
1506.14 -134.138 3370
1514.2 -134.138 3370
1525.42 -134.417 3377
1533.5 -134.417 3377
1541.57 -134.417 3377
1575.35 -136.646 3433
1613.08 -139.193 3497
1635.35 -140.387 3527
1643.78 -140.387 3527
1655.5 -140.666 3534
1663.95 -140.666 3534
1676.19 -140.984 3542
1684.66 -140.984 3542
1696.47 -141.263 3549
1704.96 -141.263 3549
1713.44 -141.263 3549
1718.54 -140.984 3542
1723.1 -140.666 3534
1728.13 -140.387 3527
1736.56 -140.387 3527
1744.99 -140.387 3527
1753.43 -140.387 3527
1758.37 -140.109 3520
1755.24 -139.193 3497
1763.6 -139.193 3497
1761.32 -138.357 3476
1792.04 -140.109 3520
1800.45 -140.109 3520
1808.87 -140.109 3520
1805.41 -139.193 3497
1813.78 -139.193 3497
1607.29 -115.868 2911
1614.25 -115.868 2911
1621.21 -115.868 2911
1619.79 -115.271 2896
1615.48 -114.475 2876
1603.17 -113.122 2842
1599.21 -112.366 2823
1605.96 -112.366 2823
1604.71 -111.808 2809
1605.69 -111.41 2799
1609.5 -111.211 2794
1616.19 -111.211 2794
1620.54 -111.052 2790
1624.3 -110.853 2785
1628.03 -110.654 2780
1634.68 -110.654 2780
1638.96 -110.495 2776
1640.27 -110.137 2767
1643.91 -109.938 2762
1650.51 -109.938 2762
1651.72 -109.579 2753
1655.29 -109.38 2748
1661.86 -109.38 2748
1668.43 -109.38 2748
1675 -109.38 2748
1681.58 -109.38 2748
1682.62 -109.022 2739
1683.62 -108.664 2730
1690.15 -108.664 2730
1691.08 -108.306 2721
1697.59 -108.306 2721
1701.59 -108.146 2717
1708.09 -108.146 2717
1712.06 -107.987 2713
1715.38 -107.788 2708
1719.31 -107.629 2704
1722.59 -107.43 2699
1729.04 -107.43 2699
1732.92 -107.271 2695
1733.56 -106.913 2686
1737.39 -106.753 2682
1743.8 -106.753 2682
1741.73 -106.236 2669
1742.88 -105.917 2661
1743.32 -105.559 2652
1749.66 -105.559 2652
1756.01 -105.559 2652
1759.69 -105.4 2648
1766.02 -105.4 2648
1772.35 -105.4 2648
1776 -105.241 2644
1782.32 -105.241 2644
1779.85 -104.723 2631
1788.86 -104.883 2635
1795.16 -104.883 2635
1801.46 -104.883 2635
1807.76 -104.883 2635
1814.06 -104.883 2635
1826.58 -105.241 2644
1832.9 -105.241 2644
1839.23 -105.241 2644
1845.55 -105.241 2644
1851.87 -105.241 2644
1858.19 -105.241 2644
1867.34 -105.4 2648
1873.67 -105.4 2648
1880 -105.4 2648
1886.33 -105.4 2648
1889.81 -105.241 2644
1893.26 -105.082 2640
1899.57 -105.082 2640
1905.89 -105.082 2640
1908.58 -104.883 2635
1914.88 -104.883 2635
1921.18 -104.883 2635
1927.48 -104.883 2635
1930.85 -104.723 2631
1934.19 -104.564 2627
1937.52 -104.405 2623
1943.79 -104.405 2623
1947.09 -104.246 2619
1953.35 -104.246 2619
1956.62 -104.086 2615
1959.88 -103.927 2611
1966.12 -103.927 2611
1972.36 -103.927 2611
1975.58 -103.768 2607
1978.77 -103.609 2603
1984.99 -103.609 2603
1991.22 -103.609 2603
-2041.02 -101.975 2726
-2044.21 -102.461 2739
-2037.66 -102.461 2739
-2031.11 -102.461 2739
-2024.56 -102.461 2739
-2015.06 -102.311 2735
-2008.52 -102.311 2735
-1998.32 -102.124 2730
-1985.23 -101.787 2721
-1975.81 -101.638 2717
-1991.78 -102.797 2748
-1985.21 -102.797 2748
-1988.72 -103.321 2762
-1995.03 -103.995 2780
-1995.54 -104.369 2790
-1988.87 -104.369 2790
-1982.19 -104.369 2790
-2218.18 -117.985 3154
-2240.07 -119.556 3196
-2240.81 -120.005 3208
-2233.14 -120.005 3208
-2246.97 -121.165 3239
-2261.35 -122.362 3271
-2294.18 -124.569 3330
-2286.21 -124.569 3330
-2278.25 -124.569 3330
-2270.29 -124.569 3330
-2267.08 -124.831 3337
-2259.1 -124.831 3337
-2287.55 -126.851 3391
-2307.67 -128.422 3433
-2299.46 -128.422 3433
-2291.25 -128.422 3433
-2283.04 -128.422 3433
-2233.09 -126.065 3370
-2243.52 -127.113 3398
-2235.39 -127.113 3398
-2227.27 -127.113 3398
-2219.14 -127.113 3398
-2242.9 -128.946 3447
-2234.66 -128.946 3447
-2235.45 -129.469 3461
-2227.18 -129.469 3461
-2228.52 -130.031 3476
-2220.21 -130.031 3476
-2230.35 -131.115 3505
-2226.4 -131.377 3512
-2231.9 -132.2 3534
-2223.45 -132.2 3534
-2220.01 -132.5 3542
-2211.54 -132.5 3542
-2203.07 -132.5 3542
-2194.6 -132.5 3542
-2186.13 -132.5 3542
-2177.66 -132.5 3542
-2187.57 -133.622 3572
-2179.02 -133.622 3572
-2189.32 -134.781 3603
-2185.54 -135.081 3611
-2176.91 -135.081 3611
-2168.27 -135.081 3611
-2154.85 -134.781 3603
-2141.47 -134.482 3595
-2132.88 -134.482 3595
-2115.42 -133.921 3580
-2111.56 -134.22 3588
-2102.98 -134.22 3588
-2094.4 -134.22 3588
-2085.82 -134.22 3588
-2077.24 -134.22 3588
-2064.05 -133.921 3580
-2055.49 -133.921 3580
-2033.78 -133.061 3557
-2020.72 -132.761 3549
-2016.77 -133.061 3557
-2012.78 -133.36 3565
-2004.25 -133.36 3565
-1999.65 -133.622 3572
-1991.11 -133.622 3572
-1982.56 -133.622 3572
-1974.02 -133.622 3572
-1961.63 -133.36 3565
-1953.1 -133.36 3565
-1957.12 -134.22 3588
-1948.54 -134.22 3588
-1943.75 -134.482 3595
-1935.15 -134.482 3595
-1926.56 -134.482 3595
-1914.22 -134.22 3588
-1897.15 -133.622 3572
-1884.9 -133.36 3565
-1876.38 -133.36 3565
-1863.66 -133.061 3557
-1850.98 -132.761 3549
-1846.65 -133.061 3557
-1838.14 -133.061 3557
-1829.64 -133.061 3557
-1825.23 -133.36 3565
-1816.7 -133.36 3565
-1808.18 -133.36 3565
-1795.61 -133.061 3557
-1779.57 -132.5 3542
-1760.1 -131.677 3520
-1751.68 -131.677 3520
-1746.73 -131.938 3527
-1738.3 -131.938 3527
-1729.87 -131.938 3527
-1732.17 -132.761 3549
-1723.68 -132.761 3549
-1715.2 -132.761 3549
-1706.71 -132.761 3549
-1702.05 -133.061 3557
-1693.54 -133.061 3557
-1685.04 -133.061 3557
-1680.3 -133.36 3565
-1678.81 -133.921 3580
-1680.98 -134.781 3603
-1672.37 -134.781 3603
-1663.75 -134.781 3603
-1648.24 -134.22 3588
-1639.66 -134.22 3588
-1627.45 -133.921 3580
-1622.5 -134.22 3588
-1624.27 -135.081 3611
-1622.79 -135.679 3627
-1614.12 -135.679 3627
-1605.45 -135.679 3627
-1596.77 -135.679 3627
-1588.1 -135.679 3627
-1572.46 -135.081 3611
-1567.29 -135.38 3619
-1558.64 -135.38 3619
-1549.98 -135.38 3619
-1541.33 -135.38 3619
-1522.51 -134.482 3595
-1507.6 -133.921 3580
-1499.03 -133.921 3580
-1465.49 -131.677 3520
-1453.76 -131.377 3512
-1362.23 -123.821 3310
-1315.04 -120.23 3214
-1307.35 -120.23 3214
-1280.26 -118.434 3166
-1260.63 -117.312 3136
-1227.55 -114.918 3072
-1220.21 -114.918 3072
-1182.46 -112.037 2995
-1162.74 -110.84 2963
-1149.42 -110.242 2947
-1136.55 -109.681 2932
-1129.54 -109.681 2932
-1120.62 -109.494 2927
-1113.62 -109.494 2927
-1106.62 -109.494 2927
-1099.62 -109.494 2927
-1092.62 -109.494 2927
-1085.62 -109.494 2927
-1078.62 -109.494 2927
-1071.62 -109.494 2927
-1064.62 -109.494 2927
-1057.62 -109.494 2927
-1050.62 -109.494 2927
-1043.62 -109.494 2927
-1036.62 -109.494 2927
-1029.63 -109.494 2927
-1020.88 -109.307 2922
-1013.89 -109.307 2922
-1005.18 -109.119 2917
-996.153 -108.895 2911
-987.493 -108.708 2906
-980.544 -108.708 2906
-971.919 -108.521 2901
-964.982 -108.521 2901
-958.045 -108.521 2901
-951.108 -108.521 2901
-944.171 -108.521 2901
-937.234 -108.521 2901
-928.693 -108.334 2896
-921.768 -108.334 2896
-914.843 -108.334 2896
-907.917 -108.334 2896
-900.992 -108.334 2896
-894.067 -108.334 2896
-887.142 -108.334 2896
-877.177 -107.96 2886
-870.276 -107.96 2886
-864.87 -108.147 2891
-857.957 -108.147 2891
-851.044 -108.147 2891
-844.13 -108.147 2891
-837.217 -108.147 2891
-830.304 -108.147 2891
-823.391 -108.147 2891
-816.477 -108.147 2891
-808.164 -107.96 2886
-801.263 -107.96 2886
-794.361 -107.96 2886
-787.46 -107.96 2886
-780.559 -107.96 2886
-773.658 -107.96 2886
-766.756 -107.96 2886
-759.855 -107.96 2886
-751.649 -107.773 2881
-744.76 -107.773 2881
-737.87 -107.773 2881
-730.981 -107.773 2881
-724.092 -107.773 2881
-717.202 -107.773 2881
-710.313 -107.773 2881
-702.203 -107.586 2876
-694.117 -107.399 2871
-687.251 -107.399 2871
-680.386 -107.399 2871
-672.347 -107.212 2866
-665.494 -107.212 2866
-658.641 -107.212 2866
-650.877 -107.062 2862
-642.908 -106.875 2857
-636.076 -106.875 2857
-631.227 -107.212 2866
-624.373 -107.212 2866
-618.597 -107.399 2871
-613.862 -107.773 2881
-611.187 -108.521 2901
-605.291 -108.708 2906
-602.666 -109.494 2927
-605.231 -111.252 2974
-609.985 -113.459 3033
-602.732 -113.459 3033
-595.48 -113.459 3033
-639.427 -123.335 3297
-636.524 -124.307 3323
-628.577 -124.307 3323
-620.631 -124.307 3323
-612.685 -124.307 3323
-604.738 -124.307 3323
-596.792 -124.307 3323
-590.086 -124.569 3330
-582.123 -124.569 3330
-574.16 -124.569 3330
-566.197 -124.569 3330
-561.587 -125.317 3350
-553.576 -125.317 3350
-545.565 -125.317 3350
-537.554 -125.317 3350
-529.543 -125.317 3350
-519.509 -124.831 3337
-511.529 -124.831 3337
-502.493 -124.569 3330
-493.49 -124.307 3323
-295.029 -83.7568 2239
-290.451 -83.9812 2245
-285.083 -83.9812 2245
-279.714 -83.9812 2245
-273.979 -83.869 2242
-268.618 -83.869 2242
-262.905 -83.7568 2239
-257.55 -83.7568 2239
-252.196 -83.7568 2239
-247.504 -83.9812 2245
-242.135 -83.9812 2245
-237.083 -84.0934 2248
-231.707 -84.0934 2248
-226.332 -84.0934 2248
-220.956 -84.0934 2248
-215.58 -84.0934 2248
-210.205 -84.0934 2248
-204.829 -84.0934 2248
-198.655 -83.7568 2239
-193.301 -83.7568 2239
-186.184 -82.9712 2218
-180.635 -82.859 2215
-174.943 -82.6719 2210
-169.658 -82.6719 2210
-163.035 -81.9986 2192
-157.001 -81.5871 2181
-151.159 -81.2504 2172
-145.428 -80.9512 2164
-140.253 -80.9512 2164
-134.704 -80.7267 2158
-129.363 -80.6145 2155
-123.922 -80.4274 2150
-118.78 -80.4274 2150
-113.48 -80.3152 2147
-108.195 -80.203 2144
-102.972 -80.1282 2142
-97.8496 -80.1282 2142
-92.5976 -80.016 2139
-87.3599 -79.9037 2136
-82.1365 -79.7915 2133
-77.0359 -79.7915 2133
-71.8678 -79.7167 2131
-66.6779 -79.6045 2128
-61.5024 -79.4922 2125
-56.4209 -79.4922 2125
-51.2669 -79.38 2122
-46.149 -79.3052 2120
-41.0794 -79.3052 2120
-36.0099 -79.3052 2120
-30.8965 -79.193 2117
-25.7975 -79.0807 2114
-20.7423 -79.0807 2114
-15.6722 -79.0059 2112
-10.6218 -79.0059 2112
-5.56347 -78.8937 2109
-0.520209 -78.8937 2109
4.52305 -78.8937 2109
9.56631 -78.8937 2109
14.6096 -78.8937 2109
19.6249 -78.7815 2106
24.6375 -78.7067 2104
29.6688 -78.7067 2104
34.7001 -78.7067 2104
39.7314 -78.7067 2104
44.7627 -78.7067 2104
49.794 -78.7067 2104
54.8253 -78.7067 2104
59.8566 -78.7067 2104
64.8879 -78.7067 2104
69.9193 -78.7067 2104
74.9505 -78.7067 2104
79.9818 -78.7067 2104
85.0132 -78.7067 2104
90.0445 -78.7067 2104
95.0758 -78.7067 2104
100.202 -78.7815 2106
105.238 -78.7815 2106
110.431 -78.8937 2109
115.475 -78.8937 2109
120.518 -78.8937 2109
125.561 -78.8937 2109
130.605 -78.8937 2109
135.841 -79.0059 2112
140.891 -79.0059 2112
146.08 -79.0807 2114
151.135 -79.0807 2114
156.634 -79.3052 2120
161.703 -79.3052 2120
166.773 -79.3052 2120
171.842 -79.3052 2120
177.329 -79.4922 2125
182.411 -79.4922 2125
187.492 -79.4922 2125
193.117 -79.7167 2131
198.399 -79.7915 2133
203.5 -79.7915 2133
208.894 -79.9037 2136
214.302 -80.016 2139
219.417 -80.016 2139
224.532 -80.016 2139
229.969 -80.1282 2142
235.311 -80.203 2144
241.447 -80.5397 2153
246.596 -80.5397 2153
251.744 -80.5397 2153
256.893 -80.5397 2153
262.041 -80.5397 2153
267.19 -80.5397 2153
272.338 -80.5397 2153
398.86 -111.626 2984
405.996 -111.626 2984
413.132 -111.626 2984
419.563 -111.439 2979
426.687 -111.439 2979
433.81 -111.439 2979
437.826 -110.653 2958
444.899 -110.653 2958
451.973 -110.653 2958
459.046 -110.653 2958
466.12 -110.653 2958
473.193 -110.653 2958
480.267 -110.653 2958
487.34 -110.653 2958
490.904 -109.868 2937
497.927 -109.868 2937
504.95 -109.868 2937
511.973 -109.868 2937
518.997 -109.868 2937
525.124 -109.681 2932
532.136 -109.681 2932
539.147 -109.681 2932
546.158 -109.681 2932
552.226 -109.494 2927
559.226 -109.494 2927
564.29 -109.119 2917
571.266 -109.119 2917
577.052 -108.895 2911
583.01 -108.708 2906
587.929 -108.334 2896
594.854 -108.334 2896
600.74 -108.147 2891
606.603 -107.96 2886
613.504 -107.96 2886
619.33 -107.773 2881
626.22 -107.773 2881
633.109 -107.773 2881
638.888 -107.586 2876
644.642 -107.399 2871
651.508 -107.399 2871
658.373 -107.399 2871
665.239 -107.399 2871
672.104 -107.399 2871
678.97 -107.399 2871
685.835 -107.399 2871
691.494 -107.212 2866
698.347 -107.212 2866
705.201 -107.212 2866
712.054 -107.212 2866
718.908 -107.212 2866
725.761 -107.212 2866
732.615 -107.212 2866
739.468 -107.212 2866
745.28 -107.062 2862
752.124 -107.062 2862
758.968 -107.062 2862
765.812 -107.062 2862
772.656 -107.062 2862
779.5 -107.062 2862
786.344 -107.062 2862
793.188 -107.062 2862
800.031 -107.062 2862
806.875 -107.062 2862
812.298 -106.875 2857
819.13 -106.875 2857
825.962 -106.875 2857
832.794 -106.875 2857
839.625 -106.875 2857
846.457 -106.875 2857
853.289 -106.875 2857
860.121 -106.875 2857
866.953 -106.875 2857
873.785 -106.875 2857
880.617 -106.875 2857
887.449 -106.875 2857
894.281 -106.875 2857
901.113 -106.875 2857
907.945 -106.875 2857
914.777 -106.875 2857
919.996 -106.688 2852
928.441 -106.875 2857
936.91 -107.062 2862
943.754 -107.062 2862
951.926 -107.212 2866
965.47 -107.96 2886
974.056 -108.147 2891
980.969 -108.147 2891
987.883 -108.147 2891
1266.12 -133.921 3580
1274.69 -133.921 3580
1283.25 -133.921 3580
1308.77 -135.679 3627
1317.44 -135.679 3627
1326.11 -135.679 3627
1331.84 -135.38 3619
1340.5 -135.38 3619
1352.13 -135.679 3627
1360.81 -135.679 3627
1372.5 -135.978 3635
1381.19 -135.978 3635
1389.89 -135.978 3635
1398.58 -135.978 3635
1394.88 -134.781 3603
1391.42 -133.622 3572
1399.96 -133.622 3572
1405.74 -133.36 3565
1407.92 -132.761 3549
1404.84 -131.677 3520
1404.02 -130.816 3497
1412.38 -130.816 3497
1420.74 -130.816 3497
1423.38 -130.292 3483
1428.84 -130.031 3476
1437.15 -130.031 3476
1439.22 -129.469 3461
1438.72 -128.684 3440
1441.05 -128.16 3426
1449.25 -128.16 3426
1442.55 -126.851 3391
1441.67 -126.065 3370
1446.72 -125.803 3363
1454.76 -125.803 3363
1462.81 -125.803 3363
1470.85 -125.803 3363
1478.89 -125.803 3363
1481.18 -125.317 3350
1489.19 -125.317 3350
1491.4 -124.831 3337
1493.08 -124.307 3323
1513.23 -125.317 3350
1521.24 -125.317 3350
1529.25 -125.317 3350
1549.65 -126.327 3377
1593.24 -129.208 3454
1621.44 -130.816 3497
1629.8 -130.816 3497
1645.19 -131.377 3512
1657.36 -131.677 3520
1672.4 -132.2 3534
1680.85 -132.2 3534
1689.3 -132.2 3534
1697.75 -132.2 3534
1706.2 -132.2 3534
1711.26 -131.938 3527
1719.69 -131.938 3527
1724.7 -131.677 3520
1736.56 -131.938 3527
1744.99 -131.938 3527
1753.43 -131.938 3527
1758.37 -131.677 3520
1755.24 -130.816 3497
1763.6 -130.816 3497
1761.32 -130.031 3476
1792.04 -131.677 3520
1800.45 -131.677 3520
1808.87 -131.677 3520
1805.41 -130.816 3497
1813.78 -130.816 3497
1607.29 -108.895 2911
1614.25 -108.895 2911
1621.21 -108.895 2911
1619.79 -108.334 2896
1615.48 -107.586 2876
1603.17 -106.314 2842
1599.21 -105.603 2823
1605.96 -105.603 2823
1604.71 -105.079 2809
1605.69 -104.705 2799
1609.5 -104.518 2794
1616.19 -104.518 2794
1620.54 -104.369 2790
1624.3 -104.182 2785
1628.03 -103.995 2780
1634.68 -103.995 2780
1638.96 -103.845 2776
1640.27 -103.508 2767
1643.91 -103.321 2762
1650.51 -103.321 2762
1651.72 -102.985 2753
1655.29 -102.797 2748
1661.86 -102.797 2748
1668.43 -102.797 2748
1675 -102.797 2748
1681.58 -102.797 2748
1682.62 -102.461 2739
1683.62 -102.124 2730
1690.15 -102.124 2730
1691.08 -101.787 2721
1697.59 -101.787 2721
1701.59 -101.638 2717
1708.09 -101.638 2717
1712.06 -101.488 2713
1715.38 -101.301 2708
1719.31 -101.152 2704
1722.59 -100.965 2699
1729.04 -100.965 2699
1732.92 -100.815 2695
1733.56 -100.478 2686
1737.39 -100.329 2682
1743.8 -100.329 2682
1741.73 -99.8423 2669
1742.88 -99.543 2661
1743.32 -99.2063 2652
1749.66 -99.2063 2652
1756.01 -99.2063 2652
1759.69 -99.0567 2648
1766.02 -99.0567 2648
1772.35 -99.0567 2648
1776 -98.9071 2644
1782.32 -98.9071 2644
1779.85 -98.4207 2631
1788.86 -98.5704 2635
1795.16 -98.5704 2635
1801.46 -98.5704 2635
1807.76 -98.5704 2635
1814.06 -98.5704 2635
1826.58 -98.9071 2644
1832.9 -98.9071 2644
1839.23 -98.9071 2644
1845.55 -98.9071 2644
1851.87 -98.9071 2644
1858.19 -98.9071 2644
1867.34 -99.0567 2648
1873.67 -99.0567 2648
1880 -99.0567 2648
1886.33 -99.0567 2648
1889.81 -98.9071 2644
1893.26 -98.7574 2640
1899.57 -98.7574 2640
1905.89 -98.7574 2640
1908.58 -98.5704 2635
1914.88 -98.5704 2635
1921.18 -98.5704 2635
1927.48 -98.5704 2635
1930.85 -98.4207 2631
1934.19 -98.2711 2627
1937.52 -98.1215 2623
1943.79 -98.1215 2623
1947.09 -97.9718 2619
1953.35 -97.9718 2619
1956.62 -97.8222 2615
1959.88 -97.6726 2611
1966.12 -97.6726 2611
1972.36 -97.6726 2611
1975.58 -97.5229 2607
1978.77 -97.3733 2603
1984.99 -97.3733 2603
1991.22 -97.3733 2603
-2044.02 -95.5844 2730
-2044.21 -95.8995 2739
-2037.66 -95.8995 2739
-2031.11 -95.8995 2739
-2024.56 -95.8995 2739
-2015.06 -95.7595 2735
-2008.52 -95.7595 2735
-1998.32 -95.5844 2730
-1985.23 -95.2693 2721
-1978.72 -95.2693 2721
-1991.78 -96.2146 2748
-1985.21 -96.2146 2748
-1988.72 -96.7048 2762
-1995.03 -97.335 2780
-1995.54 -97.6852 2790
-1988.87 -97.6852 2790
-1982.19 -97.6852 2790
-1975.52 -97.6852 2790
-1968.85 -97.6852 2790
-2218.18 -110.43 3154
-2223.25 -111.06 3172
-2232.43 -111.9 3196
-2224.79 -111.9 3196
-2225.47 -112.32 3208
-2239.23 -113.406 3239
-2285.22 -116.137 3317
-2277.29 -116.137 3317
-2273.46 -116.347 3323
-2265.52 -116.347 3323
-2271.16 -117.047 3343
-2263.16 -117.047 3343
-2287.55 -118.728 3391
-2298.26 -119.708 3419
-2290.09 -119.708 3419
-2281.91 -119.708 3419
-2273.73 -119.708 3419
-2233.09 -117.992 3370
-2248.14 -119.218 3405
-2240 -119.218 3405
-2231.85 -119.218 3405
-2223.71 -119.218 3405
-2242.9 -120.688 3447
-2234.66 -120.688 3447
-2235.45 -121.179 3461
-2227.18 -121.179 3461
-2228.52 -121.704 3476
-2220.21 -121.704 3476
-2230.35 -122.719 3505
-2226.4 -122.964 3512
-2231.9 -123.735 3534
-2223.45 -123.735 3534
-2220.01 -124.015 3542
-2211.54 -124.015 3542
-2203.07 -124.015 3542
-2194.6 -124.015 3542
-2186.13 -124.015 3542
-2177.66 -124.015 3542
-2187.57 -125.065 3572
-2179.02 -125.065 3572
-2180.2 -125.625 3588
-2185.54 -126.431 3611
-2176.91 -126.431 3611
-2168.27 -126.431 3611
-2154.85 -126.15 3603
-2141.47 -125.87 3595
-2132.88 -125.87 3595
-2115.42 -125.345 3580
-2115.68 -125.87 3595
-2107.09 -125.87 3595
-2098.49 -125.87 3595
-2089.89 -125.87 3595
-2081.3 -125.87 3595
-2068.66 -125.625 3588
-2060.08 -125.625 3588
-2046.93 -125.345 3580
-2025.27 -124.54 3557
-2021.3 -124.82 3565
-2012.78 -124.82 3565
-2004.25 -124.82 3565
-1995.73 -124.82 3565
-1987.2 -124.82 3565
-1978.68 -124.82 3565
-1970.15 -124.82 3565
-1952.82 -124.26 3549
-1944.34 -124.26 3549
-1948.4 -125.065 3572
-1939.85 -125.065 3572
-1935.64 -125.345 3580
-1927.08 -125.345 3580
-1918.52 -125.345 3580
-1905.69 -125.065 3572
-1893.43 -124.82 3565
-1876.44 -124.26 3549
-1867.96 -124.26 3549
-1859.47 -124.26 3549
-1839.51 -123.489 3527
-1831.08 -123.489 3527
-1834.01 -124.26 3549
-1825.52 -124.26 3549
-1817.04 -124.26 3549
-1808.55 -124.26 3549
-1800.06 -124.26 3549
-1788.04 -124.015 3542
-1772.04 -123.489 3527
-1752.6 -122.719 3505
-1747.7 -122.964 3512
-1743.27 -123.244 3520
-1734.85 -123.244 3520
-1726.43 -123.244 3520
-1718.02 -123.244 3520
-1709.6 -123.244 3520
-1697.31 -122.964 3512
-1699.5 -123.735 3534
-1691.04 -123.735 3534
-1682.59 -123.735 3534
-1674.14 -123.735 3534
-1669.46 -124.015 3542
-1671.78 -124.82 3565
-1663.25 -124.82 3565
-1654.73 -124.82 3565
-1646.2 -124.82 3565
-1634 -124.54 3557
-1625.5 -124.54 3557
-1613.35 -124.26 3549
-1612.1 -124.82 3565
-1613.92 -125.625 3588
-1608.48 -125.87 3595
-1599.88 -125.87 3595
-1591.28 -125.87 3595
-1582.69 -125.87 3595
-1574.09 -125.87 3595
-1555.48 -125.065 3572
-1553.86 -125.625 3588
-1545.28 -125.625 3588
-1536.7 -125.625 3588
-1528.12 -125.625 3588
-1516.16 -125.345 3580
-1491.59 -124.015 3542
-1483.12 -124.015 3542
-1468.41 -123.489 3527
-1453.76 -122.964 3512
-1367.58 -116.347 3323
-1320.36 -112.986 3227
-1312.64 -112.986 3227
-1289.96 -111.69 3190
-1267.86 -110.43 3154
-1227.55 -107.559 3072
-1220.21 -107.559 3072
-1184.44 -105.038 3000
-1170.98 -104.478 2984
-1155.66 -103.742 2963
-1140.43 -103.007 2942
-1133.4 -103.007 2942
-1122.53 -102.657 2932
-1115.52 -102.657 2932
-1108.51 -102.657 2932
-1101.5 -102.657 2932
-1092.62 -102.482 2927
-1087.47 -102.657 2932
-1082.31 -102.832 2937
-1075.28 -102.832 2937
-1068.26 -102.832 2937
-1061.24 -102.832 2937
-1054.21 -102.832 2937
-1047.19 -102.832 2937
-1040.17 -102.832 2937
-1033.14 -102.832 2937
-1022.63 -102.482 2927
-1015.63 -102.482 2927
-1006.9 -102.307 2922
-998.206 -102.132 2917
-989.192 -101.922 2911
-982.231 -101.922 2911
-973.595 -101.747 2906
-966.645 -101.747 2906
-959.696 -101.747 2906
-952.747 -101.747 2906
-945.798 -101.747 2906
-938.849 -101.747 2906
-930.296 -101.572 2901
-923.359 -101.572 2901
-916.422 -101.572 2901
-909.485 -101.572 2901
-900.992 -101.396 2896
-894.067 -101.396 2896
-887.142 -101.396 2896
-880.216 -101.396 2896
-871.784 -101.221 2891
-864.87 -101.221 2891
-857.957 -101.221 2891
-851.044 -101.221 2891
-844.13 -101.221 2891
-837.217 -101.221 2891
-830.304 -101.221 2891
-823.391 -101.221 2891
-816.477 -101.221 2891
-809.564 -101.221 2891
-802.651 -101.221 2891
-795.738 -101.221 2891
-787.46 -101.046 2886
-780.559 -101.046 2886
-774.998 -101.221 2891
-768.085 -101.221 2891
-761.171 -101.221 2891
-752.954 -101.046 2886
-746.052 -101.046 2886
-739.151 -101.046 2886
-732.25 -101.046 2886
-725.348 -101.046 2886
-718.447 -101.046 2886
-710.313 -100.871 2881
-703.424 -100.871 2881
-695.326 -100.696 2876
-688.448 -100.696 2876
-681.571 -100.696 2876
-673.52 -100.521 2871
-665.494 -100.346 2866
-658.641 -100.346 2866
-650.877 -100.206 2862
-644.033 -100.206 2862
-636.076 -100.031 2857
-631.227 -100.346 2866
-624.373 -100.346 2866
-618.597 -100.521 2871
-612.797 -100.696 2876
-608.026 -101.046 2886
-605.291 -101.747 2906
-598.342 -101.747 2906
-598.719 -103.007 2942
-600.13 -104.478 2984
-592.995 -104.478 2984
-585.859 -104.478 2984
-638.07 -115.191 3290
-632.693 -115.647 3303
-624.794 -115.647 3303
-618.203 -115.892 3310
-611.578 -116.137 3317
-603.647 -116.137 3317
-595.715 -116.137 3317
-588.846 -116.347 3323
-580.9 -116.347 3323
-572.953 -116.347 3323
-565.007 -116.347 3323
-558.234 -116.592 3330
-551.428 -116.837 3337
-543.448 -116.837 3337
-535.468 -116.837 3337
-527.488 -116.837 3337
-518.419 -116.592 3330
-510.456 -116.592 3330
-499.475 -115.892 3310
-489.629 -115.437 3297
-295.029 -78.3932 2239
-290.063 -78.4983 2242
-284.702 -78.4983 2242
-279.341 -78.4983 2242
-273.246 -78.2882 2236
-267.899 -78.2882 2236
-262.905 -78.3932 2239
-257.895 -78.4983 2242
-252.534 -78.4983 2242
-247.504 -78.6033 2245
-242.459 -78.7083 2248
-237.399 -78.8134 2251
-232.017 -78.8134 2251
-226.634 -78.8134 2251
-221.251 -78.8134 2251
-215.868 -78.8134 2251
-210.485 -78.8134 2251
-204.829 -78.7083 2248
-198.921 -78.4983 2242
-193.56 -78.4983 2242
-186.939 -77.9731 2227
-180.635 -77.5529 2215
-174.943 -77.3779 2210
-169.658 -77.3779 2210
-162.588 -76.5376 2186
-156.785 -76.2575 2178
-150.95 -75.9423 2169
-145.226 -75.6622 2161
-140.058 -75.6622 2161
-134.891 -75.6622 2161
-129.363 -75.4522 2155
-124.094 -75.3821 2153
-118.946 -75.3821 2153
-113.48 -75.1721 2147
-108.195 -75.067 2144
-102.972 -74.997 2142
-97.8496 -74.997 2142
-92.5976 -74.892 2139
-87.3599 -74.7869 2136
-82.1365 -74.6819 2133
-77.0359 -74.6819 2133
-71.8678 -74.6119 2131
-66.6779 -74.5068 2128
-61.5024 -74.4018 2125
-56.4209 -74.4018 2125
-51.2669 -74.2967 2122
-46.149 -74.2267 2120
-41.0794 -74.2267 2120
-36.0099 -74.2267 2120
-30.8965 -74.1217 2117
-25.7975 -74.0166 2114
-20.7423 -74.0166 2114
-15.6722 -73.9466 2112
-10.6218 -73.9466 2112
-5.56347 -73.8416 2109
-0.520209 -73.8416 2109
4.52305 -73.8416 2109
9.56631 -73.8416 2109
14.6096 -73.8416 2109
19.6249 -73.7365 2106
24.6375 -73.6665 2104
29.6688 -73.6665 2104
34.7001 -73.6665 2104
39.7314 -73.6665 2104
44.8053 -73.7365 2106
49.8414 -73.7365 2106
54.8775 -73.7365 2106
59.9135 -73.7365 2106
64.8879 -73.6665 2104
69.9193 -73.6665 2104
74.9505 -73.6665 2104
79.9818 -73.6665 2104
85.0132 -73.6665 2104
90.0445 -73.6665 2104
95.0758 -73.6665 2104
100.202 -73.7365 2106
105.238 -73.7365 2106
110.431 -73.8416 2109
115.475 -73.8416 2109
120.518 -73.8416 2109
125.561 -73.8416 2109
130.605 -73.8416 2109
135.841 -73.9466 2112
140.891 -73.9466 2112
146.08 -74.0166 2114
151.349 -74.1217 2117
156.634 -74.2267 2120
161.703 -74.2267 2120
166.773 -74.2267 2120
171.842 -74.2267 2120
177.329 -74.4018 2125
182.411 -74.4018 2125
187.492 -74.4018 2125
193.117 -74.6119 2131
198.399 -74.6819 2133
203.5 -74.6819 2133
208.6 -74.6819 2133
214.302 -74.892 2139
219.417 -74.892 2139
224.532 -74.892 2139
229.969 -74.997 2142
235.311 -75.067 2144
241.447 -75.3821 2153
246.596 -75.3821 2153
251.744 -75.3821 2153
256.893 -75.3821 2153
262.041 -75.3821 2153
267.19 -75.3821 2153
271.959 -75.2771 2150
400.999 -105.038 3000
408.173 -105.038 3000
415.347 -105.038 3000
420.267 -104.478 2984
427.403 -104.478 2984
434.539 -104.478 2984
440.194 -104.127 2974
445.651 -103.742 2963
452.737 -103.742 2963
459.822 -103.742 2963
466.908 -103.742 2963
473.193 -103.567 2958
480.267 -103.567 2958
487.34 -103.567 2958
491.739 -103.007 2942
498.775 -103.007 2942
504.95 -102.832 2937
511.973 -102.832 2937
518.997 -102.832 2937
525.124 -102.657 2932
532.136 -102.657 2932
539.147 -102.657 2932
546.158 -102.657 2932
551.283 -102.307 2922
558.27 -102.307 2922
563.13 -101.922 2911
570.091 -101.922 2911
576.061 -101.747 2906
582.007 -101.572 2901
587.929 -101.396 2896
594.854 -101.396 2896
599.701 -101.046 2886
606.603 -101.046 2886
612.441 -100.871 2881
619.33 -100.871 2881
626.22 -100.871 2881
633.109 -100.871 2881
638.888 -100.696 2876
644.642 -100.521 2871
651.508 -100.521 2871
658.373 -100.521 2871
665.239 -100.521 2871
672.104 -100.521 2871
678.97 -100.521 2871
685.835 -100.521 2871
692.7 -100.521 2871
698.347 -100.346 2866
705.201 -100.346 2866
712.054 -100.346 2866
718.908 -100.346 2866
727.028 -100.521 2871
733.893 -100.521 2871
740.758 -100.521 2871
746.322 -100.346 2866
753.175 -100.346 2866
760.029 -100.346 2866
766.882 -100.346 2866
773.736 -100.346 2866
780.589 -100.346 2866
787.443 -100.346 2866
794.296 -100.346 2866
800.031 -100.206 2862
806.875 -100.206 2862
813.719 -100.206 2862
820.563 -100.206 2862
827.407 -100.206 2862
834.251 -100.206 2862
841.095 -100.206 2862
847.939 -100.206 2862
854.783 -100.206 2862
861.627 -100.206 2862
868.471 -100.206 2862
875.314 -100.206 2862
882.158 -100.206 2862
889.002 -100.206 2862
895.846 -100.206 2862
902.69 -100.206 2862
909.534 -100.206 2862
916.378 -100.206 2862
923.222 -100.206 2862
931.366 -100.346 2866
939.856 -100.521 2871
946.721 -100.521 2871
958.569 -101.046 2886
967.143 -101.221 2891
975.741 -101.396 2896
982.666 -101.396 2896
989.591 -101.396 2896
996.516 -101.396 2896
1003.44 -101.396 2896
1266.12 -125.345 3580
1274.69 -125.345 3580
1283.25 -125.345 3580
1286.4 -124.82 3565
1300.37 -125.345 3580
1308.93 -125.345 3580
1320.43 -125.625 3588
1331.61 -125.87 3595
1352.13 -126.991 3627
1360.81 -126.991 3627
1369.48 -126.991 3627
1378.15 -126.991 3627
1386.83 -126.991 3627
1386.27 -126.15 3603
1385.98 -125.345 3580
1388.69 -124.82 3565
1397.22 -124.82 3565
1399.44 -124.26 3549
1396.42 -123.244 3520
1398.85 -122.719 3505
1401.21 -122.194 3490
1409.55 -122.194 3490
1412.21 -121.704 3476
1420.52 -121.704 3476
1419.79 -120.934 3454
1428.05 -120.934 3454
1430.49 -120.443 3440
1432.86 -119.953 3426
1432.22 -119.218 3405
1440.36 -119.218 3405
1433.62 -117.992 3370
1433.12 -117.292 3350
1438.12 -117.047 3343
1449.14 -117.292 3350
1457.15 -117.292 3350
1465.16 -117.292 3350
1467.46 -116.837 3337
1475.44 -116.837 3337
1483.42 -116.837 3337
1482.46 -116.137 3317
1490.39 -116.137 3317
1498.32 -116.137 3317
1506.25 -116.137 3317
1514.18 -116.137 3317
1537.26 -117.292 3350
1586.79 -120.443 3440
1611.7 -121.704 3476
1620.02 -121.704 3476
1628.33 -121.704 3476
1653.59 -122.964 3512
1665.77 -123.244 3520
1674.19 -123.244 3520
1682.61 -123.244 3520
1694.39 -123.489 3527
1702.82 -123.489 3527
1711.26 -123.489 3527
1712.38 -122.964 3512
1720.78 -122.964 3512
1733.11 -123.244 3520
1741.53 -123.244 3520
1749.95 -123.244 3520
1758.37 -123.244 3520
1755.24 -122.439 3497
1763.6 -122.439 3497
1761.32 -121.704 3476
1792.04 -123.244 3520
1800.45 -123.244 3520
1808.87 -123.244 3520
1805.41 -122.439 3497
1813.78 -122.439 3497
1624.41 -103.007 2942
1631.44 -103.007 2942
1638.48 -103.007 2942
1619.79 -101.396 2896
1615.48 -100.696 2876
1614.46 -100.206 2862
1609.97 -99.5058 2842
1616.77 -99.5058 2842
1609.85 -98.6655 2818
1611.43 -98.3504 2809
1612.38 -98.0003 2799
1619.08 -98.0003 2799
1622.87 -97.8252 2794
1627.22 -97.6852 2790
1633.89 -97.6852 2790
1640.56 -97.6852 2790
1641.33 -97.335 2780
1642.64 -97.0199 2771
1646.88 -96.8799 2767
1653.5 -96.8799 2767
1657.12 -96.7048 2762
1660.71 -96.5297 2757
1667.3 -96.5297 2757
1673.9 -96.5297 2757
1680.49 -96.5297 2757
1684.63 -96.3897 2753
1685.69 -96.0746 2744
1686.7 -95.7595 2735
1693.24 -95.7595 2735
1696.67 -95.5844 2730
1700.71 -95.4444 2726
1704.09 -95.2693 2721
1710.6 -95.2693 2721
1714.58 -95.1292 2717
1715.38 -94.8141 2708
1721.85 -94.8141 2708
1725.78 -94.6741 2704
1732.24 -94.6741 2704
1735.49 -94.499 2699
1736.79 -94.2189 2691
1737.39 -93.9038 2682
1743.8 -93.9038 2682
1747.61 -93.7638 2678
1742.88 -93.1685 2661
1743.32 -92.8534 2652
1749.66 -92.8534 2652
1753.36 -92.7134 2648
1759.69 -92.7134 2648
1766.02 -92.7134 2648
1772.35 -92.7134 2648
1776 -92.5733 2644
1782.32 -92.5733 2644
1782.56 -92.2582 2635
1792.25 -92.4333 2640
1798.57 -92.4333 2640
1804.88 -92.4333 2640
1811.19 -92.4333 2640
1814.06 -92.2582 2635
1826.58 -92.5733 2644
1832.9 -92.5733 2644
1839.23 -92.5733 2644
1845.55 -92.5733 2644
1851.87 -92.5733 2644
1858.19 -92.5733 2644
1870.16 -92.8534 2652
1876.5 -92.8534 2652
1882.84 -92.8534 2652
1889.18 -92.8534 2652
1892.67 -92.7134 2648
1896.13 -92.5733 2644
1899.57 -92.4333 2640
1905.89 -92.4333 2640
1912.2 -92.4333 2640
1914.88 -92.2582 2635
1921.18 -92.2582 2635
1927.48 -92.2582 2635
1933.78 -92.2582 2635
1937.14 -92.1182 2631
1940.48 -91.9781 2627
1946.76 -91.9781 2627
1953.04 -91.9781 2627
1956.34 -91.8381 2623
1959.62 -91.698 2619
1965.88 -91.698 2619
1972.14 -91.698 2619
1975.38 -91.558 2615
1978.61 -91.4179 2611
1981.81 -91.2779 2607
1988.04 -91.2779 2607
1991.22 -91.1378 2603
-2044.02 -89.0447 2730
-2044.21 -89.3382 2739
-2037.66 -89.3382 2739
-2031.11 -89.3382 2739
-2024.56 -89.3382 2739
-2015.06 -89.2078 2735
-2008.52 -89.2078 2735
-1998.32 -89.0447 2730
-1985.23 -88.7511 2721
-1978.72 -88.7511 2721
-1991.78 -89.6318 2748
-1985.21 -89.6318 2748
-1988.72 -90.0884 2762
-1995.03 -90.6755 2780
-1995.54 -91.0017 2790
-1988.87 -91.0017 2790
-1982.19 -91.0017 2790
-1975.52 -91.0017 2790
-1968.85 -91.0017 2790
-2218.18 -102.874 3154
-2223.25 -103.461 3172
-2232.43 -104.244 3196
-2224.79 -104.244 3196
-2225.47 -104.636 3208
-2239.23 -105.647 3239
-2285.22 -108.191 3317
-2277.29 -108.191 3317
-2291.93 -109.267 3350
-2283.92 -109.267 3350
-2275.91 -109.267 3350
-2267.9 -109.267 3350
-2287.55 -110.605 3391
-2298.26 -111.518 3419
-2290.09 -111.518 3419
-2281.91 -111.518 3419
-2273.73 -111.518 3419
-2247 -110.605 3391
-2248.14 -111.061 3405
-2240 -111.061 3405
-2231.85 -111.061 3405
-2237.43 -111.746 3426
-2242.9 -112.431 3447
-2234.66 -112.431 3447
-2235.45 -112.888 3461
-2227.18 -112.888 3461
-2237.49 -113.834 3490
-2229.15 -113.834 3490
-2230.35 -114.323 3505
-2226.4 -114.551 3512
-2231.9 -115.269 3534
-2223.45 -115.269 3534
-2220.01 -115.53 3542
-2211.54 -115.53 3542
-2203.07 -115.53 3542
-2194.6 -115.53 3542
-2186.13 -115.53 3542
-2177.66 -115.53 3542
-2192.46 -116.769 3580
-2183.9 -116.769 3580
-2180.2 -117.03 3588
-2185.54 -117.78 3611
-2176.91 -117.78 3611
-2168.27 -117.78 3611
-2159.64 -117.78 3611
-2146.24 -117.519 3603
-2137.62 -117.519 3603
-2124.28 -117.258 3595
-2115.68 -117.258 3595
-2107.09 -117.258 3595
-2103.16 -117.519 3603
-2094.54 -117.519 3603
-2085.93 -117.519 3603
-2072.7 -117.258 3595
-2064.1 -117.258 3595
-2051.5 -117.03 3588
-2038.37 -116.769 3580
-2025.27 -116.508 3572
-2025.76 -117.03 3588
-2017.18 -117.03 3588
-2008.6 -117.03 3588
-1987.2 -116.28 3565
-1978.68 -116.28 3565
-1970.15 -116.28 3565
-1952.82 -115.758 3549
-1953.1 -116.28 3565
-1948.4 -116.508 3572
-1939.85 -116.508 3572
-1935.64 -116.769 3580
-1927.08 -116.769 3580
-1918.52 -116.769 3580
-1909.96 -116.769 3580
-1893.43 -116.28 3565
-1884.9 -116.28 3565
-1876.38 -116.28 3565
-1859.47 -115.758 3549
-1843.16 -115.269 3534
-1831.08 -115.04 3527
-1834.01 -115.758 3549
-1825.52 -115.758 3549
-1817.04 -115.758 3549
-1808.55 -115.758 3549
-1800.06 -115.758 3549
-1788.04 -115.53 3542
-1772.04 -115.04 3527
-1752.6 -114.323 3505
-1747.7 -114.551 3512
-1743.27 -114.812 3520
-1734.85 -114.812 3520
-1726.43 -114.812 3520
-1718.02 -114.812 3520
-1709.6 -114.812 3520
-1697.31 -114.551 3512
-1699.5 -115.269 3534
-1691.04 -115.269 3534
-1682.59 -115.269 3534
-1674.14 -115.269 3534
-1669.46 -115.53 3542
-1671.78 -116.28 3565
-1663.25 -116.28 3565
-1654.73 -116.28 3565
-1646.2 -116.28 3565
-1634 -116.019 3557
-1625.5 -116.019 3557
-1613.35 -115.758 3549
-1612.1 -116.28 3565
-1613.92 -117.03 3588
-1608.48 -117.258 3595
-1599.88 -117.258 3595
-1591.28 -117.258 3595
-1582.69 -117.258 3595
-1574.09 -117.258 3595
-1555.48 -116.508 3572
-1553.86 -117.03 3588
-1545.28 -117.03 3588
-1536.7 -117.03 3588
-1528.12 -117.03 3588
-1516.16 -116.769 3580
-1491.59 -115.53 3542
-1483.12 -115.53 3542
-1468.41 -115.04 3527
-1453.76 -114.551 3512
-1370.46 -108.615 3330
-1322.81 -105.451 3233
-1315.08 -105.451 3233
-1294.81 -104.44 3202
-1270.27 -103.07 3160
-1234.35 -100.754 3089
-1226.96 -100.754 3089
-1197.46 -98.9277 3033
-1175.3 -97.6882 2995
-1159.95 -97.0032 2974
-1152.83 -97.0032 2974
-1137.63 -96.3183 2953
-1126.36 -95.9595 2942
-1117.42 -95.7964 2937
-1110.4 -95.7964 2937
-1103.38 -95.7964 2937
-1094.49 -95.6333 2932
-1089.33 -95.7964 2937
-1084.15 -95.9595 2942
-1077.11 -95.9595 2942
-1070.08 -95.9595 2942
-1063.04 -95.9595 2942
-1056.01 -95.9595 2942
-1048.97 -95.9595 2942
-1040.17 -95.7964 2937
-1033.14 -95.7964 2937
-1026.12 -95.7964 2937
-1019.1 -95.7964 2937
-1008.63 -95.4702 2927
-999.917 -95.3072 2922
-991.231 -95.1441 2917
-984.255 -95.1441 2917
-977.28 -95.1441 2917
-970.304 -95.1441 2917
-961.348 -94.9484 2911
-954.386 -94.9484 2911
-947.425 -94.9484 2911
-938.849 -94.7853 2906
-931.9 -94.7853 2906
-924.951 -94.7853 2906
-918.002 -94.7853 2906
-909.485 -94.6222 2901
-902.548 -94.6222 2901
-895.611 -94.6222 2901
-888.673 -94.6222 2901
-880.216 -94.4591 2896
-873.291 -94.4591 2896
-866.366 -94.4591 2896
-857.957 -94.296 2891
-851.044 -94.296 2891
-844.13 -94.296 2891
-837.217 -94.296 2891
-830.304 -94.296 2891
-823.391 -94.296 2891
-816.477 -94.296 2891
-809.564 -94.296 2891
-802.651 -94.296 2891
-795.738 -94.296 2891
-788.824 -94.296 2891
-781.911 -94.296 2891
-774.998 -94.296 2891
-768.085 -94.296 2891
-761.171 -94.296 2891
-754.258 -94.296 2891
-747.345 -94.296 2891
-740.432 -94.296 2891
-733.518 -94.296 2891
-726.605 -94.296 2891
-719.692 -94.296 2891
-711.546 -94.1329 2886
-703.424 -93.9698 2881
-696.534 -93.9698 2881
-689.645 -93.9698 2881
-681.571 -93.8068 2876
-673.52 -93.6437 2871
-665.494 -93.4806 2866
-658.641 -93.4806 2866
-651.787 -93.4806 2866
-644.033 -93.3501 2862
-636.076 -93.187 2857
-631.227 -93.4806 2866
-624.373 -93.4806 2866
-617.52 -93.4806 2866
-611.732 -93.6437 2871
-605.919 -93.8068 2876
-602.167 -94.296 2891
-595.253 -94.296 2891
-592.41 -94.9484 2911
-592.689 -96.1226 2947
-585.642 -96.1226 2947
-578.595 -96.1226 2947
-638.07 -107.31 3290
-632.693 -107.734 3303
-624.794 -107.734 3303
-618.203 -107.963 3310
-611.578 -108.191 3317
-603.647 -108.191 3317
-595.715 -108.191 3317
-587.783 -108.191 3317
-579.851 -108.191 3317
-571.919 -108.191 3317
-563.987 -108.191 3317
-557.061 -108.387 3323
-549.114 -108.387 3323
-542.308 -108.615 3330
-534.345 -108.615 3330
-526.382 -108.615 3330
-515.305 -107.963 3310
-507.39 -107.963 3310
-497.513 -107.539 3297
-488.59 -107.31 3290
-307.786 -73.5189 2254
-302.396 -73.5189 2254
-297.006 -73.5189 2254
-289.675 -73.0297 2239
-284.321 -73.0297 2239
-278.967 -73.0297 2239
-272.88 -72.834 2233
-267.899 -72.9318 2236
-263.257 -73.1275 2242
-257.895 -73.1275 2242
-252.534 -73.1275 2242
-247.504 -73.2254 2245
-243.106 -73.5189 2254
-237.716 -73.5189 2254
-232.326 -73.5189 2254
-227.238 -73.6168 2257
-221.841 -73.6168 2257
-216.444 -73.6168 2257
-210.766 -73.5189 2254
-205.103 -73.4211 2251
-199.187 -73.2254 2245
-193.819 -73.2254 2245
-187.695 -72.9318 2236
-181.125 -72.4426 2221
-174.943 -72.0838 2210
-169.658 -72.0838 2210
-163.704 -71.7902 2201
-157.217 -71.2357 2184
-151.159 -70.8443 2172
-145.764 -70.7465 2169
-140.577 -70.7465 2169
-134.891 -70.4855 2161
-129.543 -70.3877 2158
-124.21 -70.2898 2155
-119.056 -70.2898 2155
-113.639 -70.1268 2150
-108.195 -69.9311 2144
-102.972 -69.8658 2142
-97.8496 -69.8658 2142
-92.7274 -69.8658 2142
-87.4826 -69.768 2139
-82.1365 -69.5723 2133
-77.0359 -69.5723 2133
-71.8678 -69.507 2131
-66.5839 -69.3113 2125
-61.5024 -69.3113 2125
-56.4209 -69.3113 2125
-51.2185 -69.1482 2120
-46.149 -69.1482 2120
-41.0794 -69.1482 2120
-36.0099 -69.1482 2120
-30.8965 -69.0504 2117
-25.7975 -68.9525 2114
-20.7423 -68.9525 2114
-15.6722 -68.8873 2112
-10.6218 -68.8873 2112
-5.56347 -68.7895 2109
-0.519469 -68.6916 2106
4.51662 -68.6916 2106
9.5527 -68.6916 2106
14.5888 -68.6916 2106
19.6249 -68.6916 2106
24.6375 -68.6264 2104
29.6688 -68.6264 2104
34.7001 -68.6264 2104
39.7314 -68.6264 2104
44.8053 -68.6916 2106
49.8414 -68.6916 2106
54.8775 -68.6916 2106
59.9135 -68.6916 2106
64.8879 -68.6264 2104
69.9193 -68.6264 2104
74.9505 -68.6264 2104
79.9818 -68.6264 2104
85.0132 -68.6264 2104
90.0445 -68.6264 2104
95.0758 -68.6264 2104
100.202 -68.6916 2106
105.238 -68.6916 2106
110.431 -68.7895 2109
115.475 -68.7895 2109
120.518 -68.7895 2109
125.561 -68.7895 2109
130.605 -68.7895 2109
135.841 -68.8873 2112
140.891 -68.8873 2112
146.08 -68.9525 2114
151.349 -69.0504 2117
156.412 -69.0504 2117
161.474 -69.0504 2117
166.773 -69.1482 2120
171.842 -69.1482 2120
177.079 -69.2135 2122
182.153 -69.2135 2122
187.492 -69.3113 2125
192.845 -69.4092 2128
198.213 -69.507 2131
203.309 -69.507 2131
208.6 -69.5723 2133
214.002 -69.6701 2136
219.417 -69.768 2139
224.532 -69.768 2139
229.969 -69.8658 2142
235.311 -69.9311 2144
241.447 -70.2246 2153
246.596 -70.2246 2153
251.744 -70.2246 2153
256.893 -70.2246 2153
262.041 -70.2246 2153
267.19 -70.2246 2153
401.801 -98.047 3006
408.989 -98.047 3006
416.177 -98.047 3006
422.521 -97.8513 3000
428.262 -97.5251 2990
435.412 -97.5251 2990
440.934 -97.1663 2979
446.403 -96.8075 2968
452.737 -96.6445 2963
459.822 -96.6445 2963
466.908 -96.6445 2963
473.993 -96.6445 2963
481.078 -96.6445 2963
488.164 -96.6445 2963
491.739 -95.9595 2942
498.775 -95.9595 2942
504.95 -95.7964 2937
511.973 -95.7964 2937
518.997 -95.7964 2937
525.124 -95.6333 2932
532.136 -95.6333 2932
538.228 -95.4702 2927
545.227 -95.4702 2927
550.34 -95.1441 2917
557.315 -95.1441 2917
563.13 -94.9484 2911
570.091 -94.9484 2911
576.061 -94.7853 2906
582.007 -94.6222 2901
587.929 -94.4591 2896
594.854 -94.4591 2896
600.74 -94.296 2891
606.603 -94.1329 2886
612.441 -93.9698 2881
619.33 -93.9698 2881
626.22 -93.9698 2881
633.109 -93.9698 2881
638.888 -93.8068 2876
644.642 -93.6437 2871
651.508 -93.6437 2871
658.373 -93.6437 2871
665.239 -93.6437 2871
672.104 -93.6437 2871
678.97 -93.6437 2871
685.835 -93.6437 2871
692.7 -93.6437 2871
699.566 -93.6437 2871
706.431 -93.6437 2871
712.054 -93.4806 2866
720.162 -93.6437 2871
727.028 -93.6437 2871
733.893 -93.6437 2871
740.758 -93.6437 2871
747.624 -93.6437 2871
753.175 -93.4806 2866
760.029 -93.4806 2866
766.882 -93.4806 2866
773.736 -93.4806 2866
781.951 -93.6437 2871
788.816 -93.6437 2871
795.682 -93.6437 2871
802.547 -93.6437 2871
809.413 -93.6437 2871
814.857 -93.4806 2866
821.71 -93.4806 2866
828.563 -93.4806 2866
835.417 -93.4806 2866
842.27 -93.4806 2866
849.124 -93.4806 2866
855.977 -93.4806 2866
862.831 -93.4806 2866
869.684 -93.4806 2866
876.538 -93.4806 2866
883.391 -93.4806 2866
890.245 -93.4806 2866
897.098 -93.4806 2866
903.952 -93.4806 2866
910.805 -93.4806 2866
917.659 -93.4806 2866
924.512 -93.4806 2866
932.99 -93.6437 2871
944.766 -94.1329 2886
951.668 -94.1329 2886
960.23 -94.296 2891
968.816 -94.4591 2896
979.11 -94.7853 2906
986.059 -94.7853 2906
1021.71 -97.5251 2990
1081.17 -102.483 3142
1088.68 -102.483 3142
1100.38 -102.874 3154
1107.92 -102.874 3154
1239.6 -114.323 3505
1247.98 -114.323 3505
1261.74 -114.812 3520
1272.68 -115.04 3527
1289.11 -115.758 3549
1297.59 -115.758 3549
1306.08 -115.758 3549
1317.53 -116.019 3557
1337.59 -117.03 3588
1346.17 -117.03 3588
1357.4 -117.258 3595
1365.99 -117.258 3595
1374.59 -117.258 3595
1371.64 -116.28 3565
1377.07 -116.019 3557
1373.89 -115.04 3527
1373.7 -114.323 3505
1382.09 -114.323 3505
1387.29 -114.062 3497
1384.08 -113.116 3468
1386.75 -112.659 3454
1395.01 -112.659 3454
1403.27 -112.659 3454
1405.81 -112.203 3440
1408.28 -111.746 3426
1416.48 -111.746 3426
1418.85 -111.29 3412
1424.08 -111.061 3405
1417.5 -109.92 3370
1425.56 -109.92 3370
1422.13 -109.039 3343
1424.56 -108.615 3330
1429.51 -108.387 3323
1443.52 -108.843 3337
1451.5 -108.843 3337
1459.48 -108.843 3337
1455.58 -107.963 3310
1463.5 -107.963 3310
1471.41 -107.963 3310
1479.33 -107.963 3310
1487.24 -107.963 3310
1498.32 -108.191 3317
1506.25 -108.191 3317
1514.18 -108.191 3317
1534.05 -109.039 3343
1583.56 -111.974 3433
1601.5 -112.659 3454
1609.76 -112.659 3454
1624.58 -113.116 3468
1636.64 -113.377 3476
1654.89 -114.062 3497
1663.25 -114.062 3497
1678.79 -114.551 3512
1687.18 -114.551 3512
1695.58 -114.551 3512
1703.98 -114.551 3512
1712.38 -114.551 3512
1720.78 -114.551 3512
1729.17 -114.551 3512
1737.57 -114.551 3512
1745.97 -114.551 3512
1746.88 -114.062 3497
1744.7 -113.377 3476
1753.01 -113.377 3476
1761.32 -113.377 3476
1776.76 -113.834 3490
1785.11 -113.834 3490
1793.45 -113.834 3490
1794.57 -113.377 3476
1798.73 -113.116 3468
1728.35 -108.191 3317
1732.62 -107.963 3310
1740.53 -107.963 3310
1744.75 -107.734 3303
1745.75 -107.31 3290
1753.62 -107.31 3290
1761.48 -107.31 3290
1769.35 -107.31 3290
1763.71 -106.495 3265
1750.9 -105.255 3227
1758.62 -105.255 3227
1719.81 -102.483 3142
1624.41 -95.9595 2942
1631.44 -95.9595 2942
1638.48 -95.9595 2942
1614.19 -94.1329 2886
1621.09 -94.1329 2886
1622.35 -93.8068 2876
1609.97 -92.6978 2842
1616.77 -92.6978 2842
1615.57 -92.2411 2828
1613.72 -91.7519 2813
1618.15 -91.6214 2809
1624.86 -91.6214 2809
1625.77 -91.2952 2799
1629.55 -91.1322 2794
1633.89 -91.0017 2790
1640.56 -91.0017 2790
1647.23 -91.0017 2790
1647.97 -90.6755 2780
1649.27 -90.382 2771
1655.89 -90.382 2771
1660.12 -90.2515 2767
1663.72 -90.0884 2762
1670.33 -90.0884 2762
1676.93 -90.0884 2762
1683.54 -90.0884 2762
1687.08 -89.9253 2757
1691.22 -89.7949 2753
1689.17 -89.3382 2739
1695.72 -89.3382 2739
1699.78 -89.2078 2735
1706.32 -89.2078 2735
1704.09 -88.7511 2721
1710.6 -88.7511 2721
1717.11 -88.7511 2721
1721.08 -88.6207 2717
1721.85 -88.3271 2708
1725.78 -88.1966 2704
1732.24 -88.1966 2704
1738.71 -88.1966 2704
1736.79 -87.7726 2691
1739.98 -87.6095 2686
1746.4 -87.6095 2686
1750.22 -87.479 2682
1742.88 -86.7941 2661
1743.32 -86.5005 2652
1749.66 -86.5005 2652
1753.36 -86.3701 2648
1757.03 -86.2396 2644
1763.35 -86.2396 2644
1769.68 -86.2396 2644
1776 -86.2396 2644
1782.32 -86.2396 2644
1788.65 -86.2396 2644
1794.97 -86.2396 2644
1801.29 -86.2396 2644
1807.61 -86.2396 2644
1811.19 -86.1091 2640
1814.06 -85.946 2635
1826.58 -86.2396 2644
1832.9 -86.2396 2644
1839.23 -86.2396 2644
1845.55 -86.2396 2644
1851.87 -86.2396 2644
1858.19 -86.2396 2644
1870.16 -86.5005 2652
1876.5 -86.5005 2652
1882.84 -86.5005 2652
1889.18 -86.5005 2652
1895.52 -86.5005 2652
1899 -86.3701 2648
1902.45 -86.2396 2644
1908.77 -86.2396 2644
1915.1 -86.2396 2644
1921.42 -86.2396 2644
1927.74 -86.2396 2644
1934.07 -86.2396 2644
1937.45 -86.1091 2640
1940.08 -85.946 2635
1946.38 -85.946 2635
1952.69 -85.946 2635
1958.99 -85.946 2635
1962.3 -85.8156 2631
1965.6 -85.6851 2627
1971.89 -85.6851 2627
1978.17 -85.6851 2627
1984.45 -85.6851 2627
1984.67 -85.4242 2619
1984.85 -85.1632 2611
1991.09 -85.1632 2611
1997.34 -85.1632 2611
-2044.02 -82.5049 2730
-2041.22 -82.656 2735
-2034.68 -82.656 2735
-2028.14 -82.656 2735
-2021.6 -82.656 2735
-2015.06 -82.656 2735
-2008.52 -82.656 2735
-1998.32 -82.5049 2730
-1985.23 -82.2329 2721
-1978.72 -82.2329 2721
-1975.84 -82.384 2726
-1969.32 -82.384 2726
-1988.72 -83.472 2762
-1988.57 -83.744 2771
-1988.38 -84.016 2780
-1981.74 -84.016 2780
-1982.19 -84.3182 2790
-1975.52 -84.3182 2790
-1968.85 -84.3182 2790
-2218.18 -95.3189 3154
-2223.25 -95.8629 3172
-2215.66 -95.8629 3172
-2208.08 -95.8629 3172
-2225.47 -96.9509 3208
-2221.95 -97.1322 3214
-2285.22 -100.245 3317
-2277.29 -100.245 3317
-2291.93 -101.242 3350
-2283.92 -101.242 3350
-2275.91 -101.242 3350
-2267.9 -101.242 3350
-2287.55 -102.481 3391
-2298.26 -103.328 3419
-2290.09 -103.328 3419
-2281.91 -103.328 3419
-2273.73 -103.328 3419
-2247 -102.481 3391
-2248.14 -102.905 3405
-2240 -102.905 3405
-2231.85 -102.905 3405
-2237.43 -103.539 3426
-2238.34 -103.962 3440
-2230.12 -103.962 3440
-2235.45 -104.597 3461
