ply
format ascii 1.0
comment File generated
element vertex 2163
property float x
property float y
property float z
end_header
-608.338 -358.688 3433
-598.905 -357.957 3426
-590.713 -357.957 3426
-574.189 -352.837 3377
-563.766 -351.374 3363
-554.733 -350.747 3357
-546.705 -350.747 3357
-538.678 -350.747 3357
-530.65 -350.747 3357
-521.533 -350.016 3350
-513.522 -350.016 3350
-502.493 -347.926 3330
-494.53 -347.926 3330
-486.567 -347.926 3330
-478.604 -347.926 3330
-470.641 -347.926 3330
-462.678 -347.926 3330
-453.759 -347.195 3323
-445.812 -347.195 3323
-375.873 -348.658 3337
-367.893 -348.658 3337
-362.07 -350.747 3357
-356.89 -353.568 3384
-348.798 -353.568 3384
-340.706 -353.568 3384
-329.272 -350.016 3350
-320.59 -349.285 3343
-312.596 -349.285 3343
-303.417 -347.926 3330
-293.058 -345.105 3303
-284.642 -344.478 3297
-276.758 -344.478 3297
-268.303 -343.747 3290
-259.485 -342.493 3278
-251.647 -342.493 3278
-243.808 -342.493 3278
-235.465 -341.762 3271
-226.739 -340.404 3258
-218.545 -339.777 3252
-210.768 -339.777 3252
-202.18 -338.418 3239
-192.934 -335.806 3214
-124.728 -226.1 2164
-119.554 -226.1 2164
-114.379 -226.1 2164
-108.901 -225.473 2158
-103.597 -225.159 2155
-98.4435 -225.159 2155
-93.2036 -224.951 2153
-88.0551 -224.951 2153
-82.6756 -224.324 2147
-77.5415 -224.324 2147
-72.2387 -223.801 2142
-67.0226 -223.488 2139
-61.8208 -223.174 2136
-56.7129 -223.174 2136
-51.4843 -222.652 2131
-46.3231 -222.338 2128
-41.1182 -221.712 2122
-36.0438 -221.712 2122
-30.9403 -221.503 2120
-25.8341 -221.189 2117
-20.7423 -220.876 2114
-15.6871 -220.876 2114
-10.6319 -220.876 2114
-5.57666 -220.876 2114
-0.520949 -220.667 2112
4.52948 -220.667 2112
9.57992 -220.667 2112
14.6303 -220.667 2112
19.6528 -220.353 2109
24.6375 -219.831 2104
29.6688 -219.831 2104
34.7001 -219.831 2104
39.7314 -219.831 2104
44.7627 -219.831 2104
49.794 -219.831 2104
54.8253 -219.831 2104
59.7713 -219.517 2101
64.7029 -219.204 2098
69.7199 -219.204 2098
74.4874 -218.473 2091
79.4877 -218.473 2091
84.2454 -217.846 2085
89.2313 -217.846 2085
94.2172 -217.846 2085
98.5845 -216.487 2072
103.439 -216.278 2070
107.866 -215.234 2060
112.792 -215.234 2060
116.975 -213.875 2047
121.394 -213.04 2039
125.96 -212.517 2034
130.824 -212.517 2034
135.421 -212.099 2030
139.722 -211.263 2022
144.057 -210.532 2015
148.876 -210.532 2015
153.465 -210.219 2012
157.726 -209.487 2005
162.358 -209.278 2003
167.148 -209.278 2003
171.68 -208.965 2000
176.287 -208.756 1998
181.064 -208.756 1998
185.842 -208.756 1998
190.62 -208.756 1998
195.398 -208.756 1998
200.376 -208.965 2000
205.159 -208.965 2000
209.941 -208.965 2000
214.724 -208.965 2000
219.507 -208.965 2000
425.37 -372.48 3565
435.721 -374.047 3580
444.282 -374.047 3580
452.843 -374.047 3580
464.368 -376.45 3603
472.984 -376.45 3603
481.6 -376.45 3603
490.216 -376.45 3603
499.939 -377.286 3611
508.574 -377.286 3611
517.209 -377.286 3611
525.844 -377.286 3611
534.479 -377.286 3611
539.655 -374.883 3588
548.235 -374.883 3588
553.245 -372.48 3565
554.679 -367.778 3520
556.058 -363.181 3476
564.37 -363.181 3476
567.904 -360.151 3447
572.637 -357.957 3426
576.083 -355.031 3398
584.208 -355.031 3398
592.334 -355.031 3398
600.46 -355.031 3398
539.452 -302.581 2896
647.691 -358.688 3433
655.901 -358.688 3433
664.11 -358.688 3433
560.495 -299.029 2862
557.625 -293.909 2813
564.352 -293.909 2813
570.267 -293.491 2809
576.984 -293.491 2809
583.701 -293.491 2809
590.418 -293.491 2809
597.135 -293.491 2809
606.862 -294.954 2823
613.613 -294.954 2823
620.363 -294.954 2823
627.114 -294.954 2823
633.865 -294.954 2823
640.615 -294.954 2823
646.219 -294.431 2818
654.117 -294.954 2823
660.867 -294.954 2823
667.618 -294.954 2823
674.369 -294.954 2823
681.119 -294.954 2823
687.87 -294.954 2823
694.62 -294.954 2823
701.371 -294.954 2823
920.496 -379.793 3635
929.189 -379.793 3635
937.881 -379.793 3635
946.574 -379.793 3635
955.266 -379.793 3635
963.958 -379.793 3635
972.651 -379.793 3635
985.393 -381.361 3650
996.3 -382.196 3658
1005.05 -382.196 3658
1013.79 -382.196 3658
1025.06 -383.137 3667
1033.83 -383.137 3667
1042.6 -383.137 3667
1048.78 -382.196 3658
1057.53 -382.196 3658
1066.28 -382.196 3658
1075.03 -382.196 3658
1083.77 -382.196 3658
1092.52 -382.196 3658
1098.86 -381.361 3650
1107.59 -381.361 3650
1109.28 -378.958 3627
1115.49 -378.122 3619
1124.14 -378.122 3619
1132.8 -378.122 3619
1141.45 -378.122 3619
1147.56 -377.286 3611
1156.2 -377.286 3611
1164.83 -377.286 3611
1170.87 -376.45 3603
1179.48 -376.45 3603
1188.1 -376.45 3603
1196.72 -376.45 3603
1205.33 -376.45 3603
1213.95 -376.45 3603
1222.56 -376.45 3603
1231.18 -376.45 3603
1239.8 -376.45 3603
1248.41 -376.45 3603
1254.24 -375.614 3595
1262.83 -375.614 3595
1271.43 -375.614 3595
1280.03 -375.614 3595
1291.49 -376.45 3603
1300.11 -376.45 3603
1308.72 -376.45 3603
1317.34 -376.45 3603
1325.95 -376.45 3603
1334.57 -376.45 3603
1343.19 -376.45 3603
1348.8 -375.614 3595
1354.75 -374.883 3588
1363.33 -374.883 3588
1371.91 -374.883 3588
1380.49 -374.883 3588
1389.07 -374.883 3588
1394.54 -374.047 3580
1403.1 -374.047 3580
1408.51 -373.211 3572
1417.05 -373.211 3572
1425.59 -373.211 3572
1437.34 -374.047 3580
1455.19 -376.45 3603
1463.81 -376.45 3603
1472.42 -376.45 3603
1481.04 -376.45 3603
1489.66 -376.45 3603
1494.95 -375.614 3595
1500.61 -374.883 3588
1505.83 -374.047 3580
1514.39 -374.047 3580
1500.4 -368.509 3527
1499.43 -366.211 3505
1501.36 -364.643 3490
1509.7 -364.643 3490
1511.96 -363.181 3476
2942.18 -427.228 4089
2951.96 -427.228 4089
2961.74 -427.228 4089
2928.64 -421.064 4030
2917.13 -418.034 4001
2919.39 -416.989 3991
2880.49 -410.093 3925
2889.88 -410.093 3925
2885.97 -408.213 3907
2895.31 -408.213 3907
2814.08 -391.704 3749
2835.85 -393.481 3766
2850.9 -394.316 3774
2859.92 -394.316 3774
2868.95 -394.316 3774
-2691.66 -367.002 3595
-2683.07 -367.002 3595
-2674.47 -367.002 3595
-2665.87 -367.002 3595
-2657.28 -367.002 3595
-2643.52 -366.288 3588
-2629.07 -365.471 3580
-2620.51 -365.471 3580
-2611.95 -365.471 3580
-2360.87 -339.235 3323
-2352.92 -339.235 3323
-2344.98 -339.235 3323
-2337.03 -339.235 3323
-2333.99 -339.949 3330
-2330.92 -340.664 3337
-2322.94 -340.664 3337
-2352.42 -346.177 3391
-2363.67 -349.035 3419
-2365.14 -350.464 3433
-2356.93 -350.464 3433
-2348.72 -350.464 3433
-2340.51 -350.464 3433
-2332.3 -350.464 3433
-2324.09 -350.464 3433
-2292.27 -346.891 3398
-2302.97 -349.75 3426
-2304.15 -351.179 3440
-2295.93 -351.179 3440
-2287.7 -351.179 3440
-2279.47 -351.179 3440
-2271.25 -351.179 3440
-2263.02 -351.179 3440
-2254.8 -351.179 3440
-2219.14 -346.891 3398
-2224.68 -349.035 3419
-2216.5 -349.035 3419
-2226.41 -351.893 3447
-2218.17 -351.893 3447
-2209.93 -351.893 3447
-2197.21 -351.179 3440
-2166.71 -347.606 3405
-1350.17 -411.41 4030
-1343.52 -412.329 4039
-1333.87 -412.329 4039
-1334.04 -415.391 4069
-1324.31 -415.391 4069
-1314.58 -415.391 4069
-1304.85 -415.391 4069
-1301.49 -417.433 4089
-1291.71 -417.433 4089
-1281.93 -417.433 4089
-736.07 -333.926 3271
-731.143 -335.253 3284
-723.29 -335.253 3284
-715.437 -335.253 3284
-703.49 -333.314 3265
-692.912 -331.986 3252
-691.878 -335.253 3284
-684.024 -335.253 3284
-680.083 -337.193 3303
-673.61 -337.907 3310
-676.354 -343.318 3363
-668.312 -343.318 3363
-661.644 -344.033 3370
-656.3 -345.462 3384
-648.208 -345.462 3384
-640.116 -345.462 3384
-638.561 -349.035 3419
-631.676 -349.75 3426
-623.483 -349.75 3426
-615.29 -349.75 3426
-607.098 -349.75 3426
-590.339 -344.747 3377
-582.264 -344.747 3377
-571.808 -343.318 3363
-563.766 -343.318 3363
-554.733 -342.706 3357
-546.705 -342.706 3357
-537.554 -341.991 3350
-529.543 -341.991 3350
-518.419 -339.949 3330
-510.456 -339.949 3330
-502.493 -339.949 3330
-494.53 -339.949 3330
-486.567 -339.949 3330
-478.604 -339.949 3330
-470.641 -339.949 3330
-465.457 -341.991 3350
-461.133 -344.747 3377
-453.057 -344.747 3377
-444.982 -344.747 3377
-394.181 -342.706 3357
-386.153 -342.706 3357
-378.125 -342.706 3357
-370.098 -342.706 3357
-362.07 -342.706 3357
-354.043 -342.706 3357
-346.015 -342.706 3357
-337.987 -342.706 3357
-328.584 -341.276 3343
-319.343 -339.949 3330
-311.38 -339.949 3330
-300.957 -337.193 3303
-293.058 -337.193 3303
-284.642 -336.58 3297
-276.758 -336.58 3297
-268.303 -335.866 3290
-259.96 -335.253 3284
-252.107 -335.253 3284
-244.254 -335.253 3284
-236.401 -335.253 3284
-228.131 -334.641 3278
-220.292 -334.641 3278
-212.453 -334.641 3278
-202.992 -331.986 3252
-130.924 -222.651 2181
-125.708 -222.651 2181
-120.493 -222.651 2181
-114.96 -222.039 2175
-108.901 -220.303 2158
-103.741 -220.303 2158
-98.5805 -220.303 2158
-93.2036 -219.793 2153
-88.0551 -219.793 2153
-82.7911 -219.487 2150
-77.6498 -219.487 2150
-72.3062 -218.874 2144
-67.0226 -218.364 2139
-61.8208 -218.058 2136
-56.7129 -218.058 2136
-51.4843 -217.547 2131
-46.3231 -217.241 2128
-41.1182 -216.628 2122
-36.0438 -216.628 2122
-30.9695 -216.628 2122
-25.8341 -216.118 2117
-20.7717 -216.118 2117
-15.6871 -215.812 2114
-10.6319 -215.812 2114
-5.57666 -215.812 2114
-0.520949 -215.607 2112
4.52948 -215.607 2112
9.57992 -215.607 2112
14.6096 -215.301 2109
19.6528 -215.301 2109
24.6375 -214.791 2104
29.6688 -214.791 2104
34.6507 -214.484 2101
39.6748 -214.484 2101
44.6989 -214.484 2101
49.723 -214.484 2101
54.7472 -214.484 2101
59.686 -214.178 2098
64.6412 -213.974 2096
69.6534 -213.974 2096
74.4874 -213.464 2091
79.4877 -213.464 2091
84.3667 -213.157 2088
89.3597 -213.157 2088
94.2172 -212.851 2085
98.7273 -211.83 2075
103.539 -211.524 2072
108.128 -210.809 2065
113.066 -210.809 2065
116.975 -208.972 2047
121.691 -208.666 2044
126.146 -207.951 2037
131.017 -207.951 2037
135.421 -207.236 2030
139.93 -206.726 2025
144.415 -206.215 2020
149.245 -206.215 2020
153.694 -205.705 2015
157.962 -204.99 2008
162.521 -204.684 2005
167.315 -204.684 2005
171.68 -204.174 2000
176.463 -204.174 2000
181.064 -203.97 1998
185.842 -203.97 1998
190.62 -203.97 1998
195.398 -203.97 1998
200.376 -204.174 2000
205.159 -204.174 2000
209.941 -204.174 2000
214.724 -204.174 2000
219.507 -204.174 2000
432.922 -363.123 3557
442.42 -363.94 3565
450.945 -363.94 3565
461.404 -365.471 3580
471.015 -366.288 3588
479.595 -366.288 3588
488.175 -366.288 3588
497.724 -367.002 3595
507.447 -367.819 3603
516.063 -367.819 3603
524.679 -367.819 3603
531.075 -366.288 3588
536.195 -363.94 3565
544.72 -363.94 3565
546.262 -359.346 3520
500.48 -297.175 2911
507.441 -297.175 2911
514.402 -297.175 2911
518.677 -295.644 2896
525.602 -295.644 2896
532.527 -295.644 2896
539.452 -295.644 2896
546.378 -295.644 2896
553.303 -295.644 2896
553.651 -292.173 2862
560.495 -292.173 2862
560.599 -288.702 2828
564.352 -287.17 2813
570.267 -286.762 2809
576.984 -286.762 2809
584.532 -287.17 2813
591.259 -287.17 2813
597.986 -287.17 2813
606.862 -288.191 2823
613.613 -288.191 2823
620.363 -288.191 2823
627.114 -288.191 2823
633.865 -288.191 2823
640.615 -288.191 2823
646.219 -287.681 2818
654.117 -288.191 2823
660.867 -288.191 2823
667.618 -288.191 2823
674.369 -288.191 2823
681.119 -288.191 2823
687.87 -288.191 2823
695.851 -288.702 2828
702.613 -288.702 2828
710.379 -289.11 2832
717.151 -289.11 2832
723.924 -289.11 2832
938.241 -367.819 3603
946.856 -367.819 3603
955.472 -367.819 3603
964.088 -367.819 3603
972.704 -367.819 3603
994.121 -372.617 3650
1002.85 -372.617 3650
1011.58 -372.617 3650
1020.31 -372.617 3650
1029.03 -372.617 3650
1037.76 -372.617 3650
1046.49 -372.617 3650
1052.91 -371.8 3642
1063.95 -372.617 3650
1072.68 -372.617 3650
1081.4 -372.617 3650
1090.13 -372.617 3650
1094.34 -371.086 3635
1103.04 -371.086 3635
1101.94 -367.819 3603
1108.09 -367.002 3595
1114.51 -366.288 3588
1123.09 -366.288 3588
1131.67 -366.288 3588
1142.48 -367.002 3595
1151.08 -367.002 3595
1159.67 -367.002 3595
1168.27 -367.002 3595
1176.87 -367.002 3595
1183.15 -366.288 3588
1191.73 -366.288 3588
1197.64 -365.471 3580
1206.2 -365.471 3580
1219.85 -367.002 3595
1228.45 -367.002 3595
1237.04 -367.002 3595
1245.64 -367.002 3595
1254.24 -367.002 3595
1262.83 -367.002 3595
1274.26 -367.819 3603
1282.88 -367.819 3603
1291.49 -367.819 3603
1300.11 -367.819 3603
1308.72 -367.819 3603
1317.34 -367.819 3603
1325.95 -367.819 3603
1334.57 -367.819 3603
1343.19 -367.819 3603
1351.8 -367.819 3603
1357.4 -367.002 3595
1363.33 -366.288 3588
1371.91 -366.288 3588
1380.49 -366.288 3588
1389.07 -366.288 3588
1394.54 -365.471 3580
1403.1 -365.471 3580
1408.51 -364.654 3572
1417.05 -364.654 3572
1425.59 -364.654 3572
1437.34 -365.471 3580
1451.96 -367.002 3595
1460.56 -367.002 3595
1469.15 -367.002 3595
1477.75 -367.002 3595
1486.35 -367.002 3595
1494.95 -367.002 3595
1500.61 -366.288 3588
1505.83 -365.471 3580
1514.39 -365.471 3580
1497.43 -359.346 3520
1496 -356.998 3497
1501.36 -356.283 3490
1509.7 -356.283 3490
1518.05 -356.283 3490
1552.59 -272.878 2673
1558.98 -272.878 2673
1580.6 -275.532 2699
1589.99 -276.043 2704
1601.77 -276.962 2713
1608.26 -276.962 2713
1614.74 -276.962 2713
1621.23 -276.962 2713
1627.72 -276.962 2713
1728.18 -263.588 2582
1734.35 -263.588 2582
1740.53 -263.588 2582
1746.7 -263.588 2582
1752.88 -263.588 2582
1759.05 -263.588 2582
1759.76 -262.772 2574
1763.85 -262.465 2571
1756.23 -260.424 2551
1762.33 -260.424 2551
1771.21 -260.832 2555
1777.32 -260.832 2555
1786.22 -261.24 2559
1797.94 -262.057 2567
1804.08 -262.057 2567
1810.22 -262.057 2567
1816.36 -262.057 2567
1811.13 -260.424 2551
1817.23 -260.424 2551
2942.18 -417.433 4089
2951.96 -417.433 4089
2961.74 -417.433 4089
2928.64 -411.41 4030
2917.13 -408.449 4001
2919.39 -407.429 3991
2880.49 -400.691 3925
2889.88 -400.691 3925
2885.97 -398.853 3907
2895.31 -398.853 3907
2814.08 -382.724 3749
2835.85 -384.459 3766
2850.9 -385.276 3774
2859.92 -385.276 3774
2868.95 -385.276 3774
-2691.66 -358.39 3595
-2683.07 -358.39 3595
-2674.47 -358.39 3595
-2665.87 -358.39 3595
-2657.28 -358.39 3595
-2643.52 -357.693 3588
-2629.07 -356.895 3580
-2620.51 -356.895 3580
-2611.95 -356.895 3580
-2360.87 -331.274 3323
-2352.92 -331.274 3323
-2344.98 -331.274 3323
-2337.03 -331.274 3323
-2333.99 -331.972 3330
-2335.11 -333.268 3343
-2327.12 -333.268 3343
-2362.13 -339.449 3405
-2363.67 -340.845 3419
-2365.14 -342.24 3433
-2356.93 -342.24 3433
-2363.09 -344.334 3454
-2354.83 -344.334 3454
-2346.57 -344.334 3454
-2328.83 -342.938 3440
-2315.88 -342.24 3433
-2302.97 -341.543 3426
-2304.15 -342.938 3440
-2295.93 -342.938 3440
-2292.35 -343.636 3447
-2284.11 -343.636 3447
-2275.87 -343.636 3447
-2267.63 -343.636 3447
-2254.8 -342.938 3440
-2242 -342.24 3433
-2242.9 -343.636 3447
-2234.66 -343.636 3447
-2245.14 -346.527 3476
-2236.83 -346.527 3476
-2228.52 -346.527 3476
-2220.21 -346.527 3476
-2188.99 -342.938 3440
-2158.57 -339.449 3405
-2150.43 -339.449 3405
-1350.17 -401.756 4030
-1343.52 -402.653 4039
-1333.87 -402.653 4039
-1334.04 -405.644 4069
-1324.31 -405.644 4069
-1314.58 -405.644 4069
-1304.85 -405.644 4069
-1301.49 -407.638 4089
-1291.71 -407.638 4089
-1281.93 -407.638 4089
-736.07 -326.09 3271
-731.143 -327.386 3284
-723.29 -327.386 3284
-715.437 -327.386 3284
-703.49 -325.492 3265
-692.912 -324.196 3252
-691.878 -327.386 3284
-684.024 -327.386 3284
-680.083 -329.281 3303
-673.61 -329.978 3310
-676.354 -335.262 3363
-668.312 -335.262 3363
-661.644 -335.96 3370
-656.3 -337.355 3384
-648.208 -337.355 3384
-640.116 -337.355 3384
-638.561 -340.845 3419
-631.676 -341.543 3426
-623.483 -341.543 3426
-615.29 -341.543 3426
-607.098 -341.543 3426
-590.339 -336.658 3377
-582.264 -336.658 3377
-571.808 -335.262 3363
-563.766 -335.262 3363
-554.733 -334.664 3357
-546.705 -334.664 3357
-537.554 -333.966 3350
-529.543 -333.966 3350
-518.419 -331.972 3330
-510.456 -331.972 3330
-502.493 -331.972 3330
-494.53 -331.972 3330
-486.567 -331.972 3330
-478.604 -331.972 3330
-470.641 -331.972 3330
-465.457 -333.966 3350
-461.133 -336.658 3377
-453.057 -336.658 3377
-444.982 -336.658 3377
-436.906 -336.658 3377
-428.831 -336.658 3377
-420.755 -336.658 3377
-412.68 -336.658 3377
-404.604 -336.658 3377
-396.529 -336.658 3377
-388.454 -336.658 3377
-380.378 -336.658 3377
-370.098 -334.664 3357
-362.07 -334.664 3357
-354.043 -334.664 3357
-346.015 -334.664 3357
-337.987 -334.664 3357
-328.584 -333.268 3343
-319.343 -331.972 3330
-311.38 -331.972 3330
-300.957 -329.281 3303
-293.058 -329.281 3303
-285.16 -329.281 3303
-277.849 -329.978 3310
-269.934 -329.978 3310
-262.573 -330.676 3317
-254.641 -330.676 3317
-246.709 -330.676 3317
-238.777 -330.676 3317
-230.358 -329.978 3310
-222.442 -329.978 3310
-214.527 -329.978 3310
-205.364 -327.985 3290
-131.764 -218.822 2195
-126.515 -218.822 2195
-121.266 -218.822 2195
-115.277 -217.427 2181
-109.456 -216.231 2169
-103.885 -215.433 2161
-98.7176 -215.433 2161
-93.2902 -214.835 2155
-88.0551 -214.635 2153
-82.9067 -214.635 2153
-77.7582 -214.635 2153
-72.3062 -213.738 2144
-67.0226 -213.24 2139
-61.8208 -212.941 2136
-56.7129 -212.941 2136
-51.4843 -212.442 2131
-46.3231 -212.143 2128
-41.1763 -211.844 2125
-36.0948 -211.844 2125
-30.9695 -211.545 2122
-25.8341 -211.047 2117
-20.7717 -211.047 2117
-15.6871 -210.747 2114
-10.6319 -210.747 2114
-5.57666 -210.747 2114
-0.520949 -210.548 2112
4.52948 -210.548 2112
9.57992 -210.548 2112
14.6096 -210.249 2109
19.6528 -210.249 2109
24.6375 -209.751 2104
29.6688 -209.751 2104
34.6507 -209.452 2101
39.6748 -209.452 2101
44.6989 -209.452 2101
49.723 -209.452 2101
54.7472 -209.452 2101
59.686 -209.152 2098
64.6412 -208.953 2096
69.6534 -208.953 2096
74.4874 -208.455 2091
79.4877 -208.455 2091
84.3667 -208.156 2088
89.3597 -208.156 2088
94.2172 -207.856 2085
98.9652 -207.358 2080
103.539 -206.56 2072
108.389 -206.361 2070
113.339 -206.361 2070
117.261 -204.567 2052
121.87 -204.068 2047
126.27 -203.271 2039
131.145 -203.271 2039
135.688 -202.772 2034
140.275 -202.373 2030
144.415 -201.377 2020
149.245 -201.377 2020
153.694 -200.878 2015
158.119 -200.38 2010
162.521 -199.881 2005
167.315 -199.881 2005
171.938 -199.682 2003
176.463 -199.383 2000
181.246 -199.383 2000
185.842 -199.183 1998
190.62 -199.183 1998
195.398 -199.183 1998
200.376 -199.383 2000
205.159 -199.383 2000
209.941 -199.383 2000
214.724 -199.383 2000
219.507 -199.383 2000
432.922 -354.602 3557
442.42 -355.4 3565
450.945 -355.4 3565
461.404 -356.895 3580
471.015 -357.693 3588
479.595 -357.693 3588
488.175 -357.693 3588
497.724 -358.39 3595
507.447 -359.188 3603
516.063 -359.188 3603
524.679 -359.188 3603
531.075 -357.693 3588
536.195 -355.4 3565
544.72 -355.4 3565
546.262 -350.914 3520
465.332 -294.389 2953
472.393 -294.389 2953
479.455 -294.389 2953
486.516 -294.389 2953
493.578 -294.389 2953
496.231 -291.797 2927
500.48 -290.202 2911
507.441 -290.202 2911
514.402 -290.202 2911
518.677 -288.706 2896
525.602 -288.706 2896
532.527 -288.706 2896
539.452 -288.706 2896
546.378 -288.706 2896
553.303 -288.706 2896
553.651 -285.317 2862
560.495 -285.317 2862
563.374 -283.323 2842
566.358 -281.429 2823
571.079 -280.432 2813
576.984 -280.033 2809
584.532 -280.432 2813
591.259 -280.432 2813
597.986 -280.432 2813
606.862 -281.429 2823
613.613 -281.429 2823
620.363 -281.429 2823
627.114 -281.429 2823
633.865 -281.429 2823
640.615 -281.429 2823
646.219 -280.93 2818
654.117 -281.429 2823
660.867 -281.429 2823
667.618 -281.429 2823
674.369 -281.429 2823
681.119 -281.429 2823
687.87 -281.429 2823
695.851 -281.927 2828
702.613 -281.927 2828
710.379 -282.326 2832
723.482 -284.818 2857
732.615 -285.715 2866
739.468 -285.715 2866
938.241 -359.188 3603
946.856 -359.188 3603
955.472 -359.188 3603
964.088 -359.188 3603
972.704 -359.188 3603
994.121 -363.873 3650
1002.85 -363.873 3650
1011.58 -363.873 3650
1020.31 -363.873 3650
1029.03 -363.873 3650
1037.76 -363.873 3650
1046.49 -363.873 3650
1052.91 -363.076 3642
1063.95 -363.873 3650
1072.68 -363.873 3650
1081.4 -363.873 3650
1090.13 -363.873 3650
1094.34 -362.378 3635
1103.04 -362.378 3635
1101.94 -359.188 3603
1108.09 -358.39 3595
1114.51 -357.693 3588
1123.09 -357.693 3588
1131.67 -357.693 3588
1142.48 -358.39 3595
1151.08 -358.39 3595
1159.67 -358.39 3595
1168.27 -358.39 3595
1176.87 -358.39 3595
1183.15 -357.693 3588
1191.73 -357.693 3588
1197.64 -356.895 3580
1206.2 -356.895 3580
1219.85 -358.39 3595
1231.18 -359.188 3603
1239.8 -359.188 3603
1248.41 -359.188 3603
1254.24 -358.39 3595
1265.64 -359.188 3603
1274.26 -359.188 3603
1282.88 -359.188 3603
1291.49 -359.188 3603
1300.11 -359.188 3603
1308.72 -359.188 3603
1317.34 -359.188 3603
1325.95 -359.188 3603
1334.57 -359.188 3603
1343.19 -359.188 3603
1351.8 -359.188 3603
1357.4 -358.39 3595
1365.99 -358.39 3595
1374.59 -358.39 3595
1380.49 -357.693 3588
1389.07 -357.693 3588
1394.54 -356.895 3580
1403.1 -356.895 3580
1408.51 -356.097 3572
1417.05 -356.097 3572
1425.59 -356.097 3572
1437.34 -356.895 3580
1451.96 -358.39 3595
1460.56 -358.39 3595
1469.15 -358.39 3595
1477.75 -358.39 3595
1486.35 -358.39 3595
1494.95 -358.39 3595
1503.54 -358.39 3595
1505.83 -356.895 3580
1514.39 -356.895 3580
1503.38 -352.309 3534
1505.84 -350.914 3520
1507.81 -349.418 3505
1516.19 -349.418 3505
1518.05 -347.923 3490
1523.33 -347.225 3483
1521.99 -345.032 3461
1530.26 -345.032 3461
1538.54 -345.032 3461
1538.26 -269.565 2704
1544.73 -269.565 2704
1551.19 -269.565 2704
1550.17 -268.269 2691
1556.61 -268.269 2691
1563.04 -268.269 2691
1569.48 -268.269 2691
1580.6 -269.067 2699
1589.99 -269.565 2704
1601.77 -270.463 2713
1608.26 -270.463 2713
1614.74 -270.463 2713
1621.23 -270.463 2713
1627.72 -270.463 2713
1634.21 -270.463 2713
1640.69 -270.463 2713
1647.18 -270.463 2713
1653.67 -270.463 2713
1633.23 -266.076 2669
1634.7 -265.279 2661
1728.86 -260.294 2611
1735.1 -260.294 2611
1741.35 -260.294 2611
1736.21 -258.599 2594
1742.41 -258.599 2594
1740.53 -257.403 2582
1749.41 -257.802 2586
1755.59 -257.802 2586
1761.78 -257.802 2586
1767.96 -257.802 2586
1765.91 -256.606 2574
1756.23 -254.313 2551
1762.33 -254.313 2551
1773.98 -255.11 2559
1780.1 -255.11 2559
1789.01 -255.509 2563
1797.94 -255.908 2567
1804.08 -255.908 2567
1810.22 -255.908 2567
1816.36 -255.908 2567
1811.13 -254.313 2551
1817.23 -254.313 2551
1817.62 -253.515 2543
1823.7 -253.515 2543
1813.23 -251.222 2520
1819.26 -251.222 2520
1811.52 -249.328 2501
1817.5 -249.328 2501
1823.48 -249.328 2501
1829.46 -249.328 2501
1822.23 -247.534 2483
1828.17 -247.534 2483
1831.15 -247.135 2479
1837.08 -247.135 2479
1843.01 -247.135 2479
1840.73 -246.038 2468
1843.64 -245.639 2464
1849.53 -245.639 2464
1855.43 -245.639 2464
1856.03 -244.942 2457
1842.96 -242.449 2432
-2663.21 -346.081 3557
-2654.71 -346.081 3557
-2646.2 -346.081 3557
-2631.76 -345.303 3549
-2623.28 -345.303 3549
-2356.61 -322.73 3317
-2352.92 -323.314 3323
-2344.98 -323.314 3323
-2337.03 -323.314 3323
-2333.99 -323.995 3330
-2335.11 -325.26 3343
-2327.12 -325.26 3343
-2362.13 -331.292 3405
-2363.67 -332.654 3419
-2365.14 -334.017 3433
-2356.93 -334.017 3433
-2363.09 -336.06 3454
-2354.83 -336.06 3454
-2346.57 -336.06 3454
-2328.83 -334.698 3440
-2315.88 -334.017 3433
-2302.97 -333.336 3426
-2304.15 -334.698 3440
-2295.93 -334.698 3440
-2292.35 -335.379 3447
-2284.11 -335.379 3447
-2275.87 -335.379 3447
-2267.63 -335.379 3447
-2254.8 -334.698 3440
-2242 -334.017 3433
-2242.9 -335.379 3447
-2234.66 -335.379 3447
-2245.14 -338.2 3476
-2236.83 -338.2 3476
-2228.52 -338.2 3476
-2220.21 -338.2 3476
-2188.99 -334.698 3440
-2158.57 -331.292 3405
-2150.43 -331.292 3405
-1350.17 -392.102 4030
-1343.52 -392.978 4039
-1333.87 -392.978 4039
-1334.04 -395.897 4069
-1324.31 -395.897 4069
-1314.58 -395.897 4069
-1304.85 -395.897 4069
-1301.49 -397.843 4089
-1291.71 -397.843 4089
-1281.93 -397.843 4089
-736.07 -318.255 3271
-728.248 -318.255 3271
-720.426 -318.255 3271
-711.297 -317.671 3265
-700.689 -316.406 3252
-692.912 -316.406 3252
-689.139 -318.255 3271
-681.317 -318.255 3271
-677.407 -320.103 3290
-669.539 -320.103 3290
-671.125 -324.676 3337
-663.145 -324.676 3337
-655.165 -324.676 3337
-653.585 -327.887 3370
-645.527 -327.887 3370
-637.468 -327.887 3370
-629.409 -327.887 3370
-623.932 -329.249 3384
-615.84 -329.249 3384
-607.747 -329.249 3384
-599.655 -329.249 3384
-587.892 -327.206 3363
-579.85 -327.206 3363
-571.808 -327.206 3363
-560.413 -325.26 3343
-552.419 -325.26 3343
-544.425 -325.26 3343
-536.431 -325.26 3343
-528.437 -325.26 3343
-518.419 -323.995 3330
-510.456 -323.995 3330
-502.493 -323.995 3330
-494.53 -323.995 3330
-486.567 -323.995 3330
-478.604 -323.995 3330
-470.641 -323.995 3330
-465.457 -325.941 3350
-461.133 -328.568 3377
-453.057 -328.568 3377
-444.982 -328.568 3377
-436.906 -328.568 3377
-428.831 -328.568 3377
-420.755 -328.568 3377
-412.68 -328.568 3377
-404.604 -328.568 3377
-396.529 -328.568 3377
-388.454 -328.568 3377
-380.378 -328.568 3377
-370.098 -326.622 3357
-362.07 -326.622 3357
-354.043 -326.622 3357
-346.015 -326.622 3357
-337.987 -326.622 3357
-327.994 -324.676 3337
-319.343 -323.995 3330
-311.38 -323.995 3330
-300.957 -321.368 3303
-293.058 -321.368 3303
-285.16 -321.368 3303
-277.849 -322.049 3310
-269.934 -322.049 3310
-262.573 -322.73 3317
-254.641 -322.73 3317
-246.709 -322.73 3317
-238.777 -322.73 3317
-230.358 -322.049 3310
-222.442 -322.049 3310
-214.527 -322.049 3310
-205.364 -320.103 3290
-131.764 -213.564 2195
-126.515 -213.564 2195
-121.266 -213.564 2195
-115.277 -212.202 2181
-109.456 -211.035 2169
-103.885 -210.256 2161
-98.7176 -210.256 2161
-93.2902 -209.673 2155
-88.0551 -209.478 2153
-82.9067 -209.478 2153
-77.7582 -209.478 2153
-72.3062 -208.602 2144
-67.0226 -208.116 2139
-61.8208 -207.824 2136
-56.7129 -207.824 2136
-51.4843 -207.337 2131
-46.3231 -207.046 2128
-41.1763 -206.754 2125
-36.0948 -206.754 2125
-30.9695 -206.462 2122
-25.8341 -205.975 2117
-20.7717 -205.975 2117
-15.6871 -205.683 2114
-10.6319 -205.683 2114
-5.57666 -205.683 2114
-0.520949 -205.489 2112
4.52948 -205.489 2112
9.57992 -205.489 2112
14.6096 -205.197 2109
19.6249 -204.905 2106
24.6375 -204.71 2104
29.6688 -204.71 2104
34.6507 -204.419 2101
39.6748 -204.419 2101
44.6989 -204.419 2101
49.723 -204.419 2101
54.7472 -204.419 2101
59.686 -204.127 2098
64.6412 -203.932 2096
69.6534 -203.932 2096
74.4874 -203.446 2091
79.4877 -203.446 2091
84.3667 -203.154 2088
89.3597 -203.154 2088
94.2172 -202.862 2085
98.9652 -202.375 2080
103.539 -201.597 2072
108.389 -201.402 2070
113.339 -201.402 2070
117.261 -199.651 2052
121.87 -199.165 2047
126.27 -198.386 2039
131.145 -198.386 2039
135.688 -197.9 2034
140.275 -197.511 2030
144.415 -196.538 2020
149.245 -196.538 2020
153.694 -196.051 2015
158.119 -195.565 2010
162.521 -195.078 2005
167.315 -195.078 2005
171.938 -194.884 2003
176.463 -194.592 2000
181.246 -194.592 2000
185.842 -194.397 1998
190.62 -194.397 1998
195.398 -194.397 1998
200.376 -194.592 2000
205.159 -194.592 2000
209.941 -194.592 2000
214.724 -194.592 2000
219.507 -194.592 2000
431.096 -344.622 3542
440.435 -345.303 3549
448.922 -345.303 3549
460.373 -347.541 3572
468.914 -347.541 3572
477.456 -347.541 3572
485.998 -347.541 3572
495.647 -348.319 3580
504.208 -348.319 3580
512.769 -348.319 3580
521.33 -348.319 3580
529.891 -348.319 3580
529.427 -342.481 3520
537.844 -342.481 3520
465.332 -287.315 2953
472.393 -287.315 2953
479.455 -287.315 2953
486.516 -287.315 2953
493.578 -287.315 2953
496.231 -284.785 2927
500.48 -283.228 2911
507.441 -283.228 2911
514.402 -283.228 2911
518.677 -281.769 2896
525.602 -281.769 2896
532.527 -281.769 2896
539.452 -281.769 2896
546.378 -281.769 2896
547.571 -278.85 2866
553.651 -278.461 2862
560.495 -278.461 2862
563.374 -276.515 2842
566.358 -274.666 2823
571.079 -273.693 2813
576.984 -273.304 2809
584.532 -273.693 2813
591.259 -273.693 2813
597.986 -273.693 2813
605.787 -274.18 2818
613.613 -274.666 2823
620.363 -274.666 2823
627.114 -274.666 2823
633.865 -274.666 2823
640.615 -274.666 2823
645.073 -273.693 2813
652.958 -274.18 2818
659.697 -274.18 2818
667.618 -274.666 2823
674.369 -274.666 2823
681.119 -274.666 2823
687.87 -274.666 2823
695.851 -275.153 2828
702.613 -275.153 2828
710.379 -275.542 2832
723.482 -277.974 2857
732.615 -278.85 2866
739.468 -278.85 2866
756.738 -282.742 2906
763.687 -282.742 2906
770.636 -282.742 2906
777.585 -282.742 2906
784.535 -282.742 2906
1059.57 -353.67 3635
1068.27 -353.67 3635
1076.96 -353.67 3635
1085.65 -353.67 3635
1091.94 -352.892 3627
1100.61 -352.892 3627
1087.87 -346.081 3557
1096.38 -346.081 3557
1104.89 -346.081 3557
1118.09 -347.541 3572
1126.63 -347.541 3572
1140.25 -349.097 3588
1148.83 -349.097 3588
1157.41 -349.097 3588
1163.39 -348.319 3580
1171.96 -348.319 3580
1180.52 -348.319 3580
1189.08 -348.319 3580
1197.64 -348.319 3580
1206.2 -348.319 3580
1219.85 -349.779 3595
1231.18 -350.557 3603
1239.8 -350.557 3603
1248.41 -350.557 3603
1254.24 -349.779 3595
1265.64 -350.557 3603
1274.26 -350.557 3603
1282.88 -350.557 3603
1291.49 -350.557 3603
1300.11 -350.557 3603
1308.72 -350.557 3603
1317.34 -350.557 3603
1325.95 -350.557 3603
1334.57 -350.557 3603
1343.19 -350.557 3603
1351.8 -350.557 3603
1357.4 -349.779 3595
1365.99 -349.779 3595
1374.59 -349.779 3595
1380.49 -349.097 3588
1385.98 -348.319 3580
1394.54 -348.319 3580
1403.1 -348.319 3580
1408.51 -347.541 3572
1417.05 -347.541 3572
1425.59 -347.541 3572
1437.34 -348.319 3580
1451.96 -349.779 3595
1460.56 -349.779 3595
1469.15 -349.779 3595
1477.75 -349.779 3595
1486.35 -349.779 3595
1494.95 -349.779 3595
1503.54 -349.779 3595
1505.83 -348.319 3580
1514.39 -348.319 3580
1503.38 -343.843 3534
1505.84 -342.481 3520
1507.81 -341.022 3505
1516.19 -341.022 3505
1518.05 -339.562 3490
1523.33 -338.881 3483
1521.99 -336.741 3461
1530.26 -336.741 3461
1538.54 -336.741 3461
1538.26 -263.088 2704
1544.73 -263.088 2704
1551.19 -263.088 2704
1550.17 -261.823 2691
1556.61 -261.823 2691
1563.04 -261.823 2691
1569.48 -261.823 2691
1580.6 -262.601 2699
1589.99 -263.088 2704
1601.77 -263.964 2713
1608.26 -263.964 2713
1614.74 -263.964 2713
1621.23 -263.964 2713
1627.72 -263.964 2713
1634.21 -263.964 2713
1640.69 -263.964 2713
1647.18 -263.964 2713
1653.67 -263.964 2713
1633.23 -259.683 2669
1634.7 -258.904 2661
1728.86 -254.039 2611
1735.1 -254.039 2611
1741.35 -254.039 2611
1736.21 -252.385 2594
1742.41 -252.385 2594
1740.53 -251.218 2582
1749.41 -251.607 2586
1755.59 -251.607 2586
1761.78 -251.607 2586
1767.96 -251.607 2586
1765.91 -250.439 2574
1756.23 -248.202 2551
1762.33 -248.202 2551
1773.98 -248.98 2559
1780.1 -248.98 2559
1789.01 -249.369 2563
1797.94 -249.758 2567
1804.08 -249.758 2567
1810.22 -249.758 2567
1816.36 -249.758 2567
1811.13 -248.202 2551
1817.23 -248.202 2551
1817.62 -247.423 2543
1823.7 -247.423 2543
1813.23 -245.186 2520
1819.26 -245.186 2520
1811.52 -243.337 2501
1817.5 -243.337 2501
1823.48 -243.337 2501
1829.46 -243.337 2501
1822.23 -241.586 2483
1828.17 -241.586 2483
1831.15 -241.196 2479
1837.08 -241.196 2479
1843.01 -241.196 2479
1840.73 -240.126 2468
1843.64 -239.737 2464
1849.53 -239.737 2464
1855.43 -239.737 2464
1856.03 -239.056 2457
1842.96 -236.623 2432
-2337.43 -312.222 3290
-2352.92 -315.354 3323
-2344.98 -315.354 3323
-2337.03 -315.354 3323
-2338.9 -316.682 3337
-2340 -317.916 3350
-2331.99 -317.916 3350
-2362.13 -323.136 3405
-2373.35 -325.793 3433
-2365.14 -325.793 3433
-2356.93 -325.793 3433
-2363.09 -327.786 3454
-2354.83 -327.786 3454
-2346.57 -327.786 3454
-2328.83 -326.457 3440
-2315.88 -325.793 3433
-2302.97 -325.129 3426
-2304.15 -326.457 3440
-2295.93 -326.457 3440
-2292.35 -327.121 3447
-2284.11 -327.121 3447
-2275.87 -327.121 3447
-2267.63 -327.121 3447
-2259.38 -327.121 3447
-2246.57 -326.457 3440
-2252.01 -328.45 3461
-2243.73 -328.45 3461
-2249.66 -330.538 3483
-2241.34 -330.538 3483
-2233.01 -330.538 3483
-2224.68 -330.538 3483
-2206.8 -329.114 3468
-2185.2 -327.121 3447
-2176.96 -327.121 3447
-2168.71 -327.121 3447
-1334.04 -386.149 4069
-1324.31 -386.149 4069
-1314.58 -386.149 4069
-1304.85 -386.149 4069
-1295.12 -386.149 4069
-681.506 -270.181 2847
-674.698 -270.181 2847
-667.89 -270.181 2847
-661.082 -270.181 2847
-656.572 -271.13 2857
-649.74 -271.13 2857
-715.143 -301.593 3178
-710.215 -302.732 3190
-706.551 -304.44 3208
-698.88 -304.44 3208
-691.208 -304.44 3208
-692.912 -308.616 3252
-689.139 -310.419 3271
-681.317 -310.419 3271
-677.407 -312.222 3290
-669.539 -312.222 3290
-667.102 -314.784 3317
-659.17 -314.784 3317
-655.165 -316.682 3337
-651.064 -318.58 3357
-643.036 -318.58 3357
-635.009 -318.58 3357
-629.409 -319.814 3370
-622.641 -320.478 3377
-614.566 -320.478 3377
-606.49 -320.478 3377
-598.415 -320.478 3377
-586.843 -318.58 3357
-578.816 -318.58 3357
-570.788 -318.58 3357
-560.413 -317.252 3343
-552.419 -317.252 3343
-544.425 -317.252 3343
-536.431 -317.252 3343
-528.437 -317.252 3343
-518.419 -316.018 3330
-510.456 -316.018 3330
-502.493 -316.018 3330
-494.53 -316.018 3330
-486.567 -316.018 3330
-478.604 -316.018 3330
-469.651 -315.354 3323
-465.457 -317.916 3350
-459.221 -319.15 3363
-451.179 -319.15 3363
-443.137 -319.15 3363
-436.906 -320.478 3377
-428.831 -320.478 3377
-420.755 -320.478 3377
-412.68 -320.478 3377
-404.604 -320.478 3377
-396.529 -320.478 3377
-388.454 -320.478 3377
-380.378 -320.478 3377
-370.098 -318.58 3357
-362.07 -318.58 3357
-354.043 -318.58 3357
-346.015 -318.58 3357
-337.987 -318.58 3357
-328.584 -317.252 3343
-320.014 -316.682 3337
-312.034 -316.682 3337
-303.417 -316.018 3330
-294.833 -315.354 3323
-285.764 -314.12 3310
-278.437 -314.784 3317
-270.505 -314.784 3317
-263.602 -316.018 3330
-255.639 -316.018 3330
-247.676 -316.018 3330
-239.713 -316.018 3330
-231.262 -315.354 3323
-223.316 -315.354 3323
-215.37 -315.354 3323
-206.612 -314.12 3310
-131.764 -208.306 2195
-126.515 -208.306 2195
-121.266 -208.306 2195
-116.017 -208.306 2195
-109.759 -206.408 2175
-104.029 -205.364 2164
-98.8546 -205.364 2164
-93.4201 -204.795 2158
-88.0551 -204.32 2153
-82.9067 -204.32 2153
-77.7582 -204.32 2153
-72.3062 -203.466 2144
-67.1166 -203.276 2142
-61.9076 -202.992 2139
-56.7926 -202.992 2139
-51.4843 -202.233 2131
-46.3231 -201.948 2128
-41.1763 -201.663 2125
-36.0948 -201.663 2125
-30.9695 -201.378 2122
-25.8341 -200.904 2117
-20.7423 -200.619 2114
-15.6871 -200.619 2114
-10.6319 -200.619 2114
-5.57666 -200.619 2114
-0.520949 -200.429 2112
4.52948 -200.429 2112
9.57992 -200.429 2112
14.6096 -200.145 2109
19.6249 -199.86 2106
24.6375 -199.67 2104
29.6688 -199.67 2104
34.6507 -199.386 2101
39.6748 -199.386 2101
44.6989 -199.386 2101
49.723 -199.386 2101
54.7472 -199.386 2101
59.686 -199.101 2098
64.6412 -198.911 2096
69.6534 -198.911 2096
74.4874 -198.437 2091
79.4877 -198.437 2091
84.3667 -198.152 2088
89.3597 -198.152 2088
94.2172 -197.867 2085
98.9652 -197.393 2080
103.539 -196.633 2072
108.389 -196.444 2070
113.339 -196.444 2070
117.432 -195.02 2055
122.168 -194.735 2052
126.579 -193.976 2044
131.467 -193.976 2044
135.888 -193.312 2037
140.275 -192.648 2030
144.558 -191.888 2022
149.393 -191.888 2022
154.076 -191.699 2020
158.277 -190.939 2012
162.764 -190.56 2008
167.565 -190.56 2008
171.938 -190.085 2003
176.728 -190.085 2003
181.246 -189.801 2000
186.028 -189.801 2000
190.811 -189.801 2000
195.594 -189.801 2000
200.376 -189.801 2000
205.466 -190.085 2003
210.256 -190.085 2003
215.046 -190.085 2003
220.385 -190.56 2008
225.186 -190.56 2008
229.988 -190.56 2008
427.445 -333.29 3512
438.573 -335.378 3534
447.024 -335.378 3534
457.408 -336.801 3549
466.945 -337.56 3557
477.456 -338.984 3572
485.998 -338.984 3572
494.54 -338.984 3572
504.208 -339.743 3580
512.769 -339.743 3580
521.33 -339.743 3580
453.501 -281.664 2968
460.598 -281.664 2968
467.695 -281.664 2968
472.393 -280.241 2953
479.455 -280.241 2953
486.516 -280.241 2953
493.578 -280.241 2953
496.231 -277.773 2927
500.48 -276.255 2911
504.826 -274.831 2896
511.751 -274.831 2896
517.781 -274.357 2891
525.602 -274.831 2896
532.527 -274.831 2896
539.452 -274.831 2896
544.491 -273.882 2886
547.571 -271.984 2866
551.716 -270.656 2852
558.536 -270.656 2852
563.374 -269.707 2842
567.361 -268.378 2828
573.109 -267.904 2823
579.859 -267.904 2823
586.61 -267.904 2823
593.361 -267.904 2823
600.111 -267.904 2823
604.712 -266.955 2813
612.526 -267.429 2818
619.265 -267.429 2818
626.003 -267.429 2818
632.742 -267.429 2818
639.481 -267.429 2818
645.073 -266.955 2813
652.958 -267.429 2818
659.697 -267.429 2818
666.435 -267.429 2818
673.174 -267.429 2818
681.119 -267.904 2823
689.088 -268.378 2828
695.851 -268.378 2828
702.613 -268.378 2828
710.379 -268.758 2832
723.482 -271.13 2857
732.615 -271.984 2866
739.468 -271.984 2866
756.738 -275.78 2906
763.687 -275.78 2906
770.636 -275.78 2906
777.585 -275.78 2906
784.535 -275.78 2906
774.052 -269.707 2842
780.849 -269.707 2842
787.645 -269.707 2842
793.043 -269.232 2837
798.418 -268.758 2832
805.19 -268.758 2832
811.962 -268.758 2832
818.734 -268.758 2832
882.655 -273.882 2886
889.556 -273.882 2886
896.457 -273.882 2886
892.716 -270.656 2852
899.536 -270.656 2852
1143.71 -338.984 3572
1152.25 -338.984 3572
1160.79 -338.984 3572
1167.05 -338.32 3565
1175.57 -338.32 3565
1186.42 -338.984 3572
1194.96 -338.984 3572
1208.89 -340.502 3588
1222.56 -341.926 3603
1233.91 -342.685 3611
1242.55 -342.685 3611
1251.18 -342.685 3611
1262.61 -343.444 3619
1271.26 -343.444 3619
1282.75 -344.203 3627
1291.42 -344.203 3627
1300.09 -344.203 3627
1308.77 -344.203 3627
1317.44 -344.203 3627
1320.26 -342.685 3611
1328.9 -342.685 3611
1337.53 -342.685 3611
1346.17 -342.685 3611
1351.8 -341.926 3603
1357.4 -341.167 3595
1365.99 -341.167 3595
1374.59 -341.167 3595
1383.19 -341.167 3595
1389.07 -340.502 3588
1394.54 -339.743 3580
1403.1 -339.743 3580
1408.51 -338.984 3572
1417.05 -338.984 3572
1422.79 -338.32 3565
1434.13 -338.984 3572
1449.13 -340.502 3588
1457.71 -340.502 3588
1469.15 -341.167 3595
1477.75 -341.167 3595
1486.35 -341.167 3595
1494.95 -341.167 3595
1503.54 -341.167 3595
1509.19 -340.502 3588
1517.77 -340.502 3588
1503.38 -335.378 3534
1511.83 -335.378 3534
1520.28 -335.378 3534
1528.73 -335.378 3534
1524.57 -332.626 3505
1532.95 -332.626 3505
1577.83 -340.502 3588
1586.41 -340.502 3588
1594.99 -340.502 3588
1502.34 -251.676 2652
1538.26 -256.61 2704
1544.73 -256.61 2704
1551.19 -256.61 2704
1557.66 -256.61 2704
1564.13 -256.61 2704
1563.04 -255.377 2691
1569.48 -255.377 2691
1580.6 -256.136 2699
1589.99 -256.61 2704
1604.13 -257.844 2717
1610.63 -257.844 2717
1617.13 -257.844 2717
1621.23 -257.465 2713
1627.72 -257.465 2713
1634.21 -257.465 2713
1640.69 -257.465 2713
1647.18 -257.465 2713
1653.67 -257.465 2713
1633.23 -253.289 2669
1634.7 -252.53 2661
1670.05 -256.99 2708
1676.53 -256.99 2708
1683 -256.99 2708
1689.48 -256.99 2708
1674.03 -253.669 2673
1680.42 -253.669 2673
1692.5 -254.523 2682
1698.91 -254.523 2682
1705.32 -254.523 2682
1711.74 -254.523 2682
1718.15 -254.523 2682
1718.78 -253.669 2673
1720 -252.909 2665
1699.17 -248.924 2623
1705.44 -248.924 2623
1711.71 -248.924 2623
1717.99 -248.924 2623
1724.26 -248.924 2623
1730.53 -248.924 2623
1731.51 -248.164 2615
1737.76 -248.164 2615
1744.01 -248.164 2615
1744.91 -247.405 2607
1751.15 -247.405 2607
1748.62 -246.171 2594
1752.11 -245.792 2590
1758.31 -245.792 2590
1764.5 -245.792 2590
1770.69 -245.792 2590
1771.4 -245.033 2582
1764.49 -243.23 2563
1770.62 -243.23 2563
1773.98 -242.85 2559
1782.88 -243.23 2563
1796.69 -244.273 2574
1802.84 -244.273 2574
1809 -244.273 2574
1815.15 -244.273 2574
1816.36 -243.609 2567
1813.97 -242.47 2555
1820.08 -242.47 2555
1823.33 -242.091 2551
1823.7 -241.332 2543
1829.78 -241.332 2543
1835.86 -241.332 2543
1825.28 -239.149 2520
1825.49 -238.39 2512
1823.48 -237.346 2501
1829.46 -237.346 2501
1835.44 -237.346 2501
1838.48 -236.966 2497
1842.23 -236.681 2494
1848.2 -236.681 2494
1854.16 -236.681 2494
1848.94 -235.258 2479
1857.86 -235.638 2483
1863.8 -235.638 2483
1869.73 -235.638 2483
1872.65 -235.258 2479
1861.91 -233.17 2457
1867.78 -233.17 2457
1873.66 -233.17 2457
1879.53 -233.17 2457
-2352.92 -307.393 3323
-2344.98 -307.393 3323
-2356.02 -309.891 3350
-2348.01 -309.891 3350
-2368.64 -313.684 3391
-2360.53 -313.684 3391
-2362.13 -314.979 3405
-2373.35 -317.569 3433
-2374.78 -318.864 3447
-2366.54 -318.864 3447
-2363.09 -319.512 3454
-2354.83 -319.512 3454
-2346.57 -319.512 3454
-2328.83 -318.217 3440
-2311.16 -316.922 3426
-2307.67 -317.569 3433
-2308.84 -318.864 3447
-2300.6 -318.864 3447
-2292.35 -318.864 3447
-2293.39 -320.159 3461
-2285.11 -320.159 3461
-2276.84 -320.159 3461
-2268.56 -320.159 3461
-2260.28 -320.159 3461
-2261.77 -321.547 3476
-2253.46 -321.547 3476
-2263.87 -324.229 3505
-2255.49 -324.229 3505
-2247.11 -324.229 3505
-2238.73 -324.229 3505
-2216.35 -322.194 3483
-2198.51 -320.807 3468
-2190.22 -320.807 3468
-2173.12 -319.512 3454
-2164.86 -319.512 3454
-1850.41 -340.695 3683
-1841.61 -340.695 3683
-1832.8 -340.695 3683
-1742.73 -362.249 3916
-1733.37 -362.249 3916
-1724.01 -362.249 3916
-686.821 -260.216 2813
-683.721 -261.604 2828
-681.506 -263.361 2847
-674.698 -263.361 2847
-667.89 -263.361 2847
-661.082 -263.361 2847
-656.572 -264.286 2857
-649.74 -264.286 2857
-642.908 -264.286 2857
-703.536 -292.315 3160
-702.586 -295.09 3190
-694.958 -295.09 3190
-689.916 -296.2 3202
-688.864 -299.068 3233
-687.875 -302.028 3265
-680.067 -302.028 3265
-676.171 -303.786 3284
-668.318 -303.786 3284
-664.287 -305.543 3303
-656.388 -305.543 3303
-659.092 -310.539 3357
-652.228 -311.094 3363
-644.186 -311.094 3363
-636.144 -311.094 3363
-629.409 -311.741 3370
-622.641 -312.389 3377
-614.566 -312.389 3377
-606.49 -312.389 3377
-598.415 -312.389 3377
-589.116 -311.741 3370
-581.057 -311.741 3370
-570.788 -310.539 3357
-562.76 -310.539 3357
-553.576 -309.891 3350
-545.565 -309.891 3350
-537.554 -309.891 3350
-529.543 -309.891 3350
-521.533 -309.891 3350
-513.522 -309.891 3350
-504.455 -309.244 3343
-496.46 -309.244 3343
-488.466 -309.244 3343
-480.472 -309.244 3343
-470.641 -308.041 3330
-465.457 -309.891 3350
-459.221 -311.094 3363
-451.179 -311.094 3363
-443.137 -311.094 3363
-436.001 -311.741 3370
-427.942 -311.741 3370
-420.755 -312.389 3377
-412.68 -312.389 3377
-404.604 -312.389 3377
-396.529 -312.389 3377
-388.454 -312.389 3377
-380.378 -312.389 3377
-370.759 -311.094 3363
-362.07 -310.539 3357
-354.043 -310.539 3357
-346.015 -310.539 3357
-337.987 -310.539 3357
-329.272 -309.891 3350
-320.59 -309.244 3343
-312.596 -309.244 3343
-303.417 -308.041 3330
-295.454 -308.041 3330
-287.491 -308.041 3330
-281.207 -309.891 3350
-273.196 -309.891 3350
-265.739 -310.539 3357
-259.784 -313.036 3384
-251.692 -313.036 3384
-243.6 -313.036 3384
-235.508 -313.036 3384
-226.004 -311.094 3363
-217.962 -311.094 3363
-209.92 -311.094 3363
-131.764 -203.048 2195
-126.515 -203.048 2195
-121.266 -203.048 2195
-116.017 -203.048 2195
-109.759 -201.198 2175
-104.27 -200.643 2169
-99.083 -200.643 2169
-93.6798 -200.18 2164
-88.1369 -199.348 2155
-82.9067 -199.163 2153
-77.7582 -199.163 2153
-72.3062 -198.33 2144
-67.1166 -198.145 2142
-61.9076 -197.868 2139
-56.7926 -197.868 2139
-51.4843 -197.128 2131
-46.3231 -196.85 2128
-41.1763 -196.573 2125
-36.0948 -196.573 2125
-30.9695 -196.295 2122
-25.8341 -195.833 2117
-20.7423 -195.555 2114
-15.6722 -195.37 2112
-10.6218 -195.37 2112
-5.57138 -195.37 2112
-0.520949 -195.37 2112
4.52948 -195.37 2112
9.57992 -195.37 2112
14.6096 -195.093 2109
19.6249 -194.815 2106
24.6024 -194.353 2101
29.6265 -194.353 2101
34.6507 -194.353 2101
39.6748 -194.353 2101
44.6989 -194.353 2101
49.723 -194.353 2101
54.669 -194.075 2098
59.686 -194.075 2098
64.6412 -193.89 2096
69.6534 -193.89 2096
74.4874 -193.428 2091
79.4877 -193.428 2091
84.4879 -193.428 2091
89.4881 -193.428 2091
94.2172 -192.873 2085
98.9652 -192.41 2080
103.689 -191.947 2075
108.389 -191.485 2070
113.339 -191.485 2070
117.432 -190.097 2055
122.168 -189.82 2052
126.579 -189.08 2044
131.467 -189.08 2044
135.888 -188.432 2037
140.413 -187.97 2032
144.558 -187.045 2022
149.393 -187.045 2022
154.076 -186.86 2020
158.277 -186.12 2012
162.926 -185.935 2010
167.732 -185.935 2010
171.938 -185.287 2003
176.728 -185.287 2003
181.246 -185.01 2000
186.028 -185.01 2000
190.811 -185.01 2000
195.594 -185.01 2000
200.376 -185.01 2000
205.672 -185.472 2005
210.466 -185.472 2005
215.261 -185.472 2005
220.385 -185.75 2008
225.186 -185.75 2008
229.988 -185.75 2008
423.915 -322.194 3483
437.705 -326.264 3527
446.139 -326.264 3527
457.408 -328.3 3549
465.895 -328.3 3549
474.382 -328.3 3549
482.868 -328.3 3549
492.463 -329.04 3557
500.969 -329.04 3557
509.475 -329.04 3557
449.712 -276.589 2990
456.862 -276.589 2990
464.012 -276.589 2990
467.695 -274.554 2968
471.434 -272.612 2947
476.857 -271.687 2937
482.233 -270.762 2927
489.232 -270.762 2927
492.671 -268.819 2906
497.901 -267.894 2896
503.955 -267.431 2891
510.868 -267.431 2891
516.886 -266.969 2886
523.787 -266.969 2886
530.688 -266.969 2886
537.59 -266.969 2886
541.661 -265.581 2871
547.571 -265.119 2866
551.716 -263.824 2852
558.536 -263.824 2852
565.356 -263.824 2852
569.167 -262.436 2837
574.124 -261.604 2828
579.859 -261.141 2823
586.61 -261.141 2823
593.361 -261.141 2823
600.111 -261.141 2823
606.862 -261.141 2823
613.613 -261.141 2823
619.265 -260.679 2818
626.003 -260.679 2818
632.742 -260.679 2818
639.481 -260.679 2818
646.219 -260.679 2818
652.958 -260.679 2818
659.697 -260.679 2818
666.435 -260.679 2818
673.174 -260.679 2818
681.119 -261.141 2823
689.088 -261.604 2828
695.851 -261.604 2828
702.613 -261.604 2828
710.379 -261.974 2832
718.418 -262.436 2837
726.48 -262.899 2842
733.276 -262.899 2842
743.978 -264.286 2857
750.81 -264.286 2857
757.642 -264.286 2857
764.474 -264.286 2857
771.306 -264.286 2857
774.052 -262.899 2842
780.849 -262.899 2842
787.645 -262.899 2842
793.043 -262.436 2837
798.418 -261.974 2832
805.19 -261.974 2832
811.962 -261.974 2832
818.734 -261.974 2832
822.883 -261.141 2823
857.111 -263.361 2847
865.436 -263.824 2852
882.655 -266.969 2886
889.556 -266.969 2886
896.457 -266.969 2886
892.716 -263.824 2852
899.536 -263.824 2852
903.178 -262.899 2842
1156.9 -326.912 3534
1175.57 -329.78 3565
1191.73 -331.907 3588
1200.31 -331.907 3588
1216.64 -334.035 3611
1225.28 -334.035 3611
1236.65 -334.775 3619
1245.3 -334.775 3619
1253.96 -334.775 3619
1265.4 -335.515 3627
1274.07 -335.515 3627
1285.58 -336.255 3635
1294.27 -336.255 3635
1302.96 -336.255 3635
1311.65 -336.255 3635
1320.35 -336.255 3635
1326.11 -335.515 3627
1331.84 -334.775 3619
1337.53 -334.035 3611
1346.17 -334.035 3611
1354.8 -334.035 3611
1360.42 -333.295 3603
1365.99 -332.555 3595
1374.59 -332.555 3595
1383.19 -332.555 3595
1389.07 -331.907 3588
1394.54 -331.167 3580
1403.1 -331.167 3580
1408.51 -330.427 3572
1417.05 -330.427 3572
1425.59 -330.427 3572
1434.13 -330.427 3572
1449.13 -331.907 3588
1457.71 -331.907 3588
1469.15 -332.555 3595
1477.75 -332.555 3595
1486.35 -332.555 3595
1494.95 -332.555 3595
1503.54 -332.555 3595
1512.14 -332.555 3595
1520.74 -332.555 3595
1503.38 -326.912 3534
1518.25 -328.3 3549
1526.74 -328.3 3549
1535.22 -328.3 3549
1543.71 -328.3 3549
1562.26 -330.427 3572
1577.83 -331.907 3588
1586.41 -331.907 3588
1594.99 -331.907 3588
1496 -245.323 2652
1511.97 -246.895 2669
1538.26 -250.133 2704
1544.73 -250.133 2704
1553.49 -250.503 2708
1559.96 -250.503 2708
1566.44 -250.503 2708
1567.69 -249.671 2699
1574.14 -249.671 2699
1580.6 -249.671 2699
1597.63 -251.336 2717
1609.44 -252.168 2726
1615.96 -252.168 2726
1622.48 -252.168 2726
1629 -252.168 2726
1635.52 -252.168 2726
1634.21 -250.966 2713
1640.69 -250.966 2713
1647.18 -250.966 2713
1653.67 -250.966 2713
1630.79 -246.525 2665
1631.63 -245.693 2656
1670.05 -250.503 2708
1676.53 -250.503 2708
1683 -250.503 2708
1689.48 -250.503 2708
1674.03 -247.265 2673
1680.42 -247.265 2673
1692.5 -248.098 2682
1698.91 -248.098 2682
1705.32 -248.098 2682
1711.74 -248.098 2682
1718.15 -248.098 2682
1718.78 -247.265 2673
1720 -246.525 2665
1699.17 -242.64 2623
1705.44 -242.64 2623
1711.71 -242.64 2623
1717.99 -242.64 2623
1724.26 -242.64 2623
1730.53 -242.64 2623
1734.16 -242.27 2619
1740.42 -242.27 2619
1746.68 -242.27 2619
1750.27 -241.9 2615
1756.52 -241.9 2615
1748.62 -239.957 2594
1752.11 -239.587 2590
1758.31 -239.587 2590
1764.5 -239.587 2590
1770.69 -239.587 2590
1771.4 -238.847 2582
1767.25 -237.46 2567
1773.39 -237.46 2567
1779.52 -237.46 2567
1796.1 -238.847 2582
1805.06 -239.217 2586
1814.05 -239.587 2590
1820.24 -239.587 2590
1826.44 -239.587 2590
1832.63 -239.587 2590
1825.33 -237.83 2571
