ply
format ascii 1.0
comment File generated
element vertex 2155
property float x
property float y
property float z
end_header
638.888 -52.4699 2876
645.765 -52.4699 2876
652.642 -52.4699 2876
659.52 -52.4699 2876
666.397 -52.4699 2876
673.275 -52.4699 2876
680.152 -52.4699 2876
687.029 -52.4699 2876
693.907 -52.4699 2876
700.784 -52.4699 2876
707.662 -52.4699 2876
714.539 -52.4699 2876
721.416 -52.4699 2876
728.294 -52.4699 2876
735.171 -52.4699 2876
742.048 -52.4699 2876
748.926 -52.4699 2876
755.803 -52.4699 2876
762.681 -52.4699 2876
769.558 -52.4699 2876
776.435 -52.4699 2876
783.313 -52.4699 2876
790.19 -52.4699 2876
797.068 -52.4699 2876
802.547 -52.3786 2871
809.413 -52.3786 2871
816.278 -52.3786 2871
824.577 -52.4699 2876
831.455 -52.4699 2876
838.332 -52.4699 2876
845.209 -52.4699 2876
853.568 -52.5611 2881
860.457 -52.5611 2881
867.347 -52.5611 2881
874.236 -52.5611 2881
881.125 -52.5611 2881
886.474 -52.4699 2876
894.904 -52.5611 2881
906.489 -52.8347 2896
920.037 -53.2179 2917
927.013 -53.2179 2917
940.392 -53.5828 2937
950.641 -53.7652 2947
964.513 -54.1483 2968
971.61 -54.1483 2968
985.962 -54.5497 2990
1005.73 -55.243 3028
1018.33 -55.5349 3044
1025.61 -55.5349 3044
1050.19 -56.4653 3095
1085.95 -57.9796 3178
1112.48 -58.983 3233
1120.21 -58.983 3233
1141.2 -59.6763 3271
1172.2 -60.8804 3337
1209.18 -62.3764 3419
1217.36 -62.3764 3419
1233.06 -62.7595 3440
1246.34 -63.0149 3454
1254.6 -63.0149 3454
1262.86 -63.0149 3454
1263.39 -62.6318 3433
1274.19 -62.7595 3440
1298.45 -63.544 3483
1306.78 -63.544 3483
1320.39 -63.7994 3497
1328.76 -63.7994 3497
1337.12 -63.7994 3497
1340.1 -63.544 3483
1339.91 -63.1426 3461
1342.73 -62.8872 3447
1348.23 -62.7595 3440
1356.46 -62.7595 3440
1353.57 -62.2487 3412
1347.76 -61.6101 3377
1345 -61.1175 3350
1353.01 -61.1175 3350
1361.02 -61.1175 3350
1369.03 -61.1175 3350
1374.17 -60.9898 3343
1382.16 -60.9898 3343
1387.66 -60.8804 3337
1395.64 -60.8804 3337
1403.62 -60.8804 3337
1411.6 -60.8804 3337
1413.62 -60.625 3323
1419 -60.5155 3317
1426.93 -60.5155 3317
1437.46 -60.625 3323
1445.41 -60.625 3323
1453.35 -60.625 3323
1461.3 -60.625 3323
1466.59 -60.5155 3317
1474.53 -60.5155 3317
1482.46 -60.5155 3317
1487.24 -60.3878 3310
1495.16 -60.3878 3310
1503.07 -60.3878 3310
1510.99 -60.3878 3310
1509.73 -60.0229 3290
1512.06 -59.804 3278
1540.76 -60.625 3323
1548.71 -60.625 3323
1569.3 -61.1175 3350
1583.44 -61.3547 3363
1608.04 -61.9933 3398
1616.17 -61.9933 3398
1624.29 -61.9933 3398
1632.42 -61.9933 3398
1640.54 -61.9933 3398
1648.67 -61.9933 3398
1653.38 -61.8655 3391
1651.2 -61.4824 3370
1655.81 -61.3547 3363
1663.85 -61.3547 3363
1671.9 -61.3547 3363
1669.95 -60.9898 3343
1674.93 -60.8804 3337
1682.91 -60.8804 3337
1687.34 -60.7527 3330
1705.49 -61.1175 3350
1713.5 -61.1175 3350
1721.51 -61.1175 3350
1729.52 -61.1175 3350
1727.16 -60.7527 3330
1717.93 -60.1506 3297
1712.2 -59.6763 3271
1720.02 -59.6763 3271
1724.68 -59.5668 3265
1732.48 -59.5668 3265
1740.29 -59.5668 3265
1748.1 -59.5668 3265
1752.14 -59.4391 3258
1756.69 -59.3296 3252
1757.41 -59.0925 3239
1765.16 -59.0925 3239
1739.52 -57.9796 3178
1727.32 -57.3228 3142
1715.51 -56.6842 3107
1703.53 -56.0457 3072
1710.88 -56.0457 3072
1702.56 -55.5349 3044
1676.14 -54.4402 2984
1665.79 -53.8747 2953
1672.85 -53.8747 2953
1644.64 -52.7435 2891
1632.13 -52.1232 2857
1630.36 -51.8496 2842
1629.09 -51.5942 2828
1635.85 -51.5942 2828
1636.81 -51.4117 2818
1635.38 -51.1563 2804
1639.16 -51.0651 2799
1645.85 -51.0651 2799
1649.59 -50.9739 2794
1653.9 -50.9009 2790
1654.62 -50.7184 2780
1661.27 -50.7184 2780
1665.52 -50.6455 2776
1666.73 -50.4813 2767
1670.33 -50.39 2762
1676.93 -50.39 2762
1683.54 -50.39 2762
1690.14 -50.39 2762
1693.68 -50.2988 2757
1692.25 -50.0617 2744
1698.81 -50.0617 2744
1702.27 -49.9704 2739
1706.32 -49.8975 2735
1712.86 -49.8975 2735
1719.4 -49.8975 2735
1722.79 -49.8062 2730
1729.31 -49.8062 2730
1730.12 -49.642 2721
1734.07 -49.5691 2717
1740.57 -49.5691 2717
1747.07 -49.5691 2717
1753.57 -49.5691 2717
1754.23 -49.4049 2708
1760.71 -49.4049 2708
1767.18 -49.4049 2708
1765.15 -49.1677 2695
1763.04 -48.9305 2682
1769.46 -48.9305 2682
1769.91 -48.7663 2673
1770.99 -48.6204 2665
1774.69 -48.5474 2661
1781.06 -48.5474 2661
1784.06 -48.4562 2656
1790.41 -48.4562 2656
1794.06 -48.3832 2652
1797.68 -48.3102 2648
1804.02 -48.3102 2648
1810.35 -48.3102 2648
1816.68 -48.3102 2648
1823.01 -48.3102 2648
1829.34 -48.3102 2648
1832.9 -48.2372 2644
1839.23 -48.2372 2644
1842.76 -48.1643 2640
1849.07 -48.1643 2640
1851.87 -48.0731 2635
1858.17 -48.0731 2635
1864.47 -48.0731 2635
1870.77 -48.0731 2635
1877.07 -48.0731 2635
1877.66 -47.9271 2627
1881.07 -47.8541 2623
1884.46 -47.7811 2619
1890.73 -47.7811 2619
1894.09 -47.7082 2615
1897.44 -47.6352 2611
1903.68 -47.6352 2611
1909.93 -47.6352 2611
1916.17 -47.6352 2611
1922.41 -47.6352 2611
1925.7 -47.5622 2607
1931.94 -47.5622 2607
1935.2 -47.4892 2603
1941.42 -47.4892 2603
1947.65 -47.4892 2603
1953.87 -47.4892 2603
1960.09 -47.4892 2603
1963.3 -47.4163 2599
1969.51 -47.4163 2599
1971.93 -47.325 2594
1978.13 -47.325 2594
1978.21 -47.1791 2586
-2067.98 -43.7737 2762
-2061.37 -43.7737 2762
-2054.77 -43.7737 2762
-2044.46 -43.6944 2757
-2037.86 -43.6944 2757
-2028.32 -43.631 2753
-2021.74 -43.631 2753
-2015.16 -43.631 2753
-2004.92 -43.5518 2748
-1995.44 -43.4884 2744
-1988.88 -43.4884 2744
-1978.71 -43.4091 2739
-1959.2 -43.1239 2721
-1952.69 -43.1239 2721
-1946.19 -43.1239 2721
-1936.83 -43.0605 2717
-1927.49 -42.9971 2713
-1892.68 -42.3631 2673
-1886.29 -42.3631 2673
-2331.38 -53.6314 3384
-2323.29 -53.6314 3384
-2315.2 -53.6314 3384
-2307.1 -53.6314 3384
-2322.79 -54.1861 3419
-2314.61 -54.1861 3419
-2311.16 -54.2971 3426
-2331.2 -54.9627 3468
-2328.26 -55.0895 3476
-2319.95 -55.0895 3476
-2311.64 -55.0895 3476
-2322.54 -55.5491 3505
-2324.07 -55.7868 3520
-2315.65 -55.7868 3520
-2321.65 -56.1355 3542
-2313.18 -56.1355 3542
-2319.68 -56.5 3565
-2311.15 -56.5 3565
-2312.32 -56.7378 3580
-2308.9 -56.8645 3588
-2309.94 -57.1023 3603
-2301.32 -57.1023 3603
-2292.71 -57.1023 3603
-2284.09 -57.1023 3603
-2275.48 -57.1023 3603
-2266.86 -57.1023 3603
-2263.26 -57.2291 3611
-2254.62 -57.2291 3611
-2245.99 -57.2291 3611
-2237.35 -57.2291 3611
-2223.78 -57.1023 3603
-2215.17 -57.1023 3603
-2211.45 -57.2291 3611
-2202.81 -57.2291 3611
-2194.18 -57.2291 3611
-2185.54 -57.2291 3611
-2176.91 -57.2291 3611
-2168.27 -57.2291 3611
-2154.85 -57.1023 3603
-2146.24 -57.1023 3603
-2142.37 -57.2291 3611
-2133.73 -57.2291 3611
-2125.1 -57.2291 3611
-2116.46 -57.2291 3611
-2107.83 -57.2291 3611
-2099.19 -57.2291 3611
-2090.56 -57.2291 3611
-2081.92 -57.2291 3611
-2073.29 -57.2291 3611
-2064.65 -57.2291 3611
-2046.91 -56.9755 3595
-2038.31 -56.9755 3595
-2034.23 -57.1023 3603
-2025.62 -57.1023 3603
-2017 -57.1023 3603
-2008.39 -57.1023 3603
-1999.77 -57.1023 3603
-1986.73 -56.9755 3595
-1969.88 -56.7378 3580
-1969.54 -56.9755 3595
-1960.94 -56.9755 3595
-1952.35 -56.9755 3595
-1943.75 -56.9755 3595
-1935.15 -56.9755 3595
-1926.56 -56.9755 3595
-1905.69 -56.611 3572
-1897.15 -56.611 3572
-1884.9 -56.5 3565
-1876.38 -56.5 3565
-1863.66 -56.3732 3557
-1855.16 -56.3732 3557
-1850.8 -56.5 3565
-1850.03 -56.7378 3580
-1841.47 -56.7378 3580
-1837 -56.8645 3588
-1828.42 -56.8645 3588
-1819.84 -56.8645 3588
-1811.26 -56.8645 3588
-1794.65 -56.611 3572
-1782.6 -56.5 3565
-1777.56 -56.611 3572
-1769.02 -56.611 3572
-1760.48 -56.611 3572
-1751.94 -56.611 3572
-1739.98 -56.5 3565
-1731.45 -56.5 3565
-1722.93 -56.5 3565
-1714.4 -56.5 3565
-1705.88 -56.5 3565
-1697.35 -56.5 3565
-1685.04 -56.3732 3557
-1676.53 -56.3732 3557
-1668.03 -56.3732 3557
-1659.52 -56.3732 3557
-1651.02 -56.3732 3557
-1642.51 -56.3732 3557
-1630.33 -56.2464 3549
-1621.84 -56.2464 3549
-1613.35 -56.2464 3549
-1604.87 -56.2464 3549
-1603.58 -56.5 3565
-1595.05 -56.5 3565
-1586.53 -56.5 3565
-1578 -56.5 3565
-1565.96 -56.3732 3557
-1557.45 -56.3732 3557
-1542.41 -56.1355 3542
-1533.94 -56.1355 3542
-1519.01 -55.8978 3527
-1510.58 -55.8978 3527
-1499.16 -55.7868 3520
-1484.39 -55.5491 3505
-1472.64 -55.4223 3497
-1464.28 -55.4223 3497
-1450.09 -55.2004 3483
-1435.55 -54.9627 3468
-1415.73 -54.519 3440
-1407.51 -54.519 3440
-1379.35 -53.7424 3391
-1346.58 -52.7756 3330
-1317.71 -51.9515 3278
-1281.9 -50.8421 3208
-1274.23 -50.8421 3208
-1247.6 -50.0814 3160
-1223.57 -49.4157 3118
-1200.51 -48.7818 3078
-1193.15 -48.7818 3078
-1179.24 -48.5124 3061
-1159.29 -47.9894 3028
-1141.39 -47.5456 3000
-1126.28 -47.2128 2979
-1119.15 -47.2128 2979
-1112.03 -47.2128 2979
-1098.97 -46.9592 2963
-1093.73 -47.0384 2968
-1090.66 -47.2128 2979
-1083.54 -47.2128 2979
-1076.41 -47.2128 2979
-1067.49 -47.1335 2974
-1060.38 -47.1335 2974
-1049.37 -46.9592 2963
-1040.53 -46.88 2958
-1033.46 -46.88 2958
-1026.38 -46.88 2958
-1015.52 -46.7056 2947
-1006.76 -46.6264 2942
-998.027 -46.5471 2937
-991.004 -46.5471 2937
-983.98 -46.5471 2937
-976.957 -46.5471 2937
-968.283 -46.4679 2932
-961.271 -46.4679 2932
-952.633 -46.3887 2927
-945.633 -46.3887 2927
-940.237 -46.4679 2932
-933.226 -46.4679 2932
-926.215 -46.4679 2932
-919.204 -46.4679 2932
-910.637 -46.3887 2927
-903.637 -46.3887 2927
-895.106 -46.3094 2922
-888.119 -46.3094 2922
-881.132 -46.3094 2922
-874.144 -46.3094 2922
-867.157 -46.3094 2922
-860.169 -46.3094 2922
-851.722 -46.2302 2917
-844.747 -46.2302 2917
-837.771 -46.2302 2917
-829.087 -46.1351 2911
-820.714 -46.0558 2906
-813.765 -46.0558 2906
-806.815 -46.0558 2906
-799.866 -46.0558 2906
-792.917 -46.0558 2906
-785.968 -46.0558 2906
-779.019 -46.0558 2906
-769.413 -45.8974 2896
-762.488 -45.8974 2896
-754.258 -45.8181 2891
-747.345 -45.8181 2891
-740.432 -45.8181 2891
-733.518 -45.8181 2891
-725.348 -45.7389 2886
-718.447 -45.7389 2886
-711.546 -45.7389 2886
-703.424 -45.6596 2881
-695.326 -45.5804 2876
-688.448 -45.5804 2876
-681.571 -45.5804 2876
-673.52 -45.5011 2871
-666.655 -45.5011 2871
-659.79 -45.5011 2871
-652.924 -45.5011 2871
-646.059 -45.5011 2871
-639.193 -45.5011 2871
-632.328 -45.5011 2871
-625.462 -45.5011 2871
-625.061 -45.9766 2901
-620.254 -46.1351 2911
-613.293 -46.1351 2911
-606.332 -46.1351 2911
-604.725 -46.5471 2937
-606.249 -47.2128 2979
-609.985 -48.0686 3033
-602.732 -48.0686 3033
-604.315 -48.7818 3078
-621.003 -50.747 3202
-625.414 -51.7455 3265
-617.606 -51.7455 3265
-615.775 -52.2526 3297
-607.891 -52.2526 3297
-600.007 -52.2526 3297
-592.123 -52.2526 3297
-584.239 -52.2526 3297
-579.851 -52.5696 3317
-571.919 -52.5696 3317
-563.987 -52.5696 3317
-558.234 -52.7756 3330
-550.271 -52.7756 3330
-542.308 -52.7756 3330
-534.345 -52.7756 3330
-529.543 -53.0926 3350
-523.556 -53.2986 3363
-518.734 -53.6314 3384
-510.641 -53.6314 3384
-502.549 -53.6314 3384
-495.48 -53.7424 3391
-488.377 -53.8533 3398
-480.251 -53.8533 3398
-472.126 -53.8533 3398
-463.044 -53.7424 3391
-454.935 -53.7424 3391
-444.059 -53.4096 3370
-439.623 -53.8533 3398
-431.497 -53.8533 3398
-423.372 -53.8533 3398
-415.246 -53.8533 3398
-406.282 -53.7424 3391
-398.173 -53.7424 3391
-390.869 -53.8533 3398
-382.744 -53.8533 3398
-374.618 -53.8533 3398
-367.247 -53.9643 3405
-359.105 -53.9643 3405
-350.963 -53.9643 3405
-342.82 -53.9643 3405
-336.742 -54.2971 3426
-328.549 -54.2971 3426
-320.357 -54.2971 3426
-312.164 -54.2971 3426
-304.592 -54.408 3433
-296.383 -54.408 3433
-288.761 -54.519 3440
-280.535 -54.519 3440
-272.309 -54.519 3440
-263.546 -54.408 3433
-255.336 -54.408 3433
-143.684 -31.6337 1996
-138.911 -31.6337 1996
-134.272 -31.6654 1998
-130.142 -31.8239 2008
-125.34 -31.8239 2008
-120.659 -31.8556 2010
-115.968 -31.8873 2012
-111.322 -31.9348 2015
-106.609 -31.9665 2017
-101.937 -32.014 2020
-97.203 -32.0457 2022
-92.5049 -32.0933 2025
-87.9655 -32.2042 2032
-83.1064 -32.2042 2032
-78.3243 -32.2359 2034
-73.6409 -32.3152 2039
-69.0349 -32.4419 2047
-64.1399 -32.4419 2047
-59.4764 -32.5687 2055
-54.7482 -32.6797 2062
-50.2038 -32.9333 2078
-45.2347 -32.9333 2078
-40.3625 -33.0125 2083
-35.5173 -33.1393 2091
-30.59 -33.2185 2096
-25.5779 -33.2185 2096
-20.5657 -33.2185 2096
-15.5684 -33.2502 2098
-10.5665 -33.2978 2101
-5.54236 -33.2978 2101
-0.518236 -33.2978 2101
4.50589 -33.2978 2101
9.53002 -33.2978 2101
14.5541 -33.2978 2101
19.6062 -33.3453 2104
24.6375 -33.3453 2104
29.6688 -33.3453 2104
34.7001 -33.3453 2104
39.7314 -33.3453 2104
44.9329 -33.4721 2112
50.0307 -33.5038 2114
55.0859 -33.5038 2114
60.1411 -33.5038 2114
65.2889 -33.5513 2117
70.3513 -33.5513 2117
75.4137 -33.5513 2117
80.5901 -33.5989 2120
85.8617 -33.6781 2125
90.9432 -33.6781 2125
96.0247 -33.6781 2125
101.249 -33.7257 2128
106.338 -33.7257 2128
112.002 -33.9 2139
117.117 -33.9 2139
122.518 -33.9793 2144
128.002 -34.0743 2150
133.329 -34.1219 2153
138.799 -34.2011 2158
143.96 -34.2011 2158
149.535 -34.2962 2164
154.924 -34.3438 2167
160.475 -34.423 2172
165.669 -34.423 2172
171.099 -34.4706 2175
176.787 -34.5657 2181
182.67 -34.6924 2189
187.904 -34.6924 2189
194.462 -34.9302 2204
200.73 -35.1045 2215
209.096 -35.6275 2248
214.471 -35.6275 2248
220.727 -35.7701 2257
227.126 -35.9286 2267
233.163 -36.0237 2273
238.598 -36.0237 2273
245.322 -36.2139 2285
252.872 -36.515 2304
258.718 -36.5626 2307
264.234 -36.5626 2307
270.219 -36.626 2311
275.745 -36.626 2311
281.636 -36.6735 2314
287.17 -36.6735 2314
292.703 -36.6735 2314
298.237 -36.6735 2314
303.77 -36.6735 2314
399.601 -46.5471 2937
406.624 -46.5471 2937
415.056 -46.7056 2947
422.963 -46.8007 2953
430.752 -46.88 2958
437.826 -46.88 2958
444.899 -46.88 2958
451.209 -46.8007 2953
458.27 -46.8007 2953
465.332 -46.8007 2953
472.393 -46.8007 2953
477.669 -46.6264 2942
483.057 -46.4679 2932
490.068 -46.4679 2932
494.536 -46.2302 2917
499.62 -46.0558 2906
505.698 -45.9766 2901
512.635 -45.9766 2901
519.572 -45.9766 2901
525.602 -45.8974 2896
531.608 -45.8181 2891
538.521 -45.8181 2891
545.434 -45.8181 2891
551.392 -45.7389 2886
558.294 -45.7389 2886
565.195 -45.7389 2886
572.096 -45.7389 2886
577.994 -45.6596 2881
584.884 -45.6596 2881
591.773 -45.6596 2881
597.623 -45.5804 2876
604.501 -45.5804 2876
611.378 -45.5804 2876
618.255 -45.5804 2876
625.133 -45.5804 2876
632.01 -45.5804 2876
638.888 -45.5804 2876
645.765 -45.5804 2876
652.642 -45.5804 2876
659.52 -45.5804 2876
666.397 -45.5804 2876
673.275 -45.5804 2876
680.152 -45.5804 2876
687.029 -45.5804 2876
693.907 -45.5804 2876
700.784 -45.5804 2876
707.662 -45.5804 2876
714.539 -45.5804 2876
721.416 -45.5804 2876
728.294 -45.5804 2876
735.171 -45.5804 2876
742.048 -45.5804 2876
748.926 -45.5804 2876
755.803 -45.5804 2876
762.681 -45.5804 2876
769.558 -45.5804 2876
776.435 -45.5804 2876
783.313 -45.5804 2876
790.19 -45.5804 2876
797.068 -45.5804 2876
802.547 -45.5011 2871
809.413 -45.5011 2871
816.278 -45.5011 2871
824.577 -45.5804 2876
831.455 -45.5804 2876
839.789 -45.6596 2881
846.679 -45.6596 2881
853.568 -45.6596 2881
860.457 -45.6596 2881
867.347 -45.6596 2881
874.236 -45.6596 2881
881.125 -45.6596 2881
888.015 -45.6596 2881
898.01 -45.8181 2891
913.062 -46.2302 2917
926.346 -46.5471 2937
933.369 -46.5471 2937
945.515 -46.8007 2953
957.415 -47.0384 2968
976.862 -47.6407 3006
984.05 -47.6407 3006
1002.12 -48.1637 3039
1011.05 -48.2429 3044
1029.7 -48.7818 3078
1037.06 -48.7818 3078
1062.07 -49.6059 3130
1090.05 -50.5568 3190
1112.48 -51.2383 3233
1120.21 -51.2383 3233
1141.2 -51.8406 3271
1172.2 -52.8866 3337
1201.76 -53.8533 3398
1209.88 -53.8533 3398
1220.52 -53.9643 3405
1233.71 -54.1861 3419
1241.89 -54.1861 3419
1250.06 -54.1861 3419
1253.09 -53.9643 3405
1258.64 -53.8533 3398
1282.42 -54.519 3440
1290.65 -54.519 3440
1298.87 -54.519 3440
1307.1 -54.519 3440
1315.32 -54.519 3440
1320.86 -54.408 3433
1329.07 -54.408 3433
1329.1 -54.0752 3412
1334.51 -53.9643 3405
1342.65 -53.9643 3405
1342.47 -53.6314 3384
1342.18 -53.2986 3363
1342.19 -52.9816 3343
1350.18 -52.9816 3343
1358.18 -52.9816 3343
1366.17 -52.9816 3343
1374.17 -52.9816 3343
1382.16 -52.9816 3343
1390.15 -52.9816 3343
1398.15 -52.9816 3343
1406.14 -52.9816 3343
1414.14 -52.9816 3343
1416.6 -52.7756 3330
1421.57 -52.6647 3323
1426.93 -52.5696 3317
1437.46 -52.6647 3323
1445.41 -52.6647 3323
1453.35 -52.6647 3323
1461.3 -52.6647 3323
1466.59 -52.5696 3317
1474.53 -52.5696 3317
1482.46 -52.5696 3317
1490.39 -52.5696 3317
1501.03 -52.6647 3323
1508.98 -52.6647 3323
1516.92 -52.6647 3323
1515.69 -52.3477 3303
1514.83 -52.0466 3284
1540.76 -52.6647 3323
1548.71 -52.6647 3323
1556.66 -52.6647 3323
1583.44 -53.2986 3363
1601.41 -53.6314 3384
1609.51 -53.6314 3384
1617.6 -53.6314 3384
1629.05 -53.7424 3391
1637.16 -53.7424 3391
1645.27 -53.7424 3391
1639.73 -53.2986 3363
1647.77 -53.2986 3363
1649.41 -53.0926 3350
1657.42 -53.0926 3350
1665.43 -53.0926 3350
1666.95 -52.8866 3337
1664.89 -52.5696 3317
1672.82 -52.5696 3317
1680.76 -52.5696 3317
1701.92 -52.9816 3343
1709.92 -52.9816 3343
1717.91 -52.9816 3343
1725.91 -52.9816 3343
1727.16 -52.7756 3330
1717.93 -52.2526 3297
1712.2 -51.8406 3271
1720.02 -51.8406 3271
1724.68 -51.7455 3265
1732.48 -51.7455 3265
1740.29 -51.7455 3265
1748.1 -51.7455 3265
1752.14 -51.6345 3258
1759.93 -51.6345 3258
1761.21 -51.4443 3246
1768.97 -51.4443 3246
1752.65 -50.747 3202
1743.82 -50.2715 3172
1728.21 -49.6059 3130
1719.62 -49.1463 3101
1727.03 -49.1463 3101
1715.43 -48.6075 3067
1697.49 -47.8943 3022
1683.28 -47.292 2984
1690.41 -47.292 2984
1659.43 -46.2302 2917
1640.13 -45.5011 2871
1636.1 -45.2 2852
1637.16 -45.0415 2842
1643.95 -45.0415 2842
1642.62 -44.8197 2828
1640.63 -44.5819 2813
1645.01 -44.5185 2809
1651.73 -44.5185 2809
1652.54 -44.36 2799
1656.27 -44.2808 2794
1654.62 -44.0589 2780
1661.27 -44.0589 2780
1665.52 -43.9955 2776
1669.14 -43.9163 2771
1673.35 -43.8529 2767
1679.97 -43.8529 2767
1686.59 -43.8529 2767
1690.14 -43.7737 2762
1696.75 -43.7737 2762
1694.72 -43.5518 2748
1701.29 -43.5518 2748
1705.37 -43.4884 2744
1708.82 -43.4091 2739
1712.86 -43.3457 2735
1719.4 -43.3457 2735
1725.94 -43.3457 2735
1729.31 -43.2665 2730
1730.12 -43.1239 2721
1736.63 -43.1239 2721
1743.13 -43.1239 2721
1747.07 -43.0605 2717
1753.57 -43.0605 2717
1760.06 -43.0605 2717
1766.56 -43.0605 2717
1770.45 -42.9971 2713
1771.04 -42.8544 2704
1768.96 -42.6484 2691
1775.4 -42.6484 2691
1773.22 -42.4424 2678
1776.3 -42.3631 2673
1777.36 -42.2363 2665
1783.73 -42.2363 2665
1787.42 -42.1729 2661
1793.78 -42.1729 2661
1796.76 -42.0937 2656
1803.11 -42.0937 2656
1809.47 -42.0937 2656
1815.82 -42.0937 2656
1822.17 -42.0937 2656
1825.77 -42.0303 2652
1832.11 -42.0303 2652
1835.68 -41.9669 2648
1842.01 -41.9669 2648
1845.55 -41.9035 2644
1851.87 -41.9035 2644
1851.87 -41.7609 2635
1858.17 -41.7609 2635
1864.47 -41.7609 2635
1870.77 -41.7609 2635
1877.07 -41.7609 2635
1880.52 -41.6975 2631
1883.94 -41.6341 2627
1887.34 -41.5707 2623
1893.61 -41.5707 2623
1896.99 -41.5073 2619
1903.25 -41.5073 2619
1909.51 -41.5073 2619
1915.78 -41.5073 2619
1922.04 -41.5073 2619
1925.36 -41.4439 2615
1928.66 -41.3805 2611
1934.9 -41.3805 2611
1938.17 -41.3171 2607
1944.4 -41.3171 2607
1950.64 -41.3171 2607
1953.87 -41.2537 2603
1960.09 -41.2537 2603
1966.32 -41.2537 2603
1969.51 -41.1903 2599
1971.93 -41.1111 2594
1978.13 -41.1111 2594
1981.27 -41.0477 2590
-2067.98 -37.1573 2762
-2061.37 -37.1573 2762
-2054.77 -37.1573 2762
-2044.46 -37.09 2757
-2037.86 -37.09 2757
-2028.32 -37.0362 2753
-2021.74 -37.0362 2753
-2015.16 -37.0362 2753
-2004.92 -36.9689 2748
-1995.44 -36.9151 2744
-1988.88 -36.9151 2744
-1978.71 -36.8478 2739
-1959.2 -36.6057 2721
-1952.69 -36.6057 2721
-1946.19 -36.6057 2721
-1933.98 -36.4981 2713
-1923.94 -36.4308 2708
-1880.64 -35.7312 2656
-1874.29 -35.7312 2656
-2319.98 -45.6192 3391
-2321.42 -45.8075 3405
-2327.54 -46.0901 3426
-2319.35 -46.0901 3426
-2330.05 -46.4667 3454
-2336.58 -46.7627 3476
-2337.64 -46.9511 3490
-2329.3 -46.9511 3490
-2330.93 -47.1529 3505
-2347.06 -47.6506 3542
-2343.21 -47.7448 3549
-2334.73 -47.7448 3549
-2336.73 -47.96 3565
-2328.2 -47.96 3565
-2334.64 -48.2695 3588
-2326.06 -48.2695 3588
-2322.01 -48.3636 3595
-2323.7 -48.5789 3611
-2320.2 -48.6865 3619
-2311.54 -48.6865 3619
-2302.89 -48.6865 3619
-2289.16 -48.5789 3611
-2290.63 -48.7941 3627
-2281.96 -48.7941 3627
-2273.29 -48.7941 3627
-2264.61 -48.7941 3627
-2255.94 -48.7941 3627
-2247.27 -48.7941 3627
-2228.72 -48.5789 3611
-2215.17 -48.4712 3603
-2211.45 -48.5789 3611
-2202.81 -48.5789 3611
-2194.18 -48.5789 3611
-2185.54 -48.5789 3611
-2176.91 -48.5789 3611
-2168.27 -48.5789 3611
-2154.85 -48.4712 3603
-2146.24 -48.4712 3603
-2142.37 -48.5789 3611
-2133.73 -48.5789 3611
-2125.1 -48.5789 3611
-2116.46 -48.5789 3611
-2107.83 -48.5789 3611
-2099.19 -48.5789 3611
-2090.56 -48.5789 3611
-2081.92 -48.5789 3611
-2073.29 -48.5789 3611
-2064.65 -48.5789 3611
-2046.91 -48.3636 3595
-2038.31 -48.3636 3595
-2034.23 -48.4712 3603
-2025.62 -48.4712 3603
-2017 -48.4712 3603
-2008.39 -48.4712 3603
-1999.77 -48.4712 3603
-1986.73 -48.3636 3595
-1969.88 -48.1618 3580
-1973.92 -48.4712 3603
-1965.31 -48.4712 3603
-1956.69 -48.4712 3603
-1948.07 -48.4712 3603
-1935.15 -48.3636 3595
-1926.56 -48.3636 3595
-1905.69 -48.0542 3572
-1897.15 -48.0542 3572
-1888.6 -48.0542 3572
-1880.06 -48.0542 3572
-1871.52 -48.0542 3572
-1855.16 -47.8524 3557
-1850.8 -47.96 3565
-1845.9 -48.0542 3572
-1837.35 -48.0542 3572
-1837 -48.2695 3588
-1828.42 -48.2695 3588
-1819.84 -48.2695 3588
-1811.26 -48.2695 3588
-1794.65 -48.0542 3572
-1782.6 -47.96 3565
-1777.56 -48.0542 3572
-1769.02 -48.0542 3572
-1760.48 -48.0542 3572
-1751.94 -48.0542 3572
-1739.98 -47.96 3565
-1731.45 -47.96 3565
-1722.93 -47.96 3565
-1714.4 -47.96 3565
-1705.88 -47.96 3565
-1697.35 -47.96 3565
-1688.83 -47.96 3565
-1680.3 -47.96 3565
-1671.78 -47.96 3565
-1670.25 -48.1618 3580
-1661.69 -48.1618 3580
-1653.13 -48.1618 3580
-1637.68 -47.96 3565
-1629.15 -47.96 3565
-1616.99 -47.8524 3557
-1615.27 -48.0542 3572
-1610.33 -48.1618 3580
-1601.76 -48.1618 3580
-1593.2 -48.1618 3580
-1584.64 -48.1618 3580
-1569.48 -47.96 3565
-1560.95 -47.96 3565
-1548.94 -47.8524 3557
-1536.97 -47.7448 3549
-1525.47 -47.6506 3542
-1517 -47.6506 3542
-1499.16 -47.3546 3520
-1487.36 -47.247 3512
-1472.64 -47.0452 3497
-1464.28 -47.0452 3497
-1450.09 -46.8569 3483
-1438.86 -46.7627 3476
-1415.73 -46.2784 3440
-1407.51 -46.2784 3440
-1393.59 -46.0901 3426
-1362.75 -45.3367 3370
-1338.61 -44.7986 3330
-1291.89 -43.4936 3233
-1284.16 -43.4936 3233
-1254.71 -42.7537 3178
-1232.98 -42.2694 3142
-1213.77 -41.8658 3112
-1206.33 -41.8658 3112
-1181.55 -41.2604 3067
-1165.41 -40.951 3044
-1149.76 -40.655 3022
-1142.54 -40.655 3022
-1125.17 -40.2918 2995
-1113.9 -40.1438 2984
-1100.83 -39.9286 2968
-1103.68 -40.2918 2995
-1096.52 -40.2918 2995
-1089.36 -40.2918 2995
-1082.19 -40.2918 2995
-1069.29 -40.0766 2979
-1062.16 -40.0766 2979
-1053.27 -40.0093 2974
-1044.05 -39.9286 2968
-1035.2 -39.8613 2963
-1028.12 -39.8613 2963
-1019.31 -39.794 2958
-1008.47 -39.6461 2947
-999.726 -39.5788 2942
-992.691 -39.5788 2942
-985.656 -39.5788 2942
-976.957 -39.5115 2937
-969.934 -39.5115 2937
-962.911 -39.5115 2937
-955.887 -39.5115 2937
-947.249 -39.4443 2932
-940.237 -39.4443 2932
-933.226 -39.4443 2932
-926.215 -39.4443 2932
-919.204 -39.4443 2932
-912.192 -39.4443 2932
-905.181 -39.4443 2932
-895.106 -39.3097 2922
-888.119 -39.3097 2922
-881.132 -39.3097 2922
-874.144 -39.3097 2922
-867.157 -39.3097 2922
-860.169 -39.3097 2922
-853.182 -39.3097 2922
-844.747 -39.2425 2917
-837.771 -39.2425 2917
-829.087 -39.1618 2911
-822.126 -39.1618 2911
-815.165 -39.1618 2911
-808.204 -39.1618 2911
-801.243 -39.1618 2911
-792.917 -39.0945 2906
-785.968 -39.0945 2906
-779.019 -39.0945 2906
-770.741 -39.0272 2901
-762.488 -38.96 2896
-755.563 -38.96 2896
-748.637 -38.96 2896
-741.712 -38.96 2896
-733.518 -38.8927 2891
-726.605 -38.8927 2891
-719.692 -38.8927 2891
-711.546 -38.8254 2886
-704.645 -38.8254 2886
-696.534 -38.7582 2881
-689.645 -38.7582 2881
-681.571 -38.6909 2876
-673.52 -38.6236 2871
-666.655 -38.6236 2871
-660.939 -38.6909 2876
-654.061 -38.6909 2876
-647.184 -38.6909 2876
-640.306 -38.6909 2876
-633.429 -38.6909 2876
-626.552 -38.6909 2876
-625.061 -39.0272 2901
-619.189 -39.0945 2906
-613.293 -39.1618 2911
-606.332 -39.1618 2911
-604.725 -39.5115 2937
-607.266 -40.1438 2984
-611.192 -40.8837 3039
-603.925 -40.8837 3039
-606.474 -41.5564 3089
-618.676 -42.9151 3190
-624.073 -43.83 3258
-616.282 -43.83 3258
-615.775 -44.3546 3297
-607.891 -44.3546 3297
-600.007 -44.3546 3297
-592.123 -44.3546 3297
-587.783 -44.6237 3317
-580.9 -44.7044 3323
-577.609 -45.0676 3350
-569.598 -45.0676 3350
-561.587 -45.0676 3350
-553.576 -45.0676 3350
-546.705 -45.1618 3357
-538.678 -45.1618 3357
-534.918 -45.525 3384
-527.916 -45.6192 3391
-521.953 -45.8075 3405
-513.81 -45.8075 3405
-507.747 -45.9959 3419
-500.594 -46.0901 3426
-493.407 -46.1842 3433
-485.198 -46.1842 3433
-476.989 -46.1842 3433
-467.824 -46.0901 3426
-459.631 -46.0901 3426
-451.438 -46.0901 3426
-445.963 -46.3726 3447
-437.72 -46.3726 3447
-429.477 -46.3726 3447
-421.234 -46.3726 3447
-412.153 -46.2784 3440
-403.927 -46.2784 3440
-396.506 -46.3726 3447
-388.263 -46.3726 3447
-380.02 -46.3726 3447
-371.777 -46.3726 3447
-363.534 -46.3726 3447
-355.292 -46.3726 3447
-346.344 -46.2784 3440
-339.494 -46.4667 3454
-331.234 -46.4667 3454
-322.975 -46.4667 3454
-314.715 -46.4667 3454
-307.077 -46.5609 3461
-298.801 -46.5609 3461
-290.524 -46.5609 3461
-282.248 -46.5609 3461
-273.972 -46.5609 3461
-265.158 -46.4667 3454
-256.898 -46.4667 3454
-143.828 -26.8791 1998
-139.05 -26.8791 1998
-134.272 -26.8791 1998
-130.142 -27.0137 2008
-125.34 -27.0137 2008
-120.539 -27.0137 2008
-115.968 -27.0675 2012
-111.156 -27.0675 2012
-106.609 -27.1348 2017
-101.786 -27.1348 2017
-97.1069 -27.1751 2020
-92.2765 -27.1751 2020
-87.6625 -27.2424 2025
-82.8201 -27.2424 2025
-78.2473 -27.3365 2032
-73.4604 -27.3635 2034
-69.0349 -27.5383 2047
-64.1399 -27.5383 2047
-59.3896 -27.6056 2052
-54.7482 -27.7401 2062
-50.2038 -27.9554 2078
-45.2347 -27.9554 2078
-40.3625 -28.0227 2083
-35.4663 -28.0899 2088
-30.59 -28.1975 2096
-25.5779 -28.1975 2096
-20.5657 -28.1975 2096
-15.5535 -28.1975 2096
-10.5665 -28.2648 2101
-5.54236 -28.2648 2101
-0.518236 -28.2648 2101
4.50589 -28.2648 2101
9.53002 -28.2648 2101
14.5541 -28.2648 2101
19.5783 -28.2648 2101
24.6375 -28.3052 2104
29.6688 -28.3052 2104
34.7001 -28.3052 2104
39.7314 -28.3052 2104
44.9755 -28.4397 2114
50.0307 -28.4397 2114
55.0859 -28.4397 2114
60.2265 -28.4801 2117
65.2889 -28.4801 2117
70.451 -28.5204 2120
75.5205 -28.5204 2120
80.7802 -28.5877 2125
85.8617 -28.5877 2125
91.0716 -28.628 2128
96.1603 -28.628 2128
101.249 -28.628 2128
106.488 -28.6684 2131
112.002 -28.776 2139
117.117 -28.776 2139
122.518 -28.8433 2144
128.002 -28.924 2150
133.329 -28.9644 2153
138.799 -29.0316 2158
143.96 -29.0316 2158
149.535 -29.1123 2164
155.067 -29.1796 2169
160.475 -29.22 2172
165.669 -29.22 2172
171.335 -29.3007 2178
177.03 -29.3814 2184
182.92 -29.489 2192
188.162 -29.489 2192
194.992 -29.7312 2210
201.273 -29.8792 2221
209.375 -30.2828 2251
214.758 -30.2828 2251
221.412 -30.4576 2264
227.427 -30.5384 2270
233.471 -30.6191 2276
238.913 -30.6191 2276
245.322 -30.7402 2285
253.201 -31.0361 2307
259.166 -31.0899 2311
264.692 -31.0899 2311
270.57 -31.1303 2314
276.103 -31.1303 2314
282.002 -31.1707 2317
287.542 -31.1707 2317
293.083 -31.1707 2317
298.624 -31.1707 2317
304.164 -31.1707 2317
400.962 -39.6461 2947
408.009 -39.6461 2947
415.901 -39.7268 2953
424.395 -39.8613 2963
431.48 -39.8613 2963
438.566 -39.8613 2963
445.651 -39.8613 2963
452.737 -39.8613 2963
459.822 -39.8613 2963
466.908 -39.8613 2963
473.193 -39.794 2958
478.481 -39.6461 2947
483.057 -39.4443 2932
490.068 -39.4443 2932
495.384 -39.3097 2922
501.512 -39.2425 2917
506.569 -39.0945 2906
513.519 -39.0945 2906
519.572 -39.0272 2901
526.509 -39.0272 2901
532.527 -38.96 2896
539.452 -38.96 2896
545.434 -38.8927 2891
552.347 -38.8927 2891
559.261 -38.8927 2891
566.174 -38.8927 2891
572.096 -38.8254 2886
578.997 -38.8254 2886
585.899 -38.8254 2886
592.8 -38.8254 2886
598.662 -38.7582 2881
604.501 -38.6909 2876
611.378 -38.6909 2876
619.33 -38.7582 2881
626.22 -38.7582 2881
633.109 -38.7582 2881
638.888 -38.6909 2876
645.765 -38.6909 2876
652.642 -38.6909 2876
659.52 -38.6909 2876
666.397 -38.6909 2876
673.275 -38.6909 2876
680.152 -38.6909 2876
687.029 -38.6909 2876
693.907 -38.6909 2876
700.784 -38.6909 2876
707.662 -38.6909 2876
714.539 -38.6909 2876
721.416 -38.6909 2876
728.294 -38.6909 2876
735.171 -38.6909 2876
742.048 -38.6909 2876
748.926 -38.6909 2876
755.803 -38.6909 2876
762.681 -38.6909 2876
769.558 -38.6909 2876
776.435 -38.6909 2876
783.313 -38.6909 2876
790.19 -38.6909 2876
797.068 -38.6909 2876
803.945 -38.6909 2876
810.822 -38.6909 2876
817.7 -38.6909 2876
826.011 -38.7582 2881
832.9 -38.7582 2881
839.789 -38.7582 2881
848.148 -38.8254 2886
855.049 -38.8254 2886
861.951 -38.8254 2886
868.852 -38.8254 2886
875.753 -38.8254 2886
884.184 -38.8927 2891
891.097 -38.8927 2891
899.563 -38.96 2896
914.627 -39.3097 2922
931.392 -39.7268 2953
938.453 -39.7268 2953
952.239 -40.0093 2974
969.673 -40.4398 3006
987.586 -40.8837 3039
994.853 -40.8837 3039
1007.4 -41.099 3055
1020.35 -41.3277 3072
1035.39 -41.6371 3095
1042.79 -41.6371 3095
1062.07 -42.108 3130
1090.05 -42.9151 3190
1112.48 -43.4936 3233
1120.21 -43.4936 3233
1141.2 -44.0048 3271
1165.18 -44.6237 3317
1194.33 -45.4309 3377
1202.41 -45.4309 3377
1212.99 -45.525 3384
1221.08 -45.525 3384
1229.18 -45.525 3384
1237.27 -45.525 3384
1240.21 -45.3367 3370
1248.27 -45.3367 3370
1266.76 -45.7134 3398
1280.14 -45.9017 3412
1288.3 -45.9017 3412
1301.78 -46.0901 3426
1309.97 -46.0901 3426
1318.16 -46.0901 3426
1326.36 -46.0901 3426
1331.82 -45.9959 3419
1334.51 -45.8075 3405
1342.65 -45.8075 3405
1342.47 -45.525 3384
1339.78 -45.1618 3357
1347.81 -45.1618 3357
1355.84 -45.1618 3357
1363.86 -45.1618 3357
1371.89 -45.1618 3357
1379.92 -45.1618 3357
1387.95 -45.1618 3357
1390.15 -44.9735 3343
1398.15 -44.9735 3343
1406.14 -44.9735 3343
1414.14 -44.9735 3343
1422.13 -44.9735 3343
1421.57 -44.7044 3323
1426.93 -44.6237 3317
1437.46 -44.7044 3323
1445.41 -44.7044 3323
1453.35 -44.7044 3323
1461.3 -44.7044 3323
1466.59 -44.6237 3317
1477.19 -44.7044 3323
1485.14 -44.7044 3323
1493.08 -44.7044 3323
1504.19 -44.7986 3330
1512.16 -44.7986 3330
1520.12 -44.7986 3330
1522.12 -44.6237 3317
1520.82 -44.3546 3297
1537.98 -44.6237 3317
1548.71 -44.7044 3323
1556.66 -44.7044 3323
1577.31 -45.0676 3350
1591.48 -45.2425 3363
1609.51 -45.525 3384
1617.6 -45.525 3384
1625.69 -45.525 3384
1633.78 -45.525 3384
1641.88 -45.525 3384
1639.73 -45.2425 3363
1637.97 -44.9735 3343
1645.97 -44.9735 3343
1653.96 -44.9735 3343
1661.95 -44.9735 3343
1663.45 -44.7986 3330
1657.86 -44.4353 3303
1669.29 -44.5295 3310
1677.21 -44.5295 3310
1695.31 -44.7986 3330
1703.27 -44.7986 3330
1711.23 -44.7986 3330
1719.2 -44.7986 3330
1723.53 -44.7044 3323
1717.93 -44.3546 3297
1712.2 -44.0048 3271
1720.02 -44.0048 3271
1727.84 -44.0048 3271
1735.67 -44.0048 3271
1743.49 -44.0048 3271
1751.31 -44.0048 3271
1759.13 -44.0048 3271
1766.95 -44.0048 3271
1764.47 -43.7492 3252
1772.24 -43.7492 3252
1759.22 -43.238 3214
1747.12 -42.7537 3178
1741.46 -42.4308 3154
1735.7 -42.108 3130
1743.18 -42.108 3130
1734.45 -41.7178 3101
1722.76 -41.2604 3067
1698.51 -40.5071 3011
1705.71 -40.5071 3011
1667.97 -39.4443 2932
1645.84 -38.7582 2881
1644.13 -38.5564 2866
1642.92 -38.368 2852
1649.74 -38.368 2852
1647.84 -38.1662 2837
1646.46 -37.9779 2823
1647.36 -37.8434 2813
1654.08 -37.8434 2813
1655.5 -37.7223 2804
1659.24 -37.655 2799
1657.6 -37.4667 2785
1664.26 -37.4667 2785
1667.92 -37.3994 2780
1672.16 -37.3456 2776
1675.77 -37.2783 2771
1682.4 -37.2783 2771
1689.02 -37.2783 2771
1693.2 -37.2245 2767
1696.75 -37.1573 2762
1697.8 -37.0362 2753
1704.38 -37.0362 2753
1705.37 -36.9151 2744
1711.94 -36.9151 2744
1715.37 -36.8478 2739
1721.92 -36.8478 2739
1725.94 -36.794 2735
1732.48 -36.794 2735
1733.3 -36.6729 2726
1736.63 -36.6057 2721
1743.13 -36.6057 2721
1749.64 -36.6057 2721
1756.15 -36.6057 2721
1760.06 -36.5519 2717
1766.56 -36.5519 2717
1770.45 -36.4981 2713
1773.66 -36.4308 2708
1774.22 -36.3097 2699
1780.67 -36.3097 2699
1775.87 -36.081 2682
1779.63 -36.0272 2678
1782.7 -35.9599 2673
1789.09 -35.9599 2673
1790.11 -35.8523 2665
1793.78 -35.7985 2661
1800.15 -35.7985 2661
1803.11 -35.7312 2656
1809.47 -35.7312 2656
1815.82 -35.7312 2656
1822.17 -35.7312 2656
1828.52 -35.7312 2656
1834.87 -35.7312 2656
1838.45 -35.6774 2652
1842.01 -35.6236 2648
1848.34 -35.6236 2648
1854.67 -35.6236 2648
1855.38 -35.516 2640
1861.7 -35.516 2640
1868.01 -35.516 2640
1874.32 -35.516 2640
1880.63 -35.516 2640
1880.52 -35.3949 2631
1883.94 -35.3411 2627
1887.34 -35.2873 2623
1893.61 -35.2873 2623
1899.89 -35.2873 2623
1906.16 -35.2873 2623
1912.43 -35.2873 2623
1918.7 -35.2873 2623
1924.98 -35.2873 2623
1928.3 -35.2335 2619
1931.61 -35.1797 2615
1937.86 -35.1797 2615
1944.12 -35.1797 2615
1947.39 -35.1258 2611
1953.63 -35.1258 2611
1956.87 -35.072 2607
1963.11 -35.072 2607
1969.34 -35.072 2607
1975.58 -35.072 2607
1978.77 -35.0182 2603
1984.99 -35.0182 2603
1991.22 -35.0182 2603
-2071.72 -30.5961 2767
-2065.1 -30.5961 2767
-2058.49 -30.5961 2767
-2048.16 -30.5409 2762
-2041.56 -30.5409 2762
-2031.27 -30.4856 2757
-2024.68 -30.4856 2757
-2015.16 -30.4413 2753
-2004.92 -30.3861 2748
-1995.44 -30.3418 2744
-1988.88 -30.3418 2744
-1978.71 -30.2865 2739
-1959.2 -30.0875 2721
-1952.69 -30.0875 2721
-1946.19 -30.0875 2721
-1933.98 -29.999 2713
-1923.94 -29.9438 2708
-1880.64 -29.3688 2656
-1874.29 -29.3688 2656
-2319.98 -37.496 3391
-2330.96 -37.8056 3419
-2337.06 -38.0379 3440
-2328.83 -38.0379 3440
-2344.89 -38.4359 3476
-2345.99 -38.5907 3490
-2347.69 -38.7566 3505
-2339.31 -38.7566 3505
-2355.53 -39.1657 3542
-2366.94 -39.4974 3572
-2368.96 -39.6744 3588
-2360.38 -39.6744 3588
-2351.8 -39.6744 3588
-2347.8 -39.7518 3595
-2339.2 -39.7518 3595
-2330.6 -39.7518 3595
-2337.51 -40.0172 3619
-2328.85 -40.0172 3619
-2334.94 -40.2715 3642
-2326.23 -40.2715 3642
-2317.53 -40.2715 3642
-2304.38 -40.1941 3635
-2300.11 -40.2715 3642
-2291.4 -40.2715 3642
-2292.72 -40.4484 3658
-2283.97 -40.4484 3658
-2275.22 -40.4484 3658
-2261.52 -40.3599 3650
-2243.53 -40.1941 3635
-2229.92 -40.1056 3627
-2221.25 -40.1056 3627
-2207.69 -40.0172 3619
-2199.04 -40.0172 3619
-2190.39 -40.0172 3619
-2181.73 -40.0172 3619
-2168.27 -39.9287 3611
-2154.85 -39.8402 3603
-2155.77 -40.0172 3619
-2147.12 -40.0172 3619
-2138.46 -40.0172 3619
-2129.81 -40.0172 3619
-2121.15 -40.0172 3619
-2112.5 -40.0172 3619
-2103.85 -40.0172 3619
-2095.19 -40.0172 3619
-2081.92 -39.9287 3611
-2073.29 -39.9287 3611
-2064.65 -39.9287 3611
-2046.91 -39.7518 3595
-2042.85 -39.8402 3603
-2034.23 -39.8402 3603
-2025.62 -39.8402 3603
-2017 -39.8402 3603
-2008.39 -39.8402 3603
-1999.77 -39.8402 3603
-1991.15 -39.8402 3603
-1978.14 -39.7518 3595
-1973.92 -39.8402 3603
-1965.31 -39.8402 3603
-1956.69 -39.8402 3603
-1948.07 -39.8402 3603
-1935.15 -39.7518 3595
-1926.56 -39.7518 3595
-1909.96 -39.5859 3580
-1897.15 -39.4974 3572
-1888.6 -39.4974 3572
-1880.06 -39.4974 3572
-1871.52 -39.4974 3572
-1862.98 -39.4974 3572
-1854.44 -39.4974 3572
-1850.03 -39.5859 3580
-1841.47 -39.5859 3580
-1837 -39.6744 3588
-1828.42 -39.6744 3588
-1819.84 -39.6744 3588
-1811.26 -39.6744 3588
-1794.65 -39.4974 3572
-1786.1 -39.4974 3572
-1781.54 -39.5859 3580
-1772.98 -39.5859 3580
-1764.42 -39.5859 3580
-1755.86 -39.5859 3580
-1743.39 -39.4974 3572
-1734.85 -39.4974 3572
-1726.31 -39.4974 3572
-1717.77 -39.4974 3572
-1709.23 -39.4974 3572
-1700.69 -39.4974 3572
-1692.14 -39.4974 3572
-1683.6 -39.4974 3572
-1678.81 -39.5859 3580
-1670.25 -39.5859 3580
-1661.69 -39.5859 3580
-1653.13 -39.5859 3580
-1644.57 -39.5859 3580
-1636.01 -39.5859 3580
-1623.81 -39.4974 3572
-1618.89 -39.5859 3580
-1613.92 -39.6744 3588
-1605.34 -39.6744 3588
-1596.76 -39.6744 3588
-1588.18 -39.6744 3588
-1576.08 -39.5859 3580
-1567.52 -39.5859 3580
-1552.43 -39.42 3565
-1540.44 -39.3316 3557
-1528.49 -39.2431 3549
-1520 -39.2431 3549
-1499.16 -38.9225 3520
-1487.36 -38.834 3512
-1472.64 -38.6681 3497
-1464.28 -38.6681 3497
-1450.09 -38.5133 3483
-1438.86 -38.4359 3476
-1415.73 -38.0379 3440
-1407.51 -38.0379 3440
-1393.59 -37.883 3426
-1365.58 -37.3412 3377
-1338.61 -36.8215 3330
-1294.29 -35.8153 3239
-1286.54 -35.8153 3239
-1254.71 -35.1408 3178
-1232.98 -34.7427 3142
-1213.77 -34.411 3112
-1206.33 -34.411 3112
-1183.48 -33.9687 3072
-1171.92 -33.8471 3061
-1152.04 -33.4822 3028
-1144.8 -33.4822 3028
-1131.18 -33.2942 3011
-1116.14 -33.062 2990
-1106.76 -32.9956 2984
-1105.52 -33.1726 3000
-1098.35 -33.1726 3000
-1091.17 -33.1726 3000
-1084 -33.1726 3000
-1069.29 -32.9403 2979
-1062.16 -32.9403 2979
-1055.04 -32.9403 2979
-1046.16 -32.8851 2974
-1036.95 -32.8187 2968
-1029.85 -32.8187 2968
-1021.03 -32.7634 2963
-1010.53 -32.6528 2953
-1001.43 -32.5865 2947
-994.378 -32.5865 2947
-987.331 -32.5865 2947
-980.284 -32.5865 2947
-971.585 -32.5312 2942
-964.55 -32.5312 2942
-957.515 -32.5312 2942
-948.864 -32.4759 2937
-941.841 -32.4759 2937
-934.818 -32.4759 2937
-927.794 -32.4759 2937
-920.771 -32.4759 2937
-913.748 -32.4759 2937
-906.725 -32.4759 2937
-896.638 -32.3653 2927
-889.639 -32.3653 2927
-882.639 -32.3653 2927
-875.64 -32.3653 2927
-868.641 -32.3653 2927
-860.169 -32.3101 2922
-853.182 -32.3101 2922
-846.195 -32.3101 2922
-839.207 -32.3101 2922
-830.796 -32.2548 2917
-822.126 -32.1884 2911
-815.165 -32.1884 2911
-808.204 -32.1884 2911
-801.243 -32.1884 2911
-794.282 -32.1884 2911
-785.968 -32.1331 2906
-779.019 -32.1331 2906
-770.741 -32.0779 2901
-763.804 -32.0779 2901
-755.563 -32.0226 2896
-748.637 -32.0226 2896
-741.712 -32.0226 2896
-734.787 -32.0226 2896
-726.605 -31.9673 2891
-719.692 -31.9673 2891
-711.546 -31.912 2886
-704.645 -31.912 2886
-696.534 -31.8567 2881
-689.645 -31.8567 2881
-681.571 -31.8014 2876
-673.52 -31.7461 2871
-666.655 -31.7461 2871
-660.939 -31.8014 2876
-654.061 -31.8014 2876
-647.184 -31.8014 2876
-640.306 -31.8014 2876
-633.429 -31.8014 2876
-626.552 -31.8014 2876
-625.061 -32.0779 2901
-619.189 -32.1331 2906
-613.293 -32.1884 2911
-606.332 -32.1884 2911
-605.754 -32.5312 2942
-608.487 -33.062 2990
-611.192 -33.6038 3039
-603.925 -33.6038 3039
-607.652 -34.223 3095
-618.676 -35.2735 3190
-624.073 -36.0254 3258
-616.282 -36.0254 3258
-615.775 -36.4566 3297
-611.578 -36.6778 3317
-607.286 -36.8989 3337
-599.307 -36.8989 3337
-591.327 -36.8989 3337
-585.62 -37.0427 3350
-579.85 -37.1864 3363
-571.808 -37.1864 3363
-564.94 -37.2638 3370
-560.351 -37.496 3391
-552.242 -37.496 3391
-544.133 -37.496 3391
-539.344 -37.7282 3412
-533.364 -37.883 3426
-526.245 -37.9605 3433
-518.035 -37.9605 3433
-509.826 -37.9605 3433
-504.685 -38.1927 3454
-499.588 -38.4359 3476
-491.275 -38.4359 3476
-482.963 -38.4359 3476
-472.603 -38.2701 3461
-464.327 -38.2701 3461
-456.05 -38.2701 3461
-447.774 -38.2701 3461
-439.498 -38.2701 3461
-431.221 -38.2701 3461
-422.945 -38.2701 3461
-414.669 -38.2701 3461
-406.392 -38.2701 3461
-398.921 -38.3475 3468
-390.628 -38.3475 3468
-382.335 -38.3475 3468
-372.532 -38.1927 3454
-364.273 -38.1927 3454
-356.735 -38.2701 3461
-348.458 -38.2701 3461
-340.182 -38.2701 3461
-332.577 -38.3475 3468
-324.284 -38.3475 3468
-315.991 -38.3475 3468
-307.698 -38.3475 3468
-300.095 -38.4359 3476
-291.783 -38.4359 3476
-283.471 -38.4359 3476
-274.526 -38.3475 3468
-265.695 -38.2701 3461
-257.419 -38.2701 3461
-143.828 -22.0929 1998
-139.05 -22.0929 1998
-134.272 -22.0929 1998
-130.142 -22.2035 2008
-125.34 -22.2035 2008
-120.539 -22.2035 2008
-115.968 -22.2477 2012
-111.156 -22.2477 2012
-106.609 -22.303 2017
-101.786 -22.303 2017
-97.1069 -22.3362 2020
-92.2765 -22.3362 2020
-87.6625 -22.3915 2025
-82.8201 -22.3915 2025
-78.2473 -22.4689 2032
-73.4604 -22.491 2034
-69.0349 -22.6347 2047
-64.1399 -22.6347 2047
-59.3896 -22.69 2052
-54.7482 -22.8006 2062
-50.2038 -22.9775 2078
-45.2347 -22.9775 2078
-40.3625 -23.0328 2083
-35.4663 -23.0881 2088
-30.59 -23.1766 2096
-25.5779 -23.1766 2096
-20.5657 -23.1766 2096
-15.5535 -23.1766 2096
-10.5665 -23.2318 2101
-5.54236 -23.2318 2101
-0.518236 -23.2318 2101
4.50589 -23.2318 2101
9.53002 -23.2318 2101
14.5541 -23.2318 2101
19.5783 -23.2318 2101
24.6375 -23.265 2104
29.6688 -23.265 2104
34.7001 -23.265 2104
39.7314 -23.265 2104
44.9755 -23.3756 2114
50.1017 -23.4088 2117
55.1641 -23.4088 2117
60.2265 -23.4088 2117
65.2889 -23.4088 2117
70.451 -23.4419 2120
75.5205 -23.4419 2120
80.7802 -23.4972 2125
85.9829 -23.5304 2128
91.0716 -23.5304 2128
96.1603 -23.5304 2128
101.249 -23.5304 2128
106.488 -23.5636 2131
112.002 -23.652 2139
117.117 -23.652 2139
122.689 -23.7405 2147
128.181 -23.8068 2153
133.453 -23.8289 2155
138.992 -23.8953 2161
144.16 -23.8953 2161
149.742 -23.9616 2167
155.282 -24.0169 2172
160.697 -24.0501 2175
165.898 -24.0501 2175
171.807 -24.1496 2184
177.435 -24.2049 2189
183.421 -24.3044 2198
188.677 -24.3044 2198
195.698 -24.5256 2218
202.361 -24.6914 2233
209.933 -24.9568 2257
215.33 -24.9568 2257
221.999 -25.1006 2270
228.028 -25.1669 2276
233.778 -25.2001 2279
239.228 -25.2001 2279
245.644 -25.2996 2288
253.64 -25.5539 2311
259.503 -25.5871 2314
265.036 -25.5871 2314
270.92 -25.6203 2317
276.461 -25.6203 2317
283.219 -25.7308 2327
288.783 -25.7308 2327
297.257 -25.9852 2350
303.263 -26.0183 2353
308.89 -26.0183 2353
314.517 -26.0183 2353
400.962 -32.5865 2947
408.009 -32.5865 2947
416.605 -32.7081 2958
424.395 -32.7634 2963
432.209 -32.8187 2968
439.306 -32.8187 2968
446.403 -32.8187 2968
453.501 -32.8187 2968
460.598 -32.8187 2968
467.695 -32.8187 2968
473.193 -32.7081 2958
479.455 -32.6528 2953
486.516 -32.6528 2953
491.739 -32.5312 2942
496.231 -32.3653 2927
502.371 -32.3101 2922
507.441 -32.1884 2911
514.402 -32.1884 2911
520.468 -32.1331 2906
527.417 -32.1331 2906
533.447 -32.0779 2901
540.384 -32.0779 2901
546.378 -32.0226 2896
553.303 -32.0226 2896
559.261 -31.9673 2891
566.174 -31.9673 2891
573.087 -31.9673 2891
578.997 -31.912 2886
585.899 -31.912 2886
592.8 -31.912 2886
599.701 -31.912 2886
605.552 -31.8567 2881
612.441 -31.8567 2881
619.33 -31.8567 2881
626.22 -31.8567 2881
633.109 -31.8567 2881
639.998 -31.8567 2881
646.888 -31.8567 2881
653.777 -31.8567 2881
660.666 -31.8567 2881
667.556 -31.8567 2881
674.445 -31.8567 2881
681.334 -31.8567 2881
688.224 -31.8567 2881
693.907 -31.8014 2876
700.784 -31.8014 2876
707.662 -31.8014 2876
714.539 -31.8014 2876
721.416 -31.8014 2876
728.294 -31.8014 2876
735.171 -31.8014 2876
742.048 -31.8014 2876
748.926 -31.8014 2876
755.803 -31.8014 2876
762.681 -31.8014 2876
769.558 -31.8014 2876
776.435 -31.8014 2876
783.313 -31.8014 2876
790.19 -31.8014 2876
798.453 -31.8567 2881
805.343 -31.8567 2881
812.232 -31.8567 2881
819.121 -31.8567 2881
826.011 -31.8567 2881
832.9 -31.8567 2881
841.247 -31.912 2886
849.618 -31.9673 2891
856.531 -31.9673 2891
863.444 -31.9673 2891
870.357 -31.9673 2891
877.271 -31.9673 2891
884.184 -31.9673 2891
891.097 -31.9673 2891
902.67 -32.1331 2906
916.192 -32.3653 2927
936.123 -32.8187 2968
943.22 -32.8187 2968
953.84 -32.9403 2979
976.77 -33.4822 3028
989.21 -33.6591 3044
996.49 -33.6591 3044
1009.37 -33.8471 3061
1022.34 -34.035 3078
1037.4 -34.2894 3101
1044.81 -34.2894 3101
1072.25 -34.9417 3160
1096.2 -35.4725 3208
1112.48 -35.749 3233
1120.21 -35.749 3233
1141.2 -36.1691 3271
1165.18 -36.6778 3317
1194.33 -37.3412 3377
1202.41 -37.3412 3377
1212.99 -37.4186 3384
1221.08 -37.4186 3384
1229.18 -37.4186 3384
1237.27 -37.4186 3384
1240.21 -37.2638 3370
1248.27 -37.2638 3370
1269.37 -37.6508 3405
1280.14 -37.7282 3412
1288.3 -37.7282 3412
1301.78 -37.883 3426
1309.97 -37.883 3426
1318.16 -37.883 3426
1326.36 -37.883 3426
1334.55 -37.883 3426
1334.51 -37.6508 3405
1342.65 -37.6508 3405
1342.47 -37.4186 3384
1339.78 -37.1201 3357
1347.81 -37.1201 3357
1358.26 -37.1864 3363
1366.3 -37.1864 3363
1374.34 -37.1864 3363
1382.39 -37.1864 3363
1390.43 -37.1864 3363
1395.98 -37.1201 3357
1401.08 -37.0427 3350
1409.09 -37.0427 3350
1417.1 -37.0427 3350
1422.13 -36.9653 3343
1424.56 -36.8215 3330
1426.93 -36.6778 3317
1437.46 -36.7441 3323
1445.41 -36.7441 3323
1453.35 -36.7441 3323
1461.3 -36.7441 3323
1466.59 -36.6778 3317
1483.42 -36.8989 3337
1491.4 -36.8989 3337
1499.38 -36.8989 3337
1513.23 -37.0427 3350
1521.24 -37.0427 3350
1529.25 -37.0427 3350
1531.29 -36.8989 3337
1536.05 -36.8215 3330
1547.25 -36.8989 3337
1555.23 -36.8989 3337
1563.21 -36.8989 3337
1577.31 -37.0427 3350
1591.48 -37.1864 3363
1609.51 -37.4186 3384
1617.6 -37.4186 3384
1625.69 -37.4186 3384
1633.78 -37.4186 3384
1641.88 -37.4186 3384
1639.73 -37.1864 3363
1644.83 -37.1201 3357
1652.86 -37.1201 3357
1660.89 -37.1201 3357
1665.43 -37.0427 3350
1673.44 -37.0427 3350
1657.86 -36.523 3303
1669.29 -36.6004 3310
1677.21 -36.6004 3310
1695.31 -36.8215 3330
1703.27 -36.8215 3330
1711.23 -36.8215 3330
1719.2 -36.8215 3330
1727.16 -36.8215 3330
1721.05 -36.523 3303
1719.01 -36.3129 3284
1726.86 -36.3129 3284
1727.84 -36.1691 3271
1742.56 -36.3129 3284
1750.42 -36.3129 3284
1758.27 -36.3129 3284
1766.12 -36.3129 3284
1770.74 -36.2465 3278
1771.52 -36.1028 3265
1779.33 -36.1028 3265
1772.9 -35.8153 3239
1757.01 -35.3398 3196
1754.71 -35.1408 3178
1745.68 -34.8091 3148
1753.21 -34.8091 3148
1747.31 -34.5437 3124
1738.49 -34.223 3095
1717.12 -33.6591 3044
1724.4 -33.6591 3044
1682.76 -32.7081 2958
1657.27 -32.0779 2901
1652.73 -31.8567 2881
1648.68 -31.6466 2862
1655.52 -31.6466 2862
1650.75 -31.4255 2842
1649.38 -31.2707 2828
1650.28 -31.1601 2818
1657.02 -31.1601 2818
1658.45 -31.0606 2809
1662.2 -31.0053 2804
1657.6 -30.7952 2785
1664.26 -30.7952 2785
1667.92 -30.7399 2780
1674.57 -30.7399 2780
1678.79 -30.6957 2776
1685.43 -30.6957 2776
1692.07 -30.6957 2776
1695.65 -30.6404 2771
1699.82 -30.5961 2767
1697.8 -30.4413 2753
1704.38 -30.4413 2753
1707.86 -30.3861 2748
1711.94 -30.3418 2744
1715.37 -30.2865 2739
1721.92 -30.2865 2739
1728.47 -30.2865 2739
1732.48 -30.2423 2735
1733.3 -30.1428 2726
1739.82 -30.1428 2726
1746.34 -30.1428 2726
1749.64 -30.0875 2721
1756.15 -30.0875 2721
1762.65 -30.0875 2721
1769.16 -30.0875 2721
1773.06 -30.0433 2717
1773.66 -29.9438 2708
1774.22 -29.8442 2699
1780.67 -29.8442 2699
1775.87 -29.6563 2682
1779.63 -29.612 2678
1786.03 -29.612 2678
1792.43 -29.612 2678
1792.79 -29.5125 2669
1796.48 -29.4683 2665
1802.85 -29.4683 2665
1806.51 -29.4241 2661
1812.87 -29.4241 2661
1819.24 -29.4241 2661
1825.6 -29.4241 2661
1828.52 -29.3688 2656
1834.87 -29.3688 2656
1838.45 -29.3245 2652
1844.79 -29.3245 2652
1848.34 -29.2803 2648
1854.67 -29.2803 2648
1858.19 -29.2361 2644
1861.7 -29.1918 2640
1868.01 -29.1918 2640
1874.32 -29.1918 2640
1880.63 -29.1918 2640
1883.37 -29.1366 2635
1886.81 -29.0923 2631
1890.22 -29.0481 2627
1896.5 -29.0481 2627
1902.78 -29.0481 2627
1909.07 -29.0481 2627
1915.35 -29.0481 2627
1921.63 -29.0481 2627
1927.91 -29.0481 2627
1931.25 -29.0039 2623
1934.57 -28.9596 2619
1940.83 -28.9596 2619
1947.09 -28.9596 2619
1953.35 -28.9596 2619
1956.62 -28.9154 2615
1959.88 -28.8712 2611
1966.12 -28.8712 2611
1972.36 -28.8712 2611
1978.61 -28.8712 2611
1984.85 -28.8712 2611
1994.14 -28.9154 2615
2000.4 -28.9154 2615
-2071.72 -23.9678 2767
-2065.1 -23.9678 2767
-2058.49 -23.9678 2767
-2048.16 -23.9245 2762
-2041.56 -23.9245 2762
-2031.27 -23.8812 2757
-2024.68 -23.8812 2757
-2015.16 -23.8465 2753
-2004.92 -23.8032 2748
-1995.44 -23.7685 2744
-1988.88 -23.7685 2744
-1972.21 -23.6473 2730
-1956.32 -23.5347 2717
-1946.95 -23.5 2713
-1940.46 -23.5 2713
-1930.41 -23.4567 2708
-1923.94 -23.4567 2708
-1880.64 -23.0063 2656
-1874.29 -23.0063 2656
-2319.98 -29.3729 3391
-2330.96 -29.6154 3419
-2337.06 -29.7973 3440
-2328.83 -29.7973 3440
-2344.89 -30.1091 3476
-2345.99 -30.2304 3490
-2347.69 -30.3603 3505
-2339.31 -30.3603 3505
-2355.53 -30.6808 3542
-2366.94 -30.9407 3572
-2368.96 -31.0793 3588
-2360.38 -31.0793 3588
-2351.8 -31.0793 3588
-2347.8 -31.1399 3595
-2339.2 -31.1399 3595
-2330.6 -31.1399 3595
-2337.51 -31.3478 3619
-2328.85 -31.3478 3619
-2334.94 -31.547 3642
-2326.23 -31.547 3642
-2317.53 -31.547 3642
-2304.38 -31.4864 3635
-2300.11 -31.547 3642
-2291.4 -31.547 3642
-2292.72 -31.6856 3658
-2283.97 -31.6856 3658
-2275.22 -31.6856 3658
-2261.52 -31.6163 3650
-2243.53 -31.4864 3635
-2229.92 -31.4171 3627
