ply
format ascii 1.0
comment File generated
element vertex 2262
property float x
property float y
property float z
end_header
690.916 980.751 3214
697.297 978.92 3208
703.65 977.089 3202
707.308 971.596 3184
714.922 971.596 3184
897.656 971.596 3184
906.976 973.427 3190
914.604 973.427 3190
922.232 973.427 3190
929.86 973.427 3190
937.489 973.427 3190
945.117 973.427 3190
952.745 973.427 3190
960.374 973.427 3190
968.002 973.427 3190
975.63 973.427 3190
981.409 971.596 3184
987.159 969.766 3178
983.49 958.78 3142
991.004 958.78 3142
998.517 958.78 3142
1006.03 958.78 3142
1011.61 956.949 3136
1019.11 956.949 3136
1024.64 955.118 3130
1030.15 953.287 3124
1037.62 953.287 3124
1045.09 953.287 3124
1042.79 944.438 3095
1050.19 944.438 3095
1051.78 939.251 3078
1059.14 939.251 3078
1066.5 939.251 3078
1073.86 939.251 3078
1075.25 934.063 3061
1064.89 918.806 3011
1072.09 918.806 3011
1073.55 913.923 2995
1076.75 910.567 2984
1082.07 909.041 2979
1089.19 909.041 2979
1096.31 909.041 2979
1097.51 904.158 2963
1100.87 901.107 2953
1107.93 901.107 2953
1114.99 901.107 2953
1295.48 990.516 3246
1303.24 990.516 3246
1318.68 996.314 3265
1326.49 996.314 3265
1342.06 1002.11 3284
1349.91 1002.11 3284
1357.77 1002.11 3284
1365.62 1002.11 3284
1370.96 1000.28 3278
1378.8 1000.28 3278
1386.64 1000.28 3278
1394.48 1000.28 3278
1402.32 1000.28 3278
1401.55 994.178 3258
1409.34 994.178 3258
1417.13 994.178 3258
1419.68 990.516 3246
1427.44 990.516 3246
1440.51 994.178 3258
1448.3 994.178 3258
1456.09 994.178 3258
1463.88 994.178 3258
1468.96 992.347 3252
1476.74 992.347 3252
1484.51 992.347 3252
1492.29 992.347 3252
1494.07 988.38 3239
1501.81 988.38 3239
1509.56 988.38 3239
1514.49 986.549 3233
1519.4 984.718 3227
1527.12 984.718 3227
1534.83 984.718 3227
1539.68 982.887 3221
1544.02 980.751 3214
1555.09 982.887 3221
1562.79 982.887 3221
1570.49 982.887 3221
1578.19 982.887 3221
1579.5 978.92 3208
1587.17 978.92 3208
1579.92 969.766 3178
1566.54 956.949 3136
1565.01 951.457 3118
1560.87 944.438 3095
1568.27 944.438 3095
1575.67 944.438 3095
1583.07 944.438 3095
1590.47 944.438 3095
1604.07 948.1 3107
1611.5 948.1 3107
1618.93 948.1 3107
1626.36 948.1 3107
1633.78 948.1 3107
1622.73 937.42 3072
1597.7 918.806 3011
1551.6 888.291 2911
1555.89 886.765 2906
1562.84 886.765 2906
1569.79 886.765 2906
1590.84 894.699 2932
1609.3 901.107 2953
1630.59 909.041 2979
1637.71 909.041 2979
1650.91 912.397 2990
1685.23 927.35 3039
1692.5 927.35 3039
1699.77 927.35 3039
1688.5 917.28 3006
1695.69 917.28 3006
1702.88 917.28 3006
1691.86 907.515 2974
1686.97 901.107 2953
1694.04 901.107 2953
1701.1 901.107 2953
1666.51 879.136 2881
1766.82 920.636 3017
1774.04 920.636 3017
1781.25 920.636 3017
1788.47 920.636 3017
1795.68 920.636 3017
1816.04 927.35 3039
1823.31 927.35 3039
1867.92 946.269 3101
1892.88 955.118 3130
1904 956.949 3136
1911.5 956.949 3136
1922.67 958.78 3142
1933.87 960.611 3148
1945.1 962.442 3154
1952.64 962.442 3154
1960.19 962.442 3154
1963.99 960.611 3148
1971.51 960.611 3148
1975.27 958.78 3142
1960.7 948.1 3107
1953.56 941.082 3084
1946.31 934.063 3061
1953.63 934.063 3061
1943.01 925.519 3033
1943.19 922.162 3022
1936.22 915.449 3000
1943.39 915.449 3000
1933.66 907.515 2974
1936.85 905.684 2968
1943.95 905.684 2968
1951.05 905.684 2968
1958.15 905.684 2968
1955.31 901.107 2953
1969.02 904.158 2963
1976.1 904.158 2963
1983.19 904.158 2963
1986.92 902.633 2958
1986.58 899.276 2947
1993.62 899.276 2947
2000.67 899.276 2947
2007.72 899.276 2947
2100.22 937.42 3072
2115.8 941.082 3084
2123.18 941.082 3084
2130.55 941.082 3084
2141.39 942.607 3089
2152.95 944.438 3095
2172.22 949.626 3112
2179.66 949.626 3112
2203.97 956.949 3136
2219.93 960.611 3148
2231.7 962.442 3154
2239.25 962.442 3154
2255.34 966.104 3166
2262.91 966.104 3166
2270.48 966.104 3166
2278.05 966.104 3166
2276.96 962.442 3154
2275.81 958.78 3142
2274.6 955.118 3130
2282.09 955.118 3130
2285.18 953.287 3124
2301.46 956.949 3136
2317.79 960.611 3148
2351.91 971.596 3184
2359.53 971.596 3184
2367.14 971.596 3184
2374.75 971.596 3184
2382.37 971.596 3184
2389.98 971.596 3184
2388.56 967.935 3172
2400.68 969.766 3178
2417.37 973.427 3190
2429.56 975.258 3196
2437.2 975.258 3196
2444.85 975.258 3196
-1320.85 912.794 2968
-1313.75 912.794 2968
-1337.91 934.63 3039
-1345.09 944.779 3072
-1340.36 946.624 3078
-1333 946.624 3078
-1330.37 950.007 3089
-1322.99 950.007 3089
-1315.6 950.007 3089
-1308.21 950.007 3089
-1293.67 944.779 3072
-1277.11 938.013 3050
-1269.82 938.013 3050
-1262.52 938.013 3050
-1255.23 938.013 3050
-1247.94 938.013 3050
-1240.64 938.013 3050
-1230.92 936.167 3044
-1223.64 936.167 3044
-1216.36 936.167 3044
-1240.86 960.771 3124
-1233.39 960.771 3124
-1247.11 977.379 3178
-1239.51 977.379 3178
-1231.91 977.379 3178
-1224.31 977.379 3178
-1216.71 977.379 3178
-1204.55 973.688 3166
-1196.98 973.688 3166
-1187.15 971.843 3160
-1177.36 969.997 3154
-1169.81 969.997 3154
-1164.48 971.843 3160
-1156.93 971.843 3160
-1158.1 979.224 3184
-1156.99 984.76 3202
-1151.49 986.605 3208
-1143.82 986.605 3208
-1138.27 988.45 3214
-1130.58 988.45 3214
-1122.9 988.45 3214
-1106.88 981.069 3190
-1097.19 979.224 3184
-1085.47 975.533 3172
-1077.88 975.533 3172
-1066.25 971.843 3160
-1054.67 968.152 3148
-1045.15 966.307 3142
-1037.63 966.307 3142
-1030.12 966.307 3142
-1022.61 966.307 3142
-1015.09 966.307 3142
-1015.28 973.688 3166
-1013.44 979.224 3184
-1005.82 979.224 3184
-998.207 979.224 3184
-990.594 979.224 3184
-982.98 979.224 3184
-969.852 973.688 3166
-949.515 960.771 3124
-942.045 960.771 3124
-934.574 960.771 3124
-927.104 960.771 3124
-919.634 960.771 3124
-908.659 957.081 3112
-901.218 957.081 3112
-893.776 957.081 3112
-884.91 955.543 3107
-877.48 955.543 3107
-870.05 955.543 3107
-859.289 951.852 3095
-850.237 950.007 3089
-838.211 944.779 3072
-830.865 944.779 3072
-820.57 941.396 3061
-813.25 941.396 3061
-805.931 941.396 3061
-798.611 941.396 3061
-788.448 938.013 3050
-791.143 950.007 3089
-783.756 950.007 3089
-776.369 950.007 3089
-768.982 950.007 3089
-749.268 934.63 3039
-736.629 927.864 3017
-729.415 927.864 3017
-743.744 955.543 3107
-736.314 955.543 3107
-728.885 955.543 3107
-716.114 948.469 3084
-708.739 948.469 3084
-697.499 943.241 3067
-684.989 936.167 3044
-676.596 934.63 3039
-669.329 934.63 3039
-662.062 934.63 3039
-655.872 936.167 3044
-648.593 936.167 3044
-642.578 938.013 3050
-635.285 938.013 3050
-627.991 938.013 3050
-618.459 934.63 3039
-611.192 934.63 3039
-602.732 932.784 3033
-596.658 934.63 3039
-591.524 938.013 3050
-586.337 941.396 3061
-579.018 941.396 3061
-571.698 941.396 3061
-564.378 941.396 3061
-557.058 941.396 3061
-548.661 939.55 3055
-545.431 946.624 3078
-539.994 950.007 3089
-535.71 955.543 3107
-528.281 955.543 3107
-522.695 958.926 3118
-517.222 962.616 3130
-514.623 971.843 3160
-507.066 971.843 3160
-501.406 975.533 3172
-493.821 975.533 3172
-486.236 975.533 3172
-478.651 975.533 3172
-467.501 968.152 3148
-458.22 964.462 3136
-452.446 968.152 3148
-446.614 971.843 3160
-439.057 971.843 3160
-432.32 973.688 3166
-427.969 981.069 3190
-421.132 982.914 3196
-413.489 982.914 3196
-405.846 982.914 3196
-398.204 982.914 3196
-390.561 982.914 3196
-381.481 979.224 3184
-374.571 981.069 3190
-369.704 988.45 3214
-362.018 988.45 3214
-354.333 988.45 3214
-342.764 977.379 3178
-332.633 969.997 3154
-325.091 969.997 3154
-315.737 964.462 3136
-308.238 964.462 3136
-300.739 964.462 3136
-293.239 964.462 3136
-213.975 979.224 3184
-206.361 979.224 3184
-198.747 979.224 3184
-191.133 979.224 3184
-184.211 982.914 3196
-177.231 986.605 3208
-170.247 990.603 3221
-162.545 990.603 3221
-155.131 992.448 3227
-147.414 992.448 3227
-139.697 992.448 3227
-131.98 992.448 3227
-124.264 992.448 3227
-116.98 996.139 3239
-109.235 996.139 3239
-101.49 996.139 3239
-26.8592 676.907 2201
-21.5959 676.907 2201
-16.3327 676.907 2201
-11.0694 676.907 2201
-5.76131 671.679 2184
-0.535749 667.988 2172
4.65816 667.988 2172
9.82939 666.45 2167
14.9282 662.76 2155
20.0628 662.145 2153
25.2113 662.145 2153
30.3598 662.145 2153
35.4588 661.222 2150
40.449 658.762 2142
45.5074 657.839 2139
50.6224 657.839 2139
55.7374 657.839 2139
60.8524 657.839 2139
65.9674 657.839 2139
71.0824 657.839 2139
76.1973 657.839 2139
81.3123 657.839 2139
86.4273 657.839 2139
91.6707 658.762 2142
96.7929 658.762 2142
102.153 660.299 2147
107.437 661.222 2150
113.311 665.528 2164
118.486 665.528 2164
123.947 667.065 2169
129.491 668.911 2175
134.877 669.833 2178
140.086 669.833 2178
145.694 671.679 2184
151.47 674.139 2192
157.355 676.907 2201
162.618 676.907 2201
168.339 678.752 2207
174.246 681.213 2215
181.002 686.748 2233
186.341 686.748 2233
192.454 689.516 2242
198.345 691.362 2248
205.442 697.205 2267
210.863 697.205 2267
216.57 698.128 2270
222.292 699.05 2273
227.727 699.05 2273
233.163 699.05 2273
238.598 699.05 2273
425.044 960.771 3124
432.514 960.771 3124
439.985 960.771 3124
447.455 960.771 3124
455.799 962.616 3130
463.284 962.616 3130
473.476 968.152 3148
481.004 968.152 3148
488.532 968.152 3148
495.114 966.307 3142
501.668 964.462 3136
512.09 969.997 3154
521.609 973.688 3166
529.18 973.688 3166
538.785 977.379 3178
547.416 979.224 3184
556.076 981.069 3190
563.704 981.069 3190
572.407 982.914 3196
580.05 982.914 3196
587.692 982.914 3196
593.1 979.224 3184
600.713 979.224 3184
608.327 979.224 3184
618.263 982.914 3196
625.905 982.914 3196
637.116 988.45 3214
644.802 988.45 3214
652.487 988.45 3214
660.173 988.45 3214
667.859 988.45 3214
675.544 988.45 3214
683.23 988.45 3214
690.916 988.45 3214
697.297 986.605 3208
703.65 984.76 3202
707.308 979.224 3184
714.922 979.224 3184
714.367 968.152 3148
765.731 957.081 3112
773.173 957.081 3112
780.615 957.081 3112
788.056 957.081 3112
795.498 957.081 3112
802.94 957.081 3112
897.656 979.224 3184
906.976 981.069 3190
914.604 981.069 3190
922.232 981.069 3190
929.86 981.069 3190
937.489 981.069 3190
945.117 981.069 3190
952.745 981.069 3190
960.374 981.069 3190
968.002 981.069 3190
975.63 981.069 3190
981.409 979.224 3184
987.159 977.379 3178
985.368 968.152 3148
996.681 971.843 3160
1004.24 971.843 3160
1011.79 971.843 3160
1011.61 964.462 3136
1019.11 964.462 3136
1026.61 964.462 3136
1030.15 960.771 3124
1037.62 960.771 3124
1045.09 960.771 3124
1042.79 951.852 3095
1050.19 951.852 3095
1051.78 946.624 3078
1059.14 946.624 3078
1066.5 946.624 3078
1073.86 946.624 3078
1075.25 941.396 3061
1064.89 926.018 3011
1072.09 926.018 3011
1073.55 921.098 2995
1076.75 917.715 2984
1082.07 916.177 2979
1089.19 916.177 2979
1096.31 916.177 2979
1097.51 911.256 2963
1110.56 916.177 2979
1121.81 919.56 2990
1128.96 919.56 2990
1138.01 921.098 2995
1170.41 941.396 3061
1184.27 946.624 3078
1191.63 946.624 3078
1198.99 946.624 3078
1295.48 998.292 3246
1303.24 998.292 3246
1318.68 1004.13 3265
1326.49 1004.13 3265
1342.06 1009.98 3284
1349.91 1009.98 3284
1357.77 1009.98 3284
1365.62 1009.98 3284
1370.96 1008.13 3278
1378.8 1008.13 3278
1386.64 1008.13 3278
1394.48 1008.13 3278
1402.32 1008.13 3278
1401.55 1001.98 3258
1409.34 1001.98 3258
1417.13 1001.98 3258
1419.68 998.292 3246
1427.44 998.292 3246
1440.51 1001.98 3258
1448.3 1001.98 3258
1456.09 1001.98 3258
1461.18 1000.14 3252
1468.96 1000.14 3252
1476.74 1000.14 3252
1484.51 1000.14 3252
1486.32 996.139 3239
1494.07 996.139 3239
1501.81 996.139 3239
1506.76 994.294 3233
1508.87 990.603 3221
1513.28 988.45 3214
1518.13 986.605 3208
1525.8 986.605 3208
1533.47 986.605 3208
1538.26 984.76 3202
1551.71 988.45 3214
1559.39 988.45 3214
1567.08 988.45 3214
1571.83 986.605 3208
1576.54 984.76 3202
1584.2 984.76 3202
1579.92 977.379 3178
1566.54 964.462 3136
1559.49 955.543 3107
1557.84 950.007 3089
1565.23 950.007 3089
1567.01 946.624 3078
1583.07 951.852 3095
1590.47 951.852 3095
1604.07 955.543 3107
1611.5 955.543 3107
1618.93 955.543 3107
1626.36 955.543 3107
1633.78 955.543 3107
1622.73 944.779 3072
1600.89 927.864 3017
1562.8 901.722 2932
1569.81 901.722 2932
1579.51 903.26 2937
1586.53 903.26 2937
1610.37 912.794 2968
1629.46 919.56 2990
1648.11 926.018 3011
1655.31 926.018 3011
1680.73 936.167 3044
1710.19 948.469 3084
1717.56 948.469 3084
1724.94 948.469 3084
1732.31 948.469 3084
1717.12 936.167 3044
1724.4 936.167 3044
1712.91 926.018 3011
1720.11 926.018 3011
1699.77 911.256 2963
1706.86 911.256 2963
1786.15 938.013 3050
1793.44 938.013 3050
1800.74 938.013 3050
1791.43 929.401 3022
1789.13 924.481 3006
1805.88 929.401 3022
1813.11 929.401 3022
1833.59 936.167 3044
1889.25 960.771 3124
1900.36 962.616 3130
1907.85 962.616 3130
1919 964.462 3136
1930.19 966.307 3142
1945.1 969.997 3154
1952.64 969.997 3154
1960.19 969.997 3154
1963.99 968.152 3148
1971.51 968.152 3148
1953.27 955.543 3107
1949.34 950.007 3089
1925.05 934.63 3039
1932.32 934.63 3039
1939.58 934.63 3039
1939.81 931.247 3028
1939.97 927.864 3017
1922.66 916.177 2979
1929.79 916.177 2979
1926.51 911.256 2963
1936.85 912.794 2968
1943.95 912.794 2968
1951.05 912.794 2968
1940.99 904.798 2942
1948.03 904.798 2942
1958.39 906.336 2947
1965.43 906.336 2947
1972.48 906.336 2947
1969.45 901.722 2932
1976.46 901.722 2932
1973.33 897.109 2917
1997.28 904.798 2942
2004.31 904.798 2942
2088.6 939.55 3055
2107.57 944.779 3072
2123.18 948.469 3084
2130.55 948.469 3084
2141.39 950.007 3089
2148.78 950.007 3089
2160.35 951.852 3095
2167.75 951.852 3095
2195.54 960.771 3124
2219.93 968.152 3148
2227.46 968.152 3148
2234.99 968.152 3148
2251.06 971.843 3160
2258.62 971.843 3160
2266.18 971.843 3160
2269.42 969.997 3154
2272.63 968.152 3148
2271.46 964.462 3136
2274.6 962.616 3130
2282.09 962.616 3130
2285.18 960.771 3124
2292.65 960.771 3124
2317.79 968.152 3148
2343.05 975.533 3172
2350.63 975.533 3172
2362.68 977.379 3178
2370.28 977.379 3178
2377.88 977.379 3178
2385.48 977.379 3178
2379.52 971.843 3160
2396.15 975.533 3172
2403.73 975.533 3172
2411.32 975.533 3172
-1342.26 929.822 3000
-1335.09 929.822 3000
-1327.91 929.822 3000
-1318.54 928.272 2995
-1321.01 935.091 3017
-1330.34 946.869 3055
-1323.04 946.869 3055
-1315.73 946.869 3055
-1308.43 946.869 3055
-1301.12 946.869 3055
-1293.81 946.869 3055
-1281.88 943.459 3044
-1269.99 940.05 3033
-1262.74 940.05 3033
-1255.49 940.05 3033
-1248.23 940.05 3033
-1240.98 940.05 3033
-1233.73 940.05 3033
-1224.45 938.5 3028
-1217.21 938.5 3028
-1214.37 941.91 3039
-1211.47 945.319 3050
-1204.18 945.319 3050
-1225.92 968.255 3124
-1237.17 983.132 3172
-1231.91 984.991 3178
-1224.31 984.991 3178
-1216.71 984.991 3178
-1204.55 981.272 3166
-1196.98 981.272 3166
-1187.15 979.413 3160
-1179.6 979.413 3160
-1176.49 983.132 3172
-1175.54 988.711 3190
-1167.91 988.711 3190
-1164.65 992.43 3202
-1156.99 992.43 3202
-1151.49 994.29 3208
-1143.82 994.29 3208
-1140.75 998.319 3221
-1133.05 998.319 3221
-1125.34 998.319 3221
-1106.88 988.711 3190
-1097.19 986.851 3184
-1085.47 983.132 3172
-1077.88 983.132 3172
-1068.27 981.272 3166
-1054.67 975.693 3148
-1045.15 973.834 3142
-1037.63 973.834 3142
-1028.15 971.974 3136
-1018.7 970.114 3130
-1015.09 973.834 3142
-1015.28 981.272 3166
-1011.53 984.991 3178
-1003.93 984.991 3178
-996.326 984.991 3178
-988.727 984.991 3178
-981.127 984.991 3178
-969.852 981.272 3166
-949.515 968.255 3124
-942.045 968.255 3124
-934.574 968.255 3124
-925.323 966.395 3118
-917.867 966.395 3118
-908.659 964.535 3112
-901.218 964.535 3112
-893.776 964.535 3112
-886.334 964.535 3112
-878.892 964.535 3112
-871.451 964.535 3112
-860.955 961.126 3101
-850.237 957.407 3089
-841.485 955.857 3084
-834.111 955.857 3084
-822.179 950.588 3067
-814.845 950.588 3067
-805.931 948.728 3061
-798.611 948.728 3061
-788.448 945.319 3050
-779.617 943.459 3044
-783.756 957.407 3089
-776.369 957.407 3089
-768.982 957.407 3089
-749.268 941.91 3039
-736.629 935.091 3017
-729.415 935.091 3017
-738.239 955.857 3084
-730.864 955.857 3084
-723.489 955.857 3084
-705.665 941.91 3039
-698.398 941.91 3039
-691.131 941.91 3039
-681.388 938.5 3028
-670.363 933.231 3011
-665.585 936.641 3022
-658.359 936.641 3022
-654.795 941.91 3039
-647.528 941.91 3039
-640.261 941.91 3039
-630.702 938.5 3028
-623.461 938.5 3028
-616.22 938.5 3028
-608.98 938.5 3028
-600.546 936.641 3022
-593.32 936.641 3022
-589.39 941.91 3039
-583.081 943.459 3044
-575.802 943.459 3044
-568.523 943.459 3044
-561.244 943.459 3044
-553.964 943.459 3044
-545.787 941.91 3039
-545.431 953.997 3078
-539.994 957.407 3089
-536.573 964.535 3112
-529.131 964.535 3112
-522.695 966.395 3118
-517.222 970.114 3130
-514.623 979.413 3160
-507.066 979.413 3160
-502.355 984.991 3178
-494.755 984.991 3178
-487.156 984.991 3178
-479.556 984.991 3178
-468.393 977.553 3154
-459.974 975.693 3148
-453.308 977.553 3154
-447.462 981.272 3166
-439.891 981.272 3166
-432.32 981.272 3166
-427.969 988.711 3190
-421.132 990.57 3196
-413.489 990.57 3196
-405.846 990.57 3196
-398.204 990.57 3196
-390.561 990.57 3196
-381.481 986.851 3184
-374.571 988.711 3190
-369.704 996.149 3214
-362.018 996.149 3214
-354.333 996.149 3214
-342.764 984.991 3178
-332.633 977.553 3154
-325.091 977.553 3154
-315.737 971.974 3136
-308.238 971.974 3136
-300.739 971.974 3136
-293.239 971.974 3136
-257.871 952.138 3072
-250.525 952.138 3072
-243.178 952.138 3072
-213.975 986.851 3184
-206.361 986.851 3184
-198.747 986.851 3184
-191.133 986.851 3184
-183.519 986.851 3184
-176.568 990.57 3196
-169.56 994.29 3208
-161.889 994.29 3208
-154.842 998.319 3221
-147.14 998.319 3221
-139.697 1000.18 3227
-131.98 1000.18 3227
-124.264 1000.18 3227
-116.547 1000.18 3227
-108.83 1000.18 3227
-26.8592 682.179 2201
-21.5959 682.179 2201
-16.3327 682.179 2201
-11.0694 682.179 2201
-5.76659 677.53 2186
-0.537229 675.051 2178
4.67103 675.051 2178
9.83846 672.261 2169
14.9906 670.712 2164
20.0815 667.922 2155
25.2347 667.922 2155
30.388 667.922 2155
35.5083 667.302 2153
40.5434 665.443 2147
45.5712 663.893 2142
50.6934 663.893 2142
55.8155 663.893 2142
60.9377 663.893 2142
66.0599 663.893 2142
71.182 663.893 2142
76.1973 662.963 2139
81.3123 662.963 2139
86.5486 663.893 2142
91.7563 664.513 2144
96.8833 664.513 2144
102.296 666.372 2150
107.687 667.922 2155
113.311 670.712 2164
118.486 670.712 2164
123.947 672.261 2169
129.491 674.121 2175
134.877 675.051 2178
140.086 675.051 2178
145.694 676.91 2184
151.47 679.39 2192
157.355 682.179 2201
162.618 682.179 2201
168.339 684.039 2207
174.246 686.519 2215
181.002 692.098 2233
186.341 692.098 2233
192.454 694.887 2242
198.345 696.747 2248
205.442 702.635 2267
210.863 702.635 2267
216.57 703.565 2270
222.292 704.495 2273
227.727 704.495 2273
233.163 704.495 2273
238.598 704.495 2273
425.044 968.255 3124
432.514 968.255 3124
439.985 968.255 3124
446.596 966.395 3118
454.052 966.395 3118
459.88 962.986 3107
470.769 970.114 3130
478.254 970.114 3130
485.739 970.114 3130
492.278 968.255 3124
500.708 970.114 3130
511.115 975.693 3148
519.632 977.553 3154
527.174 977.553 3154
538.785 984.991 3178
547.416 986.851 3184
556.076 988.711 3190
563.704 988.711 3190
572.407 990.57 3196
580.05 990.57 3196
587.692 990.57 3196
593.1 986.851 3184
618.263 990.57 3196
625.905 990.57 3196
637.116 996.149 3214
644.802 996.149 3214
652.487 996.149 3214
660.173 996.149 3214
667.859 996.149 3214
675.544 996.149 3214
683.23 996.149 3214
690.916 996.149 3214
697.297 994.29 3208
702.331 990.57 3196
704.642 983.132 3172
712.228 983.132 3172
714.367 975.693 3148
765.731 964.535 3112
773.173 964.535 3112
780.615 964.535 3112
788.056 964.535 3112
795.498 964.535 3112
802.94 964.535 3112
897.656 986.851 3184
906.976 988.711 3190
914.604 988.711 3190
922.232 988.711 3190
929.86 988.711 3190
937.489 988.711 3190
945.117 988.711 3190
952.745 988.711 3190
960.374 988.711 3190
968.002 988.711 3190
975.63 988.711 3190
981.409 986.851 3184
987.159 984.991 3178
985.368 975.693 3148
996.681 979.413 3160
1004.24 979.413 3160
1011.79 979.413 3160
1011.61 971.974 3136
1019.11 971.974 3136
1026.61 971.974 3136
1028.17 966.395 3118
1027.99 959.266 3095
1035.39 959.266 3095
1040.77 957.407 3089
1046.46 955.857 3084
1051.78 953.997 3078
1059.14 953.997 3078
1064.42 952.138 3072
1071.77 952.138 3072
1073.14 946.869 3055
1061 929.822 3000
1068.17 929.822 3000
1073.55 928.272 2995
1076.75 924.863 2984
1082.07 923.313 2979
1089.19 923.313 2979
1090.43 918.354 2963
1093.81 915.255 2953
1110.56 923.313 2979
1121.81 926.723 2990
1128.96 926.723 2990
1138.01 928.272 2995
1170.41 948.728 3061
1184.27 953.997 3078
1191.63 953.997 3078
1198.99 953.997 3078
1188.71 940.05 3033
1195.97 940.05 3033
1268.34 984.991 3178
1275.94 984.991 3178
1305.76 1002.04 3233
1313.49 1002.04 3233
1321.22 1002.04 3233
1334.29 1006.07 3246
1342.05 1006.07 3246
1349.82 1006.07 3246
1357.58 1006.07 3246
1365.34 1006.07 3246
1378.18 1009.79 3258
1385.97 1009.79 3258
1393.76 1009.79 3258
1401.55 1009.79 3258
1404.15 1006.07 3246
1411.91 1006.07 3246
1419.68 1006.07 3246
1427.44 1006.07 3246
1437.85 1007.93 3252
1445.63 1007.93 3252
1453.41 1007.93 3252
1461.18 1007.93 3252
1468.96 1007.93 3252
1476.74 1007.93 3252
1484.51 1007.93 3252
1486.32 1003.9 3239
1494.07 1003.9 3239
1501.81 1003.9 3239
1506.76 1002.04 3233
1508.87 998.319 3221
1513.28 996.149 3214
1518.13 994.29 3208
1525.8 994.29 3208
1533.47 994.29 3208
1538.26 992.43 3202
1551.71 996.149 3214
1559.39 996.149 3214
1567.08 996.149 3214
1571.83 994.29 3208
1576.54 992.43 3202
1584.2 992.43 3202
1579.92 984.991 3178
1566.54 971.974 3136
1559.49 962.986 3107
1557.84 957.407 3089
1565.23 957.407 3089
1567.01 953.997 3078
1583.07 959.266 3095
1590.47 959.266 3095
1604.07 962.986 3107
1611.5 962.986 3107
1621.53 964.535 3112
1628.97 964.535 3112
1636.41 964.535 3112
1643.86 964.535 3112
1603.54 936.641 3022
1576.66 916.805 2958
1572.49 910.296 2937
1596.18 919.904 2968
1603.28 919.904 2968
1622.31 926.723 2990
1656.17 941.91 3039
1672.19 946.869 3055
1679.5 946.869 3055
1702.81 955.857 3084
1742.35 973.834 3142
1749.86 973.834 3142
1757.38 973.834 3142
1754.78 968.255 3124
1749.28 961.126 3101
1756.69 961.126 3101
1751.02 953.997 3078
1758.38 953.997 3078
1699.77 918.354 2963
1706.86 918.354 2963
1778.86 945.319 3050
1786.15 945.319 3050
1793.44 945.319 3050
1800.74 945.319 3050
1791.43 936.641 3022
1789.13 931.682 3006
1805.88 936.641 3022
1813.11 936.641 3022
1833.59 943.459 3044
1889.25 968.255 3124
1900.36 970.114 3130
1907.85 970.114 3130
1919 971.974 3136
1930.19 973.834 3142
1945.1 977.553 3154
1952.64 977.553 3154
1960.19 977.553 3154
1963.99 975.693 3148
1971.51 975.693 3148
1953.27 962.986 3107
1949.34 957.407 3089
1925.05 941.91 3039
1932.32 941.91 3039
1939.58 941.91 3039
1939.81 938.5 3028
1947.05 938.5 3028
1922.66 923.313 2979
1929.79 923.313 2979
1929.76 919.904 2968
1936.85 919.904 2968
1943.95 919.904 2968
1951.05 919.904 2968
1940.99 911.845 2942
1948.03 911.845 2942
1958.39 913.395 2947
1965.43 913.395 2947
1972.48 913.395 2947
1969.45 908.746 2932
1976.46 908.746 2932
1973.33 904.097 2917
1997.28 911.845 2942
2004.31 911.845 2942
2088.6 946.869 3055
2107.57 952.138 3072
2123.18 955.857 3084
2130.55 955.857 3084
2141.39 957.407 3089
2148.78 957.407 3089
2160.35 959.266 3095
2167.75 959.266 3095
2195.54 968.255 3124
2219.93 975.693 3148
2227.46 975.693 3148
2234.99 975.693 3148
2251.06 979.413 3160
2258.62 979.413 3160
2266.18 979.413 3160
2269.42 977.553 3154
2272.63 975.693 3148
2271.46 971.974 3136
2274.6 970.114 3130
2282.09 970.114 3130
2285.18 968.255 3124
2292.65 968.255 3124
2317.79 975.693 3148
2343.05 983.132 3172
2350.63 983.132 3172
2362.68 984.991 3178
2370.28 984.991 3178
2377.88 984.991 3178
2385.48 984.991 3178
2379.52 979.413 3160
2396.15 983.132 3172
2403.73 983.132 3172
2411.32 983.132 3172
-1342.26 937.009 3000
-1335.09 937.009 3000
-1327.91 937.009 3000
-1318.54 935.447 2995
-1323.2 943.88 3022
-1330.34 954.187 3055
-1323.04 954.187 3055
-1315.73 954.187 3055
-1308.43 954.187 3055
-1301.12 954.187 3055
-1293.81 954.187 3055
-1281.88 950.751 3044
-1269.99 947.316 3033
-1262.74 947.316 3033
-1255.49 947.316 3033
-1248.23 947.316 3033
-1240.98 947.316 3033
-1233.73 947.316 3033
-1224.45 945.754 3028
-1217.21 945.754 3028
-1214.37 949.19 3039
-1211.47 952.625 3050
-1204.18 952.625 3050
-1225.92 975.738 3124
-1237.17 990.73 3172
-1231.91 992.604 3178
-1224.31 992.604 3178
-1216.71 992.604 3178
-1204.55 988.856 3166
-1196.98 988.856 3166
-1187.15 986.982 3160
-1179.6 986.982 3160
-1176.49 990.73 3172
-1175.54 996.352 3190
-1167.91 996.352 3190
-1164.65 1000.1 3202
-1156.99 1000.1 3202
-1151.49 1001.97 3208
-1143.82 1001.97 3208
-1140.75 1006.03 3221
-1133.05 1006.03 3221
-1125.34 1006.03 3221
-1106.88 996.352 3190
-1097.19 994.478 3184
-1085.47 990.73 3172
-1077.88 990.73 3172
-1068.27 988.856 3166
-1054.67 983.234 3148
-1045.15 981.36 3142
-1037.63 981.36 3142
-1028.15 979.486 3136
-1018.7 977.612 3130
-1015.09 981.36 3142
-1015.28 988.856 3166
-1011.53 992.604 3178
-1003.93 992.604 3178
-996.326 992.604 3178
-988.727 992.604 3178
-981.127 992.604 3178
-969.852 988.856 3166
-951.339 977.612 3130
-942.045 975.738 3124
-934.574 975.738 3124
-925.323 973.864 3118
-917.867 973.864 3118
-908.659 971.99 3112
-901.218 971.99 3112
-893.776 971.99 3112
-888.043 973.864 3118
-880.587 973.864 3118
-873.131 973.864 3118
-864.009 971.99 3112
-851.888 966.68 3095
-842.85 964.806 3089
-835.463 964.806 3089
-823.519 959.497 3072
-816.173 959.497 3072
-807.51 957.935 3067
-800.176 957.935 3067
-788.448 952.625 3050
-778.337 949.19 3039
-768.279 945.754 3028
-761.038 945.754 3028
-753.797 945.754 3028
-743.844 942.318 3017
-732.479 937.009 3000
-726.755 938.883 3006
-719.567 938.883 3006
-712.379 938.883 3006
-705.191 938.883 3006
-698.002 938.883 3006
-690.814 938.883 3006
-677.486 930.449 2979
-660.911 917.331 2937
-653.887 917.331 2937
-649.067 920.455 2947
-642.019 920.455 2947
-636.265 922.329 2953
-630.269 923.89 2958
-628.673 932.011 2984
-621.537 932.011 2984
-614.402 932.011 2984
-607.266 932.011 2984
-605.561 940.444 3011
-598.36 940.444 3011
-591.16 940.444 3011
-587.257 945.754 3028
-582.123 949.19 3039
-574.856 949.19 3039
-567.589 949.19 3039
-560.322 949.19 3039
-553.055 949.19 3039
-545.787 949.19 3039
-542.419 956.061 3061
-539.994 964.806 3089
-536.573 971.99 3112
-529.131 971.99 3112
-522.695 973.864 3118
-517.222 977.612 3130
-514.623 986.982 3160
-507.066 986.982 3160
-502.355 992.604 3178
-494.755 992.604 3178
-487.156 992.604 3178
-479.556 992.604 3178
-468.393 985.108 3154
-459.974 983.234 3148
-453.308 985.108 3154
-447.462 988.856 3166
-439.891 988.856 3166
-432.32 988.856 3166
-427.969 996.352 3190
-420.341 996.352 3190
-412.713 996.352 3190
-405.084 996.352 3190
-397.456 996.352 3190
-389.828 996.352 3190
-380.762 992.604 3178
-374.571 996.352 3190
-366.943 996.352 3190
-359.315 996.352 3190
-351.687 996.352 3190
-341.47 988.856 3166
-332.001 983.234 3148
-324.473 983.234 3148
-315.133 977.612 3130
-307.648 977.612 3130
-299.588 975.738 3124
-292.117 975.738 3124
-282.005 966.68 3095
-272.563 959.497 3072
-265.217 959.497 3072
-257.871 959.497 3072
-250.525 959.497 3072
-243.178 959.497 3072
-233.683 950.751 3044
-223.949 940.444 3011
-216.749 940.444 3011
-205.306 954.187 3055
-204.805 986.982 3160
-197.249 986.982 3160
-189.692 986.982 3160
-182.828 990.73 3172
-176.237 996.352 3190
-169.243 1000.1 3202
-161.586 1000.1 3202
-154.217 1001.97 3208
-147.14 1006.03 3221
-139.437 1006.03 3221
-131.735 1006.03 3221
-124.264 1007.91 3227
-116.547 1007.91 3227
-108.83 1007.91 3227
-27.0056 691.2 2213
-21.7137 691.2 2213
-16.4217 691.2 2213
-11.0845 688.389 2204
-5.79825 686.515 2198
-0.538709 682.142 2184
4.6839 682.142 2184
9.86568 679.331 2175
15.0252 677.457 2169
20.1653 675.896 2164
25.305 674.958 2161
30.4726 674.958 2161
35.5907 674.021 2158
40.6001 671.523 2150
45.6776 670.586 2147
50.8117 670.586 2147
55.8676 669.649 2144
60.9946 669.649 2144
66.0599 669.024 2142
71.182 669.024 2142
76.3042 669.024 2142
81.4264 669.024 2142
86.6294 669.649 2144
92.0131 671.523 2150
97.1544 671.523 2150
102.438 672.46 2153
108.137 675.896 2164
113.573 677.457 2169
118.76 677.457 2169
124.118 678.394 2172
129.669 680.268 2178
135.249 682.142 2184
140.472 682.142 2184
145.694 682.142 2184
151.884 686.515 2198
157.569 688.389 2204
162.84 688.389 2204
168.797 691.2 2213
174.718 693.699 2221
181.488 699.321 2239
186.842 699.321 2239
192.711 701.195 2245
198.874 704.006 2254
205.442 708.066 2267
210.863 708.066 2267
216.857 709.94 2273
222.292 709.94 2273
227.727 709.94 2273
233.163 709.94 2273
238.598 709.94 2273
422.731 970.429 3107
430.161 970.429 3107
437.591 970.429 3107
445.02 970.429 3107
452.45 970.429 3107
459.88 970.429 3107
467.31 970.429 3107
473.823 968.555 3101
481.238 968.555 3101
487.708 966.68 3095
497.829 971.99 3112
507.219 975.738 3124
518.643 983.234 3148
526.171 983.234 3148
534.716 985.108 3154
547.416 994.478 3184
555.03 994.478 3184
562.644 994.478 3184
572.407 998.226 3196
580.05 998.226 3196
587.692 998.226 3196
624.73 996.352 3190
637.116 1003.85 3214
644.802 1003.85 3214
652.487 1003.85 3214
660.173 1003.85 3214
667.859 1003.85 3214
675.544 1003.85 3214
683.23 1003.85 3214
690.916 1003.85 3214
695.993 1000.1 3202
701.013 996.352 3190
704.642 990.73 3172
712.228 990.73 3172
714.367 983.234 3148
713.639 971.99 3112
719.922 970.429 3107
727.352 970.429 3107
733.363 968.555 3101
728.595 952.625 3050
741.197 959.497 3072
754.147 966.68 3095
765.731 971.99 3112
773.173 971.99 3112
780.615 971.99 3112
788.056 971.99 3112
795.498 971.99 3112
802.94 971.99 3112
803.09 963.245 3084
897.656 994.478 3184
906.976 996.352 3190
914.604 996.352 3190
922.232 996.352 3190
929.86 996.352 3190
937.489 996.352 3190
945.117 996.352 3190
952.745 996.352 3190
960.374 996.352 3190
968.002 996.352 3190
975.63 996.352 3190
981.409 994.478 3184
987.159 992.604 3178
985.368 983.234 3148
996.681 986.982 3160
1004.24 986.982 3160
1011.79 986.982 3160
1015.48 983.234 3148
1023.01 983.234 3148
1028.57 981.36 3142
1028.17 973.864 3118
1027.99 966.68 3095
1035.39 966.68 3095
1040.77 964.806 3089
1048.15 964.806 3089
1049.73 959.497 3072
1057.08 959.497 3072
1064.42 959.497 3072
1070.03 957.935 3067
1073.14 954.187 3055
1061 937.009 3000
1068.17 937.009 3000
1073.55 935.447 2995
1076.75 932.011 2984
1082.07 930.449 2979
1089.19 930.449 2979
1090.43 925.452 2963
1093.81 922.329 2953
1110.56 930.449 2979
1121.81 933.885 2990
1128.96 933.885 2990
1138.01 935.447 2995
1170.41 956.061 3061
1184.27 961.371 3078
1191.63 961.371 3078
1198.99 961.371 3078
1188.71 947.316 3033
1195.97 947.316 3033
1256.37 983.234 3148
1271.12 988.856 3166
1283.54 992.604 3178
1291.14 992.604 3178
1318.77 1007.91 3227
1326.48 1007.91 3227
1336.68 1009.78 3233
1344.41 1009.78 3233
1352.14 1009.78 3233
1362.4 1011.66 3239
1373.1 1013.84 3246
1380.87 1013.84 3246
1388.63 1013.84 3246
1393.38 1011.66 3239
1398.53 1009.78 3233
1406.26 1009.78 3233
1411.37 1007.91 3227
1424.36 1011.66 3239
1432.11 1011.66 3239
1442.96 1013.84 3246
1450.73 1013.84 3246
1458.49 1013.84 3246
1463.09 1011.66 3239
1470.83 1011.66 3239
1478.58 1011.66 3239
1486.32 1011.66 3239
1485.77 1006.03 3221
1493.47 1006.03 3221
1497.91 1003.85 3214
1502.78 1001.97 3208
1510.45 1001.97 3208
1515.29 1000.1 3202
1522.94 1000.1 3202
1527.73 998.226 3196
1535.38 998.226 3196
1543.02 998.226 3196
1550.66 998.226 3196
1558.3 998.226 3196
1565.95 998.226 3196
1564.73 992.604 3178
1572.33 992.604 3178
1573.96 988.856 3166
1557.55 973.864 3118
1556.48 968.555 3101
1552.29 961.371 3078
1559.65 961.371 3078
1549.7 950.751 3044
1562.61 954.187 3055
1581.73 961.371 3078
1604.07 970.429 3107
1611.5 970.429 3107
1621.53 971.99 3112
1628.97 971.99 3112
1636.41 971.99 3112
1643.86 971.99 3112
1603.54 943.88 3022
1576.66 923.89 2958
1572.49 917.331 2937
1596.18 927.014 2968
1603.28 927.014 2968
1622.31 933.885 2990
1656.17 949.19 3039
1672.19 954.187 3055
1679.5 954.187 3055
1702.81 963.245 3084
1742.35 981.36 3142
1749.86 981.36 3142
1757.38 981.36 3142
1754.78 975.738 3124
1749.28 968.555 3101
1756.69 968.555 3101
1751.02 961.371 3078
1758.38 961.371 3078
1699.77 925.452 2963
1706.86 925.452 2963
1778.86 952.625 3050
1786.15 952.625 3050
1793.44 952.625 3050
1800.74 952.625 3050
1791.43 943.88 3022
1779.61 933.885 2990
1805.88 943.88 3022
1813.11 943.88 3022
1823.95 945.754 3028
1889.25 975.738 3124
1896.72 975.738 3124
1904.19 975.738 3124
1869.44 954.187 3055
1880.43 956.061 3061
1894.53 959.497 3072
1901.88 959.497 3072
1909.22 959.497 3072
1916.57 959.497 3072
1923.92 959.497 3072
1931.26 959.497 3072
1931.67 956.061 3061
1925.05 949.19 3039
1925.32 945.754 3028
1932.56 945.754 3028
1939.81 945.754 3028
1947.05 945.754 3028
1922.66 930.449 2979
1929.79 930.449 2979
1929.76 927.014 2968
1936.85 927.014 2968
1943.95 927.014 2968
1951.05 927.014 2968
1940.99 918.893 2942
1948.03 918.893 2942
1951.74 917.331 2937
1958.76 917.331 2937
1965.79 917.331 2937
1969.45 915.77 2932
1976.46 915.77 2932
1959.12 904.526 2896
1997.28 918.893 2942
2004.31 918.893 2942
2036.64 930.449 2979
2051.31 933.885 2990
2058.46 933.885 2990
2065.61 933.885 2990
2072.76 933.885 2990
2094.52 940.444 3011
2148.49 961.371 3078
2155.85 961.371 3078
2163.21 961.371 3078
2170.57 961.371 3078
2177.93 961.371 3078
2185.29 961.371 3078
2242.51 983.234 3148
2250.04 983.234 3148
2257.57 983.234 3148
2256.46 979.486 3136
2263.96 979.486 3136
2267.12 977.612 3130
2274.6 977.612 3130
2282.09 977.612 3130
2280.79 973.864 3118
2288.25 973.864 3118
2308.96 979.486 3136
2343.05 990.73 3172
2350.63 990.73 3172
2362.68 992.604 3178
2370.28 992.604 3178
2377.88 992.604 3178
2385.48 992.604 3178
2379.52 986.982 3160
2368.95 979.486 3136
2376.45 979.486 3136
-1342.26 944.195 3000
-1335.09 944.195 3000
-1327.91 944.195 3000
-1318.54 942.621 2995
-1323.2 951.119 3022
-1320.76 954.581 3033
-1313.51 954.581 3033
-1308.84 956.47 3039
-1303.71 958.043 3044
-1296.44 958.043 3044
-1289.16 958.043 3044
-1277.24 954.581 3033
-1265.39 951.119 3022
-1258.16 951.119 3022
-1250.93 951.119 3022
-1243.71 951.119 3022
-1238.93 953.008 3028
-1231.69 953.008 3028
-1224.45 953.008 3028
-1212.79 949.545 3017
-1205.58 949.545 3017
-1209.09 958.043 3044
-1201.81 958.043 3044
-1223.57 981.333 3118
-1234.83 996.44 3166
-1229.59 998.329 3172
-1222 998.329 3172
-1214.42 998.329 3172
-1204.55 996.44 3166
-1196.98 996.44 3166
-1187.15 994.552 3160
-1179.6 994.552 3160
-1176.49 998.329 3172
-1175.54 1003.99 3190
-1167.91 1003.99 3190
-1164.65 1007.77 3202
-1156.99 1007.77 3202
-1151.49 1009.66 3208
-1143.82 1009.66 3208
-1140.75 1013.75 3221
-1133.05 1013.75 3221
-1125.34 1013.75 3221
-1106.88 1003.99 3190
-1097.19 1002.11 3184
-1085.47 998.329 3172
-1077.88 998.329 3172
-1068.27 996.44 3166
-1054.67 990.775 3148
-1045.15 988.887 3142
-1037.63 988.887 3142
-1024.22 983.222 3124
-1016.75 983.222 3124
-1013.16 986.999 3136
-1009.5 990.775 3148
-1011.53 1000.22 3178
-1003.93 1000.22 3178
-996.326 1000.22 3178
-988.727 1000.22 3178
-981.127 1000.22 3178
-969.852 996.44 3166
-951.339 985.11 3130
-942.045 983.222 3124
-934.574 983.222 3124
-925.323 981.333 3118
-917.867 981.333 3118
-908.659 979.445 3112
-901.218 979.445 3112
-893.776 979.445 3112
-888.043 981.333 3118
-880.587 981.333 3118
-873.131 981.333 3118
-865.675 981.333 3118
-853.539 975.983 3101
-844.487 974.095 3095
-837.086 974.095 3095
-825.128 968.744 3078
-817.767 968.744 3078
-808.827 966.856 3072
-801.481 966.856 3072
-791.291 963.394 3061
-778.337 956.47 3039
-768.279 953.008 3028
-761.038 953.008 3028
-753.797 953.008 3028
-743.844 949.545 3017
-732.479 944.195 3000
-726.755 946.083 3006
-719.567 946.083 3006
-712.379 946.083 3006
-705.191 946.083 3006
-698.002 946.083 3006
-690.814 946.083 3006
-677.486 937.586 2979
-660.911 924.367 2937
-653.887 924.367 2937
-649.067 927.514 2947
-642.019 927.514 2947
-636.265 929.403 2953
-630.269 930.976 2958
-628.673 939.159 2984
-621.537 939.159 2984
-614.402 939.159 2984
-607.266 939.159 2984
-605.561 947.657 3011
-598.36 947.657 3011
-591.16 947.657 3011
-587.257 953.008 3028
-582.123 956.47 3039
-574.856 956.47 3039
-567.589 956.47 3039
-560.322 956.47 3039
-553.055 956.47 3039
-545.787 956.47 3039
-542.419 963.394 3061
-539.994 972.206 3089
-536.573 979.445 3112
-529.131 979.445 3112
-522.695 981.333 3118
-517.222 985.11 3130
-514.623 994.552 3160
-507.066 994.552 3160
-502.355 1000.22 3178
-494.755 1000.22 3178
-487.156 1000.22 3178
-479.556 1000.22 3178
-468.393 992.664 3154
-459.974 990.775 3148
-453.308 992.664 3154
-447.462 996.44 3166
-439.891 996.44 3166
-432.32 996.44 3166
-427.969 1003.99 3190
-420.341 1003.99 3190
-412.713 1003.99 3190
-405.084 1003.99 3190
-397.456 1003.99 3190
-389.828 1003.99 3190
-380.762 1000.22 3178
-374.571 1003.99 3190
-366.943 1003.99 3190
-359.315 1003.99 3190
-351.687 1003.99 3190
-341.47 996.44 3166
-332.001 990.775 3148
-324.473 990.775 3148
-315.133 985.11 3130
-307.648 985.11 3130
-299.588 983.222 3124
-292.117 983.222 3124
-282.005 974.095 3095
-273.095 968.744 3078
-265.217 966.856 3072
-257.871 966.856 3072
-250.525 966.856 3072
-243.178 966.856 3072
-233.683 958.043 3044
-223.949 947.657 3011
-217.181 949.545 3017
-209.966 949.545 3017
-205.306 961.505 3055
-204.805 994.552 3160
-197.249 994.552 3160
-189.692 994.552 3160
-182.828 998.329 3172
-176.237 1003.99 3190
-169.243 1007.77 3202
-161.586 1007.77 3202
-154.217 1009.66 3208
-147.14 1013.75 3221
-139.437 1013.75 3221
-131.735 1013.75 3221
-124.264 1015.64 3227
-116.547 1015.64 3227
-108.83 1015.64 3227
-27.0056 696.501 2213
-21.7137 696.501 2213
-16.4217 696.501 2213
-11.0845 693.669 2204
-5.79825 691.78 2198
-0.538709 687.374 2184
4.6839 687.374 2184
9.8929 686.43 2181
15.0252 682.653 2169
20.1933 682.024 2167
25.3753 682.024 2167
30.5149 681.079 2164
35.6402 680.135 2161
40.6567 677.617 2153
45.6776 675.729 2147
50.8117 675.729 2147
55.9458 675.729 2147
61.08 675.729 2147
66.1216 674.785 2144
71.2485 674.785 2144
76.3755 674.785 2144
81.5024 674.785 2144
86.7506 675.729 2147
92.1415 677.617 2153
97.29 677.617 2153
102.676 679.191 2158
108.287 682.024 2167
113.73 683.597 2172
118.924 683.597 2172
124.29 684.541 2175
129.848 686.43 2181
135.249 687.374 2184
140.472 687.374 2184
145.828 688.003 2186
152.092 692.724 2201
157.784 694.613 2207
163.061 694.613 2207
168.949 697.131 2215
174.954 699.963 2224
181.731 705.628 2242
187.093 705.628 2242
192.969 707.517 2248
198.874 709.405 2254
205.714 714.441 2270
211.142 714.441 2270
216.857 715.385 2273
222.879 717.273 2279
228.629 718.218 2282
234.086 718.218 2282
239.543 718.218 2282
410.623 966.856 3072
421.915 975.983 3101
429.33 975.983 3101
436.746 975.983 3101
443.302 974.095 3095
450.703 974.095 3095
458.104 974.095 3095
466.407 975.983 3101
473.823 975.983 3101
481.238 975.983 3101
487.708 974.095 3095
495.109 974.095 3095
504.459 977.871 3107
511.888 977.871 3107
519.318 977.871 3107
531.664 986.999 3136
542.258 992.664 3154
551.892 996.44 3166
559.463 996.44 3166
567.034 996.44 3166
574.605 996.44 3166
582.176 996.44 3166
624.73 1003.99 3190
632.358 1003.99 3190
639.987 1003.99 3190
647.615 1003.99 3190
655.243 1003.99 3190
661.625 1002.11 3184
669.239 1002.11 3184
676.853 1002.11 3184
684.466 1002.11 3184
690.776 1000.22 3178
697.057 998.329 3172
699.311 990.775 3148
706.839 990.775 3148
711.643 986.999 3136
713.639 979.445 3112
721.081 979.445 3112
728.522 979.445 3112
733.363 975.983 3101
732.656 965.282 3067
742.644 968.744 3078
755.609 975.983 3101
763.024 975.983 3101
770.44 975.983 3101
777.855 975.983 3101
783.751 974.095 3095
791.152 974.095 3095
797.005 972.206 3089
804.392 972.206 3089
811.779 972.206 3089
819.166 972.206 3089
897.656 1002.11 3184
905.27 1002.11 3184
912.884 1002.11 3184
922.232 1003.99 3190
929.86 1003.99 3190
937.489 1003.99 3190
945.117 1003.99 3190
952.745 1003.99 3190
960.374 1003.99 3190
968.002 1003.99 3190
975.63 1003.99 3190
981.409 1002.11 3184
987.159 1000.22 3178
985.368 990.775 3148
994.788 992.664 3154
1002.33 992.664 3154
1009.87 992.664 3154
1015.48 990.775 3148
1023.01 990.775 3148
1028.57 988.887 3142
1028.17 981.333 3118
1027.99 974.095 3095
1035.39 974.095 3095
1040.77 972.206 3089
1048.15 972.206 3089
1049.73 966.856 3072
1057.08 966.856 3072
1064.42 966.856 3072
1070.03 965.282 3067
1071.39 959.932 3050
1057.46 941.048 2990
1064.61 941.048 2990
1071.76 941.048 2990
1074.94 937.586 2979
1078.07 934.124 2968
1085.17 934.124 2968
1090.43 932.55 2963
1093.81 929.403 2953
1110.56 937.586 2979
1121.81 941.048 2990
1128.96 941.048 2990
1138.01 942.621 2995
1162 956.47 3039
1177.73 963.394 3061
1185.05 963.394 3061
1192.37 963.394 3061
1188.71 954.581 3033
1195.97 954.581 3033
1177.43 934.124 2968
1256.37 990.775 3148
1263.9 990.775 3148
1278.7 996.44 3166
1286.27 996.44 3166
1293.84 996.44 3166
1311.27 1003.99 3190
1321.38 1005.88 3196
1334.02 1009.66 3208
1341.69 1009.66 3208
1351.88 1011.55 3214
1362.53 1013.75 3221
1370.23 1013.75 3221
1377.93 1013.75 3221
1382.62 1011.55 3214
1390.31 1011.55 3214
1398 1011.55 3214
1403.06 1009.66 3208
1413.37 1011.55 3214
1424.15 1013.75 3221
1431.85 1013.75 3221
1439.55 1013.75 3221
1449.95 1015.64 3227
1457.67 1015.64 3227
1465.38 1015.64 3227
1473.1 1015.64 3227
1478.06 1013.75 3221
1482.54 1011.55 3214
1490.22 1011.55 3214
1495.11 1009.66 3208
1497.16 1005.88 3196
1499.15 1002.11 3184
1503.93 1000.22 3178
1511.53 1000.22 3178
1519.13 1000.22 3178
1529.61 1002.11 3184
1543.02 1005.88 3196
1550.66 1005.88 3196
1558.3 1005.88 3196
1557.13 1000.22 3178
1561.77 998.329 3172
1569.36 998.329 3172
1567.99 992.664 3154
1552.06 977.871 3107
1550.45 972.206 3089
1529.6 954.581 3033
1536.85 954.581 3033
1538.5 951.119 3022
1545.73 951.119 3022
1561.69 956.47 3039
1592.19 970.633 3084
1599.57 970.633 3084
1621.53 979.445 3112
1628.97 979.445 3112
1636.41 979.445 3112
1643.86 979.445 3112
1603.54 951.119 3022
1576.66 930.976 2958
1589.08 934.124 2968
1596.18 934.124 2968
1603.28 934.124 2968
1648.9 956.47 3039
1658.89 958.043 3044
1681.5 966.856 3072
1688.84 966.856 3072
1734.84 988.887 3142
1749.01 992.664 3154
1756.55 992.664 3154
1764.09 992.664 3154
1771.63 992.664 3154
1769.02 986.999 3136
1776.52 986.999 3136
1777.19 983.222 3124
1771.52 975.983 3101
1778.86 959.932 3050
1786.15 959.932 3050
1793.44 959.932 3050
1797.19 958.043 3044
1772.46 941.048 2990
1779.61 941.048 2990
1805.88 951.119 3022
1813.11 951.119 3022
1823.95 953.008 3028
1831.19 953.008 3028
1838.43 953.008 3028
1845.67 953.008 3028
1869.44 961.505 3055
1876.74 961.505 3055
1887.75 963.394 3061
1895.07 963.394 3061
1906.12 965.282 3067
1916.57 966.856 3072
1923.92 966.856 3072
1931.26 966.856 3072
1931.67 963.394 3061
1932.02 959.932 3050
1942.49 961.505 3055
1949.8 961.505 3055
1957.1 961.505 3055
1950.26 954.581 3033
1932.99 942.621 2995
1940.15 942.621 2995
1947.31 942.621 2995
1936.85 934.124 2968
1943.95 934.124 2968
1954.99 936.012 2974
1962.11 936.012 2974
1969.22 936.012 2974
1951.74 924.367 2937
1958.76 924.367 2937
1965.79 924.367 2937
1966.09 921.22 2927
1942.08 906.742 2881
1955.74 909.889 2891
1962.65 909.889 2891
1969.57 909.889 2891
2029.36 930.976 2958
2036.43 930.976 2958
2043.5 930.976 2958
2050.58 930.976 2958
2057.65 930.976 2958
2087.06 941.048 2990
2094.21 941.048 2990
2128.07 953.008 3028
2138.83 954.581 3033
2146.09 954.581 3033
2153.34 954.581 3033
2160.59 954.581 3033
2200.01 968.744 3078
2219.56 974.095 3095
2226.96 974.095 3095
2234.36 974.095 3095
2246.11 975.983 3101
2253.53 975.983 3101
2268.96 979.445 3112
2276.4 979.445 3112
2283.85 979.445 3112
2308.96 986.999 3136
2316.46 986.999 3136
2323.96 986.999 3136
2362.68 1000.22 3178
2370.28 1000.22 3178
2377.88 1000.22 3178
2385.48 1000.22 3178
2379.52 994.552 3160
2368.95 986.999 3136
2376.45 986.999 3136
-1342.26 951.382 3000
-1335.09 951.382 3000
-1327.91 951.382 3000
-1318.54 949.796 2995
-1323.2 958.358 3022
-1320.76 961.847 3033
-1313.51 961.847 3033
-1308.84 963.75 3039
-1301.57 963.75 3039
-1294.31 963.75 3039
-1287.04 963.75 3039
-1275.14 960.261 3028
-1265.39 958.358 3022
-1258.16 958.358 3022
-1246.38 954.87 3011
-1230.54 948.21 2990
-1220.93 946.308 2984
-1213.8 946.308 2984
-1206.66 946.308 2984
-1205.96 951.382 3000
-1198.78 951.382 3000
-1202.73 960.261 3028
-1195.49 960.261 3028
-1219.25 985.314 3107
-1216.11 988.803 3118
-1227.26 1004.02 3166
-1219.69 1004.02 3166
-1212.12 1004.02 3166
-1202.27 1002.12 3160
-1194.71 1002.12 3160
-1184.9 1000.22 3154
-1175.12 998.316 3148
-1167.59 998.316 3148
-1168.91 1005.93 3172
-1161.32 1005.93 3172
-1153.73 1005.93 3172
-1156.99 1015.44 3202
-1149.33 1015.44 3202
-1141.68 1015.44 3202
-1129.77 1011.64 3190
-1122.14 1011.64 3190
-1114.51 1011.64 3190
-1102.72 1007.83 3178
-1090.99 1004.02 3166
-1083.41 1004.02 3166
-1075.84 1004.02 3166
-1062.2 998.316 3148
-1050.65 994.511 3136
-1041.16 992.608 3130
-1027.73 986.9 3112
-1020.29 986.9 3112
-1012.84 986.9 3112
-1009.28 990.705 3124
-1009.5 998.316 3148
-1011.53 1007.83 3178
-1003.93 1007.83 3178
-996.326 1007.83 3178
-988.727 1007.83 3178
-981.127 1007.83 3178
-969.852 1004.02 3166
-951.339 992.608 3130
-942.045 990.705 3124
-934.574 990.705 3124
-925.323 988.803 3118
-917.867 988.803 3118
-908.659 986.9 3112
-901.218 986.9 3112
-893.776 986.9 3112
-888.043 988.803 3118
-880.587 988.803 3118
-873.131 988.803 3118
-865.675 988.803 3118
-853.539 983.411 3101
-844.487 981.509 3095
-837.086 981.509 3095
-825.128 976.117 3078
-817.767 976.117 3078
-808.827 974.215 3072
-801.481 974.215 3072
-791.291 970.726 3061
-775.52 960.261 3028
-766.756 958.358 3022
-758.273 956.773 3017
-751.059 956.773 3017
-741.132 953.284 3006
-730.037 948.21 2990
-726.755 953.284 3006
-719.567 953.284 3006
-712.379 953.284 3006
-705.191 953.284 3006
-691.733 944.722 2979
-684.609 944.722 2979
-667.934 931.403 2937
-658.66 928.231 2927
-651.661 928.231 2927
-644.662 928.231 2927
-637.662 928.231 2927
-632.818 931.403 2937
-626.86 932.988 2942
-620.878 934.574 2947
-613.831 934.574 2947
-610.078 939.648 2963
-605.231 943.136 2974
-598.119 943.136 2974
-591.008 943.136 2974
-585.859 946.308 2984
-583.96 954.87 3011
-576.76 954.87 3011
-569.56 954.87 3011
-562.359 954.87 3011
-555.159 954.87 3011
-547.959 954.87 3011
-540.759 954.87 3011
-535.508 958.358 3022
-535.099 970.726 3061
-532.607 979.606 3089
-525.22 979.606 3089
-521.689 986.9 3112
-516.23 990.705 3124
-510.714 994.511 3136
-503.215 994.511 3136
-499.51 1002.12 3160
-491.953 1002.12 3160
-484.397 1002.12 3160
-474.124 996.414 3142
-466.61 996.414 3142
-459.974 998.316 3148
-452.446 998.316 3148
-446.614 1002.12 3160
-439.057 1002.12 3160
-432.32 1004.02 3166
-424.749 1004.02 3166
-417.969 1005.93 3172
-410.384 1005.93 3172
-402.799 1005.93 3172
-395.214 1005.93 3172
-387.628 1005.93 3172
-378.605 1002.12 3160
-371.753 1004.02 3166
-364.182 1004.02 3166
-356.612 1004.02 3166
-349.041 1004.02 3166
-339.528 998.316 3148
-329.47 990.705 3124
-321.999 990.705 3124
-312.213 983.411 3101
-304.798 983.411 3101
-297.382 983.411 3101
-289.967 983.411 3101
-282.005 981.509 3095
-273.095 976.117 3078
-265.217 974.215 3072
-257.871 974.215 3072
-250.525 974.215 3072
-241.437 967.238 3050
-233.683 965.335 3044
-223.949 954.87 3011
-217.181 956.773 3017
-209.966 956.773 3017
-205.306 968.824 3055
-200.593 981.509 3095
-194.253 986.9 3112
-186.811 986.9 3112
-181.098 996.414 3142
-176.237 1011.64 3190
-168.609 1011.64 3190
-160.98 1011.64 3190
-154.217 1017.34 3208
-146.546 1017.34 3208
-138.875 1017.34 3208
-27.0056 701.802 2213
-21.7137 701.802 2213
-16.4217 701.802 2213
-11.0845 698.948 2204
-5.79825 697.046 2198
-0.538709 692.606 2184
4.6839 692.606 2184
9.8929 691.654 2181
15.1083 691.654 2181
20.2119 687.849 2169
25.3987 687.849 2169
30.5854 687.849 2169
35.6897 686.263 2164
40.6567 682.775 2153
45.7414 681.823 2150
50.8827 681.823 2150
56.024 681.823 2150
61.08 680.872 2147
66.2141 680.872 2147
71.3482 680.872 2147
76.4823 680.872 2147
81.7305 681.823 2150
86.993 682.775 2153
92.2271 683.409 2155
97.3803 683.409 2155
102.819 685.312 2161
108.386 687.849 2169
113.887 689.752 2175
119.088 689.752 2175
124.632 691.654 2181
130.026 692.606 2184
135.249 692.606 2184
140.472 692.606 2184
146.028 694.191 2189
152.299 698.948 2204
158.213 701.802 2213
163.505 701.802 2213
169.178 703.388 2218
174.954 705.291 2224
181.731 710.999 2242
187.093 710.999 2242
193.226 713.853 2251
