ply
format ascii 1.0
comment File generated
element vertex 2247
property float x
property float y
property float z
end_header
-2195.27 669.341 3476
-2168.71 663.757 3447
-2151.69 661.061 3433
-2143.49 661.061 3433
-2143.98 663.757 3447
-2135.74 663.757 3447
-2131.82 665.105 3454
-2127.86 666.453 3461
-2119.59 666.453 3461
-2111.31 666.453 3461
-2098.78 665.105 3454
-2086.28 663.757 3447
-2078.04 663.757 3447
-2057.19 659.713 3426
-2061.56 663.757 3447
-2057.48 665.105 3454
-2049.22 665.105 3454
-2040.96 665.105 3454
-2028.58 663.757 3447
-2012.14 661.061 3433
-2012.1 663.757 3447
-2003.86 663.757 3447
-2003.72 666.453 3461
-2004.09 669.341 3476
-1995.78 669.341 3476
-1987.47 669.341 3476
-1979.15 669.341 3476
-1970.84 669.341 3476
-1962.53 669.341 3476
-1954.22 669.341 3476
-1945.91 669.341 3476
-1937.59 669.341 3476
-1933.17 670.689 3483
-1924.84 670.689 3483
-1920.36 672.037 3490
-1915.85 673.385 3497
-1907.49 673.385 3497
-1899.12 673.385 3497
-1883.19 670.689 3483
-1874.86 670.689 3483
-1866.53 670.689 3483
-1858.21 670.689 3483
-1853.59 672.037 3490
-1845.25 672.037 3490
-1836.9 672.037 3490
-1828.56 672.037 3490
-1823.86 673.385 3497
-1823.29 676.273 3512
-1819.02 677.814 3520
-1810.61 677.814 3520
-1809.36 680.51 3534
-1800.91 680.51 3534
-1796.51 682.05 3542
-1788.04 682.05 3542
-1783.09 683.398 3549
-1778.6 684.939 3557
-1770.1 684.939 3557
-1761.59 684.939 3557
-1753.09 684.939 3557
-1751.94 687.827 3572
-1747.3 689.367 3580
-1738.74 689.367 3580
-1737.43 692.256 3595
-1740.37 696.877 3619
-1742.72 701.306 3642
-1734.01 701.306 3642
-1729.1 702.847 3650
-1728.38 706.12 3667
-1727.11 709.201 3683
-1718.31 709.201 3683
-1724.82 715.556 3716
-1731.17 721.91 3749
-1722.2 721.91 3749
-1713.24 721.91 3749
-1715.64 726.724 3774
-1714.75 730.19 3792
-1705.69 730.19 3792
-1696.62 730.19 3792
-1687.55 730.19 3792
-1670.51 726.724 3774
-1661.49 726.724 3774
-1652.47 726.724 3774
-1628.63 720.177 3740
-1605.4 713.823 3707
-1586.2 709.201 3683
-1577.39 709.201 3683
-1561.77 706.12 3667
-1532.67 696.877 3619
-1513.91 692.256 3595
-1505.32 692.256 3595
-1480.9 684.939 3557
-1469.08 683.398 3549
-1448.66 677.814 3520
-1440.24 677.814 3520
-1431.82 677.814 3520
-1414.11 673.385 3497
-1405.74 673.385 3497
-1397.38 673.385 3497
-1383.46 670.689 3483
-1375.13 670.689 3483
-1369.55 672.037 3490
-1363.93 673.385 3497
-1355.57 673.385 3497
-1352.99 676.273 3512
-1353.01 680.51 3534
-1350.27 683.398 3549
-1341.78 683.398 3549
-1336.3 684.939 3557
-1336.38 689.367 3580
-1330.78 690.908 3588
-1322.2 690.908 3588
-1319.12 693.796 3603
-1310.5 693.796 3603
-1304.78 695.337 3611
-1296.14 695.337 3611
-1290.36 696.877 3619
-1281.7 696.877 3619
-1275.86 698.418 3627
-1267.19 698.418 3627
-1258.52 698.418 3627
-1249.84 698.418 3627
-1241.17 698.418 3627
-1232.5 698.418 3627
-1223.82 698.418 3627
-1215.15 698.418 3627
-1206.48 698.418 3627
-1202.76 701.306 3642
-1194.05 701.306 3642
-1187.94 702.847 3650
-1187.29 707.661 3675
-1186.2 712.282 3699
-1177.35 712.282 3699
-1178.93 718.637 3732
-1177.85 723.451 3757
-1174.15 726.724 3774
-1165.13 726.724 3774
-1156.1 726.724 3774
-1149.81 728.457 3783
-1159.16 740.203 3844
-1149.97 740.203 3844
-1151.46 747.136 3880
-1144.83 748.869 3889
-1135.53 748.869 3889
-1126.23 748.869 3889
-1114.35 747.136 3880
-1102.51 745.403 3871
-1093.25 745.403 3871
-1083.99 745.403 3871
-1074.74 745.403 3871
-1063 743.67 3862
-1053.77 743.67 3862
-1042.1 741.937 3853
-1030.47 740.203 3844
-1016.5 736.737 3826
-1007.35 736.737 3826
-991.415 731.731 3800
-980.26 730.19 3792
-968.887 728.457 3783
-968.721 735.197 3818
-959.591 735.197 3818
-950.461 735.197 3818
-941.331 735.197 3818
-932.201 735.197 3818
-920.895 733.464 3809
-909.633 731.731 3800
-900.546 731.731 3800
-891.459 731.731 3800
-882.372 731.731 3800
-873.285 731.731 3800
-864.198 731.731 3800
-855.111 731.731 3800
-846.024 731.731 3800
-836.937 731.731 3800
-827.85 731.731 3800
-809.498 723.451 3757
-800.514 723.451 3757
-789.844 721.91 3749
-779.005 720.177 3740
-770.061 720.177 3740
-761.118 720.177 3740
-752.174 720.177 3740
-741.641 718.637 3732
-726.238 712.282 3699
-717.392 712.282 3699
-708.547 712.282 3699
-691.946 704.387 3658
-678.903 699.958 3635
-671.501 701.306 3642
-662.792 701.306 3642
-654.083 701.306 3642
-645.374 701.306 3642
-636.665 701.306 3642
-626.748 699.958 3635
-613.975 695.337 3611
-603.999 693.796 3603
-595.383 693.796 3603
-586.768 693.796 3603
-578.152 693.796 3603
-569.536 693.796 3603
-562.165 695.337 3611
-553.53 695.337 3611
-544.895 695.337 3611
-535.072 693.796 3603
-526.456 693.796 3603
-517.841 693.796 3603
-509.225 693.796 3603
-502.832 696.877 3619
-494.178 696.877 3619
-485.524 696.877 3619
-476.87 696.877 3619
-467.18 695.337 3611
-457.53 693.796 3603
-448.914 693.796 3603
-439.32 692.256 3595
-429.885 690.908 3588
-422.127 692.256 3595
-413.53 692.256 3595
-404.933 692.256 3595
-397.219 693.796 3603
-389.465 695.337 3611
-380.831 695.337 3611
-372.195 695.337 3611
-363.561 695.337 3611
-355.712 696.877 3619
-347.058 696.877 3619
-338.404 696.877 3619
-330.478 698.418 3627
-321.805 698.418 3627
-315.118 702.847 3650
-307.816 706.12 3667
-299.047 706.12 3667
-290.278 706.12 3667
-281.51 706.12 3667
-272.741 706.12 3667
-262.748 702.847 3650
-254.02 702.847 3650
-245.291 702.847 3650
-236.563 702.847 3650
-227.336 701.306 3642
-217.726 698.418 3627
-209.053 698.418 3627
-200.38 698.418 3627
-190.438 693.796 3603
-181.065 690.908 3588
-171.716 687.827 3572
-163.174 687.827 3572
-153.983 684.939 3557
-144.864 682.05 3542
-136.086 680.51 3534
-127.635 680.51 3534
-118.948 679.162 3527
-110.294 677.814 3520
-100.806 670.689 3483
-92.4771 670.689 3483
-83.9791 669.341 3476
-74.4261 658.365 3419
-66.3859 659.713 3426
-59.0426 669.341 3476
-50.7304 669.341 3476
-42.4182 669.341 3476
-21.0661 413.428 2147
-15.932 413.428 2147
-10.7828 412.85 2144
-5.6558 412.85 2144
-0.528842 412.85 2144
4.59811 412.85 2144
9.72507 412.85 2144
14.852 412.85 2144
19.979 412.85 2144
25.0825 412.465 2142
30.2047 412.465 2142
35.3269 412.465 2142
40.3924 411.887 2139
45.4435 411.31 2136
50.5514 411.31 2136
55.6592 411.31 2136
60.8524 411.887 2139
66.0599 412.465 2142
71.2485 412.85 2144
76.3755 412.85 2144
81.8445 414.583 2153
87.0738 414.968 2155
92.6123 416.701 2164
97.787 416.701 2164
103.105 417.279 2167
108.836 419.397 2178
114.359 420.553 2184
119.581 420.553 2184
125.604 423.249 2198
131.217 424.404 2204
137.726 428.255 2224
143.044 428.255 2224
149.163 430.566 2236
154.717 431.143 2239
160.501 432.299 2245
165.869 432.299 2245
171.237 432.299 2245
177.314 434.032 2254
182.704 434.032 2254
188.094 434.032 2254
193.741 434.61 2257
199.139 434.61 2257
204.536 434.61 2257
209.933 434.61 2257
215.998 435.957 2264
221.412 435.957 2264
226.826 435.957 2264
232.24 435.957 2264
237.339 435.38 2261
241.994 434.032 2254
246.725 432.877 2248
252.101 432.877 2248
255.415 429.41 2230
260.046 428.255 2224
926.321 704.387 3658
935.068 704.387 3658
943.815 704.387 3658
942.407 696.877 3619
951.061 696.877 3619
955.472 693.796 3603
960.074 690.908 3588
966.495 689.367 3580
975.056 689.367 3580
975.099 683.398 3549
979.429 680.51 3534
981.73 676.273 3512
990.128 676.273 3512
992.271 672.037 3490
998.61 670.689 3483
1002.6 667.801 3468
1010.9 667.801 3468
1019.19 667.801 3468
1027.48 667.801 3468
1035.77 667.801 3468
1041.96 666.453 3461
1050.24 666.453 3461
1058.51 666.453 3461
1058.16 661.061 3433
1064.19 659.713 3426
1072.39 659.713 3426
1080.58 659.713 3426
1091 661.061 3433
1099.21 661.061 3433
1114.19 665.105 3454
1122.45 665.105 3454
1133 666.453 3461
1143.58 667.801 3468
1154.53 669.341 3476
1165.19 670.689 3483
1173.52 670.689 3483
1186.6 673.385 3497
1194.96 673.385 3497
1203.32 673.385 3497
1211.68 673.385 3497
1228.07 677.814 3520
1236.49 677.814 3520
1244.91 677.814 3520
1253.32 677.814 3520
1264.25 679.162 3527
1280.62 683.398 3549
1289.11 683.398 3549
1297.59 683.398 3549
1309.03 684.939 3557
1320.49 686.479 3565
1331.63 687.827 3572
1340.17 687.827 3572
1354.75 690.908 3588
1365.99 692.256 3595
1374.59 692.256 3595
1383.19 692.256 3595
1389.07 690.908 3588
1385.58 684.939 3557
1394.08 684.939 3557
1393.52 680.51 3534
1396.42 677.814 3520
1392.86 672.037 3490
1392.38 667.801 3468
1400.67 667.801 3468
1389.05 658.365 3419
1382.93 651.626 3384
1377.04 645.078 3350
1385.05 645.078 3350
1379.34 638.724 3317
1384.35 637.376 3310
1383.85 633.525 3290
1383.68 629.866 3271
1391.5 629.866 3271
1396.76 628.711 3265
1398.97 626.208 3252
1401.12 623.704 3239
1408.87 623.704 3239
1413.99 622.549 3233
1419.08 621.393 3227
1424.15 620.238 3221
1431.85 620.238 3221
1439.55 620.238 3221
1447.25 620.238 3221
1454.96 620.238 3221
1462.66 620.238 3221
1470.36 620.238 3221
1478.06 620.238 3221
1485.77 620.238 3221
1493.47 620.238 3221
1501.17 620.238 3221
1508.87 620.238 3221
1513.28 618.89 3214
1518.13 617.735 3208
1525.8 617.735 3208
1527.73 615.424 3196
1523.85 610.803 3172
1525.64 608.492 3160
1533.19 608.492 3160
1529.05 603.87 3136
1527.73 600.404 3118
1523.86 595.975 3095
1531.26 595.975 3095
1516.29 587.31 3050
1490.61 574.601 2984
1469.14 563.625 2927
1471.1 561.7 2917
1478.07 561.7 2917
1474.36 557.656 2896
1473.61 554.767 2881
1477.93 553.805 2876
1484.81 553.805 2876
1481.83 550.146 2857
1483.45 548.22 2847
1487.64 547.258 2842
1489.18 545.332 2832
1495.95 545.332 2832
1500.6 544.562 2828
1507.36 544.562 2828
1514.13 544.562 2828
1520.89 544.562 2828
1524.95 543.599 2823
1524.1 540.903 2809
1528.1 539.94 2804
1534.8 539.94 2804
1536.01 538.015 2794
1540.48 537.244 2790
1544.38 536.282 2785
1551.04 536.282 2785
1552.67 534.549 2776
1556.5 533.586 2771
1560.87 532.816 2767
1574.85 535.319 2780
1587.18 537.244 2790
1593.86 537.244 2790
1602.82 538.015 2794
1615.26 539.94 2804
1627.18 541.673 2813
1633.9 541.673 2813
1640.63 541.673 2813
1661.41 546.295 2837
1671.14 547.258 2842
1677.93 547.258 2842
1693.62 550.146 2857
1700.45 550.146 2857
1733.58 558.619 2901
1740.51 558.619 2901
1781.79 569.595 2958
1794.91 571.52 2968
1802 571.52 2968
1809.1 571.52 2968
1816.2 571.52 2968
1804.25 565.551 2937
1811.28 565.551 2937
1812.11 563.625 2927
1796.73 556.693 2891
1779.32 549.183 2852
1786.14 549.183 2852
1792.96 549.183 2852
1778.32 542.636 2818
1785.06 542.636 2818
1791.8 542.636 2818
1798.54 542.636 2818
1805.27 542.636 2818
1808.8 541.673 2813
1812.94 540.903 2809
1819.66 540.903 2809
1826.38 540.903 2809
1817.43 536.282 2785
1824.09 536.282 2785
1824.84 534.549 2776
1831.47 534.549 2776
1832.15 532.816 2767
1832.12 530.89 2757
1836.05 530.12 2753
1848.66 531.853 2762
1855.26 531.853 2762
1861.87 531.853 2762
1868.47 531.853 2762
1875.08 531.853 2762
1881.68 531.853 2762
1884.87 530.89 2757
1888.72 530.12 2753
1885.66 527.424 2739
1892.21 527.424 2739
1898.76 527.424 2739
1896.27 524.921 2726
1902.79 524.921 2726
1909.3 524.921 2726
1915.82 524.921 2726
1925.16 525.691 2730
1941.6 528.387 2744
1948.16 528.387 2744
1954.72 528.387 2744
1961.28 528.387 2744
1961.39 526.654 2735
1967.93 526.654 2735
1958.59 522.417 2713
1965.08 522.417 2713
1971.56 522.417 2713
1974.4 521.454 2708
1994.05 524.921 2726
2000.57 524.921 2726
2007.08 524.921 2726
2016.56 525.691 2730
2023.09 525.691 2730
2029.61 525.691 2730
2042.86 527.424 2739
2062.87 530.89 2757
2076.97 532.816 2767
2083.59 532.816 2767
2124.95 541.673 2813
2139.26 543.599 2823
2146.01 543.599 2823
2152.76 543.599 2823
2148.8 540.903 2809
-2295.85 619.571 3178
-2288.25 619.571 3178
-2280.65 619.571 3178
-2260.18 616.062 3160
-2252.62 616.062 3160
-2253.59 618.401 3172
-2246.01 618.401 3172
-2238.42 618.401 3172
-2230.84 618.401 3172
-2223.25 618.401 3172
-2215.66 618.401 3172
-2208.08 618.401 3172
-2204.66 619.571 3178
-2197.06 619.571 3178
-2201.86 623.08 3196
-2194.22 623.08 3196
-2190.68 624.25 3202
-2208.25 631.463 3239
-2231.07 640.236 3284
-2223.22 640.236 3284
-2215.37 640.236 3284
-2216.25 642.771 3297
-2208.37 642.771 3297
-2200.48 642.771 3297
-2219.2 650.569 3337
-2237.73 658.367 3377
-2248.14 663.826 3405
-2240 663.826 3405
-2231.85 663.826 3405
-2242 669.285 3433
-2261.77 677.668 3476
-2253.46 677.668 3476
-2245.14 677.668 3476
-2245.84 680.397 3490
-2237.49 680.397 3490
-2229.15 680.397 3490
-2220.8 680.397 3490
-2212.46 680.397 3490
-2204.11 680.397 3490
-2195.77 680.397 3490
-2187.42 680.397 3490
-2152.23 672.014 3447
-2157.05 676.108 3468
-2148.75 676.108 3468
-2145.4 677.668 3476
-2137.08 677.668 3476
-2128.77 677.668 3476
-2120.46 677.668 3476
-2107.29 676.108 3468
-2094.76 674.744 3461
-2086.48 674.744 3461
-2069.8 672.014 3447
-2061.56 672.014 3447
-2057.48 673.379 3454
-2049.22 673.379 3454
-2040.96 673.379 3454
-2028.58 672.014 3447
-2012.14 669.285 3433
-2012.1 672.014 3447
-2003.86 672.014 3447
-2003.72 674.744 3461
-2004.09 677.668 3476
-1995.78 677.668 3476
-1987.47 677.668 3476
-1979.15 677.668 3476
-1970.84 677.668 3476
-1962.53 677.668 3476
-1954.22 677.668 3476
-1945.91 677.668 3476
-1937.59 677.668 3476
-1933.17 679.033 3483
-1924.84 679.033 3483
-1920.36 680.397 3490
-1915.85 681.762 3497
-1907.49 681.762 3497
-1899.12 681.762 3497
-1883.19 679.033 3483
-1874.86 679.033 3483
-1866.53 679.033 3483
-1858.21 679.033 3483
-1853.59 680.397 3490
-1845.25 680.397 3490
-1836.9 680.397 3490
-1828.56 680.397 3490
-1823.86 681.762 3497
-1823.29 684.686 3512
-1822.64 687.611 3527
-1814.21 687.611 3527
-1809.36 688.975 3534
-1800.91 688.975 3534
-1800.06 691.9 3549
-1791.58 691.9 3549
-1783.09 691.9 3549
-1778.6 693.459 3557
-1770.1 693.459 3557
-1761.59 693.459 3557
-1757.03 695.019 3565
-1751.94 696.384 3572
-1754.62 700.868 3595
-1746.02 700.868 3595
-1737.43 700.868 3595
-1740.37 705.547 3619
-1742.72 710.031 3642
-1734.01 710.031 3642
-1729.1 711.59 3650
-1728.38 714.905 3667
-1727.11 718.024 3683
-1718.31 718.024 3683
-1724.82 724.457 3716
-1731.17 730.891 3749
-1722.2 730.891 3749
-1713.24 730.891 3749
-1715.64 735.765 3774
-1714.75 739.274 3792
-1705.69 739.274 3792
-1696.62 739.274 3792
-1687.55 739.274 3792
-1678.48 739.274 3792
-1669.41 739.274 3792
-1652.47 735.765 3774
-1632.55 730.891 3749
-1605.4 722.703 3707
-1596.54 722.703 3707
-1587.67 722.703 3707
-1565.18 716.464 3675
-1542.41 710.031 3642
-1524.02 705.547 3619
-1515.36 705.547 3619
-1493.8 699.503 3588
-1472.39 693.459 3557
-1454.42 688.975 3534
-1445.97 688.975 3534
-1437.52 688.975 3534
-1420.17 684.686 3512
-1408.96 683.322 3505
-1400.58 683.322 3505
-1392.2 683.322 3505
-1383.81 683.322 3505
-1378.18 684.686 3512
-1372.9 686.246 3520
-1364.48 686.246 3520
-1361.46 688.975 3534
-1358.75 691.9 3549
-1353.31 693.459 3557
-1344.8 693.459 3557
-1344.94 697.943 3580
-1339.36 699.503 3588
-1336.35 702.427 3603
-1327.73 702.427 3603
-1322.05 703.987 3611
-1316.32 705.547 3619
-1307.67 705.547 3619
-1299.01 705.547 3619
-1290.36 705.547 3619
-1287.37 708.666 3635
-1281.14 710.031 3642
-1272.43 710.031 3642
-1263.72 710.031 3642
-1255.01 710.031 3642
-1246.3 710.031 3642
-1237.59 710.031 3642
-1228.89 710.031 3642
-1220.18 710.031 3642
-1214.13 711.59 3650
-1208.04 713.15 3658
-1199.29 713.15 3658
-1196.08 716.464 3675
-1189.88 718.024 3683
-1186.2 721.143 3699
-1177.35 721.143 3699
-1184.3 730.891 3749
-1180.67 734.205 3766
-1176.95 737.519 3783
-1167.91 737.519 3783
-1158.86 737.519 3783
-1152.55 739.274 3792
-1159.16 749.412 3844
-1149.97 749.412 3844
-1151.46 756.43 3880
-1144.83 758.185 3889
-1135.53 758.185 3889
-1126.23 758.185 3889
-1116.93 758.185 3889
-1107.63 758.185 3889
-1098.33 758.185 3889
-1089.03 758.185 3889
-1079.73 758.185 3889
-1063 752.921 3862
-1053.77 752.921 3862
-1042.1 751.166 3853
-1032.88 751.166 3853
-1016.5 745.903 3826
-1007.35 745.903 3826
-993.763 742.588 3809
-980.26 739.274 3792
-971.192 739.274 3792
-968.721 744.343 3818
-959.591 744.343 3818
-950.461 744.343 3818
-941.331 744.343 3818
-932.201 744.343 3818
-920.895 742.588 3809
-909.633 740.834 3800
-900.546 740.834 3800
-891.459 740.834 3800
-882.372 740.834 3800
-873.285 740.834 3800
-864.198 740.834 3800
-855.111 740.834 3800
-846.024 740.834 3800
-836.937 740.834 3800
-827.85 740.834 3800
-809.498 732.451 3757
-800.514 732.451 3757
-789.844 730.891 3749
-779.005 729.136 3740
-770.061 729.136 3740
-761.118 729.136 3740
-752.174 729.136 3740
-741.641 727.577 3732
-726.238 721.143 3699
-717.392 721.143 3699
-708.547 721.143 3699
-691.946 713.15 3658
-678.903 708.666 3635
-671.501 710.031 3642
-662.792 710.031 3642
-654.083 710.031 3642
-645.374 710.031 3642
-636.665 710.031 3642
-626.748 708.666 3635
-615.336 705.547 3619
-603.999 702.427 3603
-595.383 702.427 3603
-586.768 702.427 3603
-578.152 702.427 3603
-570.8 703.987 3611
-562.165 703.987 3611
-553.53 703.987 3611
-544.895 703.987 3611
-536.26 703.987 3611
-526.456 702.427 3603
-517.841 702.427 3603
-509.225 702.427 3603
-502.832 705.547 3619
-494.178 705.547 3619
-485.524 705.547 3619
-476.87 705.547 3619
-467.18 703.987 3611
-457.53 702.427 3603
-448.914 702.427 3603
-439.32 700.868 3595
-429.885 699.503 3588
-421.305 699.503 3588
-413.53 700.868 3595
-404.933 700.868 3595
-396.337 700.868 3595
-388.603 702.427 3603
-379.987 702.427 3603
-371.371 702.427 3603
-362.755 702.427 3603
-354.139 702.427 3603
-345.523 702.427 3603
-336.907 702.427 3603
-327.563 700.868 3595
-320.386 703.987 3611
-313.132 707.106 3627
-305.13 708.666 3635
-296.438 708.666 3635
-287.745 708.666 3635
-279.053 708.666 3635
-270.361 708.666 3635
-261.668 708.666 3635
-252.976 708.666 3635
-244.283 708.666 3635
-235.591 708.666 3635
-226.399 707.106 3627
-216.285 702.427 3603
-207.669 702.427 3603
-199.054 702.427 3603
-190.015 700.868 3595
-180.258 696.384 3572
-170.995 693.459 3557
-162.489 693.459 3557
-153.637 691.9 3549
-144.536 688.975 3534
-136.086 688.975 3534
-127.635 688.975 3534
-118.712 686.246 3520
-110.294 686.246 3520
-100.806 679.033 3483
-92.4771 679.033 3483
-84.1482 679.033 3483
-74.7309 669.285 3433
-66.3859 667.92 3426
-59.0426 677.668 3476
-50.7304 677.668 3476
-42.4182 677.668 3476
-21.0367 417.986 2144
-15.9097 417.986 2144
-10.7828 417.986 2144
-5.6558 417.986 2144
-0.528842 417.986 2144
4.59811 417.986 2144
9.72507 417.986 2144
14.852 417.986 2144
19.979 417.986 2144
25.0825 417.596 2142
30.2047 417.596 2142
35.3269 417.596 2142
40.3924 417.011 2139
45.4435 416.427 2136
50.5514 416.427 2136
55.6592 416.427 2136
60.767 416.427 2136
66.0599 417.596 2142
71.182 417.596 2142
76.3042 417.596 2142
81.7305 419.156 2150
87.0738 420.131 2155
92.4839 421.3 2161
97.6515 421.3 2161
103.105 422.47 2167
108.686 424.03 2175
114.359 425.784 2184
119.581 425.784 2184
125.432 427.929 2195
131.217 429.684 2204
137.726 433.583 2224
143.044 433.583 2224
149.163 435.922 2236
154.717 436.507 2239
160.501 437.677 2245
165.869 437.677 2245
171.466 438.262 2248
177.314 439.431 2254
182.704 439.431 2254
188.094 439.431 2254
193.741 440.016 2257
199.139 440.016 2257
204.536 440.016 2257
209.933 440.016 2257
215.998 441.381 2264
221.412 441.381 2264
226.826 441.381 2264
232.24 441.381 2264
237.339 440.796 2261
242.316 440.016 2257
246.725 438.262 2248
252.101 438.262 2248
256.102 435.922 2236
260.046 433.583 2224
917.573 713.15 3658
926.321 713.15 3658
935.068 713.15 3658
943.815 713.15 3658
952.563 713.15 3658
961.31 713.15 3658
961.837 707.106 3627
964.088 702.427 3603
968.654 699.503 3588
977.234 699.503 3588
983.616 697.943 3580
983.586 691.9 3549
985.923 687.611 3527
994.357 687.611 3527
998.526 684.686 3512
1000.62 680.397 3490
1004.92 677.668 3476
1013.23 677.668 3476
1021.54 677.668 3476
1029.85 677.668 3476
1038.16 677.668 3476
1041.96 674.744 3461
1050.24 674.744 3461
1058.51 674.744 3461
1060.32 670.649 3440
1066.37 669.285 3433
1074.58 669.285 3433
1080.58 667.92 3426
1091 669.285 3433
1099.21 669.285 3433
1111.93 672.014 3447
1120.17 672.014 3447
1130.71 673.379 3454
1143.58 676.108 3468
1151.88 676.108 3468
1165.19 679.033 3483
1173.52 679.033 3483
1186.6 681.762 3497
1194.96 681.762 3497
1203.32 681.762 3497
1211.68 681.762 3497
1225.28 684.686 3512
1236.49 686.246 3520
1244.91 686.246 3520
1253.32 686.246 3520
1264.25 687.611 3527
1280.62 691.9 3549
1292.01 693.459 3557
1300.52 693.459 3557
1309.03 693.459 3557
1323.09 696.384 3572
1334.61 697.943 3580
1343.17 697.943 3580
1357.4 700.868 3595
1369.03 702.427 3603
1377.65 702.427 3603
1386.27 702.427 3603
1391.78 700.868 3595
1391.42 696.384 3572
1399.96 696.384 3572
1399.44 691.9 3549
1399.19 687.611 3527
1401.64 684.686 3512
1395.59 677.668 3476
1403.9 677.668 3476
1403.27 673.379 3454
1391.51 663.826 3405
1388.14 658.367 3377
1396.22 658.367 3377
1390.15 651.739 3343
1387.27 646.67 3317
1386.79 642.771 3297
1394.68 642.771 3297
1391.5 637.702 3271
1396.76 636.532 3265
1398.97 633.998 3252
1401.12 631.463 3239
1408.87 631.463 3239
1413.99 630.294 3233
1419.08 629.124 3227
1426.8 629.124 3227
1434.52 629.124 3227
1442.23 629.124 3227
1449.95 629.124 3227
1457.67 629.124 3227
1465.38 629.124 3227
1473.1 629.124 3227
1480.82 629.124 3227
1488.53 629.124 3227
1496.25 629.124 3227
1503.97 629.124 3227
1511.68 629.124 3227
1516.58 627.954 3221
1520.97 626.589 3214
1528.65 626.589 3214
1530.6 624.25 3202
1529.61 620.741 3184
1531.43 618.401 3172
1539.02 618.401 3172
1531.97 612.552 3142
1536.55 611.383 3136
1523.86 603.39 3095
1531.26 603.39 3095
1516.29 594.617 3050
1493.61 582.919 2990
1482.19 575.706 2953
1476.14 570.637 2927
1483.14 570.637 2927
1474.36 564.593 2896
1476.17 562.644 2886
1477.93 560.694 2876
1484.81 560.694 2876
1481.83 556.99 2857
1483.45 555.04 2847
1487.64 554.066 2842
1489.18 552.116 2832
1495.95 552.116 2832
1500.6 551.336 2828
1507.36 551.336 2828
1514.13 551.336 2828
1520.89 551.336 2828
1524.95 550.361 2823
1524.1 547.632 2809
1528.1 546.657 2804
1534.8 546.657 2804
1536.01 544.708 2794
1540.48 543.928 2790
1544.38 542.953 2785
1551.04 542.953 2785
1552.67 541.199 2776
1556.5 540.224 2771
1560.87 539.444 2767
1572.58 541.199 2776
1587.18 543.928 2790
1593.86 543.928 2790
1605.69 545.682 2799
1618.15 547.632 2809
1632.96 550.361 2823
1639.71 550.361 2823
1666.29 556.99 2857
1673.12 556.99 2857
1679.96 556.99 2857
1677.93 554.066 2842
1693.62 556.99 2857
1700.45 556.99 2857
1707.28 556.99 2857
1779.32 556.015 2852
1786.14 556.015 2852
1792.96 556.015 2852
1791.8 549.387 2818
1798.54 549.387 2818
1805.27 549.387 2818
1812.01 549.387 2818
1818.75 549.387 2818
1825.49 549.387 2818
1828.98 548.412 2813
1820.7 543.928 2790
1827.37 543.928 2790
1830.75 542.953 2785
1837.41 542.953 2785
1832.15 539.444 2767
1838.77 539.444 2767
1848.05 540.224 2771
1864.05 542.953 2785
1870.71 542.953 2785
1883.44 544.708 2794
1893.5 545.682 2799
1900.19 545.682 2799
1906.89 545.682 2799
1910.16 544.708 2794
1914.1 543.928 2790
1917.33 542.953 2785
1923.99 542.953 2785
1927.18 541.978 2780
1933.83 541.978 2780
1931.4 539.444 2767
1938.02 539.444 2767
1944.64 539.444 2767
1947.73 538.469 2762
1954.33 538.469 2762
1960.94 538.469 2762
1967.54 538.469 2762
1974.15 538.469 2762
1967.84 534.96 2744
1974.41 534.96 2744
1964.36 530.476 2721
1965.08 528.916 2713
1971.56 528.916 2713
1980.97 529.696 2717
1994.05 531.451 2726
2000.57 531.451 2726
2007.08 531.451 2726
2016.56 532.231 2730
2023.09 532.231 2730
2029.61 532.231 2730
2042.86 533.985 2739
2062.87 537.494 2757
2079.98 540.224 2771
2086.6 540.224 2771
2132.51 550.361 2823
2139.26 550.361 2823
2146.01 550.361 2823
2152.76 550.361 2823
-2313.07 623.632 3160
-2327.41 629.552 3190
-2324.14 630.736 3196
-2316.5 630.736 3196
-2317.52 633.104 3208
-2309.85 633.104 3208
-2320.12 638.038 3233
-2312.39 638.038 3233
-2304.66 638.038 3233
-2296.93 638.038 3233
-2289.2 638.038 3233
-2281.47 638.038 3233
-2273.74 638.038 3233
-2248.48 633.104 3208
-2240.81 633.104 3208
-2224.79 630.736 3196
-2229.63 634.289 3214
-2221.95 634.289 3214
-2219.08 635.67 3221
-2211.38 635.67 3221
-2220.78 640.604 3246
-2234.84 646.919 3278
-2231.07 648.103 3284
-2223.22 648.103 3284
-2215.37 648.103 3284
-2216.25 650.669 3297
-2208.37 650.669 3297
-2200.48 650.669 3297
-2219.2 658.563 3337
-2237.73 666.457 3377
-2248.14 671.983 3405
-2240 671.983 3405
-2231.85 671.983 3405
-2242 677.509 3433
-2261.77 685.995 3476
-2253.46 685.995 3476
-2245.14 685.995 3476
-2245.84 688.758 3490
-2237.49 688.758 3490
-2229.15 688.758 3490
-2220.8 688.758 3490
-2212.46 688.758 3490
-2204.11 688.758 3490
-2195.77 688.758 3490
-2187.42 688.758 3490
-2152.23 680.271 3447
-2157.05 684.416 3468
-2148.75 684.416 3468
-2145.4 685.995 3476
-2137.08 685.995 3476
-2128.77 685.995 3476
-2120.46 685.995 3476
-2107.29 684.416 3468
-2094.76 683.034 3461
-2086.48 683.034 3461
-2069.8 680.271 3447
-2061.56 680.271 3447
-2053.31 680.271 3447
-2045.07 680.271 3447
-2036.83 680.271 3447
-2020.35 677.509 3433
-2008.03 676.127 3426
-1999.84 676.127 3426
-1991.65 676.127 3426
-1987.51 677.509 3433
-1983.33 678.89 3440
-1975.11 678.89 3440
-1966.88 678.89 3440
-1958.66 678.89 3440
-1950.43 678.89 3440
-1942.2 678.89 3440
-1933.98 678.89 3440
-1925.75 678.89 3440
-1921.43 680.271 3447
-1917.07 681.653 3454
-1908.81 681.653 3454
-1908.25 684.416 3468
-1899.96 684.416 3468
-1891.67 684.416 3468
-1883.38 684.416 3468
-1875.08 684.416 3468
-1866.79 684.416 3468
-1858.5 684.416 3468
-1850.2 684.416 3468
-1849.88 687.376 3483
-1845.25 688.758 3490
-1836.9 688.758 3490
-1828.56 688.758 3490
-1823.86 690.139 3497
-1823.29 693.099 3512
-1822.64 696.06 3527
-1814.21 696.06 3527
-1809.36 697.441 3534
-1800.91 697.441 3534
-1800.06 700.401 3549
-1791.58 700.401 3549
-1783.09 700.401 3549
-1778.6 701.98 3557
-1770.1 701.98 3557
-1761.59 701.98 3557
-1757.03 703.559 3565
-1751.94 704.94 3572
-1754.62 709.48 3595
-1746.02 709.48 3595
-1737.43 709.48 3595
-1740.37 714.216 3619
-1735.55 715.795 3627
-1726.87 715.795 3627
-1725.31 718.755 3642
-1720.37 720.334 3650
-1719.61 723.689 3667
-1710.84 723.689 3667
-1716.93 730.004 3699
-1719.62 734.938 3724
-1718.07 738.096 3740
-1709.13 738.096 3740
-1704.27 739.872 3749
-1703 743.227 3766
-1705.69 748.358 3792
-1696.62 748.358 3792
-1687.55 748.358 3792
-1678.48 748.358 3792
-1669.41 748.358 3792
-1652.47 744.806 3774
-1632.55 739.872 3749
-1605.4 731.583 3707
-1596.54 731.583 3707
-1587.67 731.583 3707
-1565.18 725.268 3675
-1542.41 718.755 3642
-1524.02 714.216 3619
-1515.36 714.216 3619
-1493.8 708.098 3588
-1472.39 701.98 3557
-1454.42 697.441 3534
-1445.97 697.441 3534
-1437.52 697.441 3534
-1420.17 693.099 3512
-1408.96 691.718 3505
-1400.58 691.718 3505
-1392.2 691.718 3505
-1383.81 691.718 3505
-1378.18 693.099 3512
-1372.9 694.678 3520
-1364.48 694.678 3520
-1361.46 697.441 3534
-1358.75 700.401 3549
-1353.31 701.98 3557
-1344.8 701.98 3557
-1344.94 706.519 3580
-1339.36 708.098 3588
-1336.35 711.058 3603
-1327.73 711.058 3603
-1322.05 712.637 3611
-1316.32 714.216 3619
-1307.67 714.216 3619
-1299.01 714.216 3619
-1290.36 714.216 3619
-1287.37 717.374 3635
-1281.14 718.755 3642
-1272.43 718.755 3642
-1263.72 718.755 3642
-1255.01 718.755 3642
-1246.3 718.755 3642
-1237.59 718.755 3642
-1228.89 718.755 3642
-1220.18 718.755 3642
-1214.13 720.334 3650
-1208.04 721.913 3658
-1199.29 721.913 3658
-1196.08 725.268 3675
-1189.88 726.846 3683
-1186.2 730.004 3699
-1177.35 730.004 3699
-1184.3 739.872 3749
-1180.67 743.227 3766
-1176.95 746.582 3783
-1167.91 746.582 3783
-1158.86 746.582 3783
-1152.55 748.358 3792
-1159.16 758.62 3844
-1149.97 758.62 3844
-1151.46 765.725 3880
-1144.83 767.501 3889
-1135.53 767.501 3889
-1126.23 767.501 3889
-1116.93 767.501 3889
-1107.63 767.501 3889
-1098.33 767.501 3889
-1089.03 767.501 3889
-1079.73 767.501 3889
-1060.52 760.396 3853
-1051.31 760.396 3853
-1042.1 760.396 3853
-1032.88 760.396 3853
-1016.5 755.068 3826
-1007.35 755.068 3826
-993.763 751.713 3809
-980.26 748.358 3792
-971.192 748.358 3792
-968.721 753.489 3818
-959.591 753.489 3818
-950.461 753.489 3818
-941.331 753.489 3818
-932.201 753.489 3818
-920.895 751.713 3809
-909.633 749.937 3800
-900.546 749.937 3800
-891.459 749.937 3800
-880.514 748.358 3792
-871.446 748.358 3792
-864.198 749.937 3800
-855.111 749.937 3800
-846.024 749.937 3800
-836.937 749.937 3800
-827.85 749.937 3800
-809.498 741.451 3757
-800.514 741.451 3757
-789.844 739.872 3749
-779.005 738.096 3740
-770.061 738.096 3740
-761.118 738.096 3740
-752.174 738.096 3740
-741.641 736.517 3732
-726.238 730.004 3699
-717.392 730.004 3699
-708.547 730.004 3699
-691.946 721.913 3658
-678.903 717.374 3635
-672.976 720.334 3650
-664.248 720.334 3650
-655.52 720.334 3650
-646.791 720.334 3650
-638.063 720.334 3650
-626.748 717.374 3635
-616.696 715.795 3627
-603.999 711.058 3603
-596.705 712.637 3611
-588.07 712.637 3611
-579.435 712.637 3611
-570.8 712.637 3611
-563.411 714.216 3619
-554.757 714.216 3619
-546.103 714.216 3619
-536.26 712.637 3611
-526.456 711.058 3603
-517.841 711.058 3603
-509.225 711.058 3603
-501.72 712.637 3611
-493.085 712.637 3611
-484.45 712.637 3611
-475.815 712.637 3611
-467.18 712.637 3611
-456.514 709.48 3595
-447.917 709.48 3595
-439.32 709.48 3595
-429.885 708.098 3588
-421.305 708.098 3588
-413.53 709.48 3595
-404.933 709.48 3595
-396.337 709.48 3595
-388.603 711.058 3603
-379.987 711.058 3603
-371.371 711.058 3603
-362.755 711.058 3603
-354.139 711.058 3603
-345.523 711.058 3603
-336.907 711.058 3603
-327.563 709.48 3595
-320.386 712.637 3611
-313.132 715.795 3627
-305.13 717.374 3635
-296.438 717.374 3635
-287.745 717.374 3635
-279.053 717.374 3635
-270.361 717.374 3635
-261.668 717.374 3635
-252.976 717.374 3635
-244.283 717.374 3635
-235.591 717.374 3635
-226.399 715.795 3627
-216.285 711.058 3603
-207.669 711.058 3603
-199.054 711.058 3603
-190.015 709.48 3595
-180.258 704.94 3572
-170.995 701.98 3557
-162.489 701.98 3557
-153.637 700.401 3549
-144.536 697.441 3534
-136.086 697.441 3534
-127.635 697.441 3534
-118.712 694.678 3520
-110.294 694.678 3520
-100.806 687.376 3483
-92.4771 687.376 3483
-84.1482 687.376 3483
-74.7309 677.509 3433
-66.3859 676.127 3426
-59.0426 685.995 3476
-50.7304 685.995 3476
-42.4182 685.995 3476
-21.0367 423.122 2144
-15.9097 423.122 2144
-10.7828 423.122 2144
-5.6558 423.122 2144
-0.528842 423.122 2144
4.59811 423.122 2144
9.72507 423.122 2144
14.852 423.122 2144
19.979 423.122 2144
25.0825 422.727 2142
30.2047 422.727 2142
35.3269 422.727 2142
40.3924 422.135 2139
45.4435 421.543 2136
50.5514 421.543 2136
55.6592 421.543 2136
60.767 421.543 2136
66.0599 422.727 2142
71.182 422.727 2142
76.3042 422.727 2142
81.7305 424.306 2150
87.0738 425.293 2155
92.4839 426.477 2161
97.6515 426.477 2161
103.105 427.661 2167
108.686 429.24 2175
114.359 431.016 2184
119.581 431.016 2184
125.432 433.187 2195
131.217 434.963 2204
137.726 438.91 2224
143.044 438.91 2224
149.163 441.279 2236
154.717 441.871 2239
160.501 443.055 2245
165.869 443.055 2245
171.466 443.647 2248
177.314 444.831 2254
182.704 444.831 2254
188.094 444.831 2254
193.741 445.423 2257
199.139 445.423 2257
204.536 445.423 2257
209.933 445.423 2257
215.998 446.804 2264
221.412 446.804 2264
226.826 446.804 2264
232.24 446.804 2264
237.339 446.212 2261
242.316 445.423 2257
246.725 443.647 2248
252.101 443.647 2248
256.102 441.279 2236
260.046 438.91 2224
927.858 730.004 3699
936.703 730.004 3699
945.549 730.004 3699
948.202 725.268 3675
956.99 725.268 3675
965.778 725.268 3675
970.058 721.913 3658
970.51 715.795 3627
972.704 711.058 3603
981.32 711.058 3603
985.814 708.098 3588
985.803 701.98 3557
990.116 699.02 3542
998.586 699.02 3542
1000.8 694.678 3520
1006.92 693.099 3512
1010.99 690.139 3497
1015.27 687.376 3483
1023.6 687.376 3483
1031.93 687.376 3483
1040.25 687.376 3483
1046.48 685.995 3476
1054.79 685.995 3476
1060.65 684.416 3468
1064.63 681.653 3454
1068.54 678.89 3440
1076.77 678.89 3440
1080.58 676.127 3426
1091 677.509 3433
1101.45 678.89 3440
1111.93 680.271 3447
1120.17 680.271 3447
1130.71 681.653 3454
1143.58 684.416 3468
1151.88 684.416 3468
1165.19 687.376 3483
1173.52 687.376 3483
1186.6 690.139 3497
1194.96 690.139 3497
1203.32 690.139 3497
1211.68 690.139 3497
1225.28 693.099 3512
1236.49 694.678 3520
1244.91 694.678 3520
1253.32 694.678 3520
1264.25 696.06 3527
1280.62 700.401 3549
1292.01 701.98 3557
1300.52 701.98 3557
1314.55 704.94 3572
1326.05 706.519 3580
1340.2 709.48 3595
1348.8 709.48 3595
1360.42 711.058 3603
1375.11 714.216 3619
1383.77 714.216 3619
1392.42 714.216 3619
1394.88 711.058 3603
1397.65 708.098 3588
1406.23 708.098 3588
1405.74 703.559 3565
1405.15 699.02 3542
1401.64 693.099 3512
1404.02 690.139 3497
1412.38 690.139 3497
1403.27 681.653 3454
1391.51 671.983 3405
1391.02 667.838 3384
1399.11 667.838 3384
1390.15 659.747 3343
1389.78 655.8 3323
1392.26 653.234 3310
1400.18 653.234 3310
1391.5 645.538 3271
1399.32 645.538 3271
1398.97 641.788 3252
1401.12 639.222 3239
1408.87 639.222 3239
1413.99 638.038 3233
1419.08 636.854 3227
1426.8 636.854 3227
1434.52 636.854 3227
1442.23 636.854 3227
1449.95 636.854 3227
1457.67 636.854 3227
1465.38 636.854 3227
1473.1 636.854 3227
1483.57 638.038 3233
1491.3 638.038 3233
1499.03 638.038 3233
1506.76 638.038 3233
1514.49 638.038 3233
1519.4 636.854 3227
1524.28 635.67 3221
1531.98 635.67 3221
1533.47 633.104 3208
1532.49 629.552 3190
1534.33 627.184 3178
1541.93 627.184 3178
1540.75 623.632 3160
1539.49 620.079 3142
1538.14 616.527 3124
1545.61 616.527 3124
1538.66 610.804 3095
1523.58 601.923 3050
1495.24 587.911 2979
1483.7 580.609 2942
1490.74 580.609 2942
1481.99 574.491 2911
1478.72 570.544 2891
1477.93 567.584 2876
1484.81 567.584 2876
1484.42 564.821 2862
1480.85 560.874 2842
1487.64 560.874 2842
1489.18 558.9 2832
1495.95 558.9 2832
1500.6 558.111 2828
1507.36 558.111 2828
1514.13 558.111 2828
1520.89 558.111 2828
1524.95 557.124 2823
1524.1 554.361 2809
1528.1 553.374 2804
1534.8 553.374 2804
1536.01 551.401 2794
1540.48 550.611 2790
1544.38 549.625 2785
1551.04 549.625 2785
1554.9 548.638 2780
1556.5 546.862 2771
1560.87 546.072 2767
1572.58 547.848 2776
1587.18 550.611 2790
1593.86 550.611 2790
1605.69 552.388 2799
1623.33 556.137 2818
1638.17 558.9 2832
1644.94 558.9 2832
1686.12 570.544 2891
1693.03 570.544 2891
1699.95 570.544 2891
1804.92 558.111 2828
1811.68 558.111 2828
1818.44 558.111 2828
1818.75 556.137 2818
1825.49 556.137 2818
1828.98 555.15 2813
1820.7 550.611 2790
1829.99 551.401 2794
1836.67 551.401 2794
1843.35 551.401 2794
1850.03 551.401 2794
1856.71 551.401 2794
1863.39 551.401 2794
1880.11 554.361 2809
1886.83 554.361 2809
1902.99 557.124 2823
1913.12 558.111 2828
1919.88 558.111 2828
1926.64 558.111 2828
1929.99 557.124 2823
1936.74 557.124 2823
1943.49 557.124 2823
1950.24 557.124 2823
1956.99 557.124 2823
1963.74 557.124 2823
1963.51 555.15 2813
1970.24 555.15 2813
1963.61 551.401 2794
1970.29 551.401 2794
1980.51 552.388 2799
1990.76 553.374 2804
1997.46 553.374 2804
2004.17 553.374 2804
2010.87 553.374 2804
2017.58 553.374 2804
1990.35 544.099 2757
1977.39 538.77 2730
1977.38 536.994 2721
1987.53 537.981 2726
2007.21 541.533 2744
2013.78 541.533 2744
2020.34 541.533 2744
2016.56 538.77 2730
2023.09 538.77 2730
2029.61 538.77 2730
2056.28 544.099 2757
2073.35 546.862 2771
2100.99 552.388 2799
2107.69 552.388 2799
2161.97 564.821 2862
2175.63 566.597 2871
2182.5 566.597 2871
2189.36 566.597 2871
-2335.03 637.194 3190
-2331.78 638.392 3196
-2328.5 639.591 3202
-2320.85 639.591 3202
-2339.92 646.981 3239
-2332.17 646.981 3239
-2347.39 653.373 3271
-2339.57 653.373 3271
-2341.02 655.97 3284
-2333.16 655.97 3284
-2325.31 655.97 3284
-2308.28 653.373 3271
-2291.32 650.777 3258
-2275.12 648.38 3246
-2267.35 648.38 3246
-2250.54 645.783 3233
-2255.99 649.578 3252
-2248.22 649.578 3252
-2249.4 652.175 3265
-2241.59 652.175 3265
-2250.88 657.169 3290
-2288.7 670.552 3357
-2294.26 674.547 3377
-2286.18 674.547 3377
-2278.1 674.547 3377
-2288.85 680.139 3405
-2299.46 685.732 3433
-2291.25 685.732 3433
-2301.67 691.325 3461
-2303.33 694.321 3476
-2299.64 695.72 3483
-2291.31 695.72 3483
-2287.57 697.118 3490
-2283.79 698.516 3497
-2285.19 701.512 3512
-2276.79 701.512 3512
-2278.08 704.509 3527
-2269.65 704.509 3527
-2261.22 704.509 3527
-2252.78 704.509 3527
-2239.89 703.11 3520
-2231.48 703.11 3520
-2223.06 703.11 3520
-2205.2 700.114 3505
-2187.42 697.118 3490
-2179.07 697.118 3490
-2170.73 697.118 3490
-2158.05 695.72 3483
-2149.72 695.72 3483
-2141.39 695.72 3483
-2133.06 695.72 3483
-2124.73 695.72 3483
-2112.15 694.321 3476
-2094.76 691.325 3461
-2086.48 691.325 3461
-2074 689.927 3454
-2065.74 689.927 3454
-2057.48 689.927 3454
-2049.22 689.927 3454
-2040.96 689.927 3454
-2028.58 688.529 3447
-2008.03 684.334 3426
-1999.84 684.334 3426
-1979.44 680.139 3405
-1979.4 682.936 3419
-1971.23 682.936 3419
-1963.05 682.936 3419
-1954.88 682.936 3419
-1946.7 682.936 3419
-1938.52 682.936 3419
-1930.35 682.936 3419
-1922.17 682.936 3419
-1914 682.936 3419
-1909.72 684.334 3426
-1909.3 687.131 3440
-1901.07 687.131 3440
-1896.7 688.529 3447
-1892.29 689.927 3454
-1884.03 689.927 3454
-1875.77 689.927 3454
-1863.73 688.529 3447
-1859.25 689.927 3454
-1854.74 691.325 3461
-1846.47 691.325 3461
-1846.16 694.321 3476
-1841.55 695.72 3483
-1836.9 697.118 3490
-1828.56 697.118 3490
-1823.86 698.516 3497
-1823.29 701.512 3512
-1822.64 704.509 3527
-1814.21 704.509 3527
-1809.36 705.907 3534
-1800.91 705.907 3534
-1800.06 708.903 3549
-1791.58 708.903 3549
-1783.09 708.903 3549
-1778.6 710.501 3557
-1770.1 710.501 3557
-1761.59 710.501 3557
-1757.03 712.099 3565
-1751.94 713.497 3572
-1754.62 718.091 3595
-1746.02 718.091 3595
-1737.43 718.091 3595
-1740.37 722.885 3619
-1735.55 724.483 3627
-1726.87 724.483 3627
-1725.31 727.48 3642
-1716.6 727.48 3642
-1715.39 730.675 3658
-1714.57 734.071 3675
-1713.21 737.267 3691
-1711.77 740.463 3707
-1718.07 747.055 3740
-1709.13 747.055 3740
-1704.27 748.852 3749
-1703 752.248 3766
-1705.69 757.442 3792
-1696.62 757.442 3792
-1691.11 759.04 3800
-1682.02 759.04 3800
-1672.94 759.04 3800
-1656.41 755.644 3783
-1643.44 753.846 3774
-1619.69 747.055 3740
-1596.54 740.463 3707
-1587.67 740.463 3707
-1568.58 735.669 3683
-1542.41 727.48 3642
-1527.39 724.483 3627
-1518.71 724.483 3627
-1500.05 719.689 3603
-1485.22 716.693 3588
-1463.89 710.501 3557
-1455.38 710.501 3557
-1440.77 707.505 3542
-1429.07 705.907 3534
-1411.77 701.512 3512
-1403.38 701.512 3512
-1394.98 701.512 3512
-1386.58 701.512 3512
-1381.32 703.11 3520
-1372.9 703.11 3520
-1364.48 703.11 3520
-1364.54 707.505 3542
-1358.75 708.903 3549
-1359.02 713.497 3572
-1350.48 713.497 3572
-1344.94 715.095 3580
-1344.96 719.689 3603
-1336.35 719.689 3603
-1327.73 719.689 3603
-1324.97 722.885 3619
-1316.32 722.885 3619
-1310.56 724.483 3627
-1301.88 724.483 3627
-1296.06 726.081 3635
-1289.85 727.48 3642
-1283.95 729.078 3650
-1275.23 729.078 3650
-1266.5 729.078 3650
-1257.77 729.078 3650
-1246.3 727.48 3642
-1240.31 729.078 3650
-1231.58 729.078 3650
-1222.86 729.078 3650
-1216.79 730.675 3658
-1208.04 730.675 3658
-1199.29 730.675 3658
-1196.08 734.071 3675
-1189.88 735.669 3683
-1186.2 738.865 3699
-1177.35 738.865 3699
-1184.3 748.852 3749
-1180.67 752.248 3766
-1176.95 755.644 3783
-1167.91 755.644 3783
-1158.86 755.644 3783
-1152.55 757.442 3792
-1156.45 766.031 3835
-1147.28 766.031 3835
-1151.46 775.019 3880
-1144.83 776.817 3889
-1135.53 776.817 3889
-1126.23 776.817 3889
-1116.93 776.817 3889
-1107.63 776.817 3889
-1098.33 776.817 3889
-1089.03 776.817 3889
-1079.73 776.817 3889
-1060.52 769.626 3853
-1051.31 769.626 3853
-1042.1 769.626 3853
-1032.88 769.626 3853
-1016.5 764.233 3826
-1007.35 764.233 3826
-993.763 760.837 3809
-980.26 757.442 3792
-973.241 759.04 3800
-968.721 762.635 3818
-959.591 762.635 3818
-950.461 762.635 3818
-941.331 762.635 3818
-932.201 762.635 3818
-920.895 760.837 3809
-907.717 757.442 3792
-898.65 757.442 3792
-889.582 757.442 3792
-878.424 755.644 3783
-869.378 755.644 3783
-860.332 755.644 3783
-853.311 757.442 3792
-844.243 757.442 3792
-835.175 757.442 3792
-822.186 753.846 3774
-809.498 750.45 3757
-800.514 750.45 3757
-789.844 748.852 3749
-777.338 745.457 3732
-768.414 745.457 3732
-759.49 745.457 3732
-750.565 745.457 3732
-740.051 743.859 3724
-726.238 738.865 3699
-717.392 738.865 3699
-707.014 737.267 3691
-691.946 730.675 3658
-678.903 726.081 3635
-672.976 729.078 3650
-664.248 729.078 3650
-655.52 729.078 3650
-646.791 729.078 3650
-638.063 729.078 3650
-626.748 726.081 3635
-616.696 724.483 3627
-603.999 719.689 3603
-596.705 721.287 3611
-588.07 721.287 3611
-579.435 721.287 3611
-570.8 721.287 3611
-563.411 722.885 3619
-554.757 722.885 3619
-546.103 722.885 3619
-536.26 721.287 3611
-526.456 719.689 3603
-517.841 719.689 3603
-509.225 719.689 3603
-500.609 719.689 3603
-493.085 721.287 3611
-484.45 721.287 3611
-475.815 721.287 3611
-467.18 721.287 3611
-456.514 718.091 3595
-447.917 718.091 3595
-439.32 718.091 3595
-429.885 716.693 3588
-421.305 716.693 3588
-412.725 716.693 3588
-404.145 716.693 3588
-396.337 718.091 3595
-387.74 718.091 3595
-379.987 719.689 3603
-371.371 719.689 3603
-362.755 719.689 3603
-353.353 718.091 3595
-344.756 718.091 3595
-336.159 718.091 3595
-327.563 718.091 3595
-319.676 719.689 3603
-311.751 721.287 3611
-303.787 722.885 3619
-295.133 722.885 3619
-287.112 724.483 3627
-278.439 724.483 3627
-269.766 724.483 3627
-261.092 724.483 3627
-252.419 724.483 3627
-243.208 722.885 3619
-234.554 722.885 3619
-224.901 719.689 3603
-215.805 718.091 3595
-207.208 718.091 3595
-198.612 718.091 3595
-189.645 716.693 3588
-179.501 710.501 3557
-170.61 708.903 3549
-162.123 708.903 3549
-153.334 707.505 3542
-144.536 705.907 3534
-135.816 704.509 3527
-127.382 704.509 3527
-118.712 703.11 3520
-110.294 703.11 3520
-100.806 695.72 3483
-92.4771 695.72 3483
-84.1482 695.72 3483
-74.7309 685.732 3433
-66.3859 684.334 3426
-58.3122 685.732 3433
-50.1029 685.732 3433
-41.8935 685.732 3433
-21.0367 428.258 2144
-15.9097 428.258 2144
-10.7828 428.258 2144
-5.6558 428.258 2144
-0.528842 428.258 2144
4.59811 428.258 2144
9.72507 428.258 2144
14.852 428.258 2144
19.979 428.258 2144
25.0825 427.859 2142
30.2047 427.859 2142
35.3269 427.859 2142
40.3924 427.259 2139
45.4435 426.66 2136
50.5514 426.66 2136
55.581 426.061 2133
60.767 426.66 2136
66.0599 427.859 2142
71.182 427.859 2142
76.3042 427.859 2142
81.5024 428.258 2144
86.993 430.056 2153
92.4839 431.654 2161
97.6515 431.654 2161
102.962 432.253 2164
108.386 433.252 2169
113.887 434.45 2175
119.088 434.45 2175
125.261 437.846 2192
130.86 439.044 2198
137.54 443.639 2221
142.851 443.639 2221
148.763 445.436 2230
154.51 446.635 2236
160.286 447.833 2242
165.647 447.833 2242
171.466 449.032 2248
177.314 450.23 2254
182.704 450.23 2254
188.094 450.23 2254
193.484 450.23 2254
198.874 450.23 2254
204.536 450.83 2257
209.933 450.83 2257
215.998 452.228 2264
221.412 452.228 2264
226.826 452.228 2264
232.24 452.228 2264
237.339 451.629 2261
242.316 450.83 2257
246.725 449.032 2248
252.101 449.032 2248
256.102 446.635 2236
260.046 444.238 2224
927.858 738.865 3699
936.703 738.865 3699
945.549 738.865 3699
948.202 734.071 3675
956.99 734.071 3675
965.778 734.071 3675
970.058 730.675 3658
970.51 724.483 3627
972.704 719.689 3603
981.32 719.689 3603
985.814 716.693 3588
985.803 710.501 3557
990.116 707.505 3542
998.586 707.505 3542
1000.8 703.11 3520
1006.92 701.512 3512
1010.99 698.516 3497
1015.27 695.72 3483
1023.6 695.72 3483
1031.93 695.72 3483
1040.25 695.72 3483
1046.48 694.321 3476
1054.79 694.321 3476
1060.65 692.724 3468
1064.63 689.927 3454
1068.54 687.131 3440
1076.77 687.131 3440
1084.99 687.131 3440
1093.22 687.131 3440
1101.45 687.131 3440
1111.93 688.529 3447
1120.17 688.529 3447
1130.71 689.927 3454
1141.28 691.325 3461
1154.53 694.321 3476
1165.19 695.72 3483
1173.52 695.72 3483
1184.22 697.118 3490
1192.57 697.118 3490
1203.32 698.516 3497
1211.68 698.516 3497
1222.84 700.114 3505
1233.68 701.512 3512
1244.91 703.11 3520
1253.32 703.11 3520
1266.76 705.907 3534
1283.51 710.501 3557
1297.46 713.497 3572
1306 713.497 3572
1317.49 715.095 3580
1331.61 718.091 3595
1343.19 719.689 3603
1351.8 719.689 3603
1369.48 724.483 3627
1378.15 724.483 3627
1386.83 724.483 3627
1395.5 724.483 3627
1404.17 724.483 3627
1397.65 716.693 3588
1406.23 716.693 3588
1405.74 712.099 3565
1407.92 708.903 3549
1401.64 701.512 3512
1407.23 700.114 3505
1415.61 700.114 3505
1406.12 691.325 3461
1394.37 681.538 3412
1391.02 675.945 3384
1399.11 675.945 3384
1390.15 667.755 3343
1389.78 663.76 3323
1392.26 661.163 3310
1400.18 661.163 3310
1394.48 654.772 3278
1399.32 653.373 3271
1398.97 649.578 3252
1401.12 646.981 3239
1408.87 646.981 3239
1413.99 645.783 3233
1419.08 644.584 3227
1426.8 644.584 3227
1434.52 644.584 3227
1442.23 644.584 3227
1449.95 644.584 3227
1457.67 644.584 3227
1468.11 645.783 3233
1475.84 645.783 3233
1486.32 646.981 3239
1494.07 646.981 3239
1501.81 646.981 3239
1509.56 646.981 3239
1517.31 646.981 3239
1522.23 645.783 3233
1527.12 644.584 3227
1534.83 644.584 3227
1536.34 641.988 3214
1535.38 638.392 3196
1537.22 635.995 3184
1544.84 635.995 3184
1540.75 631.201 3160
1542.43 628.804 3148
1544.05 626.407 3136
1551.55 626.407 3136
1541.64 619.416 3101
1526.08 610.228 3055
1497.75 596.046 2984
1494.3 591.851 2963
1501.38 591.851 2963
1497.77 587.656 2942
1481.28 578.468 2896
1483.07 576.471 2886
1489.97 576.471 2886
1486.5 572.476 2866
1483.45 568.68 2847
1487.64 567.682 2842
1491.81 566.683 2837
1498.59 566.683 2837
1500.6 564.885 2828
1507.36 564.885 2828
1514.13 564.885 2828
1520.89 564.885 2828
1524.95 563.887 2823
1524.1 561.09 2809
1528.1 560.091 2804
1534.8 560.091 2804
1536.01 558.094 2794
1540.48 557.295 2790
1544.38 556.296 2785
1551.04 556.296 2785
1554.9 555.297 2780
1556.5 553.5 2771
1560.87 552.701 2767
1572.58 554.498 2776
1587.18 557.295 2790
1593.86 557.295 2790
1605.69 559.093 2799
1623.33 562.888 2818
1638.17 565.684 2832
1644.94 565.684 2832
1686.12 577.469 2891
1693.03 577.469 2891
1699.95 577.469 2891
1804.92 564.885 2828
1811.68 564.885 2828
1818.44 564.885 2828
1818.75 562.888 2818
1825.49 562.888 2818
1828.98 561.889 2813
1820.7 557.295 2790
1854.88 565.684 2832
1861.65 565.684 2832
1868.42 565.684 2832
1875.19 565.684 2832
1866.68 561.09 2809
1873.4 561.09 2809
1889.49 563.887 2823
1896.24 563.887 2823
1906.36 564.885 2828
1932.74 570.678 2857
1969.44 579.467 2901
1976.38 579.467 2901
1983.32 579.467 2901
1990.25 579.467 2901
1997.19 579.467 2901
2000.67 578.468 2896
1993.73 574.473 2876
1997.13 573.474 2871
1987.25 568.68 2847
1994.05 568.68 2847
1993.83 566.683 2837
2011.2 569.679 2852
2021.55 570.678 2857
2028.39 570.678 2857
2035.22 570.678 2857
2042.05 570.678 2857
2020.91 562.888 2818
2027.65 562.888 2818
2024.28 560.091 2804
2020.85 557.295 2790
2017.35 554.498 2776
2023.98 554.498 2776
2030.62 554.498 2776
2033.59 553.5 2771
2040.22 553.5 2771
2029.85 548.905 2748
2036.43 548.905 2748
2043 548.905 2748
2073.43 555.297 2780
2090.56 558.094 2794
2119.01 563.887 2823
2125.76 563.887 2823
2161.97 571.677 2862
2175.63 573.474 2871
2182.5 573.474 2871
2189.36 573.474 2871
-2350.29 644.835 3190
-2342.66 644.835 3190
-2339.43 646.048 3196
-2336.16 647.261 3202
-2355.41 654.74 3239
-2347.66 654.74 3239
-2363.04 661.209 3271
-2360.25 662.624 3278
-2361.03 665.05 3290
-2353.16 665.05 3290
-2359.55 669.093 3310
-2351.63 669.093 3310
-2343.72 669.093 3310
-2335.8 669.093 3310
-2327.89 669.093 3310
-2319.97 669.093 3310
-2312.06 669.093 3310
-2286.04 663.837 3284
-2291.37 667.678 3303
-2283.47 667.678 3303
-2294.18 673.135 3330
-2286.21 673.135 3330
-2310.41 682.636 3377
-2340.51 693.956 3433
-2346.57 698.201 3454
-2338.31 698.201 3454
-2330.05 698.201 3454
-2326.49 699.616 3461
-2332.95 704.063 3483
-2324.62 704.063 3483
-2320.95 705.478 3490
-2322.54 708.51 3505
-2318.79 709.925 3512
-2310.39 709.925 3512
-2301.99 709.925 3512
-2293.59 709.925 3512
-2294.95 712.958 3527
-2286.52 712.958 3527
-2278.08 712.958 3527
-2274.15 714.373 3534
-2265.7 714.373 3534
-2257.25 714.373 3534
-2244.35 712.958 3527
-2235.91 712.958 3527
-2227.48 712.958 3527
-2214.64 711.543 3520
-2196.82 708.51 3505
-2188.44 708.51 3505
-2180.06 708.51 3505
-2166.72 706.893 3497
-2158.36 706.893 3497
-2150 706.893 3497
-2141.63 706.893 3497
-2133.27 706.893 3497
-2116.4 704.063 3483
-2103.84 702.648 3476
-2095.52 702.648 3476
-2082.41 701.031 3468
-2074.12 701.031 3468
-2065.82 701.031 3468
-2057.53 701.031 3468
