ply
format ascii 1.0
comment File generated
element vertex 2160
property float x
property float y
property float z
end_header
-1280.34 -860.253 3963
-1264.77 -856.129 3944
-1255.34 -856.129 3944
-1239.9 -852.005 3925
-1230.52 -852.005 3925
-1221.13 -852.005 3925
-1211.74 -852.005 3925
-1199.6 -850.051 3916
-149.46 -482.767 2224
-144.142 -482.767 2224
-138.823 -482.767 2224
-132.845 -480.379 2213
-127.034 -478.425 2204
-121.764 -478.425 2204
-115.7 -475.169 2189
-109.456 -470.828 2169
-104.174 -470.393 2167
-98.9916 -470.393 2167
-93.5499 -469.091 2161
-88.1369 -467.789 2155
-82.9067 -467.354 2153
-77.7582 -467.354 2153
-72.2387 -464.967 2142
-66.9286 -463.664 2136
-61.5892 -461.928 2128
-56.5005 -461.928 2128
-51.0253 -458.455 2112
-45.8442 -457.152 2106
-40.7113 -456.067 2101
-35.6871 -456.067 2101
-30.663 -456.067 2101
-25.6023 -455.416 2098
-20.5657 -454.981 2096
-15.4942 -453.245 2088
-10.5011 -453.245 2088
-5.49488 -452.159 2083
-0.511823 -450.423 2075
4.43941 -449.338 2070
9.38941 -449.338 2070
14.3186 -448.686 2067
19.2614 -448.686 2067
24.1457 -447.601 2062
29.0766 -447.601 2062
33.892 -446.081 2055
38.6928 -444.779 2049
43.4862 -443.694 2044
48.3741 -443.694 2044
53.1316 -442.608 2039
57.8652 -441.523 2034
62.6058 -440.655 2030
67.294 -439.569 2025
72.1363 -439.569 2025
76.8647 -438.918 2022
81.6191 -438.484 2020
86.2355 -437.399 2015
91.054 -437.399 2015
95.7298 -436.747 2012
100.541 -436.747 2012
105.248 -436.313 2010
110.054 -436.313 2010
114.861 -436.313 2010
119.548 -435.879 2008
124.35 -435.879 2008
129.28 -436.313 2010
134.087 -436.313 2010
139.031 -436.747 2012
144.2 -437.833 2017
149.023 -437.833 2017
153.847 -437.833 2017
158.906 -438.484 2020
163.736 -438.484 2020
168.984 -439.569 2025
173.827 -439.569 2025
178.669 -439.569 2025
183.058 -438.484 2020
187.889 -438.484 2020
193.196 -439.569 2025
198.038 -439.569 2025
202.881 -439.569 2025
493.2 -815.537 3757
502.184 -815.537 3757
511.168 -815.537 3757
519.045 -813.8 3749
523.362 -806.637 3716
532.248 -806.637 3716
538.659 -802.947 3699
546.32 -801.21 3691
555.146 -801.21 3691
572.835 -813.8 3749
581.8 -813.8 3749
590.765 -813.8 3749
599.73 -813.8 3749
608.695 -813.8 3749
617.66 -813.8 3749
623.784 -810.11 3732
632.708 -810.11 3732
643.008 -811.847 3740
651.951 -811.847 3740
660.895 -811.847 3740
669.838 -811.847 3740
678.781 -811.847 3740
689.38 -813.8 3749
698.345 -813.8 3749
710.517 -817.49 3766
722.771 -821.181 3783
733.558 -823.134 3792
742.626 -823.134 3792
753.28 -824.871 3800
764.172 -826.824 3809
773.281 -826.824 3809
782.389 -826.824 3809
791.498 -826.824 3809
789.676 -815.537 3757
798.66 -815.537 3757
803.99 -811.847 3740
811.195 -810.11 3732
820.119 -810.11 3732
829.043 -810.11 3732
828.762 -801.21 3691
833.957 -797.737 3675
844.58 -799.474 3683
853.387 -799.474 3683
862.194 -799.474 3683
871.001 -799.474 3683
879.808 -799.474 3683
1280.62 -770.386 3549
1300.37 -777.115 3580
1308.93 -777.115 3580
1320.43 -778.852 3588
1361.24 -797.737 3675
1375.99 -801.21 3691
1384.82 -801.21 3691
1393.64 -801.21 3691
1402.47 -801.21 3691
1411.3 -801.21 3691
1420.12 -801.21 3691
1425.85 -799.474 3683
1434.66 -799.474 3683
1452.87 -804.683 3707
1461.74 -804.683 3707
1470.6 -804.683 3707
1479.47 -804.683 3707
1488.33 -804.683 3707
1497.2 -804.683 3707
1502.81 -802.947 3699
1508.39 -801.21 3691
1517.21 -801.21 3691
1526.04 -801.21 3691
1531.54 -799.474 3683
1523.2 -790.574 3642
1528.96 -789.054 3635
1537.66 -789.054 3635
1539.54 -785.581 3619
1548.2 -785.581 3619
-2937 -875.662 4079
-2927.24 -875.662 4079
-2917.49 -875.662 4079
-2900.61 -873.516 4069
-2890.88 -873.516 4069
-2881.15 -873.516 4069
-2857.3 -869.222 4049
-2847.62 -869.222 4049
-2837.94 -869.222 4049
-2828.26 -869.222 4049
-2805.35 -865.143 4030
-2788.77 -862.997 4020
-2779.16 -862.997 4020
-2736.48 -852.692 3972
-2713.93 -848.613 3953
-2730.48 -856.771 3991
-2720.94 -856.771 3991
-2711.39 -856.771 3991
-2701.85 -856.771 3991
-2692.31 -856.771 3991
-2682.76 -856.771 3991
-2673.22 -856.771 3991
-2663.67 -856.771 3991
-2654.13 -856.771 3991
-2644.59 -856.771 3991
-1352.18 -819.632 3818
-1349.03 -823.282 3835
-1339.86 -823.282 3835
-1330.69 -823.282 3835
-1327.72 -827.146 3853
-1327.75 -832.942 3880
-1318.47 -832.942 3880
-1312.23 -834.874 3889
-1305.94 -836.806 3898
-1308.93 -844.749 3935
-1299.52 -844.749 3935
-1296.01 -848.613 3953
-1286.56 -848.613 3953
-1277.11 -848.613 3953
-1261.88 -844.749 3935
-1246.42 -840.67 3916
-1234.22 -838.738 3907
-1227.69 -840.67 3916
-1218.33 -840.67 3916
-1208.97 -840.67 3916
-1199.6 -840.67 3916
-149.258 -476.795 2221
-143.947 -476.795 2221
-138.636 -476.795 2221
-132.845 -475.077 2213
-127.034 -473.145 2204
-121.764 -473.145 2204
-115.542 -469.281 2186
-109.456 -465.632 2169
-104.174 -465.202 2167
-98.9916 -465.202 2167
-93.5499 -463.914 2161
-88.1369 -462.626 2155
-82.7911 -461.553 2150
-77.6498 -461.553 2150
-72.2387 -459.835 2142
-66.9286 -458.547 2136
-61.5892 -456.83 2128
-56.5005 -456.83 2128
-51.0253 -453.395 2112
-45.8442 -452.107 2106
-40.7694 -451.678 2104
-35.6871 -451.034 2101
-30.663 -451.034 2101
-25.6023 -450.39 2098
-20.5363 -449.316 2093
-15.4942 -448.243 2088
-10.5011 -448.243 2088
-5.49488 -447.17 2083
-0.512563 -446.096 2078
4.45013 -445.452 2075
9.41209 -445.452 2075
14.3394 -444.379 2070
19.2894 -444.379 2070
24.2043 -443.735 2067
29.1471 -443.735 2067
34.0075 -442.661 2062
38.8061 -441.159 2055
43.5501 -439.441 2047
48.4451 -439.441 2047
53.1316 -437.724 2039
58.0075 -437.724 2039
62.6058 -435.792 2030
67.3604 -435.148 2027
72.2076 -435.148 2027
76.8647 -434.074 2022
81.6191 -433.645 2020
86.2355 -432.572 2015
91.054 -432.572 2015
95.7298 -431.928 2012
100.541 -431.928 2012
105.248 -431.498 2010
110.054 -431.498 2010
114.861 -431.498 2010
119.548 -431.069 2008
124.35 -431.069 2008
129.28 -431.498 2010
134.087 -431.498 2010
139.031 -431.928 2012
144.2 -433.001 2017
149.023 -433.001 2017
153.847 -433.001 2017
158.906 -433.645 2020
163.736 -433.645 2020
168.984 -434.718 2025
173.827 -434.718 2025
178.669 -434.718 2025
183.511 -434.718 2025
188.354 -434.718 2025
194.055 -436.651 2034
198.919 -436.651 2034
203.783 -436.651 2034
493.2 -806.537 3757
502.184 -806.537 3757
511.168 -806.537 3757
519.045 -804.819 3749
523.362 -797.735 3716
532.248 -797.735 3716
538.659 -794.086 3699
546.32 -792.368 3691
555.146 -792.368 3691
572.835 -804.819 3749
581.8 -804.819 3749
590.765 -804.819 3749
599.73 -804.819 3749
608.695 -804.819 3749
617.66 -804.819 3749
623.784 -801.17 3732
632.708 -801.17 3732
641.632 -801.17 3732
650.557 -801.17 3732
659.481 -801.17 3732
668.405 -801.17 3732
677.33 -801.17 3732
689.38 -804.819 3749
698.345 -804.819 3749
708.819 -806.537 3757
719.523 -808.469 3766
730.076 -810.186 3774
739.101 -810.186 3774
749.91 -812.118 3783
762.367 -815.768 3800
771.454 -815.768 3800
780.541 -815.768 3800
784.225 -810.186 3774
784.422 -801.17 3732
793.346 -801.17 3732
800.551 -799.453 3724
802.283 -792.368 3691
811.109 -792.368 3691
819.935 -792.368 3691
817.759 -781.849 3642
826.469 -781.849 3642
838.847 -785.284 3658
847.594 -785.284 3658
856.342 -785.284 3658
865.089 -785.284 3658
871.925 -783.567 3650
1280.62 -761.884 3549
1294.92 -765.319 3565
1303.44 -765.319 3565
1317.49 -768.539 3580
1358.28 -787.216 3667
1373.01 -790.651 3683
1381.82 -790.651 3683
1390.62 -790.651 3683
1399.43 -790.651 3683
1408.24 -790.651 3683
1413.97 -788.933 3675
1419.66 -787.216 3667
1431.54 -788.933 3675
1443.47 -790.651 3683
1455.43 -792.368 3691
1464.26 -792.368 3691
1473.08 -792.368 3691
1481.91 -792.368 3691
1490.73 -792.368 3691
1499.56 -792.368 3691
1508.39 -792.368 3691
1517.21 -792.368 3691
1526.04 -792.368 3691
1531.54 -790.651 3683
1520.27 -780.346 3635
1528.96 -780.346 3635
1537.66 -780.346 3635
1539.54 -776.912 3619
1548.2 -776.912 3619
-2937 -865.891 4079
-2927.24 -865.891 4079
-2917.49 -865.891 4079
-2900.61 -863.768 4069
-2890.88 -863.768 4069
-2874.07 -861.646 4059
-2857.3 -859.523 4049
-2840.59 -857.4 4039
-2830.93 -857.4 4039
-2821.27 -857.4 4039
-2805.35 -855.489 4030
-2788.77 -853.367 4020
-2779.16 -853.367 4020
-2736.48 -843.177 3972
-2713.93 -839.144 3953
-2730.48 -847.211 3991
-2733.89 -851.244 4010
-2724.3 -851.244 4010
-2714.71 -851.244 4010
-2705.12 -851.244 4010
-2695.53 -851.244 4010
-2685.94 -851.244 4010
-2663.67 -847.211 3991
-2654.13 -847.211 3991
-2644.59 -847.211 3991
-1352.18 -810.486 3818
-1355.36 -817.916 3853
-1346.15 -817.916 3853
-1336.94 -817.916 3853
-1327.72 -817.916 3853
-1327.75 -823.647 3880
-1318.47 -823.647 3880
-1312.23 -825.558 3889
-1314.99 -833.2 3925
-1314.92 -839.144 3953
-1305.46 -839.144 3953
-1296.01 -839.144 3953
-1286.56 -839.144 3953
-1277.11 -839.144 3953
-1264.77 -837.233 3944
-1252.47 -835.323 3935
-1234.22 -829.379 3907
-1224.87 -829.379 3907
-1215.53 -829.379 3907
-1206.19 -829.379 3907
-1188.57 -823.647 3880
-143.234 -469.139 2210
-137.949 -469.139 2210
-132.665 -469.139 2210
-127.034 -467.866 2204
-121.764 -467.866 2204
-115.542 -464.045 2186
-109.356 -460.011 2167
-104.029 -459.374 2164
-98.8546 -459.374 2164
-93.5499 -458.738 2161
-88.1369 -457.464 2155
-82.7911 -456.403 2150
-77.6498 -456.403 2150
-72.2387 -454.704 2142
-66.9286 -453.431 2136
-61.5892 -451.732 2128
-56.5005 -451.732 2128
-51.0736 -448.76 2114
-45.9095 -447.699 2109
-40.8081 -447.062 2106
-35.7381 -446.638 2104
-30.7068 -446.638 2104
-25.6389 -446.001 2101
-20.5657 -444.939 2096
-15.5313 -444.303 2093
-10.5263 -444.303 2093
-5.50807 -443.241 2088
-0.513056 -441.543 2080
4.45657 -441.118 2078
9.42569 -441.118 2078
14.374 -440.482 2075
19.2894 -439.42 2070
24.2394 -439.42 2070
29.1894 -439.42 2070
34.0075 -437.722 2062
38.8439 -436.66 2057
43.5926 -434.962 2049
48.4924 -434.962 2049
53.2098 -433.476 2042
58.0075 -432.839 2039
62.6674 -431.353 2032
67.4601 -430.929 2030
72.3145 -430.929 2030
76.8647 -429.231 2022
81.6999 -429.231 2022
86.2355 -427.745 2015
91.054 -427.745 2015
95.8725 -427.745 2015
100.541 -427.108 2012
105.248 -426.683 2010
110.054 -426.683 2010
114.861 -426.683 2010
119.667 -426.683 2010
124.474 -426.683 2010
129.409 -427.108 2012
134.22 -427.108 2012
139.377 -428.169 2017
144.415 -428.806 2020
149.245 -428.806 2020
154.076 -428.806 2020
159.457 -430.292 2027
164.304 -430.292 2027
169.401 -430.929 2030
174.256 -430.929 2030
179.11 -430.929 2030
183.693 -430.292 2027
189.656 -432.839 2039
194.532 -432.839 2039
199.408 -432.839 2039
204.283 -432.839 2039
493.2 -797.537 3757
502.184 -797.537 3757
511.168 -797.537 3757
519.045 -795.839 3749
523.362 -788.833 3716
532.248 -788.833 3716
538.659 -785.225 3699
546.32 -783.526 3691
555.146 -783.526 3691
572.835 -795.839 3749
581.8 -795.839 3749
590.765 -795.839 3749
599.73 -795.839 3749
608.695 -795.839 3749
617.66 -795.839 3749
625.121 -793.928 3740
634.064 -793.928 3740
643.008 -793.928 3740
651.951 -793.928 3740
660.895 -793.928 3740
668.405 -792.23 3732
677.33 -792.23 3732
687.725 -793.928 3740
696.668 -793.928 3740
708.819 -797.537 3757
719.523 -799.447 3766
728.529 -799.447 3766
737.534 -799.447 3766
751.694 -804.967 3792
762.367 -806.665 3800
771.454 -806.665 3800
780.541 -806.665 3800
784.225 -801.146 3774
782.74 -790.532 3724
791.645 -790.532 3724
796.896 -786.923 3707
802.283 -783.526 3691
809.351 -781.828 3683
818.158 -781.828 3683
817.759 -773.125 3642
824.88 -771.639 3635
833.573 -771.639 3635
842.265 -771.639 3635
854.469 -774.823 3650
863.197 -774.823 3650
871.925 -774.823 3650
1294.92 -756.779 3565
1303.44 -756.779 3565
1331.84 -768.242 3619
1354.94 -776.521 3658
1370.03 -780.13 3675
1378.82 -780.13 3675
1387.6 -780.13 3675
1396.39 -780.13 3675
1405.18 -780.13 3675
1413.97 -780.13 3675
1419.66 -778.432 3667
1431.54 -780.13 3675
1443.47 -781.828 3683
1455.43 -783.526 3691
1464.26 -783.526 3691
1473.08 -783.526 3691
1481.91 -783.526 3691
1490.73 -783.526 3691
1499.56 -783.526 3691
1508.39 -783.526 3691
1517.21 -783.526 3691
1526.04 -783.526 3691
1531.54 -781.828 3683
1520.27 -771.639 3635
1528.96 -771.639 3635
1537.66 -771.639 3635
1539.54 -768.242 3619
-2937 -856.12 4079
-2927.24 -856.12 4079
-2917.49 -856.12 4079
-2893.48 -851.922 4059
-2883.77 -851.922 4059
-2874.07 -851.922 4059
-2857.3 -849.823 4049
-2840.59 -847.724 4039
-2830.93 -847.724 4039
-2821.27 -847.724 4039
-2805.35 -845.836 4030
-2788.77 -843.737 4020
-2779.16 -843.737 4020
-2736.48 -833.662 3972
-2713.93 -829.674 3953
-2730.48 -837.65 3991
-2733.89 -841.638 4010
-2724.3 -841.638 4010
-2714.71 -841.638 4010
-2705.12 -841.638 4010
-2695.53 -841.638 4010
-2685.94 -841.638 4010
-2663.67 -837.65 3991
-2654.13 -837.65 3991
-2644.59 -837.65 3991
-1352.18 -801.34 3818
-1355.36 -808.686 3853
-1346.15 -808.686 3853
-1336.94 -808.686 3853
-1327.72 -808.686 3853
-1327.75 -814.353 3880
-1318.47 -814.353 3880
-1315.26 -818.131 3898
-1314.99 -823.798 3925
-1314.92 -829.674 3953
-1305.46 -829.674 3953
-1296.01 -829.674 3953
-1286.56 -829.674 3953
-1277.11 -829.674 3953
-1264.77 -827.785 3944
-1252.47 -825.896 3935
-1234.22 -820.02 3907
-1224.87 -820.02 3907
-1215.53 -820.02 3907
-1206.19 -820.02 3907
-1188.57 -814.353 3880
-143.234 -463.845 2210
-137.949 -463.845 2210
-132.665 -463.845 2210
-127.38 -463.845 2210
-122.095 -463.845 2210
-115.7 -459.438 2189
-109.356 -454.82 2167
-104.029 -454.191 2164
-98.8546 -454.191 2164
-93.5499 -453.561 2161
-88.1369 -452.302 2155
-82.7911 -451.252 2150
-77.6498 -451.252 2150
-72.2387 -449.573 2142
-67.0226 -448.943 2139
-61.7339 -447.684 2133
-56.6333 -447.684 2133
-51.2185 -444.956 2120
-45.9095 -442.647 2109
-40.8081 -442.017 2106
-35.7381 -441.598 2104
-30.7068 -441.598 2104
-25.6755 -441.598 2104
-20.6147 -440.968 2101
-15.5313 -439.289 2093
-10.5263 -439.289 2093
-5.51598 -438.869 2091
-0.513796 -437.19 2083
4.46085 -436.56 2080
9.43476 -436.56 2080
14.3948 -436.141 2078
19.336 -435.511 2075
24.2394 -434.461 2070
29.1894 -434.461 2070
34.0899 -433.832 2067
38.9006 -432.363 2060
43.5926 -430.054 2049
48.4924 -430.054 2049
53.3401 -429.634 2047
58.0075 -427.955 2039
62.8216 -427.535 2037
67.5266 -426.486 2032
72.3857 -426.486 2032
77.0548 -425.436 2027
81.6999 -424.387 2022
86.3211 -423.338 2017
91.1444 -423.338 2017
95.8725 -422.918 2015
100.541 -422.288 2012
105.352 -422.288 2012
110.164 -422.288 2012
114.975 -422.288 2012
119.786 -422.288 2012
124.783 -422.918 2015
129.602 -422.918 2015
134.42 -422.918 2015
139.584 -423.967 2020
144.558 -424.387 2022
149.984 -426.066 2030
154.838 -426.066 2030
159.693 -426.066 2030
164.709 -426.486 2032
170.403 -428.585 2042
175.286 -428.585 2042
180.169 -428.585 2042
185.505 -429.634 2047
191.33 -431.733 2057
196.249 -431.733 2057
202.928 -435.511 2075
208.191 -436.141 2078
213.16 -436.141 2078
218.129 -436.141 2078
493.2 -788.537 3757
502.184 -788.537 3757
511.168 -788.537 3757
519.045 -786.858 3749
523.362 -779.932 3716
532.248 -779.932 3716
538.659 -776.364 3699
546.32 -774.685 3691
555.146 -774.685 3691
572.835 -786.858 3749
581.8 -786.858 3749
590.765 -786.858 3749
599.73 -786.858 3749
608.695 -786.858 3749
617.66 -786.858 3749
626.625 -786.858 3749
635.59 -786.858 3749
644.555 -786.858 3749
653.52 -786.858 3749
662.485 -786.858 3749
671.45 -786.858 3749
680.415 -786.858 3749
689.38 -786.858 3749
698.345 -786.858 3749
708.819 -788.537 3757
719.523 -790.426 3766
733.558 -795.883 3792
742.626 -795.883 3792
755.064 -799.451 3809
764.172 -799.451 3809
773.281 -799.451 3809
782.389 -799.451 3809
789.628 -797.562 3800
786.103 -784.969 3740
795.047 -784.969 3740
802.27 -783.29 3732
807.717 -779.932 3716
809.351 -773.006 3683
818.158 -773.006 3683
821.352 -767.758 3658
824.88 -762.931 3635
833.573 -762.931 3635
842.265 -762.931 3635
854.469 -766.079 3650
863.197 -766.079 3650
871.925 -766.079 3650
1294.92 -748.239 3565
1303.44 -748.239 3565
1346.2 -767.758 3658
1361.24 -771.326 3675
1375.99 -774.685 3691
1384.82 -774.685 3691
1396.67 -776.364 3699
1405.51 -776.364 3699
1414.36 -776.364 3699
1413.97 -771.326 3675
1419.66 -769.647 3667
1431.54 -771.326 3675
1443.47 -773.006 3683
1455.43 -774.685 3691
1464.26 -774.685 3691
1476.27 -776.364 3699
1485.12 -776.364 3699
1493.97 -776.364 3699
1502.81 -776.364 3699
1511.66 -776.364 3699
1520.5 -776.364 3699
1529.35 -776.364 3699
1531.54 -773.006 3683
1520.27 -762.931 3635
1528.96 -762.931 3635
1537.66 -762.931 3635
1539.54 -759.573 3619
-2937 -846.349 4079
-2927.24 -846.349 4079
-2917.49 -846.349 4079
-2893.48 -842.199 4059
-2883.77 -842.199 4059
-2874.07 -842.199 4059
-2857.3 -840.124 4049
-2840.59 -838.049 4039
-2830.93 -838.049 4039
-2821.27 -838.049 4039
-2805.35 -836.182 4030
-2788.77 -834.107 4020
-2779.16 -834.107 4020
-2736.48 -824.147 3972
-2713.93 -820.205 3953
-2730.48 -828.09 3991
-2733.89 -832.032 4010
-2724.3 -832.032 4010
-2714.71 -832.032 4010
-2705.12 -832.032 4010
-2695.53 -832.032 4010
-2685.94 -832.032 4010
-2663.67 -828.09 3991
-2654.13 -828.09 3991
-2644.59 -828.09 3991
-1358.2 -795.721 3835
-1355.36 -799.456 3853
-1346.15 -799.456 3853
-1336.94 -799.456 3853
-1330.82 -801.323 3862
-1327.75 -805.058 3880
-1318.47 -805.058 3880
-1315.26 -808.793 3898
-1314.99 -814.395 3925
-1314.92 -820.205 3953
-1305.46 -820.205 3953
-1296.01 -820.205 3953
-1286.56 -820.205 3953
-1277.11 -820.205 3953
-1264.77 -818.338 3944
-1252.47 -816.47 3935
-1234.22 -810.66 3907
-1224.87 -810.66 3907
-1215.53 -810.66 3907
-1203.41 -808.793 3898
-1185.82 -803.191 3871
-143.234 -458.551 2210
-137.949 -458.551 2210
-132.665 -458.551 2210
-127.38 -458.551 2210
-122.095 -458.551 2210
-115.7 -454.194 2189
-109.356 -449.629 2167
-104.029 -449.007 2164
-98.8546 -449.007 2164
-93.5499 -448.384 2161
-88.1369 -447.139 2155
-82.6756 -445.479 2147
-77.5415 -445.479 2147
-72.2387 -444.442 2142
-67.0226 -443.819 2139
-61.7339 -442.575 2133
-56.6333 -442.575 2133
-51.2185 -439.877 2120
-45.9095 -437.595 2109
-40.8081 -436.972 2106
-35.7381 -436.557 2104
-30.7068 -436.557 2104
-25.6755 -436.557 2104
-20.6147 -435.935 2101
-15.5313 -434.275 2093
-10.5263 -434.275 2093
-5.51598 -433.86 2091
-0.513796 -432.2 2083
4.46085 -431.578 2080
9.43476 -431.578 2080
14.3948 -431.163 2078
19.336 -430.54 2075
24.2394 -429.503 2070
29.1894 -429.503 2070
34.0899 -428.88 2067
38.9006 -427.428 2060
43.5926 -425.145 2049
48.4924 -425.145 2049
53.3401 -424.73 2047
58.0075 -423.071 2039
62.8216 -422.656 2037
67.5266 -421.618 2032
72.3857 -421.618 2032
77.0548 -420.581 2027
81.6999 -419.543 2022
86.3211 -418.506 2017
91.1444 -418.506 2017
95.8725 -418.091 2015
100.541 -417.468 2012
105.352 -417.468 2012
110.164 -417.468 2012
114.975 -417.468 2012
119.786 -417.468 2012
124.783 -418.091 2015
129.602 -418.091 2015
134.42 -418.091 2015
139.584 -419.128 2020
144.558 -419.543 2022
149.984 -421.203 2030
154.838 -421.203 2030
159.693 -421.203 2030
164.709 -421.618 2032
170.403 -423.693 2042
175.286 -423.693 2042
180.169 -423.693 2042
185.505 -424.73 2047
191.33 -426.805 2057
196.249 -426.805 2057
202.928 -430.54 2075
208.191 -431.163 2078
213.16 -431.163 2078
218.129 -431.163 2078
492.15 -777.877 3749
501.115 -777.877 3749
510.08 -777.877 3749
517.799 -776.01 3740
523.362 -771.03 3716
532.248 -771.03 3716
538.659 -767.503 3699
546.32 -765.843 3691
555.146 -765.843 3691
572.835 -777.877 3749
581.8 -777.877 3749
590.765 -777.877 3749
599.73 -777.877 3749
608.695 -777.877 3749
617.66 -777.877 3749
626.625 -777.877 3749
635.59 -777.877 3749
644.555 -777.877 3749
653.52 -777.877 3749
662.485 -777.877 3749
671.45 -777.877 3749
680.415 -777.877 3749
689.38 -777.877 3749
698.345 -777.877 3749
708.819 -779.537 3757
719.523 -781.404 3766
733.558 -786.799 3792
742.626 -786.799 3792
755.064 -790.327 3809
764.172 -790.327 3809
773.281 -790.327 3809
782.389 -790.327 3809
789.628 -788.459 3800
786.103 -776.01 3740
795.047 -776.01 3740
802.27 -774.35 3732
807.717 -771.03 3716
809.351 -764.183 3683
818.158 -764.183 3683
821.352 -758.996 3658
824.88 -754.223 3635
831.738 -752.563 3627
840.411 -752.563 3627
849.084 -752.563 3627
857.758 -752.563 3627
1294.92 -739.699 3565
1303.44 -739.699 3565
1346.2 -758.996 3658
1361.24 -762.523 3675
1375.99 -765.843 3691
1384.82 -765.843 3691
1396.67 -767.503 3699
1405.51 -767.503 3699
1414.36 -767.503 3699
1413.97 -762.523 3675
1419.66 -760.863 3667
1431.54 -762.523 3675
1443.47 -764.183 3683
1455.43 -765.843 3691
1464.26 -765.843 3691
1476.27 -767.503 3699
1485.12 -767.503 3699
1493.97 -767.503 3699
1502.81 -767.503 3699
1511.66 -767.503 3699
1520.5 -767.503 3699
1529.35 -767.503 3699
1531.54 -764.183 3683
1520.27 -754.223 3635
1528.96 -754.223 3635
1537.66 -754.223 3635
1539.54 -750.904 3619
-2937 -836.577 4079
-2927.24 -836.577 4079
-2917.49 -836.577 4079
-2893.48 -832.475 4059
-2883.77 -832.475 4059
-2859.9 -828.374 4039
-2843.89 -826.528 4030
-2834.26 -826.528 4030
-2824.62 -826.528 4030
-2814.98 -826.528 4030
-2798.39 -824.477 4020
-2781.84 -822.426 4010
-2772.25 -822.426 4010
-2736.48 -814.632 3972
-2713.93 -810.736 3953
-2717.48 -814.632 3972
-2720.94 -818.529 3991
-2711.39 -818.529 3991
-2708.62 -820.58 4001
-2699.05 -820.58 4001
-2689.48 -820.58 4001
-2679.92 -820.58 4001
-2663.67 -818.529 3991
-2654.13 -818.529 3991
-2644.59 -818.529 3991
-1358.2 -786.534 3835
-1355.36 -790.226 3853
-1346.15 -790.226 3853
-1336.94 -790.226 3853
-1330.82 -792.072 3862
-1324.67 -793.918 3871
-1315.41 -793.918 3871
-1315.26 -799.455 3898
-1314.99 -804.993 3925
-1308.93 -807.044 3935
-1299.52 -807.044 3935
-1296.01 -810.736 3953
-1286.56 -810.736 3953
-1277.11 -810.736 3953
-1258.67 -804.993 3925
-1243.56 -801.301 3907
-1228.53 -797.609 3889
-1219.23 -797.609 3889
-1209.93 -797.609 3889
-1189.52 -790.226 3853
-1177.55 -788.38 3844
-143.234 -453.257 2210
-137.949 -453.257 2210
-132.665 -453.257 2210
-127.38 -453.257 2210
-122.095 -453.257 2210
-116.176 -450.796 2198
-109.356 -444.438 2167
-104.029 -443.823 2164
-98.8546 -443.823 2164
-93.5499 -443.208 2161
-88.2596 -442.592 2158
-82.7911 -440.952 2150
-77.6498 -440.952 2150
-72.4074 -440.336 2147
-67.1166 -439.311 2142
-61.9076 -438.695 2139
-56.7926 -438.695 2139
-51.2669 -435.209 2122
-45.9748 -433.158 2112
-40.8663 -432.543 2109
-35.7381 -431.517 2104
-30.7068 -431.517 2104
-25.6755 -431.517 2104
-20.6147 -430.902 2101
-15.5535 -429.876 2096
-10.5413 -429.876 2096
-5.51598 -428.851 2091
-0.513796 -427.21 2083
4.46729 -427.21 2083
9.44837 -427.21 2083
14.4087 -426.595 2080
19.3639 -426.185 2078
24.2628 -424.954 2072
29.2176 -424.954 2072
34.0899 -423.929 2067
38.9383 -422.903 2062
43.7203 -421.468 2055
48.6344 -421.468 2055
53.3922 -420.237 2049
58.1497 -419.212 2044
62.8833 -418.186 2039
67.593 -417.161 2034
72.4569 -417.161 2034
77.1688 -416.34 2030
81.8211 -415.315 2025
86.4495 -414.289 2020
91.28 -414.289 2020
95.8725 -413.264 2015
100.691 -413.264 2015
105.352 -412.649 2012
110.328 -413.264 2015
115.146 -413.264 2015
119.965 -413.264 2015
124.783 -413.264 2015
129.923 -414.289 2020
134.754 -414.289 2020
139.722 -414.7 2022
145.13 -416.34 2030
150.132 -416.75 2032
154.991 -416.75 2032
159.85 -416.75 2032
165.52 -418.801 2042
170.57 -419.212 2044
175.457 -419.212 2044
180.61 -419.827 2047
186.411 -421.878 2057
192.725 -424.954 2072
197.68 -424.954 2072
203.222 -426.185 2078
208.892 -427.62 2085
213.878 -427.62 2085
218.864 -427.62 2085
485.376 -772.383 3766
494.382 -772.383 3766
503.387 -772.383 3766
512.393 -772.383 3766
515.584 -763.769 3724
520.968 -758.642 3699
529.813 -758.642 3699
537.494 -757.001 3691
546.32 -757.001 3691
555.146 -757.001 3691
572.835 -768.896 3749
581.8 -768.896 3749
590.765 -768.896 3749
599.73 -768.896 3749
608.695 -768.896 3749
617.66 -768.896 3749
629.466 -772.383 3766
638.472 -772.383 3766
647.478 -772.383 3766
656.483 -772.383 3766
665.489 -772.383 3766
672.883 -770.537 3757
681.867 -770.537 3757
690.851 -770.537 3757
699.835 -770.537 3757
710.517 -772.383 3766
724.49 -777.715 3792
736.847 -781.202 3809
745.955 -781.202 3809
763.786 -790.226 3853
780.222 -797.609 3889
789.522 -797.609 3889
798.822 -797.609 3889
793.368 -783.048 3818
797.033 -777.715 3792
806.101 -777.715 3792
809.579 -772.383 3766
812.934 -767.051 3740
816.603 -762.128 3716
825.489 -762.128 3716
826.965 -755.36 3683
833.957 -753.719 3675
855.816 -765.41 3732
872.619 -772.383 3766
881.625 -772.383 3766
890.63 -772.383 3766
899.636 -772.383 3766
908.641 -772.383 3766
1346.2 -750.233 3658
1361.24 -753.719 3675
1378.97 -758.642 3699
1387.82 -758.642 3699
1396.67 -758.642 3699
1405.51 -758.642 3699
1414.36 -758.642 3699
1420.12 -757.001 3691
1419.66 -752.079 3667
1434.66 -755.36 3683
1443.47 -755.36 3683
1455.43 -757.001 3691
1464.26 -757.001 3691
1476.27 -758.642 3699
1485.12 -758.642 3699
1493.97 -758.642 3699
1502.81 -758.642 3699
1511.66 -758.642 3699
1520.5 -758.642 3699
1529.35 -758.642 3699
1531.54 -755.36 3683
1516.93 -743.875 3627
1522.23 -742.234 3619
1530.89 -742.234 3619
1539.54 -742.234 3619
-2894.52 -814.847 4020
-2884.9 -814.847 4020
-2875.29 -814.847 4020
-2852.13 -810.996 4001
-2842.57 -810.996 4001
-2833 -810.996 4001
-2816.37 -808.969 3991
-2806.83 -808.969 3991
-2797.29 -808.969 3991
-2787.74 -808.969 3991
-2778.2 -808.969 3991
-2768.65 -808.969 3991
-2759.11 -808.969 3991
-2723.39 -801.266 3953
-2694.71 -795.591 3925
-2704.48 -801.266 3953
-2701.85 -803.293 3963
-2692.37 -803.293 3963
-2682.89 -803.293 3963
-2673.42 -803.293 3963
-2676.71 -807.144 3982
-2667.19 -807.144 3982
-2663.67 -808.969 3991
-2654.13 -808.969 3991
-2644.59 -808.969 3991
-1358.2 -777.348 3835
-1352.2 -779.172 3844
-1343 -779.172 3844
-1336.94 -780.996 3853
-1330.82 -782.821 3862
-1324.67 -784.645 3871
-1315.41 -784.645 3871
-1315.26 -790.118 3898
-1314.99 -795.591 3925
-1308.93 -797.617 3935
-1299.52 -797.617 3935
-1296.01 -801.266 3953
-1286.56 -801.266 3953
-1277.11 -801.266 3953
-1258.67 -795.591 3925
-1243.56 -791.942 3907
-1222.84 -784.645 3871
-1213.59 -784.645 3871
-1204.33 -784.645 3871
-1183.96 -777.348 3835
-1164.07 -770.253 3800
-1144.65 -763.362 3766
-1135.64 -763.362 3766
-143.234 -447.963 2210
-137.949 -447.963 2210
-132.665 -447.963 2210
-127.38 -447.963 2210
-122.095 -447.963 2210
-116.176 -445.531 2198
-109.456 -439.652 2169
-104.174 -439.247 2167
-98.9916 -439.247 2167
-93.5499 -438.031 2161
-88.3823 -438.031 2161
-82.7911 -435.801 2150
-77.6498 -435.801 2150
-72.5085 -435.801 2150
-67.1792 -434.585 2144
-61.9076 -433.572 2139
-56.7926 -433.572 2139
-51.3393 -430.734 2125
-46.0184 -428.504 2114
-40.9244 -428.099 2112
-35.7721 -426.882 2106
-30.736 -426.882 2106
-25.6389 -425.869 2101
-20.6147 -425.869 2101
-15.5535 -424.855 2096
-10.5413 -424.855 2096
-5.51598 -423.842 2091
-0.513796 -422.22 2083
4.46729 -422.22 2083
9.44837 -422.22 2083
14.4295 -422.22 2083
19.3639 -421.207 2078
24.2979 -420.599 2075
29.2599 -420.599 2075
34.1394 -419.585 2070
39.0327 -418.977 2067
43.7628 -416.95 2057
48.6817 -416.95 2057
53.4703 -415.937 2052
58.292 -415.329 2049
62.8833 -413.302 2039
67.6927 -412.896 2037
72.5638 -412.896 2037
77.1688 -411.477 2030
82.0231 -411.477 2030
86.5351 -409.856 2022
91.3703 -409.856 2022
95.9677 -408.842 2017
100.691 -408.437 2015
105.509 -408.437 2015
110.328 -408.437 2015
115.146 -408.437 2015
119.965 -408.437 2015
125.093 -409.45 2020
129.923 -409.45 2020
134.754 -409.45 2020
139.93 -410.464 2025
145.273 -411.883 2032
150.28 -412.288 2034
155.143 -412.288 2034
160.007 -412.288 2034
165.682 -414.315 2044
170.987 -415.329 2049
175.887 -415.329 2049
181.316 -416.545 2055
186.683 -417.558 2060
193.004 -420.599 2075
197.966 -420.599 2075
203.711 -422.22 2083
209.694 -424.247 2093
215.212 -425.261 2098
220.228 -425.261 2098
225.245 -425.261 2098
485.376 -763.362 3766
494.382 -763.362 3766
503.387 -763.362 3766
512.393 -763.362 3766
515.584 -754.848 3724
520.968 -749.781 3699
529.813 -749.781 3699
535.164 -744.916 3675
543.952 -744.916 3675
556.35 -749.781 3699
574.057 -761.537 3757
583.041 -761.537 3757
592.026 -761.537 3757
602.449 -763.362 3766
612.754 -764.983 3774
621.779 -764.983 3774
633.812 -768.632 3792
642.88 -768.632 3792
651.948 -768.632 3792
659.447 -766.807 3783
668.493 -766.807 3783
677.539 -766.807 3783
686.586 -766.807 3783
690.851 -761.537 3757
699.835 -761.537 3757
713.725 -766.807 3783
724.49 -768.632 3792
738.588 -773.902 3818
747.718 -773.902 3818
763.786 -780.996 3853
780.222 -788.293 3889
789.522 -788.293 3889
798.822 -788.293 3889
793.368 -773.902 3818
797.033 -768.632 3792
806.101 -768.632 3792
809.579 -763.362 3766
812.934 -758.091 3740
816.603 -753.227 3716
825.489 -753.227 3716
826.965 -746.538 3683
835.773 -746.538 3683
857.651 -758.091 3740
872.619 -763.362 3766
881.625 -763.362 3766
890.63 -763.362 3766
899.636 -763.362 3766
908.641 -763.362 3766
1346.2 -741.47 3658
1361.24 -744.916 3675
1378.97 -749.781 3699
1387.82 -749.781 3699
1396.67 -749.781 3699
1405.51 -749.781 3699
1414.36 -749.781 3699
1420.12 -748.159 3691
1419.66 -743.294 3667
1434.66 -746.538 3683
1443.47 -746.538 3683
1455.43 -748.159 3691
1464.26 -748.159 3691
1473.08 -748.159 3691
1481.91 -748.159 3691
1490.73 -748.159 3691
1499.56 -748.159 3691
1508.39 -748.159 3691
1517.21 -748.159 3691
1526.04 -748.159 3691
1531.54 -746.538 3683
1513.58 -733.565 3619
1522.23 -733.565 3619
1530.89 -733.565 3619
1536.14 -731.943 3611
-2887.32 -803.214 4010
-2877.73 -803.214 4010
-2868.14 -803.214 4010
-2852.13 -801.411 4001
-2842.57 -801.411 4001
-2819.54 -797.605 3982
-2802.97 -795.602 3972
-2793.47 -795.602 3972
-2790.98 -797.605 3982
-2781.46 -797.605 3982
-2771.93 -797.605 3982
-2762.41 -797.605 3982
-2752.89 -797.605 3982
-2710.99 -788.191 3935
-2663.82 -777.174 3880
-2679.17 -784.385 3916
-2701.85 -793.8 3963
-2692.37 -793.8 3963
-2682.89 -793.8 3963
-2673.42 -793.8 3963
-2663.94 -793.8 3963
-2654.46 -793.8 3963
-2657.67 -797.605 3982
-2648.15 -797.605 3982
-2638.62 -797.605 3982
-1358.2 -768.161 3835
-1349.03 -768.161 3835
-1339.86 -768.161 3835
-1333.81 -769.964 3844
-1330.82 -773.569 3862
-1324.67 -775.372 3871
-1315.41 -775.372 3871
-1315.26 -780.78 3898
-1314.99 -786.188 3925
-1308.93 -788.191 3935
-1299.52 -788.191 3935
-1290.11 -788.191 3935
-1280.7 -788.191 3935
-1271.29 -788.191 3935
-1258.67 -786.188 3925
-1237.83 -778.977 3889
-1217.16 -771.766 3853
-1202.3 -768.161 3835
-1193.13 -768.161 3835
-1173.15 -761.15 3800
-1164.07 -761.15 3800
-1144.65 -754.34 3766
-1135.64 -754.34 3766
-143.234 -442.669 2210
-137.949 -442.669 2210
-132.665 -442.669 2210
-127.38 -442.669 2210
-122.095 -442.669 2210
-116.176 -440.265 2198
-109.456 -434.457 2169
-104.174 -434.056 2167
-98.9916 -434.056 2167
-93.5499 -432.854 2161
-88.3823 -432.854 2161
-82.7911 -430.651 2150
-77.6498 -430.651 2150
-72.5085 -430.651 2150
-67.1792 -429.449 2144
-61.9944 -429.048 2142
-56.8722 -429.048 2142
-51.3393 -425.643 2125
-46.0184 -423.44 2114
-40.9244 -423.039 2112
-35.7721 -421.838 2106
-30.736 -421.838 2106
-25.6389 -420.836 2101
-20.6147 -420.836 2101
-15.5535 -419.835 2096
-10.5413 -419.835 2096
-5.51598 -418.833 2091
-0.514289 -417.631 2085
4.47158 -417.631 2085
9.45744 -417.631 2085
14.4295 -417.231 2083
19.3826 -416.63 2080
24.2979 -415.628 2075
29.2599 -415.628 2075
34.1394 -414.627 2070
39.0327 -414.026 2067
43.7628 -412.023 2057
48.6817 -412.023 2057
53.5485 -411.622 2055
58.3773 -411.021 2052
62.8833 -408.417 2039
67.6927 -408.017 2037
72.5638 -408.017 2037
77.2448 -407.015 2032
82.0231 -406.615 2030
86.6635 -405.613 2025
91.5059 -405.613 2025
96.1104 -404.611 2020
100.791 -404.011 2017
105.509 -403.61 2015
110.437 -404.011 2017
115.261 -404.011 2017
120.084 -404.011 2017
125.093 -404.611 2020
130.052 -405.012 2022
134.887 -405.012 2022
140.068 -406.014 2027
145.416 -407.416 2034
150.28 -407.416 2034
155.143 -407.416 2034
160.007 -407.416 2034
165.682 -409.419 2044
171.237 -411.021 2052
176.144 -411.021 2052
181.316 -411.622 2055
186.683 -412.624 2060
193.004 -415.628 2075
197.966 -415.628 2075
203.711 -417.231 2083
209.694 -419.234 2093
215.212 -420.235 2098
220.228 -420.235 2098
225.245 -420.235 2098
485.376 -754.34 3766
494.382 -754.34 3766
503.387 -754.34 3766
512.393 -754.34 3766
515.584 -745.927 3724
520.968 -740.92 3699
529.813 -740.92 3699
535.164 -736.112 3675
543.952 -736.112 3675
556.35 -740.92 3699
578.03 -757.745 3783
587.076 -757.745 3783
596.123 -757.745 3783
605.169 -757.745 3783
616.975 -761.15 3800
626.062 -761.15 3800
636.654 -762.953 3809
645.762 -762.953 3809
654.871 -762.953 3809
662.41 -761.15 3800
671.497 -761.15 3800
680.584 -761.15 3800
689.671 -761.15 3800
693.977 -755.942 3774
699.835 -752.537 3757
713.725 -757.745 3783
724.49 -759.548 3792
738.588 -764.756 3818
747.718 -764.756 3818
763.786 -771.766 3853
780.222 -778.977 3889
789.522 -778.977 3889
798.822 -778.977 3889
793.368 -764.756 3818
797.033 -759.548 3792
806.101 -759.548 3792
809.579 -754.34 3766
812.934 -749.132 3740
816.603 -744.325 3716
825.489 -744.325 3716
826.965 -737.715 3683
835.773 -737.715 3683
857.651 -749.132 3740
872.619 -754.34 3766
881.625 -754.34 3766
890.63 -754.34 3766
899.636 -754.34 3766
908.641 -754.34 3766
1346.2 -732.707 3658
1361.24 -736.112 3675
1378.97 -740.92 3699
1387.82 -740.92 3699
1396.67 -740.92 3699
1405.51 -740.92 3699
1414.36 -740.92 3699
1420.12 -739.317 3691
1419.66 -734.51 3667
1434.66 -737.715 3683
1443.47 -737.715 3683
1455.43 -739.317 3691
1464.26 -739.317 3691
1473.08 -739.317 3691
1481.91 -739.317 3691
1490.73 -739.317 3691
1499.56 -739.317 3691
1508.39 -739.317 3691
1517.21 -739.317 3691
1526.04 -739.317 3691
1531.54 -737.715 3683
1513.58 -724.896 3619
1522.23 -724.896 3619
1530.89 -724.896 3619
1536.14 -723.293 3611
-2887.32 -793.608 4010
-2877.73 -793.608 4010
-2868.14 -793.608 4010
-2852.13 -791.827 4001
-2842.57 -791.827 4001
-2819.54 -788.066 3982
-2802.97 -786.087 3972
-2793.47 -786.087 3972
-2790.98 -788.066 3982
-2781.46 -788.066 3982
-2771.93 -788.066 3982
-2762.41 -788.066 3982
-2752.89 -788.066 3982
-2710.99 -778.765 3935
-2663.82 -767.88 3880
-2679.17 -775.005 3916
-2701.85 -784.306 3963
-2692.37 -784.306 3963
-2682.89 -784.306 3963
-2673.42 -784.306 3963
-2663.94 -784.306 3963
-2654.46 -784.306 3963
-2657.67 -788.066 3982
-2648.15 -788.066 3982
-2638.62 -788.066 3982
-1358.2 -758.974 3835
-1349.03 -758.974 3835
-1339.86 -758.974 3835
-1333.81 -760.755 3844
-1330.82 -764.318 3862
-1324.67 -766.099 3871
-1315.41 -766.099 3871
-1315.26 -771.442 3898
-1314.99 -776.786 3925
-1308.93 -778.765 3935
-1299.52 -778.765 3935
-1290.11 -778.765 3935
-1280.7 -778.765 3935
-1271.29 -778.765 3935
-1258.67 -776.786 3925
-1237.83 -769.661 3889
-1217.16 -762.536 3853
-1202.3 -758.974 3835
-1193.13 -758.974 3835
-1173.15 -752.047 3800
-1164.07 -752.047 3800
-1144.65 -745.319 3766
-1135.64 -745.319 3766
-143.234 -437.375 2210
-137.949 -437.375 2210
-132.665 -437.375 2210
-127.38 -437.375 2210
-122.095 -437.375 2210
-116.176 -435 2198
-109.456 -429.261 2169
-104.174 -428.865 2167
-98.9916 -428.865 2167
-93.5499 -427.677 2161
-88.3823 -427.677 2161
-82.7911 -425.5 2150
-77.6498 -425.5 2150
-72.5085 -425.5 2150
-67.1792 -424.313 2144
-61.9944 -423.917 2142
-56.8722 -423.917 2142
-51.3393 -420.553 2125
-46.0184 -418.376 2114
-40.9244 -417.98 2112
-35.7721 -416.793 2106
-30.736 -416.793 2106
-25.6389 -415.803 2101
-20.6147 -415.803 2101
-15.5313 -414.22 2093
-10.5263 -414.22 2093
-5.51598 -413.824 2091
-0.514289 -412.637 2085
4.47158 -412.637 2085
9.45744 -412.637 2085
14.4295 -412.241 2083
19.3826 -411.647 2080
24.2979 -410.657 2075
29.2599 -410.657 2075
34.1394 -409.668 2070
39.0327 -409.074 2067
43.7628 -407.095 2057
48.6817 -407.095 2057
53.5485 -406.699 2055
58.3773 -406.106 2052
62.8833 -403.533 2039
67.6927 -403.137 2037
72.5638 -403.137 2037
77.2448 -402.147 2032
82.0231 -401.752 2030
86.6635 -400.762 2025
91.5059 -400.762 2025
96.1104 -399.773 2020
100.791 -399.179 2017
105.509 -398.783 2015
110.437 -399.179 2017
115.261 -399.179 2017
120.084 -399.179 2017
125.093 -399.773 2020
130.052 -400.168 2022
134.887 -400.168 2022
140.068 -401.158 2027
145.416 -402.543 2034
150.28 -402.543 2034
155.143 -402.543 2034
160.007 -402.543 2034
165.682 -404.522 2044
171.237 -406.106 2052
176.144 -406.106 2052
181.316 -406.699 2055
186.683 -407.689 2060
193.004 -410.657 2075
197.966 -410.657 2075
203.711 -412.241 2083
209.694 -414.22 2093
215.212 -415.209 2098
220.228 -415.209 2098
225.245 -415.209 2098
485.376 -745.319 3766
494.382 -745.319 3766
503.387 -745.319 3766
508.855 -740.173 3740
514.476 -735.423 3716
519.841 -730.475 3691
528.668 -730.475 3691
532.688 -723.945 3658
543.952 -727.309 3675
556.35 -732.059 3699
578.03 -748.683 3783
587.076 -748.683 3783
596.123 -748.683 3783
605.169 -748.683 3783
616.975 -752.047 3800
626.062 -752.047 3800
636.654 -753.829 3809
645.762 -753.829 3809
654.871 -753.829 3809
662.41 -752.047 3800
671.497 -752.047 3800
680.584 -752.047 3800
689.671 -752.047 3800
693.977 -746.902 3774
699.835 -743.537 3757
713.725 -748.683 3783
724.49 -750.464 3792
738.588 -755.61 3818
747.718 -755.61 3818
763.786 -762.536 3853
780.222 -769.661 3889
789.522 -769.661 3889
798.822 -769.661 3889
793.368 -755.61 3818
797.033 -750.464 3792
806.101 -750.464 3792
809.579 -745.319 3766
812.934 -740.173 3740
816.603 -735.423 3716
825.489 -735.423 3716
826.965 -728.892 3683
835.773 -728.892 3683
857.651 -740.173 3740
872.619 -745.319 3766
881.625 -745.319 3766
890.63 -745.319 3766
899.636 -745.319 3766
908.641 -745.319 3766
1346.2 -723.945 3658
1358.28 -725.726 3667
1373.01 -728.892 3683
1381.82 -728.892 3683
1393.64 -730.475 3691
1402.47 -730.475 3691
1411.3 -730.475 3691
1413.97 -727.309 3675
1419.66 -725.726 3667
1431.54 -727.309 3675
1443.47 -728.892 3683
1452.27 -728.892 3683
1461.08 -728.892 3683
1469.89 -728.892 3683
1478.7 -728.892 3683
1490.73 -730.475 3691
1499.56 -730.475 3691
1508.39 -730.475 3691
1513.92 -728.892 3683
1522.73 -728.892 3683
1524.89 -725.726 3667
1513.58 -716.226 3619
1515.5 -713.06 3603
1524.12 -713.06 3603
1516.57 -705.539 3565
-2880.84 -782.242 4001
-2871.27 -782.242 4001
-2861.7 -782.242 4001
-2852.13 -782.242 4001
-2842.57 -782.242 4001
-2812.46 -776.572 3972
-2802.97 -776.572 3972
-2793.47 -776.572 3972
-2790.98 -778.528 3982
-2781.46 -778.528 3982
-2771.93 -778.528 3982
-2762.41 -778.528 3982
-2752.89 -778.528 3982
-2710.99 -769.339 3935
-2663.82 -758.585 3880
-2679.17 -765.624 3916
-2695.03 -772.858 3953
-2685.58 -772.858 3953
-2676.12 -772.858 3953
-2666.67 -772.858 3953
-2657.22 -772.858 3953
-2641.74 -771.098 3944
-2632.31 -771.098 3944
-2622.87 -771.098 3944
-2613.44 -771.098 3944
-1355.01 -748.028 3826
-1349.03 -749.787 3835
-1339.86 -749.787 3835
-1333.81 -751.547 3844
-1330.82 -755.066 3862
-1324.67 -756.826 3871
-1315.41 -756.826 3871
-1309.19 -758.585 3880
-1314.99 -767.383 3925
-1308.93 -769.339 3935
-1299.52 -769.339 3935
-1290.11 -769.339 3935
-1280.7 -769.339 3935
-1271.29 -769.339 3935
-1238.47 -755.066 3862
-1229.24 -755.066 3862
-1211.47 -749.787 3835
-1202.3 -749.787 3835
-1193.13 -749.787 3835
-1173.15 -742.944 3800
-1153.65 -736.297 3766
-1141.91 -734.537 3757
-1132.93 -734.537 3757
-143.234 -432.081 2210
-137.949 -432.081 2210
-132.665 -432.081 2210
-127.38 -432.081 2210
-122.095 -432.081 2210
-116.176 -429.735 2198
-109.456 -424.065 2169
-104.174 -423.674 2167
-98.9916 -423.674 2167
-93.5499 -422.501 2161
-88.3823 -422.501 2161
-82.7911 -420.35 2150
-77.6498 -420.35 2150
-72.5085 -420.35 2150
-67.1792 -419.177 2144
-61.9944 -418.786 2142
-56.8722 -418.786 2142
-51.3393 -415.462 2125
-46.0837 -413.898 2117
-40.9244 -412.921 2112
-35.7721 -411.748 2106
-30.736 -411.748 2106
-25.6755 -411.357 2104
-20.5853 -410.184 2098
-15.5313 -409.206 2093
-10.5263 -409.206 2093
-5.51598 -408.815 2091
-0.515029 -408.228 2088
4.47158 -407.642 2085
9.45744 -407.642 2085
14.4295 -407.251 2083
19.3826 -406.664 2080
24.2979 -405.687 2075
29.2599 -405.687 2075
34.1724 -405.1 2072
38.995 -403.732 2065
43.8266 -402.754 2060
48.7527 -402.754 2060
53.5485 -401.777 2055
58.3773 -401.19 2052
62.9758 -399.235 2042
67.6927 -398.257 2037
72.5638 -398.257 2037
77.2448 -397.28 2032
82.0231 -396.889 2030
86.6635 -395.911 2025
91.5059 -395.911 2025
96.1104 -394.934 2020
100.791 -394.347 2017
105.509 -393.956 2015
110.437 -394.347 2017
115.261 -394.347 2017
120.263 -394.934 2020
125.093 -394.934 2020
130.245 -395.911 2025
135.087 -395.911 2025
140.068 -396.302 2027
145.416 -397.671 2034
150.28 -397.671 2034
155.143 -397.671 2034
160.007 -397.671 2034
165.682 -399.626 2044
171.237 -401.19 2052
176.144 -401.19 2052
181.316 -401.777 2055
186.683 -402.754 2060
193.004 -405.687 2075
197.966 -405.687 2075
203.906 -407.642 2085
210.195 -410.184 2098
215.519 -410.77 2101
220.543 -410.77 2101
225.568 -410.77 2101
465.255 -732.973 3749
474.22 -732.973 3749
485.376 -736.297 3766
494.382 -736.297 3766
503.387 -736.297 3766
508.855 -731.214 3740
514.476 -726.521 3716
519.841 -721.634 3691
528.668 -721.634 3691
533.999 -716.941 3667
546.32 -721.634 3691
557.553 -724.762 3707
578.03 -739.621 3783
587.076 -739.621 3783
596.123 -739.621 3783
605.169 -739.621 3783
616.975 -742.944 3800
626.062 -742.944 3800
636.654 -744.704 3809
645.762 -744.704 3809
654.871 -744.704 3809
662.41 -742.944 3800
671.497 -742.944 3800
680.584 -742.944 3800
689.671 -742.944 3800
695.632 -739.621 3783
701.512 -736.297 3766
710.517 -736.297 3766
721.051 -737.861 3774
735.106 -742.944 3800
744.193 -742.944 3800
753.28 -742.944 3800
762.367 -742.944 3800
771.454 -742.944 3800
780.541 -742.944 3800
787.965 -741.38 3792
795.141 -739.621 3783
804.188 -739.621 3783
803.99 -731.214 3740
809.456 -728.086 3724
812.867 -723.198 3699
821.713 -723.198 3699
826.965 -720.07 3683
830.099 -715.182 3658
855.816 -729.65 3732
866.594 -731.214 3740
875.538 -731.214 3740
886.61 -732.973 3749
895.575 -732.973 3749
904.54 -732.973 3749
1322.89 -712.054 3642
1331.6 -712.054 3642
1346.2 -715.182 3658
1354.94 -715.182 3658
1370.03 -718.505 3675
1378.82 -718.505 3675
1387.6 -718.505 3675
1396.39 -718.505 3675
1405.18 -718.505 3675
1410.89 -716.941 3667
1416.17 -715.182 3658
1428.43 -716.941 3667
1437.2 -716.941 3667
1445.97 -716.941 3667
1454.73 -716.941 3667
1459.91 -715.182 3658
1468.66 -715.182 3658
1477.41 -715.182 3658
1486.15 -715.182 3658
1494.9 -715.182 3658
1503.65 -715.182 3658
1512.4 -715.182 3658
1514.49 -712.054 3642
1513.58 -707.557 3619
1512.14 -702.865 3595
1520.74 -702.865 3595
1519.55 -698.368 3572
-2880.84 -772.658 4001
-2871.27 -772.658 4001
-2861.7 -772.658 4001
-2838.59 -768.989 3982
-2829.07 -768.989 3982
-2812.46 -767.057 3972
-2802.97 -767.057 3972
-2793.47 -767.057 3972
-2790.98 -768.989 3982
-2781.46 -768.989 3982
-2771.93 -768.989 3982
-2762.41 -768.989 3982
-2752.89 -768.989 3982
-2710.99 -759.912 3935
-2663.82 -749.291 3880
-2660.7 -751.029 3889
-2682.76 -759.912 3935
-2673.35 -759.912 3935
-2663.94 -759.912 3935
-2654.53 -759.912 3935
-2645.12 -759.912 3935
-2629.01 -757.981 3925
-2607.61 -754.505 3907
-2598.27 -754.505 3907
-2588.93 -754.505 3907
-1342.97 -732.297 3792
-1345.87 -738.863 3826
-1336.72 -738.863 3826
-1327.57 -738.863 3826
-1315.66 -737.318 3818
-1309.27 -738.863 3826
-1300.12 -738.863 3826
-1290.97 -738.863 3826
-1290.87 -744.077 3853
-1281.65 -744.077 3853
-1275.41 -745.815 3862
-1266.18 -745.815 3862
-1256.94 -745.815 3862
-1238.98 -740.601 3835
-1229.81 -740.601 3835
-1217.78 -738.863 3826
-1200.41 -733.841 3800
-1191.33 -733.841 3800
-1182.24 -733.841 3800
-1162.66 -727.276 3766
-1150.89 -725.538 3757
-1141.91 -725.538 3757
-1132.93 -725.538 3757
-143.234 -426.787 2210
-137.949 -426.787 2210
-132.665 -426.787 2210
-127.034 -425.628 2204
-121.764 -425.628 2204
-115.859 -423.311 2192
-109.456 -418.869 2169
-104.174 -418.483 2167
-98.9916 -418.483 2167
-93.5499 -417.324 2161
-88.3823 -417.324 2161
-82.7911 -415.2 2150
-77.6498 -415.2 2150
-72.4074 -414.62 2147
-67.1792 -414.041 2144
-61.9944 -413.655 2142
-56.8722 -413.655 2142
-51.3393 -410.372 2125
-46.0837 -408.827 2117
-40.9244 -407.861 2112
-35.7721 -406.703 2106
-30.736 -406.703 2106
-25.6755 -406.316 2104
-20.5853 -405.158 2098
-15.5535 -404.772 2096
-10.5413 -404.772 2096
-5.51598 -403.806 2091
-0.515029 -403.227 2088
4.47801 -403.227 2088
9.47105 -403.227 2088
14.4433 -402.647 2085
19.4105 -402.261 2083
24.3331 -401.295 2078
29.3022 -401.295 2078
34.2219 -400.716 2075
39.0327 -399.171 2067
43.8692 -398.206 2062
48.8001 -398.206 2062
53.5485 -396.854 2055
58.3773 -396.274 2052
63.0375 -394.729 2044
67.7592 -393.764 2039
72.6351 -393.764 2039
77.2448 -392.412 2032
82.104 -392.412 2032
86.6635 -391.06 2025
91.5059 -391.06 2025
96.1104 -390.095 2020
100.941 -390.095 2020
105.509 -389.129 2015
110.437 -389.515 2017
115.261 -389.515 2017
120.263 -390.095 2020
125.217 -390.481 2022
130.245 -391.06 2025
135.087 -391.06 2025
140.275 -392.026 2030
145.416 -392.798 2034
150.28 -392.798 2034
155.143 -392.798 2034
160.007 -392.798 2034
165.52 -394.343 2042
171.237 -396.274 2052
176.144 -396.274 2052
181.051 -396.274 2052
186.683 -397.819 2060
193.004 -400.716 2075
197.966 -400.716 2075
203.906 -402.647 2085
210.195 -405.158 2098
215.519 -405.737 2101
220.543 -405.737 2101
225.568 -405.737 2101
465.255 -723.993 3749
474.22 -723.993 3749
483.185 -723.993 3749
490.969 -722.255 3740
499.912 -722.255 3740
507.767 -720.71 3732
513.23 -715.882 3707
520.968 -714.337 3699
529.813 -714.337 3699
535.164 -709.702 3675
547.504 -714.337 3699
558.907 -717.62 3716
574.057 -725.538 3757
583.041 -725.538 3757
594.704 -728.82 3774
605.169 -730.559 3783
616.975 -733.841 3800
626.062 -733.841 3800
638.158 -737.318 3818
647.288 -737.318 3818
656.418 -737.318 3818
662.41 -733.841 3800
671.497 -733.841 3800
680.584 -733.841 3800
689.671 -733.841 3800
698.758 -733.841 3800
703.002 -728.82 3774
712.027 -728.82 3774
722.771 -730.559 3783
735.106 -733.841 3800
744.193 -733.841 3800
753.28 -733.841 3800
764.172 -735.58 3809
773.281 -735.58 3809
782.389 -735.58 3809
789.628 -733.841 3800
795.141 -730.559 3783
804.188 -730.559 3783
805.925 -723.993 3749
811.195 -720.71 3732
812.867 -714.337 3699
821.713 -714.337 3699
826.965 -711.247 3683
832.142 -708.157 3667
846.414 -712.792 3691
864.741 -720.71 3732
873.665 -720.71 3732
886.61 -723.993 3749
897.486 -725.538 3757
910.572 -728.82 3774
919.596 -728.82 3774
928.621 -728.82 3774
939.882 -730.559 3783
948.928 -730.559 3783
957.975 -730.559 3783
998.606 -720.71 3732
1007.53 -720.71 3732
1016.45 -720.71 3732
1025.38 -720.71 3732
1020.72 -711.247 3683
1029.53 -711.247 3683
1038.34 -711.247 3683
1026.67 -697.343 3611
1028.71 -692.901 3588
1030.65 -688.459 3565
1043.54 -691.356 3580
1056.51 -694.253 3595
1065.11 -694.253 3595
1073.71 -694.253 3595
1082.3 -694.253 3595
1090.9 -694.253 3595
1283.25 -691.356 3580
1294.69 -692.901 3588
1322.89 -703.329 3642
1331.6 -703.329 3642
1343.25 -704.874 3650
1354.94 -706.419 3658
1363.69 -706.419 3658
1372.44 -706.419 3658
1384.58 -708.157 3667
1393.35 -708.157 3667
1402.12 -708.157 3667
1407.43 -706.419 3658
1416.17 -706.419 3658
1424.92 -706.419 3658
1433.67 -706.419 3658
1442.42 -706.419 3658
1451.16 -706.419 3658
1453.53 -703.329 3642
1465.45 -704.874 3650
1474.18 -704.874 3650
1482.9 -704.874 3650
1491.63 -704.874 3650
1500.36 -704.874 3650
1509.09 -704.874 3650
1517.82 -704.874 3650
1516.93 -700.432 3627
1525.6 -700.432 3627
1534.27 -700.432 3627
1542.94 -700.432 3627
-2846.27 -753.919 3953
-2836.82 -753.919 3953
-2840.96 -757.543 3972
-2831.46 -757.543 3972
-2821.96 -757.543 3972
-2812.46 -757.543 3972
-2796.61 -755.826 3963
-2787.14 -755.826 3963
-2777.66 -755.826 3963
-2768.18 -755.826 3963
-2758.71 -755.826 3963
-2742.29 -753.919 3953
-2732.84 -753.919 3953
-2697.9 -746.862 3916
-2663.82 -739.996 3880
-2654.54 -739.996 3880
-2669.8 -746.862 3916
-2660.44 -746.862 3916
-2651.07 -746.862 3916
-2641.71 -746.862 3916
-2632.35 -746.862 3916
-2604.9 -741.713 3889
-2589.59 -739.996 3880
-2580.31 -739.996 3880
-2571.03 -739.996 3880
-2561.76 -739.996 3880
-1330.74 -721.496 3783
-1321.69 -721.496 3783
-1312.65 -721.496 3783
-1303.6 -721.496 3783
-1306.53 -728.172 3818
-1297.4 -728.172 3818
-1288.27 -728.172 3818
-1281.82 -729.697 3826
-1272.67 -729.697 3826
-1266.5 -731.414 3835
-1257.32 -731.414 3835
-1248.15 -731.414 3835
-1225.09 -723.213 3792
-1216.02 -723.213 3792
-1206.96 -723.213 3792
-1195.04 -721.496 3783
-1183.18 -719.78 3774
-1174.15 -719.78 3774
-1162.66 -718.254 3766
-1150.89 -716.538 3757
-143.234 -421.493 2210
-137.949 -421.493 2210
-132.665 -421.493 2210
-127.034 -420.348 2204
-121.764 -420.348 2204
-115.859 -418.06 2192
