ply
format ascii 1.0
comment File generated
element vertex 2265
property float x
property float y
property float z
end_header
202.585 80.2651 2178
207.793 80.2651 2178
213.295 80.3757 2181
219.011 80.5599 2186
224.546 80.6705 2189
229.781 80.6705 2189
235.337 80.781 2192
241.567 81.1127 2201
247.503 81.3338 2207
252.781 81.3338 2207
258.76 81.5549 2213
265.364 81.9603 2224
271.413 82.1814 2230
276.745 82.1814 2230
282.078 82.1814 2230
287.411 82.1814 2230
292.743 82.1814 2230
298.076 82.1814 2230
303.408 82.1814 2230
308.741 82.1814 2230
314.074 82.1814 2230
433.082 109.6 2974
440.194 109.6 2974
447.306 109.6 2974
453.501 109.379 2968
460.598 109.379 2968
466.908 109.194 2963
473.193 109.01 2958
478.481 108.605 2947
485.528 108.605 2947
492.575 108.605 2947
499.622 108.605 2947
506.669 108.605 2947
511.102 108.052 2932
518.113 108.052 2932
524.229 107.868 2927
531.228 107.868 2927
538.228 107.868 2927
545.227 107.868 2927
551.283 107.683 2922
558.27 107.683 2922
565.258 107.683 2922
572.245 107.683 2922
578.241 107.499 2917
584.013 107.278 2911
590.974 107.278 2911
597.935 107.278 2911
603.857 107.094 2906
610.806 107.094 2906
617.755 107.094 2906
624.705 107.094 2906
630.567 106.91 2901
637.504 106.91 2901
644.441 106.91 2901
651.378 106.91 2901
658.316 106.91 2901
665.253 106.91 2901
672.19 106.91 2901
679.127 106.91 2901
686.064 106.91 2901
693.001 106.91 2901
701.145 107.094 2906
708.094 107.094 2906
715.043 107.094 2906
721.992 107.094 2906
728.942 107.094 2906
735.891 107.094 2906
744.118 107.278 2911
751.079 107.278 2911
759.602 107.499 2917
767.892 107.683 2922
774.879 107.683 2922
781.867 107.683 2922
788.854 107.683 2922
795.841 107.683 2922
802.829 107.683 2922
811.202 107.868 2927
818.201 107.868 2927
825.201 107.868 2927
832.2 107.868 2927
839.199 107.868 2927
846.199 107.868 2927
854.655 108.052 2932
861.667 108.052 2932
868.678 108.052 2932
875.689 108.052 2932
882.701 108.052 2932
888.195 107.868 2927
895.194 107.868 2927
900.652 107.683 2922
907.64 107.683 2922
913.062 107.499 2917
921.614 107.683 2922
928.602 107.683 2922
935.589 107.683 2922
947.415 108.236 2937
956.063 108.421 2942
963.099 108.421 2942
980.686 109.6 2974
987.798 109.6 2974
994.909 109.6 2974
1002.02 109.6 2974
1437.38 147.779 4010
1446.97 147.779 4010
1456.56 147.779 4010
1455.91 146.747 3982
1431.21 143.32 3889
1433.84 142.657 3871
1443.1 142.657 3871
1448.98 142.325 3862
1448.02 141.33 3835
1443.89 140.04 3800
1452.97 140.04 3800
1445.52 138.455 3757
1447.92 137.829 3740
1434.66 135.728 3683
1443.47 135.728 3683
1439.26 134.512 3650
1444.82 134.217 3642
1444.35 133.37 3619
1434.13 131.638 3572
1442.67 131.638 3572
1432.93 129.979 3527
1426.24 128.616 3490
1422.67 127.547 3461
1430.95 127.547 3461
1424.67 126.257 3426
1418.22 124.967 3391
1420.44 124.451 3377
1428.52 124.451 3377
1416.6 122.719 3330
1419 122.24 3317
1426.93 122.24 3317
1437.46 122.461 3323
1448.45 122.719 3330
1456.41 122.719 3330
1485.05 124.451 3377
1559.44 129.979 3527
1591.44 131.933 3580
1600 131.933 3580
1612.15 132.227 3588
1638.35 133.665 3627
1668.82 135.434 3675
1677.61 135.434 3675
1697.41 136.318 3699
1752.84 140.04 3800
1761.93 140.04 3800
1771.02 140.04 3800
1780.11 140.04 3800
1781.19 139.414 3783
1790.23 139.414 3783
1791.19 138.787 3766
1780.12 137.239 3724
1765.49 135.434 3675
1774.28 135.434 3675
1763.66 133.959 3635
1756.75 132.78 3603
1746.74 131.38 3565
1736.56 129.979 3527
1744.99 129.979 3527
1724.1 127.805 3468
1693.93 124.967 3391
1681.46 123.456 3350
1689.47 123.456 3350
1673.66 121.724 3303
1658.65 120.066 3258
1637.8 118.002 3202
1626.96 116.676 3166
1634.53 116.676 3166
1638.98 116.454 3160
1637.16 115.791 3142
1635.25 115.128 3124
1652.19 115.791 3142
1659.7 115.791 3142
1667.22 115.791 3142
1674.73 115.791 3142
1682.24 115.791 3142
1680.08 115.128 3124
1684.31 114.907 3118
1670.06 113.432 3078
1677.42 113.432 3078
1684.78 113.432 3078
1682.79 112.806 3061
1671.89 111.59 3028
1651.96 109.784 2979
1659.09 109.784 2979
1648.31 108.605 2947
1644.12 107.868 2927
1639.28 107.094 2906
1646.23 107.094 2906
1647.49 106.725 2896
1642.99 105.988 2876
1644.13 105.62 2866
1650.98 105.62 2866
1657.83 105.62 2866
1659.46 105.288 2857
1663.38 105.104 2852
1661.41 104.551 2837
1668.2 104.551 2837
1672.03 104.367 2832
1676.43 104.219 2828
1680.22 104.035 2823
1686.97 104.035 2823
1690.72 103.851 2818
1694.44 103.667 2813
1701.17 103.667 2813
1705.47 103.519 2809
1712.19 103.519 2809
1718.9 103.519 2809
1719.48 103.151 2799
1726.17 103.151 2799
1732.86 103.151 2799
1733.96 102.819 2790
1737.52 102.635 2785
1741.04 102.45 2780
1747.69 102.45 2780
1751.82 102.303 2776
1755.29 102.119 2771
1761.91 102.119 2771
1768.54 102.119 2771
1772.6 101.971 2767
1779.22 101.971 2767
1782.61 101.787 2762
1789.21 101.787 2762
1795.82 101.787 2762
1802.42 101.787 2762
1809.03 101.787 2762
1812.35 101.603 2757
1818.94 101.603 2757
1822.88 101.455 2753
1829.47 101.455 2753
1832.72 101.271 2748
1839.29 101.271 2748
1839.81 100.939 2739
1846.36 100.939 2739
1852.91 100.939 2739
1859.46 100.939 2739
1866.01 100.939 2739
1869.83 100.792 2735
1876.37 100.792 2735
1879.46 100.608 2730
1885.99 100.608 2730
1892.52 100.608 2730
1896.27 100.46 2726
1899.3 100.276 2721
1905.8 100.276 2721
1912.31 100.276 2721
1916 100.129 2717
1922.49 100.129 2717
1928.99 100.129 2717
1935.49 100.129 2717
1941.98 100.129 2717
1948.48 100.129 2717
1954.98 100.129 2717
1961.48 100.129 2717
1967.97 100.129 2717
1974.47 100.129 2717
1978.05 99.9813 2713
1984.54 99.9813 2713
1991.03 99.9813 2713
1993.83 99.797 2708
2000.31 99.797 2708
2006.78 99.797 2708
2003.59 99.3179 2695
2007.06 99.1705 2691
2009.75 98.9862 2686
2016.17 98.9862 2686
2026.36 99.1705 2691
2032.8 99.1705 2691
2049.08 99.6496 2704
2058.59 99.797 2708
2074.98 100.276 2721
2081.48 100.276 2721
-2091.94 109.659 2794
-2085.26 109.659 2794
-2078.57 109.659 2794
-2071.89 109.659 2794
-2062.25 109.502 2790
-2055.58 109.502 2790
-2048.91 109.502 2790
-2034.92 109.11 2780
-2028.27 109.11 2780
-2021.62 109.11 2780
-2014.98 109.11 2780
-2001.83 108.757 2771
-1978.64 107.854 2748
-1969.2 107.697 2744
-1962.64 107.697 2744
-1939.68 106.794 2721
-1933.17 106.794 2721
-1926.66 106.794 2721
-1920.16 106.794 2721
-1901.7 106.127 2704
-1910.65 106.991 2726
-1910.42 107.344 2735
-1903.88 107.344 2735
-1897.34 107.344 2735
-1887.34 107.147 2730
-1856.7 105.774 2695
-1850.25 105.774 2695
-1843.81 105.774 2695
-1886.2 143.256 3650
-1877.48 143.256 3650
-1872.84 143.57 3658
-1864.1 143.57 3658
-1855.35 143.57 3658
-1846.6 143.57 3658
-1584.6 142.039 3619
-1575.94 142.039 3619
-1567.29 142.039 3619
-1541.84 140.508 3580
-1533.28 140.508 3580
-1486.39 136.976 3490
-1456.87 135.014 3440
-1445.69 134.739 3433
-1437.48 134.739 3433
-1420.53 133.915 3412
-1392.09 131.992 3363
-1367.58 130.422 3323
-1354.32 129.911 3310
-1346.4 129.911 3310
-1330.4 129.126 3290
-1314.89 128.381 3271
-1297.08 127.4 3246
-1289.32 127.4 3246
-1278.8 127.125 3239
-1268.7 126.889 3233
-1251.21 125.908 3208
-1243.54 125.908 3208
-1222 124.495 3172
-1207.53 123.789 3154
-1184 122.14 3112
-1176.56 122.14 3112
-1131.18 118.176 3011
-1100.09 115.664 2947
-1093.04 115.664 2947
-1090.04 116.096 2958
-1084.8 116.292 2963
-1077.72 116.292 2963
-1070.63 116.292 2963
-1061.75 116.096 2958
-1054.68 116.096 2958
-1047.6 116.096 2958
-1042.29 116.292 2963
-1036.95 116.489 2968
-1031.94 116.724 2974
-1024.82 116.724 2974
-1019.42 116.92 2979
-1014 117.117 2984
-1008.89 117.352 2990
-1001.74 117.352 2990
-994.587 117.352 2990
-987.437 117.352 2990
-983.566 117.745 3000
-976.392 117.745 3000
-969.218 117.745 3000
-956.913 117.117 2984
-949.777 117.117 2984
-942.642 117.117 2984
-933.938 116.92 2979
-925.259 116.724 2974
-918.147 116.724 2974
-909.198 116.489 2968
-900.581 116.292 2963
-891.987 116.096 2958
-884.914 116.096 2958
-877.84 116.096 2958
-870.767 116.096 2958
-862.234 115.9 2953
-855.172 115.9 2953
-846.387 115.664 2947
-837.916 115.468 2942
-829.469 115.272 2937
-819.645 114.879 2927
-812.646 114.879 2927
-805.647 114.879 2927
-798.647 114.879 2927
-791.648 114.879 2927
-784.648 114.879 2927
-777.649 114.879 2927
-771.966 115.076 2932
-764.955 115.076 2932
-759.236 115.272 2937
-752.213 115.272 2937
-746.458 115.468 2942
-739.423 115.468 2942
-732.388 115.468 2942
-725.353 115.468 2942
-717.097 115.272 2937
-710.073 115.272 2937
-703.05 115.272 2937
-696.027 115.272 2937
-689.004 115.272 2937
-681.98 115.272 2937
-676.106 115.468 2942
-669.071 115.468 2942
-662.036 115.468 2942
-653.887 115.272 2937
-646.864 115.272 2937
-637.662 114.879 2927
-631.74 115.076 2932
-624.729 115.076 2932
-617.718 115.076 2932
-610.706 115.076 2932
-602.666 114.879 2927
-290.806 82.1464 2093
-285.801 82.1464 2093
-280.796 82.1464 2093
-275.791 82.1464 2093
-270.527 82.0679 2091
-265.527 82.0679 2091
-260.527 82.0679 2091
-255.527 82.0679 2091
-250.766 82.1464 2093
-245.761 82.1464 2093
-240.756 82.1464 2093
-235.751 82.1464 2093
-231.297 82.3427 2098
-226.28 82.3427 2098
-221.263 82.3427 2098
-216.247 82.3427 2098
-211.23 82.3427 2098
-206.802 82.5781 2104
-202.538 82.8921 2112
-197.488 82.8921 2112
-192.437 82.8921 2112
-187.387 82.8921 2112
-182.768 83.0884 2117
-177.958 83.2061 2120
-172.888 83.2061 2120
-168.214 83.4024 2125
-163.133 83.4024 2125
-158.051 83.4024 2125
-152.97 83.4024 2125
-147.888 83.4024 2125
-142.807 83.4024 2125
-137.725 83.4024 2125
-132.644 83.4024 2125
-127.742 83.5201 2128
-122.654 83.5201 2128
-117.565 83.5201 2128
-112.476 83.5201 2128
-107.085 83.2846 2122
-101.914 83.2061 2120
-96.8446 83.2061 2120
-91.6452 83.0884 2117
-86.4601 82.9706 2114
-81.3279 82.8921 2112
-76.2774 82.8921 2112
-71.1258 82.7744 2109
-65.9886 82.6566 2106
-60.8078 82.4604 2101
-55.7836 82.4604 2101
-50.7595 82.4604 2101
-45.7354 82.4604 2101
-40.7113 82.4604 2101
-35.6871 82.4604 2101
-30.663 82.4604 2101
-25.6023 82.3427 2098
-20.5657 82.2642 2096
-15.5313 82.1464 2093
-10.5263 82.1464 2093
-5.51598 82.0679 2091
-0.515769 82.0679 2091
4.48445 82.0679 2091
9.48466 82.0679 2091
14.4849 82.0679 2091
19.5037 82.1464 2093
24.5673 82.3427 2098
29.6265 82.4604 2101
34.6507 82.4604 2101
39.7692 82.6566 2106
44.8691 82.7744 2109
49.9124 82.7744 2109
54.9556 82.7744 2109
60.1411 82.9706 2114
65.2889 83.0884 2117
70.5174 83.2846 2122
75.5918 83.2846 2122
80.8942 83.5201 2128
86.1849 83.7163 2133
91.6707 84.0696 2142
96.7929 84.0696 2142
102.153 84.2658 2147
107.437 84.3836 2150
112.84 84.5798 2155
117.993 84.5798 2155
123.318 84.6975 2158
128.657 84.8153 2161
134.196 85.0508 2167
139.378 85.0508 2167
144.56 85.0508 2167
150.088 85.247 2172
155.496 85.3648 2175
160.697 85.3648 2175
165.898 85.3648 2175
171.099 85.3648 2175
176.544 85.4825 2178
181.752 85.4825 2178
186.96 85.4825 2178
192.168 85.4825 2178
197.377 85.4825 2178
202.864 85.6003 2181
208.079 85.6003 2181
213.588 85.718 2184
219.011 85.7965 2186
224.546 85.9142 2189
229.781 85.9142 2189
235.337 86.032 2192
241.567 86.3852 2201
247.503 86.6207 2207
252.781 86.6207 2207
258.76 86.8562 2213
265.364 87.2879 2224
271.413 87.5234 2230
276.745 87.5234 2230
282.078 87.5234 2230
287.411 87.5234 2230
292.743 87.5234 2230
298.076 87.5234 2230
303.408 87.5234 2230
308.741 87.5234 2230
314.074 87.5234 2230
435.412 117.352 2990
442.562 117.352 2990
449.712 117.352 2990
456.862 117.352 2990
464.012 117.352 2990
467.695 116.489 2968
473.993 116.292 2963
480.267 116.096 2958
487.34 116.096 2958
492.575 115.664 2947
499.622 115.664 2947
506.669 115.664 2947
511.973 115.272 2937
518.997 115.272 2937
524.229 114.879 2927
531.228 114.879 2927
538.228 114.879 2927
545.227 114.879 2927
552.226 114.879 2927
559.226 114.879 2927
565.258 114.683 2922
572.245 114.683 2922
579.232 114.683 2922
585.217 114.487 2917
590.974 114.251 2911
597.935 114.251 2911
603.857 114.055 2906
610.806 114.055 2906
617.755 114.055 2906
624.705 114.055 2906
631.654 114.055 2906
638.603 114.055 2906
645.552 114.055 2906
651.378 113.859 2901
658.316 113.859 2901
665.253 113.859 2901
672.19 113.859 2901
679.127 113.859 2901
686.064 113.859 2901
693.001 113.859 2901
701.145 114.055 2906
708.094 114.055 2906
715.043 114.055 2906
721.992 114.055 2906
728.942 114.055 2906
737.157 114.251 2911
745.652 114.487 2917
752.627 114.487 2917
760.904 114.683 2922
767.892 114.683 2922
776.205 114.879 2927
783.205 114.879 2927
790.204 114.879 2927
797.203 114.879 2927
804.203 114.879 2927
812.588 115.076 2932
819.599 115.076 2932
826.61 115.076 2932
835.043 115.272 2937
842.066 115.272 2937
849.09 115.272 2937
856.113 115.272 2937
863.136 115.272 2937
870.159 115.272 2937
875.689 115.076 2932
882.701 115.076 2932
889.712 115.076 2932
896.723 115.076 2932
902.193 114.879 2927
907.64 114.683 2922
913.062 114.487 2917
921.614 114.683 2922
928.602 114.683 2922
935.589 114.683 2922
947.415 115.272 2937
956.063 115.468 2942
963.099 115.468 2942
980.686 116.724 2974
987.798 116.724 2974
994.909 116.724 2974
1002.02 116.724 2974
1462.11 160.093 4079
1471.87 160.093 4079
1481.62 160.093 4079
1455.91 156.286 3982
1441.14 153.696 3916
1440.51 152.636 3889
1449.81 152.636 3889
1459.11 152.636 3889
1454.81 151.223 3853
1443.89 149.143 3800
1452.97 149.143 3800
1452.06 148.123 3774
1451.4 147.141 3749
1434.66 144.551 3683
1443.47 144.551 3683
1445.97 143.923 3667
1451.16 143.57 3658
1456.72 143.256 3650
1440.55 140.822 3588
1449.13 140.822 3588
1435.78 138.703 3534
1426.24 136.976 3490
1422.67 135.838 3461
1430.95 135.838 3461
1424.67 134.464 3426
1418.22 133.091 3391
1420.44 132.541 3377
1428.52 132.541 3377
1416.6 130.696 3330
1419 130.186 3317
1426.93 130.186 3317
1437.46 130.422 3323
1462.81 131.992 3363
1470.85 131.992 3363
1485.05 132.541 3377
1559.44 138.428 3527
1591.44 140.508 3580
1600 140.508 3580
1612.15 140.822 3588
1638.35 142.353 3627
1668.82 144.237 3675
1677.61 144.237 3675
1697.41 145.179 3699
1752.84 149.143 3800
1761.93 149.143 3800
1771.02 149.143 3800
1780.11 149.143 3800
1789.19 149.143 3800
1798.28 149.143 3800
1799.28 148.476 3783
1800.2 147.809 3766
1785.19 145.846 3716
1794.07 145.846 3716
1763.66 142.667 3635
1756.75 141.411 3603
1746.74 139.92 3565
1736.56 138.428 3527
1744.99 138.428 3527
1724.1 136.113 3468
1693.93 133.091 3391
1681.46 131.481 3350
1689.47 131.481 3350
1673.66 129.637 3303
1658.65 127.871 3258
1637.8 125.673 3202
1626.96 124.26 3166
1634.53 124.26 3166
1638.98 124.024 3160
1637.16 123.318 3142
1635.25 122.611 3124
1652.19 123.318 3142
1659.7 123.318 3142
1667.22 123.318 3142
1674.73 123.318 3142
1682.24 123.318 3142
1680.08 122.611 3124
1684.31 122.376 3118
1670.06 120.806 3078
1677.42 120.806 3078
1684.78 120.806 3078
1682.79 120.139 3061
1671.89 118.843 3028
1651.96 116.92 2979
1659.09 116.92 2979
1648.31 115.664 2947
1644.12 114.879 2927
1639.28 114.055 2906
1646.23 114.055 2906
1647.49 113.663 2896
1642.99 112.878 2876
1644.13 112.485 2866
1650.98 112.485 2866
1657.83 112.485 2866
1659.46 112.132 2857
1663.38 111.936 2852
1661.41 111.347 2837
1668.2 111.347 2837
1672.03 111.151 2832
1676.43 110.994 2828
1680.22 110.798 2823
1686.97 110.798 2823
1690.72 110.601 2818
1694.44 110.405 2813
1701.17 110.405 2813
1705.47 110.248 2809
1712.19 110.248 2809
1718.9 110.248 2809
1722.55 110.052 2804
1726.17 109.856 2799
1732.86 109.856 2799
1736.45 109.659 2794
1740.63 109.502 2790
1744.18 109.306 2785
1750.83 109.306 2785
1751.82 108.953 2776
1758.45 108.953 2776
1761.91 108.757 2771
1768.54 108.757 2771
1775.17 108.757 2771
1779.22 108.6 2767
1785.84 108.6 2767
1789.21 108.403 2762
1795.82 108.403 2762
1802.42 108.403 2762
1809.03 108.403 2762
1815.63 108.403 2762
1822.24 108.403 2762
1822.88 108.05 2753
1829.47 108.05 2753
1832.72 107.854 2748
1839.29 107.854 2748
1843.17 107.697 2744
1846.36 107.501 2739
1852.91 107.501 2739
1859.46 107.501 2739
1866.01 107.501 2739
1869.83 107.344 2735
1876.37 107.344 2735
1882.91 107.344 2735
1889.45 107.344 2735
1895.99 107.344 2735
1896.27 106.991 2726
1902.79 106.991 2726
1909.3 106.991 2726
1912.31 106.794 2721
1916 106.637 2717
1922.49 106.637 2717
1928.99 106.637 2717
1935.49 106.637 2717
1941.98 106.637 2717
1948.48 106.637 2717
1954.98 106.637 2717
1961.48 106.637 2717
1967.97 106.637 2717
1974.47 106.637 2717
1978.05 106.48 2713
1984.54 106.48 2713
1991.03 106.48 2713
1993.83 106.284 2708
2000.31 106.284 2708
2006.78 106.284 2708
2006.57 105.931 2699
2010.04 105.774 2695
2013.49 105.617 2691
2019.93 105.617 2691
2032.38 105.931 2699
2038.84 105.931 2699
2052.11 106.284 2708
2065.43 106.637 2717
2074.98 106.794 2721
2081.48 106.794 2721
-2103.17 116.977 2809
-2096.45 116.977 2809
-2089.73 116.977 2809
-2083.02 116.977 2809
-2072.6 116.769 2804
-2065.9 116.769 2804
-2062.86 116.977 2809
-2056.15 116.977 2809
-2049.43 116.977 2809
-2042.71 116.977 2809
-2036 116.977 2809
-2011.94 115.978 2785
-2001.68 115.769 2780
-1972.07 114.437 2748
-1965.5 114.437 2748
-1958.93 114.437 2748
-1958.75 114.812 2757
-1952.16 114.812 2757
-1945.56 114.812 2757
-1919.98 113.687 2730
-1916.96 113.895 2735
-1910.42 113.895 2735
-1910.14 114.27 2744
-1903.58 114.27 2744
-1897.02 114.27 2744
-1878.06 113.521 2726
-1871.54 113.521 2726
-1865.02 113.521 2726
-1886.2 151.999 3650
-1877.48 151.999 3650
-1872.84 152.333 3658
-1864.1 152.333 3658
-1855.35 152.333 3658
-1834.99 151.375 3635
-1448.38 140.048 3363
-1440.34 140.048 3363
-1432.3 140.048 3363
-1424.26 140.048 3363
-1405.26 138.965 3337
-1397.28 138.965 3337
-1383.48 138.382 3323
-1361.87 137.008 3290
-1349.06 136.508 3278
-1338.36 136.216 3271
-1330.54 136.216 3271
-1315.03 135.425 3252
-1302.03 134.884 3239
-1294.29 134.884 3239
-1286.54 134.884 3239
-1278.8 134.884 3239
-1266.34 134.384 3227
-1251.21 133.593 3208
-1243.54 133.593 3208
-1222 132.094 3172
-1207.53 131.344 3154
-1184 129.595 3112
-1176.56 129.595 3112
-1121.03 124.265 2984
-1094.49 122.099 2932
-1079.69 121.225 2911
-1082.31 122.307 2937
-1075.28 122.307 2937
-1068.26 122.307 2937
-1061.24 122.307 2937
-1050.62 121.891 2927
-1047.19 122.307 2937
-1040.17 122.307 2937
-1036.66 122.724 2947
-1035.2 123.39 2963
-1029.85 123.598 2968
-1022.76 123.598 2968
-1017.71 123.848 2974
-1012.3 124.057 2979
-1008.89 124.515 2990
-1001.74 124.515 2990
-994.587 124.515 2990
-987.437 124.515 2990
-981.926 124.723 2995
-974.764 124.723 2995
-967.602 124.723 2995
-956.913 124.265 2984
-949.777 124.265 2984
-942.642 124.265 2984
-933.938 124.057 2979
-925.259 123.848 2974
-918.147 123.848 2974
-909.198 123.598 2968
-900.581 123.39 2963
-893.495 123.39 2963
-886.41 123.39 2963
-877.84 123.182 2958
-870.767 123.182 2958
-863.694 123.182 2958
-856.62 123.182 2958
-848.111 122.974 2953
-837.916 122.516 2942
-830.881 122.516 2942
-821.045 122.099 2932
-814.034 122.099 2932
-805.647 121.891 2927
-798.647 121.891 2927
-791.648 121.891 2927
-784.648 121.891 2927
-777.649 121.891 2927
-773.283 122.307 2937
-766.259 122.307 2937
-760.529 122.516 2942
-753.494 122.516 2942
-746.458 122.516 2942
-739.423 122.516 2942
-732.388 122.516 2942
-725.353 122.516 2942
-718.318 122.516 2942
-710.073 122.307 2937
-704.247 122.516 2942
-697.212 122.516 2942
-691.35 122.724 2947
-684.302 122.724 2947
-677.255 122.724 2947
-670.208 122.724 2947
-663.161 122.724 2947
-655.001 122.516 2942
-647.965 122.516 2942
-638.752 122.099 2932
-631.74 122.099 2932
-624.729 122.099 2932
-617.718 122.099 2932
-610.706 122.099 2932
-603.695 122.099 2932
-285.118 86.952 2088
-280.125 86.952 2088
-275.132 86.952 2088
-270.139 86.952 2088
-265.527 87.0769 2091
-260.527 87.0769 2091
-255.527 87.0769 2091
-250.766 87.1602 2093
-245.761 87.1602 2093
-240.756 87.1602 2093
-235.751 87.1602 2093
-231.077 87.2851 2096
-226.065 87.2851 2096
-221.263 87.3684 2098
-216.247 87.3684 2098
-211.23 87.3684 2098
-206.802 87.6183 2104
-202.251 87.8265 2109
-197.207 87.8265 2109
-192.164 87.8265 2109
-187.387 87.9514 2112
-182.768 88.1597 2117
-177.958 88.2846 2120
-172.888 88.2846 2120
-168.214 88.4928 2125
-163.133 88.4928 2125
-158.051 88.4928 2125
-152.97 88.4928 2125
-147.888 88.4928 2125
-142.807 88.4928 2125
-137.725 88.4928 2125
-132.644 88.4928 2125
-127.742 88.6177 2128
-122.654 88.6177 2128
-117.565 88.6177 2128
-112.476 88.6177 2128
-107.085 88.3679 2122
-101.914 88.2846 2120
-96.8446 88.2846 2120
-91.6452 88.1597 2117
-86.4601 88.0347 2114
-81.3279 87.9514 2112
-76.2774 87.9514 2112
-71.1258 87.8265 2109
-65.9886 87.7016 2106
-60.8078 87.4934 2101
-55.7836 87.4934 2101
-50.7595 87.4934 2101
-45.7354 87.4934 2101
-40.7113 87.4934 2101
-35.6871 87.4934 2101
-30.663 87.4934 2101
-25.6023 87.3684 2098
-20.5657 87.2851 2096
-15.5313 87.1602 2093
-10.5263 87.1602 2093
-5.51598 87.0769 2091
-0.515769 87.0769 2091
4.48445 87.0769 2091
9.48466 87.0769 2091
14.4849 87.0769 2091
19.5037 87.1602 2093
24.5439 87.2851 2096
29.5842 87.3684 2098
34.6012 87.3684 2098
39.7692 87.7016 2106
44.8691 87.8265 2109
49.9124 87.8265 2109
54.9556 87.8265 2109
60.1411 88.0347 2114
65.2889 88.1597 2117
70.5174 88.3679 2122
75.5918 88.3679 2122
80.8942 88.6177 2128
86.1849 88.826 2133
91.6707 89.2008 2142
96.7929 89.2008 2142
102.153 89.409 2147
107.437 89.5339 2150
112.84 89.7421 2155
117.993 89.7421 2155
123.318 89.8671 2158
128.657 89.992 2161
134.196 90.2419 2167
139.378 90.2419 2167
144.56 90.2419 2167
150.088 90.4501 2172
155.496 90.575 2175
160.697 90.575 2175
165.898 90.575 2175
171.099 90.575 2175
176.544 90.6999 2178
181.752 90.6999 2178
186.96 90.6999 2178
192.168 90.6999 2178
197.377 90.6999 2178
202.864 90.8249 2181
208.079 90.8249 2181
213.588 90.9498 2184
219.011 91.0331 2186
224.546 91.158 2189
229.781 91.158 2189
235.337 91.2829 2192
241.567 91.6577 2201
247.503 91.9076 2207
252.781 91.9076 2207
258.409 92.0325 2210
265.006 92.4906 2221
270.317 92.4906 2221
275.629 92.4906 2221
280.94 92.4906 2221
286.251 92.4906 2221
291.562 92.4906 2221
296.472 92.3657 2218
301.776 92.3657 2218
307.08 92.3657 2218
312.384 92.3657 2218
435.412 124.515 2990
442.562 124.515 2990
449.712 124.515 2990
456.862 124.515 2990
464.012 124.515 2990
467.695 123.598 2968
473.993 123.39 2963
480.267 123.182 2958
487.34 123.182 2958
492.575 122.724 2947
499.622 122.724 2947
506.669 122.724 2947
511.973 122.307 2937
518.997 122.307 2937
524.229 121.891 2927
531.228 121.891 2927
538.228 121.891 2927
545.227 121.891 2927
552.226 121.891 2927
559.226 121.891 2927
565.258 121.683 2922
572.245 121.683 2922
579.232 121.683 2922
585.217 121.475 2917
590.974 121.225 2911
597.935 121.225 2911
603.857 121.017 2906
610.806 121.017 2906
617.755 121.017 2906
624.705 121.017 2906
631.654 121.017 2906
638.603 121.017 2906
645.552 121.017 2906
651.378 120.808 2901
658.316 120.808 2901
665.253 120.808 2901
672.19 120.808 2901
679.127 120.808 2901
686.064 120.808 2901
693.001 120.808 2901
701.145 121.017 2906
708.094 121.017 2906
715.043 121.017 2906
721.992 121.017 2906
728.942 121.017 2906
737.157 121.225 2911
745.652 121.475 2917
752.627 121.475 2917
760.904 121.683 2922
767.892 121.683 2922
776.205 121.891 2927
783.205 121.891 2927
790.204 121.891 2927
797.203 121.891 2927
804.203 121.891 2927
812.588 122.099 2932
819.599 122.099 2932
826.61 122.099 2932
835.043 122.307 2937
842.066 122.307 2937
849.09 122.307 2937
856.113 122.307 2937
863.136 122.307 2937
870.159 122.307 2937
875.689 122.099 2932
882.701 122.099 2932
889.712 122.099 2932
896.723 122.099 2932
902.193 121.891 2927
906.087 121.475 2917
913.062 121.475 2917
920.037 121.475 2917
927.013 121.475 2917
933.988 121.475 2917
939.028 121.225 2911
945.989 121.225 2911
952.95 121.225 2911
958.263 121.017 2906
961.89 120.6 2896
968.816 120.6 2896
975.741 120.6 2896
1462.11 169.865 4079
1471.87 169.865 4079
1481.62 169.865 4079
1455.91 165.825 3982
1441.14 163.077 3916
1440.51 161.952 3889
1449.81 161.952 3889
1459.11 161.952 3889
1454.81 160.453 3853
1443.89 158.246 3800
1452.97 158.246 3800
1452.06 157.163 3774
1451.4 156.122 3749
1434.66 153.374 3683
1443.47 153.374 3683
1445.97 152.707 3667
1451.16 152.333 3658
1456.72 151.999 3650
1440.55 149.418 3588
1449.13 149.418 3588
1435.78 147.169 3534
1426.24 145.336 3490
1422.67 144.129 3461
1430.95 144.129 3461
1424.67 142.671 3426
1418.22 141.214 3391
1414.55 140.048 3363
1422.6 140.048 3363
1411.07 138.132 3317
1419 138.132 3317
1426.93 138.132 3317
1437.46 138.382 3323
1462.81 140.048 3363
1470.85 140.048 3363
1478.89 140.048 3363
1752.84 158.246 3800
1761.93 158.246 3800
1771.02 158.246 3800
1780.11 158.246 3800
1789.19 158.246 3800
1798.28 158.246 3800
1799.28 157.538 3783
1800.2 156.83 3766
1785.19 154.748 3716
1794.07 154.748 3716
1763.66 151.375 3635
1756.75 150.042 3603
1746.74 148.46 3565
1729.17 146.253 3512
1737.57 146.253 3512
1665.43 139.506 3350
1673.44 139.506 3350
1622.73 134.634 3233
1630.46 134.634 3233
1638.19 134.634 3233
1620.98 132.593 3184
1616.32 131.594 3160
1608.46 130.345 3130
1615.94 130.345 3130
1614.09 129.595 3112
1618.93 129.387 3107
1611.18 128.179 3078
1618.54 128.179 3078
1625.9 128.179 3078
1633.26 128.179 3078
1640.62 128.179 3078
1647.98 128.179 3078
1646.2 127.471 3061
1647.57 127.013 3050
1633.71 125.389 3011
1634.91 124.931 3000
1642.09 124.931 3000
1631.67 123.598 2968
1621.65 122.307 2937
1617.58 121.475 2917
1624.56 121.475 2917
1622.58 120.808 2901
1623.9 120.392 2891
1628 120.184 2886
1634.9 120.184 2886
1636.11 119.767 2876
1637.27 119.351 2866
1641.83 119.184 2862
1645.8 118.976 2857
1652.63 118.976 2857
1659.46 118.976 2857
1660.46 118.56 2847
1658.48 117.935 2832
1665.26 117.935 2832
1672.03 117.935 2832
1676.43 117.768 2828
1680.22 117.56 2823
1686.97 117.56 2823
1690.72 117.352 2818
1694.44 117.144 2813
1701.17 117.144 2813
1705.47 116.977 2809
1712.19 116.977 2809
1718.9 116.977 2809
1722.55 116.769 2804
1726.17 116.561 2799
1732.86 116.561 2799
1736.45 116.352 2794
1740.63 116.186 2790
1744.18 115.978 2785
1750.83 115.978 2785
1751.82 115.603 2776
1758.45 115.603 2776
1761.91 115.395 2771
1768.54 115.395 2771
1775.17 115.395 2771
1779.22 115.228 2767
1785.84 115.228 2767
1789.21 115.02 2762
1795.82 115.02 2762
1802.42 115.02 2762
1809.03 115.02 2762
1815.63 115.02 2762
1822.24 115.02 2762
1822.88 114.645 2753
1829.47 114.645 2753
1832.72 114.437 2748
1839.29 114.437 2748
1843.17 114.27 2744
1846.36 114.062 2739
1852.91 114.062 2739
1859.46 114.062 2739
1866.01 114.062 2739
1869.83 113.895 2735
1876.37 113.895 2735
1882.91 113.895 2735
1889.45 113.895 2735
1895.99 113.895 2735
1896.27 113.521 2726
1902.79 113.521 2726
1909.3 113.521 2726
1912.31 113.312 2721
1916 113.146 2717
1922.49 113.146 2717
1928.99 113.146 2717
1935.49 113.146 2717
1941.98 113.146 2717
1948.48 113.146 2717
1954.98 113.146 2717
1961.48 113.146 2717
1967.97 113.146 2717
1974.47 113.146 2717
1978.05 112.979 2713
1984.54 112.979 2713
1991.03 112.979 2713
1993.83 112.771 2708
2000.31 112.771 2708
2006.78 112.771 2708
2006.57 112.396 2699
2010.04 112.23 2695
2013.49 112.063 2691
2019.93 112.063 2691
2032.38 112.396 2699
2038.84 112.396 2699
2052.11 112.771 2708
2065.43 113.146 2717
2074.98 113.312 2721
2081.48 113.312 2721
-2106.16 123.882 2813
-2099.44 123.882 2813
-2092.71 123.882 2813
-2083.02 123.706 2809
-2076.3 123.706 2809
-2069.58 123.706 2809
-2062.86 123.706 2809
-2056.15 123.706 2809
-2052.35 123.882 2813
-2045.62 123.882 2813
-2038.89 123.882 2813
-2029.28 123.706 2809
-2005.28 122.649 2785
-1995.03 122.429 2780
-1988.38 122.429 2780
-1972.47 121.856 2767
-1965.85 121.856 2767
-1959.24 121.856 2767
-1952.62 121.856 2767
-1938.97 121.416 2757
-1916.96 120.447 2735
-1910.42 120.447 2735
-1910.14 120.844 2744
-1903.58 120.844 2744
-1897.02 120.844 2744
-1878.06 120.051 2726
-1871.54 120.051 2726
-1865.02 120.051 2726
-1878.45 160.082 3635
-1869.76 160.082 3635
-1861.07 160.082 3635
-1852.38 160.082 3635
-1843.68 160.082 3635
-1822.87 159.025 3611
-1456.42 148.104 3363
-1448.38 148.104 3363
-1440.34 148.104 3363
-1432.3 148.104 3363
-1413.24 146.959 3337
-1390.95 145.461 3303
-1377.6 144.889 3290
-1369.74 144.889 3290
-1356.9 144.36 3278
-1338.36 143.215 3252
-1330.59 143.215 3252
-1322.81 143.215 3252
-1307.35 142.379 3233
-1294.8 141.85 3221
-1284.3 141.542 3214
-1276.61 141.542 3214
-1266.56 141.278 3208
-1258.88 141.278 3208
-1248.87 141.013 3202
-1241.22 141.013 3202
-1219.69 139.428 3166
-1196.04 137.578 3124
-1173.35 135.817 3084
-1165.98 135.817 3084
-1121.03 131.413 2984
-1088.89 128.462 2917
-1075.98 127.758 2901
-1072.72 128.198 2911
-1065.76 128.198 2911
-1058.8 128.198 2911
-1051.84 128.198 2911
-1044.88 128.198 2911
-1043.62 128.903 2927
-1036.62 128.903 2927
-1033.14 129.343 2937
-1029.61 129.783 2947
-1026.38 130.268 2958
-1019.31 130.268 2958
-1013.95 130.488 2963
-1010.6 130.973 2974
-1006.86 131.413 2984
-999.727 131.413 2984
-994.587 131.677 2990
-987.437 131.677 2990
-980.287 131.677 2990
-973.137 131.677 2990
-965.987 131.677 2990
-956.913 131.413 2984
-949.777 131.413 2984
-942.642 131.413 2984
-930.49 130.708 2968
-923.392 130.708 2968
-916.295 130.708 2968
-907.666 130.488 2963
-900.581 130.488 2963
-893.495 130.488 2963
-886.41 130.488 2963
-879.324 130.488 2963
-872.239 130.488 2963
-863.694 130.268 2958
-856.62 130.268 2958
-848.111 130.048 2953
-837.916 129.563 2942
-830.881 129.563 2942
-821.045 129.123 2932
-814.034 129.123 2932
-807.023 129.123 2932
-800.011 129.123 2932
-793 129.123 2932
-785.989 129.123 2932
-778.978 129.123 2932
-774.599 129.563 2942
-768.868 129.783 2947
-761.821 129.783 2947
-754.774 129.783 2947
-747.727 129.783 2947
-740.68 129.783 2947
-733.633 129.783 2947
-726.585 129.783 2947
-718.318 129.563 2942
-711.282 129.563 2942
-705.444 129.783 2947
-698.397 129.783 2947
-692.757 130.048 2953
-685.696 130.048 2953
-678.634 130.048 2953
-671.573 130.048 2953
-663.161 129.783 2947
-656.114 129.783 2947
-649.067 129.783 2947
-638.752 129.123 2932
-630.663 128.903 2927
-624.729 129.123 2932
-617.718 129.123 2932
-610.706 129.123 2932
-603.695 129.123 2932
-552.895 178.315 4049
-543.212 178.315 4049
-533.53 178.315 4049
-523.848 178.315 4049
-514.165 178.315 4049
-260.153 91.9538 2088
-255.16 91.9538 2088
-250.527 92.0859 2091
-245.526 92.0859 2091
-240.526 92.0859 2091
-235.526 92.0859 2091
-230.526 92.0859 2091
-226.065 92.3061 2096
-221.053 92.3061 2096
-216.04 92.3061 2096
-211.23 92.3942 2098
-206.999 92.7465 2106
-202.251 92.8786 2109
-197.207 92.8786 2109
-192.164 92.8786 2109
-187.564 93.0988 2114
-182.768 93.231 2117
-178.126 93.4512 2122
-173.051 93.4512 2122
-168.214 93.5833 2125
-163.133 93.5833 2125
-158.051 93.5833 2125
-152.97 93.5833 2125
-147.888 93.5833 2125
-143.008 93.7154 2128
-137.92 93.7154 2128
-132.831 93.7154 2128
-127.742 93.7154 2128
-122.654 93.7154 2128
-117.565 93.7154 2128
-112.476 93.7154 2128
-107.085 93.4512 2122
-101.914 93.3631 2120
-96.8446 93.3631 2120
-91.6452 93.231 2117
-86.4601 93.0988 2114
-81.3279 93.0108 2112
-76.2774 93.0108 2112
-71.1258 92.8786 2109
-65.9886 92.7465 2106
-60.8946 92.6584 2104
-55.8633 92.6584 2104
-50.7595 92.5263 2101
-45.7354 92.5263 2101
-40.7113 92.5263 2101
-35.6871 92.5263 2101
-30.663 92.5263 2101
-25.6023 92.3942 2098
-20.5853 92.3942 2098
-15.5535 92.3061 2096
-10.5413 92.3061 2096
-5.52126 92.174 2093
-0.516263 92.174 2093
4.48873 92.174 2093
9.49373 92.174 2093
14.4987 92.174 2093
19.5037 92.174 2093
24.5673 92.3942 2098
29.6265 92.5263 2101
34.6507 92.5263 2101
39.7692 92.7465 2106
44.8691 92.8786 2109
49.9834 93.0108 2112
55.0338 93.0108 2112
60.2265 93.231 2117
65.4431 93.4512 2122
70.6171 93.5833 2125
75.6986 93.5833 2125
81.0843 93.9356 2133
86.3061 94.0677 2136
91.7563 94.42 2144
96.8833 94.42 2144
102.296 94.6842 2150
107.587 94.8164 2153
112.997 95.0366 2158
118.158 95.0366 2158
123.49 95.1687 2161
129.014 95.4329 2167
134.196 95.4329 2167
139.378 95.4329 2167
144.894 95.6531 2172
150.295 95.7852 2175
155.711 95.9174 2178
160.919 95.9174 2178
166.127 95.9174 2178
171.335 95.9174 2178
176.787 96.0495 2181
182.002 96.0495 2181
187.218 96.0495 2181
192.433 96.0495 2181
197.648 96.0495 2181
203.143 96.1816 2184
208.366 96.1816 2184
213.784 96.2697 2186
219.312 96.4018 2189
224.854 96.5339 2192
230.096 96.5339 2192
235.66 96.666 2195
241.567 96.9303 2201
247.167 97.0624 2204
252.437 97.0624 2204
258.058 97.1945 2207
263.694 97.3266 2210
269.587 97.5468 2215
274.884 97.5468 2215
280.181 97.5468 2215
285.477 97.5468 2215
290.774 97.5468 2215
296.071 97.5468 2215
301.368 97.5468 2215
306.664 97.5468 2215
311.961 97.5468 2215
438.47 132.602 3011
445.671 132.602 3011
452.871 132.602 3011
457.626 131.897 2995
464.788 131.897 2995
469.429 131.193 2979
474.793 130.708 2968
481.078 130.488 2963
488.164 130.488 2963
493.578 130.048 2953
499.622 129.783 2947
506.669 129.783 2947
511.973 129.343 2937
518.997 129.343 2937
524.229 128.903 2927
531.228 128.903 2927
538.228 128.903 2927
545.227 128.903 2927
552.226 128.903 2927
559.226 128.903 2927
566.225 128.903 2927
573.224 128.903 2927
579.232 128.683 2922
585.217 128.462 2917
590.974 128.198 2911
597.935 128.198 2911
604.896 128.198 2911
610.806 127.978 2906
617.755 127.978 2906
624.705 127.978 2906
631.654 127.978 2906
638.603 127.978 2906
645.552 127.978 2906
652.501 127.978 2906
659.45 127.978 2906
665.253 127.758 2901
673.349 127.978 2906
680.298 127.978 2906
687.247 127.978 2906
694.196 127.978 2906
701.145 127.978 2906
709.312 128.198 2911
716.274 128.198 2911
723.235 128.198 2911
731.701 128.462 2917
738.676 128.462 2917
746.93 128.683 2922
753.917 128.683 2922
762.207 128.903 2927
769.206 128.903 2927
776.205 128.903 2927
783.205 128.903 2927
790.204 128.903 2927
797.203 128.903 2927
805.576 129.123 2932
813.973 129.343 2937
820.997 129.343 2937
828.02 129.343 2937
835.043 129.343 2937
842.066 129.343 2937
849.09 129.343 2937
857.57 129.563 2942
864.606 129.563 2942
871.641 129.563 2942
877.183 129.343 2937
884.206 129.343 2937
889.712 129.123 2932
896.723 129.123 2932
902.193 128.903 2927
906.087 128.462 2917
913.062 128.462 2917
920.037 128.462 2917
927.013 128.462 2917
933.988 128.462 2917
939.028 128.198 2911
945.989 128.198 2911
951.314 127.978 2906
956.614 127.758 2901
961.89 127.537 2896
968.816 127.537 2896
975.741 127.537 2896
1455.92 180.076 4089
1465.7 180.076 4089
1475.48 180.076 4089
1481.62 179.636 4079
1455.91 175.364 3982
1441.14 172.457 3916
1447.17 172.061 3907
1456.52 172.061 3907
1459.11 171.268 3889
1454.81 169.683 3853
1443.89 167.349 3800
1452.97 167.349 3800
1455.52 166.6 3783
1451.4 165.103 3749
1434.66 162.196 3683
1443.47 162.196 3683
1452.27 162.196 3683
1454.73 161.492 3667
1456.72 160.743 3650
1440.55 158.013 3588
1449.13 158.013 3588
1435.78 155.634 3534
1426.24 153.697 3490
1422.67 152.42 3461
1430.95 152.42 3461
1424.67 150.878 3426
1418.22 149.337 3391
1412.03 147.84 3357
1420.06 147.84 3357
1408.09 145.77 3310
1416.01 145.77 3310
1426.93 146.078 3317
1443.52 146.959 3337
1490.21 150.878 3426
1498.4 150.878 3426
1506.59 150.878 3426
1780.11 167.349 3800
1789.19 167.349 3800
1798.28 167.349 3800
1807.37 167.349 3800
1808.33 166.6 3783
1789.03 164.002 3724
1797.93 164.002 3724
1763.66 160.082 3635
1738.22 157 3565
1742.82 156.647 3557
1721.79 154.005 3497
1730.15 154.005 3497
1612 142.114 3227
1619.72 142.114 3227
1627.44 142.114 3227
1613.36 140.221 3184
1608.76 139.164 3160
1586.14 136.566 3101
1576.08 135.068 3067
1583.41 135.068 3067
1578.82 134.055 3044
1574.64 133.086 3022
1573.49 132.382 3006
1580.68 132.382 3006
1587.86 132.382 3006
1595.05 132.382 3006
1602.24 132.382 3006
1609.43 132.382 3006
1604.78 131.413 2984
1600.58 130.488 2963
1596.27 129.563 2942
1592.4 128.683 2922
1599.39 128.683 2922
1606.38 128.683 2922
1607.29 128.198 2911
1605.94 127.537 2896
1612.86 127.537 2896
1614.19 127.097 2886
1618.29 126.877 2881
1622.35 126.657 2876
1629.23 126.657 2876
1630.42 126.216 2866
1632.13 125.82 2857
1636.1 125.6 2852
1642.92 125.6 2852
1649.74 125.6 2852
1653.65 125.38 2847
1657.54 125.159 2842
1658.48 124.719 2832
1665.26 124.719 2832
1669.67 124.543 2828
1673.46 124.323 2823
1680.22 124.323 2823
1686.97 124.323 2823
1690.72 124.102 2818
1694.44 123.882 2813
1701.17 123.882 2813
1705.47 123.706 2809
1712.19 123.706 2809
1718.9 123.706 2809
1722.55 123.486 2804
1729.25 123.486 2804
1735.96 123.486 2804
1736.45 123.045 2794
1740.63 122.869 2790
1747.31 122.869 2790
1753.98 122.869 2790
1754.34 122.429 2780
1758.45 122.253 2776
1765.09 122.253 2776
1771.73 122.253 2776
1775.17 122.033 2771
1781.79 122.033 2771
1788.42 122.033 2771
1792.45 121.856 2767
1799.07 121.856 2767
1805.69 121.856 2767
1812.3 121.856 2767
1815.63 121.636 2762
1822.24 121.636 2762
1828.84 121.636 2762
1829.47 121.24 2753
1832.72 121.02 2748
1839.29 121.02 2748
1843.17 120.844 2744
1849.73 120.844 2744
1852.91 120.623 2739
1859.46 120.623 2739
1866.01 120.623 2739
1872.56 120.623 2739
1879.11 120.623 2739
1882.91 120.447 2735
1889.45 120.447 2735
1895.99 120.447 2735
1899.05 120.227 2730
1902.79 120.051 2726
1909.3 120.051 2726
1912.31 119.831 2721
1918.82 119.831 2721
1922.49 119.654 2717
1928.99 119.654 2717
1935.49 119.654 2717
1941.98 119.654 2717
1948.48 119.654 2717
1954.98 119.654 2717
1961.48 119.654 2717
1967.97 119.654 2717
1974.47 119.654 2717
1980.97 119.654 2717
1987.46 119.654 2717
1993.96 119.654 2717
1997.51 119.478 2713
2000.31 119.258 2708
2006.78 119.258 2708
2013.26 119.258 2708
2016.75 119.082 2704
2016.48 118.686 2695
2022.93 118.686 2695
2036.15 119.082 2704
2042.62 119.082 2704
2052.11 119.258 2708
2065.43 119.654 2717
2074.98 119.831 2721
2081.48 119.831 2721
-2109.91 130.853 2818
-2103.17 130.853 2818
-2096.43 130.853 2818
-2083.02 130.435 2809
-2076.3 130.435 2809
-2069.58 130.435 2809
-2065.8 130.621 2813
-2059.07 130.621 2813
-2052.35 130.621 2813
-2045.62 130.621 2813
-2038.89 130.621 2813
-2032.17 130.621 2813
-2011.76 129.739 2794
-1995.03 129.088 2780
-1988.38 129.088 2780
-1975.32 128.671 2771
-1968.69 128.671 2771
-1962.07 128.671 2771
-1955.44 128.671 2771
-1942.49 128.253 2762
-1932.38 128.02 2757
-1925.78 128.02 2757
-1919.19 128.02 2757
-1912.6 128.02 2757
-1906.01 128.02 2757
-1890.46 127.417 2744
-1883.9 127.417 2744
-1877.33 127.417 2744
-1878.45 168.79 3635
-1869.76 168.79 3635
-1861.07 168.79 3635
-1852.38 168.79 3635
-1843.68 168.79 3635
-1834.99 168.79 3635
-1826.3 168.79 3635
-1456.42 156.16 3363
-1448.38 156.16 3363
-1440.34 156.16 3363
-1432.3 156.16 3363
-1413.24 154.953 3337
-1390.95 153.374 3303
-1377.6 152.77 3290
-1369.74 152.77 3290
-1356.9 152.213 3278
-1338.36 151.006 3252
-1330.59 151.006 3252
-1322.81 151.006 3252
-1307.35 150.123 3233
-1294.8 149.566 3221
-1284.3 149.241 3214
-1276.61 149.241 3214
-1266.56 148.963 3208
-1258.88 148.963 3208
-1248.87 148.684 3202
-1241.22 148.684 3202
-1219.69 147.012 3166
-1196.04 145.062 3124
-1173.35 143.205 3084
-1165.98 143.205 3084
-1127.04 139.304 3000
-1100.09 136.843 2947
-1077.83 134.939 2906
-1072.72 135.171 2911
-1065.76 135.171 2911
-1058.8 135.171 2911
-1051.84 135.171 2911
-1044.88 135.171 2911
-1043.62 135.914 2927
-1036.62 135.914 2927
-1033.14 136.379 2937
-1029.61 136.843 2947
-1026.38 137.354 2958
-1019.31 137.354 2958
-1013.95 137.586 2963
-1010.6 138.097 2974
-1006.86 138.561 2984
-999.727 138.561 2984
-994.587 138.84 2990
-987.437 138.84 2990
-980.287 138.84 2990
-973.137 138.84 2990
-965.987 138.84 2990
-956.913 138.561 2984
-949.777 138.561 2984
-942.642 138.561 2984
-930.49 137.818 2968
-923.392 137.818 2968
-916.295 137.818 2968
-907.666 137.586 2963
-900.581 137.586 2963
-893.495 137.586 2963
-886.41 137.586 2963
-879.324 137.586 2963
-872.239 137.586 2963
-865.153 137.586 2963
-858.068 137.586 2963
-848.111 137.122 2953
-837.916 136.611 2942
-830.881 136.611 2942
-821.045 136.147 2932
-814.034 136.147 2932
-807.023 136.147 2932
-800.011 136.147 2932
-793 136.147 2932
-785.989 136.147 2932
-778.978 136.147 2932
-774.599 136.611 2942
-768.868 136.843 2947
-761.821 136.843 2947
-754.774 136.843 2947
-747.727 136.843 2947
-740.68 136.843 2947
-733.633 136.843 2947
-726.585 136.843 2947
-718.318 136.611 2942
-711.282 136.611 2942
-705.444 136.843 2947
-698.397 136.843 2947
-692.757 137.122 2953
-685.696 137.122 2953
-678.634 137.122 2953
-671.573 137.122 2953
-664.511 137.122 2953
-656.114 136.843 2947
-649.067 136.843 2947
-638.752 136.147 2932
-630.663 135.914 2927
-624.729 136.147 2932
-617.718 136.147 2932
-610.706 136.147 2932
-603.695 136.147 2932
-554.26 188.478 4059
-544.554 188.478 4059
-534.848 188.478 4059
-523.848 188.014 4049
-514.165 188.014 4049
-259.53 96.7235 2083
-254.549 96.7235 2083
-250.167 96.9556 2088
-245.174 96.9556 2088
-240.181 96.9556 2088
-235.188 96.9556 2088
-230.526 97.0949 2091
-226.065 97.3271 2096
-221.263 97.42 2098
-216.247 97.42 2098
-211.23 97.42 2098
-206.999 97.7915 2106
-202.73 98.1629 2114
-197.675 98.1629 2114
-192.62 98.1629 2114
-187.831 98.3023 2117
-183.2 98.5344 2122
-178.629 98.813 2128
-173.54 98.813 2128
-168.452 98.813 2128
-163.363 98.813 2128
-158.274 98.813 2128
-153.186 98.813 2128
-148.097 98.813 2128
-143.008 98.813 2128
-137.92 98.813 2128
-132.831 98.813 2128
-127.742 98.813 2128
-122.654 98.813 2128
-117.565 98.813 2128
-112.476 98.813 2128
-107.085 98.5344 2122
-102.01 98.5344 2122
-96.936 98.5344 2122
-91.6452 98.3023 2117
-86.4601 98.1629 2114
-81.3279 98.0701 2112
-76.2774 98.0701 2112
-71.1258 97.9308 2109
-65.9886 97.7915 2106
-60.8946 97.6986 2104
-55.8633 97.6986 2104
-50.7595 97.5593 2101
-45.7354 97.5593 2101
-40.7113 97.5593 2101
-35.6871 97.5593 2101
-30.663 97.5593 2101
-25.6023 97.42 2098
-20.5853 97.42 2098
-15.5535 97.3271 2096
-10.5413 97.3271 2096
-5.52917 97.3271 2096
-0.516263 97.1878 2093
4.48873 97.1878 2093
9.49373 97.1878 2093
14.4987 97.1878 2093
19.5503 97.42 2098
24.5673 97.42 2098
29.6265 97.5593 2101
34.6507 97.5593 2101
39.8259 97.9308 2109
44.9329 98.0701 2112
50.1017 98.3023 2117
55.1641 98.3023 2117
60.2265 98.3023 2117
65.5356 98.6737 2125
70.7168 98.813 2128
75.8055 98.813 2128
81.1983 99.1845 2136
86.4273 99.3238 2139
91.8847 99.6953 2147
97.0188 99.6953 2147
102.438 99.9739 2153
107.687 100.067 2155
112.997 100.206 2158
118.158 100.206 2158
123.661 100.485 2164
129.014 100.624 2167
134.32 100.717 2169
139.507 100.717 2169
145.094 100.995 2175
150.502 101.135 2178
155.711 101.135 2178
161.14 101.274 2181
166.356 101.274 2181
171.571 101.274 2181
176.787 101.274 2181
182.253 101.413 2184
187.475 101.413 2184
192.698 101.413 2184
197.92 101.413 2184
203.143 101.413 2184
208.366 101.413 2184
214.077 101.646 2189
219.612 101.785 2192
225.162 101.924 2195
230.411 101.924 2195
235.982 102.063 2198
241.567 102.203 2201
247.167 102.342 2204
252.437 102.342 2204
257.708 102.342 2204
263.694 102.621 2210
268.979 102.621 2210
274.263 102.621 2210
279.548 102.621 2210
284.833 102.621 2210
290.512 102.76 2213
295.804 102.76 2213
301.095 102.76 2213
306.387 102.76 2213
311.679 102.76 2213
440.072 140.326 3022
447.299 140.326 3022
454.525 140.326 3022
460.071 139.815 3011
467.271 139.815 3011
471.95 139.072 2995
477.352 138.561 2984
481.89 137.818 2968
488.988 137.818 2968
495.249 137.586 2963
500.639 137.122 2953
507.701 137.122 2953
511.973 136.379 2937
518.997 136.379 2937
525.124 136.147 2932
532.136 136.147 2932
539.147 136.147 2932
546.158 136.147 2932
553.17 136.147 2932
559.226 135.914 2927
566.225 135.914 2927
573.224 135.914 2927
579.232 135.682 2922
585.217 135.45 2917
590.974 135.171 2911
597.935 135.171 2911
604.896 135.171 2911
610.806 134.939 2906
617.755 134.939 2906
625.779 135.171 2911
632.741 135.171 2911
639.702 135.171 2911
645.552 134.939 2906
652.501 134.939 2906
659.45 134.939 2906
666.399 134.939 2906
673.349 134.939 2906
680.298 134.939 2906
688.429 135.171 2911
695.39 135.171 2911
702.351 135.171 2911
709.312 135.171 2911
717.75 135.45 2917
724.725 135.45 2917
731.701 135.45 2917
739.942 135.682 2922
746.93 135.682 2922
753.917 135.682 2922
762.207 135.914 2927
769.206 135.914 2927
776.205 135.914 2927
783.205 135.914 2927
790.204 135.914 2927
797.203 135.914 2927
805.576 136.147 2932
813.973 136.379 2937
820.997 136.379 2937
828.02 136.379 2937
835.043 136.379 2937
842.066 136.379 2937
849.09 136.379 2937
857.57 136.611 2942
864.606 136.611 2942
871.641 136.611 2942
877.183 136.379 2937
884.206 136.379 2937
891.229 136.379 2937
898.253 136.379 2937
905.276 136.379 2937
907.64 135.682 2922
914.627 135.682 2922
921.614 135.682 2922
928.602 135.682 2922
935.589 135.682 2922
939.028 135.171 2911
945.989 135.171 2911
952.95 135.171 2911
958.263 134.939 2906
965.212 134.939 2906
972.161 134.939 2906
979.11 134.939 2906
1455.92 189.871 4089
1465.7 189.871 4089
1475.48 189.871 4089
1463.82 187.132 4030
1448.96 184.021 3963
1441.14 181.838 3916
1447.17 181.42 3907
1456.52 181.42 3907
1452.35 179.749 3871
1454.81 178.913 3853
1443.89 176.452 3800
1452.97 176.452 3800
1455.52 175.662 3783
1451.4 174.084 3749
1434.66 171.019 3683
1443.47 171.019 3683
1452.27 171.019 3683
1454.73 170.276 3667
1456.72 169.487 3650
1440.55 166.608 3588
1449.13 166.608 3588
1435.78 164.1 3534
1426.24 162.057 3490
1422.67 160.71 3461
1430.95 160.71 3461
1418.85 158.435 3412
1418.22 157.46 3391
1400.67 154.628 3330
1408.64 154.628 3330
1405.11 153.374 3303
1413.01 153.374 3303
1426.93 154.024 3317
1446.11 155.231 3343
1496.3 159.735 3440
1504.52 159.735 3440
1512.75 159.735 3440
1789.19 176.452 3800
1798.28 176.452 3800
1807.37 176.452 3800
1816.45 176.452 3800
1789.03 172.923 3724
1797.93 172.923 3724
1752.01 167.676 3611
1559.49 144.273 3107
1566.92 144.273 3107
1574.35 144.273 3107
1567.01 142.926 3078
1556.98 141.347 3044
1552.96 140.326 3022
1560.18 140.326 3022
1561.7 139.815 3011
1552.23 138.329 2979
1556.74 138.097 2974
1563.85 138.097 2974
1570.96 138.097 2974
1566.93 137.122 2953
1568.13 136.611 2942
1567.13 135.914 2927
1574.13 135.914 2927
1572.49 135.171 2911
1576.73 134.939 2906
1575.51 134.243 2891
1582.42 134.243 2891
1586.59 134.011 2886
1593.49 134.011 2886
1592.07 133.314 2871
1598.94 133.314 2871
1603.01 133.082 2866
1607.61 132.896 2862
1614.46 132.896 2862
1618.47 132.664 2857
1625.3 132.664 2857
1629.28 132.432 2852
1636.1 132.432 2852
1640.04 132.2 2847
1646.84 132.2 2847
1650.75 131.967 2842
1654.63 131.735 2837
1658.48 131.503 2832
1665.26 131.503 2832
1669.67 131.317 2828
1673.46 131.085 2823
1680.22 131.085 2823
1686.97 131.085 2823
1690.72 130.853 2818
1697.46 130.853 2818
1701.17 130.621 2813
1705.47 130.435 2809
1712.19 130.435 2809
1718.9 130.435 2809
1722.55 130.203 2804
1729.25 130.203 2804
1735.96 130.203 2804
1736.45 129.739 2794
1743.13 129.739 2794
1747.31 129.553 2790
1753.98 129.553 2790
1754.34 129.088 2780
1760.99 129.088 2780
1765.09 128.903 2776
1771.73 128.903 2776
1778.37 128.903 2776
1781.79 128.671 2771
1788.42 128.671 2771
1795.04 128.671 2771
1801.67 128.671 2771
1808.3 128.671 2771
1814.92 128.671 2771
1821.55 128.671 2771
1828.18 128.671 2771
1828.84 128.253 2762
1835.45 128.253 2762
1836.05 127.835 2753
1842.63 127.835 2753
1845.86 127.603 2748
1852.43 127.603 2748
1856.29 127.417 2744
1862.86 127.417 2744
1869.42 127.417 2744
1875.98 127.417 2744
1882.54 127.417 2744
1885.66 127.185 2739
1892.21 127.185 2739
1898.76 127.185 2739
1902.53 126.999 2735
1905.58 126.767 2730
1912.11 126.767 2730
1915.82 126.581 2726
1918.82 126.349 2721
1925.32 126.349 2721
1931.83 126.349 2721
1938.34 126.349 2721
1944.84 126.349 2721
1951.35 126.349 2721
1957.86 126.349 2721
1967.97 126.581 2726
1974.49 126.581 2726
1981.01 126.581 2726
1983.88 126.349 2721
1990.39 126.349 2721
1996.9 126.349 2721
2003.4 126.349 2721
2006.96 126.163 2717
2013.45 126.163 2717
2013.26 125.745 2708
2019.73 125.745 2708
2023.22 125.559 2704
2029.68 125.559 2704
2036.15 125.559 2704
2042.62 125.559 2704
2052.11 125.745 2708
2058.59 125.745 2708
2071.93 126.163 2717
2078.42 126.163 2717
-2109.91 137.604 2818
-2103.17 137.604 2818
-2096.43 137.604 2818
-2083.02 137.164 2809
-2076.3 137.164 2809
-2069.58 137.164 2809
-2065.8 137.359 2813
-2059.07 137.359 2813
-2052.35 137.359 2813
-2045.62 137.359 2813
-2038.89 137.359 2813
-2032.17 137.359 2813
-2011.76 136.432 2794
-1995.03 135.748 2780
-1988.38 135.748 2780
-1975.32 135.309 2771
-1968.69 135.309 2771
-1962.07 135.309 2771
-1955.44 135.309 2771
-1942.49 134.869 2762
-1932.38 134.625 2757
-1925.78 134.625 2757
-1919.19 134.625 2757
-1912.6 134.625 2757
-1906.01 134.625 2757
-1890.46 133.99 2744
-1883.9 133.99 2744
-1877.33 133.99 2744
-1866.05 176.326 3611
