ply
format ascii 1.0
comment File generated
element vertex 2154
property float x
property float y
property float z
end_header
-329.96 -61.2453 3357
-320.014 -60.8804 3337
-312.034 -60.8804 3337
-302.779 -60.625 3323
-294.3 -60.5155 3317
-286.368 -60.5155 3317
-278.437 -60.5155 3317
-269.934 -60.3878 3310
-260.989 -60.1506 3297
-252.568 -60.0229 3290
-244.701 -60.0229 3290
-236.833 -60.0229 3290
-228.131 -59.804 3278
-219.822 -59.6763 3271
-212 -59.6763 3271
-204.178 -59.6763 3271
-195.575 -59.4391 3258
-115.564 -36.5793 2005
-110.77 -36.5793 2005
-105.975 -36.5793 2005
-101.18 -36.5793 2005
-96.0493 -36.4516 1998
-91.3628 -36.4881 2000
-86.5802 -36.4881 2000
-81.7976 -36.4881 2000
-77.3231 -36.634 2008
-72.5936 -36.6705 2010
-67.7871 -36.6705 2010
-62.9805 -36.6705 2010
-58.2319 -36.707 2012
-53.633 -36.853 2020
-48.9717 -36.9807 2027
-44.1245 -36.9807 2027
-39.413 -37.1084 2034
-34.6 -37.1631 2037
-29.8311 -37.2908 2044
-24.9433 -37.2908 2044
-20.0849 -37.3456 2047
-15.2493 -37.4915 2055
-10.3603 -37.5827 2060
-5.43421 -37.5827 2060
-0.511823 -37.8564 2075
4.45657 -37.9111 2078
9.43476 -37.9476 2080
14.4087 -37.9476 2080
19.4292 -38.0388 2085
24.415 -38.0388 2085
29.4009 -38.0388 2085
34.3868 -38.0388 2085
39.3726 -38.0388 2085
44.3585 -38.0388 2085
49.3444 -38.0388 2085
54.2781 -38.0023 2083
59.2592 -38.0023 2083
64.2403 -38.0023 2083
69.2214 -38.0023 2083
74.2025 -38.0023 2083
79.1836 -38.0023 2083
84.1646 -38.0023 2083
89.2313 -38.0388 2085
94.2172 -38.0388 2085
99.203 -38.0388 2085
104.339 -38.0936 2088
109.489 -38.1483 2091
114.489 -38.1483 2091
119.489 -38.1483 2091
124.609 -38.1848 2093
129.614 -38.1848 2093
134.812 -38.2395 2096
139.824 -38.2395 2096
144.974 -38.276 2098
150.563 -38.422 2106
155.821 -38.4767 2109
160.864 -38.4767 2109
166.301 -38.5679 2114
171.599 -38.6226 2117
176.912 -38.6774 2120
181.981 -38.6774 2120
187.492 -38.7686 2125
193.117 -38.8781 2131
199.236 -39.0787 2142
204.359 -39.0787 2142
209.481 -39.0787 2142
214.803 -39.1152 2144
219.93 -39.1152 2144
225.057 -39.1152 2144
230.506 -39.17 2147
236.518 -39.3159 2155
243.578 -39.6261 2172
248.772 -39.6261 2172
254.667 -39.7355 2178
259.876 -39.7355 2178
265.084 -39.7355 2178
270.292 -39.7355 2178
407.084 -56.5748 3101
414.499 -56.5748 3101
421.915 -56.5748 3101
427.669 -56.3558 3089
432.661 -56.0457 3072
437.572 -55.7355 3055
444.878 -55.7355 3055
449.815 -55.4436 3039
452.871 -54.9328 3011
456.862 -54.5497 2990
464.012 -54.5497 2990
469.429 -54.349 2979
474.793 -54.1483 2968
478.481 -53.7652 2947
483.88 -53.5828 2937
490.904 -53.5828 2937
495.384 -53.3091 2922
502.371 -53.3091 2922
506.569 -53.0172 2906
513.519 -53.0172 2906
519.572 -52.926 2901
525.602 -52.8347 2896
532.527 -52.8347 2896
539.452 -52.8347 2896
545.434 -52.7435 2891
552.347 -52.7435 2891
559.261 -52.7435 2891
566.174 -52.7435 2891
572.096 -52.6523 2886
577.994 -52.5611 2881
584.884 -52.5611 2881
591.773 -52.5611 2881
597.623 -52.4699 2876
604.501 -52.4699 2876
611.378 -52.4699 2876
617.181 -52.3786 2871
624.046 -52.3786 2871
630.911 -52.3786 2871
637.777 -52.3786 2871
644.642 -52.3786 2871
651.508 -52.3786 2871
658.373 -52.3786 2871
665.239 -52.3786 2871
672.104 -52.3786 2871
678.97 -52.3786 2871
685.835 -52.3786 2871
692.7 -52.3786 2871
699.566 -52.3786 2871
706.431 -52.3786 2871
713.297 -52.3786 2871
720.162 -52.3786 2871
727.028 -52.3786 2871
735.171 -52.4699 2876
742.048 -52.4699 2876
748.926 -52.4699 2876
754.489 -52.3786 2871
761.355 -52.3786 2871
768.22 -52.3786 2871
775.086 -52.3786 2871
781.951 -52.3786 2871
788.816 -52.3786 2871
795.682 -52.3786 2871
802.547 -52.3786 2871
809.413 -52.3786 2871
816.278 -52.3786 2871
823.144 -52.3786 2871
830.009 -52.3786 2871
836.874 -52.3786 2871
843.74 -52.3786 2871
850.605 -52.3786 2871
857.471 -52.3786 2871
864.336 -52.3786 2871
871.202 -52.3786 2871
878.067 -52.3786 2871
884.932 -52.3786 2871
893.351 -52.4699 2876
904.924 -52.7435 2891
916.568 -53.0172 2906
923.517 -53.0172 2906
935.589 -53.3091 2922
949.028 -53.674 2942
959.638 -53.8747 2953
966.7 -53.8747 2953
977.059 -54.0571 2963
996.433 -54.7321 3000
1009.29 -55.0423 3017
1016.51 -55.0423 3017
1042.39 -56.0457 3072
1077.75 -57.5417 3154
1108.35 -58.7641 3221
1116.05 -58.7641 3221
1143.64 -59.804 3278
1179.23 -61.2453 3357
1211.66 -62.5041 3426
1219.85 -62.5041 3426
1238.08 -63.0149 3454
1254.28 -63.4163 3476
1262.59 -63.4163 3476
1270.9 -63.4163 3476
1273.7 -63.1426 3461
1284.57 -63.2703 3468
1301.06 -63.6717 3490
1309.41 -63.6717 3490
1320.39 -63.7994 3497
1328.76 -63.7994 3497
1337.12 -63.7994 3497
1340.1 -63.544 3483
1342.62 -63.2703 3468
1348.18 -63.1426 3461
1350.97 -62.8872 3447
1359.22 -62.8872 3447
1356.35 -62.3764 3419
1350.56 -61.7378 3384
1345 -61.1175 3350
1353.01 -61.1175 3350
1358.18 -60.9898 3343
1366.17 -60.9898 3343
1374.17 -60.9898 3343
1382.16 -60.9898 3343
1387.66 -60.8804 3337
1392.71 -60.7527 3330
1395.21 -60.5155 3317
1400.18 -60.3878 3310
1408.09 -60.3878 3310
1407.45 -60.0229 3290
1415.32 -60.0229 3290
1423.19 -60.0229 3290
1431.05 -60.0229 3290
1438.92 -60.0229 3290
1446.79 -60.0229 3290
1454.66 -60.0229 3290
1462.52 -60.0229 3290
1467.71 -59.9134 3284
1475.56 -59.9134 3284
1483.41 -59.9134 3284
1491.27 -59.9134 3284
1499.12 -59.9134 3284
1504.22 -59.804 3278
1502.83 -59.4391 3258
1522.68 -59.9134 3284
1539.39 -60.2601 3303
1547.29 -60.2601 3303
1561.78 -60.5155 3317
1579.17 -60.8804 3337
1593.34 -61.1175 3350
1601.35 -61.1175 3350
1618.97 -61.4824 3370
1627.02 -61.4824 3370
1635.08 -61.4824 3370
1633.39 -61.1175 3350
1631.6 -60.7527 3330
1639.56 -60.7527 3330
1647.53 -60.7527 3330
1655.49 -60.7527 3330
1653.46 -60.3878 3310
1654.85 -60.1506 3297
1662.74 -60.1506 3297
1660.99 -59.804 3278
1671.89 -59.9134 3284
1679.74 -59.9134 3284
1687.59 -59.9134 3284
1695.45 -59.9134 3284
1700.19 -59.804 3278
1694.48 -59.3296 3252
1695.45 -59.0925 3239
1703.2 -59.0925 3239
1707.77 -58.983 3233
1715.5 -58.983 3233
1723.23 -58.983 3233
1730.97 -58.983 3233
1735.47 -58.8735 3227
1743.19 -58.8735 3227
1743.85 -58.6364 3214
1751.54 -58.6364 3214
1732.95 -57.7606 3166
1724.03 -57.2133 3136
1715.51 -56.6842 3107
1700.76 -55.9545 3067
1708.09 -55.9545 3067
1699.77 -55.4436 3039
1682.32 -54.6409 2995
1671.43 -54.0571 2963
1678.52 -54.0571 2963
1641.8 -52.6523 2886
1623.56 -51.8496 2842
1624.62 -51.6671 2832
1626.21 -51.5029 2823
1632.96 -51.5029 2823
1633.9 -51.3205 2813
1632.46 -51.0651 2799
1636.23 -50.9739 2794
1642.91 -50.9739 2794
1647.23 -50.9009 2790
1650.94 -50.8097 2785
1652.24 -50.6455 2776
1658.88 -50.6455 2776
1662.52 -50.5542 2771
1666.73 -50.4813 2767
1670.33 -50.39 2762
1676.93 -50.39 2762
1683.54 -50.39 2762
1687.08 -50.2988 2757
1693.68 -50.2988 2757
1694.72 -50.1346 2748
1701.29 -50.1346 2748
1705.37 -50.0617 2744
1708.82 -49.9704 2739
1709.73 -49.8062 2730
1716.26 -49.8062 2730
1720.26 -49.7333 2726
1723.61 -49.642 2721
1727.58 -49.5691 2717
1734.07 -49.5691 2717
1740.57 -49.5691 2717
1741.28 -49.4049 2708
1745.18 -49.3319 2704
1748.4 -49.2407 2699
1754.86 -49.2407 2699
1761.31 -49.2407 2699
1759.25 -49.0035 2686
1757.13 -48.7663 2673
1763.52 -48.7663 2673
1761.97 -48.5474 2661
1768.33 -48.5474 2661
1771.36 -48.4562 2656
1777.71 -48.4562 2656
1781.37 -48.3832 2652
1785.02 -48.3102 2648
1788.65 -48.2372 2644
1794.97 -48.2372 2644
1801.29 -48.2372 2644
1807.61 -48.2372 2644
1813.94 -48.2372 2644
1814.06 -48.0731 2635
1820.36 -48.0731 2635
1826.66 -48.0731 2635
1830.18 -48.0001 2631
1836.47 -48.0001 2631
1842.77 -48.0001 2631
1843.44 -47.8541 2623
1846.89 -47.7811 2619
1853.15 -47.7811 2619
1859.41 -47.7811 2619
1865.68 -47.7811 2619
1869.08 -47.7082 2615
1872.46 -47.6352 2611
1872.95 -47.4892 2603
1879.18 -47.4892 2603
1885.4 -47.4892 2603
1891.62 -47.4892 2603
1897.85 -47.4892 2603
1904.07 -47.4892 2603
1910.3 -47.4892 2603
1913.58 -47.4163 2599
1922.75 -47.4892 2603
1928.97 -47.4892 2603
1935.2 -47.4892 2603
1941.42 -47.4892 2603
1947.65 -47.4892 2603
1953.87 -47.4892 2603
1960.09 -47.4892 2603
1966.32 -47.4892 2603
1972.54 -47.4892 2603
1971.93 -47.325 2594
1978.13 -47.325 2594
1984.33 -47.325 2594
-2074.72 -43.9163 2771
-2071.82 -43.9955 2776
-2065.18 -43.9955 2776
-2058.54 -43.9955 2776
-2051.91 -43.9955 2776
-2045.27 -43.9955 2776
-2038.63 -43.9955 2776
-2031.99 -43.9955 2776
-2025.35 -43.9955 2776
-2018.71 -43.9955 2776
-2012.08 -43.9955 2776
-2005.44 -43.9955 2776
-1995.2 -43.9163 2771
-2002.21 -44.2174 2790
-1995.54 -44.2174 2790
-1988.87 -44.2174 2790
-1985.04 -44.2808 2794
-1978.35 -44.2808 2794
-1971.67 -44.2808 2794
-2173.49 -49.1463 3101
-2186.33 -49.6059 3130
-2178.84 -49.6059 3130
-2212.98 -50.5568 3190
-2213.65 -50.747 3202
-2321.73 -53.4096 3370
-2313.68 -53.4096 3370
-2324.77 -53.8533 3398
-2326.19 -54.0752 3412
-2318.03 -54.0752 3412
-2309.87 -54.0752 3412
-2339.49 -54.9627 3468
-2360.78 -55.66 3512
-2352.38 -55.66 3512
-2343.98 -55.66 3512
-2335.58 -55.66 3512
-2327.18 -55.66 3512
-2318.79 -55.66 3512
-2300.52 -55.4223 3497
-2292.16 -55.4223 3497
-2283.79 -55.4223 3497
-2275.43 -55.4223 3497
-2267.07 -55.4223 3497
-2258.71 -55.4223 3497
-2255.49 -55.5491 3505
-2256.73 -55.7868 3520
-2248.31 -55.7868 3520
-2239.89 -55.7868 3520
-2231.48 -55.7868 3520
-2236.95 -56.1355 3542
-2228.48 -56.1355 3542
-2234.43 -56.5 3565
-2225.9 -56.5 3565
-2217.38 -56.5 3565
-2208.85 -56.5 3565
-2200.33 -56.5 3565
-2191.8 -56.5 3565
-2187.57 -56.611 3572
-2179.02 -56.611 3572
-2184.46 -56.9755 3595
-2180.7 -57.1023 3603
-2181.73 -57.3558 3619
-2173.08 -57.3558 3619
-2164.42 -57.3558 3619
-2165.3 -57.6094 3635
-2170.25 -57.9739 3658
-2161.51 -57.9739 3658
-2167.47 -58.3702 3683
-2158.67 -58.3702 3683
-2149.86 -58.3702 3683
-2136.4 -58.2434 3675
-2127.61 -58.2434 3675
-2114.21 -58.1166 3667
-2105.44 -58.1166 3667
-2086.95 -57.8471 3650
-2069.68 -57.6094 3635
-2056.46 -57.4826 3627
-2052.3 -57.6094 3635
-2043.61 -57.6094 3635
-2034.92 -57.6094 3635
-2026.22 -57.6094 3635
-2017.53 -57.6094 3635
-2000 -57.3558 3619
-1986.94 -57.2291 3611
-1982.69 -57.3558 3619
-1974.03 -57.3558 3619
-1965.38 -57.3558 3619
-1956.73 -57.3558 3619
-1943.76 -57.2291 3611
-1935.13 -57.2291 3611
-1926.49 -57.2291 3611
-1913.61 -57.1023 3603
-1900.77 -56.9755 3595
-1892.17 -56.9755 3595
-1875.71 -56.7378 3580
-1859.33 -56.5 3565
-1858.59 -56.7378 3580
-1854.16 -56.8645 3588
-1845.58 -56.8645 3588
-1837 -56.8645 3588
-1828.42 -56.8645 3588
-1819.84 -56.8645 3588
-1811.26 -56.8645 3588
-1798.66 -56.7378 3580
-1786.1 -56.611 3572
-1781.54 -56.7378 3580
-1772.98 -56.7378 3580
-1764.42 -56.7378 3580
-1755.86 -56.7378 3580
-1743.39 -56.611 3572
-1734.85 -56.611 3572
-1722.93 -56.5 3565
-1714.4 -56.5 3565
-1702.05 -56.3732 3557
-1693.54 -56.3732 3557
-1677.93 -56.1355 3542
-1680.3 -56.5 3565
-1671.78 -56.5 3565
-1666.52 -56.611 3572
-1657.98 -56.611 3572
-1649.44 -56.611 3572
-1640.89 -56.611 3572
-1632.35 -56.611 3572
-1623.81 -56.611 3572
-1622.5 -56.8645 3588
-1617.07 -56.9755 3595
-1608.48 -56.9755 3595
-1599.88 -56.9755 3595
-1591.28 -56.9755 3595
-1576.08 -56.7378 3580
-1567.52 -56.7378 3580
-1558.96 -56.7378 3580
-1546.94 -56.611 3572
-1535.38 -56.5 3565
-1526.85 -56.5 3565
-1514.92 -56.3732 3557
-1500.06 -56.1355 3542
-1488.22 -56.0087 3534
-1479.77 -56.0087 3534
-1465.49 -55.7868 3520
-1453.76 -55.66 3512
-1430.55 -55.0895 3476
-1422.24 -55.0895 3476
-1402.13 -54.6299 3447
-1379.73 -54.0752 3412
-1338.61 -52.7756 3330
-1291.89 -51.2383 3233
-1284.16 -51.2383 3233
-1252.34 -50.2715 3172
-1223.57 -49.4157 3118
-1202.85 -48.8769 3084
-1195.47 -48.8769 3084
-1176.93 -48.4173 3055
-1152.78 -47.7199 3011
-1131.5 -47.1335 2974
-1116.45 -46.8007 2953
-1109.39 -46.8007 2953
-1102.33 -46.8007 2953
-1091.18 -46.6264 2942
-1088.2 -46.8007 2953
-1088.83 -47.1335 2974
-1081.72 -47.1335 2974
-1074.61 -47.1335 2974
-1063.55 -46.9592 2963
-1056.46 -46.9592 2963
-1045.83 -46.8007 2953
-1036.66 -46.7056 2947
-1029.61 -46.7056 2947
-1022.57 -46.7056 2947
-1013.8 -46.6264 2942
-1005.05 -46.5471 2937
-998.027 -46.5471 2937
-991.004 -46.5471 2937
-983.98 -46.5471 2937
-976.957 -46.5471 2937
-969.934 -46.5471 2937
-962.911 -46.5471 2937
-954.26 -46.4679 2932
-947.249 -46.4679 2932
-940.237 -46.4679 2932
-933.226 -46.4679 2932
-926.215 -46.4679 2932
-919.204 -46.4679 2932
-910.637 -46.3887 2927
-903.637 -46.3887 2927
-895.106 -46.3094 2922
-886.599 -46.2302 2917
-879.624 -46.2302 2917
-872.648 -46.2302 2917
-865.673 -46.2302 2917
-858.698 -46.2302 2917
-849.97 -46.1351 2911
-843.009 -46.1351 2911
-836.048 -46.1351 2911
-827.663 -46.0558 2906
-822.126 -46.1351 2911
-815.165 -46.1351 2911
-808.204 -46.1351 2911
-799.866 -46.0558 2906
-792.917 -46.0558 2906
-785.968 -46.0558 2906
-779.019 -46.0558 2906
-770.741 -45.9766 2901
-761.171 -45.8181 2891
-755.563 -45.8974 2896
-748.637 -45.8974 2896
-741.712 -45.8974 2896
-734.787 -45.8974 2896
-727.862 -45.8974 2896
-720.937 -45.8974 2896
-714.011 -45.8974 2896
-705.865 -45.8181 2891
-698.952 -45.8181 2891
-692.039 -45.8181 2891
-682.756 -45.6596 2881
-674.693 -45.5804 2876
-666.655 -45.5011 2871
-659.79 -45.5011 2871
-652.924 -45.5011 2871
-646.059 -45.5011 2871
-639.193 -45.5011 2871
-632.328 -45.5011 2871
-625.462 -45.5011 2871
-621.829 -45.7389 2886
-618.124 -45.9766 2901
-613.293 -46.1351 2911
-606.332 -46.1351 2911
-601.636 -46.3094 2922
-601.975 -46.88 2958
-613.404 -48.338 3050
-606.111 -48.338 3050
-607.652 -49.0512 3095
-618.676 -50.5568 3190
-621.774 -51.4443 3246
-614.012 -51.4443 3246
-612.227 -51.9515 3278
-604.388 -51.9515 3278
-601.099 -52.3477 3303
-593.2 -52.3477 3303
-587.783 -52.5696 3317
-583.347 -52.8866 3337
-576.402 -52.9816 3343
-568.408 -52.9816 3343
-560.413 -52.9816 3343
-554.733 -53.2035 3357
-547.682 -53.2986 3363
-539.64 -53.2986 3363
-534.918 -53.6314 3384
-527.916 -53.7424 3391
-520.88 -53.8533 3398
-512.754 -53.8533 3398
-504.628 -53.8533 3398
-497.525 -53.9643 3405
-489.383 -53.9643 3405
-481.241 -53.9643 3405
-473.098 -53.9643 3405
-465.912 -54.0752 3412
-458.692 -54.1861 3419
-450.516 -54.1861 3419
-444.151 -54.408 3433
-435.942 -54.408 3433
-427.733 -54.408 3433
-419.523 -54.408 3433
-408.798 -54.0752 3412
-399.817 -53.9643 3405
-393.285 -54.1861 3419
-385.109 -54.1861 3419
-376.933 -54.1861 3419
-368.757 -54.1861 3419
-360.581 -54.1861 3419
-352.406 -54.1861 3419
-342.82 -53.9643 3405
-332.614 -53.6314 3384
-321.932 -53.2035 3357
-313.905 -53.2035 3357
-304.055 -52.8866 3337
-295.454 -52.7756 3330
-286.886 -52.6647 3323
-278.94 -52.6647 3323
-270.994 -52.6647 3323
-262.573 -52.5696 3317
-254.103 -52.4586 3310
-246.188 -52.4586 3310
-237.337 -52.2526 3297
-228.966 -52.1417 3290
-219.822 -51.8406 3271
-212 -51.8406 3271
-204.178 -51.8406 3271
-120.779 -31.8873 2012
-115.968 -31.8873 2012
-111.156 -31.8873 2012
-106.239 -31.8556 2010
-101.18 -31.7763 2005
-96.1454 -31.6971 2000
-91.3628 -31.6971 2000
-86.5802 -31.6971 2000
-81.7976 -31.6971 2000
-77.3231 -31.8239 2008
-72.5936 -31.8556 2010
-67.8545 -31.8873 2012
-63.0432 -31.8873 2012
-58.3187 -31.9348 2015
-53.6861 -32.0457 2022
-49.0442 -32.1725 2030
-44.1898 -32.1725 2030
-39.4711 -32.2835 2037
-34.634 -32.3152 2039
-29.8311 -32.3944 2044
-24.9433 -32.3944 2044
-20.1045 -32.4736 2049
-15.2641 -32.6004 2057
-10.3854 -32.7272 2065
-5.4474 -32.7272 2065
-0.511823 -32.8857 2075
4.45657 -32.9333 2078
9.43476 -32.965 2080
14.4087 -32.965 2080
19.4292 -33.0442 2085
24.415 -33.0442 2085
29.4009 -33.0442 2085
34.3538 -33.0125 2083
39.3349 -33.0125 2083
44.316 -33.0125 2083
49.297 -33.0125 2083
54.2781 -33.0125 2083
59.2592 -33.0125 2083
64.2403 -33.0125 2083
69.2214 -33.0125 2083
74.2025 -33.0125 2083
79.1836 -33.0125 2083
84.1646 -33.0125 2083
89.1457 -33.0125 2083
94.2172 -33.0442 2085
99.203 -33.0442 2085
104.339 -33.0917 2088
109.489 -33.1393 2091
114.489 -33.1393 2091
119.489 -33.1393 2091
124.609 -33.171 2093
129.614 -33.171 2093
134.812 -33.2185 2096
139.824 -33.2185 2096
144.974 -33.2502 2098
150.563 -33.377 2106
155.821 -33.4246 2109
160.864 -33.4246 2109
166.301 -33.5038 2114
171.599 -33.5513 2117
176.912 -33.5989 2120
181.981 -33.5989 2120
187.492 -33.6781 2125
193.299 -33.8049 2133
199.236 -33.9476 2142
204.359 -33.9476 2142
209.676 -33.9793 2144
214.803 -33.9793 2144
220.238 -34.0268 2147
225.372 -34.0268 2147
230.828 -34.0743 2150
237.506 -34.2962 2164
244.251 -34.5181 2178
249.459 -34.5181 2178
255.603 -34.6449 2186
260.83 -34.6449 2186
266.058 -34.6449 2186
271.285 -34.6449 2186
408.528 -49.3206 3112
415.97 -49.3206 3112
423.411 -49.3206 3112
428.499 -49.0512 3095
434.351 -48.8769 3084
439.291 -48.6075 3067
446.625 -48.6075 3067
450.555 -48.2429 3044
453.773 -47.815 3017
456.862 -47.3871 2990
464.012 -47.3871 2990
469.429 -47.2128 2979
474.793 -47.0384 2968
478.481 -46.7056 2947
483.88 -46.5471 2937
490.904 -46.5471 2937
496.231 -46.3887 2927
502.371 -46.3094 2922
507.441 -46.1351 2911
514.402 -46.1351 2911
520.468 -46.0558 2906
526.509 -45.9766 2901
532.527 -45.8974 2896
539.452 -45.8974 2896
546.378 -45.8974 2896
553.303 -45.8974 2896
559.261 -45.8181 2891
566.174 -45.8181 2891
573.087 -45.8181 2891
578.997 -45.7389 2886
585.899 -45.7389 2886
592.8 -45.7389 2886
599.701 -45.7389 2886
605.552 -45.6596 2881
611.378 -45.5804 2876
618.255 -45.5804 2876
625.133 -45.5804 2876
632.01 -45.5804 2876
638.888 -45.5804 2876
645.765 -45.5804 2876
652.642 -45.5804 2876
659.52 -45.5804 2876
666.397 -45.5804 2876
673.275 -45.5804 2876
680.152 -45.5804 2876
687.029 -45.5804 2876
693.907 -45.5804 2876
699.566 -45.5011 2871
706.431 -45.5011 2871
713.297 -45.5011 2871
721.416 -45.5804 2876
728.294 -45.5804 2876
735.171 -45.5804 2876
742.048 -45.5804 2876
748.926 -45.5804 2876
755.803 -45.5804 2876
762.681 -45.5804 2876
768.22 -45.5011 2871
775.086 -45.5011 2871
781.951 -45.5011 2871
788.816 -45.5011 2871
795.682 -45.5011 2871
802.547 -45.5011 2871
809.413 -45.5011 2871
816.278 -45.5011 2871
823.144 -45.5011 2871
830.009 -45.5011 2871
836.874 -45.5011 2871
845.209 -45.5804 2876
852.087 -45.5804 2876
858.964 -45.5804 2876
865.841 -45.5804 2876
872.719 -45.5804 2876
879.596 -45.5804 2876
886.474 -45.5804 2876
894.904 -45.6596 2881
908.054 -45.9766 2901
921.614 -46.3094 2922
928.602 -46.3094 2922
941.993 -46.6264 2942
952.577 -46.8007 2953
969.712 -47.292 2984
976.848 -47.292 2984
994.865 -47.815 3017
1005.73 -47.9894 3028
1022.01 -48.4173 3055
1029.31 -48.4173 3055
1052.23 -49.1463 3101
1081.85 -50.1765 3166
1108.35 -51.0481 3221
1116.05 -51.0481 3221
1143.64 -51.9515 3278
1179.23 -53.2035 3357
1206.71 -54.0752 3412
1214.87 -54.0752 3412
1228.05 -54.2971 3426
1241.29 -54.519 3440
1249.52 -54.519 3440
1257.74 -54.519 3440
1265.97 -54.519 3440
1269.01 -54.2971 3426
1292.86 -54.9627 3468
1301.15 -54.9627 3468
1309.44 -54.9627 3468
1317.74 -54.9627 3468
1326.03 -54.9627 3468
1331.63 -54.8518 3461
1334.49 -54.6299 3447
1337.28 -54.408 3433
1342.74 -54.2971 3426
1350.93 -54.2971 3426
1350.8 -53.9643 3405
1342.18 -53.2986 3363
1339.78 -52.8866 3337
1347.76 -52.8866 3337
1355.74 -52.8866 3337
1363.72 -52.8866 3337
1371.7 -52.8866 3337
1379.68 -52.8866 3337
1384.75 -52.7756 3330
1389.78 -52.6647 3323
1397.73 -52.6647 3323
1405.68 -52.6647 3323
1411.07 -52.5696 3317
1410.45 -52.2526 3297
1415.32 -52.1417 3290
1423.19 -52.1417 3290
1431.05 -52.1417 3290
1438.92 -52.1417 3290
1446.79 -52.1417 3290
1454.66 -52.1417 3290
1462.52 -52.1417 3290
1467.71 -52.0466 3284
1475.56 -52.0466 3284
1486.12 -52.1417 3290
1493.99 -52.1417 3290
1501.86 -52.1417 3290
1504.22 -51.9515 3278
1502.83 -51.6345 3258
1522.68 -52.0466 3284
1536.59 -52.2526 3297
1544.48 -52.2526 3297
1558.48 -52.4586 3310
1569.71 -52.5696 3317
1593.34 -53.0926 3350
1601.35 -53.0926 3350
1609.36 -53.0926 3350
1617.37 -53.0926 3350
1625.38 -53.0926 3350
1623.64 -52.7756 3330
1628.17 -52.6647 3323
1629.72 -52.4586 3310
1637.63 -52.4586 3310
1645.55 -52.4586 3310
1646.97 -52.2526 3297
1645.32 -51.9515 3278
1653.16 -51.9515 3278
1654.41 -51.7455 3265
1665.27 -51.8406 3271
1676.67 -51.9515 3278
1684.51 -51.9515 3278
1692.35 -51.9515 3278
1700.19 -51.9515 3278
1694.48 -51.5394 3252
1699.11 -51.4443 3246
1706.88 -51.4443 3246
1714.64 -51.4443 3246
1722.4 -51.4443 3246
1726.43 -51.3334 3239
1734.18 -51.3334 3239
1741.92 -51.3334 3239
1746.43 -51.2383 3233
1750.9 -51.1432 3227
1758.62 -51.1432 3227
1746.08 -50.5568 3190
1737.22 -50.0814 3160
1731.52 -49.701 3136
1716.29 -49.0512 3095
1723.69 -49.0512 3095
1715.43 -48.6075 3067
1700.86 -47.9894 3028
1689.48 -47.4664 2995
1696.64 -47.4664 2995
1653.18 -46.0558 2906
1632.13 -45.2793 2857
1630.36 -45.0415 2842
1631.39 -44.883 2832
1638.17 -44.883 2832
1639.71 -44.7404 2823
1638.3 -44.5185 2809
1636.23 -44.2808 2794
1642.91 -44.2808 2794
1647.23 -44.2174 2790
1650.94 -44.1382 2785
1652.24 -43.9955 2776
1658.88 -43.9955 2776
1662.52 -43.9163 2771
1666.73 -43.8529 2767
1673.35 -43.8529 2767
1676.93 -43.7737 2762
1683.54 -43.7737 2762
1687.08 -43.6944 2757
1693.68 -43.6944 2757
1694.72 -43.5518 2748
1701.29 -43.5518 2748
1705.37 -43.4884 2744
1708.82 -43.4091 2739
1709.73 -43.2665 2730
1716.26 -43.2665 2730
1722.79 -43.2665 2730
1726.78 -43.2031 2726
1727.58 -43.0605 2717
1734.07 -43.0605 2717
1740.57 -43.0605 2717
1741.28 -42.9178 2708
1747.76 -42.9178 2708
1751.64 -42.8544 2704
1758.11 -42.8544 2704
1764.57 -42.8544 2704
1765.15 -42.7118 2695
1763.04 -42.5058 2682
1769.46 -42.5058 2682
1767.26 -42.2997 2669
1770.99 -42.2363 2665
1771.36 -42.0937 2656
1777.71 -42.0937 2656
1784.06 -42.0937 2656
1787.72 -42.0303 2652
1791.35 -41.9669 2648
1797.68 -41.9669 2648
1804.02 -41.9669 2648
1810.35 -41.9669 2648
1816.68 -41.9669 2648
1820.26 -41.9035 2644
1826.58 -41.9035 2644
1826.66 -41.7609 2635
1832.97 -41.7609 2635
1836.47 -41.6975 2631
1842.77 -41.6975 2631
1846.25 -41.6341 2627
1849.71 -41.5707 2623
1855.98 -41.5707 2623
1862.25 -41.5707 2623
1868.52 -41.5707 2623
1871.94 -41.5073 2619
1875.33 -41.4439 2615
1878.71 -41.3805 2611
1884.95 -41.3805 2611
1891.19 -41.3805 2611
1897.44 -41.3805 2611
1903.68 -41.3805 2611
1909.93 -41.3805 2611
1913.23 -41.3171 2607
1916.52 -41.2537 2603
1922.75 -41.2537 2603
1928.97 -41.2537 2603
1935.2 -41.2537 2603
1941.42 -41.2537 2603
1947.65 -41.2537 2603
1953.87 -41.2537 2603
1960.09 -41.2537 2603
1966.32 -41.2537 2603
1972.54 -41.2537 2603
1971.93 -41.1111 2594
1978.13 -41.1111 2594
1984.33 -41.1111 2594
-2074.72 -37.2783 2771
-2071.82 -37.3456 2776
-2065.18 -37.3456 2776
-2058.54 -37.3456 2776
-2051.91 -37.3456 2776
-2045.27 -37.3456 2776
-2038.63 -37.3456 2776
-2031.99 -37.3456 2776
-2025.35 -37.3456 2776
-2018.71 -37.3456 2776
-2012.08 -37.3456 2776
-2005.44 -37.3456 2776
-1995.2 -37.2783 2771
-1998.62 -37.4667 2785
-1991.96 -37.4667 2785
-1985.3 -37.4667 2785
-1978.64 -37.4667 2785
-1971.98 -37.4667 2785
-1965.32 -37.4667 2785
-2213.65 -43.0766 3202
-2355.49 -45.9959 3419
-2347.32 -45.9959 3419
-2339.14 -45.9959 3419
-2330.96 -45.9959 3419
-2322.79 -45.9959 3419
-2314.61 -45.9959 3419
-2364.45 -47.1529 3505
-2370.86 -47.4488 3527
-2372.47 -47.6506 3542
-2364 -47.6506 3542
-2355.53 -47.6506 3542
-2347.06 -47.6506 3542
-2338.59 -47.6506 3542
-2324.86 -47.543 3534
-2316.41 -47.543 3534
-2303.39 -47.4488 3527
-2294.95 -47.4488 3527
-2286.52 -47.4488 3527
-2268.4 -47.247 3512
-2265.15 -47.3546 3520
-2270.83 -47.6506 3542
-2262.36 -47.6506 3542
-2253.89 -47.6506 3542
-2245.42 -47.6506 3542
-2251.48 -47.96 3565
-2242.95 -47.96 3565
-2248.84 -48.2695 3588
-2244.63 -48.3636 3595
-2236.04 -48.3636 3595
-2227.44 -48.3636 3595
-2200.33 -47.96 3565
-2191.8 -47.96 3565
-2187.57 -48.0542 3572
-2179.02 -48.0542 3572
-2184.46 -48.3636 3595
-2180.7 -48.4712 3603
-2181.73 -48.6865 3619
-2173.08 -48.6865 3619
-2164.42 -48.6865 3619
-2174.24 -49.1035 3650
-2170.25 -49.2112 3658
-2161.51 -49.2112 3658
-2167.47 -49.5475 3683
-2158.67 -49.5475 3683
-2149.86 -49.5475 3683
-2136.4 -49.4399 3675
-2127.61 -49.4399 3675
-2118.82 -49.4399 3675
-2110.04 -49.4399 3675
-2086.95 -49.1035 3650
-2069.68 -48.9017 3635
-2060.99 -48.9017 3635
-2052.3 -48.9017 3635
-2043.61 -48.9017 3635
-2034.92 -48.9017 3635
-2026.22 -48.9017 3635
-2017.53 -48.9017 3635
-2000 -48.6865 3619
-1986.94 -48.5789 3611
-1982.69 -48.6865 3619
-1974.03 -48.6865 3619
-1965.38 -48.6865 3619
-1956.73 -48.6865 3619
-1943.76 -48.5789 3611
-1935.13 -48.5789 3611
-1922.23 -48.4712 3603
-1909.36 -48.3636 3595
-1900.77 -48.3636 3595
-1892.17 -48.3636 3595
-1875.71 -48.1618 3580
-1862.98 -48.0542 3572
-1858.59 -48.1618 3580
-1854.16 -48.2695 3588
-1845.58 -48.2695 3588
-1837 -48.2695 3588
-1828.42 -48.2695 3588
-1819.84 -48.2695 3588
-1811.26 -48.2695 3588
-1798.66 -48.1618 3580
-1790.1 -48.1618 3580
-1781.54 -48.1618 3580
-1772.98 -48.1618 3580
-1764.42 -48.1618 3580
-1755.86 -48.1618 3580
-1743.39 -48.0542 3572
-1734.85 -48.0542 3572
-1719.06 -47.8524 3557
-1710.56 -47.8524 3557
-1702.05 -47.8524 3557
-1697.35 -47.96 3565
-1688.83 -47.96 3565
-1680.3 -47.96 3565
-1678.81 -48.1618 3580
-1670.25 -48.1618 3580
-1661.69 -48.1618 3580
-1653.13 -48.1618 3580
-1640.89 -48.0542 3572
-1636.01 -48.1618 3580
-1627.45 -48.1618 3580
-1629.29 -48.4712 3603
-1620.67 -48.4712 3603
-1612.06 -48.4712 3603
-1603.44 -48.4712 3603
-1591.28 -48.3636 3595
-1579.6 -48.2695 3588
-1571.02 -48.2695 3588
-1558.96 -48.1618 3580
-1546.94 -48.0542 3572
-1538.39 -48.0542 3572
-1529.85 -48.0542 3572
-1514.92 -47.8524 3557
-1500.06 -47.6506 3542
-1488.22 -47.543 3534
-1479.77 -47.543 3534
-1462.16 -47.247 3512
-1453.76 -47.247 3512
-1430.55 -46.7627 3476
-1422.24 -46.7627 3476
-1410.67 -46.6551 3468
-1391.06 -46.2784 3440
-1354.69 -45.3367 3370
-1299.48 -43.7492 3252
-1291.7 -43.7492 3252
-1259.45 -42.9151 3190
-1232.98 -42.2694 3142
-1211.82 -41.7985 3107
-1204.39 -41.7985 3107
-1176.93 -41.099 3055
-1156.99 -40.655 3022
-1141.39 -40.3591 3000
-1122.12 -39.9286 2968
-1115.02 -39.9286 2968
-1104.19 -39.794 2958
-1097.12 -39.794 2958
-1097.78 -40.0766 2979
-1090.66 -40.0766 2979
-1083.54 -40.0766 2979
-1076.41 -40.0766 2979
-1069.29 -40.0766 2979
-1062.16 -40.0766 2979
-1049.37 -39.8613 2963
-1042.29 -39.8613 2963
-1031.71 -39.7268 2953
-1024.65 -39.7268 2953
-1017.59 -39.7268 2953
-1010.53 -39.7268 2953
-1001.43 -39.6461 2947
-994.378 -39.6461 2947
-987.331 -39.6461 2947
-976.957 -39.5115 2937
-969.934 -39.5115 2937
-962.911 -39.5115 2937
-955.887 -39.5115 2937
-948.864 -39.5115 2937
-940.237 -39.4443 2932
-933.226 -39.4443 2932
-926.215 -39.4443 2932
-919.204 -39.4443 2932
-910.637 -39.377 2927
-903.637 -39.377 2927
-895.106 -39.3097 2922
-886.599 -39.2425 2917
-879.624 -39.2425 2917
-872.648 -39.2425 2917
-865.673 -39.2425 2917
-858.698 -39.2425 2917
-849.97 -39.1618 2911
-843.009 -39.1618 2911
-836.048 -39.1618 2911
-827.663 -39.0945 2906
-822.126 -39.1618 2911
-815.165 -39.1618 2911
-808.204 -39.1618 2911
-799.866 -39.0945 2906
-792.917 -39.0945 2906
-785.968 -39.0945 2906
-779.019 -39.0945 2906
-770.741 -39.0272 2901
-761.171 -38.8927 2891
-755.563 -38.96 2896
-748.637 -38.96 2896
-741.712 -38.96 2896
-734.787 -38.96 2896
-727.862 -38.96 2896
-720.937 -38.96 2896
-714.011 -38.96 2896
-707.086 -38.96 2896
-698.952 -38.8927 2891
-692.039 -38.8927 2891
-682.756 -38.7582 2881
-674.693 -38.6909 2876
-667.816 -38.6909 2876
-660.939 -38.6909 2876
-654.061 -38.6909 2876
-647.184 -38.6909 2876
-640.306 -38.6909 2876
-633.429 -38.6909 2876
-626.552 -38.6909 2876
-625.061 -39.0272 2901
-620.254 -39.1618 2911
-614.557 -39.2425 2917
-607.582 -39.2425 2917
-604.725 -39.5115 2937
-608.487 -40.2245 2990
-617.829 -41.3277 3072
-610.483 -41.3277 3072
-610.99 -41.8658 3112
-618.676 -42.9151 3190
-624.073 -43.83 3258
-616.282 -43.83 3258
-612.227 -44.099 3278
-607.891 -44.3546 3297
-603.647 -44.6237 3317
-595.715 -44.6237 3317
-591.327 -44.8927 3337
-586.843 -45.1618 3357
-579.85 -45.2425 3363
-571.808 -45.2425 3363
-563.766 -45.2425 3363
-558.038 -45.4309 3377
-553.382 -45.7134 3398
-545.257 -45.7134 3398
-539.344 -45.9017 3412
-533.364 -46.0901 3426
-527.318 -46.2784 3440
-519.092 -46.2784 3440
-510.866 -46.2784 3440
-503.662 -46.3726 3447
-496.426 -46.4667 3454
-488.166 -46.4667 3454
-479.906 -46.4667 3454
-471.647 -46.4667 3454
-463.387 -46.4667 3454
-455.128 -46.4667 3454
-448.68 -46.6551 3468
-440.387 -46.6551 3468
-432.093 -46.6551 3468
-422.09 -46.4667 3454
-412.991 -46.3726 3447
-404.749 -46.3726 3447
-397.311 -46.4667 3454
-389.051 -46.4667 3454
-380.792 -46.4667 3454
-372.532 -46.4667 3454
-362.058 -46.1842 3433
-353.849 -46.1842 3433
-344.23 -45.9959 3419
-334.678 -45.8075 3405
-324.521 -45.525 3384
-316.429 -45.525 3384
-306.424 -45.2425 3363
-298.382 -45.2425 3363
-290.34 -45.2425 3363
-282.298 -45.2425 3363
-274.256 -45.2425 3363
-265.739 -45.1618 3357
-257.174 -45.0676 3350
-249.163 -45.0676 3350
-240.648 -44.9735 3343
-230.358 -44.5295 3310
-219.822 -44.0048 3271
-212 -44.0048 3271
-120.779 -27.0675 2012
-115.968 -27.0675 2012
-111.156 -27.0675 2012
-106.239 -27.0406 2010
-101.079 -26.9464 2003
-96.1454 -26.906 2000
-91.3628 -26.906 2000
-86.7101 -26.9464 2003
-81.9203 -26.9464 2003
-77.3231 -27.0137 2008
-72.6658 -27.0675 2012
-67.9557 -27.1078 2015
-63.1372 -27.1078 2015
-58.4634 -27.1751 2020
-53.7658 -27.2424 2025
-49.0442 -27.3096 2030
-44.1898 -27.3096 2030
-39.5099 -27.4307 2039
-34.685 -27.4711 2042
-29.8749 -27.5383 2047
-24.9799 -27.5383 2047
-20.1045 -27.5652 2049
-15.2641 -27.6729 2057
-10.3854 -27.7805 2065
-5.4474 -27.7805 2065
-0.511823 -27.915 2075
4.45657 -27.9554 2078
9.43476 -27.9823 2080
14.4087 -27.9823 2080
19.4105 -28.0227 2083
24.3916 -28.0227 2083
29.3727 -28.0227 2083
34.3538 -28.0227 2083
39.3349 -28.0227 2083
44.316 -28.0227 2083
49.297 -28.0227 2083
54.2781 -28.0227 2083
59.2592 -28.0227 2083
64.2403 -28.0227 2083
69.2214 -28.0227 2083
74.2025 -28.0227 2083
79.1836 -28.0227 2083
84.1646 -28.0227 2083
89.1457 -28.0227 2083
94.2172 -28.0496 2085
99.203 -28.0496 2085
104.339 -28.0899 2088
109.489 -28.1303 2091
114.489 -28.1303 2091
119.489 -28.1303 2091
124.609 -28.1572 2093
129.614 -28.1572 2093
134.812 -28.1975 2096
139.824 -28.1975 2096
144.974 -28.2244 2098
150.42 -28.3052 2104
155.599 -28.3321 2106
160.635 -28.3321 2106
166.301 -28.4397 2114
171.599 -28.4801 2117
177.079 -28.5473 2122
182.153 -28.5473 2122
187.757 -28.628 2128
193.57 -28.7357 2136
199.422 -28.8433 2144
204.549 -28.8433 2144
209.676 -28.8433 2144
215.104 -28.8836 2147
220.546 -28.924 2150
225.687 -28.924 2150
231.15 -28.9644 2153
237.835 -29.1527 2167
245.148 -29.4083 2186
250.375 -29.4083 2186
256.655 -29.5294 2195
261.904 -29.5294 2195
267.153 -29.5294 2195
272.402 -29.5294 2195
408.528 -41.8658 3112
415.97 -41.8658 3112
423.411 -41.8658 3112
430.161 -41.7985 3107
435.9 -41.6371 3095
439.291 -41.2604 3067
446.625 -41.2604 3067
451.443 -41.0317 3050
453.773 -40.5878 3017
456.862 -40.2245 2990
464.012 -40.2245 2990
469.429 -40.0766 2979
474.793 -39.9286 2968
478.481 -39.6461 2947
484.704 -39.5788 2942
491.739 -39.5788 2942
496.231 -39.377 2927
502.371 -39.3097 2922
507.441 -39.1618 2911
514.402 -39.1618 2911
520.468 -39.0945 2906
527.417 -39.0945 2906
533.447 -39.0272 2901
540.384 -39.0272 2901
546.378 -38.96 2896
553.303 -38.96 2896
560.228 -38.96 2896
567.153 -38.96 2896
573.087 -38.8927 2891
580 -38.8927 2891
586.914 -38.8927 2891
593.827 -38.8927 2891
599.701 -38.8254 2886
606.603 -38.8254 2886
612.441 -38.7582 2881
619.33 -38.7582 2881
626.22 -38.7582 2881
633.109 -38.7582 2881
639.998 -38.7582 2881
646.888 -38.7582 2881
653.777 -38.7582 2881
660.666 -38.7582 2881
667.556 -38.7582 2881
674.445 -38.7582 2881
681.334 -38.7582 2881
687.029 -38.6909 2876
693.907 -38.6909 2876
700.784 -38.6909 2876
707.662 -38.6909 2876
714.539 -38.6909 2876
721.416 -38.6909 2876
728.294 -38.6909 2876
735.171 -38.6909 2876
742.048 -38.6909 2876
748.926 -38.6909 2876
755.803 -38.6909 2876
762.681 -38.6909 2876
769.558 -38.6909 2876
776.435 -38.6909 2876
783.313 -38.6909 2876
790.19 -38.6909 2876
797.068 -38.6909 2876
802.547 -38.6236 2871
809.413 -38.6236 2871
817.7 -38.6909 2876
824.577 -38.6909 2876
831.455 -38.6909 2876
838.332 -38.6909 2876
846.679 -38.7582 2881
853.568 -38.7582 2881
860.457 -38.7582 2881
867.347 -38.7582 2881
874.236 -38.7582 2881
881.125 -38.7582 2881
888.015 -38.7582 2881
898.01 -38.8927 2891
913.062 -39.2425 2917
924.768 -39.4443 2932
931.78 -39.4443 2932
943.594 -39.6461 2947
962.576 -40.1438 2984
980.436 -40.5878 3017
987.651 -40.5878 3017
998.493 -40.7358 3028
1011.05 -40.951 3044
1027.69 -41.3277 3072
1035.04 -41.3277 3072
1054.26 -41.7985 3107
1083.9 -42.673 3172
1108.35 -43.3322 3221
1116.05 -43.3322 3221
1143.64 -44.099 3278
1172.2 -44.8927 3337
1194.33 -45.4309 3377
1202.41 -45.4309 3377
1223.03 -45.9017 3412
1231.19 -45.9017 3412
1239.35 -45.9017 3412
1247.5 -45.9017 3412
1253.09 -45.8075 3405
1261.23 -45.8075 3405
1279.81 -46.1842 3433
1288.02 -46.1842 3433
1301.52 -46.3726 3447
1309.76 -46.3726 3447
1318 -46.3726 3447
1326.24 -46.3726 3447
1331.78 -46.2784 3440
1337.28 -46.1842 3433
1337.26 -45.9017 3412
1345.41 -45.9017 3412
1345.24 -45.6192 3391
1336.99 -45.0676 3350
1339.78 -44.8927 3337
1347.76 -44.8927 3337
1355.74 -44.8927 3337
1363.72 -44.8927 3337
1371.7 -44.8927 3337
1379.68 -44.8927 3337
1384.75 -44.7986 3330
1392.71 -44.7986 3330
1397.73 -44.7044 3323
1405.68 -44.7044 3323
1413.62 -44.7044 3323
1410.45 -44.3546 3297
1415.32 -44.2605 3290
1423.19 -44.2605 3290
1431.05 -44.2605 3290
1438.92 -44.2605 3290
1446.79 -44.2605 3290
1452 -44.1797 3284
1459.86 -44.1797 3284
1467.71 -44.1797 3284
1475.56 -44.1797 3284
1486.12 -44.2605 3290
1493.99 -44.2605 3290
1501.86 -44.2605 3290
1506.97 -44.1797 3284
1502.83 -43.83 3258
1522.68 -44.1797 3284
1533.33 -44.2605 3290
1541.2 -44.2605 3290
1552.36 -44.3546 3297
1566.4 -44.5295 3310
1587.15 -44.8927 3337
1595.13 -44.8927 3337
1603.11 -44.8927 3337
1611.09 -44.8927 3337
1619.07 -44.8927 3337
1620.23 -44.7044 3323
1621.8 -44.5295 3310
1629.72 -44.5295 3310
1637.63 -44.5295 3310
1645.55 -44.5295 3310
1646.97 -44.3546 3297
1645.32 -44.099 3278
1653.16 -44.099 3278
1654.41 -43.9241 3265
1662.21 -43.9241 3265
1676.67 -44.099 3278
1684.51 -44.099 3278
1692.35 -44.099 3278
1700.19 -44.099 3278
1697.61 -43.83 3258
1702.26 -43.7492 3252
1710.03 -43.7492 3252
1717.81 -43.7492 3252
1725.58 -43.7492 3252
1730.16 -43.6685 3246
1737.93 -43.6685 3246
1745.69 -43.6685 3246
1753.45 -43.6685 3246
1757.41 -43.5743 3239
1765.16 -43.5743 3239
1755.94 -43.1573 3208
1743.82 -42.673 3172
1744.78 -42.5116 3160
1735.7 -42.108 3130
1743.18 -42.108 3130
1737.8 -41.7985 3107
1722.76 -41.2604 3067
1708.1 -40.7358 3028
1715.34 -40.7358 3028
1665.12 -39.377 2927
1640.13 -38.6236 2871
1638.96 -38.4353 2857
1637.16 -38.2335 2842
1643.95 -38.2335 2842
1642.62 -38.0452 2828
1640.63 -37.8434 2813
1639.16 -37.655 2799
1645.85 -37.655 2799
1649.59 -37.5878 2794
1650.94 -37.4667 2785
1652.24 -37.3456 2776
1658.88 -37.3456 2776
1662.52 -37.2783 2771
1669.14 -37.2783 2771
1673.35 -37.2245 2767
1676.93 -37.1573 2762
1683.54 -37.1573 2762
1687.08 -37.09 2757
1693.68 -37.09 2757
1694.72 -36.9689 2748
1701.29 -36.9689 2748
1705.37 -36.9151 2744
1708.82 -36.8478 2739
1709.73 -36.7268 2730
1716.26 -36.7268 2730
1722.79 -36.7268 2730
1726.78 -36.6729 2726
1730.12 -36.6057 2721
1734.07 -36.5519 2717
1740.57 -36.5519 2717
1744.5 -36.4981 2713
1750.98 -36.4981 2713
1757.47 -36.4981 2713
1763.96 -36.4981 2713
1767.18 -36.4308 2708
1767.77 -36.3097 2699
1768.96 -36.2021 2691
1775.4 -36.2021 2691
1773.22 -36.0272 2678
1773.65 -35.9061 2669
1777.36 -35.8523 2665
1783.73 -35.8523 2665
1790.11 -35.8523 2665
1790.41 -35.7312 2656
1794.06 -35.6774 2652
1803.11 -35.7312 2656
1809.47 -35.7312 2656
1815.82 -35.7312 2656
1822.17 -35.7312 2656
1825.77 -35.6774 2652
1832.11 -35.6774 2652
1832.9 -35.5698 2644
1839.23 -35.5698 2644
1842.76 -35.516 2640
1849.07 -35.516 2640
1849.06 -35.3949 2631
1855.35 -35.3949 2631
1858.81 -35.3411 2627
1865.09 -35.3411 2627
1871.37 -35.3411 2627
1874.8 -35.2873 2623
1878.2 -35.2335 2619
1881.59 -35.1797 2615
1887.84 -35.1797 2615
1894.09 -35.1797 2615
1900.35 -35.1797 2615
1903.68 -35.1258 2611
1909.93 -35.1258 2611
1916.17 -35.1258 2611
1919.47 -35.072 2607
1922.75 -35.0182 2603
1931.94 -35.072 2607
1938.17 -35.072 2607
1944.4 -35.072 2607
1950.64 -35.072 2607
1956.87 -35.072 2607
1963.11 -35.072 2607
1969.34 -35.072 2607
1975.58 -35.072 2607
1971.93 -34.8971 2594
1978.13 -34.8971 2594
1984.33 -34.8971 2594
-2078.46 -30.6957 2776
-2071.82 -30.6957 2776
-2065.18 -30.6957 2776
-2058.54 -30.6957 2776
-2051.91 -30.6957 2776
-2045.27 -30.6957 2776
-2038.63 -30.6957 2776
-2031.99 -30.6957 2776
-2025.35 -30.6957 2776
-2018.71 -30.6957 2776
-2012.08 -30.6957 2776
-2005.44 -30.6957 2776
-1998.8 -30.6957 2776
-1998.62 -30.7952 2785
-1991.96 -30.7952 2785
-1985.3 -30.7952 2785
-1978.64 -30.7952 2785
-1971.98 -30.7952 2785
-1965.32 -30.7952 2785
-2213.65 -35.4062 3202
-2355.49 -37.8056 3419
-2347.32 -37.8056 3419
-2339.14 -37.8056 3419
-2330.96 -37.8056 3419
-2322.79 -37.8056 3419
-2314.61 -37.8056 3419
-2364.45 -38.7566 3505
-2380.94 -39.1657 3542
-2377.16 -39.2431 3549
-2368.67 -39.2431 3549
-2360.19 -39.2431 3549
-2351.7 -39.2431 3549
-2343.21 -39.2431 3549
-2334.73 -39.2431 3549
-2326.24 -39.2431 3549
-2313.18 -39.1657 3542
-2304.71 -39.1657 3542
-2296.24 -39.1657 3542
-2278.08 -38.9999 3527
-2279.3 -39.1657 3542
-2270.83 -39.1657 3542
-2262.36 -39.1657 3542
-2253.89 -39.1657 3542
-2260 -39.42 3565
-2266 -39.6744 3588
-2257.42 -39.6744 3588
-2263.26 -39.9287 3611
-2254.62 -39.9287 3611
-2245.99 -39.9287 3611
-2237.35 -39.9287 3611
-2218.84 -39.7518 3595
-2201.03 -39.5859 3580
-2197.36 -39.6744 3588
-2188.78 -39.6744 3588
-2189.32 -39.8402 3603
-2190.39 -40.0172 3619
-2181.73 -40.0172 3619
-2173.08 -40.0172 3619
-2164.42 -40.0172 3619
-2179 -40.4484 3658
-2185.09 -40.7248 3683
-2176.28 -40.7248 3683
-2172.18 -40.8133 3691
-2163.35 -40.8133 3691
-2154.53 -40.8133 3691
-2141.05 -40.7248 3683
-2132.24 -40.7248 3683
-2123.44 -40.7248 3683
-2114.63 -40.7248 3683
-2091.53 -40.4484 3658
-2073.67 -40.2715 3642
-2064.96 -40.2715 3642
-2056.25 -40.2715 3642
-2047.54 -40.2715 3642
-2038.83 -40.2715 3642
-2030.12 -40.2715 3642
-2021.42 -40.2715 3642
-2008.84 -40.1941 3635
-2000.15 -40.1941 3635
-1991.45 -40.1941 3635
-1982.76 -40.1941 3635
-1974.07 -40.1941 3635
-1965.38 -40.1941 3635
-1943.76 -39.9287 3611
-1935.13 -39.9287 3611
-1926.49 -39.9287 3611
-1913.61 -39.8402 3603
-1904.99 -39.8402 3603
-1896.38 -39.8402 3603
-1879.9 -39.6744 3588
-1867.15 -39.5859 3580
-1858.59 -39.5859 3580
-1857.78 -39.7518 3595
-1849.18 -39.7518 3595
-1840.59 -39.7518 3595
-1831.99 -39.7518 3595
-1823.39 -39.7518 3595
-1814.8 -39.7518 3595
-1802.68 -39.6744 3588
-1797.6 -39.7518 3595
-1789.01 -39.7518 3595
-1780.41 -39.7518 3595
-1771.81 -39.7518 3595
-1755.86 -39.5859 3580
-1747.3 -39.5859 3580
-1738.74 -39.5859 3580
-1730.18 -39.5859 3580
-1714.4 -39.42 3565
-1705.88 -39.42 3565
-1697.35 -39.42 3565
-1688.83 -39.42 3565
-1680.3 -39.42 3565
-1678.81 -39.5859 3580
-1670.25 -39.5859 3580
-1661.69 -39.5859 3580
-1653.13 -39.5859 3580
-1640.89 -39.4974 3572
-1636.01 -39.5859 3580
-1627.45 -39.5859 3580
-1629.29 -39.8402 3603
-1620.67 -39.8402 3603
-1612.06 -39.8402 3603
-1603.44 -39.8402 3603
-1591.28 -39.7518 3595
-1579.6 -39.6744 3588
-1571.02 -39.6744 3588
-1558.96 -39.5859 3580
-1546.94 -39.4974 3572
-1538.39 -39.4974 3572
-1529.85 -39.4974 3572
-1514.92 -39.3316 3557
-1500.06 -39.1657 3542
-1488.22 -39.0773 3534
-1479.77 -39.0773 3534
-1462.16 -38.834 3512
-1453.76 -38.834 3512
-1433.43 -38.5133 3483
-1425.1 -38.5133 3483
-1410.67 -38.3475 3468
-1393.89 -38.1153 3447
-1354.69 -37.2638 3370
-1301.88 -36.0254 3258
-1294.09 -36.0254 3258
-1259.45 -35.2735 3190
-1235.34 -34.8091 3148
-1216.11 -34.4773 3118
-1208.65 -34.4773 3118
-1179.24 -33.8471 3061
-1169.62 -33.7807 3055
-1143.67 -33.2389 3006
-1136.49 -33.2389 3006
-1119.15 -32.9403 2979
-1107.92 -32.8187 2968
-1100.83 -32.8187 2968
-1101.84 -33.062 2990
-1094.69 -33.062 2990
-1087.54 -33.062 2990
-1080.39 -33.062 2990
-1071.08 -32.9956 2984
-1063.95 -32.9956 2984
-1055.04 -32.9403 2979
-1046.16 -32.8851 2974
-1035.2 -32.7634 2963
-1028.12 -32.7634 2963
-1019.31 -32.7081 2958
-1010.53 -32.6528 2953
-1003.46 -32.6528 2953
-996.402 -32.6528 2953
-987.331 -32.5865 2947
-980.284 -32.5865 2947
-973.236 -32.5865 2947
-966.189 -32.5865 2947
-957.515 -32.5312 2942
-950.48 -32.5312 2942
-941.841 -32.4759 2937
-934.818 -32.4759 2937
-927.794 -32.4759 2937
-920.771 -32.4759 2937
-910.637 -32.3653 2927
-903.637 -32.3653 2927
-895.106 -32.3101 2922
-886.599 -32.2548 2917
-879.624 -32.2548 2917
-872.648 -32.2548 2917
-865.673 -32.2548 2917
-858.698 -32.2548 2917
-851.722 -32.2548 2917
-844.747 -32.2548 2917
-837.771 -32.2548 2917
-829.087 -32.1884 2911
-822.126 -32.1884 2911
-815.165 -32.1884 2911
-808.204 -32.1884 2911
-801.243 -32.1884 2911
-794.282 -32.1884 2911
-785.968 -32.1331 2906
-779.019 -32.1331 2906
-770.741 -32.0779 2901
-762.488 -32.0226 2896
-755.563 -32.0226 2896
-749.93 -32.0779 2901
-742.993 -32.0779 2901
-736.056 -32.0779 2901
-729.118 -32.0779 2901
-722.181 -32.0779 2901
-715.244 -32.0779 2901
-707.086 -32.0226 2896
-698.952 -31.9673 2891
-692.039 -31.9673 2891
-683.941 -31.912 2886
-675.866 -31.8567 2881
-667.816 -31.8014 2876
-660.939 -31.8014 2876
-654.061 -31.8014 2876
-648.309 -31.8567 2881
-641.42 -31.8567 2881
-634.53 -31.8567 2881
-627.641 -31.8567 2881
-627.216 -32.1884 2911
-621.533 -32.2548 2917
-618.771 -32.4759 2937
-611.748 -32.4759 2937
-609.048 -32.7081 2958
-612.761 -33.2942 3011
-619.035 -34.035 3078
-611.675 -34.035 3078
-614.524 -34.61 3130
-621.003 -35.4062 3202
-627.904 -36.2465 3278
-620.065 -36.2465 3278
-616.896 -36.523 3303
-611.578 -36.6778 3317
-609.652 -37.0427 3350
-601.641 -37.0427 3350
-594.871 -37.1201 3357
-592.787 -37.496 3391
-585.885 -37.5734 3398
-577.759 -37.5734 3398
-570.807 -37.6508 3405
-564.978 -37.8056 3419
-556.802 -37.8056 3419
-548.626 -37.8056 3419
-544.876 -38.1153 3447
-536.634 -38.1153 3447
-529.464 -38.1927 3454
-521.204 -38.1927 3454
-512.945 -38.1927 3454
-506.731 -38.3475 3468
-499.588 -38.4359 3476
-491.275 -38.4359 3476
-482.963 -38.4359 3476
-474.651 -38.4359 3476
-466.339 -38.4359 3476
-458.027 -38.4359 3476
-450.62 -38.5133 3483
-442.291 -38.5133 3483
-433.962 -38.5133 3483
-424.778 -38.4359 3476
-414.669 -38.2701 3461
-406.392 -38.2701 3461
-398.921 -38.3475 3468
-390.628 -38.3475 3468
-382.335 -38.3475 3468
-373.287 -38.2701 3461
-365.011 -38.2701 3461
-356.735 -38.2701 3461
-346.344 -38.0379 3440
-337.43 -37.9605 3433
-326.535 -37.6508 3405
-318.393 -37.6508 3405
-308.337 -37.4186 3384
-300.245 -37.4186 3384
-292.153 -37.4186 3384
-284.061 -37.4186 3384
-275.968 -37.4186 3384
-266.214 -37.1864 3363
-257.711 -37.1201 3357
-249.684 -37.1201 3357
-241.656 -37.1201 3357
-230.358 -36.6004 3310
-219.822 -36.1691 3271
-212 -36.1691 3271
-125.777 -22.2809 2015
-120.959 -22.2809 2015
-115.968 -22.2477 2012
-111.156 -22.2477 2012
-106.239 -22.2256 2010
-101.079 -22.1482 2003
-96.2897 -22.1482 2003
-91.4999 -22.1482 2003
-86.7101 -22.1482 2003
-81.9203 -22.1482 2003
-77.3231 -22.2035 2008
-72.7742 -22.2809 2015
-68.0231 -22.303 2017
-63.1999 -22.303 2017
-58.4634 -22.3362 2020
-53.7658 -22.3915 2025
-49.0442 -22.4468 2030
-44.1898 -22.4468 2030
-39.5099 -22.5463 2039
-34.7189 -22.6016 2044
-29.8749 -22.6347 2047
-24.9799 -22.6347 2047
-20.134 -22.69 2052
-15.2864 -22.7785 2060
-10.3854 -22.8338 2065
-5.4474 -22.8338 2065
-0.511823 -22.9443 2075
4.45657 -22.9775 2078
9.43476 -22.9996 2080
14.4087 -22.9996 2080
19.4105 -23.0328 2083
24.3916 -23.0328 2083
29.3727 -23.0328 2083
34.3538 -23.0328 2083
39.3349 -23.0328 2083
44.316 -23.0328 2083
49.297 -23.0328 2083
54.2781 -23.0328 2083
59.2592 -23.0328 2083
64.2403 -23.0328 2083
69.2214 -23.0328 2083
74.2025 -23.0328 2083
79.1836 -23.0328 2083
84.1646 -23.0328 2083
89.1457 -23.0328 2083
94.3527 -23.0881 2088
99.3458 -23.0881 2088
104.339 -23.0881 2088
109.489 -23.1213 2091
114.489 -23.1213 2091
119.489 -23.1213 2091
124.609 -23.1434 2093
129.614 -23.1434 2093
134.812 -23.1766 2096
139.824 -23.1766 2096
144.974 -23.1987 2098
150.42 -23.265 2104
155.599 -23.2871 2106
160.635 -23.2871 2106
166.301 -23.3756 2114
171.842 -23.4419 2120
177.079 -23.464 2122
182.153 -23.464 2122
188.021 -23.5636 2131
193.57 -23.6189 2136
199.422 -23.7073 2144
204.549 -23.7073 2144
209.97 -23.7405 2147
215.404 -23.7737 2150
220.853 -23.8068 2153
226.002 -23.8068 2153
231.15 -23.8068 2153
238.055 -23.9838 2169
246.157 -24.2712 2195
251.406 -24.2712 2195
257.006 -24.3044 2198
262.262 -24.3044 2198
267.518 -24.3044 2198
272.402 -24.2712 2195
410.103 -34.5437 3124
417.574 -34.5437 3124
425.044 -34.5437 3124
430.853 -34.411 3112
437.591 -34.3557 3107
440.007 -33.9687 3072
447.353 -33.9687 3072
453.071 -33.8471 3061
454.525 -33.4158 3022
457.626 -33.1173 2995
464.788 -33.1173 2995
469.429 -32.9403 2979
474.793 -32.8187 2968
478.481 -32.5865 2947
484.704 -32.5312 2942
491.739 -32.5312 2942
496.231 -32.3653 2927
503.231 -32.3653 2927
507.441 -32.1884 2911
514.402 -32.1884 2911
521.363 -32.1884 2911
527.417 -32.1331 2906
533.447 -32.0779 2901
540.384 -32.0779 2901
547.321 -32.0779 2901
554.258 -32.0779 2901
560.228 -32.0226 2896
567.153 -32.0226 2896
574.078 -32.0226 2896
580 -31.9673 2891
586.914 -31.9673 2891
593.827 -31.9673 2891
600.74 -31.9673 2891
606.603 -31.912 2886
613.504 -31.912 2886
619.33 -31.8567 2881
626.22 -31.8567 2881
633.109 -31.8567 2881
639.998 -31.8567 2881
646.888 -31.8567 2881
653.777 -31.8567 2881
660.666 -31.8567 2881
667.556 -31.8567 2881
674.445 -31.8567 2881
681.334 -31.8567 2881
688.224 -31.8567 2881
695.113 -31.8567 2881
700.784 -31.8014 2876
707.662 -31.8014 2876
714.539 -31.8014 2876
722.671 -31.8567 2881
729.56 -31.8567 2881
736.449 -31.8567 2881
743.339 -31.8567 2881
750.228 -31.8567 2881
755.803 -31.8014 2876
762.681 -31.8014 2876
770.896 -31.8567 2881
777.785 -31.8567 2881
784.675 -31.8567 2881
791.564 -31.8567 2881
798.453 -31.8567 2881
803.945 -31.8014 2876
810.822 -31.8014 2876
817.7 -31.8014 2876
826.011 -31.8567 2881
832.9 -31.8567 2881
839.789 -31.8567 2881
846.679 -31.8567 2881
855.049 -31.912 2886
861.951 -31.912 2886
868.852 -31.912 2886
875.753 -31.912 2886
884.184 -31.9673 2891
891.097 -31.9673 2891
902.67 -32.1331 2906
916.192 -32.3653 2927
929.5 -32.5865 2947
936.547 -32.5865 2947
945.515 -32.6528 2953
967.738 -33.1726 3000
982.061 -33.4158 3022
989.288 -33.4158 3022
1000.14 -33.5374 3033
1013.04 -33.7254 3050
1027.69 -33.9687 3072
1035.04 -33.9687 3072
1060.03 -34.5437 3124
1090.05 -35.2735 3190
1108.35 -35.6163 3221
1116.05 -35.6163 3221
1143.64 -36.2465 3278
1172.2 -36.8989 3337
1194.33 -37.3412 3377
1202.41 -37.3412 3377
1223.03 -37.7282 3412
1231.19 -37.7282 3412
1239.35 -37.7282 3412
1247.5 -37.7282 3412
1253.09 -37.6508 3405
1261.23 -37.6508 3405
1279.81 -37.9605 3433
1288.02 -37.9605 3433
1301.52 -38.1153 3447
1309.76 -38.1153 3447
1318 -38.1153 3447
1326.24 -38.1153 3447
1331.78 -38.0379 3440
1337.28 -37.9605 3433
1337.26 -37.7282 3412
1345.41 -37.7282 3412
1345.24 -37.496 3391
1336.99 -37.0427 3350
1342.19 -36.9653 3343
1350.18 -36.9653 3343
1355.74 -36.8989 3337
1366.17 -36.9653 3343
1374.17 -36.9653 3343
1382.16 -36.9653 3343
1387.66 -36.8989 3337
1392.71 -36.8215 3330
1400.67 -36.8215 3330
1408.64 -36.8215 3330
1413.62 -36.7441 3323
1410.45 -36.4566 3297
1415.32 -36.3792 3290
1423.19 -36.3792 3290
1431.05 -36.3792 3290
1438.92 -36.3792 3290
1446.79 -36.3792 3290
1452 -36.3129 3284
1459.86 -36.3129 3284
1467.71 -36.3129 3284
1478.26 -36.3792 3290
1489.29 -36.4566 3297
1497.17 -36.4566 3297
1505.05 -36.4566 3297
1509.73 -36.3792 3290
1517.59 -36.3792 3290
1525.46 -36.3792 3290
1533.33 -36.3792 3290
1541.2 -36.3792 3290
1552.36 -36.4566 3297
1566.4 -36.6004 3310
1587.15 -36.8989 3337
1595.13 -36.8989 3337
1605.99 -36.9653 3343
1613.99 -36.9653 3343
1621.98 -36.9653 3343
1623.64 -36.8215 3330
1628.17 -36.7441 3323
1636.12 -36.7441 3323
1644.06 -36.7441 3323
1652.01 -36.7441 3323
1659.96 -36.7441 3323
1651.34 -36.3792 3290
1659.21 -36.3792 3290
1657.45 -36.1691 3271
1674.94 -36.3792 3290
1682.81 -36.3792 3290
1690.68 -36.3792 3290
1698.54 -36.3792 3290
1706.41 -36.3792 3290
1708.03 -36.2465 3278
1705.4 -36.0254 3258
1720.02 -36.1691 3271
1727.84 -36.1691 3271
1735.67 -36.1691 3271
1743.49 -36.1691 3271
1751.31 -36.1691 3271
1759.13 -36.1691 3271
1763.71 -36.1028 3265
1764.47 -35.959 3252
1772.24 -35.959 3252
1769.62 -35.749 3233
1753.71 -35.2735 3190
