ply
format ascii 1.0
comment File generated
element vertex 2251
property float x
property float y
property float z
end_header
1497.3 531.742 3246
1505.06 531.742 3246
1506.76 529.613 3233
1511.68 528.63 3227
1513.28 526.5 3214
1509.61 522.569 3190
1517.24 522.569 3190
1516.26 519.62 3172
1503.67 512.74 3130
1497.15 507.989 3101
1504.57 507.989 3101
1492.48 501.437 3061
1478.24 494.229 3017
1461.33 486.202 2968
1450.62 480.305 2932
1457.63 480.305 2932
1454.15 476.864 2911
1446.05 471.95 2881
1445.38 469.493 2866
1452.23 469.493 2866
1457.05 468.837 2862
1461.33 468.018 2857
1465.6 467.199 2852
1472.42 467.199 2852
1479.24 467.199 2852
1483.45 466.38 2847
1487.64 465.561 2842
1491.81 464.742 2837
1498.59 464.742 2837
1505.38 464.742 2837
1512.16 464.742 2837
1516.27 463.923 2832
1523.04 463.923 2832
1524.95 462.449 2823
1531.7 462.449 2823
1533 460.811 2813
1539.73 460.811 2813
1544.26 460.155 2809
1548.21 459.336 2804
1552.15 458.517 2799
1558.84 458.517 2799
1562.74 457.698 2794
1567.17 457.043 2790
1573.84 457.043 2790
1582.78 457.698 2794
1592.3 458.517 2799
1599 458.517 2799
1608.56 459.336 2804
1615.26 459.336 2804
1621.97 459.336 2804
1628.68 459.336 2804
1635.38 459.336 2804
1642.09 459.336 2804
1651.73 460.155 2809
1658.45 460.155 2809
1667.54 460.811 2813
1677.24 461.63 2818
1683.98 461.63 2818
1690.72 461.63 2818
1697.46 461.63 2818
1704.19 461.63 2818
1710.93 461.63 2818
1717.67 461.63 2818
1724.41 461.63 2818
1731.15 461.63 2818
1737.89 461.63 2818
1744.63 461.63 2818
1748.26 460.811 2813
1754.98 460.811 2813
1759.21 460.155 2809
1765.92 460.155 2809
1769.48 459.336 2804
1776.19 459.336 2804
1782.9 459.336 2804
1792.79 460.155 2809
1799.51 460.155 2809
1806.23 460.155 2809
1809.72 459.336 2804
1816.42 459.336 2804
1823.13 459.336 2804
1829.83 459.336 2804
1833.26 458.517 2799
1839.96 458.517 2799
1846.65 458.517 2799
1847.38 457.043 2790
1850.73 456.224 2785
1857.39 456.224 2785
1864.05 456.224 2785
1870.71 456.224 2785
1874 455.405 2780
1877.94 454.749 2776
1884.58 454.749 2776
1887.81 453.93 2771
1888.29 452.456 2762
1894.89 452.456 2762
1901.5 452.456 2762
1908.1 452.456 2762
1908.47 450.982 2753
1915.05 450.982 2753
1921.63 450.982 2753
1928.22 450.982 2753
1931.28 450.163 2748
1935.04 449.507 2744
1938.06 448.688 2739
1948.16 449.507 2744
1954.72 449.507 2744
1964.14 450.163 2748
1970.71 450.163 2748
1977.28 450.163 2748
1980.97 449.507 2744
1981.01 448.033 2735
1983.92 447.214 2730
1997.01 448.688 2739
2013.8 450.982 2753
2020.38 450.982 2753
2026.96 450.982 2753
2040.2 452.456 2762
2046.8 452.456 2762
2053.41 452.456 2762
2077.16 456.224 2785
2083.82 456.224 2785
2100.99 458.517 2799
2107.69 458.517 2799
2118.16 459.336 2804
2131.68 460.811 2813
2138.41 460.811 2813
2145.13 460.811 2813
-2103.17 466.884 2809
-2096.45 466.884 2809
-2089.73 466.884 2809
-2065.22 462.895 2785
-2065.21 464.391 2794
-2058.53 464.391 2794
-2051.85 464.391 2794
-2045.17 464.391 2794
-2038.49 464.391 2794
-2025.26 462.895 2785
-2018.6 462.895 2785
-2001.83 460.568 2771
-1995.2 460.568 2771
-1988.57 460.568 2771
-1991.96 462.895 2785
-1985.3 462.895 2785
-1998.53 467.549 2813
-2036.42 478.02 2876
-2033.07 478.851 2881
-2026.18 478.851 2881
-2019.29 478.851 2881
-2008.91 478.02 2876
-2002.03 478.02 2876
-1991.68 477.189 2871
-1984.82 477.189 2871
-1984.84 478.851 2881
-1977.95 478.851 2881
-1971.06 478.851 2881
-1964.17 478.851 2881
-1960.68 479.682 2886
-1963.93 482.176 2901
-1957 482.176 2901
-1953.42 483.007 2906
-1946.47 483.007 2906
-1946.86 484.835 2917
-1939.89 484.835 2917
-1942.85 487.328 2932
-1935.84 487.328 2932
-1928.83 487.328 2932
-1921.82 487.328 2932
-1908.28 485.666 2922
-1901.29 485.666 2922
-1914.4 490.819 2953
-1907.34 490.819 2953
-1913.79 494.309 2974
-1923.35 498.63 3000
-1927.03 501.456 3017
-1919.82 501.456 3017
-1912.6 501.456 3017
-1926.23 506.941 3050
-1936.55 511.595 3078
-1929.19 511.595 3078
-1932.45 514.42 3095
-1928.78 515.418 3101
-1921.36 515.418 3101
-1928.14 519.24 3124
-1942.8 525.224 3160
-1953.62 530.21 3190
-1945.99 530.21 3190
-1945.66 532.205 3202
-1938 532.205 3202
-1930.34 532.205 3202
-1922.68 532.205 3202
-1915.03 532.205 3202
-1918.69 535.363 3221
-1937.09 542.676 3265
-1929.28 542.676 3265
-1940.31 547.995 3297
-1947.66 552.316 3323
-1959.56 557.967 3357
-1951.54 557.967 3357
-1963.19 563.619 3391
-1971.23 568.272 3419
-1975.11 571.763 3440
-1966.88 571.763 3440
-1970.61 575.253 3461
-1978.78 580.073 3490
-1970.43 580.073 3490
-1962.09 580.073 3490
-1957.66 581.237 3497
-1953.76 582.567 3505
-1961.47 587.387 3534
-1953.02 587.387 3534
-1944.57 587.387 3534
-1936.12 587.387 3534
-1927.67 587.387 3534
-1919.22 587.387 3534
-1910.77 587.387 3534
-1906.62 588.716 3542
-1910.48 592.539 3565
-1901.95 592.539 3565
-1893.43 592.539 3565
-1888.6 593.703 3572
-1884.27 595.032 3580
-1875.71 595.032 3580
-1871.32 596.362 3588
-1866.38 597.525 3595
-1857.78 597.525 3595
-1849.18 597.525 3595
-1840.59 597.525 3595
-1831.99 597.525 3595
-1823.39 597.525 3595
-1814.8 597.525 3595
-1810.22 598.855 3603
-1801.6 598.855 3603
-1792.99 598.855 3603
-1784.37 598.855 3603
-1779.7 600.185 3611
-1774.99 601.514 3619
-1774.14 604.174 3635
-1765.45 604.174 3635
-1760.14 605.337 3642
-1767.3 610.822 3675
-1773.83 616.141 3707
-1764.96 616.141 3707
-1779.78 624.451 3757
-1778.81 627.277 3774
-1781.98 631.599 3800
-1772.89 631.599 3800
-1775.87 635.92 3826
-1775.04 638.912 3844
-1774.11 641.904 3862
-1764.88 641.904 3862
-1767.92 646.391 3889
-1774.9 652.375 3925
-1770.01 654.037 3935
-1760.6 654.037 3935
-1751.19 654.037 3935
-1737.35 652.375 3925
-1727.97 652.375 3925
-1710.7 649.383 3907
-1677.84 640.408 3853
-1645.68 631.599 3800
-1603.86 618.967 3724
-1594.95 618.967 3724
-1565.18 610.822 3675
-1536.06 602.844 3627
-1510.96 596.362 3588
-1502.38 596.362 3588
-1474.65 588.716 3542
-1457.08 585.06 3520
-1442.49 582.567 3505
-1434.1 582.567 3505
-1416.77 578.91 3483
-1405.61 577.746 3476
-1385.64 572.926 3447
-1377.4 572.926 3447
-1349.7 564.782 3398
-1333.28 561.292 3377
-1322.46 560.128 3370
-1306.6 556.804 3350
-1298.59 556.804 3350
-1282.87 553.48 3330
-1269.93 551.319 3317
-1256.67 548.992 3303
-1248.77 548.992 3303
-1240.88 548.992 3303
-1223.64 544.837 3278
-1213.21 543.673 3271
-1229.71 554.643 3337
-1221.73 554.643 3337
-1213.75 554.643 3337
-1205.77 554.643 3337
-1197.79 554.643 3337
-1187.31 553.48 3330
-1176.87 552.316 3323
-975.482 480.514 2891
-968.569 480.514 2891
-961.656 480.514 2891
-958.045 482.176 2901
-951.108 482.176 2901
-944.171 482.176 2901
-887.853 470.707 2832
-882.636 471.538 2837
-890.98 479.682 2886
-884.078 479.682 2886
-877.177 479.682 2886
-870.276 479.682 2886
-863.374 479.682 2886
-857.957 480.514 2891
-851.044 480.514 2891
-853.182 485.666 2922
-846.195 485.666 2922
-839.207 485.666 2922
-832.22 485.666 2922
-823.82 484.835 2917
-816.845 484.835 2917
-812.646 486.497 2927
-805.647 486.497 2927
-798.647 486.497 2927
-791.648 486.497 2927
-785.989 487.328 2932
-778.978 487.328 2932
-771.966 487.328 2932
-764.955 487.328 2932
-757.944 487.328 2932
-750.932 487.328 2932
-742.652 486.497 2927
-734.396 485.666 2922
-727.409 485.666 2922
-737.117 595.032 3580
-730.185 596.362 3588
-721.605 596.362 3588
-713.025 596.362 3588
-702.874 595.032 3580
-694.313 595.032 3580
-675.6 586.223 3527
-665.842 585.06 3520
-657.424 585.06 3520
-651.588 587.387 3534
-643.137 587.387 3534
-634.687 587.387 3534
-626.236 587.387 3534
-617.785 587.387 3534
-609.334 587.387 3534
-600.883 587.387 3534
-592.432 587.387 3534
-589.104 592.539 3565
-581.719 593.703 3572
-573.177 593.703 3572
-568.271 597.525 3595
-559.674 597.525 3595
-551.078 597.525 3595
-542.481 597.525 3595
-535.072 598.855 3603
-527.625 600.185 3611
-523.446 605.337 3642
-514.737 605.337 3642
-506.028 605.337 3642
-497.319 605.337 3642
-488.609 605.337 3642
-479.9 605.337 3642
-471.191 605.337 3642
-462.482 605.337 3642
-453.773 605.337 3642
-445.064 605.337 3642
-437.313 606.667 3650
-429.524 607.997 3658
-422.732 610.822 3675
-413.944 610.822 3675
-406.038 612.152 3683
-398.094 613.482 3691
-390.111 614.811 3699
-381.266 614.811 3699
-374.938 618.967 3724
-366.819 620.296 3732
-360.292 624.451 3757
-351.308 624.451 3757
-343.144 625.947 3766
-334.138 625.947 3766
-325.132 625.947 3766
-316.127 625.947 3766
-308.507 628.773 3783
-300.807 631.599 3800
-292.411 633.094 3809
-283.302 633.094 3809
-275.418 635.92 3826
-268.774 641.904 3862
-261.353 646.391 3889
-252.053 646.391 3889
-242.753 646.391 3889
-136.446 377.796 2273
-131.876 380.289 2288
-126.404 380.289 2288
-120.933 380.289 2288
-114.856 378.294 2276
-109.414 378.294 2276
-103.971 378.294 2276
-97.5759 374.638 2254
-91.9405 373.64 2248
-86.4494 373.142 2245
-81.0809 373.142 2245
-75.5101 372.145 2239
-70.1559 372.145 2239
-64.8018 372.145 2239
-59.4477 372.145 2239
-54.0211 371.646 2236
-48.6088 371.147 2233
-43.269 371.147 2233
-37.9293 371.147 2233
-32.5895 371.147 2233
-27.1765 370.15 2227
-21.7922 369.153 2221
-16.4811 369.153 2221
-11.1398 368.155 2215
-5.83782 367.823 2213
-0.545122 367.324 2210
4.73966 367.324 2210
9.98361 365.829 2201
15.2053 364.831 2195
20.4542 364.831 2195
25.7031 364.831 2195
30.9097 364.333 2192
36.102 363.834 2189
41.2421 363.003 2184
46.4009 362.504 2181
51.6164 362.504 2181
56.5973 361.008 2172
61.7058 360.51 2169
66.7384 359.679 2164
71.9131 359.679 2164
76.9811 359.18 2161
82.1487 359.18 2161
87.1951 358.681 2158
92.3555 358.681 2158
97.5159 358.681 2158
102.438 357.85 2153
107.437 357.352 2150
112.578 357.352 2150
117.72 357.352 2150
123.147 358.183 2155
128.3 358.183 2155
133.453 358.183 2155
138.606 358.183 2155
143.426 357.352 2150
148.567 357.352 2150
153.923 357.85 2153
159.219 358.183 2155
164.373 358.183 2155
169.762 358.681 2158
174.922 358.681 2158
180.083 358.681 2158
539.758 494.309 2974
551.651 498.63 3000
558.825 498.63 3000
565.999 498.63 3000
571.262 496.968 2990
576.284 495.14 2979
583.408 495.14 2979
588.351 493.312 2968
595.448 493.312 2968
603.764 494.309 2974
611.903 495.14 2979
619.026 495.14 2979
626.15 495.14 2979
633.274 495.14 2979
640.397 495.14 2979
646.434 494.309 2974
650.03 491.65 2958
657.104 491.65 2958
665.3 492.481 2963
672.385 492.481 2963
679.471 492.481 2963
686.556 492.481 2963
693.641 492.481 2963
700.727 492.481 2963
707.812 492.481 2963
717.552 494.309 2974
724.663 494.309 2974
733.005 495.14 2979
740.129 495.14 2979
747.253 495.14 2979
755.643 495.971 2984
762.778 495.971 2984
769.914 495.971 2984
774.446 494.309 2974
781.557 494.309 2974
788.669 494.309 2974
794.175 493.312 2968
804.242 495.14 2979
815.724 497.799 2995
825.908 499.628 3006
833.096 499.628 3006
840.285 499.628 3006
851.984 502.287 3022
862.338 504.115 3033
871.311 505.113 3039
878.578 505.113 3039
885.845 505.113 3039
889.88 503.284 3028
900.38 505.113 3039
907.647 505.113 3039
916.419 505.944 3044
932.195 510.598 3072
939.541 510.598 3072
946.887 510.598 3072
961.377 514.42 3095
968.778 514.42 3095
1013.71 534.199 3214
1021.4 534.199 3214
1041.25 540.515 3252
1067.74 550.156 3310
1099.7 562.455 3384
1107.79 562.455 3384
1120.5 564.782 3398
1133.28 567.109 3412
1165.19 578.91 3483
1173.52 578.91 3483
1189.31 582.567 3505
1197.69 582.567 3505
1211.24 585.06 3520
1219.65 585.06 3520
1230.51 586.223 3527
1238.95 586.223 3527
1247.38 586.223 3527
1255.81 586.223 3527
1264.25 586.223 3527
1275.21 587.387 3534
1286.57 588.716 3542
1295.04 588.716 3542
1309.03 591.209 3557
1320.49 592.539 3565
1334.61 595.032 3580
1343.17 595.032 3580
1354.75 596.362 3588
1365.99 597.525 3595
1374.59 597.525 3595
1383.19 597.525 3595
1391.78 597.525 3595
1394.54 595.032 3580
1403.1 595.032 3580
1399.44 589.88 3549
1401.97 587.387 3534
1392.86 580.073 3490
1383.94 572.926 3447
1392.19 572.926 3447
1383.37 565.945 3405
1371.89 557.967 3357
1363.48 551.319 3317
1371.41 551.319 3317
1376.43 550.156 3310
1381.42 548.992 3303
1389.32 548.992 3303
1397.22 548.992 3303
1394.48 544.837 3278
1399.32 543.673 3271
1404.56 542.676 3265
1409.34 541.513 3258
1417.13 541.513 3258
1422.3 540.515 3252
1430.08 540.515 3252
1437.85 540.515 3252
1445.63 540.515 3252
1453.41 540.515 3252
1463.88 541.513 3258
1471.67 541.513 3258
1479.46 541.513 3258
1484.51 540.515 3252
1489.54 539.518 3246
1494.07 538.355 3239
1501.81 538.355 3239
1506.76 537.357 3233
1511.68 536.36 3227
1513.28 534.199 3214
1509.61 530.21 3190
1517.24 530.21 3190
1516.26 527.219 3172
1503.67 520.238 3130
1500.05 516.415 3107
1507.48 516.415 3107
1497.84 510.598 3072
1489.02 505.113 3039
1474.62 497.799 2995
1463.48 491.65 2958
1470.55 491.65 2958
1459.64 485.666 2922
1448.56 479.682 2886
1450.42 478.02 2876
1457.3 478.02 2876
1459.08 476.358 2866
1461.33 474.862 2857
1468.17 474.862 2857
1475 474.862 2857
1479.24 474.031 2852
1483.45 473.2 2847
1487.64 472.369 2842
1491.81 471.538 2837
1498.59 471.538 2837
1505.38 471.538 2837
1509.5 470.707 2832
1516.27 470.707 2832
1523.04 470.707 2832
1524.95 469.211 2823
1528.99 468.38 2818
1533 467.549 2813
1539.73 467.549 2813
1544.26 466.884 2809
1548.21 466.053 2804
1552.15 465.222 2799
1558.84 465.222 2799
1562.74 464.391 2794
1567.17 463.726 2790
1573.84 463.726 2790
1582.78 464.391 2794
1592.3 465.222 2799
1599 465.222 2799
1608.56 466.053 2804
1618.15 466.884 2809
1624.86 466.884 2809
1631.58 466.884 2809
1638.3 466.884 2809
1645.01 466.884 2809
1651.73 466.884 2809
1658.45 466.884 2809
1667.54 467.549 2813
1677.24 468.38 2818
1683.98 468.38 2818
1690.72 468.38 2818
1697.46 468.38 2818
1707.22 469.211 2823
1713.97 469.211 2823
1720.72 469.211 2823
1727.47 469.211 2823
1734.22 469.211 2823
1740.97 469.211 2823
1747.72 469.211 2823
1754.47 469.211 2823
1754.98 467.549 2813
1761.71 467.549 2813
1768.44 467.549 2813
1775.16 467.549 2813
1781.89 467.549 2813
1788.62 467.549 2813
1795.34 467.549 2813
1802.07 467.549 2813
1808.8 467.549 2813
1812.94 466.884 2809
1816.42 466.053 2804
1823.13 466.053 2804
1829.83 466.053 2804
1836.54 466.053 2804
1843.24 466.053 2804
1849.95 466.053 2804
1850.03 464.391 2794
1854.05 463.726 2790
1860.73 463.726 2790
1867.4 463.726 2790
1874.07 463.726 2790
1877.37 462.895 2785
1877.94 461.399 2776
1884.58 461.399 2776
1887.81 460.568 2771
1888.29 459.072 2762
1894.89 459.072 2762
1901.5 459.072 2762
1908.1 459.072 2762
1908.47 457.577 2753
1911.57 456.745 2748
1918.14 456.745 2748
1924.71 456.745 2748
1928.47 456.081 2744
1935.04 456.081 2744
1938.06 455.25 2739
1951 456.745 2748
1957.57 456.745 2748
1964.14 456.745 2748
1970.71 456.745 2748
1977.28 456.745 2748
1980.97 456.081 2744
1981.01 454.585 2735
1983.92 453.754 2730
1997.01 455.25 2739
2013.8 457.577 2753
2020.38 457.577 2753
2029.91 458.241 2757
2043.89 459.903 2767
2050.51 459.903 2767
2057.12 459.903 2767
2077.16 462.895 2785
2090.56 464.391 2794
2100.99 465.222 2799
2107.69 465.222 2799
2121.93 466.884 2809
2131.68 467.549 2813
2138.41 467.549 2813
2145.13 467.549 2813
-2081.45 468.724 2780
-2074.81 468.724 2780
-2071.88 469.567 2785
-2065.22 469.567 2785
-2065.21 471.084 2794
-2058.53 471.084 2794
-2051.85 471.084 2794
-2045.17 471.084 2794
-2038.49 471.084 2794
-2015.08 467.206 2771
-2008.45 467.206 2771
-1998.94 466.532 2767
-1988.72 465.689 2762
-1982.11 465.689 2762
-1975.51 465.689 2762
-1968.91 465.689 2762
-2033.07 485.753 2881
-2026.18 485.753 2881
-2019.29 485.753 2881
-2012.4 485.753 2881
-2012.47 487.439 2891
-2005.56 487.439 2891
-1998.64 487.439 2891
-1984.84 485.753 2881
-1977.95 485.753 2881
-1971.06 485.753 2881
-1967.58 486.596 2886
-1970.87 489.125 2901
-1974.77 491.823 2917
-1967.79 491.823 2917
-1964.18 492.666 2922
-1957.19 492.666 2922
-1956.88 494.352 2932
-1949.86 494.352 2932
-1942.85 494.352 2932
-1935.84 494.352 2932
-1928.83 494.352 2932
-1921.82 494.352 2932
-1928.52 497.892 2953
-1921.46 497.892 2953
-1944.87 505.817 3000
-1937.7 505.817 3000
-1944.68 509.526 3022
-1944.5 511.381 3033
-1948.11 514.247 3050
-1940.82 514.247 3050
-1940.5 516.102 3061
-1947.7 519.98 3084
-1940.33 519.98 3084
-1947.37 523.858 3107
-1943.06 524.701 3112
-1943.08 526.724 3124
-1935.61 526.724 3124
-1939.25 529.759 3142
-1950.18 534.817 3172
-1960.97 539.875 3202
-1953.31 539.875 3202
-1949.3 540.887 3208
-1941.63 540.887 3208
-1933.96 540.887 3208
-1926.29 540.887 3208
-1926.39 543.079 3221
-1933.58 547.294 3246
-1956.08 555.893 3297
-1948.19 555.893 3297
-1952.08 559.265 3317
-1951.77 561.457 3330
-1971.24 569.381 3377
-1963.16 569.381 3377
-1975.35 575.282 3412
-1979.3 578.823 3433
-1987.17 583.544 3461
-1978.89 583.544 3461
-1987.12 588.434 3490
-1982.75 589.614 3497
-1978.9 590.963 3505
-1970.52 590.963 3505
-1962.14 590.963 3505
-1957.66 592.143 3512
-1961.47 595.852 3534
-1953.02 595.852 3534
-1944.57 595.852 3534
-1936.12 595.852 3534
-1927.67 595.852 3534
-1919.22 595.852 3534
-1910.77 595.852 3534
-1906.62 597.201 3542
-1906.19 599.73 3557
-1897.69 599.73 3557
-1893.43 601.079 3565
-1884.9 601.079 3565
-1880.06 602.259 3572
-1871.52 602.259 3572
-1867.15 603.608 3580
-1858.59 603.608 3580
-1854.16 604.957 3588
-1845.58 604.957 3588
-1837 604.957 3588
-1831.99 606.137 3595
-1823.39 606.137 3595
-1814.8 606.137 3595
-1806.2 606.137 3595
-1801.6 607.486 3603
-1792.99 607.486 3603
-1784.37 607.486 3603
-1775.76 607.486 3603
-1774.99 610.184 3619
-1774.14 612.882 3635
-1765.45 612.882 3635
-1760.14 614.062 3642
-1767.3 619.626 3675
-1770 623.672 3699
-1761.15 623.672 3699
-1779.78 633.451 3757
-1778.81 636.318 3774
-1781.98 640.701 3800
-1772.89 640.701 3800
-1775.87 645.085 3826
-1775.04 648.12 3844
-1774.11 651.155 3862
-1764.88 651.155 3862
-1767.92 655.707 3889
-1774.9 661.777 3925
-1770.01 663.463 3935
-1760.6 663.463 3935
-1751.19 663.463 3935
-1733.37 660.26 3916
-1724.01 660.26 3916
-1694.94 652.672 3871
-1666.08 645.085 3826
-1627.05 633.451 3757
-1596.54 625.021 3707
-1587.67 625.021 3707
-1565.18 619.626 3675
-1536.06 611.533 3627
-1510.96 604.957 3588
-1502.38 604.957 3588
-1474.65 597.201 3542
-1457.08 593.492 3520
-1442.49 590.963 3505
-1434.1 590.963 3505
-1416.77 587.253 3483
-1405.61 586.073 3476
-1385.64 581.184 3447
-1377.4 581.184 3447
-1349.7 572.922 3398
-1333.28 569.381 3377
-1322.46 568.201 3370
-1306.6 564.829 3350
-1298.59 564.829 3350
-1282.87 561.457 3330
-1269.93 559.265 3317
-1256.67 556.904 3303
-1248.77 556.904 3303
-1240.88 556.904 3303
-1223.64 552.689 3278
-1213.21 551.509 3271
-1229.71 562.637 3337
-1221.73 562.637 3337
-1213.75 562.637 3337
-1205.77 562.637 3337
-1197.79 562.637 3337
-1187.31 561.457 3330
-1176.87 560.277 3323
-887.853 477.491 2832
-882.636 478.334 2837
-890.98 486.596 2886
-884.078 486.596 2886
-877.177 486.596 2886
-870.276 486.596 2886
-863.374 486.596 2886
-856.473 486.596 2886
-849.572 486.596 2886
-849.97 490.811 2911
-844.747 491.823 2917
-837.771 491.823 2917
-830.796 491.823 2917
-822.126 490.811 2911
-815.165 490.811 2911
-812.646 493.509 2927
-805.647 493.509 2927
-798.647 493.509 2927
-791.648 493.509 2927
-785.989 494.352 2932
-778.978 494.352 2932
-771.966 494.352 2932
-764.955 494.352 2932
-757.944 494.352 2932
-750.932 494.352 2932
-742.652 493.509 2927
-737.117 603.608 3580
-730.185 604.957 3588
-721.605 604.957 3588
-713.025 604.957 3588
-702.874 603.608 3580
-694.313 603.608 3580
-675.6 594.672 3527
-665.842 593.492 3520
-657.424 593.492 3520
-651.588 595.852 3534
-643.137 595.852 3534
-634.687 595.852 3534
-626.236 595.852 3534
-617.785 595.852 3534
-609.334 595.852 3534
-600.883 595.852 3534
-592.432 595.852 3534
-589.104 601.079 3565
-581.719 602.259 3572
-573.177 602.259 3572
-568.271 606.137 3595
-559.674 606.137 3595
-551.078 606.137 3595
-542.481 606.137 3595
-535.072 607.486 3603
-527.625 608.835 3611
-523.446 614.062 3642
-514.737 614.062 3642
-506.028 614.062 3642
-497.319 614.062 3642
-488.609 614.062 3642
-479.9 614.062 3642
-471.191 614.062 3642
-462.482 614.062 3642
-453.773 614.062 3642
-445.064 614.062 3642
-437.313 615.411 3650
-429.524 616.759 3658
-421.812 618.277 3667
-413.043 618.277 3667
-405.156 619.626 3675
-398.094 622.323 3691
-390.111 623.672 3699
-381.266 623.672 3699
-374.938 627.887 3724
-366.819 629.236 3732
-360.292 633.451 3757
-351.308 633.451 3757
-342.323 633.451 3757
-334.138 634.969 3766
-325.132 634.969 3766
-316.127 634.969 3766
-308.507 637.835 3783
-300.807 640.701 3800
-291.72 640.701 3800
-282.633 640.701 3800
-273.546 640.701 3800
-267.521 648.12 3844
-258.329 648.12 3844
-249.137 648.12 3844
-239.945 648.12 3844
-136.446 383.241 2273
-131.184 383.746 2276
-125.741 383.746 2276
-120.299 383.746 2276
-114.705 383.241 2273
-109.269 383.241 2273
-103.56 382.229 2267
-97.5759 380.037 2254
-91.9405 379.025 2248
-86.4494 378.52 2245
-81.0809 378.52 2245
-75.5101 377.508 2239
-70.1559 377.508 2239
-64.8018 377.508 2239
-59.4477 377.508 2239
-54.0211 377.002 2236
-48.6088 376.496 2233
-43.269 376.496 2233
-37.9293 376.496 2233
-32.5019 375.485 2227
-27.1033 374.473 2221
-21.7627 373.967 2218
-16.4588 373.967 2218
-11.1398 373.462 2215
-5.83782 373.124 2213
-0.544382 372.113 2207
4.73322 372.113 2207
9.97001 370.595 2198
15.2053 370.089 2195
20.4263 369.584 2192
25.668 369.584 2192
30.8674 369.078 2189
36.0525 368.572 2186
41.1855 367.729 2181
46.3371 367.223 2178
51.5454 367.223 2178
56.5191 365.706 2169
61.7058 365.706 2169
66.6458 364.357 2161
71.8134 364.357 2161
76.9811 364.357 2161
82.1487 364.357 2161
87.1951 363.851 2158
92.3555 363.851 2158
97.5159 363.851 2158
102.534 363.345 2155
107.437 362.502 2150
112.578 362.502 2150
117.72 362.502 2150
123.147 363.345 2155
128.3 363.345 2155
133.453 363.345 2155
138.606 363.345 2155
143.426 362.502 2150
148.567 362.502 2150
153.494 361.996 2147
159.072 363.008 2153
164.22 363.008 2153
169.526 363.345 2155
174.679 363.345 2155
179.832 363.345 2155
539.758 501.433 2974
551.651 505.817 3000
558.825 505.817 3000
565.999 505.817 3000
571.262 504.131 2990
576.284 502.276 2979
583.408 502.276 2979
588.351 500.422 2968
595.448 500.422 2968
603.764 501.433 2974
611.903 502.276 2979
619.026 502.276 2979
626.15 502.276 2979
633.274 502.276 2979
640.397 502.276 2979
646.434 501.433 2974
650.03 498.736 2958
659.325 500.422 2968
666.422 500.422 2968
674.881 501.433 2974
681.993 501.433 2974
690.263 502.276 2979
697.387 502.276 2979
708.295 504.974 2995
715.457 504.974 2995
722.618 504.974 2995
732.461 506.829 3006
740.879 507.672 3011
748.08 507.672 3011
755.28 507.672 3011
765.266 509.526 3022
772.492 509.526 3022
779.719 509.526 3022
781.216 505.817 3000
787.076 504.974 2995
794.238 504.974 2995
800.062 504.131 2990
818.821 511.381 3033
829.07 513.236 3044
836.349 513.236 3044
843.628 513.236 3044
850.907 513.236 3044
856.776 512.393 3039
868.593 515.09 3055
875.898 515.09 3055
883.204 515.09 3055
890.509 515.09 3055
897.814 515.09 3055
906.898 516.102 3061
914.217 516.102 3061
924.849 517.957 3072
942.815 523.858 3107
953.61 525.712 3118
961.066 525.712 3118
968.522 525.712 3118
975.978 525.712 3118
1013.71 541.899 3214
1021.4 541.899 3214
1059.82 558.085 3310
1078.38 563.649 3343
1101.98 571.742 3391
1110.08 571.742 3391
1125.12 575.282 3412
1144.9 581.184 3447
1165.19 587.253 3483
1173.52 587.253 3483
1189.31 590.963 3505
1197.69 590.963 3505
1211.24 593.492 3520
1219.65 593.492 3520
1230.51 594.672 3527
1238.95 594.672 3527
1247.38 594.672 3527
1255.81 594.672 3527
1264.25 594.672 3527
1278.1 597.201 3542
1286.57 597.201 3542
1295.04 597.201 3542
1309.03 599.73 3557
1320.49 601.079 3565
1334.61 603.608 3580
1343.17 603.608 3580
1354.75 604.957 3588
1365.99 606.137 3595
1374.59 606.137 3595
1383.19 606.137 3595
1391.78 606.137 3595
1394.54 603.608 3580
1403.1 603.608 3580
1399.44 598.381 3549
1401.97 595.852 3534
1392.86 588.434 3490
1383.94 581.184 3447
1392.19 581.184 3447
1383.37 574.102 3405
1371.89 566.009 3357
1365.94 560.277 3323
1373.89 560.277 3323
1379.34 559.265 3317
1381.42 556.904 3303
1389.32 556.904 3303
1397.22 556.904 3303
1397.03 553.701 3284
1399.32 551.509 3271
1404.56 550.497 3265
1409.34 549.317 3258
1417.13 549.317 3258
1422.3 548.306 3252
1430.08 548.306 3252
1437.85 548.306 3252
1445.63 548.306 3252
1453.41 548.306 3252
1463.88 549.317 3258
1471.67 549.317 3258
1479.46 549.317 3258
1484.51 548.306 3252
1489.54 547.294 3246
1494.07 546.114 3239
1501.81 546.114 3239
1506.76 545.102 3233
1511.68 544.09 3227
1516.58 543.079 3221
1512.45 538.864 3196
1520.09 538.864 3196
1522 536.84 3184
1515.2 531.782 3154
1511.15 527.736 3130
1518.64 527.736 3130
1509.06 521.834 3095
1505.19 517.957 3072
1487.92 509.526 3022
1479.31 504.131 2990
1486.46 504.131 2990
1475.13 497.892 2953
1456.09 489.125 2901
1455.46 486.596 2886
1462.36 486.596 2886
1464.17 484.91 2876
1468.49 484.067 2871
1470.73 482.549 2862
1477.58 482.549 2862
1479.24 480.863 2852
1483.45 480.02 2847
1487.64 479.177 2842
1491.81 478.334 2837
1498.59 478.334 2837
1505.38 478.334 2837
1509.5 477.491 2832
1516.27 477.491 2832
1523.04 477.491 2832
1524.95 475.974 2823
1528.99 475.131 2818
1533 474.288 2813
1539.73 474.288 2813
1544.26 473.613 2809
1548.21 472.77 2804
1552.15 471.927 2799
1558.84 471.927 2799
1562.74 471.084 2794
1567.17 470.41 2790
1573.84 470.41 2790
1582.78 471.084 2794
1592.3 471.927 2799
1599 471.927 2799
1608.56 472.77 2804
1618.15 473.613 2809
1624.86 473.613 2809
1631.58 473.613 2809
1638.3 473.613 2809
1645.01 473.613 2809
1651.73 473.613 2809
1658.45 473.613 2809
1667.54 474.288 2813
1677.24 475.131 2818
1683.98 475.131 2818
1690.72 475.131 2818
1697.46 475.131 2818
1707.22 475.974 2823
1713.97 475.974 2823
1720.72 475.974 2823
1727.47 475.974 2823
1734.22 475.974 2823
1740.97 475.974 2823
1747.72 475.974 2823
1754.47 475.974 2823
1761.22 475.974 2823
1764.84 475.131 2818
1771.58 475.131 2818
1778.32 475.131 2818
1785.06 475.131 2818
1791.8 475.131 2818
1798.54 475.131 2818
1805.27 475.131 2818
1812.01 475.131 2818
1818.75 475.131 2818
1825.49 475.131 2818
1826.38 473.613 2809
1833.09 473.613 2809
1839.81 473.613 2809
1846.53 473.613 2809
1853.25 473.613 2809
1856.65 472.77 2804
1856.71 471.084 2794
1863.39 471.084 2794
1870.08 471.084 2794
1874.07 470.41 2790
1877.37 469.567 2785
1877.94 468.049 2776
1884.58 468.049 2776
1887.81 467.206 2771
1888.29 465.689 2762
1894.89 465.689 2762
1901.5 465.689 2762
1908.1 465.689 2762
1908.47 464.171 2753
1911.57 463.328 2748
1918.14 463.328 2748
1924.71 463.328 2748
1928.47 462.654 2744
1931.51 461.811 2739
1935.23 461.136 2735
1951 463.328 2748
1957.57 463.328 2748
1964.14 463.328 2748
1970.71 463.328 2748
1977.28 463.328 2748
1980.97 462.654 2744
1981.01 461.136 2735
1983.92 460.293 2730
1997.01 461.811 2739
2013.8 464.171 2753
2020.38 464.171 2753
2029.91 464.846 2757
2043.89 466.532 2767
2050.51 466.532 2767
2057.12 466.532 2767
2077.16 469.567 2785
2094.3 471.927 2799
2100.99 471.927 2799
2107.69 471.927 2799
2121.93 473.613 2809
2131.68 474.288 2813
2138.41 474.288 2813
2145.13 474.288 2813
-2065.18 474.699 2776
-2058.54 474.699 2776
-2058.56 476.238 2785
-2051.9 476.238 2785
-2045.24 476.238 2785
-2065.56 502.23 2937
-2058.54 502.23 2937
-2051.52 502.23 2937
-2022.91 496.929 2906
-2005.56 494.364 2891
-1998.64 494.364 2891
-1984.84 492.654 2881
-1977.95 492.654 2881
-1971.06 492.654 2881
-1967.58 493.509 2886
-1970.87 496.074 2901
-1978.15 499.665 2922
-1971.16 499.665 2922
-1964.18 499.665 2922
-1957.19 499.665 2922
-1956.88 501.375 2932
-1949.86 501.375 2932
-1946.17 502.23 2937
-1945.75 503.94 2947
-1945.94 505.821 2958
-1938.86 505.821 2958
-1935.05 506.676 2963
-1935.13 508.557 2974
-1966.26 518.646 3033
-1959.01 518.646 3033
-1962.7 521.554 3050
-1966.3 524.461 3067
-1958.97 524.461 3067
-1954.82 525.316 3072
-1951.27 526.342 3078
-1962.23 531.301 3107
-1954.8 531.301 3107
-1958.02 534.208 3124
-1958.05 536.26 3136
-1954.28 537.286 3142
-1946.76 537.286 3142
-1950.36 540.364 3160
-1961.25 545.494 3190
-1964.64 548.572 3208
-1956.97 548.572 3208
-1952.95 549.598 3214
-1945.26 549.598 3214
-1941.8 550.795 3221
-1934.09 550.795 3221
-1929.98 551.821 3227
-1937.16 556.096 3252
-1967.94 567.211 3317
-1960.01 567.211 3317
-1959.73 569.434 3330
-1975.21 576.274 3370
-1987.58 582.259 3405
-1979.44 582.259 3405
-1987.51 587.047 3433
-1987.37 589.441 3447
-1999.8 595.597 3483
-1991.47 595.597 3483
-1995.67 599.359 3505
-1987.28 599.359 3505
-1982.85 600.556 3512
-1974.46 600.556 3512
-1966.06 600.556 3512
-1957.66 600.556 3512
-1961.47 604.318 3534
-1953.02 604.318 3534
-1948.97 605.686 3542
-1940.5 605.686 3542
-1932.03 605.686 3542
-1919.22 604.318 3534
-1910.77 604.318 3534
-1906.62 605.686 3542
-1906.19 608.251 3557
-1897.69 608.251 3557
-1889.18 608.251 3557
-1884.9 609.619 3565
-1876.38 609.619 3565
-1867.85 609.619 3565
-1859.33 609.619 3565
-1854.44 610.816 3572
-1850.03 612.184 3580
-1841.47 612.184 3580
-1837 613.552 3588
-1828.42 613.552 3588
-1823.39 614.749 3595
-1814.8 614.749 3595
-1806.2 614.749 3595
-1797.6 614.749 3595
-1792.99 616.117 3603
-1784.37 616.117 3603
-1775.76 616.117 3603
-1774.99 618.853 3619
-1774.14 621.589 3635
-1765.45 621.589 3635
-1760.14 622.786 3642
-1763.46 627.061 3667
-1766.17 631.165 3691
-1757.34 631.165 3691
-1771.73 639.544 3740
-1770.8 642.451 3757
-1781.98 649.804 3800
-1772.89 649.804 3800
-1772.16 652.882 3818
-1775.04 657.328 3844
-1774.11 660.406 3862
-1764.88 660.406 3862
-1767.92 665.023 3889
-1774.9 671.18 3925
-1770.01 672.89 3935
-1760.6 672.89 3935
-1751.19 672.89 3935
-1729.39 668.102 3907
-1720.04 668.102 3907
-1687.06 658.867 3853
-1666.08 654.25 3826
-1616.23 638.176 3732
-1589.64 631.165 3691
-1580.82 631.165 3691
-1557.94 625.522 3658
-1529.28 617.485 3611
-1507.6 612.184 3580
-1499.03 612.184 3580
-1474.65 605.686 3542
-1457.08 601.924 3520
-1442.49 599.359 3505
-1434.1 599.359 3505
-1416.77 595.597 3483
-1402.38 593.032 3468
-1385.64 589.441 3447
-1377.4 589.441 3447
-1349.7 581.062 3398
-1338.81 579.865 3391
-1322.46 576.274 3370
-1306.6 572.854 3350
-1298.59 572.854 3350
-1287.88 571.657 3343
-1274.91 569.434 3330
-1262 567.211 3317
-1254.07 567.211 3317
-1240.88 564.817 3303
-1232.98 564.817 3303
-1227.67 566.014 3310
-1234.5 572.854 3350
-1226.49 572.854 3350
-1218.48 572.854 3350
-1205.77 570.631 3337
-1197.79 570.631 3337
-1187.31 569.434 3330
-1176.87 568.237 3323
-887.853 484.275 2832
-882.636 485.13 2837
-890.98 493.509 2886
-884.078 493.509 2886
-877.177 493.509 2886
-870.276 493.509 2886
-863.374 493.509 2886
-856.473 493.509 2886
-849.572 493.509 2886
-851.722 498.81 2917
-844.747 498.81 2917
-837.771 498.81 2917
-829.087 497.784 2911
-822.126 497.784 2911
-815.165 497.784 2911
-812.646 500.52 2927
-805.647 500.52 2927
-801.376 502.23 2937
-794.352 502.23 2937
-787.329 502.23 2937
-778.978 501.375 2932
-771.966 501.375 2932
-737.117 612.184 3580
-731.609 614.749 3595
-723.012 614.749 3595
-714.416 614.749 3595
-704.445 613.552 3588
-695.865 613.552 3588
-684.22 610.816 3572
-667.166 603.121 3527
-660.039 604.318 3534
-653.063 605.686 3542
-644.593 605.686 3542
-637.38 606.883 3549
-628.894 606.883 3549
-620.407 606.883 3549
-613.3 608.251 3557
-604.794 608.251 3557
-597.629 609.619 3565
-591.583 612.184 3580
-585.465 614.749 3595
-576.868 614.749 3595
-569.536 616.117 3603
-562.165 617.485 3611
-553.53 617.485 3611
-544.895 617.485 3611
-536.26 617.485 3611
-529.963 620.221 3627
-523.446 622.786 3642
-514.737 622.786 3642
-506.028 622.786 3642
-497.319 622.786 3642
-488.609 622.786 3642
-479.9 622.786 3642
-471.191 622.786 3642
-461.593 621.589 3635
-452.901 621.589 3635
-444.208 621.589 3635
-436.355 622.786 3642
-428.585 624.154 3650
-421.812 627.061 3667
-413.043 627.061 3667
-404.274 627.061 3667
-396.368 628.429 3675
-389.268 631.165 3691
-380.441 631.165 3691
-372.42 632.533 3699
-366.032 636.808 3724
-357.894 638.176 3732
-348.97 638.176 3732
-341.595 641.083 3749
-333.339 642.451 3757
-325.132 643.99 3766
-316.127 643.99 3766
-308.507 646.897 3783
-300.807 649.804 3800
-291.72 649.804 3800
-282.633 649.804 3800
-273.546 649.804 3800
-267.521 657.328 3844
-258.329 657.328 3844
-249.137 657.328 3844
-239.945 657.328 3844
-136.446 388.686 2273
-131.011 388.686 2273
-125.576 388.686 2273
-120.14 388.686 2273
-114.402 387.66 2267
-108.981 387.66 2267
-103.286 386.634 2261
-97.4461 384.924 2251
-91.9405 384.411 2248
-86.4494 383.898 2245
-81.0809 383.898 2245
-75.4089 382.359 2236
-70.0619 382.359 2236
-64.715 382.359 2236
-59.368 382.359 2236
-54.0211 382.359 2236
-48.6088 381.846 2233
-43.2109 381.333 2230
-37.8783 381.333 2230
-32.5019 380.82 2227
-27.1033 379.794 2221
-21.7333 378.768 2215
-16.4366 378.768 2215
-11.1298 378.426 2213
-5.82199 377.4 2207
-0.544382 377.4 2207
4.73322 377.4 2207
9.9564 375.348 2195
15.1845 374.835 2192
20.3983 374.322 2189
25.6329 374.322 2189
30.8251 373.809 2186
36.0195 373.467 2184
41.1288 372.441 2178
46.3371 372.441 2178
51.5454 372.441 2178
56.5191 370.902 2169
61.7058 370.902 2169
66.6458 369.534 2161
71.8134 369.534 2161
76.9811 369.534 2161
82.1487 369.534 2161
87.3163 369.534 2161
92.4839 369.534 2161
97.5159 369.02 2158
102.534 368.507 2155
107.437 367.652 2150
112.578 367.652 2150
117.72 367.652 2150
123.147 368.507 2155
128.3 368.507 2155
133.453 368.507 2155
138.606 368.507 2155
143.426 367.652 2150
148.567 367.652 2150
153.494 367.139 2147
158.628 367.139 2147
163.763 367.139 2147
168.897 367.139 2147
174.031 367.139 2147
179.165 367.139 2147
551.651 513.003 3000
558.825 513.003 3000
565.999 513.003 3000
571.262 511.293 2990
576.284 509.412 2979
583.408 509.412 2979
588.351 507.531 2968
595.448 507.531 2968
603.764 508.557 2974
611.903 509.412 2979
619.026 509.412 2979
626.15 509.412 2979
633.274 509.412 2979
640.397 509.412 2979
646.434 508.557 2974
650.03 505.821 2958
659.325 507.531 2968
666.422 507.531 2968
674.881 508.557 2974
681.993 508.557 2974
690.263 509.412 2979
697.387 509.412 2979
708.295 512.148 2995
715.457 512.148 2995
722.618 512.148 2995
732.461 514.029 3006
740.879 514.884 3011
748.08 514.884 3011
755.28 514.884 3011
765.266 516.766 3022
772.492 516.766 3022
779.719 516.766 3022
781.216 513.003 3000
787.076 512.148 2995
794.238 512.148 2995
800.062 511.293 2990
818.821 518.646 3033
829.07 520.528 3044
836.349 520.528 3044
843.628 520.528 3044
850.907 520.528 3044
856.776 519.672 3039
868.593 522.409 3055
875.898 522.409 3055
883.204 522.409 3055
890.509 522.409 3055
897.814 522.409 3055
906.898 523.435 3061
914.217 523.435 3061
924.849 525.316 3072
942.815 531.301 3107
953.61 533.182 3118
961.066 533.182 3118
968.522 533.182 3118
975.978 533.182 3118
983.434 533.182 3118
1059.82 566.014 3310
1078.38 571.657 3343
1101.98 579.865 3391
1110.08 579.865 3391
1125.12 583.456 3412
1144.9 589.441 3447
1165.19 595.597 3483
1173.52 595.597 3483
1189.31 599.359 3505
1197.69 599.359 3505
1211.24 601.924 3520
1219.65 601.924 3520
1230.51 603.121 3527
1238.95 603.121 3527
1247.38 603.121 3527
1255.81 603.121 3527
1264.25 603.121 3527
1278.1 605.686 3542
1286.57 605.686 3542
1295.04 605.686 3542
1309.03 608.251 3557
1320.49 609.619 3565
1334.61 612.184 3580
1343.17 612.184 3580
1354.75 613.552 3588
1365.99 614.749 3595
1374.59 614.749 3595
1383.19 614.749 3595
1391.78 614.749 3595
1385.58 608.251 3557
1394.08 608.251 3557
1396.68 605.686 3542
1396.42 601.924 3520
1390.07 595.597 3483
1381.13 588.244 3440
1389.36 588.244 3440
1383.37 582.259 3405
1371.89 574.051 3357
1365.94 568.237 3323
1373.89 568.237 3323
1379.34 567.211 3317
1381.42 564.817 3303
1389.32 564.817 3303
1397.22 564.817 3303
1397.03 561.568 3284
1399.32 559.345 3271
1404.56 558.319 3265
1409.34 557.122 3258
1417.13 557.122 3258
1422.3 556.096 3252
1430.08 556.096 3252
1437.85 556.096 3252
1445.63 556.096 3252
1453.41 556.096 3252
1461.18 556.096 3252
1468.96 556.096 3252
1476.74 556.096 3252
1484.51 556.096 3252
1489.54 555.07 3246
1494.07 553.873 3239
1501.81 553.873 3239
1506.76 552.847 3233
1511.68 551.821 3227
1516.58 550.795 3221
1512.45 546.52 3196
1520.09 546.52 3196
1522 544.468 3184
1515.2 539.338 3154
1511.15 535.234 3130
1518.64 535.234 3130
1509.06 529.249 3095
1505.19 525.316 3072
1487.92 516.766 3022
1479.31 511.293 2990
1486.46 511.293 2990
1475.13 504.966 2953
1456.09 496.074 2901
1455.46 493.509 2886
1462.36 493.509 2886
1464.17 491.799 2876
1468.49 490.944 2871
1470.73 489.405 2862
1477.58 489.405 2862
1479.24 487.695 2852
1483.45 486.84 2847
1485.02 485.13 2837
1491.81 485.13 2837
1498.59 485.13 2837
1502.72 484.275 2832
1509.5 484.275 2832
1514.13 483.591 2828
1520.89 483.591 2828
1524.95 482.736 2823
1528.99 481.881 2818
1533 481.026 2813
1539.73 481.026 2813
1544.26 480.342 2809
1548.21 479.487 2804
1552.15 478.632 2799
1558.84 478.632 2799
1562.74 477.777 2794
1567.17 477.093 2790
1573.84 477.093 2790
1582.78 477.777 2794
1592.3 478.632 2799
1599 478.632 2799
1608.56 479.487 2804
1618.15 480.342 2809
1624.86 480.342 2809
1631.58 480.342 2809
1638.3 480.342 2809
1645.01 480.342 2809
1651.73 480.342 2809
1658.45 480.342 2809
1667.54 481.026 2813
1677.24 481.881 2818
1683.98 481.881 2818
1693.72 482.736 2823
1700.47 482.736 2823
1707.22 482.736 2823
1717 483.591 2828
1723.77 483.591 2828
1730.53 483.591 2828
1739.75 484.275 2832
1746.52 484.275 2832
1753.29 484.275 2832
1760.07 484.275 2832
1761.22 482.736 2823
1767.97 482.736 2823
1774.72 482.736 2823
1781.47 482.736 2823
1788.23 482.736 2823
1794.98 482.736 2823
1801.73 482.736 2823
1808.48 482.736 2823
1815.23 482.736 2823
1818.75 481.881 2818
1825.49 481.881 2818
1832.23 481.881 2818
1835.7 481.026 2813
1842.43 481.026 2813
1849.16 481.026 2813
1855.89 481.026 2813
1856.65 479.487 2804
1856.71 477.777 2794
1863.39 477.777 2794
1870.08 477.777 2794
1874.07 477.093 2790
1877.37 476.238 2785
1877.94 474.699 2776
1884.58 474.699 2776
1887.81 473.844 2771
1888.29 472.305 2762
1894.89 472.305 2762
1901.5 472.305 2762
1908.1 472.305 2762
1908.47 470.766 2753
1911.57 469.911 2748
1918.14 469.911 2748
1924.71 469.911 2748
1928.47 469.227 2744
1931.51 468.372 2739
1935.23 467.688 2735
1951 469.911 2748
1957.57 469.911 2748
1964.14 469.911 2748
1970.71 469.911 2748
1977.28 469.911 2748
1980.97 469.227 2744
1981.01 467.688 2735
1983.92 466.833 2730
1997.01 468.372 2739
2013.8 470.766 2753
2020.38 470.766 2753
2029.91 471.45 2757
2043.89 473.16 2767
2050.51 473.16 2767
2057.12 473.16 2767
2077.16 476.238 2785
2094.3 478.632 2799
2104.75 479.487 2804
2111.45 479.487 2804
2121.93 480.342 2809
2131.68 481.026 2813
2138.41 481.026 2813
2145.13 481.026 2813
-2065.18 481.349 2776
-2058.54 481.349 2776
-2058.56 482.91 2785
-2051.9 482.91 2785
-2045.24 482.91 2785
-2065.56 509.266 2937
-2058.54 509.266 2937
-2051.52 509.266 2937
-2041.01 508.399 2932
-2005.56 501.29 2891
-1998.64 501.29 2891
-1988.29 500.423 2886
-1981.39 500.423 2886
-1974.48 500.423 2886
-1970.99 501.29 2891
-1974.27 503.891 2906
-1981.54 507.532 2927
-1974.54 507.532 2927
-1967.54 507.532 2927
-1963.89 508.399 2932
-1963.55 510.133 2942
-1956.52 510.133 2942
-1960.08 512.907 2958
-1956.31 513.774 2963
-1949.22 513.774 2963
-1942.14 513.774 2963
-1970.32 523.138 3017
-1973.52 525.912 3033
-1966.26 525.912 3033
-1980.97 531.808 3067
-1984.58 534.755 3084
-1977.2 534.755 3084
-1969.83 534.755 3084
-1977.09 538.743 3107
-1976.63 540.651 3118
-1976.75 542.732 3130
-1969.27 542.732 3130
-1969.31 544.812 3142
-1961.79 544.812 3142
-1965.47 547.933 3160
-1957.92 547.933 3160
-1965.17 552.095 3184
-1972.32 556.256 3208
-1972.61 558.511 3221
-1964.9 558.511 3221
-1960.85 559.551 3227
-1953.13 559.551 3227
-1949.03 560.591 3233
-1941.3 560.591 3233
-1941.34 562.846 3246
-1948.47 567.18 3271
-1975.66 577.411 3330
-1967.69 577.411 3330
-1983.27 584.347 3370
-1975.21 584.347 3370
-1999.84 594.057 3426
-1991.65 594.057 3426
-1995.61 597.698 3447
-2004.09 602.727 3476
-2003.82 605.154 3490
-1995.47 605.154 3490
-1995.67 607.755 3505
-1987.28 607.755 3505
-1982.85 608.969 3512
-1974.46 608.969 3512
-1966.06 608.969 3512
-1962.12 610.356 3520
-1961.47 612.784 3534
-1953.02 612.784 3534
-1948.97 614.171 3542
-1940.5 614.171 3542
-1932.03 614.171 3542
-1923.56 614.171 3542
-1910.77 612.784 3534
-1906.62 614.171 3542
-1906.19 616.772 3557
-1897.69 616.772 3557
-1889.18 616.772 3557
-1880.67 616.772 3557
-1872.17 616.772 3557
-1863.66 616.772 3557
-1859.33 618.159 3565
-1850.8 618.159 3565
-1845.9 619.373 3572
-1837.35 619.373 3572
-1832.91 620.76 3580
-1824.35 620.76 3580
-1819.84 622.147 3588
-1811.26 622.147 3588
-1802.68 622.147 3588
-1797.6 623.361 3595
-1789.01 623.361 3595
-1780.41 623.361 3595
-1775.76 624.748 3603
-1774.99 627.523 3619
-1774.14 630.297 3635
-1765.45 630.297 3635
-1760.14 631.511 3642
-1763.46 635.846 3667
-1766.17 640.007 3691
-1757.34 640.007 3691
-1771.73 648.504 3740
-1770.8 651.451 3757
-1769.79 654.399 3774
-1760.76 654.399 3774
-1767.98 660.468 3809
-1775.04 666.537 3844
-1774.11 669.658 3862
-1764.88 669.658 3862
-1767.92 674.34 3889
-1770.83 679.021 3916
-1765.51 680.582 3925
-1756.12 680.582 3925
-1746.74 680.582 3925
-1729.39 677.461 3907
-1720.04 677.461 3907
-1687.06 668.097 3853
-1666.08 663.416 3826
-1612.76 645.729 3724
-1589.64 640.007 3691
-1580.82 640.007 3691
-1557.94 634.285 3658
-1529.28 626.135 3611
-1501.28 618.159 3565
-1492.75 618.159 3565
-1468.41 611.57 3527
-1453.76 608.969 3512
-1442.49 607.755 3505
-1434.1 607.755 3505
-1413.93 602.727 3476
-1399.55 600.126 3461
-1385.64 597.698 3447
-1377.4 597.698 3447
-1355.26 591.629 3412
-1338.81 587.988 3391
-1325.2 585.561 3377
-1311.67 583.133 3363
-1303.63 583.133 3363
-1290.58 580.879 3350
-1279.88 579.665 3343
-1271.89 579.665 3343
-1263.9 579.665 3343
-1255.9 579.665 3343
-1247.91 579.665 3343
-1242.51 580.879 3350
-1237.08 582.093 3357
-1229.05 582.093 3357
-1221.02 582.093 3357
-1213 582.093 3357
-1204.97 582.093 3357
-1194.45 580.879 3350
-890.202 488.632 2818
-885.031 489.499 2823
-882.636 491.926 2837
-887.892 498.689 2876
-881.015 498.689 2876
-877.177 500.423 2886
-870.276 500.423 2886
-863.374 500.423 2886
-856.473 500.423 2886
-849.572 500.423 2886
-851.722 505.798 2917
-844.747 505.798 2917
-837.771 505.798 2917
-830.796 505.798 2917
-823.82 505.798 2917
-815.165 504.758 2911
-812.646 507.532 2927
-805.647 507.532 2927
-801.376 509.266 2937
-794.352 509.266 2937
-787.329 509.266 2937
-758.325 638.62 3683
-749.518 638.62 3683
-740.711 638.62 3683
-714.416 623.361 3595
-705.819 623.361 3595
-697.222 623.361 3595
-688.625 623.361 3595
-675.678 619.373 3572
-662.841 615.385 3549
-658.595 619.373 3572
-650.053 619.373 3572
-641.511 619.373 3572
-634.387 620.76 3580
-625.826 620.76 3580
-617.265 620.76 3580
-608.704 620.76 3580
-601.485 622.147 3588
-594.061 623.361 3595
-588.07 626.135 3611
-579.435 626.135 3611
-570.8 626.135 3611
-563.411 627.523 3619
-554.757 627.523 3619
-546.103 627.523 3619
-537.448 627.523 3619
-529.963 628.91 3627
-523.446 631.511 3642
-514.737 631.511 3642
-506.028 631.511 3642
-497.319 631.511 3642
-488.609 631.511 3642
-479.9 631.511 3642
-470.285 630.297 3635
-460.577 628.91 3627
-451.904 628.91 3627
-443.231 628.91 3627
-435.516 630.297 3635
-427.646 631.511 3642
-419.857 632.898 3650
-411.128 632.898 3650
-402.4 632.898 3650
-395.505 635.846 3667
-387.58 637.233 3675
-378.792 637.233 3675
-370.81 638.62 3683
-363.575 641.394 3699
-356.36 644.342 3716
-347.474 644.342 3716
-339.317 645.729 3724
-333.339 651.451 3757
-324.355 651.451 3757
-315.371 651.451 3757
-308.507 655.96 3783
-300.807 658.907 3800
-291.72 658.907 3800
-282.633 658.907 3800
-273.546 658.907 3800
-267.521 666.537 3844
-258.329 666.537 3844
-249.137 666.537 3844
-239.945 666.537 3844
-136.086 393.09 2267
-131.011 394.131 2273
-125.576 394.131 2273
-120.14 394.131 2273
-114.251 392.57 2264
-108.837 392.57 2264
-103.286 392.05 2261
-97.3162 389.796 2248
-91.8178 389.276 2245
-86.4494 389.276 2245
-81.0809 389.276 2245
-75.4089 387.715 2236
-70.0619 387.715 2236
-64.715 387.715 2236
-59.368 387.715 2236
-54.0211 387.715 2236
-48.6088 387.195 2233
-43.2109 386.675 2230
-37.8783 386.675 2230
-32.4143 385.114 2221
-27.1033 385.114 2221
-21.7137 383.727 2213
-16.4217 383.727 2213
-11.1147 383.207 2210
-5.82199 382.686 2207
-0.543642 382.166 2204
4.72679 382.166 2204
9.9564 380.606 2195
15.1637 379.565 2189
20.3983 379.565 2189
25.6329 379.565 2189
30.8251 379.045 2186
36.0195 378.698 2184
41.1288 377.658 2178
46.3371 377.658 2178
51.5454 377.658 2178
56.5191 376.097 2169
61.7058 376.097 2169
66.6458 374.71 2161
71.8134 374.71 2161
76.9811 374.71 2161
82.1487 374.71 2161
87.3163 374.71 2161
92.4839 374.71 2161
97.5159 374.19 2158
102.534 373.67 2155
107.437 372.803 2150
112.735 373.323 2153
117.884 373.323 2153
123.147 373.67 2155
128.3 373.67 2155
133.453 373.67 2155
138.606 373.67 2155
143.426 372.803 2150
148.567 372.803 2150
153.494 372.283 2147
158.628 372.283 2147
163.763 372.283 2147
169.133 372.803 2150
174.274 372.803 2150
179.415 372.803 2150
580.274 513.774 2963
587.36 513.774 2963
595.448 514.641 2968
603.764 515.682 2974
611.903 516.549 2979
619.026 516.549 2979
626.15 516.549 2979
633.274 516.549 2979
640.397 516.549 2979
646.434 515.682 2974
648.931 512.04 2953
659.325 514.641 2968
667.77 515.682 2974
676.016 516.549 2979
683.14 516.549 2979
690.263 516.549 2979
698.557 517.416 2984
708.295 519.323 2995
715.457 519.323 2995
725.273 521.23 3006
733.679 522.097 3011
746.293 525.912 3033
753.545 525.912 3033
767.822 530.767 3061
780.966 534.755 3084
788.341 534.755 3084
795.715 534.755 3084
798.663 531.808 3067
805.997 531.808 3067
813.332 531.808 3067
819.06 530.767 3061
840.148 539.61 3112
850.859 541.691 3124
858.329 541.691 3124
865.799 541.691 3124
873.27 541.691 3124
877.357 539.61 3112
884.799 539.61 3112
892.241 539.61 3112
904.886 542.732 3130
912.371 542.732 3130
919.856 542.732 3130
927.341 542.732 3130
934.825 542.732 3130
947.729 545.853 3148
957.078 546.893 3154
964.62 546.893 3154
972.162 546.893 3154
979.704 546.893 3154
975.978 540.651 3118
983.434 540.651 3118
1060.49 578.625 3337
1070.39 579.665 3343
1093.87 587.988 3391
1101.98 587.988 3391
1121.54 594.057 3426
1134.35 596.484 3440
1147.23 598.912 3454
1165.19 603.941 3483
1173.52 603.941 3483
1184.22 605.154 3490
1194.96 606.368 3497
1211.24 610.356 3520
1219.65 610.356 3520
1230.51 611.57 3527
1238.95 611.57 3527
1247.38 611.57 3527
1255.81 611.57 3527
1264.25 611.57 3527
1278.1 614.171 3542
1289.11 615.385 3549
1297.59 615.385 3549
1309.03 616.772 3557
1323.09 619.373 3572
1337.59 622.147 3588
1346.17 622.147 3588
1357.4 623.361 3595
1372.07 626.135 3611
1380.71 626.135 3611
1389.34 626.135 3611
1391.78 623.361 3595
1394.54 620.76 3580
1403.1 620.76 3580
1402.59 616.772 3557
1399.19 611.57 3527
1401.64 608.969 3512
1395.59 602.727 3476
1403.9 602.727 3476
1394.74 595.271 3433
1382.93 586.774 3384
1374.17 579.665 3343
1382.16 579.665 3343
1381.84 576.197 3323
1387.27 575.157 3317
1389.32 572.729 3303
1397.22 572.729 3303
1397.03 569.435 3284
1402.32 568.394 3278
1404.56 566.14 3265
1409.34 564.926 3258
1417.13 564.926 3258
1422.3 563.886 3252
1430.08 563.886 3252
1437.85 563.886 3252
1445.63 563.886 3252
1453.41 563.886 3252
1461.18 563.886 3252
1468.96 563.886 3252
1476.74 563.886 3252
1484.51 563.886 3252
1486.32 561.632 3239
1494.07 561.632 3239
1501.81 561.632 3239
1506.76 560.591 3233
1511.68 559.551 3227
1516.58 558.511 3221
1515.29 555.216 3202
1522.94 555.216 3202
1524.86 553.135 3190
1518.08 547.933 3160
1516.95 544.812 3142
1524.46 544.812 3142
1514.91 538.743 3107
1511.07 534.755 3084
1496.29 526.952 3039
1487.23 521.23 3006
1494.42 521.23 3006
1485.62 515.682 2974
1464.12 505.798 2917
1460.51 502.157 2896
1467.43 502.157 2896
1469.27 500.423 2886
1471.05 498.689 2876
1475.36 497.822 2871
1482.22 497.822 2871
1484.42 496.261 2862
1483.45 493.66 2847
1487.64 492.793 2842
1491.81 491.926 2837
1498.59 491.926 2837
1502.72 491.059 2832
1507.36 490.366 2828
1511.45 489.499 2823
1518.2 489.499 2823
1522.25 488.632 2818
1526.28 487.765 2813
1530.82 487.071 2809
1537.54 487.071 2809
1541.51 486.204 2804
1545.45 485.337 2799
1552.15 485.337 2799
1558.84 485.337 2799
1560.5 483.777 2790
1567.17 483.777 2790
1571.02 482.91 2785
1580.51 483.777 2790
1589.46 484.47 2794
1596.14 484.47 2794
1605.69 485.337 2799
1615.26 486.204 2804
1621.97 486.204 2804
1628.68 486.204 2804
1635.38 486.204 2804
1645.01 487.071 2809
1651.73 487.071 2809
1658.45 487.071 2809
1667.54 487.765 2813
1677.24 488.632 2818
1683.98 488.632 2818
1693.72 489.499 2823
