ply
format ascii 1.0
comment File generated
element vertex 2159
property float x
property float y
property float z
end_header
1509.72 -1438.66 3716
1518.6 -1438.66 3716
1530.78 -1441.76 3724
1539.68 -1441.76 3724
1548.59 -1441.76 3724
1557.49 -1441.76 3724
1563.03 -1438.66 3716
1571.92 -1438.66 3716
1563.36 -1422.79 3675
1555.04 -1407.3 3635
1556.85 -1401.1 3619
1565.5 -1401.1 3619
1540.67 -1371.29 3542
-2771.11 -1442.45 3749
-2762.14 -1442.45 3749
-2771.54 -1452.07 3774
-2762.51 -1452.07 3774
-2753.49 -1452.07 3774
-2744.46 -1452.07 3774
-2735.44 -1452.07 3774
-2726.41 -1452.07 3774
-2717.39 -1452.07 3774
-2702.62 -1448.99 3766
-2693.62 -1448.99 3766
-2684.61 -1448.99 3766
-2675.61 -1448.99 3766
-2654.56 -1442.45 3749
-2645.6 -1442.45 3749
-2666.87 -1459 3792
-2669.72 -1465.54 3809
-2660.61 -1465.54 3809
-2675.87 -1479.01 3844
-2685.41 -1489.39 3871
-2676.15 -1489.39 3871
-2666.89 -1489.39 3871
-2663.82 -1492.86 3880
-2666.85 -1499.78 3898
-2669.8 -1506.71 3916
-2660.44 -1506.71 3916
-2651.07 -1506.71 3916
-2635.64 -1503.25 3907
-2626.3 -1503.25 3907
-2598.87 -1492.86 3880
-2553.55 -1472.08 3826
-2504.5 -1448.99 3766
-2495.49 -1448.99 3766
-2453.48 -1429.76 3716
-1459.43 -1554.03 4039
-1449.77 -1554.03 4039
-1447.24 -1561.73 4059
-1437.53 -1561.73 4059
-1427.83 -1561.73 4059
-1411.13 -1554.03 4039
-1394.88 -1546.72 4020
-1375.28 -1535.56 3991
-1365.73 -1535.56 3991
-1346.67 -1524.79 3963
-1321.34 -1506.71 3916
-1284.84 -1475.54 3835
-1258.37 -1455.54 3783
-1249.32 -1455.54 3783
-1237.33 -1452.07 3774
-1222.77 -1445.53 3757
-1213.78 -1445.53 3757
-1207.69 -1448.99 3766
-1198.68 -1448.99 3766
-1192.2 -1452.07 3774
-1183.18 -1452.07 3774
-1174.15 -1452.07 3774
-57.6688 -835.692 2172
-52.4749 -835.692 2172
-47.2809 -835.692 2172
-41.9901 -833.768 2167
-36.8082 -833.768 2167
-31.5825 -832.614 2164
-26.3345 -830.305 2158
-21.125 -828.382 2153
-15.9542 -827.227 2150
-10.8129 -827.227 2150
-5.66371 -826.073 2147
-0.528842 -824.919 2144
4.58739 -822.995 2139
9.70239 -822.995 2139
14.7966 -821.841 2136
19.8299 -818.763 2128
24.8483 -816.454 2122
29.9227 -816.454 2122
34.964 -815.685 2120
40.0336 -815.685 2120
45.1031 -815.685 2120
50.1727 -815.685 2120
55.1641 -814.53 2117
60.2265 -814.53 2117
65.2889 -814.53 2117
70.3513 -814.53 2117
75.4137 -814.53 2117
80.476 -814.53 2117
85.5384 -814.53 2117
90.6008 -814.53 2117
95.7988 -815.685 2120
100.868 -815.685 2120
105.938 -815.685 2120
111.112 -816.454 2122
116.187 -816.454 2122
121.261 -816.454 2122
126.514 -817.608 2125
131.595 -817.608 2125
136.87 -818.763 2128
141.959 -818.763 2128
147.047 -818.763 2128
152.35 -819.917 2131
157.594 -820.686 2133
162.695 -820.686 2133
168.031 -821.841 2136
173.382 -822.995 2139
178.497 -822.995 2139
183.612 -822.995 2139
188.727 -822.995 2139
193.842 -822.995 2139
199.236 -824.149 2142
204.359 -824.149 2142
209.676 -824.919 2144
215.104 -826.073 2147
220.238 -826.073 2147
225.372 -826.073 2147
230.828 -827.227 2150
235.97 -827.227 2150
241.111 -827.227 2150
720.799 -1569.42 4079
730.553 -1569.42 4079
740.307 -1569.42 4079
748.223 -1565.58 4069
756.09 -1561.73 4059
762.023 -1554.03 4039
771.682 -1554.03 4039
779.599 -1550.57 4030
746.54 -1448.99 3766
755.545 -1448.99 3766
764.551 -1448.99 3766
766.573 -1435.91 3732
773.835 -1432.83 3724
779.167 -1426.29 3707
788.031 -1426.29 3707
795.176 -1423.22 3699
798.805 -1413.98 3675
1471.15 -1462.08 3800
1480.24 -1462.08 3800
1489.32 -1462.08 3800
1491.71 -1455.54 3783
1490.44 -1445.53 3757
1492.64 -1438.99 3740
1501.58 -1438.99 3740
1504.06 -1432.83 3724
1509.72 -1429.76 3716
1521.87 -1432.83 3724
1530.78 -1432.83 3724
1539.68 -1432.83 3724
1548.59 -1432.83 3724
1557.49 -1432.83 3724
1563.03 -1429.76 3716
1571.92 -1429.76 3716
1563.36 -1413.98 3675
1555.04 -1398.59 3635
1553.41 -1389.36 3611
1562.04 -1389.36 3611
1537.19 -1359.73 3534
-2771.54 -1443.03 3774
-2762.51 -1443.03 3774
-2753.49 -1443.03 3774
-2744.46 -1443.03 3774
-2735.44 -1443.03 3774
-2726.41 -1443.03 3774
-2717.39 -1443.03 3774
-2702.62 -1439.97 3766
-2693.62 -1439.97 3766
-2684.61 -1439.97 3766
-2675.61 -1439.97 3766
-2654.56 -1433.47 3749
-2645.6 -1433.47 3749
-2666.87 -1449.91 3792
-2669.72 -1456.41 3809
-2660.61 -1456.41 3809
-2675.87 -1469.8 3844
-2685.41 -1480.12 3871
-2676.15 -1480.12 3871
-2666.89 -1480.12 3871
-2663.82 -1483.56 3880
-2666.85 -1490.44 3898
-2657.53 -1490.44 3898
-2648.21 -1490.44 3898
-2638.89 -1490.44 3898
-2629.57 -1490.44 3898
-2620.25 -1490.44 3898
-2574.76 -1469.8 3844
-2530.86 -1449.91 3792
-2504.5 -1439.97 3766
-2495.49 -1439.97 3766
-2453.48 -1420.85 3716
-1448.95 -1533.27 4010
-1439.36 -1533.27 4010
-1429.77 -1533.27 4010
-1420.18 -1533.27 4010
-1410.59 -1533.27 4010
-1401 -1533.27 4010
-1391.41 -1533.27 4010
-1365.63 -1515.3 3963
-1356.15 -1515.3 3963
-1343.28 -1511.47 3953
-1321.34 -1497.33 3916
-1284.84 -1466.36 3835
-1258.37 -1446.47 3783
-1249.32 -1446.47 3783
-1237.33 -1443.03 3774
-1222.77 -1436.53 3757
-1213.78 -1436.53 3757
-1207.69 -1439.97 3766
-1198.68 -1439.97 3766
-1192.2 -1443.03 3774
-1183.18 -1443.03 3774
-1174.15 -1443.03 3774
-63.21 -835.077 2184
-57.9874 -835.077 2184
-52.7648 -835.077 2184
-47.2809 -830.489 2172
-41.9901 -828.577 2167
-36.8082 -828.577 2167
-31.5825 -827.43 2164
-26.3711 -826.283 2161
-21.125 -823.224 2153
-15.9542 -822.077 2150
-10.8129 -822.077 2150
-5.66371 -820.93 2147
-0.528842 -819.783 2144
4.58739 -817.871 2139
9.70239 -817.871 2139
14.7966 -816.724 2136
19.8299 -813.665 2128
24.8483 -811.371 2122
29.9227 -811.371 2122
34.964 -810.606 2120
40.0336 -810.606 2120
45.0393 -809.459 2117
50.1017 -809.459 2117
55.1641 -809.459 2117
60.2265 -809.459 2117
65.2889 -809.459 2117
70.3513 -809.459 2117
75.4137 -809.459 2117
80.476 -809.459 2117
85.5384 -809.459 2117
90.6008 -809.459 2117
95.6632 -809.459 2117
100.726 -809.459 2117
105.938 -810.606 2120
111.007 -810.606 2120
116.187 -811.371 2122
121.261 -811.371 2122
126.514 -812.518 2125
131.595 -812.518 2125
136.87 -813.665 2128
141.959 -813.665 2128
147.047 -813.665 2128
152.35 -814.812 2131
157.446 -814.812 2131
162.542 -814.812 2131
167.795 -815.577 2133
173.139 -816.724 2136
178.497 -817.871 2139
183.612 -817.871 2139
188.727 -817.871 2139
193.842 -817.871 2139
198.957 -817.871 2139
204.072 -817.871 2139
209.481 -819.018 2142
214.803 -819.783 2144
219.93 -819.783 2144
225.057 -819.783 2144
230.828 -822.077 2150
235.97 -822.077 2150
241.111 -822.077 2150
720.799 -1559.65 4079
730.553 -1559.65 4079
740.307 -1559.65 4079
748.223 -1555.83 4069
756.09 -1552 4059
762.023 -1544.36 4039
771.682 -1544.36 4039
779.599 -1540.92 4030
783.557 -1529.83 4001
756.848 -1459.86 3818
765.978 -1459.86 3818
775.108 -1459.86 3818
773.557 -1439.97 3766
775.497 -1426.97 3732
782.74 -1423.91 3724
791.645 -1423.91 3724
796.896 -1417.41 3707
798.805 -1405.18 3675
1471.15 -1452.97 3800
1480.24 -1452.97 3800
1489.32 -1452.97 3800
1495.26 -1449.91 3792
1494.01 -1439.97 3766
1496.23 -1433.47 3749
1505.19 -1433.47 3749
1504.06 -1423.91 3724
1509.72 -1420.85 3716
1521.87 -1423.91 3724
1530.78 -1423.91 3724
1539.68 -1423.91 3724
1548.59 -1423.91 3724
1557.49 -1423.91 3724
1555.88 -1414.35 3699
1564.73 -1414.35 3699
1559.96 -1402.12 3667
1555.04 -1389.88 3635
1546.53 -1374.59 3595
1555.12 -1374.59 3595
1537.19 -1351.27 3534
-2862.6 -1481.11 3898
-2853.28 -1481.11 3898
-2843.96 -1481.11 3898
-2821.55 -1474.27 3880
-2799.22 -1467.43 3862
-2770.48 -1457.17 3835
-2761.31 -1457.17 3835
-2733.48 -1447.29 3809
-2724.37 -1447.29 3809
-2696.73 -1437.41 3783
-2687.68 -1437.41 3783
-2666.6 -1430.95 3766
-2663.24 -1433.99 3774
-2672.5 -1443.87 3800
-2694.25 -1460.59 3844
-2685.06 -1460.59 3844
-2694.66 -1470.85 3871
-2685.41 -1470.85 3871
-2676.15 -1470.85 3871
-2666.89 -1470.85 3871
-2663.82 -1474.27 3880
-2666.85 -1481.11 3898
-2657.53 -1481.11 3898
-2648.21 -1481.11 3898
-2638.89 -1481.11 3898
-2629.57 -1481.11 3898
-2620.25 -1481.11 3898
-2574.76 -1460.59 3844
-2542.2 -1447.29 3809
-2504.5 -1430.95 3766
-2495.49 -1430.95 3766
-2480.55 -1427.53 3757
-1442.08 -1516.44 3991
-1432.54 -1516.44 3991
-1426.56 -1520.24 4001
-1416.99 -1520.24 4001
-1407.42 -1520.24 4001
-1394.36 -1516.44 3991
-1375.1 -1505.8 3963
-1362.18 -1502.01 3953
-1352.73 -1502.01 3953
-1333.76 -1491.37 3925
-1315.26 -1481.11 3898
-1279.14 -1450.71 3818
-1258.37 -1437.41 3783
-1249.32 -1437.41 3783
-1234.7 -1430.95 3766
-1222.77 -1427.53 3757
-1213.78 -1427.53 3757
-1204.8 -1427.53 3757
-1195.82 -1427.53 3757
-1192.2 -1433.99 3774
-1183.18 -1433.99 3774
-1174.15 -1433.99 3774
-63.21 -829.845 2184
-57.9874 -829.845 2184
-52.7648 -829.845 2184
-47.2156 -824.146 2169
-41.9901 -823.386 2167
-36.8082 -823.386 2167
-31.5825 -822.246 2164
-26.3711 -821.106 2161
-21.1446 -818.826 2155
-15.9542 -816.927 2150
-10.8129 -816.927 2150
-5.66371 -815.787 2147
-0.528842 -814.647 2144
4.58739 -812.747 2139
9.70239 -812.747 2139
14.7966 -811.607 2136
19.8299 -808.567 2128
24.8483 -806.288 2122
29.9227 -806.288 2122
34.964 -805.528 2120
39.9769 -804.388 2117
45.0393 -804.388 2117
50.1017 -804.388 2117
55.1641 -804.388 2117
60.2265 -804.388 2117
65.2889 -804.388 2117
70.3513 -804.388 2117
75.4137 -804.388 2117
80.476 -804.388 2117
85.5384 -804.388 2117
90.6008 -804.388 2117
95.6632 -804.388 2117
100.726 -804.388 2117
105.938 -805.528 2120
111.007 -805.528 2120
116.187 -806.288 2122
121.261 -806.288 2122
126.335 -806.288 2122
131.595 -807.427 2125
136.677 -807.427 2125
141.758 -807.427 2125
146.84 -807.427 2125
152.136 -808.567 2128
157.446 -809.707 2131
162.542 -809.707 2131
167.795 -810.467 2133
172.896 -810.467 2133
178.247 -811.607 2136
183.355 -811.607 2136
188.463 -811.607 2136
193.57 -811.607 2136
198.678 -811.607 2136
203.786 -811.607 2136
209.187 -812.747 2139
214.603 -813.887 2142
219.725 -813.887 2142
224.847 -813.887 2142
229.969 -813.887 2142
720.799 -1549.88 4079
730.553 -1549.88 4079
740.307 -1549.88 4079
748.223 -1546.08 4069
756.09 -1542.28 4059
765.796 -1542.28 4059
775.503 -1542.28 4059
781.34 -1534.68 4039
785.319 -1523.66 4010
756.848 -1450.71 3818
765.978 -1450.71 3818
775.108 -1450.71 3818
778.897 -1440.83 3792
782.562 -1430.95 3766
784.422 -1418.03 3732
793.346 -1418.03 3732
800.551 -1414.99 3724
807.717 -1411.95 3716
1487.96 -1487.95 3916
1497.33 -1487.95 3916
1506.69 -1487.95 3916
1488.18 -1460.59 3844
1480.24 -1443.87 3800
1489.32 -1443.87 3800
1495.26 -1440.83 3792
1494.01 -1430.95 3766
1496.23 -1424.49 3749
1505.19 -1424.49 3749
1504.06 -1414.99 3724
1509.72 -1411.95 3716
1521.87 -1414.99 3724
1530.78 -1414.99 3724
1539.68 -1414.99 3724
1548.59 -1414.99 3724
1557.49 -1414.99 3724
1555.88 -1405.49 3699
1564.73 -1405.49 3699
1559.96 -1393.33 3667
1555.04 -1381.18 3635
1546.53 -1365.98 3595
1555.12 -1365.98 3595
1537.19 -1342.8 3534
-2862.6 -1471.77 3898
-2853.28 -1471.77 3898
-2843.96 -1471.77 3898
-2834.64 -1471.77 3898
-2818.79 -1468.37 3889
-2796.49 -1461.57 3871
-2787.23 -1461.57 3871
-2758.6 -1451.38 3844
-2742.97 -1447.98 3835
-2715.26 -1438.17 3809
-2706.16 -1438.17 3809
-2678.64 -1428.35 3783
-2681.59 -1434.77 3800
-2703.45 -1451.38 3844
-2706.87 -1458.18 3862
-2697.63 -1458.18 3862
-2694.66 -1461.57 3871
-2685.41 -1461.57 3871
-2688.59 -1468.37 3889
-2679.3 -1468.37 3889
-2670 -1468.37 3889
-2666.85 -1471.77 3898
-2657.53 -1471.77 3898
-2648.21 -1471.77 3898
-2638.89 -1471.77 3898
-2629.57 -1471.77 3898
-2620.25 -1471.77 3898
-2574.76 -1451.38 3844
-2559.56 -1447.98 3835
-2515.8 -1428.35 3783
-2506.76 -1428.35 3783
-2486.49 -1421.93 3766
-1409.45 -1492.54 3953
-1399.99 -1492.54 3953
-1390.54 -1492.54 3953
-1381.09 -1492.54 3953
-1371.63 -1492.54 3953
-1359.08 -1489.14 3944
-1349.65 -1489.14 3944
-1333.76 -1481.96 3925
-1315.26 -1471.77 3898
-1279.14 -1441.56 3818
-1261.36 -1431.75 3792
-1252.29 -1431.75 3792
-1231.75 -1418.53 3757
-1217.23 -1412.11 3740
-1205.71 -1409.09 3732
-1204.8 -1418.53 3757
-1195.82 -1418.53 3757
-1186.83 -1418.53 3757
-1177.85 -1418.53 3757
-1168.86 -1418.53 3757
-67.6179 -814.797 2158
-63.21 -824.614 2184
-57.9874 -824.614 2184
-52.7648 -824.614 2184
-47.2156 -818.95 2169
-41.9901 -818.195 2167
-36.8082 -818.195 2167
-31.5825 -817.062 2164
-26.3711 -815.93 2161
-21.1446 -813.664 2155
-15.9542 -811.776 2150
-10.8129 -811.776 2150
-5.66371 -810.644 2147
-0.528842 -809.511 2144
4.58739 -807.623 2139
9.70239 -807.623 2139
14.7966 -806.49 2136
19.8299 -803.47 2128
24.8483 -801.204 2122
29.9227 -801.204 2122
34.964 -800.449 2120
40.0336 -800.449 2120
45.1031 -800.449 2120
50.1727 -800.449 2120
55.2423 -800.449 2120
60.2265 -799.316 2117
65.2889 -799.316 2117
70.3513 -799.316 2117
75.4137 -799.316 2117
80.476 -799.316 2117
85.5384 -799.316 2117
90.6008 -799.316 2117
95.6632 -799.316 2117
100.726 -799.316 2117
105.938 -800.449 2120
111.007 -800.449 2120
116.187 -801.204 2122
121.261 -801.204 2122
126.335 -801.204 2122
131.595 -802.337 2125
136.677 -802.337 2125
141.758 -802.337 2125
146.84 -802.337 2125
152.136 -803.47 2128
157.446 -804.602 2131
162.542 -804.602 2131
167.795 -805.358 2133
172.896 -805.358 2133
178.247 -806.49 2136
183.355 -806.49 2136
188.463 -806.49 2136
193.57 -806.49 2136
198.957 -807.623 2139
204.072 -807.623 2139
210.263 -811.776 2150
215.404 -811.776 2150
220.546 -811.776 2150
224.847 -808.756 2142
229.969 -808.756 2142
425.843 -1464.97 3880
435.121 -1464.97 3880
444.399 -1464.97 3880
453.677 -1464.97 3880
462.956 -1464.97 3880
472.234 -1464.97 3880
469.474 -1428.35 3783
478.521 -1428.35 3783
487.567 -1428.35 3783
495.432 -1424.95 3774
504.457 -1424.95 3774
657.404 -1528.78 4049
667.086 -1528.78 4049
678.44 -1532.56 4059
691.537 -1540.11 4079
701.291 -1540.11 4079
711.045 -1540.11 4079
720.799 -1540.11 4079
730.553 -1540.11 4079
740.307 -1540.11 4079
746.384 -1532.56 4059
756.09 -1532.56 4059
765.796 -1532.56 4059
775.503 -1532.56 4059
781.34 -1525.01 4039
785.319 -1514.06 4010
760.218 -1447.98 3835
765.978 -1441.56 3818
775.108 -1441.56 3818
778.897 -1431.75 3792
782.562 -1421.93 3766
784.422 -1409.09 3732
793.346 -1409.09 3732
800.551 -1406.07 3724
807.717 -1403.05 3716
1487.96 -1478.57 3916
1497.33 -1478.57 3916
1506.69 -1478.57 3916
1488.18 -1451.38 3844
1480.24 -1434.77 3800
1489.32 -1434.77 3800
1495.26 -1431.75 3792
1494.01 -1421.93 3766
1496.23 -1415.51 3749
1505.19 -1415.51 3749
1504.06 -1406.07 3724
1509.72 -1403.05 3716
1518.6 -1403.05 3716
1527.49 -1403.05 3716
1536.38 -1403.05 3716
1541.52 -1399.65 3707
1547.04 -1396.63 3699
1545.79 -1387.57 3675
1554.58 -1387.57 3675
1549.33 -1375.11 3642
1544.77 -1363.41 3611
1543.51 -1354.72 3588
1552.09 -1354.72 3588
1537.19 -1334.33 3534
-2862.6 -1462.43 3898
-2853.28 -1462.43 3898
-2843.96 -1462.43 3898
-2834.64 -1462.43 3898
-2825.32 -1462.43 3898
-2796.49 -1452.3 3871
-2787.23 -1452.3 3871
-2758.6 -1442.17 3844
-2742.97 -1438.8 3835
-2733.8 -1438.8 3835
-2724.63 -1438.8 3835
-2678.64 -1419.29 3783
-2681.59 -1425.66 3800
-2703.45 -1442.17 3844
-2706.87 -1448.93 3862
-2697.63 -1448.93 3862
-2694.66 -1452.3 3871
-2685.41 -1452.3 3871
-2688.59 -1459.06 3889
-2679.3 -1459.06 3889
-2670 -1459.06 3889
-2666.85 -1462.43 3898
-2657.53 -1462.43 3898
-2648.21 -1462.43 3898
-2638.89 -1462.43 3898
-2629.57 -1462.43 3898
-2620.25 -1462.43 3898
-2574.76 -1442.17 3844
-2559.56 -1438.8 3835
-2515.8 -1419.29 3783
-2506.76 -1419.29 3783
-2486.49 -1412.91 3766
-1409.45 -1483.07 3953
-1399.99 -1483.07 3953
-1390.54 -1483.07 3953
-1381.09 -1483.07 3953
-1371.63 -1483.07 3953
-1359.08 -1479.69 3944
-1349.65 -1479.69 3944
-1340.22 -1479.69 3944
-1321.34 -1469.18 3916
-1293.88 -1448.93 3862
-1264.02 -1425.66 3800
-1254.94 -1425.66 3800
-1243.23 -1422.66 3792
-1222.77 -1409.53 3757
-1222.18 -1419.29 3783
-1213.14 -1419.29 3783
-1204.09 -1419.29 3783
-1195.04 -1419.29 3783
-1186 -1419.29 3783
-1176.95 -1419.29 3783
-67.6179 -809.627 2158
-62.6311 -811.878 2164
-57.4564 -811.878 2164
-52.2816 -811.878 2164
-47.1068 -811.878 2164
-41.8739 -810.753 2161
-36.7063 -810.753 2161
-31.5387 -810.753 2161
-26.3345 -809.627 2158
-21.1446 -808.502 2155
-15.932 -805.5 2147
-10.7978 -805.5 2147
-5.6558 -804.375 2144
-0.528842 -804.375 2144
4.58739 -802.499 2139
9.70239 -802.499 2139
14.7966 -801.373 2136
19.8019 -797.247 2125
24.8483 -796.121 2122
29.9227 -796.121 2122
34.9145 -794.245 2117
40.0336 -795.371 2120
45.1031 -795.371 2120
50.1727 -795.371 2120
55.2423 -795.371 2120
60.2265 -794.245 2117
65.2889 -794.245 2117
70.3513 -794.245 2117
75.4137 -794.245 2117
80.476 -794.245 2117
85.5384 -794.245 2117
90.6008 -794.245 2117
95.6632 -794.245 2117
100.726 -794.245 2117
105.788 -794.245 2117
110.85 -794.245 2117
115.913 -794.245 2117
120.975 -794.245 2117
126.216 -795.371 2120
131.41 -796.121 2122
136.677 -797.247 2125
141.758 -797.247 2125
146.84 -797.247 2125
151.921 -797.247 2125
157.003 -797.247 2125
162.084 -797.247 2125
167.638 -799.498 2131
172.734 -799.498 2131
178.247 -801.373 2136
183.355 -801.373 2136
188.463 -801.373 2136
193.57 -801.373 2136
198.957 -802.499 2139
204.072 -802.499 2139
210.263 -806.626 2150
215.404 -806.626 2150
220.546 -806.626 2150
224.217 -801.373 2136
425.843 -1455.68 3880
435.121 -1455.68 3880
444.399 -1455.68 3880
453.677 -1455.68 3880
462.956 -1455.68 3880
472.234 -1455.68 3880
469.474 -1419.29 3783
478.521 -1419.29 3783
487.567 -1419.29 3783
495.432 -1415.91 3774
504.457 -1415.91 3774
657.404 -1519.08 4049
667.086 -1519.08 4049
678.44 -1522.83 4059
691.537 -1530.34 4079
701.291 -1530.34 4079
711.045 -1530.34 4079
720.799 -1530.34 4079
730.553 -1530.34 4079
740.307 -1530.34 4079
746.384 -1522.83 4059
756.09 -1522.83 4059
765.796 -1522.83 4059
775.503 -1522.83 4059
781.34 -1515.33 4039
785.319 -1504.45 4010
760.218 -1438.8 3835
765.978 -1432.42 3818
775.108 -1432.42 3818
778.897 -1422.66 3792
782.562 -1412.91 3766
784.422 -1400.15 3732
793.346 -1400.15 3732
800.551 -1397.15 3724
807.717 -1394.15 3716
811.109 -1384.77 3691
819.935 -1384.77 3691
1478.6 -1469.18 3916
1487.96 -1469.18 3916
1497.33 -1469.18 3916
1506.69 -1469.18 3916
1488.18 -1442.17 3844
1480.24 -1425.66 3800
1489.32 -1425.66 3800
1485 -1412.91 3766
1487.26 -1406.53 3749
1489.44 -1400.15 3732
1498.37 -1400.15 3732
1500.83 -1394.15 3716
1499.56 -1384.77 3691
1508.39 -1384.77 3691
1517.21 -1384.77 3691
1526.04 -1384.77 3691
1531.54 -1381.77 3683
1533.65 -1375.77 3667
1535.27 -1369.39 3650
1544 -1369.39 3650
1542.94 -1360.76 3627
1548.2 -1357.76 3619
1543.51 -1346.13 3588
1552.09 -1346.13 3588
1550.67 -1337.5 3565
-2862.6 -1453.09 3898
-2853.28 -1453.09 3898
-2843.96 -1453.09 3898
-2834.64 -1453.09 3898
-2825.32 -1453.09 3898
-2796.49 -1443.03 3871
-2787.23 -1443.03 3871
-2758.6 -1432.96 3844
-2749.41 -1432.96 3844
-2733.8 -1429.61 3835
-2724.63 -1429.61 3835
-2678.64 -1410.22 3783
-2681.59 -1416.56 3800
-2703.45 -1432.96 3844
-2706.87 -1439.67 3862
-2697.63 -1439.67 3862
-2694.66 -1443.03 3871
-2685.41 -1443.03 3871
-2688.59 -1449.74 3889
-2679.3 -1449.74 3889
-2670 -1449.74 3889
-2666.85 -1453.09 3898
-2657.53 -1453.09 3898
-2648.21 -1453.09 3898
-2638.89 -1453.09 3898
-2605.28 -1439.67 3862
-2596.05 -1439.67 3862
-2568.73 -1429.61 3835
-2559.56 -1429.61 3835
-2515.8 -1410.22 3783
-2506.76 -1410.22 3783
-2486.49 -1403.89 3766
-1409.45 -1473.6 3953
-1399.99 -1473.6 3953
-1390.54 -1473.6 3953
-1381.09 -1473.6 3953
-1368.51 -1470.24 3944
-1359.08 -1470.24 3944
-1349.65 -1470.24 3944
-1340.22 -1470.24 3944
-1321.34 -1459.8 3916
-1293.88 -1439.67 3862
-1264.02 -1416.56 3800
-1254.94 -1416.56 3800
-1243.23 -1413.58 3792
-1222.77 -1400.53 3757
-1222.18 -1410.22 3783
-1213.14 -1410.22 3783
-1204.09 -1410.22 3783
-1195.04 -1410.22 3783
-1186 -1410.22 3783
-1176.95 -1410.22 3783
-67.6179 -804.458 2158
-62.4575 -804.458 2158
-57.297 -804.458 2158
-52.1366 -804.458 2158
-46.9762 -804.458 2158
-41.8739 -805.576 2161
-36.7063 -805.576 2161
-31.5387 -805.576 2161
-26.3345 -804.458 2158
-21.1446 -803.339 2155
-15.9765 -802.594 2153
-10.828 -802.594 2153
-5.66371 -800.357 2147
-0.528842 -799.239 2144
4.58095 -796.257 2136
9.68878 -796.257 2136
14.7966 -796.257 2136
19.8019 -792.156 2125
24.8483 -791.038 2122
29.9227 -791.038 2122
34.9145 -789.174 2117
40.0336 -790.292 2120
45.1031 -790.292 2120
50.1727 -790.292 2120
55.2423 -790.292 2120
60.2265 -789.174 2117
65.2889 -789.174 2117
70.3513 -789.174 2117
75.4137 -789.174 2117
80.476 -789.174 2117
85.4172 -788.056 2114
90.4724 -788.056 2114
95.5276 -788.056 2114
100.583 -788.056 2114
105.638 -788.056 2114
110.693 -788.056 2114
115.913 -789.174 2117
120.975 -789.174 2117
126.038 -789.174 2117
131.286 -790.292 2120
136.355 -790.292 2120
141.425 -790.292 2120
146.494 -790.292 2120
151.707 -791.038 2122
156.781 -791.038 2122
161.856 -791.038 2122
167.166 -792.156 2125
172.734 -794.393 2131
177.83 -794.393 2131
182.926 -794.393 2131
188.463 -796.257 2136
193.842 -797.375 2139
199.98 -801.476 2150
205.122 -801.476 2150
210.263 -801.476 2150
215.404 -801.476 2150
220.546 -801.476 2150
225.687 -801.476 2150
425.843 -1446.38 3880
435.121 -1446.38 3880
444.399 -1446.38 3880
453.677 -1446.38 3880
462.956 -1446.38 3880
472.234 -1446.38 3880
473.818 -1423.27 3818
480.671 -1416.56 3800
489.758 -1416.56 3800
498.845 -1416.56 3800
507.932 -1416.56 3800
515.93 -1413.58 3792
524.998 -1413.58 3792
534.066 -1413.58 3792
543.134 -1413.58 3792
627.481 -1484.41 3982
643.082 -1498.57 4020
657.404 -1509.38 4049
667.086 -1509.38 4049
678.44 -1513.11 4059
691.537 -1520.57 4079
701.291 -1520.57 4079
711.045 -1520.57 4079
720.799 -1520.57 4079
721.777 -1502.3 4030
731.414 -1502.3 4030
741.051 -1502.3 4030
752.365 -1505.66 4039
762.023 -1505.66 4039
771.682 -1505.66 4039
777.665 -1498.57 4020
751.047 -1429.61 3835
760.218 -1429.61 3835
765.978 -1423.27 3818
775.108 -1423.27 3818
777.049 -1410.22 3783
782.562 -1403.89 3766
784.422 -1391.21 3732
793.346 -1391.21 3732
800.551 -1388.23 3724
805.761 -1381.89 3707
811.109 -1375.93 3691
819.935 -1375.93 3691
817.759 -1357.66 3642
817.618 -1343.12 3603
1478.6 -1459.8 3916
1487.96 -1459.8 3916
1497.33 -1459.8 3916
1499.77 -1453.09 3898
1481.21 -1426.25 3826
1473.61 -1410.22 3783
1482.66 -1410.22 3783
1481.45 -1400.53 3757
1487.26 -1397.55 3749
1489.44 -1391.21 3732
1498.37 -1391.21 3732
1504.06 -1388.23 3724
1493.06 -1369.96 3675
1494.9 -1363.63 3658
1503.65 -1363.63 3658
1512.4 -1363.63 3658
1521.14 -1363.63 3658
1526.54 -1360.64 3650
1528.96 -1355.05 3635
1537.66 -1355.05 3635
1539.54 -1349.09 3619
1548.2 -1349.09 3619
1549.97 -1343.12 3603
1558.58 -1343.12 3603
1550.67 -1328.96 3565
-2862.6 -1443.76 3898
-2853.28 -1443.76 3898
-2843.96 -1443.76 3898
-2834.64 -1443.76 3898
-2825.32 -1443.76 3898
-2796.49 -1433.76 3871
-2787.23 -1433.76 3871
-2758.6 -1423.76 3844
-2749.41 -1423.76 3844
-2733.8 -1420.42 3835
-2724.63 -1420.42 3835
-2678.64 -1401.16 3783
-2681.59 -1407.46 3800
-2697.12 -1420.42 3835
-2700.56 -1427.09 3853
-2691.35 -1427.09 3853
-2694.66 -1433.76 3871
-2685.41 -1433.76 3871
-2676.15 -1433.76 3871
-2666.89 -1433.76 3871
-2657.64 -1433.76 3871
-2654.54 -1437.09 3880
-2645.26 -1437.09 3880
-2635.98 -1437.09 3880
-2626.7 -1437.09 3880
-2593.14 -1423.76 3844
-2583.95 -1423.76 3844
-2568.73 -1420.42 3835
-2559.56 -1420.42 3835
-2515.8 -1401.16 3783
-2506.76 -1401.16 3783
-2486.49 -1394.87 3766
-1416.22 -1471.16 3972
-1406.72 -1471.16 3972
-1397.22 -1471.16 3972
-1384.58 -1467.83 3963
-1375.1 -1467.83 3963
-1365.63 -1467.83 3963
-1356.15 -1467.83 3963
-1346.67 -1467.83 3963
-1330.79 -1460.79 3944
-1311.97 -1450.42 3916
-1281.65 -1427.09 3853
-1272.44 -1427.09 3853
-1243.23 -1404.5 3792
-1234.16 -1404.5 3792
-1233.49 -1414.13 3818
-1232.7 -1423.76 3844
-1223.51 -1423.76 3844
-1220 -1430.42 3862
-1210.77 -1430.42 3862
-1201.53 -1430.42 3862
-67.6179 -799.288 2158
-62.5443 -800.399 2161
-57.3767 -800.399 2161
-52.2091 -800.399 2161
-47.1068 -801.511 2164
-41.9901 -802.622 2167
-36.8082 -802.622 2167
-31.6262 -802.622 2167
-26.3711 -800.399 2161
-21.174 -799.288 2158
-15.9765 -797.436 2153
-10.828 -797.436 2153
-5.67162 -796.325 2150
-0.528842 -794.103 2144
4.58095 -791.14 2136
9.68878 -791.14 2136
14.7966 -791.14 2136
19.8299 -788.177 2128
24.8483 -785.955 2122
29.9227 -785.955 2122
34.964 -785.214 2120
40.0336 -785.214 2120
45.1031 -785.214 2120
50.1727 -785.214 2120
55.2423 -785.214 2120
60.2265 -784.103 2117
65.2889 -784.103 2117
70.3513 -784.103 2117
75.4137 -784.103 2117
80.476 -784.103 2117
85.4172 -782.991 2114
90.4724 -782.991 2114
95.5276 -782.991 2114
100.583 -782.991 2114
105.638 -782.991 2114
110.693 -782.991 2114
115.913 -784.103 2117
120.975 -784.103 2117
126.038 -784.103 2117
131.286 -785.214 2120
136.355 -785.214 2120
141.425 -785.214 2120
146.633 -785.955 2122
151.707 -785.955 2122
156.781 -785.955 2122
161.856 -785.955 2122
166.93 -785.955 2122
172.004 -785.955 2122
177.83 -789.288 2131
182.926 -789.288 2131
188.463 -791.14 2136
194.114 -793.362 2142
199.98 -796.325 2150
205.122 -796.325 2150
210.263 -796.325 2150
215.404 -796.325 2150
220.546 -796.325 2150
225.687 -796.325 2150
425.843 -1437.09 3880
435.121 -1437.09 3880
444.399 -1437.09 3880
453.677 -1437.09 3880
461.882 -1433.76 3871
471.139 -1433.76 3871
475.928 -1420.42 3835
485.098 -1420.42 3835
494.269 -1420.42 3835
503.44 -1420.42 3835
512.61 -1420.42 3835
515.93 -1404.5 3792
527.352 -1410.79 3809
551.53 -1450.42 3916
562.184 -1453.76 3925
571.57 -1453.76 3925
582.436 -1457.46 3935
591.845 -1457.46 3935
604.005 -1464.13 3953
613.458 -1464.13 3953
627.481 -1474.87 3982
643.082 -1488.94 4020
655.78 -1495.98 4039
665.438 -1495.98 4039
676.768 -1499.68 4049
688.146 -1503.39 4059
697.852 -1503.39 4059
707.559 -1503.39 4059
712.14 -1492.65 4030
714.792 -1478.2 3991
724.336 -1478.2 3991
726.892 -1464.13 3953
734.669 -1460.79 3944
744.1 -1460.79 3944
753.531 -1460.79 3944
757.546 -1450.42 3916
737.534 -1394.87 3766
746.54 -1394.87 3766
755.545 -1394.87 3766
764.551 -1394.87 3766
773.557 -1394.87 3766
782.562 -1394.87 3766
784.422 -1382.27 3732
793.346 -1382.27 3732
800.551 -1379.31 3724
805.761 -1373.01 3707
811.109 -1367.09 3691
819.935 -1367.09 3691
821.352 -1354.86 3658
824.88 -1346.35 3635
1478.6 -1450.42 3916
1487.96 -1450.42 3916
1497.33 -1450.42 3916
1499.77 -1443.76 3898
1481.21 -1417.09 3826
1473.61 -1401.16 3783
1482.66 -1401.16 3783
1481.45 -1391.53 3757
1490.44 -1391.53 3757
1492.64 -1385.24 3740
1501.58 -1385.24 3740
1510.52 -1385.24 3740
1493.06 -1361.16 3675
1494.9 -1354.86 3658
1503.65 -1354.86 3658
1512.4 -1354.86 3658
1521.14 -1354.86 3658
1526.54 -1351.9 3650
1528.96 -1346.35 3635
1537.66 -1346.35 3635
1539.54 -1340.42 3619
1548.2 -1340.42 3619
1549.97 -1334.49 3603
1558.58 -1334.49 3603
1550.67 -1320.42 3565
-2855.99 -1431.11 3889
-2853.28 -1434.42 3898
-2843.96 -1434.42 3898
-2834.64 -1434.42 3898
-2818.79 -1431.11 3889
-2796.49 -1424.48 3871
-2787.23 -1424.48 3871
-2758.6 -1414.55 3844
-2749.41 -1414.55 3844
-2740.21 -1414.55 3844
-2731.02 -1414.55 3844
-2678.64 -1392.1 3783
-2681.59 -1398.36 3800
-2690.79 -1407.92 3826
-2694.25 -1414.55 3844
-2685.06 -1414.55 3844
-2688.4 -1421.17 3862
-2685.41 -1424.48 3871
-2676.15 -1424.48 3871
-2666.89 -1424.48 3871
-2657.64 -1424.48 3871
-2642.22 -1421.17 3862
-2632.99 -1421.17 3862
-2623.75 -1421.17 3862
-2614.52 -1421.17 3862
-2587.07 -1411.24 3835
-2577.9 -1411.24 3835
-2551.31 -1401.67 3809
-2536.2 -1398.36 3800
-2515.8 -1392.1 3783
-2506.76 -1392.1 3783
-2486.49 -1385.84 3766
-1419.79 -1465.33 3982
-1410.26 -1465.33 3982
-1400.74 -1465.33 3982
-1384.58 -1458.34 3963
-1375.1 -1458.34 3963
-1365.63 -1458.34 3963
-1356.15 -1458.34 3963
-1346.67 -1458.34 3963
-1330.79 -1451.35 3944
-1311.97 -1441.04 3916
-1284.65 -1421.17 3862
-1275.41 -1421.17 3862
-1260.28 -1414.55 3844
-1242.62 -1404.98 3818
-1241.89 -1414.55 3844
-1241.36 -1424.48 3871
-1232.1 -1424.48 3871
-1231.37 -1434.42 3898
-1222.05 -1434.42 3898
-1212.73 -1434.42 3898
-67.6179 -794.119 2158
-62.5443 -795.223 2161
-57.4564 -796.327 2164
-52.2816 -796.327 2164
-47.2156 -798.167 2169
-42.0289 -798.167 2169
-36.8422 -798.167 2169
-31.6554 -798.167 2169
-26.4443 -797.431 2167
-21.174 -794.119 2158
-15.9765 -792.279 2153
-10.828 -792.279 2153
-5.67162 -791.175 2150
-0.530322 -791.175 2150
4.58739 -787.127 2139
9.70239 -787.127 2139
14.7966 -786.023 2136
19.8299 -783.079 2128
24.8834 -781.975 2125
29.965 -781.975 2125
34.964 -780.135 2120
40.0336 -780.135 2120
45.1031 -780.135 2120
50.1727 -780.135 2120
55.2423 -780.135 2120
60.2265 -779.031 2117
65.2889 -779.031 2117
70.3513 -779.031 2117
75.4137 -779.031 2117
80.476 -779.031 2117
85.4172 -777.927 2114
90.4724 -777.927 2114
95.6632 -779.031 2117
100.726 -779.031 2117
105.788 -779.031 2117
110.85 -779.031 2117
115.913 -779.031 2117
120.975 -779.031 2117
126.038 -779.031 2117
131.286 -780.135 2120
136.484 -780.871 2122
141.558 -780.871 2122
146.633 -780.871 2122
151.707 -780.871 2122
156.781 -780.871 2122
161.856 -780.871 2122
166.93 -780.871 2122
172.247 -781.975 2125
177.83 -784.183 2131
182.926 -784.183 2131
188.463 -786.023 2136
194.114 -788.231 2142
199.98 -791.175 2150
205.122 -791.175 2150
210.556 -792.279 2153
215.705 -792.279 2153
220.853 -792.279 2153
225.687 -791.175 2150
425.843 -1427.79 3880
440.167 -1444.35 3925
449.553 -1444.35 3925
458.939 -1444.35 3925
466.177 -1437.73 3907
475.52 -1437.73 3907
480.395 -1424.48 3871
488.514 -1421.17 3862
496.589 -1417.86 3853
505.803 -1417.86 3853
512.61 -1411.24 3835
519.468 -1404.98 3818
527.352 -1401.67 3809
551.53 -1441.04 3916
562.184 -1444.35 3925
571.57 -1444.35 3925
582.436 -1448.03 3935
591.845 -1448.03 3935
604.005 -1454.66 3953
613.458 -1454.66 3953
627.481 -1465.33 3982
643.082 -1479.31 4020
655.78 -1486.3 4039
665.438 -1486.3 4039
676.768 -1489.98 4049
688.146 -1493.66 4059
697.852 -1493.66 4059
707.559 -1493.66 4059
712.14 -1482.99 4030
714.792 -1468.64 3991
724.336 -1468.64 3991
726.892 -1454.66 3953
734.669 -1451.35 3944
744.1 -1451.35 3944
753.531 -1451.35 3944
757.546 -1441.04 3916
737.534 -1385.84 3766
746.54 -1385.84 3766
755.545 -1385.84 3766
764.551 -1385.84 3766
770.065 -1379.59 3749
775.497 -1373.33 3732
781.059 -1367.44 3716
789.945 -1367.44 3716
796.896 -1364.13 3707
804.022 -1361.19 3699
812.867 -1361.19 3699
821.713 -1361.19 3699
821.352 -1346.1 3658
824.88 -1337.64 3635
1471.8 -1434.42 3898
1481.13 -1434.42 3898
1490.45 -1434.42 3898
1485.92 -1421.17 3862
1481.21 -1407.92 3826
1463.49 -1382.53 3757
1472.47 -1382.53 3757
1481.45 -1382.53 3757
1490.44 -1382.53 3757
1492.64 -1376.28 3740
1501.58 -1376.28 3740
1510.52 -1376.28 3740
1493.06 -1352.36 3675
1491.63 -1343.16 3650
1500.36 -1343.16 3650
1509.09 -1343.16 3650
1514.49 -1340.21 3642
1520.27 -1337.64 3635
1525.6 -1334.69 3627
1534.27 -1334.69 3627
1539.54 -1331.75 3619
1548.2 -1331.75 3619
1549.97 -1325.86 3603
1558.58 -1325.86 3603
1550.67 -1311.88 3565
-2869.21 -1428.37 3907
-2873.04 -1434.95 3925
-2863.66 -1434.95 3925
-2854.27 -1434.95 3925
-2831.84 -1428.37 3907
-2776.98 -1405.34 3844
-2774.27 -1408.63 3853
-2765.06 -1408.63 3853
-2755.84 -1408.63 3853
-2746.63 -1408.63 3853
-2737.42 -1408.63 3853
-2685.01 -1386.33 3792
-2687.94 -1392.54 3809
-2690.79 -1398.76 3826
-2694.25 -1405.34 3844
-2685.06 -1405.34 3844
-2688.4 -1411.92 3862
-2685.41 -1415.21 3871
-2676.15 -1415.21 3871
-2666.89 -1415.21 3871
-2657.64 -1415.21 3871
-2642.22 -1411.92 3862
-2632.99 -1411.92 3862
-2623.75 -1411.92 3862
-2614.52 -1411.92 3862
-2587.07 -1402.05 3835
-2577.9 -1402.05 3835
-2551.31 -1392.54 3809
-2536.2 -1389.25 3800
-2515.8 -1383.04 3783
-2506.76 -1383.04 3783
-2486.49 -1376.82 3766
-1419.79 -1455.79 3982
-1410.26 -1455.79 3982
-1400.74 -1455.79 3982
-1391.22 -1455.79 3982
-1375.1 -1448.84 3963
-1368.73 -1452.13 3972
-1359.23 -1452.13 3972
-1349.73 -1452.13 3972
-1330.79 -1441.9 3944
-1318.34 -1438.61 3935
-1308.93 -1438.61 3935
-1284.33 -1421.79 3889
-1263.23 -1408.63 3853
-1245.22 -1398.76 3826
-1244.8 -1408.63 3853
-1250.02 -1425.08 3898
-1240.69 -1425.08 3898
-1231.37 -1425.08 3898
-1222.05 -1425.08 3898
-1212.73 -1425.08 3898
-67.6179 -788.949 2158
-62.5443 -790.046 2161
-57.4564 -791.143 2164
-52.2816 -791.143 2164
-47.2156 -792.971 2169
-42.0289 -792.971 2169
-36.8422 -792.971 2169
-31.6554 -792.971 2169
-26.4443 -792.24 2167
-21.174 -788.949 2158
-15.9765 -787.121 2153
-10.828 -787.121 2153
-5.67162 -786.025 2150
-0.530322 -786.025 2150
4.58739 -782.003 2139
9.70239 -782.003 2139
14.7966 -780.906 2136
19.8299 -777.982 2128
24.8834 -776.885 2125
29.965 -776.885 2125
34.964 -775.057 2120
40.0336 -775.057 2120
45.1031 -775.057 2120
50.1727 -775.057 2120
55.2423 -775.057 2120
60.2265 -773.96 2117
65.2889 -773.96 2117
70.3513 -773.96 2117
75.4137 -773.96 2117
80.476 -773.96 2117
85.4172 -772.863 2114
90.4724 -772.863 2114
95.6632 -773.96 2117
100.726 -773.96 2117
105.788 -773.96 2117
110.85 -773.96 2117
115.913 -773.96 2117
120.975 -773.96 2117
126.038 -773.96 2117
131.286 -775.057 2120
136.484 -775.788 2122
141.558 -775.788 2122
146.633 -775.788 2122
151.707 -775.788 2122
156.781 -775.788 2122
161.856 -775.788 2122
166.93 -775.788 2122
172.247 -776.885 2125
177.83 -779.078 2131
182.926 -779.078 2131
188.021 -779.078 2131
194.114 -783.1 2142
199.98 -786.025 2150
205.122 -786.025 2150
210.556 -787.121 2153
215.705 -787.121 2153
220.853 -787.121 2153
225.687 -786.025 2150
425.843 -1418.5 3880
440.167 -1434.95 3925
449.553 -1434.95 3925
458.939 -1434.95 3925
466.177 -1428.37 3907
475.52 -1428.37 3907
480.395 -1415.21 3871
488.514 -1411.92 3862
496.589 -1408.63 3853
505.803 -1408.63 3853
512.61 -1402.05 3835
519.468 -1395.83 3818
527.352 -1392.54 3809
551.53 -1431.66 3916
562.184 -1434.95 3925
571.57 -1434.95 3925
582.436 -1438.61 3935
591.845 -1438.61 3935
604.005 -1445.19 3953
613.458 -1445.19 3953
627.481 -1455.79 3982
638.443 -1459.08 3991
651.071 -1466.03 4010
660.661 -1466.03 4010
673.593 -1473.34 4030
683.229 -1473.34 4030
692.866 -1473.34 4030
700.76 -1469.68 4020
700.301 -1448.84 3963
701.36 -1431.66 3916
710.724 -1431.66 3916
711.814 -1415.21 3871
716.041 -1405.34 3844
725.233 -1405.34 3844
734.425 -1405.34 3844
736.847 -1392.54 3809
737.534 -1376.82 3766
739.8 -1364.39 3732
747.119 -1361.47 3724
756.025 -1361.47 3724
763.286 -1358.54 3716
772.173 -1358.54 3716
777.485 -1352.33 3699
786.331 -1352.33 3699
795.176 -1352.33 3699
804.022 -1352.33 3699
812.867 -1352.33 3699
821.713 -1352.33 3699
821.352 -1337.34 3658
824.88 -1328.93 3635
1467.45 -1411.92 3862
1476.68 -1411.92 3862
1485.92 -1411.92 3862
1481.21 -1398.76 3826
1463.49 -1373.53 3757
1476 -1376.82 3766
1485 -1376.82 3766
1494.01 -1376.82 3766
1503.01 -1376.82 3766
1512.02 -1376.82 3766
1510.52 -1367.32 3740
1512.97 -1361.47 3724
1488.36 -1331.49 3642
1494.19 -1328.93 3635
1502.89 -1328.93 3635
1511.58 -1328.93 3635
1520.27 -1328.93 3635
1522.23 -1323.08 3619
1530.89 -1323.08 3619
1539.54 -1323.08 3619
1541.35 -1317.23 3603
1540.07 -1308.82 3580
1548.63 -1308.82 3580
1550.67 -1303.34 3565
1539.51 -1286.89 3520
-2915.24 -1432.45 3944
-2905.81 -1432.45 3944
-2896.38 -1432.45 3944
-2886.95 -1432.45 3944
-2877.52 -1432.45 3944
-2868.09 -1432.45 3944
-2831.84 -1419.01 3907
-2776.98 -1396.13 3844
-2774.27 -1399.4 3853
-2765.06 -1399.4 3853
-2755.84 -1399.4 3853
-2746.63 -1399.4 3853
-2737.42 -1399.4 3853
-2685.01 -1377.24 3792
-2687.94 -1383.42 3809
-2685.16 -1386.69 3818
-2681.64 -1389.59 3826
-2672.49 -1389.59 3826
-2675.87 -1396.13 3844
-2672.92 -1399.4 3853
-2663.71 -1399.4 3853
-2654.49 -1399.4 3853
-2639.1 -1396.13 3844
-2623.75 -1392.86 3835
-2614.58 -1392.86 3835
-2605.41 -1392.86 3835
-2596.24 -1392.86 3835
-2569.53 -1383.42 3809
-2560.42 -1383.42 3809
-2539.93 -1377.24 3792
-2524.85 -1373.98 3783
-2481.89 -1355.45 3732
-2472.96 -1355.45 3732
-2442.25 -1343.47 3699
-1419.79 -1446.25 3982
-1410.26 -1446.25 3982
-1400.74 -1446.25 3982
-1391.22 -1446.25 3982
-1375.1 -1439.35 3963
-1368.73 -1442.62 3972
-1359.23 -1442.62 3972
-1349.73 -1442.62 3972
-1330.79 -1432.45 3944
-1318.34 -1429.18 3935
-1308.93 -1429.18 3935
-1284.33 -1412.47 3889
-1263.23 -1399.4 3853
-1245.22 -1389.59 3826
-1244.8 -1399.4 3853
-1250.02 -1415.74 3898
-1240.69 -1415.74 3898
-1231.37 -1415.74 3898
-1222.05 -1415.74 3898
-1212.73 -1415.74 3898
-62.5443 -784.869 2161
-57.4564 -785.959 2164
-52.2816 -785.959 2164
-47.2156 -787.775 2169
-42.0289 -787.775 2169
-36.8422 -787.775 2169
-31.6554 -787.775 2169
-26.4443 -787.049 2167
-21.174 -783.78 2158
-15.9765 -781.964 2153
-10.828 -781.964 2153
-5.67162 -780.874 2150
-0.530322 -780.874 2150
4.58739 -776.879 2139
9.70239 -776.879 2139
14.7966 -775.789 2136
19.8299 -772.884 2128
24.8834 -771.794 2125
29.965 -771.794 2125
34.964 -769.978 2120
40.0336 -769.978 2120
45.1031 -769.978 2120
50.1727 -769.978 2120
55.2423 -769.978 2120
60.2265 -768.889 2117
65.2889 -768.889 2117
70.3513 -768.889 2117
75.4137 -768.889 2117
80.476 -768.889 2117
85.4172 -767.799 2114
90.6008 -768.889 2117
95.6632 -768.889 2117
100.726 -768.889 2117
105.788 -768.889 2117
110.85 -768.889 2117
116.077 -769.978 2120
121.147 -769.978 2120
126.216 -769.978 2120
131.286 -769.978 2120
136.484 -770.705 2122
141.558 -770.705 2122
146.633 -770.705 2122
151.707 -770.705 2122
156.781 -770.705 2122
161.856 -770.705 2122
167.166 -771.794 2125
172.247 -771.794 2125
177.83 -773.973 2131
182.926 -773.973 2131
188.021 -773.973 2131
193.117 -773.973 2131
199.98 -780.874 2150
205.122 -780.874 2150
210.556 -781.964 2153
215.705 -781.964 2153
220.853 -781.964 2153
440.167 -1425.55 3925
449.553 -1425.55 3925
458.939 -1425.55 3925
466.177 -1419.01 3907
475.52 -1419.01 3907
483.746 -1415.74 3898
489.652 -1405.94 3871
497.749 -1402.67 3862
506.984 -1402.67 3862
512.61 -1392.86 3835
519.468 -1386.69 3818
527.352 -1383.42 3809
551.53 -1422.28 3916
562.184 -1425.55 3925
571.57 -1425.55 3925
582.436 -1429.18 3935
591.845 -1429.18 3935
604.005 -1435.72 3953
613.458 -1435.72 3953
625.905 -1442.62 3972
638.443 -1449.52 3991
647.987 -1449.52 3991
657.53 -1449.52 3991
667.074 -1449.52 3991
676.618 -1449.52 3991
686.161 -1449.52 3991
690.824 -1439.35 3963
691.995 -1422.28 3916
688.465 -1396.13 3844
697.657 -1396.13 3844
706.849 -1396.13 3844
716.041 -1396.13 3844
723.535 -1392.86 3835
732.706 -1392.86 3835
730.076 -1370.71 3774
730.876 -1355.45 3732
734.844 -1346.37 3707
743.709 -1346.37 3707
754.4 -1349.64 3716
763.286 -1349.64 3716
772.173 -1349.64 3716
781.059 -1349.64 3716
789.945 -1349.64 3716
798.831 -1349.64 3716
807.717 -1349.64 3716
814.625 -1346.37 3707
823.49 -1346.37 3707
830.558 -1343.47 3699
837.588 -1340.56 3691
1417.42 -1346.37 3707
1426.28 -1346.37 3707
1435.14 -1346.37 3707
1440.89 -1343.47 3699
1476 -1367.8 3766
1485 -1367.8 3766
1494.01 -1367.8 3766
1503.01 -1367.8 3766
1512.02 -1367.8 3766
1510.52 -1358.36 3740
1512.97 -1352.55 3724
1494.9 -1328.58 3658
1500.36 -1325.67 3650
1509.09 -1325.67 3650
1514.49 -1322.76 3642
1523.2 -1322.76 3642
1525.6 -1317.32 3627
1534.27 -1317.32 3627
1532.74 -1308.6 3603
1537.93 -1305.69 3595
1536.63 -1297.34 3572
1545.17 -1297.34 3572
1547.19 -1291.89 3557
1539.51 -1278.45 3520
-2915.24 -1423 3944
-2905.81 -1423 3944
-2896.38 -1423 3944
-2886.95 -1423 3944
-2877.52 -1423 3944
-2868.09 -1423 3944
-2831.84 -1409.65 3907
-2776.98 -1386.92 3844
-2774.27 -1390.17 3853
-2765.06 -1390.17 3853
-2755.84 -1390.17 3853
-2746.63 -1390.17 3853
-2737.42 -1390.17 3853
-2685.01 -1368.16 3792
-2687.94 -1374.29 3809
-2685.16 -1377.54 3818
-2676.03 -1377.54 3818
-2666.9 -1377.54 3818
-2669.6 -1383.67 3835
-2672.92 -1390.17 3853
-2663.71 -1390.17 3853
-2654.49 -1390.17 3853
-2639.1 -1386.92 3844
-2623.75 -1383.67 3835
-2614.58 -1383.67 3835
-2605.41 -1383.67 3835
-2590.15 -1380.43 3826
-2563.46 -1371.05 3800
-2554.37 -1371.05 3800
-2527.87 -1361.67 3774
-2490.81 -1346.51 3732
-2476.57 -1343.63 3724
-2467.66 -1343.63 3724
-2442.25 -1334.61 3699
-1419.79 -1436.71 3982
-1410.26 -1436.71 3982
-1403.91 -1439.96 3991
-1394.36 -1439.96 3991
-1384.82 -1439.96 3991
-1375.28 -1439.96 3991
-1365.73 -1439.96 3991
-1356.19 -1439.96 3991
-1333.82 -1426.25 3953
-1318.34 -1419.76 3935
-1308.93 -1419.76 3935
-1287.3 -1406.41 3898
-1263.23 -1390.17 3853
-1248.15 -1383.67 3835
-1244.8 -1390.17 3853
-1250.02 -1406.41 3898
-1240.69 -1406.41 3898
-1239.9 -1416.15 3925
-1230.52 -1416.15 3925
-1221.13 -1416.15 3925
-66.7719 -768.869 2131
-62.5443 -779.693 2161
-57.4564 -780.775 2164
-52.2816 -780.775 2164
-47.2156 -782.579 2169
-42.0289 -782.579 2169
-36.8422 -782.579 2169
-31.6554 -782.579 2169
-26.4077 -780.775 2164
-21.174 -778.61 2158
-15.9765 -776.806 2153
-10.828 -776.806 2153
-5.67162 -775.724 2150
-0.529582 -774.641 2147
4.58739 -771.755 2139
9.70239 -771.755 2139
14.7758 -769.59 2133
19.8299 -767.786 2128
24.8483 -765.621 2122
29.9227 -765.621 2122
34.964 -764.9 2120
40.0336 -764.9 2120
45.1031 -764.9 2120
50.1727 -764.9 2120
55.2423 -764.9 2120
60.2265 -763.817 2117
65.2889 -763.817 2117
70.3513 -763.817 2117
75.4137 -763.817 2117
80.476 -763.817 2117
85.4172 -762.735 2114
90.6008 -763.817 2117
95.6632 -763.817 2117
100.726 -763.817 2117
105.788 -763.817 2117
110.85 -763.817 2117
116.077 -764.9 2120
121.147 -764.9 2120
126.216 -764.9 2120
131.41 -765.621 2122
136.484 -765.621 2122
141.558 -765.621 2122
146.633 -765.621 2122
151.707 -765.621 2122
156.781 -765.621 2122
161.856 -765.621 2122
167.166 -766.704 2125
172.491 -767.786 2128
177.83 -768.869 2131
182.926 -768.869 2131
188.021 -768.869 2131
193.117 -768.869 2131
198.399 -769.59 2133
203.5 -769.59 2133
210.263 -775.724 2150
215.404 -775.724 2150
220.546 -775.724 2150
224.532 -771.755 2139
440.167 -1416.15 3925
449.553 -1416.15 3925
458.939 -1416.15 3925
466.177 -1409.65 3907
475.52 -1409.65 3907
484.863 -1409.65 3907
494.206 -1409.65 3907
498.909 -1396.66 3871
508.166 -1396.66 3871
515.016 -1390.17 3853
521.781 -1383.67 3835
530.952 -1383.67 3835
546.46 -1399.91 3880
558.316 -1406.41 3898
567.638 -1406.41 3898
576.959 -1406.41 3898
588.988 -1412.9 3916
601.255 -1419.76 3935
610.665 -1419.76 3935
620.075 -1419.76 3935
630.924 -1423 3944
640.356 -1423 3944
649.787 -1423 3944
659.218 -1423 3944
668.649 -1423 3944
678.081 -1423 3944
682.631 -1412.9 3916
684.044 -1396.66 3871
685.241 -1380.43 3826
694.39 -1380.43 3826
703.539 -1380.43 3826
709.521 -1374.29 3809
718.63 -1374.29 3809
719.523 -1358.78 3766
728.529 -1358.78 3766
729.309 -1343.63 3724
734.844 -1337.49 3707
747.119 -1343.63 3724
756.025 -1343.63 3724
764.93 -1343.63 3724
773.835 -1343.63 3724
781.059 -1340.74 3716
789.945 -1340.74 3716
798.831 -1340.74 3716
807.717 -1340.74 3716
814.625 -1337.49 3707
823.49 -1337.49 3707
830.558 -1334.61 3699
839.403 -1334.61 3699
848.249 -1334.61 3699
857.094 -1334.61 3699
1417.42 -1337.49 3707
1426.28 -1337.49 3707
1435.14 -1337.49 3707
1440.89 -1334.61 3699
1476 -1358.78 3766
1485 -1358.78 3766
1494.01 -1358.78 3766
1503.01 -1358.78 3766
1512.02 -1358.78 3766
1510.52 -1349.4 3740
1512.97 -1343.63 3724
1498.58 -1323.06 3667
1507.35 -1323.06 3667
1516.12 -1323.06 3667
1524.89 -1323.06 3667
1533.65 -1323.06 3667
1535.27 -1316.93 3650
1544 -1316.93 3650
1542.94 -1308.63 3627
1548.2 -1305.74 3619
1543.51 -1294.56 3588
1552.09 -1294.56 3588
1547.19 -1283.37 3557
1539.51 -1270.02 3520
-2921.9 -1416.78 3953
-2912.44 -1416.78 3953
-2902.99 -1416.78 3953
-2886.95 -1413.55 3944
-2877.52 -1413.55 3944
-2868.09 -1413.55 3944
-2838.36 -1403.52 3916
-2776.98 -1377.71 3844
-2767.79 -1377.71 3844
-2758.6 -1377.71 3844
-2749.41 -1377.71 3844
-2733.8 -1374.49 3835
-2724.63 -1374.49 3835
-2685.01 -1359.08 3792
-2675.94 -1359.08 3792
-2678.83 -1365.17 3809
-2669.72 -1365.17 3809
-2660.61 -1365.17 3809
-2657.77 -1368.4 3818
-2660.43 -1374.49 3835
-2651.26 -1374.49 3835
-2642.09 -1374.49 3835
-2632.92 -1374.49 3835
-2623.75 -1374.49 3835
-2614.58 -1374.49 3835
-2605.41 -1374.49 3835
-2578.64 -1365.17 3809
-2545.92 -1352.63 3774
-2536.89 -1352.63 3774
-2499.74 -1337.57 3732
-2490.81 -1337.57 3732
-2471.25 -1331.84 3716
-2462.36 -1331.84 3716
-2409.9 -1308.18 3650
-1420.18 -1437.21 4010
-1410.59 -1437.21 4010
-1401 -1437.21 4010
-1391.41 -1437.21 4010
-1375.28 -1430.4 3991
-1365.73 -1430.4 3991
-1356.19 -1430.4 3991
-1340.23 -1423.59 3972
-1321.35 -1413.55 3944
-1311.92 -1413.55 3944
-1287.3 -1397.07 3898
-1275.03 -1393.84 3889
-1251.08 -1377.71 3844
-1244.8 -1380.94 3853
-1255.79 -1403.52 3916
-1246.42 -1403.52 3916
-1239.9 -1406.74 3925
-1230.52 -1406.74 3925
-1221.13 -1406.74 3925
-76.0607 -754.804 2106
-71.0247 -754.804 2106
-66.7719 -763.764 2131
-62.5443 -774.516 2161
-57.4564 -775.591 2164
-52.2816 -775.591 2164
-47.2156 -777.383 2169
-42.0289 -777.383 2169
-36.8422 -777.383 2169
-31.6554 -777.383 2169
-26.4077 -775.591 2164
-21.174 -773.441 2158
-15.9765 -771.649 2153
-10.828 -771.649 2153
-5.67162 -770.574 2150
-0.529582 -769.498 2147
4.58739 -766.631 2139
9.70239 -766.631 2139
14.7758 -764.481 2133
19.8299 -762.689 2128
24.8483 -760.538 2122
29.9227 -760.538 2122
34.964 -759.821 2120
40.0336 -759.821 2120
45.1031 -759.821 2120
50.1727 -759.821 2120
55.2423 -759.821 2120
60.2265 -758.746 2117
65.2889 -758.746 2117
70.3513 -758.746 2117
75.4137 -758.746 2117
80.476 -758.746 2117
85.4172 -757.671 2114
90.6008 -758.746 2117
95.6632 -758.746 2117
100.726 -758.746 2117
105.788 -758.746 2117
110.85 -758.746 2117
116.077 -759.821 2120
121.147 -759.821 2120
126.216 -759.821 2120
131.41 -760.538 2122
136.484 -760.538 2122
141.558 -760.538 2122
146.633 -760.538 2122
151.707 -760.538 2122
156.781 -760.538 2122
161.856 -760.538 2122
167.166 -761.613 2125
172.491 -762.689 2128
177.83 -763.764 2131
182.926 -763.764 2131
188.021 -763.764 2131
193.299 -764.481 2133
198.399 -764.481 2133
203.5 -764.481 2133
210.263 -770.574 2150
215.404 -770.574 2150
220.546 -770.574 2150
224.532 -766.631 2139
440.167 -1406.74 3925
449.553 -1406.74 3925
458.939 -1406.74 3925
467.251 -1403.52 3916
476.616 -1403.52 3916
485.98 -1403.52 3916
495.344 -1403.52 3916
503.549 -1400.29 3907
512.891 -1400.29 3907
519.828 -1393.84 3889
526.679 -1387.39 3871
534.69 -1384.17 3862
546.46 -1390.62 3880
558.316 -1397.07 3898
567.638 -1397.07 3898
576.959 -1397.07 3898
588.988 -1403.52 3916
601.255 -1410.33 3935
610.665 -1410.33 3935
620.075 -1410.33 3935
630.924 -1413.55 3944
640.356 -1413.55 3944
649.787 -1413.55 3944
659.218 -1413.55 3944
668.649 -1413.55 3944
678.081 -1413.55 3944
682.631 -1403.52 3916
684.044 -1387.39 3871
685.241 -1371.26 3826
694.39 -1371.26 3826
703.539 -1371.26 3826
709.521 -1365.17 3809
718.63 -1365.17 3809
719.523 -1349.76 3766
728.529 -1349.76 3766
729.309 -1334.71 3724
734.844 -1328.61 3707
747.119 -1334.71 3724
756.025 -1334.71 3724
764.93 -1334.71 3724
773.835 -1334.71 3724
781.059 -1331.84 3716
789.945 -1331.84 3716
798.831 -1331.84 3716
807.717 -1331.84 3716
814.625 -1328.61 3707
823.49 -1328.61 3707
830.558 -1325.74 3699
839.403 -1325.74 3699
848.249 -1325.74 3699
857.094 -1325.74 3699
865.94 -1325.74 3699
1411.3 -1322.88 3691
1420.12 -1322.88 3691
1432.05 -1325.74 3699
1440.89 -1325.74 3699
1456.4 -1331.84 3716
1465.29 -1331.84 3716
1483.69 -1340.44 3740
1492.64 -1340.44 3740
1501.58 -1340.44 3740
1504.06 -1334.71 3724
1499.56 -1322.88 3691
1498.58 -1314.28 3667
1507.35 -1314.28 3667
1516.12 -1314.28 3667
1524.89 -1314.28 3667
1533.65 -1314.28 3667
1535.27 -1308.18 3650
1544 -1308.18 3650
1542.94 -1299.94 3627
1548.2 -1297.07 3619
1543.51 -1285.96 3588
1552.09 -1285.96 3588
1531.1 -1261.59 3520
-2921.9 -1407.31 3953
-2912.44 -1407.31 3953
-2902.99 -1407.31 3953
-2886.95 -1404.11 3944
-2877.52 -1404.11 3944
-2868.09 -1404.11 3944
-2838.36 -1394.14 3916
-2776.98 -1368.51 3844
-2767.79 -1368.51 3844
-2758.6 -1368.51 3844
-2742.97 -1365.3 3835
-2733.8 -1365.3 3835
-2724.63 -1365.3 3835
-2685.01 -1349.99 3792
-2669.59 -1346.79 3783
-2666.87 -1349.99 3792
-2657.81 -1349.99 3792
-2648.74 -1349.99 3792
-2651.51 -1356.05 3809
-2648.64 -1359.25 3818
-2651.26 -1365.3 3835
-2642.09 -1365.3 3835
-2632.92 -1365.3 3835
-2623.75 -1365.3 3835
-2614.58 -1365.3 3835
-2605.41 -1365.3 3835
-2572.54 -1352.84 3800
-2545.92 -1343.58 3774
-2536.89 -1343.58 3774
-2511.12 -1334.68 3749
-2490.81 -1328.63 3732
-2471.25 -1322.94 3716
-2462.36 -1322.94 3716
-2453.48 -1322.94 3716
-1420.18 -1427.6 4010
-1410.59 -1427.6 4010
-1401 -1427.6 4010
-1391.41 -1427.6 4010
-1375.28 -1420.84 3991
-1365.73 -1420.84 3991
-1356.19 -1420.84 3991
-1340.23 -1414.07 3972
-1321.35 -1404.11 3944
-1311.92 -1404.11 3944
-1287.3 -1387.73 3898
-1277.98 -1387.73 3898
-1254.01 -1371.71 3853
-1244.8 -1371.71 3853
-1255.79 -1394.14 3916
-1246.42 -1394.14 3916
-1239.9 -1397.34 3925
