ply
format ascii 1.0
comment File generated
element vertex 2256
property float x
property float y
property float z
end_header
4.76968 470.876 2224
10.0879 470.876 2224
15.4893 473.417 2236
20.9481 475.957 2248
26.394 477.228 2254
31.784 477.228 2254
37.2895 478.71 2261
42.8095 479.98 2267
48.2944 480.615 2270
53.7227 480.615 2270
59.3854 482.521 2279
65.0059 483.791 2285
70.47 483.791 2285
75.9342 483.791 2285
81.6477 485.273 2292
87.4706 487.179 2301
93.2155 488.449 2307
98.7322 488.449 2307
104.249 488.449 2307
109.766 488.449 2307
115.282 488.449 2307
120.799 488.449 2307
233.143 829.114 3916
242.507 829.114 3916
251.871 829.114 3916
262.503 833.137 3935
271.913 833.137 3935
281.323 833.137 3935
290.732 833.137 3935
298.693 829.114 3916
308.057 829.114 3916
317.422 829.114 3916
327.537 831.02 3925
336.923 831.02 3925
346.309 831.02 3925
355.695 831.02 3925
366.848 835.043 3944
376.279 835.043 3944
385.71 835.043 3944
395.142 835.043 3944
404.573 835.043 3944
412.01 831.02 3925
418.497 825.303 3898
422.879 815.776 3853
432.093 815.776 3853
441.307 815.776 3853
447.363 810.059 3826
454.484 806.46 3809
463.593 806.46 3809
472.701 806.46 3809
481.81 806.46 3809
492.078 808.365 3818
501.208 808.365 3818
510.338 808.365 3818
521.781 811.965 3835
530.952 811.965 3835
540.122 811.965 3835
548.004 810.059 3826
555.988 808.365 3818
566.302 810.059 3826
576.805 811.965 3835
594.227 823.398 3889
603.526 823.398 3889
614.244 825.303 3898
623.566 825.303 3898
632.887 825.303 3898
642.208 825.303 3898
651.529 825.303 3898
663.902 829.114 3916
673.267 829.114 3916
682.631 829.114 3916
691.995 829.114 3916
699.748 827.209 3907
709.091 827.209 3907
718.434 827.209 3907
729.453 829.114 3916
740.515 831.02 3925
749.901 831.02 3925
759.287 831.02 3925
765.148 827.209 3907
774.49 827.209 3907
783.833 827.209 3907
791.349 825.303 3898
795.124 819.587 3871
798.771 813.87 3844
800.606 806.46 3809
809.715 806.46 3809
818.823 806.46 3809
829.888 808.365 3818
844.731 813.87 3844
853.924 813.87 3844
863.116 813.87 3844
876.393 817.681 3862
885.628 817.681 3862
894.863 817.681 3862
899.884 813.87 3844
906.948 811.965 3835
907.758 804.554 3800
916.845 804.554 3800
905.464 786.769 3716
908.198 781.476 3691
911.062 776.395 3667
917.573 774.489 3658
926.321 774.489 3658
933.023 772.796 3650
939.687 771.102 3642
948.396 771.102 3642
957.106 771.102 3642
963.958 769.62 3635
970.51 767.926 3627
977.024 766.232 3619
985.678 766.232 3619
989.936 762.844 3603
996.334 761.151 3595
998.502 756.281 3572
1007.04 756.281 3572
1011.32 753.105 3557
1019.83 753.105 3557
1028.33 753.105 3557
1036.84 753.105 3557
1042.99 751.411 3549
1049.41 749.929 3542
1055.49 748.235 3534
1063.94 748.235 3534
1072.39 748.235 3534
1080.84 748.235 3534
1084.97 745.271 3520
1088.73 742.095 3505
1097.11 742.095 3505
1102.97 740.402 3497
1111.33 740.402 3497
1119.7 740.402 3497
1128.06 740.402 3497
1134.15 738.92 3490
1142.49 738.92 3490
1150.84 738.92 3490
1159.18 738.92 3490
1169.87 740.402 3497
1178.23 740.402 3497
1186.6 740.402 3497
1194.96 740.402 3497
1203.32 740.402 3497
1211.68 740.402 3497
1222.84 742.095 3505
1231.22 742.095 3505
1242.08 743.578 3512
1250.47 743.578 3512
1264.25 746.753 3527
1283.51 753.105 3557
1300.37 757.975 3580
1308.93 757.975 3580
1325.95 762.844 3603
1337.53 764.538 3611
1355.12 769.62 3635
1363.81 769.62 3635
1384.58 776.395 3667
1396.39 778.089 3675
1405.18 778.089 3675
1413.97 778.089 3675
1422.76 778.089 3675
1418.69 771.102 3642
1427.4 771.102 3642
1427.04 766.232 3619
1429.34 762.844 3603
1428.78 757.975 3580
1428.11 753.105 3557
1436.61 753.105 3557
1430.09 745.271 3520
1423.38 737.438 3483
1422.67 732.78 3461
1430.95 732.78 3461
1418.85 722.405 3412
1406.51 712.031 3363
1406.14 707.796 3343
1414.14 707.796 3343
1402.56 698.057 3297
1399.32 692.552 3271
1401.55 689.799 3258
1406.75 688.529 3252
1414.52 688.529 3252
1416.61 685.777 3239
1421.72 684.506 3233
1429.45 684.506 3233
1437.18 684.506 3233
1442.23 683.236 3227
1449.95 683.236 3227
1457.67 683.236 3227
1465.38 683.236 3227
1473.1 683.236 3227
1480.82 683.236 3227
1488.53 683.236 3227
1496.25 683.236 3227
1503.97 683.236 3227
1511.68 683.236 3227
1519.4 683.236 3227
1527.12 683.236 3227
1534.83 683.236 3227
1536.34 680.484 3214
1538.26 677.943 3202
1540.12 675.402 3190
1547.75 675.402 3190
1546.6 671.591 3172
1548.31 669.05 3160
1549.95 666.51 3148
1557.48 666.51 3148
1553.08 661.428 3124
1549.06 656.559 3101
1536.4 648.09 3061
1535.14 644.49 3044
1542.42 644.49 3044
1532.9 637.503 3011
1504.81 622.894 2942
1504.14 619.719 2927
1511.14 619.719 2927
1499.46 612.096 2891
1495.96 607.862 2871
1498.11 605.956 2862
1499.7 603.839 2852
1506.52 603.839 2852
1505.38 600.663 2837
1509.5 599.605 2832
1514.13 598.758 2828
1520.89 598.758 2828
1522.25 596.641 2818
1521.39 593.676 2804
1525.37 592.618 2799
1532.07 592.618 2799
1536.01 591.559 2794
1537.72 589.654 2785
1541.61 588.595 2780
1548.26 588.595 2780
1552.67 587.748 2776
1551.44 584.784 2762
1555.23 583.725 2757
1559.55 582.878 2753
1568.41 583.725 2757
1575 583.725 2757
1587.33 585.843 2767
1593.95 585.843 2767
1605.77 587.748 2776
1612.41 587.748 2776
1619.05 587.748 2776
2026.86 726.851 3433
2039.22 728.333 3440
2073.04 737.438 3483
2081.37 737.438 3483
2129.29 751.411 3549
2137.78 751.411 3549
2151.11 753.105 3557
2159.61 753.105 3557
2168.12 753.105 3557
2176.62 753.105 3557
2185.13 753.105 3557
2193.64 753.105 3557
2187.9 748.235 3534
2182.68 743.578 3512
2191.08 743.578 3512
2195.09 742.095 3505
2189.64 737.438 3483
2188.51 734.262 3468
2183.5 729.815 3447
2191.74 729.815 3447
2191.05 726.851 3433
2185.8 722.405 3412
2193.96 722.405 3412
2202.12 722.405 3412
2178.54 712.031 3363
2143.67 698.057 3297
2118.27 687.259 3246
2113.59 683.236 3227
2121.31 683.236 3227
2120.45 680.484 3214
2112.24 675.402 3190
2115.88 674.132 3184
2123.5 674.132 3184
2131.11 674.132 3184
2138.72 674.132 3184
2146.34 674.132 3184
2153.95 674.132 3184
2157.49 672.861 3178
2165.09 672.861 3178
2176.79 674.132 3184
2184.41 674.132 3184
2192.02 674.132 3184
2195.49 672.861 3178
2169.81 662.699 3130
2198.17 669.05 3160
2205.72 669.05 3160
2213.28 669.05 3160
2237.7 674.132 3184
2245.32 674.132 3184
2252.93 674.132 3184
2230.73 665.239 3142
2238.24 665.239 3142
2245.75 665.239 3142
2253.27 665.239 3142
2210.41 650.419 3072
2193.94 643.432 3039
2165.71 633.057 2990
2172.86 633.057 2990
2187.3 635.174 3000
2194.48 635.174 3000
2201.65 635.174 3000
2208.82 635.174 3000
2216 635.174 3000
2223.17 635.174 3000
2234.81 636.445 3006
2241.99 636.445 3006
2320.26 656.559 3101
2327.68 656.559 3101
2361.45 663.969 3136
2396.15 671.591 3172
2412.82 674.132 3184
2429.56 676.672 3196
2469.99 685.777 3239
2477.74 685.777 3239
-2726.85 779.826 3642
-2718.15 779.826 3642
-2721.34 783.252 3658
-2725.2 786.892 3675
-2728.24 790.318 3691
-2719.41 790.318 3691
-2710.58 790.318 3691
-2701.76 790.318 3691
-2711.17 795.671 3716
-2702.29 795.671 3716
-2693.4 795.671 3716
-2684.51 795.671 3716
-2675.63 795.671 3716
-2660.28 793.744 3707
-2634.25 788.605 3683
-2562.71 769.763 3595
-2554.12 769.763 3595
-2529.23 764.838 3572
-2510.11 761.626 3557
-2491.05 758.414 3542
-2482.58 758.414 3542
-2458.75 753.703 3520
-2434.32 748.779 3497
-2411.39 744.282 3476
-2403.07 744.282 3476
-2394.76 744.282 3476
-2396.06 747.28 3490
-2402.77 751.991 3512
-2399.82 753.703 3520
-2391.41 753.703 3520
-2382.99 753.703 3520
-2369.17 751.991 3512
-2360.78 751.991 3512
-2347.69 750.492 3505
-2343.98 751.991 3512
-2340.9 753.703 3520
-2341.76 756.701 3534
-2333.31 756.701 3534
-2339.99 761.626 3557
-2331.48 761.626 3557
-2322.98 761.626 3557
-2314.47 761.626 3557
-2305.97 761.626 3557
-2297.46 761.626 3557
-2288.96 761.626 3557
-2280.45 761.626 3557
-2266.83 759.913 3549
-2258.35 759.913 3549
-2245.42 758.414 3542
-2236.95 758.414 3542
-2219.05 755.202 3527
-2206.22 753.703 3520
-2197.81 753.703 3520
-2193.74 755.202 3527
-2185.31 755.202 3527
-2176.87 755.202 3527
-2168.44 755.202 3527
-2160.01 755.202 3527
-2151.57 755.202 3527
-2134.02 751.991 3512
-2108.07 745.781 3483
-2099.74 745.781 3483
-2087.21 744.282 3476
-2078.9 744.282 3476
-2070.59 744.282 3476
-2062.28 744.282 3476
-2053.96 744.282 3476
-2032.7 739.572 3454
-2016.24 736.574 3440
-2008.01 736.574 3440
-1983.51 730.578 3412
-1959.14 724.583 3384
-1947.01 723.084 3377
-1938.94 723.084 3377
-1922.86 720.087 3363
-1911.4 718.802 3357
-1903.37 718.802 3357
-1895.34 718.802 3357
-1887.32 718.802 3357
-1879.29 718.802 3357
-1874.6 720.087 3363
-1866.56 720.087 3363
-1858.52 720.087 3363
-1854.33 721.585 3370
-1846.27 721.585 3370
-1853.49 727.581 3398
-1845.36 727.581 3398
-1844.8 730.578 3412
-1840.41 732.077 3419
-1843.49 736.574 3440
-1835.26 736.574 3440
-1834.47 739.572 3454
-1833.62 742.569 3468
-1833.22 745.781 3483
-1824.89 745.781 3483
-1820.21 747.28 3490
-1815.5 748.779 3497
-1811.27 750.492 3505
-1802.89 750.492 3505
-1798.09 751.991 3512
-1793.77 753.703 3520
-1785.35 753.703 3520
-1776.94 753.703 3520
-1772.04 755.202 3527
-1763.6 755.202 3527
-1758.65 756.701 3534
-1750.2 756.701 3534
-1741.75 756.701 3534
-1733.3 756.701 3534
-1724.85 756.701 3534
-1720.28 758.414 3542
-1711.81 758.414 3542
-1710.56 761.626 3557
-1709.23 764.838 3572
-1711.64 769.763 3595
-1703.04 769.763 3595
-1698.21 771.475 3603
-1704.6 778.327 3635
-1706.64 783.252 3658
-1697.9 783.252 3658
-1723.32 799.097 3732
-1741.96 811.944 3792
-1732.89 811.944 3792
-1751.55 825.006 3853
-1742.34 825.006 3853
-1737.17 826.933 3862
-1727.94 826.933 3862
-1718.7 826.933 3862
-1721.42 832.714 3889
-1712.12 832.714 3889
-1702.82 832.714 3889
-1693.52 832.714 3889
-1649.57 815.584 3809
-1625.39 808.09 3774
-1616.37 808.09 3774
-1586.05 797.384 3724
-1559.78 788.605 3683
-1537.07 781.539 3650
-1528.35 781.539 3650
-1503.38 773.188 3611
-1485.22 768.264 3588
-1467.18 763.339 3565
-1458.65 763.339 3565
-1434.67 755.202 3527
-1423.41 753.703 3520
-1411.77 751.991 3512
-1406.57 753.703 3520
-1398.15 753.703 3520
-1389.74 753.703 3520
-1381.32 753.703 3520
-1372.9 753.703 3520
-1355.57 748.779 3497
-1356.07 753.703 3520
-1356.07 758.414 3542
-1356.35 763.339 3565
-1347.83 763.339 3565
-1341.93 764.838 3572
-1341.98 769.763 3595
-1336.35 771.475 3603
-1327.73 771.475 3603
-1322.05 773.188 3611
-1316.32 774.901 3619
-1310.56 776.614 3627
-1301.88 776.614 3627
-1296.06 778.327 3635
-1287.37 778.327 3635
-1278.68 778.327 3635
-1269.99 778.327 3635
-1261.29 778.327 3635
-1252.6 778.327 3635
-1241.17 776.614 3627
-1232.5 776.614 3627
-1223.82 776.614 3627
-1212.47 774.901 3619
-1203.82 774.901 3619
-1195.16 774.901 3619
-1186.51 774.901 3619
-1180.46 776.614 3627
-1174.37 778.327 3635
-1167.92 779.826 3642
-1159.21 779.826 3642
-1153.03 781.539 3650
-1149.63 785.179 3667
-1143.35 786.892 3675
-1134.56 786.892 3675
-1125.78 786.892 3675
-1114.56 785.179 3667
-1108.2 786.892 3675
-1099.41 786.892 3675
-1095.37 790.318 3691
-1093.9 795.671 3716
-1092.03 800.81 3740
-1083.08 800.81 3740
-1076.72 802.737 3749
-1074.88 808.09 3774
-1065.85 808.09 3774
-1056.83 808.09 3774
-1047.81 808.09 3774
-1038.78 808.09 3774
-1032.21 810.017 3783
-1023.16 810.017 3783
-1016.53 811.944 3792
-1007.46 811.944 3792
-1000.5 813.657 3800
-991.415 813.657 3800
-982.328 813.657 3800
-973.241 813.657 3800
-968.721 817.511 3818
-959.591 817.511 3818
-950.461 817.511 3818
-941.331 817.511 3818
-932.201 817.511 3818
-923.071 817.511 3818
-907.717 811.944 3792
-896.517 810.017 3783
-887.47 810.017 3783
-882.372 813.657 3800
-873.285 813.657 3800
-866.245 815.584 3809
-859.161 817.511 3818
-850.031 817.511 3818
-840.901 817.511 3818
-829.811 815.584 3809
-818.763 813.657 3800
-809.676 813.657 3800
-798.904 811.944 3792
-789.836 811.944 3792
-782.415 813.657 3800
-775.16 815.584 3809
-766.051 815.584 3809
-756.943 815.584 3809
-746.067 813.657 3800
-736.98 813.657 3800
-726.361 811.944 3792
-715.591 810.017 3783
-701.689 804.45 3757
-692.704 804.45 3757
-682.264 802.737 3749
-668.81 797.384 3724
-649.804 785.179 3667
-641.035 785.179 3667
-626.748 778.327 3635
-616.696 776.614 3627
-608.023 776.614 3627
-599.349 776.614 3627
-589.373 774.901 3619
-580.719 774.901 3619
-572.065 774.901 3619
-560.92 771.475 3603
-552.304 771.475 3603
-543.688 771.475 3603
-535.072 771.475 3603
-524.265 768.264 3588
-515.685 768.264 3588
-504.843 764.838 3572
-496.302 764.838 3572
-486.804 763.339 3565
-478.279 763.339 3565
-469.754 763.339 3565
-462.135 764.838 3572
-454.609 766.551 3580
-446.048 766.551 3580
-437.487 766.551 3580
-428.926 766.551 3580
-420.365 766.551 3580
-411.805 766.551 3580
-403.244 766.551 3580
-394.683 766.551 3580
-386.122 766.551 3580
-377.561 766.551 3580
-369 766.551 3580
-358.929 763.339 3565
-349.618 761.626 3557
-341.112 761.626 3557
-331.858 759.913 3549
-323.371 759.913 3549
-314.885 759.913 3549
-306.398 759.913 3549
-297.911 759.913 3549
-288.201 756.701 3534
-279.75 756.701 3534
-270.762 755.202 3527
-263.964 759.913 3549
-255.477 759.913 3549
-247.547 761.626 3557
-239.042 761.626 3557
-230.536 761.626 3557
-222.03 761.626 3557
-131.764 469.994 2195
-126.515 469.994 2195
-121.266 469.994 2195
-116.017 469.994 2195
-110.314 468.067 2186
-104.991 467.639 2184
-99.7682 467.639 2184
-94.5456 467.639 2184
-89.4048 468.067 2186
-84.1774 468.067 2186
-78.95 468.067 2186
-73.7226 468.067 2186
-68.4953 468.067 2186
-63.2679 468.067 2186
-58.0405 468.067 2186
-52.8131 468.067 2186
-47.5857 468.067 2186
-42.3583 468.067 2186
-37.1309 468.067 2186
-31.8743 467.639 2184
-26.6517 467.639 2184
-21.4782 468.709 2189
-16.2659 469.352 2192
-11.0242 469.352 2192
-5.81407 471.921 2204
-0.544382 472.564 2207
4.77612 476.846 2227
10.1015 476.846 2227
15.5101 479.415 2239
20.9761 481.985 2251
26.4291 483.27 2257
31.8263 483.27 2257
37.2895 484.126 2261
42.8661 486.053 2270
48.3582 486.695 2273
53.7937 486.695 2273
59.4636 488.623 2282
65.0059 489.265 2285
70.6859 490.764 2292
76.1668 490.764 2292
81.7545 491.406 2295
87.6987 493.976 2307
93.2155 493.976 2307
98.9034 494.832 2311
104.43 494.832 2311
109.956 494.832 2311
115.282 493.976 2307
120.799 493.976 2307
230.999 830.787 3880
242.507 838.495 3916
251.871 838.495 3916
262.503 842.563 3935
271.913 842.563 3935
281.323 842.563 3935
289.994 840.422 3925
298.693 838.495 3916
308.057 838.495 3916
317.422 838.495 3916
327.537 840.422 3925
336.923 840.422 3925
346.309 840.422 3925
355.695 840.422 3925
365.081 840.422 3925
373.608 838.495 3916
382.972 838.495 3916
393.238 840.422 3925
402.624 840.422 3925
412.01 840.422 3925
413.666 825.006 3853
419.916 819.224 3826
429.065 819.224 3826
438.214 819.224 3826
445.376 815.584 3809
454.484 815.584 3809
463.593 815.584 3809
471.584 813.657 3800
480.671 813.657 3800
489.758 813.657 3800
498.845 813.657 3800
507.932 813.657 3800
519.468 817.511 3818
528.598 817.511 3818
537.728 817.511 3818
546.858 817.511 3818
555.988 817.511 3818
565.118 817.511 3818
575.451 819.224 3826
594.227 832.714 3889
603.526 832.714 3889
614.244 834.641 3898
623.566 834.641 3898
632.887 834.641 3898
640.725 832.714 3889
650.025 832.714 3889
660.851 834.641 3898
670.172 834.641 3898
679.493 834.641 3898
688.815 834.641 3898
694.912 830.787 3880
704.19 830.787 3880
711.814 828.86 3871
731.129 840.422 3925
740.515 840.422 3925
749.901 840.422 3925
759.287 840.422 3925
765.148 836.568 3907
770.922 832.714 3889
780.222 832.714 3889
787.695 830.787 3880
789.578 823.078 3844
798.771 823.078 3844
798.714 813.657 3800
809.715 815.584 3809
818.823 815.584 3809
833.583 821.151 3835
846.709 825.006 3853
855.923 825.006 3853
865.137 825.006 3853
878.435 828.86 3871
887.692 828.86 3871
896.948 828.86 3871
901.991 825.006 3853
909.077 823.078 3844
909.908 815.584 3809
919.016 815.584 3809
905.464 795.671 3716
908.198 790.318 3691
911.062 785.179 3667
917.573 783.252 3658
926.321 783.252 3658
933.023 781.539 3650
939.687 779.826 3642
948.396 779.826 3642
957.106 779.826 3642
961.837 776.614 3627
968.369 774.901 3619
972.704 771.475 3603
981.32 771.475 3603
989.936 771.475 3603
996.334 769.763 3595
998.502 764.838 3572
1007.04 764.838 3572
1011.32 761.626 3557
1017.53 759.913 3549
1024 758.414 3542
1032.47 758.414 3542
1040.94 758.414 3542
1047.04 756.701 3534
1055.49 756.701 3534
1063.94 756.701 3534
1072.39 756.701 3534
1080.84 756.701 3534
1087.13 755.202 3527
1090.91 751.991 3512
1099.31 751.991 3512
1105.5 750.492 3505
1113.88 750.492 3505
1122.26 750.492 3505
1130.64 750.492 3505
1136.42 748.779 3497
1142.49 747.28 3490
1150.84 747.28 3490
1161.51 748.779 3497
1169.87 748.779 3497
1178.23 748.779 3497
1189.31 750.492 3505
1197.69 750.492 3505
1206.07 750.492 3505
1211.68 748.779 3497
1222.84 750.492 3505
1231.22 750.492 3505
1242.08 751.991 3512
1250.47 751.991 3512
1264.25 755.202 3527
1283.51 761.626 3557
1300.37 766.551 3580
1308.93 766.551 3580
1325.95 771.475 3603
1337.53 773.188 3611
1355.12 778.327 3635
1363.81 778.327 3635
1384.58 785.179 3667
1396.39 786.892 3675
1405.18 786.892 3675
1413.97 786.892 3675
1422.76 786.892 3675
1418.69 779.826 3642
1427.4 779.826 3642
1427.04 774.901 3619
1429.34 771.475 3603
1428.78 766.551 3580
1428.11 761.626 3557
1436.61 761.626 3557
1430.09 753.703 3520
1423.38 745.781 3483
1422.67 741.07 3461
1430.95 741.07 3461
1418.85 730.578 3412
1406.51 720.087 3363
1406.14 715.804 3343
1414.14 715.804 3343
1402.56 705.955 3297
1399.32 700.388 3271
1401.55 697.604 3258
1406.75 696.319 3252
1414.52 696.319 3252
1416.61 693.536 3239
1421.72 692.251 3233
1429.45 692.251 3233
1437.18 692.251 3233
1444.92 692.251 3233
1452.65 692.251 3233
1457.67 690.966 3227
1465.38 690.966 3227
1473.1 690.966 3227
1480.82 690.966 3227
1488.53 690.966 3227
1496.25 690.966 3227
1503.97 690.966 3227
1511.68 690.966 3227
1519.4 690.966 3227
1527.12 690.966 3227
1534.83 690.966 3227
1539.68 689.682 3221
1541.14 686.898 3208
1543.02 684.329 3196
1550.66 684.329 3196
1549.53 680.474 3178
1554.19 679.19 3172
1552.91 675.335 3154
1560.45 675.335 3154
1562.03 672.766 3142
1554.56 666.342 3112
1544.93 659.062 3078
1543.72 655.422 3061
1551.04 655.422 3061
1544.1 649.427 3033
1512.99 633.368 2958
1511.85 629.942 2942
1518.88 629.942 2942
1504.65 621.163 2901
1498.56 615.81 2876
1498.11 612.812 2862
1499.7 610.671 2852
1506.52 610.671 2852
1505.38 607.459 2837
1509.5 606.389 2832
1514.13 605.532 2828
1520.89 605.532 2828
1522.25 603.391 2818
1521.39 600.393 2804
1525.37 599.323 2799
1532.07 599.323 2799
1536.01 598.252 2794
1534.96 595.254 2780
1541.61 595.254 2780
1548.26 595.254 2780
1552.67 594.398 2776
1548.63 590.33 2757
1555.23 590.33 2757
1561.82 590.33 2757
1568.41 590.33 2757
1575 590.33 2757
1587.33 592.471 2767
1593.95 592.471 2767
1600.57 592.471 2767
1601.38 590.33 2757
2026.86 735.075 3433
2039.22 736.574 3440
2073.04 745.781 3483
2081.37 745.781 3483
2129.29 759.913 3549
2137.78 759.913 3549
2151.11 761.626 3557
2159.61 761.626 3557
2168.12 761.626 3557
2176.62 761.626 3557
2185.13 761.626 3557
2193.64 761.626 3557
2187.9 756.701 3534
2182.68 751.991 3512
2191.08 751.991 3512
2195.09 750.492 3505
2189.64 745.781 3483
2188.51 742.569 3468
2183.5 738.073 3447
2191.74 738.073 3447
2191.05 735.075 3433
2190.29 732.077 3419
2198.46 732.077 3419
2206.64 732.077 3419
2187.61 723.084 3377
2147.57 707.239 3303
2134.59 700.388 3271
2117.52 692.251 3233
2125.25 692.251 3233
2129.02 690.966 3227
2132.77 689.682 3221
2131.83 686.898 3208
2143.5 688.183 3214
2151.19 688.183 3214
2158.87 688.183 3214
2166.56 688.183 3214
2174.25 688.183 3214
2177.86 686.898 3208
2185.53 686.898 3208
2197.3 688.183 3214
2204.99 688.183 3214
2212.67 688.183 3214
2212.07 685.613 3202
2211.41 683.044 3190
2198.17 676.62 3160
2205.72 676.62 3160
2213.28 676.62 3160
2237.7 681.759 3184
2245.32 681.759 3184
2252.93 681.759 3184
2230.73 672.766 3142
2238.24 672.766 3142
2245.75 672.766 3142
2253.27 672.766 3142
2210.41 657.778 3072
2193.94 650.712 3039
2165.71 640.22 2990
2172.86 640.22 2990
2187.3 642.361 3000
2194.48 642.361 3000
2201.65 642.361 3000
2208.82 642.361 3000
2216 642.361 3000
2223.17 642.361 3000
2234.81 643.646 3006
2241.99 643.646 3006
2320.26 663.987 3101
2327.68 663.987 3101
2361.45 671.481 3136
2396.15 679.19 3172
2412.82 681.759 3184
2429.56 684.329 3196
2469.99 693.536 3239
2477.74 693.536 3239
-2726.85 788.551 3642
-2718.15 788.551 3642
-2721.34 792.015 3658
-2725.2 795.696 3675
-2728.24 799.16 3691
-2719.41 799.16 3691
-2710.58 799.16 3691
-2701.76 799.16 3691
-2711.17 804.573 3716
-2702.29 804.573 3716
-2693.4 804.573 3716
-2684.51 804.573 3716
-2675.63 804.573 3716
-2660.28 802.624 3707
-2634.25 797.428 3683
-2562.71 778.374 3595
-2554.12 778.374 3595
-2529.23 773.395 3572
-2510.11 770.147 3557
-2491.05 766.899 3542
-2482.58 766.899 3542
-2458.75 762.136 3520
-2434.32 757.156 3497
-2411.39 752.609 3476
-2403.07 752.609 3476
-2394.76 752.609 3476
-2396.06 755.64 3490
-2402.77 760.404 3512
-2399.82 762.136 3520
-2391.41 762.136 3520
-2382.99 762.136 3520
-2369.17 760.404 3512
-2360.78 760.404 3512
-2347.69 758.888 3505
-2343.98 760.404 3512
-2340.9 762.136 3520
-2341.76 765.167 3534
-2333.31 765.167 3534
-2334.73 768.415 3549
-2331.48 770.147 3557
-2322.98 770.147 3557
-2314.47 770.147 3557
-2305.97 770.147 3557
-2297.46 770.147 3557
-2283.81 768.415 3549
-2275.32 768.415 3549
-2266.83 768.415 3549
-2258.35 768.415 3549
-2245.42 766.899 3542
-2236.95 766.899 3542
-2219.05 763.651 3527
-2206.22 762.136 3520
-2197.81 762.136 3520
-2193.74 763.651 3527
-2185.31 763.651 3527
-2176.87 763.651 3527
-2168.44 763.651 3527
-2160.01 763.651 3527
-2151.57 763.651 3527
-2134.02 760.404 3512
-2108.07 754.125 3483
-2099.74 754.125 3483
-2087.21 752.609 3476
-2078.9 752.609 3476
-2070.59 752.609 3476
-2062.28 752.609 3476
-2053.96 752.609 3476
-2032.7 747.846 3454
-2016.24 744.814 3440
-2008.01 744.814 3440
-1983.51 738.752 3412
-1959.14 732.69 3384
-1947.01 731.174 3377
-1938.94 731.174 3377
-1922.86 728.143 3363
-1911.4 726.844 3357
-1903.37 726.844 3357
-1895.34 726.844 3357
-1887.32 726.844 3357
-1879.29 726.844 3357
-1867.36 725.328 3350
-1863.23 726.844 3357
-1855.2 726.844 3357
-1854.33 729.658 3370
-1846.27 729.658 3370
-1845.85 732.69 3384
-1837.76 732.69 3384
-1829.67 732.69 3384
-1832.88 737.236 3405
-1832.24 740.268 3419
-1824.06 740.268 3419
-1827.04 744.814 3440
-1826.21 747.846 3454
-1825.32 750.877 3468
-1817.03 750.877 3468
-1812.91 752.609 3476
-1808.23 754.125 3483
-1803.52 755.64 3490
-1795.18 755.64 3490
-1790.41 757.156 3497
-1789.69 760.404 3512
-1785.35 762.136 3520
-1776.94 762.136 3520
-1768.52 762.136 3520
-1760.1 762.136 3520
-1755.17 763.651 3527
-1746.73 763.651 3527
-1738.3 763.651 3527
-1729.87 763.651 3527
-1724.85 765.167 3534
-1720.28 766.899 3542
-1711.81 766.899 3542
-1710.56 770.147 3557
-1709.23 773.395 3572
-1711.64 778.374 3595
-1703.04 778.374 3595
-1698.21 780.107 3603
-1704.6 787.035 3635
-1706.64 792.015 3658
-1697.9 792.015 3658
-1723.32 808.037 3732
-1741.96 821.028 3792
-1732.89 821.028 3792
-1743.37 830.338 3835
-1738.27 832.287 3844
-1729.08 832.287 3844
-1719.88 832.287 3844
-1710.69 832.287 3844
-1713.45 838.133 3871
-1704.19 838.133 3871
-1694.94 838.133 3871
-1685.68 838.133 3871
-1645.68 822.76 3800
-1625.39 817.131 3774
-1616.37 817.131 3774
-1578.81 802.624 3707
-1549.19 792.015 3658
-1533.7 788.551 3642
-1525 788.551 3642
-1500.05 780.107 3603
-1478.6 773.395 3572
-1463.89 770.147 3557
-1455.38 770.147 3557
-1434.67 763.651 3527
-1423.41 762.136 3520
-1411.77 760.404 3512
-1406.57 762.136 3520
-1398.15 762.136 3520
-1389.74 762.136 3520
-1381.32 762.136 3520
-1372.9 762.136 3520
-1355.57 757.156 3497
-1356.07 762.136 3520
-1356.07 766.899 3542
-1356.35 771.879 3565
-1347.83 771.879 3565
-1341.93 773.395 3572
-1341.98 778.374 3595
-1336.35 780.107 3603
-1327.73 780.107 3603
-1322.05 781.839 3611
-1316.32 783.571 3619
-1310.56 785.303 3627
-1301.88 785.303 3627
-1296.06 787.035 3635
-1287.37 787.035 3635
-1278.68 787.035 3635
-1269.99 787.035 3635
-1261.29 787.035 3635
-1252.6 787.035 3635
-1241.17 785.303 3627
-1232.5 785.303 3627
-1221.12 783.571 3619
-1212.47 783.571 3619
-1203.82 783.571 3619
-1195.16 783.571 3619
-1186.51 783.571 3619
-1177.85 783.571 3619
-1171.78 785.303 3627
-1165.68 787.035 3635
-1156.98 787.035 3635
-1150.5 788.551 3642
-1146.81 792.015 3658
-1140.86 793.964 3667
-1132.09 793.964 3667
-1123.32 793.964 3667
-1114.56 793.964 3667
-1108.2 795.696 3675
-1099.41 795.696 3675
-1093 797.428 3683
-1091.26 802.624 3707
-1089.69 808.037 3732
-1080.77 808.037 3732
-1076.72 811.718 3749
-1072.6 815.399 3766
-1063.6 815.399 3766
-1054.59 815.399 3766
-1045.58 815.399 3766
-1036.58 815.399 3766
-1032.21 819.079 3783
-1023.16 819.079 3783
-1014.12 819.079 3783
-1005.07 819.079 3783
-998.396 821.028 3792
-989.328 821.028 3792
-980.26 821.028 3792
-971.192 821.028 3792
-964.154 822.76 3800
-955.067 822.76 3800
-945.98 822.76 3800
-936.893 822.76 3800
-927.806 822.76 3800
-918.719 822.76 3800
-907.717 821.028 3792
-896.517 819.079 3783
-887.47 819.079 3783
-882.372 822.76 3800
-873.285 822.76 3800
-866.245 824.709 3809
-859.161 826.657 3818
-850.031 826.657 3818
-840.901 826.657 3818
-829.811 824.709 3809
-818.763 822.76 3800
-809.676 822.76 3800
-798.904 821.028 3792
-789.836 821.028 3792
-782.415 822.76 3800
-775.16 824.709 3809
-766.051 824.709 3809
-756.943 824.709 3809
-746.067 822.76 3800
-736.98 822.76 3800
-726.361 821.028 3792
-717.293 821.028 3792
-703.369 815.399 3766
-694.364 815.399 3766
-683.72 813.45 3757
-670.246 808.037 3732
-652.639 797.428 3683
-643.832 797.428 3683
-626.748 787.035 3635
-616.696 785.303 3627
-608.023 785.303 3627
-599.349 785.303 3627
-590.676 785.303 3627
-580.719 783.571 3619
-572.065 783.571 3619
-560.92 780.107 3603
-552.304 780.107 3603
-543.688 780.107 3603
-535.072 780.107 3603
-524.265 776.859 3588
-515.685 776.859 3588
-504.843 773.395 3572
-496.302 773.395 3572
-486.804 771.879 3565
-478.279 771.879 3565
-469.754 771.879 3565
-462.135 773.395 3572
-454.609 775.127 3580
-446.048 775.127 3580
-437.487 775.127 3580
-428.926 775.127 3580
-420.365 775.127 3580
-411.805 775.127 3580
-403.244 775.127 3580
-394.683 775.127 3580
-386.122 775.127 3580
-377.561 775.127 3580
-369 775.127 3580
-358.929 771.879 3565
-350.404 771.879 3565
-341.879 771.879 3565
-331.858 768.415 3549
-323.371 768.415 3549
-314.885 768.415 3549
-306.398 768.415 3549
-297.911 768.415 3549
-288.201 765.167 3534
-279.75 765.167 3534
-270.762 763.651 3527
-263.964 768.415 3549
-255.477 768.415 3549
-247.547 770.147 3557
-239.042 770.147 3557
-230.536 770.147 3557
-222.03 770.147 3557
-131.764 475.252 2195
-126.515 475.252 2195
-121.266 475.252 2195
-116.017 475.252 2195
-110.314 473.304 2186
-105.087 473.304 2186
-99.8596 473.304 2186
-94.6322 473.304 2186
-89.4048 473.304 2186
-84.1774 473.304 2186
-79.0584 473.953 2189
-73.8238 473.953 2189
-68.5893 473.953 2189
-63.3547 473.953 2189
-58.1201 473.953 2189
-52.8856 473.953 2189
-47.5857 473.304 2186
-42.3583 473.304 2186
-37.1309 473.304 2186
-31.9035 473.304 2186
-26.7128 473.953 2189
-21.5076 474.603 2192
-16.3327 476.551 2201
-11.0694 476.551 2201
-5.82199 477.85 2207
-0.547835 480.882 2221
4.78255 482.83 2230
10.1152 482.83 2230
15.5517 486.078 2245
21.032 488.676 2257
26.476 489.542 2261
31.8827 489.542 2261
37.3884 490.841 2267
42.8661 491.491 2270
48.4859 493.44 2279
53.9357 493.44 2279
59.5418 494.739 2285
65.2904 496.904 2295
70.7784 496.904 2295
76.2665 496.904 2295
81.9683 498.203 2301
87.6987 499.502 2307
93.3771 500.368 2311
98.9034 500.368 2311
104.43 500.368 2311
110.099 501.018 2314
115.632 501.018 2314
121.166 501.018 2314
230.999 840.081 3880
242.507 847.876 3916
251.871 847.876 3916
262.503 851.99 3935
271.913 851.99 3935
281.323 851.99 3935
289.994 849.825 3925
298.693 847.876 3916
308.057 847.876 3916
317.422 847.876 3916
327.537 849.825 3925
336.923 849.825 3925
346.309 849.825 3925
355.695 849.825 3925
365.081 849.825 3925
373.608 847.876 3916
382.972 847.876 3916
393.238 849.825 3925
402.624 849.825 3925
412.01 849.825 3925
413.666 834.235 3853
419.916 828.39 3826
429.065 828.39 3826
438.214 828.39 3826
445.376 824.709 3809
454.484 824.709 3809
463.593 824.709 3809
471.584 822.76 3800
480.671 822.76 3800
489.758 822.76 3800
498.845 822.76 3800
507.932 822.76 3800
519.468 826.657 3818
528.598 826.657 3818
537.728 826.657 3818
546.858 826.657 3818
555.988 826.657 3818
565.118 826.657 3818
575.451 828.39 3826
594.227 842.03 3889
603.526 842.03 3889
614.244 843.979 3898
623.566 843.979 3898
632.887 843.979 3898
640.725 842.03 3889
650.025 842.03 3889
660.851 843.979 3898
670.172 843.979 3898
679.493 843.979 3898
688.815 843.979 3898
694.912 840.081 3880
704.19 840.081 3880
711.814 838.133 3871
731.129 849.825 3925
740.515 849.825 3925
749.901 849.825 3925
759.287 849.825 3925
765.148 845.927 3907
770.922 842.03 3889
780.222 842.03 3889
789.522 842.03 3889
793.276 836.184 3862
798.771 832.287 3844
800.606 824.709 3809
809.715 824.709 3809
818.823 824.709 3809
835.539 832.287 3844
846.709 834.235 3853
855.923 834.235 3853
865.137 834.235 3853
878.435 838.133 3871
887.692 838.133 3871
896.948 838.133 3871
904.098 836.184 3862
909.077 832.287 3844
909.908 824.709 3809
919.016 824.709 3809
903.271 802.624 3707
906.23 797.428 3683
913.05 795.696 3675
917.573 792.015 3658
926.321 792.015 3658
933.023 790.283 3650
937.881 787.035 3635
946.574 787.035 3635
955.266 787.035 3635
961.837 785.303 3627
968.369 783.571 3619
972.704 780.107 3603
981.32 780.107 3603
989.936 780.107 3603
996.334 778.374 3595
998.502 773.395 3572
1007.04 773.395 3572
1011.32 770.147 3557
1017.53 768.415 3549
1024 766.899 3542
1032.47 766.899 3542
1040.94 766.899 3542
1047.04 765.167 3534
1055.49 765.167 3534
1063.94 765.167 3534
1072.39 765.167 3534
1080.84 765.167 3534
1087.13 763.651 3527
1093.39 762.136 3520
1101.81 762.136 3520
1107.7 760.404 3512
1113.88 758.888 3505
1122.26 758.888 3505
1130.64 758.888 3505
1136.42 757.156 3497
1144.78 757.156 3497
1150.84 755.64 3490
1161.51 757.156 3497
1169.87 757.156 3497
1178.23 757.156 3497
1189.31 758.888 3505
1197.69 758.888 3505
1206.07 758.888 3505
1214.46 758.888 3505
1222.84 758.888 3505
1231.22 758.888 3505
1242.08 760.404 3512
1250.47 760.404 3512
1264.25 763.651 3527
1283.51 770.147 3557
1300.37 775.127 3580
1308.93 775.127 3580
1325.95 780.107 3603
1337.53 781.839 3611
1355.12 787.035 3635
1363.81 787.035 3635
1384.58 793.964 3667
1396.39 795.696 3675
1405.18 795.696 3675
1413.97 795.696 3675
1419.66 793.964 3667
1415.96 787.035 3635
1424.65 787.035 3635
1423.88 781.839 3611
1423.39 776.859 3588
1422.79 771.879 3565
1422.09 766.899 3542
1430.56 766.899 3542
1423.99 758.888 3505
1414.39 749.361 3461
1414.04 744.814 3440
1422.26 744.814 3440
1410.11 734.205 3391
1401.08 725.328 3350
1400.67 720.998 3330
1408.64 720.998 3330
1399.58 712.337 3290
1399.32 708.223 3271
1398.97 704.109 3252
1406.75 704.109 3252
1414.52 704.109 3252
1416.61 701.295 3239
1421.72 699.996 3233
1429.45 699.996 3233
1437.18 699.996 3233
1444.92 699.996 3233
1452.65 699.996 3233
1457.67 698.697 3227
1465.38 698.697 3227
1473.1 698.697 3227
1480.82 698.697 3227
1488.53 698.697 3227
1496.25 698.697 3227
1503.97 698.697 3227
1511.68 698.697 3227
1519.4 698.697 3227
1527.12 698.697 3227
1534.83 698.697 3227
1542.55 698.697 3227
1544.02 695.882 3214
1548.81 694.583 3208
1556.48 694.583 3208
1552.45 689.386 3184
1554.19 686.788 3172
1561.77 686.788 3172
1569.36 686.788 3172
1565.01 681.592 3148
1557.55 675.096 3118
1550.45 668.817 3089
1549.27 665.137 3072
1556.61 665.137 3072
1552.76 660.373 3050
1518.11 642.619 2968
1511.85 636.99 2942
1518.88 636.99 2942
1504.65 628.112 2901
1498.56 622.7 2876
1498.11 619.668 2862
1499.7 617.503 2852
1506.52 617.503 2852
1505.38 614.255 2837
1507.36 612.307 2828
1514.13 612.307 2828
1520.89 612.307 2828
1519.55 609.059 2813
1518.68 606.028 2799
1522.65 604.945 2794
1529.33 604.945 2794
1533.81 604.079 2790
1534.96 601.914 2780
1539.39 601.048 2776
1546.03 601.048 2776
1549.87 599.965 2771
1551.44 598.017 2762
1555.23 596.934 2757
1561.82 596.934 2757
1571.26 598.017 2762
1577.86 598.017 2762
1584.47 598.017 2762
1591.07 598.017 2762
1597.68 598.017 2762
1601.38 596.934 2757
2022.73 741.783 3426
2035.07 743.299 3433
2086.13 758.888 3505
2094.51 758.888 3505
2134.09 770.147 3557
2142.6 770.147 3557
2155.94 771.879 3565
2164.47 771.879 3565
2172.99 771.879 3565
2176.62 770.147 3557
2185.13 770.147 3557
2184.39 766.899 3542
2179.23 762.136 3520
2178.33 758.888 3505
2177.35 755.64 3490
2185.7 755.64 3490
2185.24 752.609 3476
2179.67 747.846 3454
2170.2 741.783 3426
2178.39 741.783 3426
2186.58 741.783 3426
2190.29 740.268 3419
2198.46 740.268 3419
2206.64 740.268 3419
2187.61 731.174 3377
2147.57 715.152 3303
2134.59 708.223 3271
2126.03 702.81 3246
2133.8 702.81 3246
2132.98 699.996 3233
2140.71 699.996 3233
2135.82 695.882 3214
2148.17 697.397 3221
2155.87 697.397 3221
2163.58 697.397 3221
2171.28 697.397 3221
2178.98 697.397 3221
2186.68 697.397 3221
2194.39 697.397 3221
2202.09 697.397 3221
2209.79 697.397 3221
2217.49 697.397 3221
2225.2 697.397 3221
2232.9 697.397 3221
2219.04 690.685 3190
2230.85 691.985 3196
2238.49 691.985 3196
2246.14 691.985 3196
2253.78 691.985 3196
2261.42 691.985 3196
2269.07 691.985 3196
2255.34 685.489 3166
2258.62 684.19 3160
2266.18 684.19 3160
2273.73 684.19 3160
2234.36 670.116 3095
2209.17 660.373 3050
2228.82 664.054 3067
2236.15 664.054 3067
2243.49 664.054 3067
2230.27 657.992 3039
2237.54 657.992 3039
2244.81 657.992 3039
2227.62 650.847 3006
2271.24 661.456 3055
2303.9 668.817 3089
2346.45 678.994 3136
2353.95 678.994 3136
2397.6 689.386 3184
2409.74 690.685 3190
2431.01 694.583 3208
2438.68 694.583 3208
2469.99 701.295 3239
2477.74 701.295 3239
-2726.85 797.275 3642
-2718.15 797.275 3642
-2728.04 802.748 3667
-2725.2 804.499 3675
-2728.24 808.002 3691
-2719.41 808.002 3691
-2710.58 808.002 3691
-2707.61 809.753 3699
-2717.01 815.226 3724
-2708.1 815.226 3724
-2705 816.977 3732
-2696.07 816.977 3732
-2687.15 816.977 3732
-2660.28 811.504 3707
-2634.25 806.25 3683
-2601.92 799.026 3650
-2593.19 799.026 3650
-2534.9 783.703 3580
-2520.69 781.951 3572
-2501.6 778.668 3557
-2493.1 778.668 3557
-2474.11 775.384 3542
-2450.33 770.568 3520
-2421.1 764.001 3490
-2412.75 764.001 3490
-2394.76 760.936 3476
-2396.06 764.001 3490
-2392.51 765.533 3497
-2399.82 770.568 3520
-2391.41 770.568 3520
-2382.99 770.568 3520
-2364.45 767.284 3505
-2356.07 767.284 3505
-2347.69 767.284 3505
-2339.31 767.284 3505
-2340.9 770.568 3520
-2337.12 772.1 3527
-2328.69 772.1 3527
-2334.73 776.916 3549
-2326.24 776.916 3549
-2317.75 776.916 3549
-2309.27 776.916 3549
-2300.78 776.916 3549
-2292.29 776.916 3549
-2283.81 776.916 3549
-2275.32 776.916 3549
-2266.83 776.916 3549
-2258.35 776.916 3549
-2249.86 776.916 3549
-2241.37 776.916 3549
-2228.48 775.384 3542
-2210.61 772.1 3527
-2202.18 772.1 3527
-2193.74 772.1 3527
-2185.31 772.1 3527
-2176.87 772.1 3527
-2168.44 772.1 3527
-2160.01 772.1 3527
-2151.57 772.1 3527
-2138.88 770.568 3520
-2108.07 762.468 3483
-2099.74 762.468 3483
-2087.21 760.936 3476
-2078.9 760.936 3476
-2070.59 760.936 3476
-2062.28 760.936 3476
-2053.96 760.936 3476
-2032.7 756.12 3454
-2016.24 753.055 3440
-2008.01 753.055 3440
-1995.72 751.523 3433
-1963.19 742.328 3391
-1951.05 740.796 3384
-1942.96 740.796 3384
-1926.86 737.731 3370
-1911.4 734.885 3357
-1903.37 734.885 3357
-1895.34 734.885 3357
-1887.32 734.885 3357
-1879.29 734.885 3357
-1871.26 734.885 3357
-1866.56 736.199 3363
-1858.52 736.199 3363
-1862.03 740.796 3384
-1853.94 740.796 3384
-1845.85 740.796 3384
-1837.76 740.796 3384
-1833.45 742.328 3391
-1829.11 743.861 3398
-1828.49 746.925 3412
-1820.33 746.925 3412
-1815.89 748.458 3419
-1818.81 753.055 3440
-1817.96 756.12 3454
-1809.7 756.12 3454
-1805.09 757.652 3461
-1804.6 760.936 3476
-1799.9 762.468 3483
-1791.57 762.468 3483
-1786.83 764.001 3490
-1782.05 765.533 3497
-1781.3 768.817 3512
-1772.9 768.817 3512
-1764.5 768.817 3512
-1756.1 768.817 3512
-1755.17 772.1 3527
-1746.73 772.1 3527
-1738.3 772.1 3527
-1729.87 772.1 3527
-1724.85 773.633 3534
-1720.28 775.384 3542
-1711.81 775.384 3542
-1710.56 778.668 3557
-1709.23 781.951 3572
-1711.64 786.986 3595
-1703.04 786.986 3595
-1698.21 788.738 3603
-1704.6 795.743 3635
-1706.64 800.778 3658
-1697.9 800.778 3658
-1723.32 816.977 3732
-1730.01 824.42 3766
-1721.01 824.42 3766
-1735.64 835.803 3818
-1726.51 835.803 3818
-1725.03 839.525 3835
-1715.86 839.525 3835
-1710.69 841.495 3844
-1709.47 845.436 3862
-1700.23 845.436 3862
-1691 845.436 3862
-1681.76 845.436 3862
-1645.68 831.863 3800
-1618.07 822.45 3757
-1609.09 822.45 3757
-1571.99 808.002 3691
-1545.8 799.026 3650
-1530.76 795.743 3635
-1522.06 795.743 3635
-1500.05 788.738 3603
-1478.6 781.951 3572
-1460.59 776.916 3549
-1452.11 776.916 3549
-1431.82 770.568 3520
-1420.17 768.817 3512
-1411.77 768.817 3512
-1406.57 770.568 3520
-1398.15 770.568 3520
-1389.74 770.568 3520
-1381.32 770.568 3520
-1372.9 770.568 3520
-1358.67 767.284 3505
-1358.76 772.1 3527
-1358.75 776.916 3549
-1356.35 780.419 3565
-1347.83 780.419 3565
-1344.94 783.703 3580
-1344.96 788.738 3603
-1336.35 788.738 3603
-1327.73 788.738 3603
-1322.05 790.489 3611
-1316.32 792.24 3619
-1310.56 793.991 3627
-1301.88 793.991 3627
-1298.56 797.275 3642
-1289.85 797.275 3642
-1281.14 797.275 3642
-1272.43 797.275 3642
-1263.72 797.275 3642
-1252.6 795.743 3635
-1241.17 793.991 3627
-1232.5 793.991 3627
-1221.12 792.24 3619
-1209.79 790.489 3611
-1203.82 792.24 3619
-1195.16 792.24 3619
-1186.51 792.24 3619
-1177.85 792.24 3619
-1171.78 793.991 3627
-1165.68 795.743 3635
-1156.98 795.743 3635
-1150.5 797.275 3642
-1146.81 800.778 3658
-1138.06 800.778 3658
-1129.32 800.778 3658
-1123.32 802.748 3667
-1116.99 804.499 3675
-1108.2 804.499 3675
-1099.41 804.499 3675
-1093 806.25 3683
-1091.26 811.504 3707
-1089.69 816.977 3732
-1080.77 816.977 3732
-1076.72 820.699 3749
-1072.6 824.42 3766
-1063.6 824.42 3766
-1054.59 824.42 3766
-1045.58 824.42 3766
-1036.58 824.42 3766
-1027.57 824.42 3766
-1018.57 824.42 3766
-1009.56 824.42 3766
-1002.68 826.171 3774
-993.656 826.171 3774
-984.632 826.171 3774
-975.607 826.171 3774
-966.582 826.171 3774
-957.557 826.171 3774
-948.533 826.171 3774
-939.508 826.171 3774
-934.921 830.112 3792
-925.853 830.112 3792
-916.785 830.112 3792
-905.563 828.142 3783
-892.488 824.42 3766
-885.359 826.171 3774
-878.424 828.142 3783
-869.378 828.142 3783
-864.198 831.863 3800
-857.136 833.833 3809
-848.028 833.833 3809
-838.919 833.833 3809
-829.811 833.833 3809
-818.763 831.863 3800
-809.676 831.863 3800
-798.904 830.112 3792
-789.836 830.112 3792
-782.415 831.863 3800
-775.16 833.833 3809
-766.051 833.833 3809
-756.943 833.833 3809
-746.067 831.863 3800
-736.98 831.863 3800
-726.361 830.112 3792
-717.293 830.112 3792
-703.369 824.42 3766
-694.364 824.42 3766
-683.72 822.45 3757
-670.246 816.977 3732
-652.639 806.25 3683
-643.832 806.25 3683
-626.748 795.743 3635
-616.696 793.991 3627
-608.023 793.991 3627
-599.349 793.991 3627
-590.676 793.991 3627
-580.719 792.24 3619
-572.065 792.24 3619
-560.92 788.738 3603
-552.304 788.738 3603
-543.688 788.738 3603
-535.072 788.738 3603
-524.265 785.454 3588
-515.685 785.454 3588
-504.843 781.951 3572
-495.329 780.419 3565
-486.804 780.419 3565
-478.279 780.419 3565
-469.754 780.419 3565
-462.135 781.951 3572
-454.609 783.703 3580
-446.048 783.703 3580
-437.487 783.703 3580
-428.926 783.703 3580
-420.365 783.703 3580
-411.805 783.703 3580
-403.244 783.703 3580
-394.683 783.703 3580
-386.122 783.703 3580
-377.561 783.703 3580
-369 783.703 3580
-358.929 780.419 3565
-350.404 780.419 3565
-341.879 780.419 3565
-331.858 776.916 3549
-323.371 776.916 3549
-314.885 776.916 3549
-306.398 776.916 3549
-297.911 776.916 3549
-288.201 773.633 3534
-279.75 773.633 3534
-270.762 772.1 3527
-263.444 775.384 3542
-254.974 775.384 3542
-246.991 776.916 3549
-238.504 776.916 3549
-230.017 776.916 3549
-221.531 776.916 3549
-131.764 480.51 2195
-126.515 480.51 2195
-121.266 480.51 2195
-116.017 480.51 2195
-110.314 478.54 2186
-105.087 478.54 2186
-99.8596 478.54 2186
-94.6322 478.54 2186
-89.4048 478.54 2186
-84.1774 478.54 2186
-79.0584 479.197 2189
-73.8238 479.197 2189
-68.5893 479.197 2189
-63.3547 479.197 2189
-58.1201 479.197 2189
-52.8856 479.197 2189
-47.5857 478.54 2186
-42.3583 478.54 2186
-37.1309 478.54 2186
-31.9035 478.54 2186
-26.7128 479.197 2189
-21.5076 479.854 2192
-16.3327 481.824 2201
-11.0694 481.824 2201
-5.82199 483.137 2207
-0.547835 486.202 2221
4.78255 488.172 2230
10.1152 488.172 2230
15.5517 491.456 2245
21.032 494.083 2257
26.476 494.959 2261
31.8827 494.959 2261
37.3884 496.272 2267
42.8661 496.929 2270
48.4859 498.899 2279
53.9357 498.899 2279
59.5418 500.212 2285
65.2904 502.402 2295
70.7784 502.402 2295
76.2665 502.402 2295
81.9683 503.715 2301
87.6987 505.028 2307
93.3771 505.904 2311
98.9034 505.904 2311
104.43 505.904 2311
110.099 506.561 2314
115.632 506.561 2314
121.166 506.561 2314
230.999 849.376 3880
241.392 853.316 3898
250.714 853.316 3898
261.836 859.227 3925
271.222 859.227 3925
280.608 859.227 3925
289.994 859.227 3925
298.693 857.257 3916
308.057 857.257 3916
317.422 857.257 3916
327.537 859.227 3925
336.923 859.227 3925
346.309 859.227 3925
354.879 857.257 3916
364.243 857.257 3916
373.608 857.257 3916
382.972 857.257 3916
393.238 859.227 3925
402.624 859.227 3925
412.01 859.227 3925
442.336 828.142 3783
452.456 830.112 3792
461.524 830.112 3792
470.591 830.112 3792
479.659 830.112 3792
488.727 830.112 3792
497.795 830.112 3792
506.863 830.112 3792
515.93 830.112 3792
526.106 831.863 3800
537.728 835.803 3818
546.858 835.803 3818
555.988 835.803 3818
563.786 833.833 3809
575.451 837.555 3826
592.851 849.376 3880
602.13 849.376 3880
615.662 855.287 3907
625.005 855.287 3907
634.348 855.287 3907
640.725 851.346 3889
650.025 851.346 3889
659.325 851.346 3889
668.625 851.346 3889
677.924 851.346 3889
685.634 849.376 3880
694.912 849.376 3880
704.19 849.376 3880
711.814 847.406 3871
731.129 859.227 3925
740.515 859.227 3925
749.901 859.227 3925
759.287 859.227 3925
765.148 855.287 3907
770.922 851.346 3889
780.222 851.346 3889
789.522 851.346 3889
793.276 845.436 3862
798.771 841.495 3844
800.606 833.833 3809
813.328 837.555 3826
822.478 837.555 3826
835.539 841.495 3844
850.665 847.406 3871
859.921 847.406 3871
869.178 847.406 3871
882.52 851.346 3889
891.819 851.346 3889
901.119 851.346 3889
904.098 845.436 3862
909.077 841.495 3844
909.908 833.833 3809
919.016 833.833 3809
903.271 811.504 3707
906.23 806.25 3683
913.05 804.499 3675
917.573 800.778 3658
926.321 800.778 3658
933.023 799.026 3650
937.881 795.743 3635
946.574 795.743 3635
955.266 795.743 3635
961.837 793.991 3627
970.51 793.991 3627
974.864 790.489 3611
983.499 790.489 3611
989.936 788.738 3603
996.334 786.986 3595
998.502 781.951 3572
1007.04 781.951 3572
1011.32 778.668 3557
1017.53 776.916 3549
1024 775.384 3542
1032.47 775.384 3542
1040.94 775.384 3542
1047.04 773.633 3534
1055.49 773.633 3534
1063.94 773.633 3534
1072.39 773.633 3534
1080.84 773.633 3534
1087.13 772.1 3527
1093.39 770.568 3520
1101.81 770.568 3520
1107.7 768.817 3512
1113.88 767.284 3505
1122.26 767.284 3505
1130.64 767.284 3505
1139.02 767.284 3505
1144.78 765.533 3497
1153.15 765.533 3497
1161.51 765.533 3497
1172.55 767.284 3505
1180.93 767.284 3505
1189.31 767.284 3505
1197.69 767.284 3505
1206.07 767.284 3505
1214.46 767.284 3505
1222.84 767.284 3505
1233.68 768.817 3512
1242.08 768.817 3512
1250.47 768.817 3512
1264.25 772.1 3527
1283.51 778.668 3557
1300.37 783.703 3580
1308.93 783.703 3580
1325.95 788.738 3603
1337.53 790.489 3611
1355.12 795.743 3635
1363.81 795.743 3635
1384.58 802.748 3667
1396.39 804.499 3675
1405.18 804.499 3675
1413.97 804.499 3675
1419.66 802.748 3667
1415.96 795.743 3635
1424.65 795.743 3635
1423.88 790.489 3611
1423.39 785.454 3588
1422.79 780.419 3565
1422.09 775.384 3542
1430.56 775.384 3542
1423.99 767.284 3505
1414.39 757.652 3461
1414.04 753.055 3440
1422.26 753.055 3440
1410.11 742.328 3391
1401.08 733.353 3350
1400.67 728.975 3330
1408.64 728.975 3330
1399.58 720.218 3290
1399.32 716.059 3271
1398.97 711.9 3252
1406.75 711.9 3252
1414.52 711.9 3252
1416.61 709.054 3239
1421.72 707.74 3233
1429.45 707.74 3233
1437.18 707.74 3233
1444.92 707.74 3233
1452.65 707.74 3233
1457.67 706.427 3227
1465.38 706.427 3227
1473.1 706.427 3227
1480.82 706.427 3227
1488.53 706.427 3227
1496.25 706.427 3227
1503.97 706.427 3227
1511.68 706.427 3227
1519.4 706.427 3227
1527.12 706.427 3227
1534.83 706.427 3227
1542.55 706.427 3227
1544.02 703.581 3214
1548.81 702.268 3208
1556.48 702.268 3208
1552.45 697.014 3184
1557.13 695.7 3178
1561.77 694.387 3172
1569.36 694.387 3172
1565.01 689.133 3148
1557.55 682.566 3118
1550.45 676.217 3089
1549.27 672.496 3072
1556.61 672.496 3072
1555.3 668.774 3055
1521.18 651.042 2974
1511.85 644.037 2942
1518.88 644.037 2942
1504.65 635.062 2901
1498.56 629.589 2876
1498.11 626.524 2862
1499.7 624.335 2852
1506.52 624.335 2852
1505.38 621.051 2837
1509.5 619.957 2832
1514.13 619.081 2828
1520.89 619.081 2828
1519.55 615.798 2813
1518.68 612.733 2799
1522.65 611.638 2794
1529.33 611.638 2794
1533.81 610.763 2790
1534.96 608.573 2780
1539.39 607.698 2776
1546.03 607.698 2776
1549.87 606.603 2771
1551.44 604.633 2762
1555.23 603.539 2757
1564.65 604.633 2762
1574.1 605.728 2767
1580.72 605.728 2767
1589.63 606.603 2771
1596.26 606.603 2771
1602.88 606.603 2771
1604.28 604.633 2762
2022.73 749.99 3426
2043.37 754.587 3447
2090.3 768.817 3512
2098.7 768.817 3512
2134.09 778.668 3557
2147.42 780.419 3565
2155.94 780.419 3565
2164.47 780.419 3565
2172.99 780.419 3565
2181.52 780.419 3565
2190.04 780.419 3565
2184.39 775.384 3542
2187.9 773.633 3534
2182.68 768.817 3512
2191.08 768.817 3512
2190.08 765.533 3497
2185.24 760.936 3476
2179.67 756.12 3454
2179.06 753.055 3440
2187.29 753.055 3440
2195.52 753.055 3440
2194.77 749.99 3426
2198.46 748.458 3419
2206.64 748.458 3419
2210.28 746.925 3412
2147.57 723.064 3303
2134.59 716.059 3271
2129.96 711.9 3252
2137.74 711.9 3252
2132.98 707.74 3233
2140.71 707.74 3233
2144.46 706.427 3227
2156.17 707.74 3233
2163.91 707.74 3233
2175.67 709.054 3239
2183.41 709.054 3239
2191.16 709.054 3239
2198.9 709.054 3239
2211.42 710.586 3246
2219.18 710.586 3246
2226.94 710.586 3246
2234.7 710.586 3246
2242.47 710.586 3246
2237.06 706.427 3227
2244.77 706.427 3227
2252.49 706.427 3227
2260.21 706.427 3227
2267.92 706.427 3227
2271.41 705.113 3221
2279.11 705.113 3221
2269.07 699.641 3196
2268.16 697.014 3184
2267.2 694.387 3172
2274.78 694.387 3172
2282.37 694.387 3172
2268.29 687.819 3142
2241.76 677.531 3095
2241.17 675.123 3084
2248.55 675.123 3084
2255.92 675.123 3084
2266.97 676.217 3089
2274.35 676.217 3089
2281.74 676.217 3089
2276.53 672.496 3072
2296.51 676.217 3089
2325.53 682.566 3118
2377.88 695.7 3178
2385.48 695.7 3178
2397.6 697.014 3184
2423.34 702.268 3208
2459.81 710.586 3246
2467.57 710.586 3246
2475.33 710.586 3246
-2726.85 806 3642
-2718.15 806 3642
-2728.04 811.532 3667
-2725.2 813.303 3675
-2728.24 816.844 3691
-2719.41 816.844 3691
-2710.58 816.844 3691
-2707.61 818.614 3699
-2728.68 827.688 3740
-2719.74 827.688 3740
-2710.79 827.688 3740
-2701.85 827.688 3740
-2692.91 827.688 3740
-2678.22 825.917 3732
-2651.42 820.384 3707
-2619.74 813.303 3675
-2610.95 813.303 3675
-2545.52 795.598 3595
-2526.34 792.279 3580
-2512.15 790.508 3572
-2503.61 790.508 3572
-2479 785.418 3549
-2450.33 779 3520
-2425.95 773.91 3497
-2417.59 773.91 3497
-2404.41 772.361 3490
-2400.87 773.91 3497
-2397.98 775.68 3505
-2399.82 779 3520
-2391.41 779 3520
-2382.99 779 3520
-2369.17 777.23 3512
-2360.78 777.23 3512
-2352.38 777.23 3512
-2349.32 779 3520
-2340.9 779 3520
-2337.12 780.549 3527
-2328.69 780.549 3527
-2334.73 785.418 3549
-2331.48 787.188 3557
-2322.98 787.188 3557
-2314.47 787.188 3557
-2300.78 785.418 3549
-2292.29 785.418 3549
-2283.81 785.418 3549
-2275.32 785.418 3549
-2266.83 785.418 3549
-2258.35 785.418 3549
-2249.86 785.418 3549
-2241.37 785.418 3549
-2228.48 783.869 3542
-2210.61 780.549 3527
-2202.18 780.549 3527
-2193.74 780.549 3527
-2185.31 780.549 3527
-2176.87 780.549 3527
-2168.44 780.549 3527
-2160.01 780.549 3527
