ply
format ascii 1.0
comment File generated
element vertex 2257
property float x
property float y
property float z
end_header
320.516 1125.07 2201
326.223 1126.6 2204
332.396 1129.67 2210
337.681 1129.67 2210
342.966 1129.67 2210
348.25 1129.67 2210
353.535 1129.67 2210
359.307 1131.2 2213
364.599 1131.2 2213
371.228 1135.29 2221
377.048 1136.83 2224
383.398 1139.89 2230
388.73 1139.89 2230
394.063 1139.89 2230
399.395 1139.89 2230
404.728 1139.89 2230
407.854 1133.76 2218
413.158 1133.76 2218
420.16 1138.36 2227
426.058 1139.89 2230
431.391 1139.89 2230
436.724 1139.89 2230
442.056 1139.89 2230
447.389 1139.89 2230
452.112 1138.36 2227
457.438 1138.36 2227
460.893 1133.76 2218
466.197 1133.76 2218
469.8 1129.67 2210
475.085 1129.67 2210
481.022 1131.2 2213
488.072 1135.29 2221
494.049 1136.83 2224
499.368 1136.83 2224
506.728 1141.43 2233
512.068 1141.43 2233
517.408 1141.43 2233
522.748 1141.43 2233
528.087 1141.43 2233
533.427 1141.43 2233
538.767 1141.43 2233
543.376 1139.89 2230
548.708 1139.89 2230
554.786 1141.43 2233
561.631 1144.49 2239
566.985 1144.49 2239
573.106 1146.03 2242
580.79 1150.63 2251
587.735 1153.7 2257
593.132 1153.7 2257
598.529 1153.7 2257
603.926 1153.7 2257
609.324 1153.7 2257
614.721 1153.7 2257
619.294 1152.16 2254
623.021 1149.1 2248
628.396 1149.1 2248
633.772 1149.1 2248
639.148 1149.1 2248
644.523 1149.1 2248
648.164 1146.03 2242
653.526 1146.03 2242
658.887 1146.03 2242
665.137 1147.56 2245
670.506 1147.56 2245
675.874 1147.56 2245
678.512 1142.96 2236
683.859 1142.96 2236
686.431 1138.36 2227
691.757 1138.36 2227
694.265 1133.76 2218
696.1 1128.14 2207
701.377 1128.14 2207
706.655 1128.14 2207
711.932 1128.14 2207
715.26 1125.07 2201
719.541 1123.54 2198
721.83 1118.94 2189
727.064 1118.94 2189
727.615 1111.78 2175
730.795 1108.71 2169
735.982 1108.71 2169
741.168 1108.71 2169
746.355 1108.71 2169
751.542 1108.71 2169
756.729 1108.71 2169
761.915 1108.71 2169
765.334 1106.16 2164
769.44 1104.62 2161
775.683 1106.16 2164
781.94 1107.69 2167
787.122 1107.69 2167
792.304 1107.69 2167
797.486 1107.69 2167
802.668 1107.69 2167
807.85 1107.69 2167
813.032 1107.69 2167
822.368 1113.31 2178
830.616 1117.4 2186
840.431 1123.54 2198
845.687 1123.54 2198
850.943 1123.54 2198
856.2 1123.54 2198
861.456 1123.54 2198
865.529 1122 2195
870.778 1122 2195
877.224 1123.54 2198
882.48 1123.54 2198
887.736 1123.54 2198
891.773 1122 2195
897.022 1122 2195
902.271 1122 2195
907.52 1122 2195
911.521 1120.47 2192
915.508 1118.94 2189
922.005 1120.47 2192
927.247 1120.47 2192
932.488 1120.47 2192
941.58 1125.07 2201
946.844 1125.07 2201
952.107 1125.07 2201
957.37 1125.07 2201
962.633 1125.07 2201
970.535 1128.14 2207
975.813 1128.14 2207
981.09 1128.14 2207
986.368 1128.14 2207
999.284 1136.83 2224
1016.8 1150.63 2251
1022.18 1150.63 2251
1032.13 1155.74 2261
1037.54 1155.74 2261
1042.94 1155.74 2261
1048.35 1155.74 2261
1050.49 1152.16 2254
1055.88 1152.16 2254
1061.27 1152.16 2254
1059.56 1144.49 2239
1063.49 1142.96 2236
1061.67 1135.29 2221
1065.54 1133.76 2218
1070.84 1133.76 2218
1074.69 1132.23 2215
1076.09 1128.14 2207
1081.36 1128.14 2207
1093.54 1135.29 2221
1098.85 1135.29 2221
1110.12 1141.43 2233
1122.96 1149.1 2248
1128.33 1149.1 2248
1133.71 1149.1 2248
1137.56 1147.56 2245
1138.35 1142.96 2236
1143.7 1142.96 2236
1147.5 1141.43 2233
1152.84 1141.43 2233
1162.85 1146.03 2242
1168.21 1146.03 2242
1173.57 1146.03 2242
1188.92 1155.74 2261
1199.09 1160.34 2270
1204.51 1160.34 2270
1211.54 1161.87 2273
1216.98 1161.87 2273
1222.41 1161.87 2273
1226.23 1160.34 2270
1231.65 1160.34 2270
1237.08 1160.34 2270
1242.51 1160.34 2270
1247.94 1160.34 2270
1253.37 1160.34 2270
1251.59 1153.7 2257
1248.63 1146.03 2242
1262.38 1153.7 2257
1278.45 1163.41 2276
1283.89 1163.41 2276
1289.34 1163.41 2276
1294.78 1163.41 2276
1300.22 1163.41 2276
1305.66 1163.41 2276
1309.38 1161.87 2273
1305.56 1153.7 2257
1300.5 1144.49 2239
1305.85 1144.49 2239
1309.45 1142.96 2236
1311.27 1139.89 2230
1304.8 1129.67 2210
1310.08 1129.67 2210
1304.65 1120.47 2192
1289.58 1103.09 2158
1292.94 1101.56 2155
1291.46 1095.93 2144
1300.22 1099 2150
1305.36 1099 2150
1313.55 1101.56 2155
1318.7 1101.56 2155
1323.86 1101.56 2155
1327.78 1100.53 2153
1329.21 1097.47 2147
1334.34 1097.47 2147
1339.48 1097.47 2147
1344.61 1097.47 2147
1356.66 1103.09 2158
1368.76 1108.71 2169
1381.55 1114.85 2181
1386.77 1114.85 2181
1404.75 1125.07 2201
1438.2 1147.56 2245
1455.78 1157.27 2264
1461.2 1157.27 2264
1474.38 1163.41 2276
1479.83 1163.41 2276
1495.71 1171.59 2292
1501.19 1171.59 2292
1506.67 1171.59 2292
1512.15 1171.59 2292
1517.63 1171.59 2292
1520.46 1169.54 2288
1523.93 1168.01 2285
1521.36 1161.87 2273
1524.78 1160.34 2270
1530.21 1160.34 2270
1533.61 1158.81 2267
1536.99 1157.27 2264
1542.41 1157.27 2264
1549.87 1158.81 2267
1555.29 1158.81 2267
1571.04 1166.47 2282
1576.5 1166.47 2282
1581.95 1166.47 2282
1587.41 1166.47 2282
1586.59 1161.87 2273
1592.02 1161.87 2273
1597.46 1161.87 2273
1602.89 1161.87 2273
1608.33 1161.87 2273
1615.89 1163.41 2276
1625.61 1166.47 2282
1631.07 1166.47 2282
1636.52 1166.47 2282
1644.14 1168.01 2285
1661.15 1176.19 2301
1680.42 1185.9 2320
1685.97 1185.9 2320
1703.91 1194.59 2337
1713.89 1197.66 2343
1719.49 1197.66 2343
1725.09 1197.66 2343
1704.1 1179.25 2307
1705.17 1176.19 2301
1710.68 1176.19 2301
1704.24 1168.01 2285
1698.48 1160.34 2270
1699.41 1157.27 2264
1702.56 1155.74 2261
1707.97 1155.74 2261
1667.91 1125.07 2201
1653.41 1111.78 2175
1671.57 1120.47 2192
1676.81 1120.47 2192
-1582.8 1085.66 2114
-1577.75 1085.66 2114
-1572.69 1085.66 2114
-1563.93 1083.1 2109
-1558.89 1083.1 2109
-1550.16 1080.53 2104
-1548.8 1083.1 2109
-1543.76 1083.1 2109
-1540.9 1084.64 2112
-1535.85 1084.64 2112
-1538.05 1089.77 2122
-1535.14 1091.31 2125
-1532.22 1092.85 2128
-1527.13 1092.85 2128
-1524.19 1094.39 2131
-1522.66 1096.96 2136
-1519.68 1098.5 2139
-1514.57 1098.5 2139
-1509.45 1098.5 2139
-1506.45 1100.04 2142
-1501.32 1100.04 2142
-1496.2 1100.04 2142
-1491.08 1100.04 2142
-1485.96 1100.04 2142
-1482.22 1101.07 2144
-1477.09 1101.07 2144
-1478.14 1105.69 2153
-1473 1105.69 2153
-1471.26 1108.26 2158
-1466.09 1108.26 2158
-1460.93 1108.26 2158
-1453.75 1106.72 2155
-1448.6 1106.72 2155
-1443.44 1106.72 2155
-1438.29 1106.72 2155
-1433.14 1106.72 2155
-1427.98 1106.72 2155
-1421.51 1105.69 2153
-1416.36 1105.69 2153
-1414.49 1108.26 2158
-1409.33 1108.26 2158
-1404.17 1108.26 2158
-1399.01 1108.26 2158
-1393.85 1108.26 2158
-1388.69 1108.26 2158
-1383.53 1108.26 2158
-1378.37 1108.26 2158
-1378.93 1112.88 2167
-1376.92 1115.45 2172
-1371.73 1115.45 2172
-1370.31 1118.53 2178
-1365.1 1118.53 2178
-1361.77 1120.07 2181
-1356.55 1120.07 2181
-1353.19 1121.61 2184
-1356.61 1128.8 2198
-1356.89 1133.42 2207
-1351.61 1133.42 2207
-1360.36 1145.24 2230
-1358.68 1148.32 2236
-1362.41 1156.02 2251
-1357.03 1156.02 2251
-1359.45 1162.7 2264
-1359.42 1167.32 2273
-1353.98 1167.32 2273
-1348.55 1167.32 2273
-1333.66 1159.1 2257
-1328.26 1159.1 2257
-1322.86 1159.1 2257
-1315.72 1157.56 2254
-1305.09 1152.94 2245
-1296.25 1149.86 2239
-1290.9 1149.86 2239
-1283.82 1148.32 2236
-1275.04 1145.24 2230
-1264.59 1140.61 2221
-1259.27 1140.61 2221
-1252.27 1139.07 2218
-1242.47 1134.97 2210
-1232.15 1130.34 2201
-1226.88 1130.34 2201
-1221.62 1130.34 2201
-1213.04 1127.26 2195
-1206.14 1125.72 2192
-1200.9 1125.72 2192
-1192.38 1122.64 2186
-1181.18 1116.99 2175
-1174.36 1115.45 2172
-1169.17 1115.45 2172
-1163.97 1115.45 2172
-1157.18 1113.91 2169
-1146.15 1108.26 2158
-1139.4 1106.72 2155
-1134.25 1106.72 2155
-1129.1 1106.72 2155
-1122.9 1105.69 2153
-1117.75 1105.69 2153
-1112.6 1105.69 2153
-1105.91 1104.15 2150
-1100.77 1104.15 2150
-1097.16 1105.69 2153
-1092.01 1105.69 2153
-1086.86 1105.69 2153
-1082.72 1106.72 2155
-1079.06 1108.26 2158
-1075.4 1109.8 2161
-1070.23 1109.8 2161
-1066.54 1111.34 2164
-1061.36 1111.34 2164
-1058.63 1113.91 2169
-1053.44 1113.91 2169
-1052.61 1118.53 2178
-1051.24 1122.64 2186
-1056.07 1133.42 2207
-1050.79 1133.42 2207
-1045.51 1133.42 2207
-1053.9 1148.32 2236
-1048.55 1148.32 2236
-1043.21 1148.32 2236
-1035.08 1145.24 2230
-1026.97 1142.16 2224
-1021.65 1142.16 2224
-1007.2 1131.88 2204
-1001.93 1131.88 2204
-993.942 1128.8 2198
-988.686 1128.8 2198
-982.088 1127.26 2195
-975.504 1125.72 2192
-964.065 1118.53 2178
-958.857 1118.53 2178
-949.708 1113.91 2169
-944.521 1113.91 2169
-937.169 1111.34 2164
-931.994 1111.34 2164
-926.819 1111.34 2164
-920.367 1109.8 2161
-915.199 1109.8 2161
-907.505 1106.72 2155
-902.352 1106.72 2155
-893.868 1102.61 2147
-887.492 1101.07 2144
-881.542 1100.04 2142
-876.42 1100.04 2142
-871.297 1100.04 2142
-866.175 1100.04 2142
-859.847 1098.5 2139
-855.931 1100.04 2142
-850.809 1100.04 2142
-846.476 1101.07 2144
-842.527 1102.61 2147
-837.392 1102.61 2147
-832.258 1102.61 2147
-828.28 1104.15 2150
-826.201 1108.26 2158
-821.041 1108.26 2158
-815.881 1108.26 2158
-808.842 1105.69 2153
-805.56 1108.26 2158
-804.479 1113.91 2169
-799.292 1113.91 2169
-795.204 1115.45 2172
-790.01 1115.45 2172
-784.816 1115.45 2172
-779.622 1115.45 2172
-774.428 1115.45 2172
-769.234 1115.45 2172
-764.041 1115.45 2172
-757.799 1113.91 2169
-751.918 1112.88 2167
-746.736 1112.88 2167
-741.554 1112.88 2167
-736.372 1112.88 2167
-731.865 1113.91 2169
-727.683 1115.45 2172
-722.489 1115.45 2172
-717.295 1115.45 2172
-713.085 1116.99 2175
-708.86 1118.53 2178
-703.652 1118.53 2178
-698.444 1118.53 2178
-693.236 1118.53 2178
-687.08 1116.99 2175
-681.879 1116.99 2175
-676.677 1116.99 2175
-670.55 1115.45 2172
-664.437 1113.91 2169
-659.251 1113.91 2169
-654.064 1113.91 2169
-648.877 1113.91 2169
-644.581 1115.45 2172
-639.387 1115.45 2172
-634.193 1115.45 2172
-628.999 1115.45 2172
-622.943 1113.91 2169
-617.187 1112.88 2167
-612.005 1112.88 2167
-606.823 1112.88 2167
-601.641 1112.88 2167
-596.459 1112.88 2167
-591.277 1112.88 2167
-586.095 1112.88 2167
-580.913 1112.88 2167
-574.137 1109.8 2161
-568.97 1109.8 2161
-563.802 1109.8 2161
-557.859 1108.26 2158
-555.004 1112.88 2167
-549.822 1112.88 2167
-544.64 1112.88 2167
-541.449 1116.99 2175
-536.248 1116.99 2175
-532.512 1120.07 2181
-527.297 1120.07 2181
-522.799 1121.61 2184
-520.184 1127.26 2195
-514.935 1127.26 2195
-509.686 1127.26 2195
-504.437 1127.26 2195
-499.188 1127.26 2195
-493.939 1127.26 2195
-486.241 1121.61 2184
-480.358 1120.07 2181
-475.142 1120.07 2181
-470.573 1121.61 2184
-467.055 1125.72 2192
-461.813 1125.72 2192
-458.446 1130.34 2201
-453.183 1130.34 2201
-447.92 1130.34 2201
-442.657 1130.34 2201
-437.393 1130.34 2201
-431.541 1128.8 2198
-426.285 1128.8 2198
-420.454 1127.26 2195
-415.205 1127.26 2195
-408.836 1124.18 2189
-403.601 1124.18 2189
-398.367 1124.18 2189
-392.593 1122.64 2186
-385.948 1118.53 2178
-381.264 1120.07 2181
-376.049 1120.07 2181
-370.834 1120.07 2181
-365.618 1120.07 2181
-360.403 1120.07 2181
-354.21 1116.99 2175
-348.528 1115.45 2172
-343.334 1115.45 2172
-338.14 1115.45 2172
-332.946 1115.45 2172
-326.998 1112.88 2167
-321.37 1111.34 2164
-316.634 1112.88 2167
-311.452 1112.88 2167
-306.27 1112.88 2167
-301.366 1113.91 2169
-296.179 1113.91 2169
-290.992 1113.91 2169
-285.806 1113.91 2169
-281.007 1115.45 2172
-276.575 1118.53 2178
-272.114 1121.61 2184
-266.892 1121.61 2184
-261.909 1122.64 2186
-257.386 1125.72 2192
-253.179 1130.34 2201
-247.916 1130.34 2201
-243.314 1133.42 2207
-238.037 1133.42 2207
-233.075 1134.97 2210
-227.791 1134.97 2210
-222.506 1134.97 2210
-216.631 1131.88 2204
-211.361 1131.88 2204
-205.81 1130.34 2201
-200.547 1130.34 2201
-195.283 1130.34 2201
-190.02 1130.34 2201
-183.75 1124.18 2189
-178.515 1124.18 2189
-173.281 1124.18 2189
-168.046 1124.18 2189
-162.439 1121.61 2184
-157.217 1121.61 2184
-151.577 1118.53 2178
-146.368 1118.53 2178
-140.577 1113.91 2169
-134.891 1109.8 2161
-129.723 1109.8 2161
-124.556 1109.8 2161
-119.222 1108.26 2158
-114.062 1108.26 2158
-109.204 1111.34 2164
-104.174 1112.88 2167
-98.9916 1112.88 2167
-93.8097 1112.88 2167
-88.505 1111.34 2164
-83.2147 1109.8 2161
-78.0471 1109.8 2161
-72.8795 1109.8 2161
-67.7119 1109.8 2161
-62.4575 1108.26 2158
-57.536 1112.88 2167
-52.3541 1112.88 2167
-47.5422 1121.61 2184
-42.3196 1121.61 2184
-37.097 1121.61 2184
-31.7868 1118.53 2178
-26.4687 1113.91 2169
81.4264 1100.04 2142
87.6395 1113.91 2169
92.8262 1113.91 2169
98.013 1113.91 2169
103.2 1113.91 2169
108.386 1113.91 2169
113.573 1113.91 2169
118.65 1112.88 2167
123.49 1109.8 2161
128.3 1106.72 2155
133.453 1106.72 2155
138.478 1105.69 2153
143.626 1105.69 2153
148.913 1106.72 2155
154.71 1111.34 2164
159.884 1111.34 2164
165.288 1112.88 2167
171.965 1122.64 2186
177.435 1124.18 2189
182.67 1124.18 2189
187.904 1124.18 2189
192.874 1122.64 2186
198.373 1124.18 2189
204.166 1127.26 2195
209.415 1127.26 2195
214.664 1127.26 2195
219.913 1127.26 2195
225.469 1128.8 2198
230.726 1128.8 2198
236.626 1131.88 2204
241.896 1131.88 2204
247.167 1131.88 2204
252.437 1131.88 2204
257.708 1131.88 2204
262.62 1130.34 2201
267.883 1130.34 2201
272.402 1127.26 2195
277.651 1127.26 2195
282.9 1127.26 2195
288.149 1127.26 2195
293.398 1127.26 2195
298.646 1127.26 2195
303.895 1127.26 2195
309.144 1127.26 2195
313.964 1125.72 2192
318.768 1124.18 2189
325.335 1128.8 2198
331.494 1131.88 2204
336.764 1131.88 2204
342.034 1131.88 2204
347.305 1131.88 2204
351.615 1128.8 2198
357.359 1130.34 2201
362.622 1130.34 2201
369.389 1134.97 2210
374.674 1134.97 2210
381.334 1139.07 2218
386.638 1139.07 2218
391.942 1139.07 2218
397.246 1139.07 2218
402.55 1139.07 2218
406.383 1134.97 2210
411.109 1133.42 2207
417.518 1136.51 2213
423.193 1137.53 2215
428.489 1137.53 2215
433.786 1137.53 2215
438.686 1136.51 2213
443.978 1136.51 2213
448.661 1134.97 2210
453.33 1133.42 2207
457.361 1130.34 2201
462.624 1130.34 2201
469.163 1133.42 2207
474.44 1133.42 2207
480.37 1134.97 2210
485.655 1134.97 2210
491.606 1136.51 2213
496.898 1136.51 2213
504.005 1140.61 2221
509.316 1140.61 2221
515.322 1142.16 2224
520.641 1142.16 2224
525.959 1142.16 2224
531.277 1142.16 2224
536.596 1142.16 2224
539.721 1137.53 2215
545.018 1137.53 2215
552.55 1142.16 2224
558.621 1143.7 2227
563.946 1143.7 2227
571.573 1148.32 2236
577.693 1149.86 2239
583.829 1151.4 2242
589.19 1151.4 2242
594.551 1151.4 2242
599.913 1151.4 2242
605.274 1151.4 2242
610.635 1151.4 2242
614.348 1148.32 2236
619.695 1148.32 2236
623.365 1145.24 2230
630.389 1148.32 2236
635.736 1148.32 2236
641.083 1148.32 2236
646.43 1148.32 2236
651.777 1148.32 2236
657.124 1148.32 2236
661.582 1146.78 2233
666.922 1146.78 2233
672.261 1146.78 2233
675.781 1143.7 2227
679.271 1140.61 2221
680.267 1133.42 2207
685.544 1133.42 2207
688.944 1130.34 2201
694.207 1130.34 2201
699.47 1130.34 2201
704.734 1130.34 2201
709.997 1130.34 2201
713.31 1127.26 2195
716.595 1124.18 2189
720.181 1121.61 2184
725.404 1121.61 2184
725.608 1113.91 2169
729.11 1111.34 2164
733.267 1109.8 2161
739.46 1111.34 2164
744.635 1111.34 2164
749.809 1111.34 2164
754.984 1111.34 2164
760.159 1111.34 2164
765.334 1111.34 2164
768.372 1108.26 2158
774.608 1109.8 2161
780.858 1111.34 2164
786.033 1111.34 2164
791.208 1111.34 2164
796.382 1111.34 2164
800.446 1109.8 2161
806.732 1111.34 2164
811.907 1111.34 2164
818.969 1113.91 2169
827.576 1118.53 2178
835.078 1121.61 2184
840.301 1121.61 2184
845.523 1121.61 2184
851.525 1122.64 2186
857.928 1124.18 2189
863.163 1124.18 2189
868.397 1124.18 2189
873.632 1124.18 2189
878.867 1124.18 2189
884.101 1124.18 2189
888.117 1122.64 2186
893.344 1122.64 2186
898.572 1122.64 2186
901.732 1120.07 2181
905.7 1118.53 2178
910.908 1118.53 2178
917.378 1120.07 2181
922.594 1120.07 2181
927.809 1120.07 2181
934.308 1121.61 2184
939.53 1121.61 2184
944.753 1121.61 2184
949.976 1121.61 2184
955.198 1121.61 2184
959.102 1120.07 2181
964.317 1120.07 2181
968.199 1118.53 2178
973.407 1118.53 2178
981.311 1121.61 2184
996.923 1133.42 2207
1002.2 1133.42 2207
1011.13 1137.53 2215
1017.8 1139.07 2218
1024.49 1140.61 2221
1029.8 1140.61 2221
1039.31 1145.24 2230
1044.64 1145.24 2230
1049.97 1145.24 2230
1055.31 1145.24 2230
1053.5 1137.53 2215
1054.98 1133.42 2207
1058.81 1131.88 2204
1064.08 1131.88 2204
1066.44 1128.8 2198
1071.7 1128.8 2198
1079.89 1131.88 2204
1086.64 1133.42 2207
1091.92 1133.42 2207
1108.63 1145.24 2230
1115.46 1146.78 2233
1120.8 1146.78 2233
1126.14 1146.78 2233
1131.48 1146.78 2233
1133.77 1143.7 2227
1139.09 1143.7 2227
1138.25 1137.53 2215
1143.55 1137.53 2215
1148.85 1137.53 2215
1163.52 1146.78 2233
1173.57 1151.4 2242
1178.93 1151.4 2242
1187.46 1154.48 2248
1192.84 1154.48 2248
1205.14 1161.16 2261
1210.55 1161.16 2261
1215.96 1161.16 2261
1221.36 1161.16 2261
1226.77 1161.16 2261
1232.18 1161.16 2261
1227.19 1151.4 2242
1232.55 1151.4 2242
1237.91 1151.4 2242
1243.27 1151.4 2242
1235.26 1139.07 2218
1247.28 1145.24 2230
1261.04 1152.94 2245
1266.41 1152.94 2245
1271.77 1152.94 2245
1283.97 1159.1 2257
1289.37 1159.1 2257
1294.76 1159.1 2257
1298.43 1157.56 2254
1293.41 1148.32 2236
1278.43 1130.34 2201
1283.69 1130.34 2201
1283.68 1125.72 2192
1280.69 1118.53 2178
1284.13 1116.99 2175
1289.33 1116.99 2175
1290.96 1113.91 2169
1289.58 1108.26 2158
1291.74 1105.69 2153
1291.46 1101.07 2144
1296.59 1101.07 2144
1301.72 1101.07 2144
1313.55 1106.72 2155
1318.7 1106.72 2155
1323.86 1106.72 2155
1327.78 1105.69 2153
1329.21 1102.61 2147
1332.48 1101.07 2144
1337.61 1101.07 2144
1342.73 1101.07 2144
1353.52 1105.69 2153
1367.5 1112.88 2167
1381.55 1120.07 2181
1386.77 1120.07 2181
1399 1125.72 2192
1415.78 1134.97 2210
1426.2 1139.07 2218
1431.51 1139.07 2218
1438.76 1140.61 2221
1453.82 1148.32 2236
1475.48 1161.16 2261
1480.89 1161.16 2261
1486.29 1161.16 2261
1491.7 1161.16 2261
1494.46 1159.1 2257
1499.86 1159.1 2257
1505.25 1159.1 2257
1506.64 1156.02 2251
1510 1154.48 2248
1515.38 1154.48 2248
1520.75 1154.48 2248
1526.13 1154.48 2248
1531.51 1154.48 2248
1538.93 1156.02 2251
1544.32 1156.02 2251
1549.7 1156.02 2251
1557.15 1157.56 2254
1562.54 1157.56 2254
1567.93 1157.56 2254
1569.14 1154.48 2248
1574.51 1154.48 2248
1579.89 1154.48 2248
1589.49 1157.56 2254
1594.88 1157.56 2254
1605.24 1161.16 2261
1610.65 1161.16 2261
1616.06 1161.16 2261
1621.46 1161.16 2261
1626.87 1161.16 2261
1649.6 1173.48 2285
1666.66 1181.7 2301
1672.16 1181.7 2301
1679.85 1183.24 2304
1685.36 1183.24 2304
1690.87 1183.24 2304
1696.38 1183.24 2304
1699.67 1181.7 2301
1693.32 1173.48 2285
1698.78 1173.48 2285
1695.29 1167.32 2273
1694 1162.7 2264
1697.16 1161.16 2261
1690.52 1152.94 2245
1695.88 1152.94 2245
1667.91 1130.34 2201
1653.41 1116.99 2175
1671.57 1125.72 2192
1676.81 1125.72 2192
-1582.8 1090.73 2114
-1577.75 1090.73 2114
-1572.69 1090.73 2114
-1563.93 1088.15 2109
-1558.89 1088.15 2109
-1550.16 1085.57 2104
-1548.8 1088.15 2109
-1543.76 1088.15 2109
-1540.9 1089.7 2112
-1535.85 1089.7 2112
-1538.05 1094.86 2122
-1535.14 1096.4 2125
-1532.22 1097.95 2128
-1527.13 1097.95 2128
-1524.19 1099.5 2131
-1522.66 1102.08 2136
-1519.68 1103.63 2139
-1514.57 1103.63 2139
-1509.45 1103.63 2139
-1506.45 1105.17 2142
-1501.32 1105.17 2142
-1496.2 1105.17 2142
-1491.08 1105.17 2142
-1485.96 1105.17 2142
-1482.22 1106.21 2144
-1477.09 1106.21 2144
-1478.14 1110.85 2153
-1473 1110.85 2153
-1471.26 1113.43 2158
-1466.09 1113.43 2158
-1460.93 1113.43 2158
-1453.75 1111.88 2155
-1448.6 1111.88 2155
-1443.44 1111.88 2155
-1438.29 1111.88 2155
-1433.14 1111.88 2155
-1427.98 1111.88 2155
-1421.51 1110.85 2153
-1416.36 1110.85 2153
-1414.49 1113.43 2158
-1409.33 1113.43 2158
-1404.17 1113.43 2158
-1399.01 1113.43 2158
-1393.85 1113.43 2158
-1388.69 1113.43 2158
-1383.53 1113.43 2158
-1378.37 1113.43 2158
-1371.3 1111.88 2155
-1371.85 1116.53 2164
-1366.68 1116.53 2164
-1364.65 1119.11 2169
-1359.46 1119.11 2169
-1358.02 1122.2 2175
-1352.82 1122.2 2175
-1349.48 1123.75 2178
-1349.21 1127.88 2186
-1349.51 1132.52 2195
-1344.26 1132.52 2195
-1346.33 1138.71 2207
-1344.7 1141.81 2213
-1353.33 1153.67 2236
-1347.98 1153.67 2236
-1351.64 1161.41 2251
-1346.26 1161.41 2251
-1340.88 1161.41 2251
-1335.5 1161.41 2251
-1324.79 1156.77 2242
-1310.61 1149.03 2227
-1305.28 1149.03 2227
-1298.2 1147.48 2224
-1294.63 1149.03 2227
-1289.3 1149.03 2227
-1283.98 1149.03 2227
-1271.76 1142.84 2215
-1266.47 1142.84 2215
-1258.32 1140.26 2210
-1253.04 1140.26 2210
-1240.98 1134.07 2198
-1235.72 1134.07 2198
-1227.11 1130.97 2192
-1221.87 1130.97 2192
-1216.62 1130.97 2192
-1208.07 1127.88 2186
-1202.84 1127.88 2186
-1197.61 1127.88 2186
-1186.38 1122.2 2175
-1179.55 1120.65 2172
-1172.74 1119.11 2169
-1167.55 1119.11 2169
-1162.36 1119.11 2169
-1151.31 1113.43 2158
-1144.55 1111.88 2155
-1138.34 1110.85 2153
-1133.2 1110.85 2153
-1128.05 1110.85 2153
-1121.33 1109.3 2150
-1114.64 1107.75 2147
-1109.5 1107.75 2147
-1104.37 1107.75 2147
-1099.23 1107.75 2147
-1095.63 1109.3 2150
-1090.49 1109.3 2150
-1085.34 1109.3 2150
-1081.71 1110.85 2153
-1079.06 1113.43 2158
-1075.4 1114.98 2161
-1070.23 1114.98 2161
-1066.54 1116.53 2164
-1061.36 1116.53 2164
-1056.19 1116.53 2164
-1051.01 1116.53 2164
-1049.71 1120.65 2172
-1047.4 1123.75 2178
-1048.89 1130.97 2192
-1043.65 1130.97 2192
-1039.83 1132.52 2195
-1037.4 1135.62 2201
-1032.14 1135.62 2201
-1026.88 1135.62 2201
-1021.61 1135.62 2201
-1012.2 1130.97 2192
-1006.95 1130.97 2192
-1001.71 1130.97 2192
-993.743 1127.88 2186
-983.541 1122.2 2175
-978.34 1122.2 2175
-973.139 1122.2 2175
-964.378 1118.07 2167
-957.868 1116.53 2164
-952.693 1116.53 2164
-943.578 1111.88 2155
-938.425 1111.88 2155
-933.271 1111.88 2155
-929.41 1113.43 2158
-924.25 1113.43 2158
-919.089 1113.43 2158
-913.929 1113.43 2158
-904.136 1107.75 2147
-899.002 1107.75 2147
-892.619 1106.21 2144
-886.664 1105.17 2142
-881.542 1105.17 2142
-876.42 1105.17 2142
-871.297 1105.17 2142
-863.749 1102.08 2136
-858.641 1102.08 2136
-853.533 1102.08 2136
-848.426 1102.08 2136
-844.502 1103.63 2139
-840.564 1105.17 2142
-835.442 1105.17 2142
-830.32 1105.17 2142
-825.198 1105.17 2142
-821.99 1107.75 2147
-816.856 1107.75 2147
-811.722 1107.75 2147
-806.588 1107.75 2147
-803.693 1110.85 2153
-800.399 1113.43 2158
-795.239 1113.43 2158
-790.078 1113.43 2158
-784.918 1113.43 2158
-779.758 1113.43 2158
-774.597 1113.43 2158
-770.506 1114.98 2161
-765.339 1114.98 2161
-760.171 1114.98 2161
-755.004 1114.98 2161
-749.836 1114.98 2161
-744.668 1114.98 2161
-739.501 1114.98 2161
-734.333 1114.98 2161
-730.178 1116.53 2164
-725.003 1116.53 2164
-720.826 1118.07 2167
-715.644 1118.07 2167
-710.462 1118.07 2167
-705.931 1119.11 2169
-700.744 1119.11 2169
-695.558 1119.11 2169
-690.371 1119.11 2169
-684.552 1118.07 2167
-679.37 1118.07 2167
-673.255 1116.53 2164
-668.08 1116.53 2164
-662.906 1116.53 2164
-657.731 1116.53 2164
-652.556 1116.53 2164
-646.484 1114.98 2161
-641.316 1114.98 2161
-635.265 1113.43 2158
-630.105 1113.43 2158
-624.945 1113.43 2158
-619.784 1113.43 2158
-614.624 1113.43 2158
-609.463 1113.43 2158
-604.303 1113.43 2158
-599.975 1114.98 2161
-594.808 1114.98 2161
-589.64 1114.98 2161
-584.473 1114.98 2161
-579.305 1114.98 2161
-572.543 1111.88 2155
-567.39 1111.88 2155
-560.932 1109.3 2150
-557.859 1113.43 2158
-552.699 1113.43 2158
-549.06 1116.53 2164
-543.886 1116.53 2164
-539.458 1118.07 2167
-536.248 1122.2 2175
-531.78 1123.75 2178
-526.571 1123.75 2178
-522.081 1125.3 2181
-519.473 1130.97 2192
-514.231 1130.97 2192
-508.989 1130.97 2192
-503.747 1130.97 2192
-496.686 1126.84 2184
-491.464 1126.84 2184
-486.241 1126.84 2184
-479.697 1123.75 2178
-474.489 1123.75 2178
-469.927 1125.3 2181
-465.351 1126.84 2184
-460.128 1126.84 2184
-456.572 1130.97 2192
-451.948 1132.52 2195
-446.699 1132.52 2195
-441.45 1132.52 2195
-436.201 1132.52 2195
-429.774 1129.42 2189
-424.539 1129.42 2189
-419.305 1129.42 2189
-414.07 1129.42 2189
-408.276 1127.88 2186
-403.048 1127.88 2186
-396.911 1125.3 2181
-391.157 1123.75 2178
-385.417 1122.2 2175
-380.216 1122.2 2175
-375.015 1122.2 2175
-369.813 1122.2 2175
-364.109 1120.65 2172
-358.916 1120.65 2172
-353.233 1119.11 2169
-348.046 1119.11 2169
-342.86 1119.11 2169
-337.673 1119.11 2169
-332.18 1118.07 2167
-326.545 1116.53 2164
-320.925 1114.98 2161
-315.757 1114.98 2161
-310.589 1114.98 2161
-305.422 1114.98 2161
-300.254 1114.98 2161
-295.087 1114.98 2161
-289.919 1114.98 2161
-284.751 1114.98 2161
-279.196 1113.43 2158
-275.178 1118.07 2167
-271.367 1123.75 2178
-266.158 1123.75 2178
-261.31 1125.3 2181
-256.681 1127.88 2186
-251.799 1129.42 2189
-246.564 1129.42 2189
-242.653 1135.62 2201
-237.39 1135.62 2201
-232.126 1135.62 2201
-226.554 1134.07 2198
-220.996 1132.52 2195
-215.452 1130.97 2192
-210.21 1130.97 2192
-204.688 1129.42 2189
-199.453 1129.42 2189
-194.219 1129.42 2189
-188.984 1129.42 2189
-183.078 1125.3 2181
-177.863 1125.3 2181
-172.41 1123.75 2178
-167.201 1123.75 2178
-161.547 1120.65 2172
-156.137 1119.11 2169
-150.394 1114.98 2161
-145.226 1114.98 2161
-139.67 1111.88 2155
-134.204 1109.3 2150
-129.063 1109.3 2150
-123.576 1106.21 2144
-118.946 1110.85 2153
-113.798 1110.85 2153
-108.649 1110.85 2153
-103.597 1111.88 2155
-98.4435 1111.88 2155
-93.2902 1111.88 2155
-88.1369 1111.88 2155
-82.9067 1110.85 2153
-77.7582 1110.85 2153
-72.5085 1109.3 2150
-67.4612 1110.85 2153
-62.3128 1110.85 2153
-57.536 1118.07 2167
-52.3541 1118.07 2167
-47.5422 1126.84 2184
-42.3196 1126.84 2184
-37.097 1126.84 2184
-31.7868 1123.75 2178
-26.4687 1119.11 2169
81.4264 1105.17 2142
86.8718 1109.3 2150
92.2271 1111.88 2155
97.3803 1111.88 2155
102.534 1111.88 2155
107.687 1111.88 2155
112.84 1111.88 2155
117.884 1110.85 2153
122.518 1106.21 2144
127.526 1105.17 2142
132.648 1105.17 2142
137.577 1103.63 2139
142.692 1103.63 2139
148.36 1107.75 2147
153.494 1107.75 2147
159.072 1110.85 2153
164.22 1110.85 2153
170.234 1116.53 2164
177.03 1126.84 2184
182.253 1126.84 2184
187.475 1126.84 2184
192.874 1127.88 2186
198.373 1129.42 2189
204.166 1132.52 2195
209.415 1132.52 2195
214.664 1132.52 2195
219.913 1132.52 2195
225.469 1134.07 2198
230.726 1134.07 2198
236.626 1137.16 2204
241.896 1137.16 2204
247.167 1137.16 2204
252.437 1137.16 2204
257.708 1137.16 2204
262.62 1135.62 2201
267.883 1135.62 2201
272.402 1132.52 2195
277.651 1132.52 2195
282.9 1132.52 2195
288.149 1132.52 2195
293.398 1132.52 2195
298.646 1132.52 2195
303.895 1132.52 2195
309.144 1132.52 2195
313.964 1130.97 2192
318.768 1129.42 2189
325.335 1134.07 2198
331.494 1137.16 2204
336.764 1137.16 2204
342.034 1137.16 2204
347.305 1137.16 2204
351.615 1134.07 2198
357.359 1135.62 2201
362.622 1135.62 2201
369.389 1140.26 2210
374.674 1140.26 2210
381.334 1144.39 2218
386.638 1144.39 2218
391.942 1144.39 2218
397.246 1144.39 2218
402.55 1144.39 2218
406.383 1140.26 2210
411.109 1138.71 2207
417.518 1141.81 2213
423.193 1142.84 2215
428.489 1142.84 2215
433.786 1142.84 2215
438.686 1141.81 2213
443.978 1141.81 2213
448.661 1140.26 2210
453.33 1138.71 2207
457.361 1135.62 2201
462.624 1135.62 2201
469.163 1138.71 2207
474.44 1138.71 2207
480.37 1140.26 2210
485.655 1140.26 2210
491.606 1141.81 2213
496.898 1141.81 2213
504.005 1145.93 2221
509.316 1145.93 2221
515.322 1147.48 2224
520.641 1147.48 2224
525.959 1147.48 2224
531.277 1147.48 2224
536.596 1147.48 2224
539.721 1142.84 2215
545.018 1142.84 2215
552.55 1147.48 2224
558.621 1149.03 2227
563.946 1149.03 2227
571.573 1153.67 2236
577.693 1155.22 2239
583.829 1156.77 2242
589.19 1156.77 2242
594.551 1156.77 2242
599.913 1156.77 2242
605.274 1156.77 2242
610.635 1156.77 2242
614.348 1153.67 2236
619.695 1153.67 2236
623.365 1150.58 2230
630.389 1153.67 2236
635.736 1153.67 2236
641.083 1153.67 2236
646.43 1153.67 2236
651.777 1153.67 2236
657.124 1153.67 2236
661.582 1152.13 2233
666.922 1152.13 2233
672.261 1152.13 2233
675.781 1149.03 2227
679.271 1145.93 2221
680.267 1138.71 2207
685.544 1138.71 2207
688.944 1135.62 2201
694.207 1135.62 2201
696.61 1130.97 2192
701.852 1130.97 2192
707.094 1130.97 2192
711.361 1129.42 2189
714.958 1126.84 2184
716.224 1120.65 2172
721.418 1120.65 2172
723.935 1116.53 2164
728.099 1114.98 2161
732.249 1113.43 2158
737.409 1113.43 2158
742.57 1113.43 2158
747.73 1113.43 2158
752.891 1113.43 2158
758.051 1113.43 2158
763.212 1113.43 2158
767.304 1111.88 2155
772.457 1111.88 2155
777.61 1111.88 2155
783.853 1113.43 2158
789.014 1113.43 2158
794.174 1113.43 2158
799.335 1113.43 2158
805.614 1114.98 2161
810.781 1114.98 2161
817.081 1116.53 2164
824.156 1119.11 2169
830.49 1120.65 2172
835.684 1120.65 2172
844.362 1125.3 2181
850.746 1126.84 2184
856.753 1127.88 2186
861.98 1127.88 2186
867.207 1127.88 2186
871.636 1126.84 2184
876.859 1126.84 2184
882.082 1126.84 2184
884.867 1123.75 2178
890.075 1123.75 2178
895.283 1123.75 2178
900.491 1123.75 2178
901.957 1119.11 2169
907.144 1119.11 2169
914.854 1122.2 2175
920.055 1122.2 2175
925.257 1122.2 2175
933.024 1125.3 2181
938.24 1125.3 2181
943.455 1125.3 2181
948.671 1125.3 2181
951.262 1122.2 2175
955.144 1120.65 2172
960.338 1120.65 2172
964.198 1119.11 2169
964.469 1113.43 2158
974.571 1119.11 2169
985.179 1125.3 2181
990.394 1125.3 2181
997.892 1127.88 2186
1003.12 1127.88 2186
1012.5 1132.52 2195
1017.75 1132.52 2195
1027.19 1137.16 2204
1032.46 1137.16 2204
1037.73 1137.16 2204
1043 1137.16 2204
1045.42 1134.07 2198
1047.81 1130.97 2192
1050.17 1127.88 2186
1058.29 1130.97 2192
1063.53 1130.97 2192
1068.77 1130.97 2192
1076.96 1134.07 2198
1085.17 1137.16 2204
1090.44 1137.16 2204
1104.16 1145.93 2221
1113.96 1150.58 2230
1119.3 1150.58 2230
1124.63 1150.58 2230
1128.44 1149.03 2227
1126.64 1141.81 2213
1131.93 1141.81 2213
1134.14 1138.71 2207
1139.42 1138.71 2207
1147.81 1141.81 2213
1153.1 1141.81 2213
1168.86 1152.13 2233
1174.2 1152.13 2233
1181.13 1153.67 2236
1189.66 1156.77 2242
1198.22 1159.87 2248
1203.59 1159.87 2248
1208.97 1159.87 2248
1212.72 1158.32 2245
1218.09 1158.32 2245
1221.82 1156.77 2242
1227.19 1156.77 2242
1225.95 1150.58 2230
1231.28 1150.58 2230
1229.96 1144.39 2218
1229.14 1138.71 2207
1240.57 1144.39 2218
1250.93 1149.03 2227
1256.25 1149.03 2227
1268.38 1155.22 2239
1277.14 1158.32 2245
1282.51 1158.32 2245
1287.88 1158.32 2245
1286.34 1152.13 2233
1273.17 1135.62 2201
1271.46 1129.42 2189
1276.69 1129.42 2189
1275.49 1123.75 2178
1280.69 1123.75 2178
1282.36 1120.65 2172
1287.55 1120.65 2172
1292.75 1120.65 2172
1293.16 1116.53 2164
1291.74 1110.85 2153
1291.46 1106.21 2144
1296.59 1106.21 2144
1300.5 1105.17 2142
1312.33 1110.85 2153
1317.48 1110.85 2153
1322.63 1110.85 2153
1327.78 1110.85 2153
1326.11 1105.17 2142
1332.48 1106.21 2144
1339.48 1107.75 2147
1344.61 1107.75 2147
1349.75 1107.75 2147
1367.5 1118.07 2167
1372.68 1118.07 2167
1377.87 1118.07 2167
1397.09 1129.42 2189
1406.17 1132.52 2195
1419.13 1138.71 2207
1424.41 1138.71 2207
1433.57 1141.81 2213
1444.07 1145.93 2221
1457.21 1152.13 2233
1464.51 1153.67 2236
1469.86 1153.67 2236
1475.21 1153.67 2236
1472.61 1147.48 2224
1477.93 1147.48 2224
1481.24 1145.93 2221
1482.54 1142.84 2215
1491.87 1145.93 2221
1497.18 1145.93 2221
1502.49 1145.93 2221
1507.8 1145.93 2221
1513.11 1145.93 2221
1518.42 1145.93 2221
1523.73 1145.93 2221
1529.04 1145.93 2221
1534.36 1145.93 2221
1539.67 1145.93 2221
1544.98 1145.93 2221
1544.7 1141.81 2213
1550 1141.81 2213
1555.29 1141.81 2213
1574.68 1152.13 2233
1580.02 1152.13 2233
1589.62 1155.22 2239
1597.11 1156.77 2242
1602.48 1156.77 2242
1607.84 1156.77 2242
1613.2 1156.77 2242
1632.28 1166.57 2261
1639.86 1168.12 2264
1645.27 1168.12 2264
1650.68 1168.12 2264
1656.1 1168.12 2264
1661.51 1168.12 2264
1664.72 1166.57 2261
1667.17 1164.51 2257
1672.57 1164.51 2257
1669.04 1158.32 2245
1674.41 1158.32 2245
1679.78 1158.32 2245
1685.15 1158.32 2245
1679.22 1150.58 2230
1684.55 1150.58 2230
1667.91 1135.62 2201
1651.13 1120.65 2172
1654.03 1119.11 2169
1659.22 1119.11 2169
-1579.06 1093.2 2109
-1574.02 1093.2 2109
-1568.97 1093.2 2109
-1560.22 1090.61 2104
-1555.19 1090.61 2104
-1550.16 1090.61 2104
-1548.8 1093.2 2109
-1543.76 1093.2 2109
-1540.9 1094.76 2112
-1535.85 1094.76 2112
-1538.05 1099.94 2122
-1535.14 1101.49 2125
-1532.22 1103.05 2128
-1527.13 1103.05 2128
-1522.04 1103.05 2128
-1519.09 1104.6 2131
-1517.55 1107.2 2136
-1512.44 1107.2 2136
-1509.45 1108.75 2139
-1504.34 1108.75 2139
-1499.22 1108.75 2139
-1494.11 1108.75 2139
-1488.99 1108.75 2139
-1481.8 1107.2 2136
-1476.69 1107.2 2136
-1471.58 1107.2 2136
-1471.96 1111.34 2144
-1466.84 1111.34 2144
-1467.85 1116.01 2153
-1462.7 1116.01 2153
-1457.55 1116.01 2153
-1452.4 1116.01 2153
-1447.25 1116.01 2153
-1442.1 1116.01 2153
-1432.95 1112.9 2147
-1427.82 1112.9 2147
-1422.68 1112.9 2147
-1417.55 1112.9 2147
-1412.41 1112.9 2147
-1407.28 1112.9 2147
-1406.06 1116.01 2153
-1400.92 1116.01 2153
-1397.06 1117.04 2155
-1391.91 1117.04 2155
-1386.76 1117.04 2155
-1381.6 1117.04 2155
-1376.45 1117.04 2155
-1371.3 1117.04 2155
-1371.85 1121.71 2164
-1366.68 1121.71 2164
-1364.65 1124.3 2169
-1359.46 1124.3 2169
-1358.02 1127.41 2175
-1352.82 1127.41 2175
-1349.48 1128.97 2178
-1349.21 1133.11 2186
-1349.51 1137.78 2195
-1344.26 1137.78 2195
-1346.33 1144 2207
-1344.7 1147.11 2213
-1353.33 1159.03 2236
-1347.98 1159.03 2236
-1351.64 1166.81 2251
-1346.26 1166.81 2251
-1340.88 1166.81 2251
-1335.5 1166.81 2251
-1324.79 1162.14 2242
-1310.61 1154.37 2227
-1305.28 1154.37 2227
-1298.2 1152.81 2224
-1294.63 1154.37 2227
-1289.3 1154.37 2227
-1283.98 1154.37 2227
-1271.76 1148.15 2215
-1266.47 1148.15 2215
-1258.32 1145.55 2210
-1253.04 1145.55 2210
-1240.98 1139.33 2198
-1235.72 1139.33 2198
-1227.11 1136.22 2192
-1221.87 1136.22 2192
-1216.62 1136.22 2192
-1208.07 1133.11 2186
-1202.84 1133.11 2186
-1197.61 1133.11 2186
-1186.38 1127.41 2175
-1179.55 1125.86 2172
-1172.74 1124.3 2169
-1167.55 1124.3 2169
-1162.36 1124.3 2169
-1151.31 1118.6 2158
-1144.55 1117.04 2155
-1138.34 1116.01 2153
-1133.2 1116.01 2153
-1128.05 1116.01 2153
-1121.33 1114.45 2150
-1114.64 1112.9 2147
-1109.5 1112.9 2147
-1104.37 1112.9 2147
-1099.23 1112.9 2147
-1095.63 1114.45 2150
-1090.49 1114.45 2150
-1085.34 1114.45 2150
-1081.71 1116.01 2153
-1079.06 1118.6 2158
-1075.4 1120.15 2161
-1070.23 1120.15 2161
-1066.54 1121.71 2164
-1061.36 1121.71 2164
-1056.19 1121.71 2164
-1051.01 1121.71 2164
-1049.71 1125.86 2172
-1047.4 1128.97 2178
-1048.89 1136.22 2192
-1043.65 1136.22 2192
-1039.83 1137.78 2195
-1037.4 1140.89 2201
-1032.14 1140.89 2201
-1026.88 1140.89 2201
-1021.61 1140.89 2201
-1012.2 1136.22 2192
-1006.95 1136.22 2192
-1001.71 1136.22 2192
-993.743 1133.11 2186
-983.541 1127.41 2175
-978.34 1127.41 2175
-973.139 1127.41 2175
-964.378 1123.26 2167
-957.868 1121.71 2164
-952.693 1121.71 2164
-943.578 1117.04 2155
-938.425 1117.04 2155
-933.271 1117.04 2155
-929.41 1118.6 2158
-924.25 1118.6 2158
-919.089 1118.6 2158
-913.929 1118.6 2158
-904.136 1112.9 2147
-899.002 1112.9 2147
-892.619 1111.34 2144
-886.664 1110.31 2142
-881.542 1110.31 2142
-876.42 1110.31 2142
-871.297 1110.31 2142
-863.749 1107.2 2136
-856.631 1104.6 2131
-851.535 1104.6 2131
-846.44 1104.6 2131
-842.133 1105.64 2133
-838.21 1107.2 2136
-833.102 1107.2 2136
-827.994 1107.2 2136
-822.886 1107.2 2136
-817.779 1107.2 2136
-812.671 1107.2 2136
-807.563 1107.2 2136
-802.455 1107.2 2136
-801.453 1112.9 2147
-796.319 1112.9 2147
-791.185 1112.9 2147
-788.98 1117.04 2155
-783.827 1117.04 2155
-778.674 1117.04 2155
-773.52 1117.04 2155
-769.437 1118.6 2158
-764.276 1118.6 2158
-759.116 1118.6 2158
-753.955 1118.6 2158
-748.795 1118.6 2158
-742.601 1117.04 2155
-738.474 1118.6 2158
-733.314 1118.6 2158
-728.153 1118.6 2158
-723.998 1120.15 2161
-718.83 1120.15 2161
-713.663 1120.15 2161
-709.479 1121.71 2164
-704.304 1121.71 2164
-699.129 1121.71 2164
-693.954 1121.71 2164
-688.779 1121.71 2164
-681.709 1118.6 2158
-675.608 1117.04 2155
-670.455 1117.04 2155
-665.302 1117.04 2155
-660.149 1117.04 2155
-654.995 1117.04 2155
-649.842 1117.04 2155
-644.091 1116.01 2153
-638.942 1116.01 2153
-632.91 1114.45 2150
-627.769 1114.45 2150
-622.628 1114.45 2150
-617.487 1114.45 2150
-613.2 1116.01 2153
-608.051 1116.01 2153
-602.903 1116.01 2153
-598.31 1117.04 2155
-593.156 1117.04 2155
-588.003 1117.04 2155
-582.85 1117.04 2155
-577.696 1117.04 2155
-572.012 1116.01 2153
-566.863 1116.01 2153
-560.15 1112.9 2147
-556.566 1116.01 2153
-552.699 1118.6 2158
-549.06 1121.71 2164
-543.886 1121.71 2164
-539.458 1123.26 2167
-534.769 1124.3 2169
-531.047 1127.41 2175
-525.846 1127.41 2175
-522.081 1130.52 2181
-518.051 1133.11 2186
-512.823 1133.11 2186
-507.596 1133.11 2186
-502.368 1133.11 2186
-496.686 1132.08 2184
-491.464 1132.08 2184
-484.905 1128.97 2178
-479.036 1127.41 2175
-473.835 1127.41 2175
-469.28 1128.97 2178
-464.072 1128.97 2178
-458.864 1128.97 2178
-454.905 1132.08 2184
-450.712 1134.67 2189
-445.478 1134.67 2189
-440.243 1134.67 2189
-434.412 1133.11 2186
-429.185 1133.11 2186
-423.958 1133.11 2186
-417.773 1130.52 2181
-412.557 1130.52 2181
-407.342 1130.52 2181
-402.126 1130.52 2181
-396.365 1128.97 2178
-390.079 1125.86 2172
-384.354 1124.3 2169
-379.167 1124.3 2169
-373.635 1123.26 2167
-368.453 1123.26 2167
-363.271 1123.26 2167
-358.089 1123.26 2167
-351.93 1120.15 2161
-346.763 1120.15 2161
-341.595 1120.15 2161
-336.427 1120.15 2161
-330.8 1118.6 2158
-325.64 1118.6 2158
-319.737 1116.01 2153
-314.588 1116.01 2153
-309.008 1114.45 2150
-303.867 1114.45 2150
-298.726 1114.45 2150
-292.765 1111.34 2144
-287.638 1111.34 2144
-282.511 1111.34 2144
-277.384 1111.34 2144
-273.4 1116.01 2153
-268.875 1118.6 2158
-263.714 1118.6 2158
-258.913 1120.15 2161
-253.746 1120.15 2161
-249.498 1124.3 2169
-244.312 1124.3 2169
-239.456 1125.86 2172
-234.262 1125.86 2172
-229.068 1125.86 2172
-223.565 1124.3 2169
-218.177 1123.26 2167
-212.995 1123.26 2167
-208.292 1125.86 2172
-203.098 1125.86 2172
-197.904 1125.86 2172
-192.71 1125.86 2172
-187.517 1125.86 2172
-181.903 1123.26 2167
-176.721 1123.26 2167
-171.302 1121.71 2164
-166.127 1121.71 2164
-160.729 1120.15 2161
-155.345 1118.6 2158
-149.837 1116.01 2153
-144.688 1116.01 2153
-139.345 1114.45 2150
-133.83 1111.34 2144
-128.703 1111.34 2144
-123.576 1111.34 2144
-118.449 1111.34 2144
-113.322 1111.34 2144
-108.649 1116.01 2153
-103.501 1116.01 2153
-98.3521 1116.01 2153
-93.2036 1116.01 2153
-88.0551 1116.01 2153
-82.6756 1112.9 2147
-77.5415 1112.9 2147
-72.4074 1112.9 2147
-67.3672 1114.45 2150
-62.2259 1114.45 2150
-57.1643 1116.01 2153
-52.0158 1116.01 2153
-47.2809 1125.86 2172
-42.2033 1128.97 2178
-36.995 1128.97 2178
-31.7868 1128.97 2178
-26.5053 1125.86 2172
-21.3114 1125.86 2172
-16.1175 1125.86 2172
-10.9085 1124.3 2169
86.5486 1110.31 2142
91.6707 1110.31 2142
96.7929 1110.31 2142
101.915 1110.31 2142
107.037 1110.31 2142
112.159 1110.31 2142
117.282 1110.31 2142
122.404 1110.31 2142
126.99 1105.64 2133
132.091 1105.64 2133
137.191 1105.64 2133
142.492 1107.2 2136
147.6 1107.2 2136
153.137 1110.31 2142
158.407 1111.34 2144
163.534 1111.34 2144
169.369 1116.01 2153
174.922 1118.6 2158
180.333 1120.15 2161
185.501 1120.15 2161
190.933 1121.71 2164
196.561 1124.3 2169
202.027 1125.86 2172
207.221 1125.86 2172
212.415 1125.86 2172
217.608 1125.86 2172
222.802 1125.86 2172
227.996 1125.86 2172
234.693 1133.11 2186
240.25 1134.67 2189
245.484 1134.67 2189
250.719 1134.67 2189
255.954 1134.67 2189
261.188 1134.67 2189
266.423 1134.67 2189
271.037 1132.08 2184
275.88 1130.52 2181
281.482 1132.08 2184
286.705 1132.08 2184
291.927 1132.08 2184
297.15 1132.08 2184
301.957 1130.52 2181
307.173 1130.52 2181
312.388 1130.52 2181
317.603 1130.52 2181
323.559 1133.11 2186
329.689 1136.22 2192
334.93 1136.22 2192
340.172 1136.22 2192
345.414 1136.22 2192
349.696 1133.11 2186
354.923 1133.11 2186
360.151 1133.11 2186
365.378 1133.11 2186
371.114 1134.67 2189
377.896 1139.33 2198
383.152 1139.33 2198
388.938 1140.89 2201
394.201 1140.89 2201
399.465 1140.89 2201
404.176 1139.33 2198
409.432 1139.33 2198
414.688 1139.33 2198
419.945 1139.33 2198
424.62 1137.78 2195
429.869 1137.78 2195
434.523 1136.22 2192
439.765 1136.22 2192
444.398 1134.67 2189
449.016 1133.11 2186
453.205 1130.52 2181
457.159 1127.41 2175
463.635 1130.52 2181
468.851 1130.52 2181
475.805 1134.67 2189
481.699 1136.22 2192
490.273 1144 2207
495.551 1144 2207
500.828 1144 2207
506.106 1144 2207
511.383 1144 2207
516.661 1144 2207
521.939 1144 2207
527.216 1144 2207
533.941 1147.11 2213
539.233 1147.11 2213
544.525 1147.11 2213
549.817 1147.11 2213
557.116 1151.26 2221
562.427 1151.26 2221
569.272 1154.37 2227
575.371 1155.92 2230
582.266 1159.03 2236
587.613 1159.03 2236
592.96 1159.03 2236
598.307 1159.03 2236
603.654 1159.03 2236
609.001 1159.03 2236
612.7 1155.92 2230
617.201 1154.37 2227
620.849 1151.26 2221
626.16 1151.26 2221
631.471 1151.26 2221
636.782 1151.26 2221
641.226 1149.7 2218
646.53 1149.7 2218
651.834 1149.7 2218
657.138 1149.7 2218
662.442 1149.7 2218
667.746 1149.7 2218
668.801 1142.44 2204
674.072 1142.44 2204
678.417 1140.89 2201
683.681 1140.89 2201
685.188 1134.67 2189
691.369 1136.22 2192
696.61 1136.22 2192
701.852 1136.22 2192
707.094 1136.22 2192
711.361 1134.67 2189
714.958 1132.08 2184
716.224 1125.86 2172
721.418 1125.86 2172
723.935 1121.71 2164
728.099 1120.15 2161
732.249 1118.6 2158
737.409 1118.6 2158
742.57 1118.6 2158
747.73 1118.6 2158
752.891 1118.6 2158
758.051 1118.6 2158
763.212 1118.6 2158
767.304 1117.04 2155
772.457 1117.04 2155
777.61 1117.04 2155
783.853 1118.6 2158
789.014 1118.6 2158
794.174 1118.6 2158
799.335 1118.6 2158
805.614 1120.15 2161
810.781 1120.15 2161
817.081 1121.71 2164
824.156 1124.3 2169
830.49 1125.86 2172
835.684 1125.86 2172
844.362 1130.52 2181
850.746 1132.08 2184
856.753 1133.11 2186
861.98 1133.11 2186
867.207 1133.11 2186
871.636 1132.08 2184
876.859 1132.08 2184
882.082 1132.08 2184
884.867 1128.97 2178
890.075 1128.97 2178
895.283 1128.97 2178
900.491 1128.97 2178
901.957 1124.3 2169
907.144 1124.3 2169
914.854 1127.41 2175
920.055 1127.41 2175
925.257 1127.41 2175
933.024 1130.52 2181
938.24 1130.52 2181
943.455 1130.52 2181
948.671 1130.52 2181
951.262 1127.41 2175
955.144 1125.86 2172
960.338 1125.86 2172
964.198 1124.3 2169
964.469 1118.6 2158
974.571 1124.3 2169
985.179 1130.52 2181
990.394 1130.52 2181
997.892 1133.11 2186
1003.12 1133.11 2186
1012.5 1137.78 2195
1017.75 1137.78 2195
1027.19 1142.44 2204
1032.46 1142.44 2204
1037.73 1142.44 2204
1043 1142.44 2204
1045.42 1139.33 2198
1047.81 1136.22 2192
1050.17 1133.11 2186
1058.29 1136.22 2192
1063.53 1136.22 2192
1068.77 1136.22 2192
1076.96 1139.33 2198
1085.17 1142.44 2204
1090.44 1142.44 2204
1104.16 1151.26 2221
1113.96 1155.92 2230
1119.3 1155.92 2230
1124.63 1155.92 2230
1128.44 1154.37 2227
1126.64 1147.11 2213
1131.93 1147.11 2213
1134.14 1144 2207
1139.42 1144 2207
1147.81 1147.11 2213
1153.1 1147.11 2213
1168.86 1157.48 2233
1174.2 1157.48 2233
1181.13 1159.03 2236
1189.66 1162.14 2242
1198.22 1165.25 2248
1203.59 1165.25 2248
1208.97 1165.25 2248
1212.72 1163.7 2245
1218.09 1163.7 2245
1213.65 1154.37 2227
1218.97 1154.37 2227
1219.35 1149.7 2218
1224.66 1149.7 2218
1223.86 1144 2207
1222.45 1137.78 2195
1227.7 1137.78 2195
1247.56 1151.26 2221
1252.87 1151.26 2221
1258.18 1151.26 2221
1266.9 1154.37 2227
1272.23 1154.37 2227
1277.55 1154.37 2227
1271.36 1144 2207
1267.96 1136.22 2192
1268.55 1132.08 2184
1273.78 1132.08 2184
1275.49 1128.97 2178
1280.69 1128.97 2178
1282.36 1125.86 2172
1287.55 1125.86 2172
1292.75 1125.86 2172
1293.16 1121.71 2164
1291.74 1116.01 2153
1291.46 1111.34 2144
1296.59 1111.34 2144
1300.5 1110.31 2142
1312.33 1116.01 2153
1317.48 1116.01 2153
1322.63 1116.01 2153
1327.78 1116.01 2153
1326.11 1110.31 2142
1332.48 1111.34 2144
1339.48 1112.9 2147
1344.61 1112.9 2147
1349.75 1112.9 2147
1363.71 1120.15 2161
1372.68 1123.26 2167
1377.87 1123.26 2167
1386.24 1125.86 2172
1402.32 1134.67 2189
1411.42 1137.78 2195
1416.66 1137.78 2195
1429.69 1144 2207
1438.87 1147.11 2213
1447.42 1149.7 2218
1454.69 1151.26 2221
1460 1151.26 2221
1465.31 1151.26 2221
1465.33 1147.11 2213
1470.62 1147.11 2213
1475.91 1147.11 2213
1481.2 1147.11 2213
1486.49 1147.11 2213
1497.18 1151.26 2221
1502.49 1151.26 2221
1507.8 1151.26 2221
1513.11 1151.26 2221
1518.42 1151.26 2221
1523.73 1151.26 2221
1529.04 1151.26 2221
1534.36 1151.26 2221
1539.67 1151.26 2221
1542.89 1149.7 2218
1536.33 1140.89 2201
1541.59 1140.89 2201
1555.29 1147.11 2213
1574.68 1157.48 2233
1580.02 1157.48 2233
1589.62 1160.59 2239
1597.11 1162.14 2242
1602.48 1162.14 2242
1607.84 1162.14 2242
1613.2 1162.14 2242
1632.28 1171.99 2261
1637.68 1171.99 2261
1643.09 1171.99 2261
1648.5 1171.99 2261
1653.9 1171.99 2261
1659.31 1171.99 2261
1655.15 1165.25 2248
1653.87 1160.59 2239
1659.23 1160.59 2239
1662.35 1159.03 2236
1667.7 1159.03 2236
1668.56 1155.92 2230
1673.89 1155.92 2230
1674.7 1152.81 2224
1680.02 1152.81 2224
1645.93 1125.86 2172
1645.05 1121.71 2164
1647.93 1120.15 2161
1653.1 1120.15 2161
-1573.07 1094.09 2101
-1568.05 1094.09 2101
-1563.02 1094.09 2101
-1558 1094.09 2101
-1556.67 1096.69 2106
-1551.63 1096.69 2106
-1551 1099.81 2112
-1545.95 1099.81 2112
-1542.36 1100.86 2114
-1537.31 1100.86 2114
-1536.6 1103.98 2120
-1532.98 1105.02 2122
-1530.06 1106.58 2125
-1524.98 1106.58 2125
-1522.04 1108.15 2128
-1516.96 1108.15 2128
-1511.87 1108.15 2128
-1506.78 1108.15 2128
-1501.69 1108.15 2128
-1496.6 1108.15 2128
-1491.51 1108.15 2128
-1484.33 1106.58 2125
-1477.16 1105.02 2122
-1466.53 1100.86 2114
-1461.48 1100.86 2114
-1456.42 1100.86 2114
-1456.86 1105.02 2122
-1453.84 1106.58 2125
-1452.85 1109.71 2131
-1447.75 1109.71 2131
-1442.66 1109.71 2131
-1437.56 1109.71 2131
-1432.46 1109.71 2131
-1427.37 1109.71 2131
-1422.27 1109.71 2131
-1417.18 1109.71 2131
-1412.08 1109.71 2131
-1406.98 1109.71 2131
-1401.89 1109.71 2131
-1400.07 1112.31 2136
-1400.19 1116.48 2144
-1395.06 1116.48 2144
-1391.88 1118.04 2147
-1386.74 1118.04 2147
-1383.54 1119.6 2150
-1378.4 1119.6 2150
-1375.17 1121.16 2153
-1370.03 1121.16 2153
-1366.15 1122.21 2155
-1360.99 1122.21 2155
-1361.5 1126.89 2164
-1356.33 1126.89 2164
-1351.15 1126.89 2164
-1345.98 1126.89 2164
-1340.8 1126.89 2164
-1344.27 1134.18 2178
-1340.9 1135.75 2181
-1335.69 1135.75 2181
-1337.18 1141.47 2192
-1333.76 1143.04 2195
-1339.41 1152.41 2213
-1334.12 1152.41 2213
-1340.84 1162.82 2233
-1335.5 1162.82 2233
-1330.16 1162.82 2233
-1324.82 1162.82 2233
-1312.39 1156.58 2221
-1303.54 1153.45 2215
-1298.25 1153.45 2215
-1291.78 1152.41 2213
-1283 1149.29 2207
-1277.72 1149.29 2207
-1272.45 1149.29 2207
-1262 1144.6 2198
-1256.75 1144.6 2198
-1251.49 1144.6 2198
-1246.23 1144.6 2198
-1234.2 1138.35 2186
-1224.48 1134.18 2178
-1217.59 1132.62 2175
-1212.39 1132.62 2175
-1205.52 1131.06 2172
-1192.59 1123.77 2158
-1187.43 1123.77 2158
-1174.6 1116.48 2144
-1169.47 1116.48 2144
-1158.37 1110.75 2133
-1153.27 1110.75 2133
-1148.17 1110.75 2133
-1144.68 1112.31 2136
-1139.57 1112.31 2136
-1134.46 1112.31 2136
-1130.94 1113.87 2139
-1125.83 1113.87 2139
-1120.71 1113.87 2139
-1115.6 1113.87 2139
-1110.48 1113.87 2139
-1105.37 1113.87 2139
-1098.71 1112.31 2136
-1096.67 1115.44 2142
-1094.1 1118.04 2147
-1088.96 1118.04 2147
-1083.83 1118.04 2147
-1078.7 1118.04 2147
-1076.56 1121.16 2153
-1073.9 1123.77 2158
-1068.74 1123.77 2158
-1065.06 1125.33 2161
-1061.36 1126.89 2164
-1056.19 1126.89 2164
-1051.01 1126.89 2164
-1047.29 1128.46 2167
-1042.11 1128.46 2167
-1042.19 1134.18 2178
-1036.98 1134.18 2178
-1038.4 1141.47 2192
-1033.16 1141.47 2192
-1027.92 1141.47 2192
-1022.68 1141.47 2192
-1017.44 1141.47 2192
-1009.43 1138.35 2186
-1004.2 1138.35 2186
-998.056 1137.31 2184
-988.742 1132.62 2175
-979.924 1128.46 2167
-974.742 1128.46 2167
-969.56 1128.46 2167
-961.708 1125.33 2161
-952.999 1121.16 2153
-947.851 1121.16 2153
-942.702 1121.16 2153
-937.554 1121.16 2153
-933.271 1122.21 2155
-928.118 1122.21 2155
-922.965 1122.21 2155
-917.812 1122.21 2155
-912.658 1122.21 2155
-902.873 1116.48 2144
-897.746 1116.48 2144
-890.537 1113.87 2139
-885.422 1113.87 2139
-879.073 1112.31 2136
-873.965 1112.31 2136
-868.857 1112.31 2136
-862.536 1110.75 2133
-856.631 1109.71 2131
-851.535 1109.71 2131
-846.44 1109.71 2131
-842.133 1110.75 2133
-838.21 1112.31 2136
-833.102 1112.31 2136
-827.994 1112.31 2136
-822.886 1112.31 2136
