ply
format ascii 1.0
comment File generated
element vertex 2257
property float x
property float y
property float z
end_header
-200.937 962.535 2990
-193.787 962.535 2990
-186.637 962.535 2990
-134.586 721.741 2242
-129.224 721.741 2242
-123.863 721.741 2242
-118.66 722.706 2245
-113.292 722.706 2245
-108.067 723.672 2248
-102.692 723.672 2248
-97.7058 726.569 2257
-92.3086 726.569 2257
-86.9115 726.569 2257
-81.5143 726.569 2257
-76.1171 726.569 2257
-70.6259 725.604 2254
-65.2359 725.604 2254
-60.2708 730.754 2270
-54.8425 730.754 2270
-49.4795 731.72 2273
-44.2185 734.617 2282
-38.8635 736.549 2288
-33.3922 736.549 2288
-27.9697 737.837 2292
-22.5771 740.734 2301
-17.097 741.7 2304
-11.5874 741.7 2304
-6.08578 742.665 2307
-0.571515 745.885 2317
4.97557 746.85 2320
10.5234 746.85 2320
16.1197 749.104 2327
21.7775 752.323 2337
27.4362 754.254 2343
33.039 754.254 2343
38.8562 758.439 2356
44.4901 758.439 2356
50.1241 758.439 2356
55.758 758.439 2356
61.3919 758.439 2356
66.7413 755.22 2346
72.3513 755.22 2346
77.9613 755.22 2346
83.5713 755.22 2346
89.0672 754.254 2343
94.6701 754.254 2343
100.273 754.254 2343
105.876 754.254 2343
111.479 754.254 2343
117.081 754.254 2343
206.067 994.405 3089
222.989 1038.83 3227
230.706 1038.83 3227
238.423 1038.83 3227
246.14 1038.83 3227
253.856 1038.83 3227
259.547 1030.78 3202
263.699 1017.26 3160
271.255 1017.26 3160
270.077 985.392 3061
273.862 972.837 3022
281.089 972.837 3022
288.315 972.837 3022
295.542 972.837 3022
302.768 972.837 3022
322.47 988.933 3072
329.816 988.933 3072
337.162 988.933 3072
344.508 988.933 3072
351.854 988.933 3072
358.616 987.323 3067
457.547 1011.47 3142
465.06 1011.47 3142
472.574 1011.47 3142
481.004 1013.4 3148
488.532 1013.4 3148
496.06 1013.4 3148
503.588 1013.4 3148
511.115 1013.4 3148
518.643 1013.4 3148
526.171 1013.4 3148
530.647 1007.6 3130
535.037 1001.81 3112
542.479 1001.81 3112
547.977 998.268 3101
552.348 992.796 3084
550.466 976.378 3033
555.696 972.837 3022
562.923 972.837 3022
567.131 967.686 3006
572.217 964.145 2995
580.347 965.755 3000
587.521 965.755 3000
594.694 965.755 3000
603.072 967.686 3006
614.727 974.768 3028
621.968 974.768 3028
629.208 974.768 3028
636.449 974.768 3028
643.69 974.768 3028
650.931 974.768 3028
656.868 972.837 3022
664.094 972.837 3022
670.21 971.227 3017
677.425 971.227 3017
682.143 967.686 3006
690.478 969.296 3011
700.227 972.837 3022
708.858 974.768 3028
716.099 974.768 3028
723.34 974.768 3028
730.581 974.768 3028
903.739 1040.76 3233
915.135 1044.95 3246
922.898 1044.95 3246
930.66 1044.95 3246
938.422 1044.95 3246
944.144 1042.69 3239
951.889 1042.69 3239
956.079 1038.83 3227
963.796 1038.83 3227
992.813 1036.9 3221
1000.52 1036.9 3221
1008.22 1036.9 3221
1017.81 1038.83 3227
1025.53 1038.83 3227
1033.25 1038.83 3227
1040.96 1038.83 3227
1048.68 1038.83 3227
1050.18 1032.71 3208
1055.87 1030.78 3202
1055.56 1023.06 3178
1063.15 1023.06 3178
1040.77 994.405 3089
1034.92 981.851 3050
1038.46 978.309 3039
1047.44 979.919 3044
1054.72 979.919 3044
1062 979.919 3044
1077.36 987.323 3067
1086.46 988.933 3072
1093.81 988.933 3072
1101.15 988.933 3072
1108.5 988.933 3072
1111.85 985.392 3061
1119.17 985.392 3061
1126.49 985.392 3061
1123.44 976.378 3033
1132.93 978.309 3039
1140.2 978.309 3039
1147.46 978.309 3039
1165.37 987.323 3067
1183.41 996.337 3095
1199.66 1003.74 3118
1207.12 1003.74 3118
1214.57 1003.74 3118
1226.73 1007.6 3130
1234.22 1007.6 3130
1241.7 1007.6 3130
1318.67 1032.71 3208
1326.34 1032.71 3208
1334.02 1032.71 3208
1341.69 1032.71 3208
1339.26 1024.99 3184
1336.72 1017.26 3160
1344.28 1017.26 3160
1351.84 1017.26 3160
1359.39 1017.26 3160
1366.95 1017.26 3160
1374.51 1017.26 3160
1379.44 1015.33 3154
1392.26 1019.19 3166
1407.79 1024.99 3184
1415.4 1024.99 3184
1423.02 1024.99 3184
1430.63 1024.99 3184
1435.53 1023.06 3178
1445.86 1024.99 3184
1453.47 1024.99 3184
1461.09 1024.99 3184
1468.7 1024.99 3184
1476.31 1024.99 3184
1483.93 1024.99 3184
1485.92 1021.12 3172
1493.5 1021.12 3172
1503.93 1023.06 3178
1511.53 1023.06 3178
1519.13 1023.06 3178
1532.49 1026.92 3190
1540.12 1026.92 3190
1547.75 1026.92 3190
1555.38 1026.92 3190
1563.01 1026.92 3190
1570.63 1026.92 3190
1578.26 1026.92 3190
1585.89 1026.92 3190
1587.52 1023.06 3178
1592.11 1021.12 3172
1602.72 1023.06 3178
1610.32 1023.06 3178
1617.92 1023.06 3178
1672.94 1028.85 3196
1680.58 1028.85 3196
1688.23 1028.85 3196
1695.87 1028.85 3196
1716.84 1036.9 3221
1727.75 1038.83 3227
1735.47 1038.83 3227
1743.19 1038.83 3227
1740.59 1032.71 3208
1748.27 1032.71 3208
1749.37 1028.85 3196
1743.82 1021.12 3172
1728.21 1007.6 3130
1735.7 1007.6 3130
1743.18 1007.6 3130
1750.67 1007.6 3130
1758.15 1007.6 3130
1765.64 1007.6 3130
1773.12 1007.6 3130
1770.37 1001.81 3112
1768.1 996.337 3095
1765.74 990.864 3078
1773.1 990.864 3078
1760.8 979.919 3044
1765.17 978.309 3039
1772.44 978.309 3039
1779.71 978.309 3039
1780.51 974.768 3028
1787.75 974.768 3028
1784.91 969.296 3011
1792.11 969.296 3011
1799.31 969.296 3011
1814.26 965.755 3000
1825.08 967.686 3006
1832.26 967.686 3006
1842.51 969.296 3011
1887.19 988.933 3072
1905.02 994.405 3089
1912.4 994.405 3089
1919.79 994.405 3089
1924.06 992.796 3084
1931.43 992.796 3084
1928.12 987.323 3067
1920.94 979.919 3044
1918.08 974.768 3028
1907.52 965.755 3000
1914.69 965.755 3000
1901.37 955.453 2968
1908.47 955.453 2968
1922.66 958.994 2979
1929.79 958.994 2979
1936.91 958.994 2979
1951.21 962.535 2990
1958.36 962.535 2990
1965.51 962.535 2990
1958.15 955.453 2968
1951.34 948.693 2947
1951.74 945.474 2937
1958.76 945.474 2937
1965.79 945.474 2937
1972.81 945.474 2937
1979.83 945.474 2937
2179.4 978.309 3039
2198.18 983.46 3055
2205.49 983.46 3055
2212.79 983.46 3055
2228.82 987.323 3067
2236.15 987.323 3067
2243.49 987.323 3067
-1977.09 1007.64 3107
-1969.66 1007.64 3107
-1976.75 1015.1 3130
-1969.27 1015.1 3130
-1961.78 1015.1 3130
-1950.55 1013.16 3124
-1943.08 1013.16 3124
-1928.18 1009.26 3112
-1917.65 1007.64 3107
-1910.22 1007.64 3107
-1902.79 1007.64 3107
-1884.38 1001.81 3089
-1873.95 1000.18 3084
-1862.95 998.238 3078
-1851.97 996.292 3072
-1844.62 996.292 3072
-1827.11 990.778 3055
-1810.27 985.589 3039
-1773.94 969.698 2990
-1766.79 969.698 2990
-1725.5 950.888 2932
-1703.25 942.456 2906
-1699.22 944.077 2911
-1692.26 944.077 2911
-1685.3 944.077 2911
-1678.34 944.077 2911
-1671.38 944.077 2911
-1664.42 944.077 2911
-1657.46 944.077 2911
-1650.49 944.077 2911
-1643.53 944.077 2911
-1636.57 944.077 2911
-1626.81 942.456 2906
-1619.86 942.456 2906
-1607.36 939.213 2896
-1600.44 939.213 2896
-1332.65 940.834 2901
-1328 942.456 2906
-1321.05 942.456 2906
-1314.1 942.456 2906
-1307.15 942.456 2906
-1300.2 942.456 2906
-1293.25 942.456 2906
-1113.08 1005.7 3101
-1105.66 1005.7 3101
-1100.37 1007.64 3107
-1092.94 1007.64 3107
-1085.51 1007.64 3107
-1076 1005.7 3101
-1064.45 1001.81 3089
-1051.25 996.292 3072
-1042.2 994.67 3067
-1034.87 994.67 3067
-1023.51 990.778 3055
-1005.23 980.076 3022
-996.354 978.454 3017
-989.139 978.454 3017
-978.344 974.887 3006
-969.218 972.941 3000
-962.044 972.941 3000
-956.78 974.887 3006
-949.591 974.887 3006
-947.419 980.076 3022
-943.615 983.643 3033
-936.362 983.643 3033
-929.109 983.643 3033
-927.024 989.157 3050
-923.047 992.724 3061
-915.727 992.724 3061
-908.408 992.724 3061
-899.322 990.778 3055
-888.804 987.211 3044
-881.525 987.211 3044
-872.81 985.589 3039
-860.701 980.076 3022
-852.062 978.454 3017
-844.848 978.454 3017
-837.633 978.454 3017
-825.74 972.941 3000
-814.2 967.752 2984
-807.064 967.752 2984
-799.929 967.752 2984
-797.044 972.941 3000
-789.87 972.941 3000
-782.696 972.941 3000
-774.23 971.32 2995
-758.872 960.942 2963
-746.458 954.131 2942
-740.68 955.753 2947
-733.633 955.753 2947
-726.585 955.753 2947
-722.224 959.32 2958
-715.151 959.32 2958
-708.077 959.32 2958
-701.004 959.32 2958
-693.93 959.32 2958
-685.696 957.698 2953
-679.783 959.32 2958
-672.71 959.32 2958
-665.636 959.32 2958
-658.563 959.32 2958
-651.489 959.32 2958
-644.416 959.32 2958
-637.342 959.32 2958
-630.269 959.32 2958
-623.195 959.32 2958
-616.122 959.32 2958
-617.696 972.941 3000
-612.761 976.509 3011
-606.767 978.454 3017
-599.553 978.454 3017
-592.338 978.454 3017
-587.257 982.022 3028
-580.974 983.643 3033
-573.721 983.643 3033
-567.589 985.589 3039
-560.322 985.589 3039
-555.966 990.778 3055
-548.661 990.778 3055
-542.419 992.724 3061
-535.099 992.724 3061
-527.779 992.724 3061
-520.459 992.724 3061
-515.989 998.238 3078
-508.629 998.238 3078
-502.246 1000.18 3084
-494.871 1000.18 3084
-487.496 1000.18 3084
-477.475 994.67 3067
-464.929 983.643 3033
-457.676 983.643 3033
-447.156 976.509 3011
-436.011 967.752 2984
-428.875 967.752 2984
-421.739 967.752 2984
-414.604 967.752 2984
-403.235 957.698 2953
-394.698 954.131 2942
-387.662 954.131 2942
-380.627 954.131 2942
-373.592 954.131 2942
-365.311 950.888 2932
-358.911 952.509 2937
-351.887 952.509 2937
-346.038 955.753 2947
-338.991 955.753 2947
-331.944 955.753 2947
-324.346 954.131 2942
-316.771 952.509 2937
-310.275 954.131 2942
-305.92 962.563 2968
-299.426 964.509 2974
-292.315 964.509 2974
-286.162 967.752 2984
-279.026 967.752 2984
-272.893 971.32 2995
-265.731 971.32 2995
-258.569 971.32 2995
-252.75 976.509 3011
-245.55 976.509 3011
-238.35 976.509 3011
-231.15 976.509 3011
-223.949 976.509 3011
-216.749 976.509 3011
-208.087 969.698 2990
-200.937 969.698 2990
-193.787 969.698 2990
-186.637 969.698 2990
-134.586 727.111 2242
-129.916 731.003 2254
-124.526 731.003 2254
-119.294 731.976 2257
-113.897 731.976 2257
-108.692 733.273 2261
-103.286 733.273 2261
-98.0088 734.246 2264
-92.5949 734.246 2264
-87.181 734.246 2264
-81.6587 733.273 2261
-76.252 733.273 2261
-70.7199 731.976 2257
-65.3228 731.976 2257
-60.3504 737.165 2273
-54.915 737.165 2273
-49.4795 737.165 2273
-44.2185 740.084 2282
-38.8635 742.03 2288
-33.3922 742.03 2288
-27.9697 743.327 2292
-22.5771 746.246 2301
-17.097 747.219 2304
-11.5874 747.219 2304
-6.08578 748.192 2307
-0.571515 751.435 2317
4.97557 752.408 2320
10.5234 752.408 2320
16.1197 754.678 2327
21.7775 757.921 2337
27.4362 759.867 2343
33.039 759.867 2343
38.8562 764.083 2356
44.4901 764.083 2356
50.1241 764.083 2356
55.758 764.083 2356
61.3919 764.083 2356
66.9404 763.11 2353
72.5672 763.11 2353
77.9613 760.84 2346
83.5713 760.84 2346
89.1813 760.84 2346
94.7913 760.84 2346
100.273 759.867 2343
105.74 758.894 2340
111.336 758.894 2340
116.931 758.894 2340
206.067 1001.81 3089
213.453 1001.81 3089
220.84 1001.81 3089
228.227 1001.81 3089
241.029 1024.83 3160
248.586 1024.83 3160
256.142 1024.83 3160
255.938 994.67 3067
263.272 994.67 3067
270.077 992.724 3061
275.856 987.211 3044
282.67 985.589 3039
289.937 985.589 3039
295.542 980.076 3022
302.768 980.076 3022
312.252 987.211 3044
322.47 996.292 3072
329.816 996.292 3072
337.162 996.292 3072
344.508 996.292 3072
351.854 996.292 3072
358.616 994.67 3067
365.95 994.67 3067
373.892 996.292 3072
381.239 996.292 3072
388.585 996.292 3072
455.799 1015.1 3130
463.284 1015.1 3130
471.671 1017.05 3136
479.171 1017.05 3136
486.67 1017.05 3136
494.169 1017.05 3136
501.668 1017.05 3136
508.193 1015.1 3130
515.678 1015.1 3130
523.162 1015.1 3130
527.596 1009.26 3112
533.146 1005.7 3101
540.562 1005.7 3101
544.973 1000.18 3084
549.303 994.67 3067
550.466 983.643 3033
552.754 974.887 3006
559.943 974.887 3006
562.98 967.752 2984
570.116 967.752 2984
576.284 966.131 2979
583.408 966.131 2979
590.532 966.131 2979
598.658 967.752 2984
609.042 972.941 3000
617.449 974.887 3006
624.637 974.887 3006
632.876 976.509 3011
640.076 976.509 3011
647.277 976.509 3011
653.39 974.887 3006
660.578 974.887 3006
667.766 974.887 3006
674.955 974.887 3006
677.151 967.752 2984
684.286 967.752 2984
692.812 969.698 2990
703.708 974.887 3006
710.896 974.887 3006
718.084 974.887 3006
725.273 974.887 3006
725.882 966.131 2979
733.005 966.131 2979
737.396 962.563 2968
750.012 969.698 2990
758.428 971.32 2995
765.59 971.32 2995
772.752 971.32 2995
805.997 994.67 3067
826.856 1011.21 3118
834.312 1011.21 3118
849.867 1020.94 3148
863.932 1028.72 3172
874.814 1032.61 3184
882.428 1032.61 3184
903.739 1048.51 3233
911.47 1048.51 3233
920.907 1050.45 3239
928.653 1050.45 3239
936.398 1050.45 3239
944.144 1050.45 3239
951.889 1050.45 3239
956.079 1046.56 3227
959.913 1042.34 3214
992.813 1044.61 3221
1000.52 1044.61 3221
1008.22 1044.61 3221
1015.92 1044.61 3221
1023.62 1044.61 3221
1031.33 1044.61 3221
1034.83 1040.4 3208
1042.51 1040.4 3208
1042.32 1032.61 3184
1047.96 1030.67 3178
1031.97 1007.64 3107
1039.4 1007.64 3107
1040.77 1001.81 3089
1034.92 989.157 3050
1038.46 985.589 3039
1047.44 987.211 3044
1054.72 987.211 3044
1062 987.211 3044
1077.36 994.67 3067
1086.46 996.292 3072
1093.81 996.292 3072
1101.15 996.292 3072
1108.5 996.292 3072
1111.85 992.724 3061
1119.17 992.724 3061
1126.49 992.724 3061
1123.44 983.643 3033
1132.93 985.589 3039
1140.2 985.589 3039
1147.46 985.589 3039
1165.37 994.67 3067
1183.41 1003.75 3095
1197.35 1009.26 3112
1204.79 1009.26 3112
1212.24 1009.26 3112
1219.68 1009.26 3112
1227.12 1009.26 3112
1234.56 1009.26 3112
1318.67 1040.4 3208
1326.34 1040.4 3208
1334.02 1040.4 3208
1294.43 1003.75 3095
1301.83 1003.75 3095
1314.3 1007.64 3107
1326.41 1011.21 3118
1333.87 1011.21 3118
1341.33 1011.21 3118
1348.78 1011.21 3118
1358.85 1013.16 3124
1366.32 1013.16 3124
1379.07 1017.05 3136
1397.18 1024.83 3160
1404.73 1024.83 3160
1412.29 1024.83 3160
1419.85 1024.83 3160
1424.69 1022.89 3154
1434.96 1024.83 3160
1442.52 1024.83 3160
1450.07 1024.83 3160
1457.63 1024.83 3160
1465.19 1024.83 3160
1472.74 1024.83 3160
1477.49 1022.89 3154
1479.38 1018.99 3142
1492.57 1022.89 3154
1508.68 1028.72 3172
1516.26 1028.72 3172
1526.73 1030.67 3178
1534.33 1030.67 3178
1547.75 1034.56 3190
1555.38 1034.56 3190
1563.01 1034.56 3190
1549.95 1020.94 3148
1557.48 1020.94 3148
1565.01 1020.94 3148
1563.55 1015.1 3130
1583.08 1022.89 3154
1590.62 1022.89 3154
1598.16 1022.89 3154
1605.7 1022.89 3154
1660.38 1028.72 3172
1671.12 1030.67 3178
1678.72 1030.67 3178
1686.32 1030.67 3178
1716.84 1044.61 3221
1727.75 1046.56 3227
1735.47 1046.56 3227
1743.19 1046.56 3227
1740.59 1040.4 3208
1748.27 1040.4 3208
1749.37 1036.51 3196
1743.82 1028.72 3172
1744.78 1024.83 3160
1762.31 1030.67 3178
1769.91 1030.67 3178
1777.51 1030.67 3178
1761.52 1017.05 3136
1765.64 1015.1 3130
1773.12 1015.1 3130
1770.37 1009.26 3112
1768.1 1003.75 3095
1765.74 998.238 3078
1773.1 998.238 3078
1760.8 987.211 3044
1768.08 987.211 3044
1775.36 987.211 3044
1782.64 987.211 3044
1786.97 985.589 3039
1790.7 983.643 3033
1784.91 976.509 3011
1792.11 976.509 3011
1799.31 976.509 3011
1817.89 974.887 3006
1825.08 974.887 3006
1832.26 974.887 3006
1842.51 976.509 3011
1894.56 1000.18 3084
1905.02 1001.81 3089
1912.4 1001.81 3089
1919.79 1001.81 3089
1924.06 1000.18 3084
1931.43 1000.18 3084
1928.12 994.67 3067
1924.72 989.157 3050
1918.08 982.022 3028
1943.31 976.509 3011
1954.4 978.454 3017
1961.62 978.454 3017
1968.83 978.454 3017
1964.91 972.941 3000
1972.09 972.941 3000
1958.15 962.563 2968
1965.24 962.563 2968
1958.39 955.753 2947
1962.1 954.131 2942
1969.13 954.131 2942
1972.81 952.509 2937
1979.83 952.509 2937
-1977.09 1015.09 3107
-1969.66 1015.09 3107
-1976.75 1022.6 3130
-1969.27 1022.6 3130
-1961.78 1022.6 3130
-1950.55 1020.64 3124
-1943.08 1020.64 3124
-1928.18 1016.72 3112
-1917.65 1015.09 3107
-1910.22 1015.09 3107
-1902.79 1015.09 3107
-1888.04 1011.17 3095
-1876.99 1009.2 3089
-1869.61 1009.2 3089
-1855.59 1005.61 3078
-1848.23 1005.61 3078
-1834.29 1002.02 3067
-1816.83 996.463 3050
-1803.01 992.869 3039
-1795.74 992.869 3039
-1731.39 961.179 2942
-1709.7 953.011 2917
-1702.72 953.011 2917
-1695.75 953.011 2917
-1685.3 951.051 2911
-1675.46 949.417 2906
-1671.38 951.051 2911
-1664.42 951.051 2911
-1657.46 951.051 2911
-1647.66 949.417 2906
-1640.71 949.417 2906
-1633.76 949.417 2906
-1626.81 949.417 2906
-1614.29 946.15 2896
-1607.36 946.15 2896
-1600.44 946.15 2896
-1351.17 951.051 2911
-1344.21 951.051 2911
-1337.25 951.051 2911
-1330.28 951.051 2911
-1326.05 953.011 2917
-1319.08 953.011 2917
-1312.1 953.011 2917
-1300.2 949.417 2906
-1293.25 949.417 2906
-1164.88 930.141 2847
-1158.07 930.141 2847
-1151.26 930.141 2847
-1144.45 930.141 2847
-1113.08 1013.13 3101
-1105.66 1013.13 3101
-1100.37 1015.09 3107
-1092.94 1015.09 3107
-1085.51 1015.09 3107
-1076 1013.13 3101
-1060.66 1005.61 3078
-1049.54 1002.02 3067
-1042.2 1002.02 3067
-1034.87 1002.02 3067
-1021.84 996.463 3050
-1005.23 987.315 3022
-996.354 985.682 3017
-989.139 985.682 3017
-978.344 982.088 3006
-969.218 980.128 3000
-962.044 980.128 3000
-956.78 982.088 3006
-949.591 982.088 3006
-947.419 987.315 3022
-943.615 990.909 3033
-936.362 990.909 3033
-929.109 990.909 3033
-927.024 996.463 3050
-923.047 1000.06 3061
-915.727 1000.06 3061
-908.408 1000.06 3061
-899.322 998.097 3055
-888.804 994.503 3044
-881.525 994.503 3044
-869.651 989.276 3028
-857.568 983.721 3011
-850.368 983.721 3011
-843.168 983.721 3011
-832.913 980.128 3000
-819.959 973.267 2979
-808.47 968.039 2963
-801.385 968.039 2963
-792.959 966.406 2958
-785.885 966.406 2958
-778.812 966.406 2958
-770.434 964.772 2953
-763.372 964.772 2953
-752.213 959.545 2937
-738.593 951.051 2911
-729.118 947.783 2901
-722.181 947.783 2901
-715.244 947.783 2901
-710.749 951.051 2911
-705.238 953.011 2917
-698.263 953.011 2917
-691.287 953.011 2917
-685.485 954.644 2922
-679.658 956.278 2927
-673.808 957.911 2932
-666.797 957.911 2932
-659.785 957.911 2932
-653.887 959.545 2937
-649.067 962.812 2947
-642.019 962.812 2947
-634.972 962.812 2947
-627.925 962.812 2947
-623.195 966.406 2958
-616.122 966.406 2958
-617.696 980.128 3000
-612.761 983.721 3011
-606.767 985.682 3017
-599.553 985.682 3017
-592.338 985.682 3017
-587.257 989.276 3028
-580.974 990.909 3033
-573.721 990.909 3033
-567.589 992.869 3039
-560.322 992.869 3039
-555.966 998.097 3055
-548.661 998.097 3055
-542.419 1000.06 3061
-535.099 1000.06 3061
-527.779 1000.06 3061
-520.459 1000.06 3061
-515.989 1005.61 3078
-508.629 1005.61 3078
-502.246 1007.57 3084
-494.871 1007.57 3084
-487.496 1007.57 3084
-477.475 1002.02 3067
-464.929 990.909 3033
-457.676 990.909 3033
-447.156 983.721 3011
-436.011 974.9 2984
-428.875 974.9 2984
-421.739 974.9 2984
-414.604 974.9 2984
-403.235 964.772 2953
-394.698 961.179 2942
-387.662 961.179 2942
-380.627 961.179 2942
-373.592 961.179 2942
-365.311 957.911 2932
-358.911 959.545 2937
-351.887 959.545 2937
-346.038 962.812 2947
-338.991 962.812 2947
-331.944 962.812 2947
-324.346 961.179 2942
-316.771 959.545 2937
-310.275 961.179 2942
-305.92 969.673 2968
-299.426 971.633 2974
-292.315 971.633 2974
-286.162 974.9 2984
-279.026 974.9 2984
-272.893 978.494 2995
-265.731 978.494 2995
-258.569 978.494 2995
-252.75 983.721 3011
-245.55 983.721 3011
-238.35 983.721 3011
-230.305 980.128 3000
-221.941 974.9 2984
-215.237 976.861 2990
-208.087 976.861 2990
-200.937 976.861 2990
-193.787 976.861 2990
-186.637 976.861 2990
-134.586 732.482 2242
-129.916 736.403 2254
-124.526 736.403 2254
-119.294 737.383 2257
-113.897 737.383 2257
-108.692 738.69 2261
-103.286 738.69 2261
-98.1387 740.65 2267
-92.7176 740.65 2267
-87.2965 740.65 2267
-81.8754 740.65 2267
-76.252 738.69 2261
-70.8453 738.69 2261
-65.4385 738.69 2261
-60.3504 742.61 2273
-54.915 742.61 2273
-49.5449 743.59 2276
-44.2185 745.55 2282
-38.8635 747.511 2288
-33.3922 747.511 2288
-27.9697 748.818 2292
-22.5771 751.758 2301
-17.097 752.738 2304
-11.5874 752.738 2304
-6.08578 753.718 2307
-0.571515 756.985 2317
4.97557 757.965 2320
10.5234 757.965 2320
16.1197 760.252 2327
21.7775 763.519 2337
27.4362 765.48 2343
33.039 765.48 2343
38.8562 769.727 2356
44.5657 771.034 2360
50.2092 771.034 2360
55.8526 771.034 2360
61.3919 769.727 2356
67.0258 769.727 2356
72.6597 769.727 2356
78.1939 768.747 2353
83.8206 768.747 2353
89.3333 767.767 2350
94.9529 767.767 2350
100.572 767.767 2350
106.192 767.767 2350
111.336 764.5 2340
116.931 764.5 2340
206.067 1009.2 3089
213.453 1009.2 3089
220.84 1009.2 3089
228.227 1009.2 3089
241.029 1032.4 3160
248.586 1032.4 3160
256.142 1032.4 3160
255.938 1002.02 3067
263.272 1002.02 3067
270.606 1002.02 3067
276.853 998.097 3055
283.135 994.503 3044
290.414 994.503 3044
297.204 992.869 3039
302.768 987.315 3022
312.252 994.503 3044
322.47 1003.65 3072
329.816 1003.65 3072
337.162 1003.65 3072
344.508 1003.65 3072
351.854 1003.65 3072
358.616 1002.02 3067
365.95 1002.02 3067
375.353 1007.57 3084
383.348 1009.2 3089
390.735 1009.2 3089
398.122 1009.2 3089
445.02 1015.09 3107
455.799 1022.6 3130
463.284 1022.6 3130
471.671 1024.56 3136
479.171 1024.56 3136
486.67 1024.56 3136
494.169 1024.56 3136
501.668 1024.56 3136
508.193 1022.6 3130
515.678 1022.6 3130
523.162 1022.6 3130
527.596 1016.72 3112
533.146 1013.13 3101
540.562 1013.13 3101
544.973 1007.57 3084
549.303 1002.02 3067
550.466 990.909 3033
552.754 982.088 3006
559.943 982.088 3006
562.98 974.9 2984
570.116 974.9 2984
576.284 973.267 2979
583.408 973.267 2979
590.532 973.267 2979
598.658 974.9 2984
609.042 980.128 3000
617.449 982.088 3006
624.637 982.088 3006
632.876 983.721 3011
640.076 983.721 3011
647.277 983.721 3011
653.39 982.088 3006
660.578 982.088 3006
667.766 982.088 3006
674.955 982.088 3006
677.151 974.9 2984
684.286 974.9 2984
692.812 976.861 2990
703.708 982.088 3006
710.896 982.088 3006
718.084 982.088 3006
725.273 982.088 3006
725.882 973.267 2979
733.005 973.267 2979
737.396 969.673 2968
750.012 976.861 2990
758.428 978.494 2995
765.59 978.494 2995
772.752 978.494 2995
784.081 983.721 3011
805.997 1002.02 3067
826.856 1018.68 3118
834.312 1018.68 3118
849.867 1028.48 3148
863.932 1036.32 3172
874.814 1040.24 3184
882.428 1040.24 3184
903.739 1056.25 3233
911.47 1056.25 3233
920.907 1058.21 3239
928.653 1058.21 3239
936.398 1058.21 3239
944.144 1058.21 3239
951.889 1058.21 3239
956.079 1054.29 3227
959.913 1050.04 3214
992.813 1052.33 3221
1000.52 1052.33 3221
1008.22 1052.33 3221
1015.92 1052.33 3221
1023.62 1052.33 3221
1031.33 1052.33 3221
1034.83 1048.08 3208
1042.51 1048.08 3208
1042.32 1040.24 3184
1047.96 1038.28 3178
1031.97 1015.09 3107
1039.4 1015.09 3107
1040.77 1009.2 3089
1034.92 996.463 3050
1038.46 992.869 3039
1045.72 992.869 3039
1054.72 994.503 3044
1062 994.503 3044
1073.14 998.097 3055
1082.57 1000.06 3061
1089.89 1000.06 3061
1097.21 1000.06 3061
1104.53 1000.06 3061
1111.85 1000.06 3061
1119.17 1000.06 3061
1116.19 990.909 3033
1121.59 989.276 3028
1122.49 983.721 3011
1140.2 992.869 3039
1147.46 992.869 3039
1163.09 1000.06 3061
1179.2 1007.57 3084
1188.5 1009.2 3089
1195.89 1009.2 3089
1203.28 1009.2 3089
1219.68 1016.72 3112
1227.12 1016.72 3112
1234.56 1016.72 3112
1208.48 989.276 3028
1221.26 982.088 3006
1228.45 982.088 3006
1260.71 1002.02 3067
1268.05 1002.02 3067
1275.38 1002.02 3067
1271.01 992.869 3039
1278.27 992.869 3039
1283 990.909 3033
1297.49 996.463 3050
1304.78 996.463 3050
1312.07 996.463 3050
1319.37 996.463 3050
1326.66 996.463 3050
1324.33 989.276 3028
1350.92 1003.65 3072
1360.92 1005.61 3078
1368.28 1005.61 3078
1375.64 1005.61 3078
1390.64 1011.17 3095
1405.72 1016.72 3112
1418.61 1020.64 3124
1426.08 1020.64 3124
1433.55 1020.64 3124
1441.02 1020.64 3124
1445.71 1018.68 3118
1453.17 1018.68 3118
1455.47 1015.09 3107
1460.07 1013.13 3101
1467.49 1013.13 3101
1474.91 1013.13 3101
1482.32 1013.13 3101
1489.74 1013.13 3101
1727.75 1054.29 3227
1735.47 1054.29 3227
1743.19 1054.29 3227
1730.83 1042.2 3190
1738.46 1042.2 3190
1742.8 1040.24 3184
1740.52 1034.36 3166
1744.78 1032.4 3160
1762.31 1038.28 3178
1769.91 1038.28 3178
1777.51 1038.28 3178
1775 1032.4 3160
1765.64 1022.6 3130
1773.12 1022.6 3130
1770.37 1016.72 3112
1764.67 1009.2 3089
1765.74 1005.61 3078
1773.1 1005.61 3078
1757.91 992.869 3039
1768.08 994.503 3044
1775.36 994.503 3044
1782.64 994.503 3044
1786.97 992.869 3039
1790.7 990.909 3033
1784.91 983.721 3011
1817.89 982.088 3006
1825.08 982.088 3006
1832.26 982.088 3006
1894.56 1007.57 3084
1905.02 1009.2 3089
1912.4 1009.2 3089
1919.79 1009.2 3089
1924.06 1007.57 3084
1931.43 1007.57 3084
1928.12 1002.02 3067
1924.72 996.463 3050
1950.26 990.909 3033
1968.49 996.463 3050
1975.78 996.463 3050
1983.07 996.463 3050
1983.19 992.869 3039
1990.45 992.869 3039
1997.72 992.869 3039
1986.52 983.721 3011
1986.43 980.128 3000
1979.65 973.267 2979
1986.78 973.267 2979
2007.95 980.128 3000
2015.13 980.128 3000
2022.3 980.128 3000
-1911.54 963.29 2927
-1904.54 963.29 2927
-1897.54 963.29 2927
-1890.54 963.29 2927
-1969.45 1018.58 3095
-1976.63 1026.15 3118
-1972.96 1028.12 3124
-1965.49 1028.12 3124
-1958.02 1028.12 3124
-1950.55 1028.12 3124
-1943.08 1028.12 3124
-1928.18 1024.17 3112
-1920.74 1024.17 3112
-1913.29 1024.17 3112
-1905.85 1024.17 3112
-1888.04 1018.58 3095
-1880.64 1018.58 3095
-1869.61 1016.6 3089
-1855.59 1012.98 3078
-1848.23 1012.98 3078
-1834.29 1009.36 3067
-1816.83 1003.77 3050
-1803.01 1000.15 3039
-1795.74 1000.15 3039
-1737.86 971.846 2953
-1715.56 963.29 2927
-1702.72 959.999 2917
-1695.75 959.999 2917
-1685.3 958.024 2911
-1675.46 956.378 2906
-1668.51 956.378 2906
-1661.56 956.378 2906
-1654.61 956.378 2906
-1647.66 956.378 2906
-1629.42 949.796 2886
-1622.52 949.796 2886
-1615.62 949.796 2886
-1603.14 946.505 2876
-1593.49 944.86 2871
-1586.62 944.86 2871
-1386.59 963.29 2927
-1379.59 963.29 2927
-1372.59 963.29 2927
-1365.59 963.29 2927
-1358.59 963.29 2927
-1346.98 959.999 2917
-1340 959.999 2917
-1333.03 959.999 2917
-1326.05 959.999 2917
-1319.08 959.999 2917
-1312.1 959.999 2917
-1305.13 959.999 2917
-1298.15 959.999 2917
-1250.22 944.86 2871
-1243.35 944.86 2871
-1236.49 944.86 2871
-1229.62 944.86 2871
-1222.75 944.86 2871
-1166.92 938.607 2852
-1160.1 938.607 2852
-1153.28 938.607 2852
-1146.46 938.607 2852
-1139.64 938.607 2852
-1113.08 1020.55 3101
-1105.66 1020.55 3101
-1100.37 1022.53 3107
-1092.94 1022.53 3107
-1085.51 1022.53 3107
-1076 1020.55 3101
-1060.66 1012.98 3078
-1047.48 1007.39 3061
-1038.12 1005.41 3055
-1030.82 1005.41 3055
-1021.84 1003.77 3050
-1003.57 992.909 3017
-992.721 989.289 3006
-985.533 989.289 3006
-978.344 989.289 3006
-967.602 985.669 2995
-960.44 985.669 2995
-958.371 990.934 3011
-951.171 990.934 3011
-949.3 996.529 3028
-943.615 998.175 3033
-943.154 1005.41 3055
-935.849 1005.41 3055
-930.367 1007.39 3061
-929.983 1014.96 3084
-922.608 1014.96 3084
-915.233 1014.96 3084
-904.326 1011.01 3072
-887.344 1000.15 3039
-880.077 1000.15 3039
-869.651 996.529 3028
-857.568 990.934 3011
-847.261 987.314 3000
-840.087 987.314 3000
-831.525 985.669 2995
-819.959 980.403 2979
-808.47 975.137 2963
-801.385 975.137 2963
-791.618 971.846 2953
-784.557 971.846 2953
-775.916 969.872 2947
-766.259 966.581 2937
-759.236 966.581 2937
-745.554 958.024 2911
-733.518 951.442 2891
-726.605 951.442 2891
-719.692 951.442 2891
-712.779 951.442 2891
-707.086 953.087 2896
-700.161 953.087 2896
-693.236 953.087 2896
-686.31 953.087 2896
-679.385 953.087 2896
-675.943 958.024 2911
-668.982 958.024 2911
-662.021 958.024 2911
-655.06 958.024 2911
-650.548 961.644 2922
-643.56 961.644 2922
-636.573 961.644 2922
-633.895 968.226 2942
-626.86 968.226 2942
-619.824 968.226 2942
-612.789 968.226 2942
-611.107 976.783 2968
-607.266 982.049 2984
-605.561 990.934 3011
-598.36 990.934 3011
-591.16 990.934 3011
-585.124 992.909 3017
-580.016 996.529 3028
-572.775 996.529 3028
-567.589 1000.15 3039
-560.322 1000.15 3039
-553.964 1001.79 3044
-546.685 1001.79 3044
-541.355 1005.41 3055
-534.05 1005.41 3055
-526.745 1005.41 3055
-518.589 1003.77 3050
-515.989 1012.98 3078
-508.629 1012.98 3078
-502.246 1014.96 3084
-494.871 1014.96 3084
-487.496 1014.96 3084
-477.475 1009.36 3067
-468.301 1005.41 3055
-460.996 1005.41 3055
-447.156 990.934 3011
-436.011 982.049 2984
-428.875 982.049 2984
-421.739 982.049 2984
-414.604 982.049 2984
-407.468 982.049 2984
-395.368 969.872 2947
-388.321 969.872 2947
-381.274 969.872 2947
-373.592 968.226 2942
-365.934 966.581 2937
-358.911 966.581 2937
-351.887 966.581 2937
-346.038 969.872 2947
-338.991 969.872 2947
-331.944 969.872 2947
-324.346 968.226 2942
-316.771 966.581 2937
-310.275 968.226 2942
-305.92 976.783 2968
-299.426 978.758 2974
-292.315 978.758 2974
-286.162 982.049 2984
-279.026 982.049 2984
-271.891 982.049 2984
-264.311 980.403 2979
-257.188 980.403 2979
-251.827 987.314 3000
-244.653 987.314 3000
-237.479 987.314 3000
-229.077 982.049 2984
-221.941 982.049 2984
-215.237 984.023 2990
-208.087 984.023 2990
-200.937 984.023 2990
-195.148 990.934 3011
-187.948 990.934 3011
-180.748 990.934 3011
-130.089 742.789 2257
-124.692 742.789 2257
-119.294 742.789 2257
-114.099 744.106 2261
-108.837 745.093 2264
-103.423 745.093 2264
-98.1387 746.08 2267
-92.7176 746.08 2267
-87.2965 746.08 2267
-81.8754 746.08 2267
-76.252 744.106 2261
-70.8453 744.106 2261
-65.4385 744.106 2261
-60.3504 748.055 2273
-54.915 748.055 2273
-49.5449 749.042 2276
-44.2185 751.017 2282
-38.8635 752.992 2288
-33.3922 752.992 2288
-27.9697 754.308 2292
-22.5477 756.283 2298
-17.0747 757.27 2301
-11.5723 757.27 2301
-6.07787 758.257 2304
-0.570775 761.548 2314
4.96913 762.536 2317
10.5098 762.536 2317
16.092 764.51 2323
21.7402 767.801 2333
27.4011 770.105 2340
32.9967 770.105 2340
38.8562 775.371 2356
44.5657 776.687 2360
50.2092 776.687 2360
55.8526 776.687 2360
61.3919 775.371 2356
67.0258 775.371 2356
72.6597 775.371 2356
78.1939 774.383 2353
83.8206 774.383 2353
89.3333 773.396 2350
94.9529 773.396 2350
100.572 773.396 2350
106.192 773.396 2350
205.733 1014.96 3084
213.108 1014.96 3084
220.483 1014.96 3084
227.857 1014.96 3084
235.232 1014.96 3084
242.607 1014.96 3084
249.495 1012.98 3078
255.938 1009.36 3067
263.272 1009.36 3067
270.606 1009.36 3067
276.853 1005.41 3055
283.135 1001.79 3044
290.414 1001.79 3044
297.204 1000.15 3039
302.768 994.555 3022
312.252 1001.79 3044
321.945 1009.36 3067
329.279 1009.36 3067
336.613 1009.36 3067
343.947 1009.36 3067
351.282 1009.36 3067
357.914 1007.39 3061
365.95 1009.36 3067
375.353 1014.96 3084
383.348 1016.6 3089
390.735 1016.6 3089
398.122 1016.6 3089
445.02 1022.53 3107
455.799 1030.1 3130
463.284 1030.1 3130
470.769 1030.1 3130
478.254 1030.1 3130
485.739 1030.1 3130
493.223 1030.1 3130
500.708 1030.1 3130
506.245 1026.15 3118
513.701 1026.15 3118
520.154 1024.17 3112
526.748 1022.53 3107
531.083 1016.6 3089
538.47 1016.6 3089
543.913 1012.98 3078
547.154 1005.41 3055
550.466 998.175 3033
552.754 989.289 3006
559.943 989.289 3006
562.98 982.049 2984
570.116 982.049 2984
575.317 978.758 2974
582.429 978.758 2974
589.54 978.758 2974
596.652 978.758 2974
607.012 984.023 2990
616.216 987.314 3000
623.39 987.314 3000
631.825 989.289 3006
639.013 989.289 3006
646.202 989.289 3006
652.086 987.314 3000
659.26 987.314 3000
662.879 982.049 2984
670.015 982.049 2984
674.881 978.758 2974
675.801 969.872 2947
687.714 976.783 2968
696.216 978.758 2974
704.511 980.403 2979
711.634 980.403 2979
718.758 980.403 2979
725.882 980.403 2979
733.005 980.403 2979
737.396 976.783 2968
750.012 984.023 2990
758.428 985.669 2995
765.59 985.669 2995
772.752 985.669 2995
784.081 990.934 3011
805.997 1009.36 3067
826.856 1026.15 3118
834.312 1026.15 3118
849.867 1036.02 3148
863.932 1043.92 3172
874.814 1047.87 3184
882.428 1047.87 3184
898.428 1057.74 3214
911.47 1064 3233
919.201 1064 3233
926.932 1064 3233
934.664 1064 3233
942.395 1064 3233
950.126 1064 3233
952.228 1057.74 3214
956.329 1053.79 3202
953.436 1034.05 3142
960.95 1034.05 3142
968.463 1034.05 3142
990.887 1049.84 3190
1004.15 1055.77 3208
1011.82 1055.77 3208
1019.49 1055.77 3208
1025.24 1053.79 3202
1032.9 1053.79 3202
1040.56 1053.79 3202
1040.36 1045.89 3178
1032.13 1030.1 3130
1029.98 1020.55 3101
1037.4 1020.55 3101
1040.77 1016.6 3089
1034.92 1003.77 3050
1038.46 1000.15 3039
1045.72 1000.15 3039
1054.72 1001.79 3044
1062 1001.79 3044
1073.14 1005.41 3055
1082.57 1007.39 3061
1089.89 1007.39 3061
1097.21 1007.39 3061
1104.53 1007.39 3061
1111.85 1007.39 3061
1119.17 1007.39 3061
1116.19 998.175 3033
1121.59 996.529 3028
1122.49 990.934 3011
1140.2 1000.15 3039
1147.46 1000.15 3039
1163.09 1007.39 3061
1179.2 1014.96 3084
1188.5 1016.6 3089
1195.89 1016.6 3089
1203.28 1016.6 3089
1219.68 1024.17 3112
1227.12 1024.17 3112
1234.56 1024.17 3112
1214.86 1001.79 3044
1221.26 989.289 3006
1228.45 989.289 3006
1260.71 1009.36 3067
1268.05 1009.36 3067
1275.38 1009.36 3067
1271.01 1000.15 3039
1278.27 1000.15 3039
1283 998.175 3033
1297.49 1003.77 3050
1304.78 1003.77 3050
1312.07 1003.77 3050
1319.37 1003.77 3050
1326.66 1003.77 3050
1324.33 996.529 3028
1350.92 1011.01 3072
1360.92 1012.98 3078
1368.28 1012.98 3078
1375.64 1012.98 3078
1390.64 1018.58 3095
1405.72 1024.17 3112
1432.23 1038 3154
1439.78 1038 3154
1447.32 1038 3154
1441.02 1028.12 3124
1445.71 1026.15 3118
1453.17 1026.15 3118
1455.47 1022.53 3107
1460.07 1020.55 3101
1467.49 1020.55 3101
1474.91 1020.55 3101
1482.32 1020.55 3101
1489.74 1020.55 3101
1727.75 1062.02 3227
1735.47 1062.02 3227
1743.19 1062.02 3227
1730.83 1049.84 3190
1738.46 1049.84 3190
1742.8 1047.87 3184
1740.52 1041.95 3166
1744.78 1039.97 3160
1762.31 1045.89 3178
1769.91 1045.89 3178
1777.51 1045.89 3178
1775 1039.97 3160
1765.64 1030.1 3130
1773.12 1030.1 3130
1770.37 1024.17 3112
1764.67 1016.6 3089
1765.74 1012.98 3078
1773.1 1012.98 3078
1757.91 1000.15 3039
1768.08 1001.79 3044
1775.36 1001.79 3044
1782.64 1001.79 3044
1786.97 1000.15 3039
1790.7 998.175 3033
1784.91 990.934 3011
1817.89 989.289 3006
1825.08 989.289 3006
1832.26 989.289 3006
1894.56 1014.96 3084
1905.02 1016.6 3089
1912.4 1016.6 3089
1919.79 1016.6 3089
1924.06 1014.96 3084
1931.43 1014.96 3084
1928.12 1009.36 3067
1924.72 1003.77 3050
1968.27 1007.39 3061
1975.59 1007.39 3061
1982.91 1007.39 3061
1990.22 1007.39 3061
1997.54 1007.39 3061
1997.66 1003.77 3050
2004.95 1003.77 3050
2004.99 1000.15 3039
2001 994.555 3022
2008.23 994.555 3022
2015.45 994.555 3022
2022.68 994.555 3022
2026.55 992.909 3017
2033.76 992.909 3017
2011.89 978.758 2974
2019 978.758 2974
-1908.44 961.682 2901
-1901.5 961.682 2901
-1924.6 976.931 2947
-1924.71 980.578 2958
-1931.26 987.539 2979
-1924.13 987.539 2979
-1917.01 987.539 2979
-1980.41 1024 3089
-1973.02 1024 3089
-1969.45 1025.99 3095
-1976.63 1033.62 3118
-1980.54 1039.58 3136
-1973.04 1039.58 3136
-1965.54 1039.58 3136
-1954.3 1037.6 3130
-1946.81 1037.6 3130
-1939.33 1037.6 3130
-1931.84 1037.6 3130
-1920.67 1035.61 3124
-1913.2 1035.61 3124
-1895.36 1029.97 3107
-1884.28 1027.98 3101
-1873.24 1025.99 3095
-1862.22 1024 3089
-1854.83 1024 3089
-1837.28 1018.37 3072
-1826.95 1016.71 3067
-1805.97 1009.09 3044
-1798.7 1009.09 3044
-1746.69 983.893 2968
-1715.56 970.301 2927
-1702.72 966.986 2917
-1695.75 966.986 2917
-1685.3 964.997 2911
-1675.46 963.34 2906
-1668.51 963.34 2906
-1661.56 963.34 2906
-1654.61 963.34 2906
-1647.66 963.34 2906
-1629.42 956.71 2886
-1622.52 956.71 2886
-1615.62 956.71 2886
-1603.14 953.395 2876
-1593.49 951.737 2871
-1586.62 951.737 2871
-1569.3 945.439 2852
-1386.59 970.301 2927
-1379.59 970.301 2927
-1372.59 970.301 2927
-1365.59 970.301 2927
-1358.59 970.301 2927
-1346.98 966.986 2917
-1340 966.986 2917
-1333.03 966.986 2917
-1326.05 966.986 2917
-1319.08 966.986 2917
-1312.1 966.986 2917
-1305.13 966.986 2917
-1298.15 966.986 2917
-1250.22 951.737 2871
-1243.35 951.737 2871
-1236.49 951.737 2871
-1229.62 951.737 2871
-1222.75 951.737 2871
-1166.92 945.439 2852
-1160.1 945.439 2852
-1158.94 950.08 2866
-1152.09 950.08 2866
-1149.23 953.395 2876
-1142.36 953.395 2876
-1135.48 953.395 2876
-1108.77 1024 3089
-1101.39 1024 3089
-1098.25 1027.98 3101
-1090.83 1027.98 3101
-1083.42 1027.98 3101
-1065.94 1018.37 3072
-1056.87 1016.71 3067
-1047.48 1014.72 3061
-1036.43 1011.08 3050
-1029.13 1011.08 3050
-1016.14 1005.44 3033
-999.909 996.49 3006
-992.721 996.49 3006
-985.533 996.49 3006
-978.344 996.49 3006
-967.602 992.843 2995
-960.44 992.843 2995
-960.281 1000.14 3017
-953.066 1000.14 3017
-950.868 1005.44 3033
-948.904 1011.08 3050
-946.859 1016.71 3067
-939.525 1016.71 3067
-933.71 1018.37 3072
-929.983 1022.35 3084
-922.608 1022.35 3084
-915.233 1022.35 3084
-904.326 1018.37 3072
-887.344 1007.43 3039
-880.077 1007.43 3039
-869.651 1003.78 3028
-857.568 998.147 3011
-845.849 992.843 2995
-838.687 992.843 2995
-828.471 989.197 2984
-816.932 983.893 2968
-808.47 982.235 2963
-801.385 982.235 2963
-790.01 976.931 2947
-781.634 975.274 2942
-774.599 975.274 2942
-766.259 973.616 2937
-759.236 973.616 2937
-745.554 964.997 2911
-732.25 956.71 2886
-725.348 956.71 2886
-718.447 956.71 2886
-711.546 956.71 2886
-708.307 961.682 2901
-701.37 961.682 2901
-694.433 961.682 2901
-687.495 961.682 2901
-680.558 961.682 2901
-673.621 961.682 2901
-666.684 961.682 2901
-659.747 961.682 2901
-652.81 961.682 2901
-646.986 963.34 2906
-642.459 966.986 2917
-635.484 966.986 2917
-629.586 968.644 2922
-622.598 968.644 2922
-619.824 975.274 2942
-612.789 975.274 2942
-609.048 980.578 2958
-604.01 983.893 2968
-600.13 989.197 2984
-592.995 989.197 2984
-585.859 989.197 2984
-578.724 989.197 2984
-571.588 989.197 2984
-564.452 989.197 2984
-555.449 985.882 2974
-551.287 991.186 2990
-549.961 1001.79 3022
-542.734 1001.79 3022
-539.406 1009.09 3044
-532.127 1009.09 3044
-524.848 1009.09 3044
-517.569 1009.09 3044
-513.14 1014.72 3061
-506.811 1016.71 3067
-502.246 1022.35 3084
-494.871 1022.35 3084
-487.496 1022.35 3084
-477.475 1016.71 3067
-468.301 1012.73 3055
-460.996 1012.73 3055
-447.156 998.147 3011
-436.011 989.197 2984
-428.875 989.197 2984
-421.739 989.197 2984
-414.604 989.197 2984
-407.468 989.197 2984
-395.368 976.931 2947
-388.321 976.931 2947
-381.274 976.931 2947
-373.592 975.274 2942
-365.934 973.616 2937
-358.911 973.616 2937
-351.887 973.616 2937
-346.038 976.931 2947
-338.991 976.931 2947
-331.944 976.931 2947
-324.346 975.274 2942
-316.771 973.616 2937
-310.275 975.274 2942
-304.889 980.578 2958
-297.816 980.578 2958
-290.742 980.578 2958
-285.203 985.882 2974
-278.091 985.882 2974
-270.98 985.882 2974
-262.892 982.235 2963
-255.806 982.235 2963
-249.644 985.882 2974
-242.533 985.882 2974
-235.421 985.882 2974
-228.309 985.882 2974
-220.751 983.893 2968
-214.446 987.539 2979
-207.322 987.539 2979
-200.937 991.186 2990
-195.148 998.147 3011
-187.948 998.147 3011
-180.748 998.147 3011
-130.089 748.196 2257
-124.692 748.196 2257
-119.664 750.517 2264
-114.251 750.517 2264
-108.981 751.511 2267
-103.56 751.511 2267
-98.2686 752.506 2270
-92.8403 752.506 2270
-87.412 752.506 2270
-81.9838 752.506 2270
-76.252 749.522 2261
-70.8453 749.522 2261
-65.4385 749.522 2261
-60.3504 753.5 2273
-54.915 753.5 2273
-49.6102 755.489 2279
-44.2766 757.478 2285
-38.9314 759.799 2292
-33.4506 759.799 2292
-28.0063 760.793 2295
-22.5771 762.782 2301
-17.097 763.777 2304
-11.5874 763.777 2304
-6.08578 764.771 2307
-0.571515 768.086 2317
4.97557 769.081 2320
10.5234 769.081 2320
16.092 770.075 2323
21.7402 773.39 2333
27.4362 776.705 2343
33.039 776.705 2343
38.9222 782.341 2360
44.6223 783.335 2363
50.273 783.335 2363
55.9236 783.335 2363
61.5743 783.335 2363
67.0258 781.015 2356
72.6597 781.015 2356
78.2936 781.015 2356
83.9275 781.015 2356
89.5614 781.015 2356
95.1953 781.015 2356
100.829 781.015 2356
106.463 781.015 2356
204.933 1018.37 3072
212.279 1018.37 3072
220.483 1022.35 3084
227.857 1022.35 3084
235.232 1022.35 3084
242.607 1022.35 3084
249.495 1020.36 3078
255.938 1016.71 3067
263.272 1016.71 3067
270.606 1016.71 3067
276.853 1012.73 3055
283.135 1009.09 3044
290.414 1009.09 3044
297.204 1007.43 3039
302.267 1000.14 3017
312.252 1009.09 3044
321.315 1014.72 3061
328.635 1014.72 3061
335.955 1014.72 3061
343.275 1014.72 3061
350.594 1014.72 3061
356.628 1011.08 3050
365.234 1014.72 3061
375.353 1022.35 3084
383.348 1024 3089
390.735 1024 3089
398.122 1024 3089
400.389 1011.08 3050
429.563 1011.08 3050
445.02 1029.97 3107
454.052 1033.62 3118
461.508 1033.62 3118
469.867 1035.61 3124
477.337 1035.61 3124
484.807 1035.61 3124
491.332 1033.62 3118
497.829 1031.63 3112
505.27 1031.63 3112
512.712 1031.63 3112
517.312 1025.99 3095
523.696 1024 3089
529.192 1020.36 3078
536.552 1020.36 3078
541.969 1016.71 3067
547.154 1012.73 3055
547.562 1000.14 3017
550.732 992.843 2995
557.894 992.843 2995
562.037 987.539 2979
568.205 985.882 2974
575.317 985.882 2974
582.429 985.882 2974
589.54 985.882 2974
596.652 985.882 2974
605.794 989.197 2984
612.93 989.197 2984
620.065 989.197 2984
629.513 992.843 2995
636.675 992.843 2995
643.837 992.843 2995
648.608 989.197 2984
655.744 989.197 2984
659.325 983.893 2968
666.422 983.893 2968
668.754 976.931 2947
674.655 975.274 2942
682.849 976.931 2947
693.641 982.235 2963
703.328 985.882 2974
710.44 985.882 2974
717.552 985.882 2974
724.663 985.882 2974
731.775 985.882 2974
737.396 983.893 2968
744.494 983.893 2968
757.162 991.186 2990
764.312 991.186 2990
771.462 991.186 2990
784.081 998.147 3011
805.997 1016.71 3067
825.265 1031.63 3112
832.707 1031.63 3112
845.008 1037.6 3130
860.664 1047.54 3160
874.814 1055.5 3184
882.428 1055.5 3184
898.428 1065.44 3214
909.779 1069.75 3227
919.201 1071.74 3233
926.932 1071.74 3233
934.664 1071.74 3233
935.107 1063.45 3208
942.779 1063.45 3208
946.895 1059.47 3196
949.161 1053.51 3178
953.436 1041.57 3142
960.95 1041.57 3142
968.463 1041.57 3142
987.159 1053.51 3178
998.515 1057.49 3190
1006.14 1057.49 3190
1013.77 1057.49 3190
1021.4 1057.49 3190
1021.29 1049.53 3166
1028.86 1049.53 3166
1030.54 1043.56 3148
1028.17 1033.62 3118
1027.99 1025.99 3095
1035.39 1025.99 3095
1031.33 1014.72 3061
1031.19 1007.43 3039
1028.89 998.147 3011
1036.09 998.147 3011
1043.29 998.147 3011
1050.49 998.147 3011
1061.55 1001.79 3022
1068.78 1001.79 3022
1076.01 1001.79 3022
1083.23 1001.79 3022
1090.46 1001.79 3022
1093.69 998.147 3011
1100.89 998.147 3011
1104.04 994.501 3000
1105.29 989.197 2984
1108.7 985.882 2974
1129.69 998.147 3011
1136.89 998.147 3011
1158.91 1011.08 3050
1166.2 1011.08 3050
1177.73 1014.72 3061
1185.05 1014.72 3061
1192.37 1014.72 3061
1197.34 1012.73 3055
1204.64 1012.73 3055
1211.95 1012.73 3055
1214.86 1009.09 3044
1221.26 996.49 3006
1228.45 996.49 3006
1235.64 996.49 3006
1242.83 996.49 3006
1259.16 1003.78 3028
1266.4 1003.78 3028
1275.75 1005.44 3033
1283 1005.44 3033
1290.25 1005.44 3033
1297.51 1005.44 3033
1304.76 1005.44 3033
1261.83 966.986 2917
1275.33 971.959 2932
1284.53 973.616 2937
1291.55 973.616 2937
1300.79 975.274 2942
1307.82 975.274 2942
1360.45 1009.09 3044
1367.72 1009.09 3044
1387.65 1018.37 3072
1432.23 1045.55 3154
1439.78 1045.55 3154
1447.32 1045.55 3154
1438.25 1033.62 3118
1440.61 1029.97 3107
1448.04 1029.97 3107
1452.66 1027.98 3101
1460.07 1027.98 3101
1467.49 1027.98 3101
1474.91 1027.98 3101
1482.32 1027.98 3101
1489.74 1027.98 3101
1700.51 1043.56 3148
1714.55 1047.54 3160
1722.11 1047.54 3160
1729.66 1047.54 3160
1737.22 1047.54 3160
1744.78 1047.54 3160
1762.31 1053.51 3178
1769.91 1053.51 3178
1777.51 1053.51 3178
1775 1047.54 3160
1762.25 1035.61 3124
1769.72 1035.61 3124
1757.28 1024 3089
1758.38 1020.36 3078
1752.55 1012.73 3055
1759.86 1012.73 3055
1754.43 1005.44 3033
1761.69 1005.44 3033
1768.94 1005.44 3033
1776.19 1005.44 3033
1774.04 1000.14 3017
1777.71 998.147 3011
1753.49 980.578 2958
1964.48 1020.36 3078
1971.84 1020.36 3078
1979.2 1020.36 3078
1986.56 1020.36 3078
1993.92 1020.36 3078
2001.28 1020.36 3078
2008.64 1020.36 3078
2016 1020.36 3078
2023.36 1020.36 3078
2026.76 1018.37 3072
2030.8 1016.71 3067
2030.16 1012.73 3055
2037.46 1012.73 3055
2041.42 1011.08 3050
2044.68 1009.09 3044
2033.76 1000.14 3017
2011.89 985.882 2974
2019 985.882 2974
2026.11 985.882 2974
2033.22 985.882 2974
-1908.44 968.632 2901
-1901.5 968.632 2901
-1924.6 983.991 2947
-1924.71 987.664 2958
-1931.26 994.675 2979
-1924.13 994.675 2979
-1917.01 994.675 2979
-1980.41 1031.4 3089
-1973.02 1031.4 3089
-1969.45 1033.41 3095
-1976.63 1041.09 3118
-1980.54 1047.1 3136
-1973.04 1047.1 3136
-1965.54 1047.1 3136
-1954.3 1045.09 3130
-1946.81 1045.09 3130
-1939.33 1045.09 3130
-1931.84 1045.09 3130
-1920.67 1043.09 3124
-1913.2 1043.09 3124
-1895.36 1037.41 3107
-1884.28 1035.41 3101
-1873.24 1033.41 3095
-1862.22 1031.4 3089
-1854.83 1031.4 3089
-1837.28 1025.73 3072
-1826.95 1024.06 3067
-1805.97 1016.38 3044
-1798.7 1016.38 3044
-1746.69 991.003 2968
-1715.56 977.313 2927
-1699.22 971.971 2911
-1692.26 971.971 2911
-1682.41 970.301 2906
-1672.57 968.632 2901
-1665.64 968.632 2901
-1658.7 968.632 2901
-1648.92 966.962 2896
-1639.16 965.293 2891
-1629.42 963.623 2886
-1622.52 963.623 2886
-1615.62 963.623 2886
-1603.14 960.284 2876
-1590.71 956.945 2866
-1583.86 956.945 2866
-1569.3 952.271 2852
-1386.59 977.313 2927
-1379.59 977.313 2927
-1372.59 977.313 2927
-1365.59 977.313 2927
-1358.59 977.313 2927
-1346.98 973.974 2917
-1340 973.974 2917
-1333.03 973.974 2917
-1326.05 973.974 2917
-1319.08 973.974 2917
-1312.1 973.974 2917
-1305.13 973.974 2917
-1298.15 973.974 2917
-1250.22 958.615 2871
-1243.35 958.615 2871
-1236.49 958.615 2871
-1229.62 958.615 2871
-1222.75 958.615 2871
-1175.8 953.94 2857
-1171.01 955.61 2862
-1165.8 956.945 2866
-1158.94 956.945 2866
-1152.09 956.945 2866
-1149.23 960.284 2876
-1148.31 965.293 2891
-1141.4 965.293 2891
-1154.5 982.321 2942
-1155.66 989.333 2963
-1150.51 991.003 2968
-1143.41 991.003 2968
-1142.44 996.345 2984
-1135.3 996.345 2984
-1128.17 996.345 2984
-1110.02 1025.73 3072
-1108.77 1031.4 3089
-1101.39 1031.4 3089
-1098.25 1035.41 3101
-1090.83 1035.41 3101
-1083.42 1035.41 3101
-1065.94 1025.73 3072
-1056.87 1024.06 3067
-1047.48 1022.05 3061
-1036.43 1018.38 3050
-1029.13 1018.38 3050
-1016.14 1012.71 3033
-999.909 1003.69 3006
-992.721 1003.69 3006
-985.533 1003.69 3006
-978.344 1003.69 3006
-967.602 1000.02 2995
-960.44 1000.02 2995
-960.281 1007.36 3017
-953.066 1007.36 3017
-950.868 1012.71 3033
-948.904 1018.38 3050
-948.402 1025.73 3072
-941.056 1025.73 3072
-933.71 1025.73 3072
-929.983 1029.73 3084
-922.608 1029.73 3084
-915.233 1029.73 3084
-904.326 1025.73 3072
-887.344 1014.71 3039
-880.077 1014.71 3039
-869.651 1011.04 3028
-857.568 1005.36 3011
-845.849 1000.02 2995
-838.687 1000.02 2995
-828.471 996.345 2984
-816.932 991.003 2968
-808.47 989.333 2963
-801.385 989.333 2963
-790.01 983.991 2947
-781.634 982.321 2942
-774.599 982.321 2942
-766.259 980.652 2937
-759.236 980.652 2937
-745.554 971.971 2911
-732.25 963.623 2886
-725.348 963.623 2886
-718.447 963.623 2886
-711.546 963.623 2886
-708.307 968.632 2901
-701.37 968.632 2901
-694.433 968.632 2901
-687.495 968.632 2901
-680.558 968.632 2901
-673.621 968.632 2901
-666.684 968.632 2901
-659.747 968.632 2901
-652.81 968.632 2901
-646.986 970.301 2906
-642.459 973.974 2917
-635.484 973.974 2917
-629.586 975.643 2922
-622.598 975.643 2922
-619.824 982.321 2942
-612.789 982.321 2942
-609.048 987.664 2958
-604.01 991.003 2968
-600.13 996.345 2984
-592.995 996.345 2984
-585.859 996.345 2984
-578.724 996.345 2984
-571.588 996.345 2984
-564.452 996.345 2984
-555.449 993.006 2974
-551.287 998.348 2990
-549.961 1009.03 3022
-542.734 1009.03 3022
-539.406 1016.38 3044
-532.127 1016.38 3044
-524.848 1016.38 3044
-517.569 1016.38 3044
-513.14 1022.05 3061
-506.811 1024.06 3067
-502.246 1029.73 3084
-494.871 1029.73 3084
-487.496 1029.73 3084
-477.475 1024.06 3067
-468.301 1020.05 3055
-460.996 1020.05 3055
-447.156 1005.36 3011
-436.011 996.345 2984
-428.875 996.345 2984
-421.739 996.345 2984
-414.604 996.345 2984
-407.468 996.345 2984
-395.368 983.991 2947
-388.321 983.991 2947
-381.274 983.991 2947
-373.592 982.321 2942
-365.934 980.652 2937
-358.911 980.652 2937
-351.887 980.652 2937
-346.038 983.991 2947
-338.991 983.991 2947
-331.944 983.991 2947
-324.346 982.321 2942
-316.771 980.652 2937
-310.275 982.321 2942
-304.889 987.664 2958
-297.816 987.664 2958
-290.742 987.664 2958
-285.203 993.006 2974
-278.091 993.006 2974
-270.98 993.006 2974
-262.892 989.333 2963
-255.806 989.333 2963
-249.644 993.006 2974
-242.533 993.006 2974
-235.421 993.006 2974
-228.309 993.006 2974
-220.751 991.003 2968
-214.446 994.675 2979
-207.322 994.675 2979
-200.937 998.348 2990
-195.148 1005.36 3011
-187.948 1005.36 3011
-180.748 1005.36 3011
