ply
format ascii 1.0
comment File generated
element vertex 2256
property float x
property float y
property float z
end_header
-92.963 753.5 2273
-87.5276 753.5 2273
-82.0921 753.5 2273
-76.7579 754.495 2276
-71.5033 756.484 2282
-66.1332 757.478 2285
-60.669 757.478 2285
-55.2049 757.478 2285
-49.7408 757.478 2285
-44.2766 757.478 2285
-38.8125 757.478 2285
-33.3484 757.478 2285
-27.9209 758.473 2288
-22.4496 758.473 2288
-17.0302 760.793 2295
-11.5422 760.793 2295
-6.06204 761.788 2298
-0.568308 763.777 2304
4.94769 764.771 2307
10.4644 764.771 2307
16.0297 767.092 2314
21.619 769.081 2320
27.1669 769.081 2320
32.7147 769.081 2320
38.4274 772.396 2330
43.9992 772.396 2330
49.6347 773.39 2333
55.2136 773.39 2333
60.7925 773.39 2333
66.3715 773.39 2333
72.0737 774.716 2337
77.6622 774.716 2337
83.2507 774.716 2337
88.8392 774.716 2337
94.4276 774.716 2337
100.016 774.716 2337
105.74 775.711 2340
111.336 775.711 2340
116.931 775.711 2340
122.37 774.716 2337
127.958 774.716 2337
133.318 773.39 2333
138.897 773.39 2333
144.476 773.39 2333
231.8 1007.43 3039
239.067 1007.43 3039
246.334 1007.43 3039
253.601 1007.43 3039
261.298 1009.09 3044
268.577 1009.09 3044
275.856 1009.09 3044
282.67 1007.43 3039
289.937 1007.43 3039
297.204 1007.43 3039
303.369 1003.78 3028
307.738 994.501 3000
314.912 994.501 3000
322.086 994.501 3000
329.26 994.501 3000
336.434 994.501 3000
343.608 994.501 3000
350.197 992.843 2995
355.45 987.539 2979
361.235 983.893 2968
366.471 978.92 2953
373.532 978.92 2953
379.176 975.274 2942
383.586 968.644 2922
393.915 976.931 2947
402.458 980.578 2958
409.532 980.578 2958
416.605 980.578 2958
423.679 980.578 2958
432.209 983.893 2968
439.306 983.893 2968
462.046 1018.37 3072
475.503 1031.63 3112
482.945 1031.63 3112
490.387 1031.63 3112
498.788 1033.62 3118
506.245 1033.62 3118
513.701 1033.62 3118
516.31 1024 3089
518.949 1014.72 3061
524.378 1011.08 3050
531.671 1011.08 3050
538.965 1011.08 3050
546.258 1011.08 3050
550.466 1005.44 3033
555.696 1001.79 3022
562.923 1001.79 3022
570.15 1001.79 3022
578.522 1003.78 3028
585.763 1003.78 3028
593.004 1003.78 3028
594.694 994.501 3000
601.868 994.501 3000
614.727 1003.78 3028
621.968 1003.78 3028
629.208 1003.78 3028
636.449 1003.78 3028
639.013 996.49 3006
646.202 996.49 3006
653.39 996.49 3006
660.578 996.49 3006
666.434 994.501 3000
673.607 994.501 3000
677.151 989.197 2984
679.471 982.235 2963
686.556 982.235 2963
696.216 985.882 2974
707.112 991.186 2990
714.262 991.186 2990
721.412 991.186 2990
720.765 980.578 2958
731.775 985.882 2974
738.887 985.882 2974
748.507 989.197 2984
761.214 996.49 3006
768.402 996.49 3006
775.59 996.49 3006
785.643 1000.14 3017
799.953 1009.09 3044
814.657 1018.37 3072
822.004 1018.37 3072
838.799 1029.97 3107
850.859 1035.61 3124
858.329 1035.61 3124
865.799 1035.61 3124
876.624 1039.58 3136
885.815 1041.57 3142
895.034 1043.56 3148
902.562 1043.56 3148
910.09 1043.56 3148
917.618 1043.56 3148
925.146 1043.56 3148
929.118 1039.58 3136
934.825 1037.6 3130
938.697 1033.62 3118
946.153 1033.62 3118
948.41 1027.98 3101
950.586 1022.35 3084
954.233 1018.37 3072
960.014 1016.71 3067
967.348 1016.71 3067
969.28 1011.08 3050
976.573 1011.08 3050
981.931 1009.09 3044
989.21 1009.09 3044
989.288 1001.79 3022
992.887 998.147 3011
1000.09 998.147 3011
1007.29 998.147 3011
1012.8 996.49 3006
1009.13 985.882 2974
1001.89 971.959 2932
1007.18 970.301 2927
1014.18 970.301 2927
1019.44 968.644 2922
1024.67 966.986 2917
1022.45 958.367 2891
1055 982.235 2963
1062.08 982.235 2963
1069.17 982.235 2963
1076.25 982.235 2963
1083.34 982.235 2963
1063.22 945.439 2852
1077.16 951.737 2871
1087.81 955.052 2881
1094.7 955.052 2881
1101.58 955.052 2881
1108.47 955.052 2881
1117.3 956.71 2886
1124.2 956.71 2886
1136.98 961.682 2901
1143.92 961.682 2901
1150.85 961.682 2901
1155.8 960.025 2896
1166.74 963.34 2906
1178.13 966.986 2917
1193.23 973.616 2937
1200.25 973.616 2937
1209.33 975.274 2942
1216.37 975.274 2942
1223.4 975.274 2942
1230.44 975.274 2942
1235.37 973.616 2937
1258.04 985.882 2974
1269.41 989.197 2984
1276.55 989.197 2984
1283.68 989.197 2984
1297.74 994.501 3000
1317.09 1003.78 3028
1324.33 1003.78 3028
1353.56 1020.36 3078
1363.57 1022.35 3084
1370.95 1022.35 3084
1378.32 1022.35 3084
1396.03 1029.97 3107
1411.14 1035.61 3124
1424.06 1039.58 3136
1431.56 1039.58 3136
1439.06 1039.58 3136
1446.56 1039.58 3136
1451.28 1037.6 3130
1467.15 1043.56 3148
1474.68 1043.56 3148
1519.4 1069.75 3227
1529.96 1071.74 3233
1555.76 1084.34 3271
1563.58 1084.34 3271
1574.77 1086.66 3278
1585.5 1088.65 3284
1599.66 1092.96 3297
1607.55 1092.96 3297
1615.43 1092.96 3297
1623.32 1092.96 3297
1631.2 1092.96 3297
1639.09 1092.96 3297
1640.48 1088.65 3284
1648.33 1088.65 3284
1656.18 1088.65 3284
1664.03 1088.65 3284
1652.54 1076.05 3246
1660.3 1076.05 3246
1668.07 1076.05 3246
1675.83 1076.05 3246
1683.59 1076.05 3246
1691.35 1076.05 3246
1695.45 1073.73 3239
1703.2 1073.73 3239
1682.24 1041.57 3142
1689.76 1041.57 3142
1697.27 1041.57 3142
1730.83 1057.49 3190
1738.46 1057.49 3190
1746.08 1057.49 3190
1780.65 1073.73 3239
1788.4 1073.73 3239
1796.14 1073.73 3239
1803.89 1073.73 3239
1801.56 1067.76 3221
1801.96 1063.45 3208
1796.1 1055.5 3184
1803.71 1055.5 3184
1754.96 1018.37 3072
1782.38 1029.97 3107
1796.15 1033.62 3118
1803.6 1033.62 3118
1835.45 1047.54 3160
1843.01 1047.54 3160
1850.57 1047.54 3160
1854.6 1045.55 3154
1844.43 1035.61 3124
1834.71 1025.99 3095
1828.42 1018.37 3072
1835.76 1018.37 3072
1793.91 991.186 2990
1735.4 955.052 2881
1727.78 947.096 2857
1734.61 947.096 2857
1720.72 935.825 2823
1718.9 931.184 2809
1728.08 932.51 2813
1744.05 937.483 2828
1753.29 938.809 2832
1760.07 938.809 2832
1826.11 970.301 2927
1855.65 982.235 2963
1879.71 991.186 2990
1886.86 991.186 2990
1894.01 991.186 2990
1857.92 968.644 2922
1864.91 968.644 2922
1871.9 968.644 2922
1878.89 968.644 2922
-2106.16 939.249 2813
-2113.62 945.593 2832
-2106.84 945.593 2832
-2100.07 945.593 2832
-2100.69 948.932 2842
-2093.89 948.932 2842
-2087.1 948.932 2842
-2070.05 944.257 2828
-2059.64 942.588 2823
-1828.45 993.006 2974
-1824.4 994.675 2979
-1853.88 1014.71 3039
-1846.61 1014.71 3039
-1839.34 1014.71 3039
-1821.83 1009.03 3022
-1814.6 1009.03 3022
-1771.24 1009.03 3022
-1767.52 1011.04 3028
-1760.28 1011.04 3028
-1753.04 1011.04 3028
-1735.99 1005.36 3011
-1719.61 1000.02 2995
-1743.89 1018.38 3050
-1736.6 1018.38 3050
-1735.54 1022.05 3061
-1728.22 1022.05 3061
-1720.9 1022.05 3061
-1568.85 1018.38 3050
-1561.56 1018.38 3050
-1554.26 1018.38 3050
-1532.79 1033.41 3095
-1525.39 1033.41 3095
-1517.99 1033.41 3095
-1507.66 1031.4 3089
-1500.27 1031.4 3089
-1487.57 1027.73 3078
-1469.15 1020.05 3055
-1430.74 998.348 2990
-1403.11 983.991 2947
-1396.07 983.991 2947
-1377.24 975.643 2922
-1370.25 975.643 2922
-1348.8 965.293 2891
-1341.89 965.293 2891
-1330.35 961.954 2881
-1321.17 960.284 2876
-1314.29 960.284 2876
-1307.41 960.284 2876
-1298.27 958.615 2871
-1293.66 960.284 2876
-1286.78 960.284 2876
-1282.13 961.954 2881
-1275.24 961.954 2881
-1277.15 968.632 2901
-1279.41 975.643 2922
-1295.07 993.006 2974
-1287.96 993.006 2974
-1318.32 1022.05 3061
-1315.71 1025.73 3072
-1320.71 1035.41 3101
-1313.3 1035.41 3101
-1310.51 1039.08 3112
-1303.07 1039.08 3112
-1295.63 1039.08 3112
-1288.19 1039.08 3112
-1280.75 1039.08 3112
-1266.35 1033.41 3095
-1258.95 1033.41 3095
-1251.55 1033.41 3095
-1244.15 1033.41 3095
-1236.74 1033.41 3095
-1229.34 1033.41 3095
-1221.94 1033.41 3095
-1216.9 1035.41 3101
-1209.48 1035.41 3101
-1202.06 1035.41 3101
-1194.65 1035.41 3101
-1180.73 1029.73 3084
-1152.04 1011.04 3028
-1144.8 1011.04 3028
-1123.29 998.348 2990
-1116.14 998.348 2990
-1116.78 1005.36 3011
-1117.68 1012.71 3033
-1110.43 1012.71 3033
-1103.18 1012.71 3033
-1112.18 1027.73 3078
-1119.18 1041.09 3118
-1111.73 1041.09 3118
-1104.27 1041.09 3118
-1103.15 1047.1 3136
-1095.65 1047.1 3136
-1088.15 1047.1 3136
-1078.58 1045.09 3130
-1063.22 1037.41 3107
-1055.79 1037.41 3107
-1046.34 1035.41 3101
-1034.9 1031.4 3089
-1025.85 1029.73 3084
-1022.11 1033.41 3095
-1020.29 1039.08 3112
-1012.84 1039.08 3112
-1005.4 1039.08 3112
-992.509 1033.41 3095
-985.107 1033.41 3095
-974.232 1029.73 3084
-966.857 1029.73 3084
-959.482 1029.73 3084
-952.107 1029.73 3084
-942.894 1027.73 3078
-935.534 1027.73 3078
-933.3 1033.41 3095
-925.899 1033.41 3095
-918.498 1033.41 3095
-911.097 1033.41 3095
-903.696 1033.41 3095
-896.294 1033.41 3095
-885.734 1029.73 3084
-879.783 1031.4 3089
-875.786 1035.41 3101
-868.37 1035.41 3101
-860.955 1035.41 3101
-853.539 1035.41 3101
-839.848 1027.73 3078
-832.488 1027.73 3078
-825.128 1027.73 3078
-816.173 1025.73 3072
-805.931 1022.05 3061
-798.611 1022.05 3061
-788.448 1018.38 3050
-778.337 1014.71 3039
-771.07 1014.71 3039
-763.802 1014.71 3039
-756.535 1014.71 3039
-749.268 1014.71 3039
-740.536 1012.71 3033
-733.283 1012.71 3033
-726.03 1012.71 3033
-712.379 1003.69 3006
-705.191 1003.69 3006
-691.733 994.675 2979
-684.609 994.675 2979
-672.71 987.664 2958
-665.636 987.664 2958
-662.125 993.006 2974
-657.216 996.345 2984
-650.08 996.345 2984
-642.944 996.345 2984
-633.678 993.006 2974
-626.566 993.006 2974
-619.455 993.006 2974
-618.932 1003.69 3006
-611.743 1003.69 3006
-604.555 1003.69 3006
-597.367 1003.69 3006
-590.179 1003.69 3006
-581.827 1001.69 3000
-574.653 1001.69 3000
-567.479 1001.69 3000
-564.414 1009.03 3022
-558.294 1011.04 3028
-553.964 1016.38 3044
-546.685 1016.38 3044
-540.469 1018.38 3050
-533.176 1018.38 3050
-525.883 1018.38 3050
-518.589 1018.38 3050
-511.296 1018.38 3050
-504.828 1020.05 3055
-499.477 1024.06 3067
-494.871 1029.73 3084
-487.496 1029.73 3084
-482.768 1035.41 3101
-475.352 1035.41 3101
-468.842 1037.41 3107
-461.413 1037.41 3107
-453.983 1037.41 3107
-445.691 1035.41 3101
-438.275 1035.41 3101
-430.86 1035.41 3101
-424.947 1039.08 3112
-417.505 1039.08 3112
-410.063 1039.08 3112
-402.621 1039.08 3112
-393.021 1033.41 3095
-384.872 1031.4 3089
-377.485 1031.4 3089
-368.062 1025.73 3072
-361.42 1027.73 3078
-354.75 1029.73 3084
-347.375 1029.73 3084
-340.001 1029.73 3084
-332.626 1029.73 3084
-325.251 1029.73 3084
-317.876 1029.73 3084
-306.474 1016.38 3044
-299.195 1016.38 3044
-292.491 1018.38 3050
-285.198 1018.38 3050
-277.904 1018.38 3050
-271.055 1020.05 3055
-264.267 1022.05 3061
-258.374 1027.73 3078
-251.014 1027.73 3078
-243.653 1027.73 3078
-235.832 1025.73 3072
-228.486 1025.73 3072
-222.796 1033.41 3095
-215.395 1033.41 3095
-207.994 1033.41 3095
-200.593 1033.41 3095
-193.192 1033.41 3095
-185.79 1033.41 3095
-179.081 1037.41 3107
-171.651 1037.41 3107
-164.222 1037.41 3107
-156.792 1037.41 3107
-108.692 754.938 2261
-103.286 754.938 2261
-97.879 754.938 2261
-92.963 758.945 2273
-87.6431 759.947 2276
-82.2005 759.947 2276
-76.8591 760.948 2279
-71.5973 762.952 2285
-66.3357 765.289 2292
-60.8549 765.289 2292
-55.374 765.289 2292
-49.8061 763.953 2288
-44.3348 763.953 2288
-38.8635 763.953 2288
-33.3922 763.953 2288
-27.9697 765.289 2292
-22.5183 766.291 2295
-17.0525 767.292 2298
-11.5573 767.292 2298
-6.06996 768.294 2301
-0.568308 769.296 2304
4.94769 770.297 2307
10.4644 770.297 2307
16.0504 773.636 2317
21.619 774.638 2320
27.1669 774.638 2320
32.7147 774.638 2320
38.4274 777.977 2330
43.9992 777.977 2330
49.6347 778.979 2333
55.2136 778.979 2333
60.7925 778.979 2333
66.3715 778.979 2333
72.0737 780.314 2337
77.6622 780.314 2337
83.2507 780.314 2337
88.8392 780.314 2337
94.4276 780.314 2337
100.016 780.314 2337
105.74 781.316 2340
111.336 781.316 2340
116.931 781.316 2340
122.37 780.314 2337
127.958 780.314 2337
133.318 778.979 2333
138.897 778.979 2333
144.476 778.979 2333
229.664 1005.36 3011
236.864 1005.36 3011
244.551 1007.36 3017
252.683 1011.04 3028
259.924 1011.04 3028
267.165 1011.04 3028
274.406 1011.04 3028
281.647 1011.04 3028
288.888 1011.04 3028
296.129 1011.04 3028
300.564 1001.69 3000
306.712 998.348 2990
314.387 1000.02 2995
321.549 1000.02 2995
328.711 1000.02 2995
335.873 1000.02 2995
343.035 1000.02 2995
350.197 1000.02 2995
354.137 991.003 2968
360.626 989.333 2963
366.471 985.994 2953
373.532 985.994 2953
379.176 982.321 2942
383.586 975.643 2922
393.915 983.991 2947
402.458 987.664 2958
409.532 987.664 2958
416.605 987.664 2958
423.679 987.664 2958
432.209 991.003 2968
439.306 991.003 2968
457.082 1014.71 3039
464.349 1014.71 3039
476.738 1025.73 3072
484.084 1025.73 3072
491.43 1025.73 3072
498.776 1025.73 3072
506.122 1025.73 3072
506.949 1012.71 3033
514.202 1012.71 3033
521.455 1012.71 3033
528.708 1012.71 3033
534.017 1009.03 3022
541.243 1009.03 3022
545.566 1003.69 3006
546.87 993.006 2974
554.913 994.675 2979
562.037 994.675 2979
571.262 998.348 2990
578.412 998.348 2990
585.562 998.348 2990
592.712 998.348 2990
599.862 998.348 2990
608.027 1000.02 2995
615.189 1000.02 2995
622.351 1000.02 2995
627.201 996.345 2984
633.274 994.675 2979
641.472 996.345 2984
648.608 996.345 2984
655.744 996.345 2984
662.879 996.345 2984
670.015 996.345 2984
672.385 989.333 2963
675.801 983.991 2947
681.69 982.321 2942
688.725 982.321 2942
695.76 982.321 2942
702.796 982.321 2942
708.625 980.652 2937
715.648 980.652 2937
723.901 982.321 2942
730.937 982.321 2942
737.972 982.321 2942
745.007 982.321 2942
761.5 994.675 2979
768.624 994.675 2979
782.779 1003.69 3006
799.953 1016.38 3044
814.657 1025.73 3072
822.004 1025.73 3072
833.939 1031.4 3089
846.228 1037.41 3107
858.329 1043.09 3124
865.799 1043.09 3124
874.947 1045.09 3130
885.815 1049.1 3142
893.328 1049.1 3142
900.842 1049.1 3142
908.355 1049.1 3142
915.869 1049.1 3142
923.382 1049.1 3142
929.118 1047.1 3136
933.033 1043.09 3124
935.386 1037.41 3107
942.815 1037.41 3107
943.211 1029.73 3084
946.887 1025.73 3072
948.952 1020.05 3055
952.815 1016.38 3044
960.094 1016.38 3044
960.381 1009.03 3022
964.086 1005.36 3011
962.576 996.345 2984
969.712 996.345 2984
975.211 994.675 2979
978.707 991.003 2968
985.805 991.003 2968
992.902 991.003 2968
998.315 989.333 2963
996.578 980.652 2937
1000.18 977.313 2927
998.237 968.632 2901
1005.17 968.632 2901
1010.37 966.962 2896
1015.54 965.293 2891
1018.91 961.954 2881
1025.8 961.954 2881
1032.69 961.954 2881
1039.58 961.954 2881
1042.84 958.615 2871
1049.7 958.615 2871
1049.58 952.271 2852
1052.69 948.932 2842
1063.22 952.271 2852
1071.91 953.94 2857
1082.14 956.945 2866
1089 956.945 2866
1095.85 956.945 2866
1102.7 956.945 2866
1113.43 960.284 2876
1120.3 960.284 2876
1131.1 963.623 2886
1138 963.623 2886
1144.9 963.623 2886
1151.81 963.623 2886
1158.71 963.623 2886
1173.69 970.301 2906
1185.1 973.974 2917
1192.08 973.974 2917
1205.22 978.982 2932
1212.23 978.982 2932
1221.32 980.652 2937
1228.35 980.652 2937
1235.37 980.652 2937
1246.62 983.991 2947
1265.16 993.006 2974
1272.27 993.006 2974
1279.38 993.006 2974
1290.82 996.345 2984
1309.7 1005.36 3011
1316.9 1005.36 3011
1348.72 1024.06 3067
1358.27 1025.73 3072
1365.61 1025.73 3072
1372.96 1025.73 3072
1380.31 1025.73 3072
1395.33 1031.4 3089
1410.89 1037.41 3107
1418.32 1037.41 3107
1425.75 1037.41 3107
1433.18 1037.41 3107
1440.61 1037.41 3107
1448.04 1037.41 3107
1410.5 1005.36 3011
1417.7 1005.36 3011
1613.19 1073.14 3214
1620.88 1073.14 3214
1628.56 1073.14 3214
1624.03 1065.13 3190
1631.66 1065.13 3190
1639.29 1065.13 3190
1653.11 1069.13 3202
1660.77 1069.13 3202
1668.43 1069.13 3202
1669.8 1065.13 3190
1677.43 1065.13 3190
1679.03 1047.1 3136
1686.53 1047.1 3136
1694.03 1047.1 3136
1701.53 1047.1 3136
1709.03 1047.1 3136
1719.81 1049.1 3142
1753.71 1065.13 3190
1778.46 1075.48 3221
1786.16 1075.48 3221
1793.86 1075.48 3221
1790.94 1069.13 3202
1788.48 1063.12 3184
1769.65 1025.73 3072
1776.99 1025.73 3072
1814.54 1043.09 3124
1822.01 1043.09 3124
1829.48 1043.09 3124
1836.96 1043.09 3124
1844.43 1043.09 3124
1821.07 1025.73 3072
1779.61 998.348 2990
1786.76 998.348 2990
1784.31 993.006 2974
1729.38 958.615 2871
1727.78 953.94 2857
1734.61 953.94 2857
1714.62 939.249 2813
1718.9 937.913 2809
1728.08 939.249 2813
1734.8 939.249 2813
1753.29 945.593 2832
1760.07 945.593 2832
1813.01 970.301 2906
1829.97 975.643 2922
1862.74 989.333 2963
1869.82 989.333 2963
1876.91 989.333 2963
1857.92 975.643 2922
1864.91 975.643 2922
1871.9 975.643 2922
1878.89 975.643 2922
-2106.16 945.987 2813
-2106.9 949.35 2823
-2100.15 949.35 2823
-2100.07 952.377 2832
-2096.99 954.058 2837
-2090.21 954.058 2837
-2083.43 954.058 2837
-2066.39 949.35 2823
-2059.64 949.35 2823
-1849.24 955.74 2842
-1842.44 955.74 2842
-1835.64 955.74 2842
-1822.41 952.377 2832
-1742.92 945.987 2813
-1736.19 945.987 2813
-1828.45 1000.13 2974
-1821.34 1000.13 2974
-1817.28 1001.81 2979
-1810.15 1001.81 2979
-1819.37 1010.89 3006
-1812.18 1010.89 3006
-1804.99 1010.89 3006
-1764.8 1012.57 3011
-1757.59 1012.57 3011
-1750.39 1012.57 3011
-1743.19 1012.57 3011
-1735.99 1012.57 3011
-1716.74 1005.51 2990
-1709.59 1005.51 2990
-1568.85 1025.69 3050
-1561.56 1025.69 3050
-1554.26 1025.69 3050
-1546.97 1025.69 3050
-1539.68 1025.69 3050
-1514.81 1023.67 3044
-1529.82 1038.8 3089
-1522.43 1038.8 3089
-1515.04 1038.8 3089
-1496.92 1031.41 3067
-1489.58 1031.41 3067
-1482.25 1031.41 3067
-1461.45 1021.99 3039
-1423.08 1000.13 2974
-1403.11 991.05 2947
-1396.07 991.05 2947
-1377.24 982.643 2922
-1367.9 980.962 2917
-1351.13 973.899 2896
-1344.21 973.899 2896
-1334.97 972.218 2891
-1323.46 968.855 2881
-1316.58 968.855 2881
-1309.69 968.855 2881
-1300.54 967.174 2876
-1291.41 965.492 2871
-1284.54 965.492 2871
-1279.9 967.174 2876
-1273.03 967.174 2876
-1279.36 977.262 2906
-1283.79 986.006 2932
-1299.42 1003.49 2984
-1292.29 1003.49 2984
-1315.73 1027.37 3055
-1313.57 1031.41 3067
-1313.47 1037.12 3084
-1306.1 1037.12 3084
-1305.88 1042.84 3101
-1298.47 1042.84 3101
-1291.05 1042.84 3101
-1283.63 1042.84 3101
-1271.28 1038.8 3089
-1256.94 1033.09 3072
-1249.59 1033.09 3072
-1242.25 1033.09 3072
-1234.9 1033.09 3072
-1229.95 1035.1 3078
-1222.59 1035.1 3078
-1215.23 1035.1 3078
-1207.87 1035.1 3078
-1200.51 1035.1 3078
-1193.15 1035.1 3078
-1185.79 1035.1 3078
-1171.92 1029.39 3061
-1139.49 1007.19 2995
-1132.33 1007.19 2995
-1103.38 987.687 2937
-1088.89 980.962 2917
-1075.98 975.581 2901
-1076.78 982.643 2922
-1073.45 986.006 2932
-1099.18 1016.27 3022
-1098.09 1021.99 3039
-1108.77 1038.8 3089
-1101.39 1038.8 3089
-1098.25 1042.84 3101
-1090.83 1042.84 3101
-1083.42 1042.84 3101
-1076 1042.84 3101
-1062.73 1037.12 3084
-1045.43 1027.37 3055
-1032.69 1021.99 3039
-1025.42 1021.99 3039
-1016.14 1019.97 3033
-1023.86 1035.1 3078
-1016.5 1035.1 3078
-1009.14 1035.1 3078
-1001.78 1035.1 3078
-994.417 1035.1 3078
-985.133 1033.09 3072
-977.787 1033.09 3072
-966.966 1029.39 3061
-957.765 1027.37 3055
-950.46 1027.37 3055
-945.006 1029.39 3061
-937.687 1029.39 3061
-933.71 1033.09 3072
-926.364 1033.09 3072
-920.813 1035.1 3078
-913.453 1035.1 3078
-906.092 1035.1 3078
-898.732 1035.1 3078
-891.371 1035.1 3078
-884.011 1035.1 3078
-879.783 1038.8 3089
-874.091 1040.82 3095
-866.69 1040.82 3095
-859.289 1040.82 3095
-848.86 1037.12 3084
-838.211 1033.09 3072
-830.865 1033.09 3072
-823.519 1033.09 3072
-813.25 1029.39 3061
-801.455 1023.67 3044
-794.176 1023.67 3044
-785.604 1021.99 3039
-776.8 1019.97 3033
-769.547 1019.97 3033
-762.294 1019.97 3033
-755.042 1019.97 3033
-746.556 1018.29 3028
-739.315 1018.29 3028
-732.074 1018.29 3028
-724.833 1018.29 3028
-712.379 1010.89 3006
-705.191 1010.89 3006
-685.696 993.068 2953
-678.634 993.068 2953
-669.071 989.369 2942
-660.911 987.687 2937
-658.563 994.75 2958
-651.489 994.75 2958
-644.416 994.75 2958
-638.42 996.431 2963
-631.334 996.431 2963
-624.249 996.431 2963
-617.163 996.431 2963
-614.402 1003.49 2984
-609.505 1007.19 2995
-602.343 1007.19 2995
-595.181 1007.19 2995
-588.019 1007.19 2995
-579.887 1005.51 2990
-572.737 1005.51 2990
-563.506 1001.81 2979
-559.371 1007.19 2995
-557.187 1016.27 3022
-553.055 1021.99 3039
-545.787 1021.99 3039
-540.469 1025.69 3050
-533.176 1025.69 3050
-525.883 1025.69 3050
-518.589 1025.69 3050
-511.296 1025.69 3050
-504.002 1025.69 3050
-497.523 1027.37 3055
-493.908 1035.1 3078
-486.548 1035.1 3078
-480.9 1038.8 3089
-475.352 1042.84 3101
-467.937 1042.84 3101
-460.522 1042.84 3101
-453.106 1042.84 3101
-444.828 1040.82 3095
-437.427 1040.82 3095
-430.026 1040.82 3095
-422.625 1040.82 3095
-415.224 1040.82 3095
-407.823 1040.82 3095
-398.999 1037.12 3084
-390.1 1033.09 3072
-382.754 1033.09 3072
-375.408 1033.09 3072
-367.463 1031.41 3067
-360.129 1031.41 3067
-353.37 1033.09 3072
-346.024 1033.09 3072
-338.678 1033.09 3072
-330.792 1031.41 3067
-321.032 1023.67 3044
-313.753 1023.67 3044
-305.367 1019.97 3033
-298.114 1019.97 3033
-289.806 1016.27 3022
-285.198 1025.69 3050
-277.904 1025.69 3050
-270.611 1025.69 3050
-263.749 1027.37 3055
-256.947 1029.39 3061
-250.525 1033.09 3072
-243.178 1033.09 3072
-235.832 1033.09 3072
-228.486 1033.09 3072
-222.796 1040.82 3095
-215.395 1040.82 3095
-207.994 1040.82 3095
-200.593 1040.82 3095
-193.192 1040.82 3095
-185.79 1040.82 3095
-179.081 1044.86 3107
-171.651 1044.86 3107
-164.222 1044.86 3107
-156.792 1044.86 3107
-92.963 764.39 2273
-87.7586 766.408 2279
-82.3088 766.408 2279
-77.2975 770.78 2292
-71.8166 770.78 2292
-66.4226 771.788 2295
-60.9345 771.788 2295
-55.4465 771.788 2295
-49.8931 770.78 2292
-44.4123 770.78 2292
-38.9314 770.78 2292
-33.4506 770.78 2292
-28.0063 771.788 2295
-22.5477 772.797 2298
-17.0747 773.806 2301
-11.5723 773.806 2301
-6.06996 773.806 2301
-0.568308 774.815 2304
4.94769 775.824 2307
10.4644 775.824 2307
16.0504 779.187 2317
21.619 780.196 2320
27.1669 780.196 2320
32.7147 780.196 2320
38.4274 783.559 2330
43.9992 783.559 2330
49.6347 784.568 2333
55.2136 784.568 2333
60.7925 784.568 2333
66.3715 784.568 2333
72.0737 785.913 2337
77.6622 785.913 2337
83.2507 785.913 2337
88.8392 785.913 2337
94.4276 785.913 2337
100.016 785.913 2337
105.74 786.922 2340
111.336 786.922 2340
116.931 786.922 2340
122.37 785.913 2337
127.958 785.913 2337
133.547 785.913 2337
139.135 785.913 2337
144.724 785.913 2337
229.664 1012.57 3011
236.864 1012.57 3011
244.551 1014.59 3017
252.683 1018.29 3028
259.924 1018.29 3028
267.165 1018.29 3028
274.406 1018.29 3028
281.647 1018.29 3028
288.888 1018.29 3028
296.129 1018.29 3028
300.564 1008.87 3000
306.712 1005.51 2990
314.387 1007.19 2995
321.549 1007.19 2995
328.711 1007.19 2995
335.873 1007.19 2995
343.035 1007.19 2995
350.197 1007.19 2995
354.137 998.112 2968
360.626 996.431 2963
366.471 993.068 2953
373.532 993.068 2953
379.176 989.369 2942
383.586 982.643 2922
393.915 991.05 2947
402.458 994.75 2958
409.532 994.75 2958
416.605 994.75 2958
423.679 994.75 2958
432.209 998.112 2968
439.306 998.112 2968
457.082 1021.99 3039
464.349 1021.99 3039
476.738 1033.09 3072
484.084 1033.09 3072
491.43 1033.09 3072
498.776 1033.09 3072
506.122 1033.09 3072
506.949 1019.97 3033
514.202 1019.97 3033
521.455 1019.97 3033
528.708 1019.97 3033
534.017 1016.27 3022
541.243 1016.27 3022
545.566 1010.89 3006
546.87 1000.13 2974
554.913 1001.81 2979
562.037 1001.81 2979
571.262 1005.51 2990
578.412 1005.51 2990
585.562 1005.51 2990
592.712 1005.51 2990
599.862 1005.51 2990
608.027 1007.19 2995
615.189 1007.19 2995
622.351 1007.19 2995
627.201 1003.49 2984
633.274 1001.81 2979
641.472 1003.49 2984
648.608 1003.49 2984
655.744 1003.49 2984
662.879 1003.49 2984
670.015 1003.49 2984
672.385 996.431 2963
675.801 991.05 2947
681.69 989.369 2942
688.725 989.369 2942
695.76 989.369 2942
702.796 989.369 2942
708.625 987.687 2937
715.648 987.687 2937
723.901 989.369 2942
730.937 989.369 2942
743.239 996.431 2963
750.325 996.431 2963
761.5 1001.81 2979
768.624 1001.81 2979
785.643 1014.59 3017
799.953 1023.67 3044
814.657 1033.09 3072
822.004 1033.09 3072
833.939 1038.8 3089
846.228 1044.86 3107
858.329 1050.57 3124
865.799 1050.57 3124
873.27 1050.57 3124
882.432 1052.59 3130
891.622 1054.61 3136
899.122 1054.61 3136
906.621 1054.61 3136
914.12 1054.61 3136
921.619 1054.61 3136
927.341 1052.59 3130
931.241 1048.56 3118
929.967 1038.8 3089
932.195 1033.09 3072
939.541 1033.09 3072
941.647 1027.37 3055
943.982 1021.99 3039
949.372 1019.97 3033
956.624 1019.97 3033
956.886 1012.57 3011
958.963 1007.19 2995
960.964 1001.81 2979
968.087 1001.81 2979
971.61 998.112 2968
975.41 994.75 2958
982.483 994.75 2958
989.557 994.75 2958
992.924 991.05 2947
994.881 986.006 2932
991.3 975.581 2901
996.516 973.899 2896
1003.44 973.899 2896
1008.62 972.218 2891
1013.78 970.537 2886
1017.14 967.174 2876
1024.02 967.174 2876
1027.31 963.811 2866
1034.17 963.811 2866
1039.57 962.466 2862
1046.41 962.466 2862
1049.58 959.103 2852
1052.69 955.74 2842
1063.22 959.103 2852
1070.04 959.103 2852
1078.74 960.784 2857
1085.58 960.784 2857
1092.41 960.784 2857
1101.16 962.466 2862
1108.01 962.466 2862
1114.85 962.466 2862
1127.18 967.174 2876
1134.06 967.174 2876
1140.94 967.174 2876
1147.81 967.174 2876
1154.69 967.174 2876
1163.59 968.855 2881
1180.63 977.262 2906
1187.58 977.262 2906
1199.05 980.962 2917
1206.03 980.962 2917
1219.24 986.006 2932
1226.25 986.006 2932
1233.27 986.006 2932
1246.62 991.05 2947
1265.16 1000.13 2974
1272.27 1000.13 2974
1279.38 1000.13 2974
1286.49 1000.13 2974
1304.91 1008.87 3000
1312.09 1008.87 3000
1338.61 1023.67 3044
1353.4 1029.39 3061
1360.72 1029.39 3061
1368.04 1029.39 3061
1367.72 1023.67 3044
1375 1023.67 3044
1402.72 1038.8 3089
1410.1 1038.8 3089
1417.49 1038.8 3089
1399.05 1019.97 3033
1386.36 1005.51 2990
1393.51 1005.51 2990
1400.66 1005.51 2990
1390.39 993.068 2953
1584.57 1056.63 3142
1592.08 1056.63 3142
1599.59 1056.63 3142
1600.97 1052.59 3130
1620.79 1060.66 3154
1628.33 1060.66 3154
1635.87 1060.66 3154
1643.42 1060.66 3154
1650.96 1060.66 3154
1658.5 1060.66 3154
1662.87 1058.64 3148
1632.99 1025.69 3050
1640.28 1025.69 3050
1647.57 1025.69 3050
1666.8 1033.09 3072
1693.22 1044.86 3107
1719.81 1056.63 3142
1727.32 1056.63 3142
1751.4 1066.72 3172
1758.99 1066.72 3172
1766.57 1066.72 3172
1774.16 1066.72 3172
1758.15 1052.59 3130
1641.83 962.466 2862
1648.68 962.466 2862
1729.56 1005.51 2990
1777.95 1029.39 3061
1785.27 1029.39 3061
1792.59 1029.39 3061
1799.91 1029.39 3061
1800.74 1025.69 3050
1797.95 1019.97 3033
1779.61 1005.51 2990
1786.76 1005.51 2990
1765.11 989.369 2942
1729.38 965.492 2871
1727.78 960.784 2857
1734.61 960.784 2857
1714.62 945.987 2813
1718.9 944.642 2809
1728.08 945.987 2813
1734.8 945.987 2813
1753.29 952.377 2832
1760.07 952.377 2832
1813.01 977.262 2906
1829.97 982.643 2922
1862.74 996.431 2963
1869.82 996.431 2963
1876.91 996.431 2963
1857.92 982.643 2922
1864.91 982.643 2922
1871.9 982.643 2922
1878.89 982.643 2922
-2106.16 952.726 2813
-2103.17 954.419 2818
-2096.43 954.419 2818
-2089.69 954.419 2818
-2086.65 956.113 2823
-2079.9 956.113 2823
-2073.15 956.113 2823
-2066.39 956.113 2823
-2059.64 956.113 2823
-1859.3 964.241 2847
-1852.49 964.241 2847
-1845.68 964.241 2847
-1838.87 964.241 2847
-1822.41 959.161 2832
-1791.28 946.291 2794
-1784.6 946.291 2794
-1772.19 943.243 2785
-1774.4 947.984 2799
-1767.71 947.984 2799
-1761.02 947.984 2799
-1754.32 947.984 2799
-1724.53 935.453 2762
-1729.12 941.549 2780
-1742.92 952.726 2813
-1736.19 952.726 2813
-1729.46 952.726 2813
-1728.86 956.113 2823
-1722.11 956.113 2823
-1715.36 956.113 2823
-1708.61 956.113 2823
-1568.85 1032.99 3050
-1561.56 1032.99 3050
-1554.26 1032.99 3050
-1546.97 1032.99 3050
-1539.68 1032.99 3050
-1526.86 1029.27 3039
-1511.09 1023.51 3022
-1514.81 1030.96 3044
-1518.92 1038.75 3067
-1511.59 1038.75 3067
-1504.25 1038.75 3067
-1496.92 1038.75 3067
-1489.58 1038.75 3067
-1482.25 1038.75 3067
-1461.45 1029.27 3039
-1420.21 1005.22 2968
-1403.11 998.11 2947
-1396.07 998.11 2947
-1384.31 994.723 2937
-1367.9 987.949 2917
-1353.46 982.53 2901
-1346.53 982.53 2901
-1337.28 980.837 2896
-1325.76 977.45 2886
-1318.86 977.45 2886
-1311.96 977.45 2886
-1305.06 977.45 2886
-1295.91 975.757 2881
-1289.02 975.757 2881
-1282.13 975.757 2881
-1270.81 972.37 2871
-1279.36 984.224 2906
-1283.79 993.03 2932
-1299.42 1010.64 2984
-1292.29 1010.64 2984
-1315.73 1034.69 3055
-1311 1036.72 3061
-1308.36 1040.45 3072
-1301.01 1040.45 3072
-1300.83 1046.2 3089
-1293.44 1046.2 3089
-1286.05 1046.2 3089
-1276.6 1044.51 3084
-1264.28 1040.45 3072
-1247.94 1032.99 3050
-1240.64 1032.99 3050
-1233.35 1032.99 3050
-1230.48 1036.72 3061
-1223.16 1036.72 3061
-1215.84 1036.72 3061
-1208.52 1036.72 3061
-1207.87 1042.48 3078
-1200.51 1042.48 3078
-1193.15 1042.48 3078
-1176.93 1034.69 3055
-1150.86 1018.09 3006
-1121.23 998.11 2947
-1114.18 998.11 2947
-1097.74 989.643 2922
-1079.18 979.143 2891
-1075.98 982.53 2901
-1072.72 985.917 2911
-1073.45 993.03 2932
-1066.44 993.03 2932
-1091.95 1023.51 3022
-1094.77 1032.99 3050
-1087.48 1032.99 3050
-1092.23 1044.51 3084
-1084.85 1044.51 3084
-1077.48 1044.51 3084
-1070.1 1044.51 3084
-1052.74 1034.69 3055
-1039.95 1029.27 3039
-1025.21 1021.82 3017
-1018 1021.82 3017
-1003.41 1014.37 2995
-999.909 1018.09 3006
-1005.27 1030.96 3044
-1003.56 1036.72 3061
-996.245 1036.72 3061
-988.925 1036.72 3061
-974.55 1029.27 3039
-967.283 1029.27 3039
-958.121 1027.24 3033
-950.868 1027.24 3033
-943.615 1027.24 3033
-936.362 1027.24 3033
-929.109 1027.24 3033
-925.2 1030.96 3044
-919.73 1032.99 3050
-912.437 1032.99 3050
-905.143 1032.99 3050
-899.322 1034.69 3055
-892.016 1034.69 3055
-884.711 1034.69 3055
-877.405 1034.69 3055
-876.651 1042.48 3078
-869.29 1042.48 3078
-861.93 1042.48 3078
-854.569 1042.48 3078
-845.557 1040.45 3072
-835.21 1036.72 3061
-827.89 1036.72 3061
-816.013 1030.96 3044
-805.811 1027.24 3033
-795.662 1023.51 3022
-788.436 1023.51 3022
-777.073 1018.09 3006
-765.787 1012.67 2990
-758.637 1012.67 2990
-752.744 1014.37 2995
-745.582 1014.37 2995
-738.42 1014.37 2995
-731.258 1014.37 2995
-724.096 1014.37 2995
-716.934 1014.37 2995
-709.772 1014.37 2995
-702.61 1014.37 2995
-684.302 998.11 2947
-677.255 998.11 2947
-665.66 991.336 2927
-655.06 985.917 2911
-651.661 991.336 2927
-645.763 993.03 2932
-638.752 993.03 2932
-632.818 994.723 2937
-625.794 994.723 2937
-624.249 1003.53 2963
-617.163 1003.53 2963
-611.107 1005.22 2968
-606.249 1008.95 2979
-599.125 1008.95 2979
-592.001 1008.95 2979
-584.878 1008.95 2979
-575.62 1005.22 2968
-568.523 1005.22 2968
-560.48 1003.53 2963
-555.449 1007.25 2974
-549.259 1008.95 2979
-547.959 1019.79 3011
-540.759 1019.79 3011
-535.508 1023.51 3022
-531.253 1029.27 3039
-523.986 1029.27 3039
-516.719 1029.27 3039
-507.607 1025.54 3028
-498.549 1021.82 3017
-493.126 1025.54 3028
-487.65 1029.27 3039
-480.383 1029.27 3039
-474.828 1032.99 3050
-468.301 1034.69 3055
-460.996 1034.69 3055
-453.69 1034.69 3055
-446.385 1034.69 3055
-436.78 1029.27 3039
-429.513 1029.27 3039
-408.073 994.723 2937
-399.002 989.643 2922
-400.332 1010.64 2984
-393.987 1012.67 2990
-386.837 1012.67 2990
-379.687 1012.67 2990
-372.537 1012.67 2990
-365.387 1012.67 2990
-358.237 1012.67 2990
-352.966 1018.09 3006
-349.574 1029.27 3039
-342.307 1029.27 3039
-335.039 1029.27 3039
-327.125 1027.24 3033
-319.872 1027.24 3033
-312.619 1027.24 3033
-305.367 1027.24 3033
-297.622 1025.54 3028
-289.806 1023.51 3022
-285.198 1032.99 3050
-277.904 1032.99 3050
-270.611 1032.99 3050
-263.749 1034.69 3055
-256.947 1036.72 3061
-250.525 1040.45 3072
-243.178 1040.45 3072
-235.832 1040.45 3072
-228.486 1040.45 3072
-222.796 1048.24 3095
-215.395 1048.24 3095
-207.994 1048.24 3095
-200.593 1048.24 3095
-193.192 1048.24 3095
-185.79 1048.24 3095
-179.081 1052.3 3107
-171.651 1052.3 3107
-164.222 1052.3 3107
-156.792 1052.3 3107
-87.7586 771.867 2279
-82.3088 771.867 2279
-77.2975 776.27 2292
-71.8166 776.27 2292
-66.4226 777.286 2295
-60.9345 777.286 2295
-55.4465 777.286 2295
-49.8931 776.27 2292
-44.4123 776.27 2292
-38.9314 776.27 2292
-33.4506 776.27 2292
-28.0063 777.286 2295
-22.5477 778.302 2298
-17.0747 779.318 2301
-11.5723 779.318 2301
-6.06996 779.318 2301
-0.568308 780.334 2304
4.94769 781.35 2307
10.4644 781.35 2307
16.0504 784.737 2317
21.619 785.753 2320
27.1669 785.753 2320
32.7147 785.753 2320
38.378 788.124 2327
43.9992 789.14 2330
49.5709 789.14 2330
55.1426 789.14 2330
60.7144 789.14 2330
66.2861 789.14 2330
72.0737 791.511 2337
77.6622 791.511 2337
83.2507 791.511 2337
88.8392 791.511 2337
94.4276 791.511 2337
100.016 791.511 2337
105.605 791.511 2337
111.193 791.511 2337
116.782 791.511 2337
122.37 791.511 2337
127.958 791.511 2337
133.547 791.511 2337
139.135 791.511 2337
144.724 791.511 2337
226.003 1003.53 2963
233.088 1003.53 2963
240.174 1003.53 2963
247.259 1003.53 2963
254.345 1003.53 2963
261.43 1003.53 2963
269.512 1007.25 2974
276.624 1007.25 2974
283.736 1007.25 2974
290.261 1005.22 2968
297.358 1005.22 2968
302.917 1000.14 2953
311.028 1003.53 2963
318.65 1005.22 2968
325.748 1005.22 2968
332.845 1005.22 2968
339.943 1005.22 2968
347.04 1005.22 2968
353.541 1003.53 2963
359.409 1000.14 2953
365.105 996.417 2942
372.141 996.417 2942
378.531 994.723 2937
383.586 989.643 2922
393.246 996.417 2942
400.962 998.11 2947
408.009 998.11 2947
415.056 998.11 2947
421.387 996.417 2942
429.15 998.11 2947
436.198 998.11 2947
446.403 1005.22 2968
455.181 1008.95 2979
465.564 1016.06 3000
472.738 1016.06 3000
479.912 1016.06 3000
487.086 1016.06 3000
494.26 1016.06 3000
494.414 1001.84 2958
500.639 1000.14 2953
507.701 1000.14 2953
514.762 1000.14 2953
521.824 1000.14 2953
527.811 998.11 2947
531.228 991.336 2927
535.285 985.917 2911
543.364 987.949 2917
550.34 987.949 2917
559.226 991.336 2927
566.225 991.336 2927
573.224 991.336 2927
580.224 991.336 2927
595.448 1005.22 2968
603.764 1007.25 2974
610.876 1007.25 2974
617.987 1007.25 2974
622.787 1003.53 2963
627.747 1000.14 2953
638.033 1005.22 2968
645.13 1005.22 2968
652.228 1005.22 2968
659.325 1005.22 2968
666.422 1005.22 2968
671.25 1001.84 2958
671.215 991.336 2927
679.373 993.03 2932
687.555 994.723 2937
694.578 994.723 2937
701.601 994.723 2937
708.625 994.723 2937
716.866 996.417 2942
725.132 998.11 2947
732.179 998.11 2947
743.239 1003.53 2963
750.325 1003.53 2963
758.688 1005.22 2968
765.786 1005.22 2968
785.643 1021.82 3017
798.639 1029.27 3039
810.149 1034.69 3055
817.455 1034.69 3055
833.939 1046.2 3089
844.594 1050.27 3101
852.01 1050.27 3101
859.425 1050.27 3101
873.27 1058.06 3124
882.432 1060.09 3130
891.622 1062.12 3136
899.122 1062.12 3136
906.621 1062.12 3136
914.12 1062.12 3136
921.619 1062.12 3136
927.341 1060.09 3130
931.241 1056.03 3118
929.967 1046.2 3089
932.195 1040.45 3072
939.541 1040.45 3072
941.647 1034.69 3055
943.982 1029.27 3039
949.372 1027.24 3033
956.624 1027.24 3033
956.886 1019.79 3011
958.963 1014.37 2995
960.964 1008.95 2979
968.087 1008.95 2979
971.61 1005.22 2968
975.41 1001.84 2958
982.483 1001.84 2958
989.557 1001.84 2958
992.924 998.11 2947
994.881 993.03 2932
991.3 982.53 2901
996.516 980.837 2896
1003.44 980.837 2896
1008.62 979.143 2891
1013.78 977.45 2886
1017.14 974.063 2876
1024.02 974.063 2876
1027.31 970.676 2866
1034.17 970.676 2866
1039.57 969.322 2862
1046.41 969.322 2862
1049.58 965.935 2852
1052.69 962.548 2842
1063.22 965.935 2852
1070.04 965.935 2852
1078.74 967.628 2857
1085.58 967.628 2857
1092.41 967.628 2857
1101.16 969.322 2862
1108.01 969.322 2862
1114.85 969.322 2862
1127.18 974.063 2876
1134.06 974.063 2876
1140.94 974.063 2876
1147.81 974.063 2876
1154.69 974.063 2876
1163.59 975.757 2881
1180.63 984.224 2906
1187.58 984.224 2906
1199.05 987.949 2917
1206.03 987.949 2917
1219.24 993.03 2932
1226.25 993.03 2932
1233.27 993.03 2932
1246.62 998.11 2947
1265.16 1007.25 2974
1272.27 1007.25 2974
1279.38 1007.25 2974
1286.49 1007.25 2974
1304.91 1016.06 3000
1312.09 1016.06 3000
1338.61 1030.96 3044
1353.4 1036.72 3061
1360.72 1036.72 3061
1368.04 1036.72 3061
1367.72 1030.96 3044
1375 1030.96 3044
1402.72 1046.2 3089
1410.1 1046.2 3089
1417.49 1046.2 3089
1399.05 1027.24 3033
1386.36 1012.67 2990
1393.51 1012.67 2990
1400.66 1012.67 2990
1390.39 1000.14 2953
1584.57 1064.15 3142
1592.08 1064.15 3142
1599.59 1064.15 3142
1600.97 1060.09 3130
1620.79 1068.22 3154
1628.33 1068.22 3154
1635.87 1068.22 3154
1643.42 1068.22 3154
1650.96 1068.22 3154
1658.5 1068.22 3154
1662.87 1066.19 3148
1632.99 1032.99 3050
1640.28 1032.99 3050
1647.57 1032.99 3050
1666.8 1040.45 3072
1693.22 1052.3 3107
1719.81 1064.15 3142
1727.32 1064.15 3142
1751.4 1074.31 3172
1758.99 1074.31 3172
1766.57 1074.31 3172
1774.16 1074.31 3172
1758.15 1060.09 3130
1639.28 984.224 2906
1646.23 984.224 2906
1633.26 972.37 2871
1612.71 956.113 2823
1641.83 969.322 2862
1648.68 969.322 2862
1729.56 1012.67 2990
1777.95 1036.72 3061
1785.27 1036.72 3061
1792.59 1036.72 3061
1799.91 1036.72 3061
1800.74 1032.99 3050
1797.95 1027.24 3033
1779.61 1012.67 2990
1786.76 1012.67 2990
1765.11 996.417 2942
1729.38 972.37 2871
1727.78 967.628 2857
1734.61 967.628 2857
1714.62 952.726 2813
1718.9 951.371 2809
1728.08 952.726 2813
1734.8 952.726 2813
1750.82 957.806 2828
1757.58 957.806 2828
1794.29 974.063 2876
1819.95 984.224 2906
1833.82 987.949 2917
1840.79 987.949 2917
1847.77 987.949 2917
-2106.16 959.464 2813
-2103.17 961.17 2818
-2096.43 961.17 2818
-2089.69 961.17 2818
-2086.65 962.875 2823
-2079.9 962.875 2823
-2073.15 962.875 2823
-2066.39 962.875 2823
-2059.64 962.875 2823
-1876.2 972.767 2852
-1869.38 972.767 2852
-1862.56 972.767 2852
-1852.49 971.061 2847
-1845.68 971.061 2847
-1838.87 971.061 2847
-1822.41 965.945 2832
-1797.69 956.395 2804
-1790.98 956.395 2804
-1777.92 952.984 2794
-1774.4 954.689 2799
-1779.71 961.17 2818
-1772.97 961.17 2818
-1766.23 961.17 2818
-1727.65 943.775 2767
-1729.12 948.209 2780
-1742.92 959.464 2813
-1736.19 959.464 2813
-1729.46 959.464 2813
-1728.86 962.875 2823
-1722.11 962.875 2823
-1715.36 962.875 2823
-1708.61 962.875 2823
-1568.85 1040.3 3050
-1561.56 1040.3 3050
-1554.26 1040.3 3050
-1546.97 1040.3 3050
-1539.68 1040.3 3050
-1526.86 1036.55 3039
-1522.09 1038.25 3044
-1514.81 1038.25 3044
-1518.92 1046.1 3067
-1511.59 1046.1 3067
-1504.25 1046.1 3067
-1496.92 1046.1 3067
-1489.58 1046.1 3067
-1482.25 1046.1 3067
-1461.45 1036.55 3039
-1423.08 1014.38 2974
-1408.35 1008.92 2958
-1401.28 1008.92 2958
-1386.66 1003.46 2942
-1374.94 1000.05 2932
-1360.93 994.937 2917
-1353.95 994.937 2917
-1341.9 991.185 2906
-1334.95 991.185 2906
-1328 991.185 2906
-1321.05 991.185 2906
-1309.58 987.774 2896
-1302.65 987.774 2896
-1293.49 986.069 2891
-1293.25 991.185 2906
-1286.31 991.185 2906
-1279.36 991.185 2906
-1297.36 1010.63 2963
-1309 1025.29 3006
-1301.82 1025.29 3006
-1315.73 1042.01 3055
-1311 1044.05 3061
-1306.23 1046.1 3067
-1298.9 1046.1 3067
-1298.72 1051.9 3084
-1291.35 1051.9 3084
-1283.97 1051.9 3084
-1271.63 1047.8 3072
-1257.29 1042.01 3055
-1243.44 1036.55 3039
-1236.17 1036.55 3039
-1228.9 1036.55 3039
-1226.06 1040.3 3050
-1223.16 1044.05 3061
-1215.84 1044.05 3061
-1208.52 1044.05 3061
-1201.2 1044.05 3061
-1193.88 1044.05 3061
-1186.56 1044.05 3061
-1176.93 1042.01 3055
-1150.86 1025.29 3006
-1125.41 1008.92 2958
-1118.34 1008.92 2958
-1107.13 1005.17 2947
-1090.75 996.642 2922
-1075.98 989.48 2901
-1072.72 992.891 2911
-1073.45 1000.05 2932
-1066.44 1000.05 2932
-1091.95 1030.75 3022
-1094.77 1040.3 3050
-1087.48 1040.3 3050
-1080.19 1040.3 3050
-1069.02 1036.55 3039
-1030.37 1027 3011
-1023.17 1027 3011
-1015.97 1027 3011
-980.63 998.348 2927
-985.606 1010.63 2963
-992.721 1025.29 3006
-985.533 1025.29 3006
-978.344 1025.29 3006
-971.156 1025.29 3006
-963.968 1025.29 3006
-956.78 1025.29 3006
-944.537 1019.84 2990
-932.371 1014.38 2974
-921.837 1010.63 2963
-914.751 1010.63 2963
-907.666 1010.63 2963
-900.581 1010.63 2963
-896.812 1014.38 2974
-897.479 1023.25 3000
-890.305 1023.25 3000
-889.607 1030.75 3022
-887.344 1036.55 3039
-883.263 1040.3 3050
-875.969 1040.3 3050
-868.676 1040.3 3050
-864.489 1044.05 3061
-857.169 1044.05 3061
-849.849 1044.05 3061
-837.85 1038.25 3044
-827.57 1034.5 3033
-820.317 1034.5 3033
-811.724 1032.8 3028
-794.387 1019.84 2990
-785.657 1017.79 2984
-777.217 1016.08 2979
-770.094 1016.08 2979
-757.591 1008.92 2958
-749.249 1007.22 2953
-743.444 1008.92 2958
-737.616 1010.63 2963
-730.53 1010.63 2963
-726.131 1014.38 2974
-719.019 1014.38 2974
-711.907 1014.38 2974
-702.189 1010.63 2963
-691.35 1005.17 2947
-675.943 992.891 2911
-668.982 992.891 2911
-660.884 991.185 2906
-651.684 987.774 2896
-645.872 989.48 2901
-644.662 998.348 2927
-637.662 998.348 2927
-630.663 998.348 2927
-624.729 1000.05 2932
-618.771 1001.76 2937
-611.748 1001.76 2937
-610.078 1010.63 2963
-602.992 1010.63 2963
-596.913 1012.33 2968
-589.815 1012.33 2968
-582.718 1012.33 2968
-573.681 1008.92 2958
-566.608 1008.92 2958
-559.534 1008.92 2958
-551.527 1007.22 2953
-545.387 1008.92 2958
-542.135 1016.08 2979
-535.012 1016.08 2979
-530.723 1021.54 2995
-523.561 1021.54 2995
-516.399 1021.54 2995
-509.237 1021.54 2995
-501.237 1019.84 2990
-494.087 1019.84 2990
-480.912 1007.22 2953
-473.85 1007.22 2953
-465.84 1005.17 2947
-460.505 1008.92 2958
-458.337 1019.84 2990
-451.187 1019.84 2990
-444.037 1019.84 2990
-436.887 1019.84 2990
-424.419 1007.22 2953
-417.358 1007.22 2953
-408.073 1001.76 2937
-399.002 996.642 2922
-392.014 996.642 2922
-389.771 1008.92 2958
-382.697 1008.92 2958
-375.624 1008.92 2958
-368.55 1008.92 2958
-362.088 1010.63 2963
-355.002 1010.63 2963
-348.504 1012.33 2968
-343.247 1017.79 2984
-337.914 1023.25 3000
-330.74 1023.25 3000
-323.566 1023.25 3000
-316.392 1023.25 3000
-311.486 1030.75 3022
-304.259 1030.75 3022
-297.033 1030.75 3022
-288.751 1027 3011
-281.551 1027 3011
-274.351 1027 3011
-270.079 1038.25 3044
-262.799 1038.25 3044
-255.52 1038.25 3044
-249.628 1044.05 3061
-242.308 1044.05 3061
-235.832 1047.8 3072
-228.486 1047.8 3072
-221.14 1047.8 3072
-213.794 1047.8 3072
-207.994 1055.65 3095
-200.593 1055.65 3095
-193.192 1055.65 3095
-185.79 1055.65 3095
-178.735 1057.7 3101
-171.32 1057.7 3101
-163.904 1057.7 3101
-156.489 1057.7 3101
-88.1052 780.396 2288
-82.6339 780.396 2288
-77.2975 781.761 2292
-71.9106 782.784 2295
-66.5094 783.807 2298
-61.0142 783.807 2298
-55.519 783.807 2298
-50.0238 783.807 2298
-44.4123 781.761 2292
-38.9314 781.761 2292
-33.4506 781.761 2292
-28.0795 784.83 2301
-22.5771 784.83 2301
-17.0747 784.83 2301
-11.5723 784.83 2301
-6.07787 785.854 2304
-0.568308 785.854 2304
4.94769 786.877 2307
10.4644 786.877 2307
16.0504 790.288 2317
21.619 791.311 2320
27.1669 791.311 2320
32.7147 791.311 2320
38.378 793.698 2327
43.9425 793.698 2327
49.5709 794.722 2330
55.1426 794.722 2330
60.7144 794.722 2330
66.2861 794.722 2330
72.0737 797.109 2337
77.6622 797.109 2337
83.2507 797.109 2337
88.8392 797.109 2337
94.4276 797.109 2337
99.8449 795.745 2333
105.424 795.745 2333
111.193 797.109 2337
116.931 798.133 2340
122.527 798.133 2340
128.123 798.133 2340
133.547 797.109 2337
139.135 797.109 2337
144.724 797.109 2337
225.24 1007.22 2953
232.302 1007.22 2953
239.363 1007.22 2953
246.425 1007.22 2953
253.486 1007.22 2953
260.548 1007.22 2953
268.516 1010.63 2963
275.601 1010.63 2963
282.686 1010.63 2963
288.794 1007.22 2953
295.254 1005.17 2947
301.789 1003.46 2942
309.978 1007.22 2953
318.114 1010.63 2963
325.199 1010.63 2963
332.284 1010.63 2963
339.37 1010.63 2963
346.455 1010.63 2963
351.035 1003.46 2942
357.462 1001.76 2937
363.244 998.348 2927
370.243 998.348 2927
377.243 998.348 2927
381.485 991.185 2906
388.434 991.185 2906
396.064 992.891 2911
403.025 992.891 2911
409.986 992.891 2911
417.806 994.937 2917
426.966 1000.05 2932
433.977 1000.05 2932
442.493 1003.46 2942
450.292 1005.17 2947
457.339 1005.17 2947
464.386 1005.17 2947
471.434 1005.17 2947
478.481 1005.17 2947
485.528 1005.17 2947
490.904 1001.76 2937
497.079 1000.05 2932
504.09 1000.05 2932
511.102 1000.05 2932
518.113 1000.05 2932
524.229 998.348 2927
528.324 992.891 2911
532.527 987.774 2896
541.315 991.185 2906
548.264 991.185 2906
557.315 994.937 2917
565.258 996.642 2922
572.245 996.642 2922
579.232 996.642 2922
587.223 998.348 2927
597.268 1003.46 2942
605.33 1005.17 2947
612.377 1005.17 2947
619.424 1005.17 2947
626.471 1005.17 2947
638.033 1012.33 2968
645.13 1012.33 2968
652.228 1012.33 2968
659.325 1012.33 2968
666.422 1012.33 2968
671.25 1008.92 2958
671.215 998.348 2927
679.373 1000.05 2932
687.555 1001.76 2937
694.578 1001.76 2937
701.601 1001.76 2937
708.625 1001.76 2937
716.866 1003.46 2942
725.132 1005.17 2947
732.179 1005.17 2947
743.239 1010.63 2963
750.325 1010.63 2963
758.688 1012.33 2968
765.786 1012.33 2968
785.643 1029.05 3017
798.639 1036.55 3039
810.149 1042.01 3055
817.455 1042.01 3055
833.939 1053.6 3089
842.96 1055.65 3095
850.361 1055.65 3095
857.762 1055.65 3095
866.841 1057.7 3101
880.74 1065.54 3124
888.211 1065.54 3124
895.681 1065.54 3124
903.152 1065.54 3124
910.622 1065.54 3124
918.092 1065.54 3124
923.785 1063.49 3118
922.58 1053.6 3089
928.461 1051.9 3084
927.036 1042.01 3055
934.342 1042.01 3055
936.715 1036.55 3039
942.119 1034.5 3033
939.042 1023.25 3000
946.216 1023.25 3000
951.801 1021.54 2995
953.84 1016.08 2979
950.641 1005.17 2947
957.688 1005.17 2947
964.735 1005.17 2947
971.783 1005.17 2947
978.83 1005.17 2947
985.877 1005.17 2947
989.555 1001.76 2937
989.792 994.937 2917
991.3 989.48 2901
994.796 986.069 2891
1001.71 986.069 2891
1006.88 984.363 2886
1012.02 982.658 2881
1013.61 977.542 2866
1020.46 977.542 2866
1027.31 977.542 2866
1034.17 977.542 2866
1035.94 972.767 2852
1042.76 972.767 2852
1045.9 969.356 2842
1052.69 969.356 2842
1059.49 969.356 2842
1068.16 971.061 2847
1074.97 971.061 2847
1081.78 971.061 2847
1088.58 971.061 2847
1095.39 971.061 2847
1102.2 971.061 2847
1109.01 971.061 2847
1121.7 976.177 2862
1128.54 976.177 2862
1135.38 976.177 2862
1138.24 972.767 2852
1145.06 972.767 2852
1159.55 979.247 2871
1170.48 982.658 2881
1177.37 982.658 2881
1194.53 991.185 2906
1201.48 991.185 2906
1217.16 998.348 2927
1224.16 998.348 2927
1231.16 998.348 2927
1246.62 1005.17 2947
1265.16 1014.38 2974
1272.27 1014.38 2974
1279.38 1014.38 2974
1286.49 1014.38 2974
1297.95 1017.79 2984
1305.09 1017.79 2984
1331.57 1032.8 3028
1353.4 1044.05 3061
1360.72 1044.05 3061
1368.04 1044.05 3061
1367.72 1038.25 3044
1375 1038.25 3044
1387.28 1042.01 3055
1394.58 1042.01 3055
1401.89 1042.01 3055
1388.9 1027 3011
1369.21 1007.22 2953
1376.27 1007.22 2953
1361.31 991.185 2906
1358.84 984.363 2886
1557.84 1053.6 3089
1565.23 1053.6 3089
1572.61 1053.6 3089
1594.83 1063.49 3118
1602.29 1063.49 3118
1625.23 1073.73 3148
1632.76 1073.73 3148
1640.29 1073.73 3148
1647.82 1073.73 3148
1655.34 1073.73 3148
1662.87 1073.73 3148
1577.84 1005.17 2947
1584.89 1005.17 2947
1591.93 1005.17 2947
1602.24 1007.22 2953
1609.3 1007.22 2953
1700.65 1059.74 3107
1708.08 1059.74 3107
1715.51 1059.74 3107
1710.19 1051.9 3084
1717.56 1051.9 3084
1715.43 1046.1 3067
1638.51 994.937 2917
1639.28 991.185 2906
1646.23 991.185 2906
1633.26 979.247 2871
1612.71 962.875 2823
1641.83 976.177 2862
1648.68 976.177 2862
1729.56 1019.84 2990
1736.71 1019.84 2990
1768.94 1034.5 3033
1776.19 1034.5 3033
1783.45 1034.5 3033
1765.31 1019.84 2990
1772.46 1019.84 2990
1751.04 1003.46 2942
1758.08 1003.46 2942
1737.51 987.774 2896
1729.38 979.247 2871
1727.78 974.472 2857
1734.61 974.472 2857
1714.62 959.464 2813
1718.9 958.1 2809
1728.08 959.464 2813
1734.8 959.464 2813
1750.82 964.581 2828
1757.58 964.581 2828
1794.29 980.953 2876
1819.95 991.185 2906
1833.82 994.937 2917
1840.79 994.937 2917
1847.77 994.937 2917
-2103.17 964.829 2809
-2103.17 967.92 2818
-2096.43 967.92 2818
-2089.69 967.92 2818
-2086.65 969.638 2823
-2079.9 969.638 2823
-2073.15 969.638 2823
-2059.07 966.203 2813
-2052.35 966.203 2813
-1876.2 979.599 2852
-1869.38 979.599 2852
-1862.56 979.599 2852
-1852.49 977.881 2847
-1845.68 977.881 2847
-1838.87 977.881 2847
-1822.41 972.729 2832
-1797.69 963.112 2804
-1790.98 963.112 2804
-1777.92 959.677 2794
-1774.4 961.394 2799
-1779.71 967.92 2818
-1772.97 967.92 2818
-1766.23 967.92 2818
-1727.65 950.403 2767
-1729.12 954.868 2780
-1728.67 958.303 2790
-1722 958.303 2790
-1729.46 966.203 2813
-1728.86 969.638 2823
-1722.11 969.638 2823
-1715.36 969.638 2823
-1708.61 969.638 2823
-1534.39 1034.21 3011
-1541.39 1043.83 3039
-1534.12 1043.83 3039
-1526.86 1043.83 3039
-1522.09 1045.55 3044
-1514.81 1045.55 3044
-1512.98 1049.32 3055
-1505.67 1049.32 3055
