ply
format ascii 1.0
comment File generated
element vertex 2245
property float x
property float y
property float z
end_header
1389.34 574.234 3611
1397.98 574.234 3611
1403.5 572.962 3603
1412.11 572.962 3603
1411.66 569.305 3580
1405.15 563.262 3542
1398.85 557.378 3505
1386.75 549.268 3454
1395.01 549.268 3454
1380.52 540.362 3398
1377.2 535.91 3370
1377.04 532.729 3350
1385.05 532.729 3350
1384.75 529.549 3330
1387.27 527.481 3317
1386.79 524.301 3297
1381.14 519.212 3265
1388.95 519.212 3265
1393.76 518.099 3258
1398.97 517.145 3252
1406.75 517.145 3252
1414.52 517.145 3252
1422.3 517.145 3252
1432.72 518.099 3258
1443.6 519.212 3265
1454.08 520.166 3271
1461.9 520.166 3271
1469.72 520.166 3271
1477.54 520.166 3271
1485.36 520.166 3271
1493.19 520.166 3271
1498.25 519.212 3265
1502.83 518.099 3258
1510.62 518.099 3258
1509.56 515.077 3239
1511.68 513.169 3227
1513.28 511.102 3214
1509.61 507.285 3190
1517.24 507.285 3190
1516.26 504.423 3172
1509.43 499.652 3142
1497.15 493.132 3101
1504.57 493.132 3101
1492.48 486.771 3061
1478.24 479.774 3017
1448.53 467.847 2942
1445.67 464.667 2922
1452.66 464.667 2922
1441.66 458.942 2886
1443.54 457.352 2876
1443.36 455.126 2862
1450.2 455.126 2862
1454.5 454.33 2857
1461.33 454.33 2857
1463.03 452.74 2847
1469.83 452.74 2847
1476.64 452.74 2847
1480.85 451.945 2842
1485.02 451.15 2837
1489.18 450.355 2832
1495.95 450.355 2832
1502.72 450.355 2832
1509.5 450.355 2832
1514.13 449.719 2828
1520.89 449.719 2828
1522.25 448.129 2818
1528.99 448.129 2818
1533 447.333 2813
1539.73 447.333 2813
1544.26 446.697 2809
1548.21 445.902 2804
1549.37 444.312 2794
1556.05 444.312 2794
1562.74 444.312 2794
1569.42 444.312 2794
1576.1 444.312 2794
1585.61 445.107 2799
1595.15 445.902 2804
1601.85 445.902 2804
1608.56 445.902 2804
1615.26 445.902 2804
1624.86 446.697 2809
1631.58 446.697 2809
1638.3 446.697 2809
1645.01 446.697 2809
1651.73 446.697 2809
1658.45 446.697 2809
1667.54 447.333 2813
1674.26 447.333 2813
1680.99 447.333 2813
1690.72 448.129 2818
1697.46 448.129 2818
1707.22 448.924 2823
1713.97 448.924 2823
1720.72 448.924 2823
1724.41 448.129 2818
1731.15 448.129 2818
1734.8 447.333 2813
1741.53 447.333 2813
1748.26 447.333 2813
1752.49 446.697 2809
1759.21 446.697 2809
1765.92 446.697 2809
1772.64 446.697 2809
1779.36 446.697 2809
1786.07 446.697 2809
1792.79 446.697 2809
1796.31 445.902 2804
1803.01 445.902 2804
1806.49 445.107 2799
1813.18 445.107 2799
1819.88 445.107 2799
1823.31 444.312 2794
1827.37 443.676 2790
1834.04 443.676 2790
1840.71 443.676 2790
1840.76 442.086 2780
1847.41 442.086 2780
1854.06 442.086 2780
1860.7 442.086 2780
1867.35 442.086 2780
1871.3 441.45 2776
1874.56 440.654 2771
1881.19 440.654 2771
1885.09 440.018 2767
1884.87 438.428 2757
1888.72 437.792 2753
1895.3 437.792 2753
1901.88 437.792 2753
1898.76 435.566 2739
1902.53 434.93 2735
1909.07 434.93 2735
1915.61 434.93 2735
1922.15 434.93 2735
1928.69 434.93 2735
1938.06 435.566 2739
1944.61 435.566 2739
1951.16 435.566 2739
1957.71 435.566 2739
1964.26 435.566 2739
1970.81 435.566 2739
1970.86 434.134 2730
1974.49 433.498 2726
1974.47 432.067 2717
1980.97 432.067 2717
2000.63 434.93 2735
2007.17 434.93 2735
2016.66 435.566 2739
2029.85 436.997 2748
2040.13 437.792 2753
2046.71 437.792 2753
2053.3 437.792 2753
2059.88 437.792 2753
2066.46 437.792 2753
2069.28 436.997 2748
2062.26 434.134 2730
2052.11 430.636 2708
2055.55 430 2704
2062.01 430 2704
2068.48 430 2704
-2074.72 447.292 2771
-2068.09 447.292 2771
-2061.46 447.292 2771
-2054.84 447.292 2771
-2048.21 447.292 2771
-2055.58 450.359 2790
-2048.91 450.359 2790
-2042.24 450.359 2790
-2035.57 450.359 2790
-2028.9 450.359 2790
-2022.22 450.359 2790
-2015.55 450.359 2790
-2008.88 450.359 2790
-2002.21 450.359 2790
-1998.4 451.005 2794
-1991.72 451.005 2794
-2005.64 455.686 2823
-2029.34 462.627 2866
-2022.48 462.627 2866
-2015.63 462.627 2866
-2008.78 462.627 2866
-2001.92 462.627 2866
-1995.07 462.627 2866
-1981.97 461.174 2857
-1981.36 462.627 2866
-1977.95 463.434 2871
-1971.09 463.434 2871
-1964.22 463.434 2871
-1957.36 463.434 2871
-1953.89 464.241 2876
-1947.01 464.241 2876
-1940.13 464.241 2876
-1929.89 463.434 2871
-1923.03 463.434 2871
-1919.5 464.241 2876
-1912.62 464.241 2876
-1912.37 465.856 2886
-1905.47 465.856 2886
-1898.57 465.856 2886
-1891.67 465.856 2886
-1881.5 465.048 2881
-1881.12 466.663 2891
-1874.21 466.663 2891
-1867.29 466.663 2891
-1889.98 474.088 2937
-1889.37 475.702 2947
-1895.73 479.092 2968
-1888.64 479.092 2968
-1915.77 487.809 3022
-1929.39 493.135 3055
-1922.08 493.135 3055
-1939.85 499.592 3095
-1936.19 500.561 3101
-1935.62 502.336 3112
-1928.18 502.336 3112
-1920.74 502.336 3112
-1939.12 509.116 3154
-1946.27 512.99 3178
-1938.67 512.99 3178
-1945.66 516.864 3202
-1938 516.864 3202
-1930.34 516.864 3202
-1915.48 514.927 3190
-1904.26 513.958 3184
-1903.8 515.896 3196
-1937.09 527.033 3265
-1929.28 527.033 3265
-1932.66 530.1 3284
-1924.8 530.1 3284
-1947.89 538.656 3337
-1939.91 538.656 3337
-1943.51 541.884 3357
-1955.08 547.372 3391
-1967.07 553.022 3426
-1958.88 553.022 3426
-1966.63 557.542 3454
-1970.84 561.093 3476
-1962.53 561.093 3476
-1954.22 561.093 3476
-1945.91 561.093 3476
-1945.4 563.353 3490
-1945.38 565.774 3505
-1936.99 565.774 3505
-1940.72 569.325 3527
-1932.28 569.325 3527
-1927.67 570.455 3534
-1919.22 570.455 3534
-1915.09 571.747 3542
-1910.39 572.876 3549
-1910.48 575.459 3565
-1901.95 575.459 3565
-1897.15 576.589 3572
-1892.83 577.88 3580
-1884.27 577.88 3580
-1875.71 577.88 3580
-1874.97 580.302 3595
-1874.68 582.884 3611
-1870.18 584.176 3619
-1861.53 584.176 3619
-1852.88 584.176 3619
-1844.22 584.176 3619
-1835.57 584.176 3619
-1826.91 584.176 3619
-1818.26 584.176 3619
-1813.61 585.467 3627
-1808.91 586.758 3635
-1800.22 586.758 3635
-1791.53 586.758 3635
-1782.84 586.758 3635
-1781.46 589.18 3650
-1772.74 589.18 3650
-1764.01 589.18 3650
-1759.13 590.471 3658
-1762.34 594.507 3683
-1753.54 594.507 3683
-1752.31 597.089 3699
-1751.47 599.833 3716
-1746.34 601.125 3724
-1737.44 601.125 3724
-1735.96 603.708 3740
-1731.17 605.16 3749
-1725.88 606.452 3757
-1716.89 606.452 3757
-1719.73 610.649 3783
-1726.51 616.298 3818
-1725.03 619.042 3835
-1715.86 619.042 3835
-1706.69 619.042 3835
-1697.52 619.042 3835
-1688.35 619.042 3835
-1656.41 610.649 3783
-1632.55 605.16 3749
-1612.76 601.125 3724
-1571.99 589.18 3650
-1563.26 589.18 3650
-1544.73 585.467 3627
-1519.54 579.172 3588
-1491.59 571.747 3542
-1483.12 571.747 3542
-1462.16 566.904 3512
-1447.56 564.483 3497
-1430.55 561.093 3476
-1422.24 561.093 3476
-1402.13 556.412 3447
-1382.56 551.892 3419
-1354.69 543.982 3370
-1330.65 537.526 3330
-1322.69 537.526 3330
-1306.83 534.297 3310
-1298.91 534.297 3310
-1283.2 531.069 3290
-1275.33 531.069 3290
-1265.15 530.1 3284
-1250.02 527.033 3265
-1237.27 524.935 3252
-1229.49 524.935 3252
-1219.46 523.966 3246
-1209.09 522.837 3239
-1189.84 517.833 3208
-1182.17 517.833 3208
-1172.3 516.864 3202
-1160.28 514.927 3190
-1143.98 511.053 3166
-1136.41 511.053 3166
-1128.84 511.053 3166
-1108.52 505.242 3130
-1159.78 532.199 3297
-1151.9 532.199 3297
-1144.01 532.199 3297
-1136.13 532.199 3297
-1061.17 500.561 3101
-1010.6 480.06 2974
-1003.49 480.06 2974
-985.656 474.895 2942
-958.329 465.048 2881
-949.789 464.241 2876
-942.911 464.241 2876
-936.034 464.241 2876
-927.541 463.434 2871
-902.076 454.072 2813
-895.35 454.072 2813
-884.2 451.812 2799
-877.507 451.812 2799
-875.169 454.072 2813
-874.309 457.139 2832
-872.131 459.56 2847
-865.323 459.56 2847
-858.515 459.56 2847
-851.707 459.56 2847
-844.899 459.56 2847
-832.498 456.493 2828
-845.59 467.47 2896
-840.113 468.277 2901
-833.176 468.277 2901
-826.239 468.277 2901
-817.89 467.47 2896
-810.964 467.47 2896
-806.815 469.084 2906
-799.866 469.084 2906
-792.917 469.084 2906
-785.968 469.084 2906
-787.329 474.088 2937
-780.306 474.088 2937
-773.283 474.088 2937
-761.042 470.86 2917
-754.066 470.86 2917
-745.554 469.891 2911
-737.324 469.084 2906
-729.118 468.277 2901
-722.181 468.277 2901
-715.244 468.277 2901
-708.307 468.277 2901
-701.37 468.277 2901
-694.433 468.277 2901
-683.941 465.856 2886
-679.169 545.112 3377
-671.094 545.112 3377
-663.018 545.112 3377
-605.875 504.273 3124
-598.405 504.273 3124
-590.935 504.273 3124
-585.705 506.21 3136
-626.513 548.502 3398
-623.483 553.022 3426
-615.29 553.022 3426
-609.579 555.282 3440
-602.576 556.412 3447
-594.333 556.412 3447
-586.091 556.412 3447
-585.056 563.353 3490
-579.189 565.774 3505
-573.251 568.195 3520
-564.833 568.195 3520
-561 572.876 3549
-557.339 577.88 3580
-550.005 579.172 3588
-541.425 579.172 3588
-533.884 580.302 3595
-526.456 581.593 3603
-523.446 587.888 3642
-514.737 587.888 3642
-507.139 589.18 3650
-498.411 589.18 3650
-489.683 589.18 3650
-480.954 589.18 3650
-471.191 587.888 3642
-460.577 585.467 3627
-452.901 586.758 3635
-444.208 586.758 3635
-436.355 587.888 3642
-430.581 591.924 3667
-423.653 594.507 3683
-414.845 594.507 3683
-406.92 595.798 3691
-399.82 598.381 3707
-392.748 601.125 3724
-383.843 601.125 3724
-375.743 602.416 3732
-369.276 606.452 3757
-361.155 607.904 3766
-352.149 607.904 3766
-344.693 610.649 3783
-336.445 612.101 3792
-328.068 613.393 3800
-318.981 613.393 3800
-311.362 616.298 3818
-304.29 620.495 3844
-297.861 626.306 3880
-288.583 626.306 3880
-280.6 629.212 3898
-271.906 630.664 3907
-263.772 633.57 3925
-254.386 633.57 3925
-245.001 633.57 3925
-235.615 633.57 3925
-226.229 633.57 3925
-215.849 630.664 3907
-122.624 374.492 2320
-117.077 374.492 2320
-111.529 374.492 2320
-105.981 374.492 2320
-99.4807 370.941 2298
-93.8628 370.457 2295
-88.3747 370.457 2295
-82.6339 369.327 2288
-76.8591 367.874 2279
-71.4093 367.874 2279
-65.8727 367.39 2276
-60.4301 367.39 2276
-54.6975 365.453 2264
-49.2183 364.969 2261
-43.7341 364.323 2257
-38.3369 364.323 2257
-32.7208 361.902 2242
-27.3229 361.417 2239
-21.7137 357.221 2213
-16.4217 357.221 2213
-11.0694 355.283 2201
-5.78242 353.831 2192
-0.538709 352.539 2184
4.6839 352.539 2184
9.85207 350.602 2172
15.0252 350.118 2169
20.1374 348.827 2161
25.2699 348.342 2158
30.4303 348.342 2158
35.4093 346.567 2147
40.5434 346.567 2147
45.6137 346.083 2144
50.7407 346.083 2144
55.8155 345.76 2142
60.9377 345.76 2142
66.0599 345.76 2142
71.2485 346.083 2144
76.3755 346.083 2144
81.5024 346.083 2144
86.6294 346.083 2144
91.7563 346.083 2144
96.7929 345.76 2142
102.01 346.083 2144
107.137 346.083 2144
112.735 347.535 2153
117.884 347.535 2153
123.032 347.535 2153
128.479 348.342 2158
133.825 348.827 2161
138.992 348.827 2161
144.36 349.311 2164
149.742 349.795 2167
154.924 349.795 2167
160.106 349.795 2167
165.288 349.795 2167
533.589 494.104 3061
540.909 494.104 3061
548.228 494.104 3061
552.463 491.36 3044
558.823 490.553 3039
566.09 490.553 3039
572.225 489.584 3033
576.421 487.001 3017
580.347 484.257 3000
587.521 484.257 3000
593.703 483.45 2995
597.655 480.868 2979
602.546 479.092 2968
609.643 479.092 2968
616.741 479.092 2968
623.838 479.092 2968
630.935 479.092 2968
638.033 479.092 2968
644.043 478.285 2963
648.931 476.671 2953
653.549 474.895 2942
660.584 474.895 2942
666.485 474.088 2937
672.362 473.281 2932
678.214 472.474 2927
685.214 472.474 2927
692.213 472.474 2927
699.212 472.474 2927
708.625 474.088 2937
716.866 474.895 2942
723.901 474.895 2942
730.937 474.895 2942
737.972 474.895 2942
745.007 474.895 2942
753.32 475.702 2947
760.367 475.702 2947
767.415 475.702 2947
774.462 475.702 2947
781.509 475.702 2947
783.205 472.474 2927
790.204 472.474 2927
795.841 471.667 2922
802.829 471.667 2922
809.816 471.667 2922
816.804 471.667 2922
826.61 473.281 2932
833.622 473.281 2932
840.633 473.281 2932
847.644 473.281 2932
853.198 472.474 2927
858.728 471.667 2922
865.715 471.667 2922
869.417 469.891 2911
874.873 469.084 2906
875.753 465.856 2886
882.655 465.856 2886
889.556 465.856 2886
896.457 465.856 2886
1051.5 530.1 3284
1059.35 530.1 3284
1067.2 530.1 3284
1066.54 525.904 3258
1074.34 525.904 3258
1097.07 533.167 3303
1104.97 533.167 3303
1112.87 533.167 3303
1176.76 559.802 3468
1197.69 565.774 3505
1211.24 568.195 3520
1219.65 568.195 3520
1232.95 570.455 3534
1241.41 570.455 3534
1249.86 570.455 3534
1258.31 570.455 3534
1261.74 568.195 3520
1272.68 569.325 3527
1286.57 571.747 3542
1295.04 571.747 3542
1311.97 575.459 3565
1329.01 579.172 3588
1340.2 580.302 3595
1348.8 580.302 3595
1363.44 582.884 3611
1372.07 582.884 3611
1380.71 582.884 3611
1389.34 582.884 3611
1397.98 582.884 3611
1403.5 581.593 3603
1412.11 581.593 3603
1411.66 577.88 3580
1405.15 571.747 3542
1398.85 565.774 3505
1386.75 557.542 3454
1395.01 557.542 3454
1380.52 548.502 3398
1377.2 543.982 3370
1377.04 540.754 3350
1385.05 540.754 3350
1384.75 537.526 3330
1387.27 535.427 3317
1386.79 532.199 3297
1381.14 527.033 3265
1388.95 527.033 3265
1393.76 525.904 3258
1398.97 524.935 3252
1406.75 524.935 3252
1414.52 524.935 3252
1422.3 524.935 3252
1430.08 524.935 3252
1440.51 525.904 3258
1451.41 527.033 3265
1459.22 527.033 3265
1467.02 527.033 3265
1474.83 527.033 3265
1482.64 527.033 3265
1490.45 527.033 3265
1495.04 525.904 3258
1500.07 524.935 3252
1507.84 524.935 3252
1506.76 521.868 3233
1511.68 520.899 3227
1513.28 518.801 3214
1506.77 513.958 3184
1514.38 513.958 3184
1513.39 511.053 3166
1509.43 507.179 3142
1497.15 500.561 3101
1504.57 500.561 3101
1492.48 494.104 3061
1478.24 487.001 3017
1448.53 474.895 2942
1445.67 471.667 2922
1452.66 471.667 2922
1441.66 465.856 2886
1443.54 464.241 2876
1443.36 461.982 2862
1450.2 461.982 2862
1454.5 461.174 2857
1461.33 461.174 2857
1463.03 459.56 2847
1469.83 459.56 2847
1476.64 459.56 2847
1480.85 458.753 2842
1485.02 457.946 2837
1489.18 457.139 2832
1495.95 457.139 2832
1502.72 457.139 2832
1509.5 457.139 2832
1514.13 456.493 2828
1520.89 456.493 2828
1522.25 454.879 2818
1528.99 454.879 2818
1533 454.072 2813
1539.73 454.072 2813
1544.26 453.426 2809
1548.21 452.619 2804
1549.37 451.005 2794
1556.05 451.005 2794
1560.5 450.359 2790
1564.36 449.552 2785
1576.1 451.005 2794
1582.78 451.005 2794
1592.3 451.812 2799
1599 451.812 2799
1605.69 451.812 2799
1615.26 452.619 2804
1621.97 452.619 2804
1628.68 452.619 2804
1635.38 452.619 2804
1642.09 452.619 2804
1651.73 453.426 2809
1658.45 453.426 2809
1667.54 454.072 2813
1674.26 454.072 2813
1680.99 454.072 2813
1690.72 454.879 2818
1697.46 454.879 2818
1707.22 455.686 2823
1713.97 455.686 2823
1720.72 455.686 2823
1724.41 454.879 2818
1731.15 454.879 2818
1734.8 454.072 2813
1741.53 454.072 2813
1748.26 454.072 2813
1752.49 453.426 2809
1759.21 453.426 2809
1765.92 453.426 2809
1772.64 453.426 2809
1779.36 453.426 2809
1786.07 453.426 2809
1792.79 453.426 2809
1796.31 452.619 2804
1803.01 452.619 2804
1806.49 451.812 2799
1813.18 451.812 2799
1819.88 451.812 2799
1823.31 451.005 2794
1827.37 450.359 2790
1834.04 450.359 2790
1840.71 450.359 2790
1840.76 448.745 2780
1847.41 448.745 2780
1854.06 448.745 2780
1860.7 448.745 2780
1867.35 448.745 2780
1871.3 448.099 2776
1877.94 448.099 2776
1884.58 448.099 2776
1885.09 446.647 2767
1884.87 445.033 2757
1888.72 444.387 2753
1895.3 444.387 2753
1901.88 444.387 2753
1898.76 442.127 2739
1902.53 441.481 2735
1909.07 441.481 2735
1915.61 441.481 2735
1922.15 441.481 2735
1928.69 441.481 2735
1938.06 442.127 2739
1944.61 442.127 2739
1951.16 442.127 2739
1957.71 442.127 2739
1964.26 442.127 2739
1970.81 442.127 2739
1974.47 441.481 2735
1974.49 440.029 2726
1974.47 438.576 2717
1983.88 439.221 2721
2007.21 442.934 2744
2013.78 442.934 2744
2020.34 442.934 2744
2036.5 445.033 2757
2043.09 445.033 2757
2049.69 445.033 2757
2056.28 445.033 2757
2062.87 445.033 2757
2069.47 445.033 2757
2073.05 444.387 2753
2066.03 441.481 2735
2061.96 439.221 2721
2068.47 439.221 2721
2071.93 438.576 2717
2068.48 436.477 2704
-2074.72 453.93 2771
-2068.09 453.93 2771
-2061.46 453.93 2771
-2054.84 453.93 2771
-2048.21 453.93 2771
-2055.58 457.043 2790
-2048.91 457.043 2790
-2042.24 457.043 2790
-2035.57 457.043 2790
-2028.9 457.043 2790
-2022.22 457.043 2790
-2015.55 457.043 2790
-2008.88 457.043 2790
-2002.21 457.043 2790
-1998.4 457.698 2794
-1991.72 457.698 2794
-2005.64 462.449 2823
-2029.34 469.493 2866
-2026.01 470.312 2871
-2019.14 470.312 2871
-2012.28 470.312 2871
-2005.41 470.312 2871
-1998.55 470.312 2871
-1991.68 470.312 2871
-1988.27 471.131 2876
-1984.84 471.95 2881
-1977.95 471.95 2881
-1971.06 471.95 2881
-1960.76 471.131 2876
-1953.89 471.131 2876
-1953.78 472.769 2886
-1946.88 472.769 2886
-1943.34 473.588 2891
-1936.43 473.588 2891
-1936.19 475.226 2901
-1929.25 475.226 2901
-1925.62 476.045 2906
-1925.94 477.847 2917
-1918.96 477.847 2917
-1911.99 477.847 2917
-1894.56 475.226 2901
-1887.63 475.226 2901
-1910.51 482.762 2947
-1903.46 482.762 2947
-1909.93 486.202 2968
-1937.45 495.048 3022
-1944.28 498.652 3044
-1937 498.652 3044
-1936.69 500.454 3055
-1954.65 507.006 3095
-1947.25 507.006 3095
-1954.26 510.774 3118
-1950.55 511.757 3124
-1946.81 512.74 3130
-1939.33 512.74 3130
-1946.66 516.671 3154
-1953.87 520.603 3178
-1960.97 524.534 3202
-1953.31 524.534 3202
-1949.3 525.517 3208
-1941.63 525.517 3208
-1933.96 525.517 3208
-1922.68 524.534 3202
-1915.03 524.534 3202
-1914.52 526.5 3214
-1940.65 535.838 3271
-1932.83 535.838 3271
-1932.66 537.967 3284
-1951.77 545.503 3330
-1947.89 546.649 3337
-1939.91 546.649 3337
-1963.19 555.495 3391
-1971.23 560.082 3419
-1975.11 563.522 3440
-1966.88 563.522 3440
-1979.15 569.42 3476
-1978.78 571.713 3490
-1974.39 572.86 3497
-1966.02 572.86 3497
-1957.66 572.86 3497
-1949.3 572.86 3497
-1949.26 575.317 3512
-1940.86 575.317 3512
-1940.72 577.774 3527
-1932.28 577.774 3527
-1927.67 578.921 3534
-1919.22 578.921 3534
-1915.09 580.231 3542
-1910.39 581.378 3549
-1910.48 583.999 3565
-1901.95 583.999 3565
-1897.15 585.146 3572
-1892.83 586.456 3580
-1884.27 586.456 3580
-1875.71 586.456 3580
-1874.97 588.914 3595
-1874.68 591.535 3611
-1870.18 592.845 3619
-1861.53 592.845 3619
-1852.88 592.845 3619
-1844.22 592.845 3619
-1835.57 592.845 3619
-1826.91 592.845 3619
-1818.26 592.845 3619
-1813.61 594.156 3627
-1808.91 595.466 3635
-1800.22 595.466 3635
-1791.53 595.466 3635
-1782.84 595.466 3635
-1781.46 597.923 3650
-1772.74 597.923 3650
-1764.01 597.923 3650
-1759.13 599.234 3658
-1762.34 603.329 3683
-1753.54 603.329 3683
-1756.1 607.261 3707
-1751.47 608.735 3716
-1746.34 610.046 3724
-1737.44 610.046 3724
-1740.13 614.141 3749
-1734.86 615.452 3757
-1730.01 616.926 3766
-1721.01 616.926 3766
-1723.82 621.185 3792
-1726.51 625.444 3818
-1725.03 628.229 3835
-1715.86 628.229 3835
-1706.69 628.229 3835
-1697.52 628.229 3835
-1688.35 628.229 3835
-1656.41 619.711 3783
-1632.55 614.141 3749
-1612.76 610.046 3724
-1571.99 597.923 3650
-1563.26 597.923 3650
-1544.73 594.156 3627
-1519.54 587.767 3588
-1491.59 580.231 3542
-1483.12 580.231 3542
-1462.16 575.317 3512
-1447.56 572.86 3497
-1430.55 569.42 3476
-1422.24 569.42 3476
-1402.13 564.669 3447
-1385.4 561.229 3426
-1363.13 555.495 3391
-1355.02 555.495 3391
-1330.63 548.779 3350
-1314.72 545.503 3330
-1301.66 543.373 3317
-1291 542.226 3310
-1283.08 542.226 3310
-1270.16 540.097 3297
-1257.3 537.967 3284
-1244.5 535.838 3271
-1236.68 535.838 3271
-1228.85 535.838 3271
-1216.18 533.708 3258
-1203.94 531.742 3246
-1196.17 531.742 3246
-1185.85 530.596 3239
-1175.92 529.613 3233
-1159.16 525.517 3208
-1151.49 525.517 3208
-1143.82 525.517 3208
-1167.66 540.097 3297
-1168.93 544.356 3323
-1160.98 544.356 3323
-1153.03 544.356 3323
-1149.91 546.649 3337
-1141.93 546.649 3337
-1133.95 546.649 3337
-949.789 471.131 2876
-942.911 471.131 2876
-936.034 471.131 2876
-927.541 470.312 2871
-902.076 460.811 2813
-895.35 460.811 2813
-887.359 460.155 2809
-880.642 460.155 2809
-876.725 461.63 2818
-874.309 463.923 2832
-872.131 466.38 2847
-869.882 468.837 2862
-863.039 468.837 2862
-856.195 468.837 2862
-849.351 468.837 2862
-838.091 466.38 2847
-845.59 474.407 2896
-843.009 476.864 2911
-836.048 476.864 2911
-829.087 476.864 2911
-820.714 476.045 2906
-787.329 481.124 2937
-780.306 481.124 2937
-773.283 481.124 2937
-759.476 476.864 2911
-752.515 476.864 2911
-745.554 476.864 2911
-736.056 475.226 2901
-726.605 473.588 2891
-719.692 473.588 2891
-691.518 556.642 3398
-683.393 556.642 3398
-675.267 556.642 3398
-667.141 556.642 3398
-667.161 563.522 3440
-658.935 563.522 3440
-650.709 563.522 3440
-642.483 563.522 3440
-644.766 572.86 3497
-637.86 574.17 3505
-629.478 574.17 3505
-623.755 576.628 3520
-615.337 576.628 3520
-606.92 576.628 3520
-598.503 576.628 3520
-594.947 581.378 3549
-587.782 582.689 3557
-580.579 583.999 3565
-572.054 583.999 3565
-565.9 586.456 3580
-559.674 588.914 3595
-551.078 588.914 3595
-542.481 588.914 3595
-535.072 590.224 3603
-526.456 590.224 3603
-522.44 595.466 3635
-513.747 595.466 3635
-506.028 596.613 3642
-497.319 596.613 3642
-488.609 596.613 3642
-479.9 596.613 3642
-470.285 595.466 3635
-460.577 594.156 3627
-451.904 594.156 3627
-443.231 594.156 3627
-436.355 596.613 3642
-429.524 599.234 3658
-422.732 602.019 3675
-413.944 602.019 3675
-406.038 603.329 3683
-398.094 604.64 3691
-390.955 607.261 3707
-382.09 607.261 3707
-374.132 608.735 3716
-366.819 611.356 3732
-360.292 615.452 3757
-351.308 615.452 3757
-343.144 616.926 3766
-335.646 619.711 3783
-326.6 619.711 3783
-317.554 619.711 3783
-309.894 622.496 3800
-304.29 629.703 3844
-295.098 629.703 3844
-285.905 629.703 3844
-279.305 635.601 3880
-270.653 637.075 3889
-262.563 640.024 3907
-253.22 640.024 3907
-243.877 640.024 3907
-233.454 637.075 3889
-224.154 637.075 3889
-213.363 632.652 3862
-122.624 380.05 2320
-117.077 380.05 2320
-111.529 380.05 2320
-105.844 379.559 2317
-99.3508 375.955 2295
-93.5765 374.808 2288
-88.1052 374.808 2288
-82.3088 373.334 2279
-76.8591 373.334 2279
-71.3153 372.842 2276
-65.6122 371.368 2267
-60.1911 371.368 2267
-54.6975 370.876 2264
-49.2183 370.385 2261
-43.7341 369.73 2257
-38.3369 369.73 2257
-32.7208 367.272 2242
-27.3229 366.781 2239
-21.7137 362.522 2213
-16.4217 362.522 2213
-11.0694 360.556 2201
-5.78242 359.082 2192
-0.538709 357.771 2184
4.6839 357.771 2184
9.85207 355.805 2172
15.0252 355.314 2169
20.1374 354.003 2161
25.2699 353.512 2158
30.4303 353.512 2158
35.4093 351.71 2147
40.5434 351.71 2147
45.6137 351.219 2144
50.7407 351.219 2144
55.8676 351.219 2144
60.9946 351.219 2144
66.1216 351.219 2144
71.2485 351.219 2144
76.3755 351.219 2144
81.5024 351.219 2144
86.6294 351.219 2144
91.7563 351.219 2144
96.8833 351.219 2144
102.01 351.219 2144
107.287 351.71 2147
112.735 352.693 2153
117.884 352.693 2153
123.147 353.021 2155
128.657 354.003 2161
134.32 355.314 2169
139.507 355.314 2169
144.694 355.314 2169
150.295 356.297 2175
155.496 356.297 2175
160.697 356.297 2175
165.288 354.986 2167
551.555 497.833 3039
559.742 498.652 3044
567.021 498.652 3044
574.3 498.652 3044
580.624 497.833 3039
587.891 497.833 3039
595.158 497.833 3039
594.694 491.444 3000
600.865 490.625 2995
605.794 488.823 2984
612.93 488.823 2984
620.065 488.823 2984
625.099 487.185 2974
632.211 487.185 2974
639.323 487.185 2974
644.043 485.383 2963
647.613 482.762 2947
652.438 481.124 2937
659.462 481.124 2937
666.485 481.124 2937
672.362 480.305 2932
677.056 478.666 2922
684.043 478.666 2922
691.031 478.666 2922
698.018 478.666 2922
707.418 480.305 2932
716.866 481.943 2942
723.901 481.943 2942
730.937 481.943 2942
737.972 481.943 2942
746.273 482.762 2947
753.32 482.762 2947
760.367 482.762 2947
767.415 482.762 2947
774.462 482.762 2947
781.509 482.762 2947
788.556 482.762 2947
792.904 481.124 2937
798.565 480.305 2932
805.576 480.305 2932
816.745 482.762 2947
823.792 482.762 2947
836.76 486.202 2968
845.563 487.185 2974
852.675 487.185 2974
859.786 487.185 2974
863.692 485.383 2963
870.777 485.383 2963
877.863 485.383 2963
880.169 482.762 2947
881.195 479.485 2927
888.195 479.485 2927
895.194 479.485 2927
902.193 479.485 2927
909.193 479.485 2927
1051.5 537.967 3284
1059.35 537.967 3284
1084.43 546.649 3337
1092.41 546.649 3337
1102.36 547.632 3343
1123.98 554.349 3384
1155.49 565.816 3454
1163.75 565.816 3454
1189.31 574.17 3505
1205.21 577.774 3527
1216.05 578.921 3534
1224.5 578.921 3534
1238.19 581.378 3549
1246.67 581.378 3549
1255.16 581.378 3549
1263.65 581.378 3549
1272.13 581.378 3549
1280.62 581.378 3549
1294.92 583.999 3565
1303.44 583.999 3565
1317.49 586.456 3580
1334.57 590.224 3603
1346.17 591.535 3611
1354.8 591.535 3611
1363.44 591.535 3611
1375.11 592.845 3619
1383.77 592.845 3619
1392.42 592.845 3619
1401.08 592.845 3619
1403.5 590.224 3603
1412.11 590.224 3603
1411.66 586.456 3580
1405.15 580.231 3542
1398.85 574.17 3505
1386.75 565.816 3454
1395.01 565.816 3454
1386.21 558.935 3412
1382.93 554.349 3384
1382.39 550.909 3363
1390.43 550.909 3363
1390.15 547.632 3343
1392.71 545.503 3330
1395.21 543.373 3317
1403.14 543.373 3317
1394.48 536.984 3278
1396.76 534.855 3265
1398.97 532.725 3252
1406.75 532.725 3252
1414.52 532.725 3252
1422.3 532.725 3252
1430.08 532.725 3252
1440.51 533.708 3258
1448.3 533.708 3258
1456.09 533.708 3258
1467.02 534.855 3265
1474.83 534.855 3265
1482.64 534.855 3265
1487.25 533.708 3258
1492.29 532.725 3252
1497.3 531.742 3246
1505.06 531.742 3246
1506.76 529.613 3233
1511.68 528.63 3227
1513.28 526.5 3214
1506.77 521.586 3184
1514.38 521.586 3184
1513.39 518.637 3166
1509.43 514.706 3142
1497.15 507.989 3101
1504.57 507.989 3101
1492.48 501.437 3061
1478.24 494.229 3017
1450.99 482.762 2947
1450.62 480.305 2932
1457.63 480.305 2932
1446.66 474.407 2896
1443.54 471.131 2876
1443.36 468.837 2862
1450.2 468.837 2862
1454.5 468.018 2857
1458.78 467.199 2852
1463.03 466.38 2847
1469.83 466.38 2847
1476.64 466.38 2847
1480.85 465.561 2842
1485.02 464.742 2837
1489.18 463.923 2832
1495.95 463.923 2832
1502.72 463.923 2832
1509.5 463.923 2832
1514.13 463.268 2828
1520.89 463.268 2828
1522.25 461.63 2818
1528.99 461.63 2818
1533 460.811 2813
1539.73 460.811 2813
1544.26 460.155 2809
1548.21 459.336 2804
1549.37 457.698 2794
1556.05 457.698 2794
1560.5 457.043 2790
1567.17 457.043 2790
1573.84 457.043 2790
1582.78 457.698 2794
1592.3 458.517 2799
1599 458.517 2799
1608.56 459.336 2804
1615.26 459.336 2804
1624.86 460.155 2809
1631.58 460.155 2809
1640.63 460.811 2813
1647.36 460.811 2813
1654.08 460.811 2813
1660.81 460.811 2813
1670.5 461.63 2818
1680.22 462.449 2823
1686.97 462.449 2823
1693.72 462.449 2823
1700.47 462.449 2823
1707.22 462.449 2823
1713.97 462.449 2823
1720.72 462.449 2823
1727.47 462.449 2823
1731.15 461.63 2818
1737.89 461.63 2818
1744.63 461.63 2818
1751.36 461.63 2818
1754.98 460.811 2813
1761.71 460.811 2813
1768.44 460.811 2813
1775.16 460.811 2813
1781.89 460.811 2813
1786.07 460.155 2809
1792.79 460.155 2809
1799.51 460.155 2809
1806.23 460.155 2809
1809.72 459.336 2804
1813.18 458.517 2799
1819.88 458.517 2799
1826.57 458.517 2799
1829.99 457.698 2794
1834.04 457.043 2790
1840.71 457.043 2790
1840.76 455.405 2780
1847.41 455.405 2780
1854.06 455.405 2780
1860.7 455.405 2780
1867.35 455.405 2780
1871.3 454.749 2776
1877.94 454.749 2776
1884.58 454.749 2776
1885.09 453.275 2767
1884.87 451.637 2757
1888.72 450.982 2753
1895.3 450.982 2753
1901.88 450.982 2753
1898.76 448.688 2739
1902.53 448.033 2735
1909.07 448.033 2735
1915.61 448.033 2735
1922.15 448.033 2735
1928.69 448.033 2735
1938.06 448.688 2739
1944.61 448.688 2739
1951.16 448.688 2739
1957.71 448.688 2739
1964.26 448.688 2739
1970.81 448.688 2739
1974.47 448.033 2735
1974.49 446.559 2726
1974.47 445.084 2717
1983.88 445.74 2721
2007.21 449.507 2744
2013.78 449.507 2744
2020.34 449.507 2744
2036.5 451.637 2757
2043.09 451.637 2757
2049.69 451.637 2757
2056.28 451.637 2757
2062.87 451.637 2757
2069.47 451.637 2757
2073.05 450.982 2753
2066.03 448.033 2735
2061.96 445.74 2721
2068.47 445.74 2721
2071.93 445.084 2717
2068.48 442.955 2704
-2067.98 459.072 2762
-2061.37 459.072 2762
-2054.77 459.072 2762
-2048.16 459.072 2762
-2048.21 460.568 2771
-2045.27 461.399 2776
-2048.91 463.726 2790
-2042.24 463.726 2790
-2035.57 463.726 2790
-2025.26 462.895 2785
-2018.6 462.895 2785
-2011.94 462.895 2785
-2005.28 462.895 2785
-1998.62 462.895 2785
-1995.54 463.726 2790
-1988.87 463.726 2790
-2005.64 469.211 2823
-2029.34 476.358 2866
-2026.01 477.189 2871
-2019.14 477.189 2871
-2012.28 477.189 2871
-2005.41 477.189 2871
-1998.55 477.189 2871
-1991.68 477.189 2871
-1988.27 478.02 2876
-1984.84 478.851 2881
-1977.95 478.851 2881
-1971.06 478.851 2881
-1960.76 478.02 2876
-1953.89 478.02 2876
-1953.78 479.682 2886
-1946.88 479.682 2886
-1943.34 480.514 2891
-1936.43 480.514 2891
-1936.19 482.176 2901
-1929.25 482.176 2901
-1925.62 483.007 2906
-1925.94 484.835 2917
-1918.96 484.835 2917
-1911.99 484.835 2917
-1894.56 482.176 2901
-1887.63 482.176 2901
-1910.51 489.821 2947
-1903.46 489.821 2947
-1909.93 493.312 2968
-1937.45 502.287 3022
-1944.28 505.944 3044
-1937 505.944 3044
-1936.69 507.772 3055
-1954.65 514.42 3095
-1947.25 514.42 3095
-1954.26 518.243 3118
-1950.55 519.24 3124
-1946.81 520.238 3130
-1939.33 520.238 3130
-1946.66 524.227 3154
-1953.87 528.216 3178
-1960.97 532.205 3202
-1953.31 532.205 3202
-1949.3 533.202 3208
-1941.63 533.202 3208
-1933.96 533.202 3208
-1922.68 532.205 3202
-1915.03 532.205 3202
-1914.52 534.199 3214
-1940.65 543.673 3271
-1932.83 543.673 3271
-1932.66 545.834 3284
-1951.77 553.48 3330
-1947.89 554.643 3337
-1939.91 554.643 3337
-1963.19 563.619 3391
-1971.23 568.272 3419
-1975.11 571.763 3440
-1966.88 571.763 3440
-1979.15 577.746 3476
-1978.78 580.073 3490
-1974.39 581.237 3497
-1966.02 581.237 3497
-1957.66 581.237 3497
-1949.3 581.237 3497
-1949.26 583.73 3512
-1940.86 583.73 3512
-1940.72 586.223 3527
-1932.28 586.223 3527
-1927.67 587.387 3534
-1919.22 587.387 3534
-1915.09 588.716 3542
-1910.39 589.88 3549
-1910.48 592.539 3565
-1901.95 592.539 3565
-1897.15 593.703 3572
-1892.83 595.032 3580
-1884.27 595.032 3580
-1875.71 595.032 3580
-1874.97 597.525 3595
-1874.68 600.185 3611
-1870.18 601.514 3619
-1861.53 601.514 3619
-1852.88 601.514 3619
-1844.22 601.514 3619
-1835.57 601.514 3619
-1826.91 601.514 3619
-1818.26 601.514 3619
-1813.61 602.844 3627
-1808.91 604.174 3635
-1800.22 604.174 3635
-1791.53 604.174 3635
-1782.84 604.174 3635
-1781.46 606.667 3650
-1772.74 606.667 3650
-1764.01 606.667 3650
-1759.13 607.997 3658
-1766.17 613.482 3691
-1757.34 613.482 3691
-1756.1 616.141 3707
-1751.47 617.637 3716
-1750.09 620.296 3732
-1741.17 620.296 3732
-1740.13 623.122 3749
-1734.86 624.451 3757
-1733.69 627.277 3774
-1724.66 627.277 3774
-1723.82 630.269 3792
-1726.51 634.59 3818
-1725.03 637.416 3835
-1715.86 637.416 3835
-1706.69 637.416 3835
-1697.52 637.416 3835
-1688.35 637.416 3835
-1656.41 628.773 3783
-1632.55 623.122 3749
-1612.76 618.967 3724
-1571.99 606.667 3650
-1563.26 606.667 3650
-1544.73 602.844 3627
-1519.54 596.362 3588
-1491.59 588.716 3542
-1483.12 588.716 3542
-1462.16 583.73 3512
-1447.56 581.237 3497
-1430.55 577.746 3476
-1422.24 577.746 3476
-1402.13 572.926 3447
-1385.4 569.436 3426
-1363.13 563.619 3391
-1355.02 563.619 3391
-1330.63 556.804 3350
-1317.49 554.643 3337
-1306.76 553.48 3330
-1296.07 552.316 3323
-1288.12 552.316 3323
-1275.17 550.156 3310
-1262.27 547.995 3297
-1251.73 546.831 3290
-1243.86 546.831 3290
-1233.74 545.834 3284
-1225.88 545.834 3284
-1218.03 545.834 3284
-1210.18 545.834 3284
-1200.13 544.837 3278
-1192.29 544.837 3278
-1179.75 542.676 3265
-1192.76 552.316 3323
-1184.82 552.316 3323
-1176.87 552.316 3323
-1178.42 556.804 3350
-1170.41 556.804 3350
-1162.4 556.804 3350
-1149.91 554.643 3337
-1141.93 554.643 3337
-1133.95 554.643 3337
-949.789 478.02 2876
-942.911 478.02 2876
-936.034 478.02 2876
-927.541 477.189 2871
-902.076 467.549 2813
-895.35 467.549 2813
-888.623 467.549 2813
-881.896 467.549 2813
-881.081 470.707 2832
-880.483 474.031 2852
-873.663 474.031 2852
-877.177 479.682 2886
-870.276 479.682 2886
-863.374 479.682 2886
-850.538 476.358 2866
-842.507 475.693 2862
-845.59 481.345 2896
-843.009 483.838 2911
-836.048 483.838 2911
-829.087 483.838 2911
-820.714 483.007 2906
-787.329 488.159 2937
-780.306 488.159 2937
-773.283 488.159 2937
-759.476 483.838 2911
-752.515 483.838 2911
-745.554 483.838 2911
-736.056 482.176 2901
-726.605 480.514 2891
-719.692 480.514 2891
-691.518 564.782 3398
-683.393 564.782 3398
-676.658 565.945 3405
-676.762 572.926 3447
-668.519 572.926 3447
-660.276 572.926 3447
-652.033 572.926 3447
-654.623 582.567 3505
-651.588 587.387 3534
-643.137 587.387 3534
-637.38 589.88 3549
-628.894 589.88 3549
-621.806 591.209 3557
-613.3 591.209 3557
-604.794 591.209 3557
-596.288 591.209 3557
-591.583 595.032 3580
-583.022 595.032 3580
-574.461 595.032 3580
-569.536 598.855 3603
-562.165 600.185 3611
-553.53 600.185 3611
-544.895 600.185 3611
-535.072 598.855 3603
-527.625 600.185 3611
-522.44 604.174 3635
-513.747 604.174 3635
-506.028 605.337 3642
-497.319 605.337 3642
-488.609 605.337 3642
-479.9 605.337 3642
-470.285 604.174 3635
-460.577 602.844 3627
-451.904 602.844 3627
-443.231 602.844 3627
-436.355 605.337 3642
-429.524 607.997 3658
-422.732 610.822 3675
-413.944 610.822 3675
-406.038 612.152 3683
-398.094 613.482 3691
-390.955 616.141 3707
-382.09 616.141 3707
-374.132 617.637 3716
-366.819 620.296 3732
-360.292 624.451 3757
-351.308 624.451 3757
-343.144 625.947 3766
-335.646 628.773 3783
-326.6 628.773 3783
-317.554 628.773 3783
-309.894 631.599 3800
-304.29 638.912 3844
-295.098 638.912 3844
-285.905 638.912 3844
-279.305 644.895 3880
-270.653 646.391 3889
-262.563 649.383 3907
-253.22 649.383 3907
-243.877 649.383 3907
-233.454 646.391 3889
-224.154 646.391 3889
-213.363 641.904 3862
-122.624 385.608 2320
-117.077 385.608 2320
-111.529 385.608 2320
-105.844 385.109 2317
-99.3508 381.452 2295
-93.5765 380.289 2288
-88.1052 380.289 2288
-82.3088 378.793 2279
-76.8591 378.793 2279
-71.3153 378.294 2276
-65.6122 376.798 2267
-60.1911 376.798 2267
-54.6975 376.3 2264
-49.2183 375.801 2261
-43.7341 375.136 2257
-38.3369 375.136 2257
-32.7208 372.643 2242
-27.3229 372.145 2239
-21.7137 367.823 2213
-16.4217 367.823 2213
-11.0694 365.829 2201
-5.78242 364.333 2192
-0.539202 363.335 2186
4.68819 363.335 2186
9.85207 361.008 2172
15.0252 360.51 2169
20.1374 359.18 2161
25.2699 358.681 2158
30.4303 358.681 2158
35.4093 356.853 2147
40.5434 356.853 2147
45.6137 356.355 2144
50.7407 356.355 2144
55.8676 356.355 2144
60.9946 356.355 2144
66.1216 356.355 2144
71.2485 356.355 2144
76.3755 356.355 2144
81.5024 356.355 2144
86.6294 356.355 2144
91.7563 356.355 2144
96.8833 356.355 2144
102.153 356.853 2147
107.287 356.853 2147
112.735 357.85 2153
117.884 357.85 2153
123.318 358.681 2158
128.836 359.679 2164
134.506 361.008 2172
139.7 361.008 2172
145.094 361.507 2175
151.262 363.834 2189
156.497 363.834 2189
161.731 363.834 2189
165.288 360.177 2167
559.742 505.944 3044
570.188 508.769 3061
577.508 508.769 3061
584.827 508.769 3061
588.858 505.944 3044
596.138 505.944 3044
598.064 501.456 3017
601.868 498.63 3000
608.027 497.799 2995
615.189 497.799 2995
622.351 497.799 2995
629.513 497.799 2995
634.337 495.971 2984
641.472 495.971 2984
646.434 494.309 2974
648.931 490.819 2953
652.438 488.159 2937
659.462 488.159 2937
666.485 488.159 2937
672.362 487.328 2932
674.507 483.838 2911
682.873 484.835 2917
691.031 485.666 2922
698.018 485.666 2922
705.005 485.666 2922
716.866 488.99 2942
723.901 488.99 2942
730.937 488.99 2942
739.226 489.821 2947
747.793 490.819 2953
756.132 491.65 2958
763.206 491.65 2958
770.279 491.65 2958
777.353 491.65 2958
784.426 491.65 2958
788.556 489.821 2947
794.253 488.99 2942
799.927 488.159 2937
809.698 489.821 2947
816.745 489.821 2947
829.662 493.312 2968
842.962 496.968 2990
850.112 496.968 2990
857.262 496.968 2990
862.677 495.971 2984
866.898 494.309 2974
874.01 494.309 2974
881.122 494.309 2974
884.948 492.481 2963
889.023 490.819 2953
894.264 489.821 2947
901.311 489.821 2947
908.358 489.821 2947
915.405 489.821 2947
1068.47 554.643 3337
1076.45 554.643 3337
1086.38 555.641 3343
1094.37 555.641 3343
1111.27 560.128 3370
1135.6 568.272 3419
1169.87 581.237 3497
1178.23 581.237 3497
1196.78 586.223 3527
1210.34 588.716 3542
1221.21 589.88 3549
1229.7 589.88 3549
1240.98 591.209 3557
1249.48 591.209 3557
1257.99 591.209 3557
1266.5 591.209 3557
1272.13 589.88 3549
1286.4 592.539 3565
1297.46 593.703 3572
1306 593.703 3572
1320.43 596.362 3588
1334.57 598.855 3603
1346.17 600.185 3611
1354.8 600.185 3611
1363.44 600.185 3611
1378.15 602.844 3627
1386.83 602.844 3627
1395.5 602.844 3627
1404.17 602.844 3627
1403.5 598.855 3603
1412.11 598.855 3603
1411.66 595.032 3580
1405.15 588.716 3542
1398.85 582.567 3505
1386.75 574.09 3454
1395.01 574.09 3454
1386.21 567.109 3412
1382.93 562.455 3384
1382.39 558.965 3363
1390.43 558.965 3363
1390.15 555.641 3343
1398.15 555.641 3343
1395.21 551.319 3317
1403.14 551.319 3317
1397.03 545.834 3284
1396.76 542.676 3265
1401.55 541.513 3258
1409.34 541.513 3258
1417.13 541.513 3258
1422.3 540.515 3252
1430.08 540.515 3252
1437.85 540.515 3252
1448.3 541.513 3258
1456.09 541.513 3258
1463.88 541.513 3258
1471.67 541.513 3258
1479.46 541.513 3258
1484.51 540.515 3252
1492.29 540.515 3252
1494.07 538.355 3239
1501.81 538.355 3239
1503.97 536.36 3227
1508.87 535.363 3221
1510.45 533.202 3208
1503.93 528.216 3178
1511.53 528.216 3178
1510.52 525.224 3160
1506.55 521.235 3136
1494.26 514.42 3095
1501.66 514.42 3095
1495.41 509.766 3067
1483.63 503.284 3028
1458.87 492.481 2963
1455.56 488.99 2942
1462.6 488.99 2942
1446.66 481.345 2896
1443.54 478.02 2876
1443.36 475.693 2862
1450.2 475.693 2862
1454.5 474.862 2857
1456.22 473.2 2847
1463.03 473.2 2847
1469.83 473.2 2847
1474.05 472.369 2842
1478.24 471.538 2837
1485.02 471.538 2837
1489.18 470.707 2832
1495.95 470.707 2832
1502.72 470.707 2832
1507.36 470.042 2828
1511.45 469.211 2823
1518.2 469.211 2823
1522.25 468.38 2818
1526.28 467.549 2813
1533 467.549 2813
1539.73 467.549 2813
1544.26 466.884 2809
1548.21 466.053 2804
1549.37 464.391 2794
1556.05 464.391 2794
1562.74 464.391 2794
1567.17 463.726 2790
1573.84 463.726 2790
1582.78 464.391 2794
1592.3 465.222 2799
1599 465.222 2799
1608.56 466.053 2804
1615.26 466.053 2804
1624.86 466.884 2809
1631.58 466.884 2809
1640.63 467.549 2813
1647.36 467.549 2813
1654.08 467.549 2813
1660.81 467.549 2813
1670.5 468.38 2818
1680.22 469.211 2823
1686.97 469.211 2823
1693.72 469.211 2823
1700.47 469.211 2823
1707.22 469.211 2823
1713.97 469.211 2823
1720.72 469.211 2823
1727.47 469.211 2823
1731.15 468.38 2818
1737.89 468.38 2818
1744.63 468.38 2818
1751.36 468.38 2818
1754.98 467.549 2813
1761.71 467.549 2813
1768.44 467.549 2813
1775.16 467.549 2813
1781.89 467.549 2813
1786.07 466.884 2809
1792.79 466.884 2809
1799.51 466.884 2809
1806.23 466.884 2809
1809.72 466.053 2804
1813.18 465.222 2799
1819.88 465.222 2799
1826.57 465.222 2799
1829.99 464.391 2794
1836.67 464.391 2794
1843.35 464.391 2794
1847.38 463.726 2790
1850.73 462.895 2785
1857.39 462.895 2785
1864.05 462.895 2785
1867.35 462.064 2780
1871.3 461.399 2776
1877.94 461.399 2776
1884.58 461.399 2776
1885.09 459.903 2767
1882.13 457.577 2753
1888.72 457.577 2753
1891.86 456.745 2748
1898.43 456.745 2748
1895.99 454.585 2735
1902.53 454.585 2735
1909.07 454.585 2735
1915.61 454.585 2735
1922.15 454.585 2735
1928.69 454.585 2735
1938.06 455.25 2739
1948.16 456.081 2744
1954.72 456.081 2744
1961.28 456.081 2744
1967.84 456.081 2744
1974.41 456.081 2744
1977.36 455.25 2739
1974.49 453.089 2726
1974.47 451.593 2717
1983.88 452.258 2721
2007.21 456.081 2744
2013.78 456.081 2744
2020.34 456.081 2744
2036.5 458.241 2757
2043.09 458.241 2757
2049.69 458.241 2757
2056.28 458.241 2757
2062.87 458.241 2757
2069.47 458.241 2757
2073.05 457.577 2753
2075.85 456.745 2748
2072.57 454.585 2735
2079.11 454.585 2735
2074.98 452.258 2721
2081.48 452.258 2721
-2034.28 458.102 2717
-2034.5 459.619 2726
-2027.99 459.619 2726
-2021.47 459.619 2726
-2021.6 461.136 2735
-2038.64 466.532 2767
-2032.02 466.532 2767
-2025.4 466.532 2767
-2018.79 466.532 2767
-2012.17 466.532 2767
-2005.55 466.532 2767
-1991.71 464.846 2757
-1985.12 464.846 2757
-1978.53 464.846 2757
-1995.54 470.41 2790
-1988.87 470.41 2790
-2026.24 480.863 2852
-2047.04 487.439 2891
-2047.18 489.125 2901
-2040.24 489.125 2901
-2033.31 489.125 2901
-2026.37 489.125 2901
-2019.43 489.125 2901
-2002.09 486.596 2886
-1995.19 486.596 2886
-1988.29 486.596 2886
-1981.39 486.596 2886
-1974.48 486.596 2886
-1967.58 486.596 2886
-1967.48 488.282 2896
-1960.55 488.282 2896
-1953.62 488.282 2896
-1950.06 489.125 2901
-1943.12 489.125 2901
-1942.86 490.811 2911
-1935.9 490.811 2911
-1939.54 493.509 2927
-1932.54 493.509 2927
-1925.54 493.509 2927
-1918.54 493.509 2927
-1911.54 493.509 2927
-1911.05 495.195 2937
-1944.87 505.817 3000
-1937.7 505.817 3000
-1955.62 512.393 3039
-1955.4 514.247 3050
-1948.11 514.247 3050
-1965.63 520.823 3089
-1962.05 521.834 3095
-1972.96 526.724 3124
-1965.49 526.724 3124
-1961.78 527.736 3130
-1954.3 527.736 3130
-1954.28 529.759 3142
-1946.76 529.759 3142
-1950.36 532.794 3160
-1957.56 536.84 3184
-1964.64 540.887 3208
-1956.97 540.887 3208
-1952.95 541.899 3214
-1945.26 541.899 3214
-1937.58 541.899 3214
-1929.89 541.899 3214
-1922.2 541.899 3214
-1925.84 545.102 3233
-1948.36 553.701 3284
-1940.51 553.701 3284
-1959.73 561.457 3330
-1955.87 562.637 3337
-1967.15 568.201 3370
-1959.09 568.201 3370
-1979.4 576.463 3419
-1983.33 580.003 3440
-1987.17 583.544 3461
-1978.89 583.544 3461
-1991.11 589.614 3497
-1991.25 592.143 3512
-1982.85 592.143 3512
-1974.46 592.143 3512
-1966.06 592.143 3512
-1957.66 592.143 3512
-1957.59 594.672 3527
-1949.15 594.672 3527
-1940.72 594.672 3527
-1936.12 595.852 3534
-1927.67 595.852 3534
-1919.22 595.852 3534
-1918.88 598.381 3549
-1910.39 598.381 3549
-1910.48 601.079 3565
-1901.95 601.079 3565
-1897.15 602.259 3572
-1888.6 602.259 3572
-1884.27 603.608 3580
-1875.71 603.608 3580
-1874.97 606.137 3595
-1874.68 608.835 3611
-1866.05 608.835 3611
-1857.41 608.835 3611
-1848.78 608.835 3611
-1840.14 608.835 3611
-1831.51 608.835 3611
-1822.87 608.835 3611
-1818.26 610.184 3619
-1813.61 611.533 3627
-1808.91 612.882 3635
-1800.22 612.882 3635
-1791.53 612.882 3635
-1782.84 612.882 3635
-1781.46 615.411 3650
-1772.74 615.411 3650
-1764.01 615.411 3650
-1759.13 616.759 3658
-1766.17 622.323 3691
-1757.34 622.323 3691
-1756.1 625.021 3707
-1751.47 626.539 3716
-1750.09 629.236 3732
-1741.17 629.236 3732
-1740.13 632.103 3749
-1734.86 633.451 3757
-1733.69 636.318 3774
-1724.66 636.318 3774
-1723.82 639.353 3792
-1726.51 643.736 3818
-1725.03 646.603 3835
-1715.86 646.603 3835
-1706.69 646.603 3835
-1697.52 646.603 3835
-1688.35 646.603 3835
-1648.96 634.969 3766
-1628.63 630.585 3740
-1601.94 623.672 3699
-1568.54 614.062 3642
-1559.83 614.062 3642
-1544.73 611.533 3627
-1519.54 604.957 3588
-1488.22 595.852 3534
-1479.77 595.852 3534
-1462.16 592.143 3512
-1447.56 589.614 3497
-1430.55 586.073 3476
-1422.24 586.073 3476
-1402.13 581.184 3447
-1385.4 577.643 3426
-1363.13 571.742 3391
-1355.02 571.742 3391
-1330.63 564.829 3350
-1317.49 562.637 3337
-1306.76 561.457 3330
-1296.07 560.277 3323
-1288.12 560.277 3323
-1275.17 558.085 3310
-1262.27 555.893 3297
-1251.73 554.713 3290
-1243.86 554.713 3290
-1233.74 553.701 3284
-1225.88 553.701 3284
-1218.03 553.701 3284
-1210.18 553.701 3284
-1200.13 552.689 3278
-1192.29 552.689 3278
-1179.75 550.497 3265
-1192.76 560.277 3323
-1184.82 560.277 3323
-1176.87 560.277 3323
-1178.42 564.829 3350
-1170.41 564.829 3350
-1162.4 564.829 3350
-1149.91 562.637 3337
-1141.93 562.637 3337
-1133.95 562.637 3337
-892.485 472.77 2804
-888.623 474.288 2813
-881.896 474.288 2813
-881.081 477.491 2832
-880.483 480.863 2852
-873.663 480.863 2852
-877.177 486.596 2886
-870.276 486.596 2886
-863.374 486.596 2886
-850.538 483.224 2866
-842.507 482.549 2862
-845.59 488.282 2896
-843.009 490.811 2911
-836.048 490.811 2911
-829.087 490.811 2911
-820.714 489.968 2906
-765.121 489.968 2906
-758.172 489.968 2906
-751.222 489.968 2906
-741.712 488.282 2896
-730.981 485.753 2881
-691.518 572.922 3398
-683.393 572.922 3398
-676.658 574.102 3405
-676.762 581.184 3447
-668.519 581.184 3447
-660.276 581.184 3447
-652.033 581.184 3447
-654.623 590.963 3505
-651.588 595.852 3534
-643.137 595.852 3534
-637.38 598.381 3549
-628.894 598.381 3549
-621.806 599.73 3557
-613.3 599.73 3557
-604.794 599.73 3557
-596.288 599.73 3557
-591.583 603.608 3580
-583.022 603.608 3580
-574.461 603.608 3580
-569.536 607.486 3603
-562.165 608.835 3611
-553.53 608.835 3611
-544.895 608.835 3611
-535.072 607.486 3603
-527.625 608.835 3611
-522.44 612.882 3635
-513.747 612.882 3635
-506.028 614.062 3642
-497.319 614.062 3642
-488.609 614.062 3642
-479.9 614.062 3642
-470.285 612.882 3635
-460.577 611.533 3627
-451.904 611.533 3627
-443.231 611.533 3627
-436.355 614.062 3642
-429.524 616.759 3658
-422.732 619.626 3675
-413.944 619.626 3675
-406.038 620.975 3683
-398.094 622.323 3691
-390.955 625.021 3707
-382.09 625.021 3707
-374.132 626.539 3716
-366.032 627.887 3724
-358.661 630.585 3740
-349.718 630.585 3740
-343.144 634.969 3766
-335.646 637.835 3783
-326.6 637.835 3783
-317.554 637.835 3783
-309.894 640.701 3800
-302.865 645.085 3826
-295.098 648.12 3844
-285.905 648.12 3844
-278.657 652.672 3871
-270.653 655.707 3889
-261.353 655.707 3889
-252.053 655.707 3889
-242.192 654.19 3880
-231.833 651.155 3862
-222.598 651.155 3862
-211.871 646.603 3835
-121.937 388.973 2307
-116.421 388.973 2307
-110.904 388.973 2307
-104.976 387.456 2298
-99.2209 386.444 2292
-93.2084 384.252 2279
-87.7586 384.252 2279
-82.3088 384.252 2279
-76.6567 383.241 2273
-71.1273 382.735 2270
-65.6122 382.229 2267
-60.1911 382.229 2267
-54.6251 381.217 2261
-49.1313 380.543 2257
-43.6178 379.531 2251
-38.235 379.531 2251
-32.677 377.508 2239
-27.2131 375.991 2230
-21.7137 373.124 2213
-16.4217 373.124 2213
-11.0694 371.101 2201
-5.78242 369.584 2192
-0.539202 368.572 2186
4.68819 368.572 2186
9.85207 366.211 2172
15.0252 365.706 2169
20.1374 364.357 2161
25.2699 363.851 2158
30.4303 363.851 2158
35.4093 361.996 2147
40.4868 361.491 2144
45.6137 361.491 2144
50.7407 361.491 2144
55.8676 361.491 2144
60.9946 361.491 2144
66.1216 361.491 2144
71.2485 361.491 2144
76.3755 361.491 2144
81.5024 361.491 2144
86.6294 361.491 2144
91.8847 361.996 2147
97.0188 361.996 2147
102.153 361.996 2147
107.437 362.502 2150
112.997 363.851 2158
118.158 363.851 2158
123.318 363.851 2158
129.312 366.211 2172
134.506 366.211 2172
139.7 366.211 2172
145.828 368.572 2186
151.262 369.078 2189
156.497 369.078 2189
161.731 369.078 2189
559.742 513.236 3044
570.188 516.102 3061
577.508 516.102 3061
584.827 516.102 3061
588.858 513.236 3044
596.138 513.236 3044
598.064 508.683 3017
601.868 505.817 3000
609.042 505.817 3000
616.216 505.817 3000
622.351 504.974 2995
629.513 504.974 2995
636.675 504.974 2995
643.837 504.974 2995
649.912 504.131 2990
650.03 498.736 2958
655.993 497.892 2953
663.054 497.892 2953
666.485 495.195 2937
672.362 494.352 2932
674.507 490.811 2911
682.873 491.823 2917
691.031 492.666 2922
698.018 492.666 2922
705.005 492.666 2922
716.866 496.038 2942
725.132 496.881 2947
732.179 496.881 2947
740.731 497.892 2953
751.591 500.422 2968
758.688 500.422 2968
765.786 500.422 2968
774.446 501.433 2974
781.557 501.433 2974
788.669 501.433 2974
790.162 497.892 2953
794.253 496.038 2942
799.927 495.195 2937
811.346 497.892 2953
818.408 497.892 2953
834.135 503.119 2984
845.781 505.817 3000
852.955 505.817 3000
860.129 505.817 3000
867.303 505.817 3000
874.477 505.817 3000
881.651 505.817 3000
888.825 505.817 3000
895.999 505.817 3000
903.173 505.817 3000
894.264 496.881 2947
901.311 496.881 2947
908.358 496.881 2947
915.405 496.881 2947
1068.47 562.637 3337
1087.09 568.201 3370
1099.7 570.562 3384
1107.79 570.562 3384
1127.43 576.463 3419
1147.23 582.364 3454
1172.55 590.963 3505
1180.93 590.963 3505
1199.15 595.852 3534
1210.34 597.201 3542
1221.21 598.381 3549
1229.7 598.381 3549
1240.98 599.73 3557
1249.48 599.73 3557
1257.99 599.73 3557
1266.5 599.73 3557
1272.13 598.381 3549
1288.92 602.259 3572
1300.37 603.608 3580
1308.93 603.608 3580
1323.01 606.137 3595
