ply
format ascii 1.0
comment File generated
element vertex 2254
property float x
property float y
property float z
end_header
-1088.96 1107.75 2147
-1081.31 1105.17 2142
-1073.17 1102.08 2136
-1066.56 1100.53 2133
-1061.46 1100.53 2133
-1053.88 1097.95 2128
-1052.74 1102.08 2136
-1049.1 1103.63 2139
-1043.99 1103.63 2139
-1038.87 1103.63 2139
-1033.76 1103.63 2139
-1027.2 1102.08 2136
-1022.09 1102.08 2136
-1016.98 1102.08 2136
-1019.93 1110.85 2153
-1018.55 1114.98 2161
-1022.76 1125.3 2181
-1017.55 1125.3 2181
-1012.33 1125.3 2181
-1007.12 1125.3 2181
-1003.28 1126.84 2184
-998.056 1126.84 2184
-995.107 1129.42 2189
-995.299 1135.62 2201
-990.035 1135.62 2201
-984.772 1135.62 2201
-979.509 1135.62 2201
-968.934 1129.42 2189
-963.699 1129.42 2189
-956.276 1126.84 2184
-951.053 1126.84 2184
-943.232 1123.75 2178
-938.024 1123.75 2178
-931.531 1122.2 2175
-926.329 1122.2 2175
-919.858 1120.65 2172
-914.664 1120.65 2172
-908.214 1119.11 2169
-900.945 1116.53 2164
-894.529 1114.98 2161
-889.361 1114.98 2161
-884.194 1114.98 2161
-879.026 1114.98 2161
-873.858 1114.98 2161
-867.485 1113.43 2158
-862.324 1113.43 2158
-857.164 1113.43 2158
-850.819 1111.88 2155
-845.666 1111.88 2155
-840.513 1111.88 2155
-835.359 1111.88 2155
-830.206 1111.88 2155
-825.053 1111.88 2155
-821.041 1113.43 2158
-815.881 1113.43 2158
-814.101 1118.07 2167
-811.906 1122.2 2175
-808.93 1125.3 2181
-803.714 1125.3 2181
-800.33 1127.88 2186
-795.102 1127.88 2186
-789.875 1127.88 2186
-784.647 1127.88 2186
-777.637 1125.3 2181
-771.359 1123.75 2178
-766.151 1123.75 2178
-758.847 1120.65 2172
-751.918 1118.07 2167
-743.635 1113.43 2158
-738.474 1113.43 2158
-733.314 1113.43 2158
-728.153 1113.43 2158
-722.993 1113.43 2158
-717.832 1113.43 2158
-712.672 1113.43 2158
-707.511 1113.43 2158
-702.351 1113.43 2158
-697.191 1113.43 2158
-690.427 1110.85 2153
-685.278 1110.85 2153
-679.182 1109.3 2150
-674.041 1109.3 2150
-668.9 1109.3 2150
-663.758 1109.3 2150
-656.779 1106.21 2144
-652.564 1107.75 2147
-649.842 1111.88 2155
-644.689 1111.88 2155
-640.426 1113.43 2158
-639.387 1120.65 2172
-634.193 1120.65 2172
-628.999 1120.65 2172
-623.805 1120.65 2172
-619.466 1122.2 2175
-614.264 1122.2 2175
-609.063 1122.2 2175
-603.862 1122.2 2175
-598.661 1122.2 2175
-593.46 1122.2 2175
-587.448 1120.65 2172
-582.254 1120.65 2172
-576.263 1119.11 2169
-571.076 1119.11 2169
-565.367 1118.07 2167
-559.41 1116.53 2164
-554.235 1116.53 2164
-549.822 1118.07 2167
-544.64 1118.07 2167
-539.956 1119.11 2169
-534.769 1119.11 2169
-529.582 1119.11 2169
-523.912 1118.07 2167
-518.012 1116.53 2164
-512.837 1116.53 2164
-508.366 1118.07 2167
-503.184 1118.07 2167
-498.462 1119.11 2169
-493.275 1119.11 2169
-488.088 1119.11 2169
-482.456 1118.07 2167
-477.274 1118.07 2167
-472.092 1118.07 2167
-466.264 1116.53 2164
-461.089 1116.53 2164
-455.914 1116.53 2164
-452.406 1120.65 2172
-447.212 1120.65 2172
-442.018 1120.65 2172
-436.824 1120.65 2172
-431.034 1119.11 2169
-425.455 1118.07 2167
-420.273 1118.07 2167
-415.091 1118.07 2167
-409.341 1116.53 2164
-404.167 1116.53 2164
-398.992 1116.53 2164
-393.271 1114.98 2161
-387.565 1113.43 2158
-381.873 1111.88 2155
-376.719 1111.88 2155
-371.566 1111.88 2155
-366.923 1113.43 2158
-361.763 1113.43 2158
-357.098 1114.98 2161
-351.93 1114.98 2161
-346.763 1114.98 2161
-341.595 1114.98 2161
-336.427 1114.98 2161
-331.26 1114.98 2161
-325.64 1113.43 2158
-321.37 1116.53 2164
-316.195 1116.53 2164
-311.021 1116.53 2164
-306.552 1119.11 2169
-301.366 1119.11 2169
-296.998 1122.2 2175
-292.2 1123.75 2178
-286.991 1123.75 2178
-282.171 1125.3 2181
-277.591 1127.88 2186
-272.737 1129.42 2189
-267.503 1129.42 2189
-262.268 1129.42 2189
-257.034 1129.42 2189
-252.144 1130.97 2192
-246.902 1130.97 2192
-241.991 1132.52 2195
-236.742 1132.52 2195
-231.81 1134.07 2198
-226.554 1134.07 2198
-221.902 1137.16 2204
-217.713 1142.84 2215
-212.704 1144.39 2218
-207.4 1144.39 2218
-202.096 1144.39 2218
-196.792 1144.39 2218
-191.488 1144.39 2218
-185.009 1137.16 2204
-179.738 1137.16 2204
-174.468 1137.16 2204
-169.197 1137.16 2204
-163.704 1135.62 2201
-157.793 1130.97 2192
-152.133 1127.88 2186
-146.906 1127.88 2186
-141.16 1123.75 2178
-135.265 1118.07 2167
-129.903 1116.53 2164
-124.901 1118.07 2167
-119.719 1118.07 2167
-114.537 1118.07 2167
-109.356 1118.07 2167
-104.174 1118.07 2167
-98.9916 1118.07 2167
-93.8097 1118.07 2167
-88.6277 1118.07 2167
-83.2147 1114.98 2161
-78.0471 1114.98 2161
-72.8795 1114.98 2161
-67.7119 1114.98 2161
-62.5443 1114.98 2161
-57.3767 1114.98 2161
-51.9433 1109.3 2150
-46.7367 1107.75 2147
-41.5445 1106.21 2144
-36.4175 1106.21 2144
-31.2906 1106.21 2144
127.347 1103.63 2139
132.462 1103.63 2139
137.577 1103.63 2139
142.692 1103.63 2139
174.274 1109.3 2150
179.832 1111.88 2155
184.986 1111.88 2155
190.404 1113.43 2158
196.38 1118.07 2167
201.748 1119.11 2169
206.934 1119.11 2169
212.415 1120.65 2172
217.909 1122.2 2175
223.11 1122.2 2175
228.311 1122.2 2175
234.156 1125.3 2181
239.372 1125.3 2181
244.587 1125.3 2181
249.803 1125.3 2181
255.018 1125.3 2181
260.234 1125.3 2181
265.449 1125.3 2181
269.548 1120.65 2172
275.5 1123.75 2178
281.482 1126.84 2184
286.705 1126.84 2184
291.927 1126.84 2184
297.15 1126.84 2184
302.372 1126.84 2184
307.595 1126.84 2184
312.818 1126.84 2184
318.04 1126.84 2184
322.375 1123.75 2178
328.485 1126.84 2184
333.708 1126.84 2184
338.931 1126.84 2184
344.153 1126.84 2184
350.176 1129.42 2189
355.41 1129.42 2189
360.645 1129.42 2189
366.381 1130.97 2192
372.64 1134.07 2198
378.927 1137.16 2204
384.198 1137.16 2204
389.468 1137.16 2204
393.127 1132.52 2195
398.376 1132.52 2195
401.602 1126.84 2184
406.825 1126.84 2184
412.047 1126.84 2184
417.652 1127.88 2186
422.879 1127.88 2186
428.107 1127.88 2186
432.343 1125.3 2181
437.558 1125.3 2181
442.774 1125.3 2181
447.989 1125.3 2181
452.581 1123.75 2178
457.789 1123.75 2178
464.273 1126.84 2184
469.496 1126.84 2184
474.718 1126.84 2184
481.04 1129.42 2189
486.274 1129.42 2189
491.509 1129.42 2189
495.609 1126.84 2184
500.831 1126.84 2184
507.213 1129.42 2189
512.447 1129.42 2189
517.682 1129.42 2189
522.916 1129.42 2189
528.151 1129.42 2189
532.654 1127.88 2186
537.39 1126.84 2184
543.109 1127.88 2186
548.337 1127.88 2186
553.564 1127.88 2186
559.558 1129.42 2189
564.793 1129.42 2189
571.59 1132.52 2195
576.839 1132.52 2195
582.088 1132.52 2195
587.337 1132.52 2195
588.806 1125.3 2181
594.021 1125.3 2181
598.412 1123.75 2178
604.452 1125.3 2181
610.506 1126.84 2184
617.138 1129.42 2189
622.373 1129.42 2189
631.048 1135.62 2201
639.781 1141.81 2213
646.53 1144.39 2218
651.834 1144.39 2218
658.027 1145.93 2221
664.234 1147.48 2224
671.358 1150.58 2230
676.691 1150.58 2230
682.023 1150.58 2230
686.431 1149.03 2227
691.757 1149.03 2227
695.204 1145.93 2221
700.515 1145.93 2221
704.873 1144.39 2218
710.177 1144.39 2218
715.481 1144.39 2218
720.785 1144.39 2218
723.47 1140.26 2210
727.765 1138.71 2207
733.043 1138.71 2207
738.32 1138.71 2207
740.566 1134.07 2198
741.75 1127.88 2186
746.977 1127.88 2186
749.452 1123.75 2178
753.621 1122.2 2175
757.775 1120.65 2172
762.969 1120.65 2172
768.163 1120.65 2172
773.357 1120.65 2172
779.626 1122.2 2175
785.91 1123.75 2178
791.118 1123.75 2178
796.326 1123.75 2178
801.535 1123.75 2178
806.743 1123.75 2178
810.833 1122.2 2175
814.908 1120.65 2172
818.969 1119.11 2169
824.156 1119.11 2169
829.343 1119.11 2169
834.53 1119.11 2169
839.716 1119.11 2169
844.903 1119.11 2169
850.09 1119.11 2169
854.488 1118.07 2167
858.48 1116.53 2164
865.65 1119.11 2169
870.837 1119.11 2169
876.023 1119.11 2169
884.867 1123.75 2178
890.075 1123.75 2178
895.283 1123.75 2178
900.491 1123.75 2178
905.7 1123.75 2178
910.908 1123.75 2178
919.481 1127.88 2186
929.785 1134.07 2198
935.041 1134.07 2198
944.147 1138.71 2207
949.425 1138.71 2207
954.702 1138.71 2207
958.675 1137.16 2204
963.945 1137.16 2204
967.897 1135.62 2201
973.16 1135.62 2201
978.423 1135.62 2201
985.027 1137.16 2204
994.341 1141.81 2213
999.633 1141.81 2213
1004.93 1141.81 2213
1012.5 1144.39 2218
1017.8 1144.39 2218
1023.11 1144.39 2218
1028.41 1144.39 2218
1033.72 1144.39 2218
1033.87 1138.71 2207
1039.14 1138.71 2207
1041.58 1135.62 2201
1042.56 1130.97 2192
1044.94 1127.88 2186
1044.88 1122.2 2175
1054.43 1126.84 2184
1059.65 1126.84 2184
1071.7 1134.07 2198
1084.3 1141.81 2213
1093.54 1145.93 2221
1098.85 1145.93 2221
1111.61 1153.67 2236
1119.96 1156.77 2242
1125.32 1156.77 2242
1130.68 1156.77 2242
1133 1153.67 2236
1138.35 1153.67 2236
1143.7 1153.67 2236
1149.04 1153.67 2236
1154.39 1153.67 2236
1161.29 1155.22 2239
1166.65 1155.22 2239
1175.14 1158.32 2245
1180.51 1158.32 2245
1185.88 1158.32 2245
1196.02 1162.96 2254
1201.41 1162.96 2254
1206.8 1162.96 2254
1212.19 1162.96 2254
1215.96 1161.41 2251
1221.35 1161.41 2251
1208.74 1144.39 2218
1206.39 1137.16 2204
1203.41 1129.42 2189
1208.64 1129.42 2189
1207.78 1123.75 2178
1209.65 1120.65 2172
1213.16 1119.11 2169
1238.01 1137.16 2204
1244.97 1138.71 2207
1250.25 1138.71 2207
1255.53 1138.71 2207
1257.38 1135.62 2201
1262.64 1135.62 2201
1244.86 1114.98 2161
1246.56 1111.88 2155
1247.06 1107.75 2147
1252.2 1107.75 2147
1254.4 1105.17 2142
1259.53 1105.17 2142
1264.65 1105.17 2142
1269.77 1105.17 2142
1276.08 1106.21 2144
1281.21 1106.21 2144
1289.94 1109.3 2150
1303.51 1116.53 2164
1311.71 1119.11 2169
1316.9 1119.11 2169
1323.91 1120.65 2172
1332.78 1123.75 2178
1344.74 1129.42 2189
1349.98 1129.42 2189
1368.21 1140.26 2210
1375.36 1141.81 2213
1380.65 1141.81 2213
1385.95 1141.81 2213
1394.38 1144.39 2218
1403.47 1147.48 2224
1412.59 1150.58 2230
1417.92 1150.58 2230
1425.17 1152.13 2233
1430.51 1152.13 2233
1435.85 1152.13 2233
1441.19 1152.13 2233
1446.53 1152.13 2233
1451.87 1152.13 2233
1457.21 1152.13 2233
1458.62 1149.03 2227
1460 1145.93 2221
1461.35 1142.84 2215
1466.65 1142.84 2215
1471.95 1142.84 2215
1473.91 1140.26 2210
1477.19 1138.71 2207
1470.37 1129.42 2189
1475.61 1129.42 2189
1477.46 1126.84 2184
1480.64 1125.3 2181
1483.82 1123.75 2178
1489.02 1123.75 2178
1492.17 1122.2 2175
1497.38 1122.2 2175
1502.58 1122.2 2175
1503.62 1119.11 2169
1508.81 1119.11 2169
1510.5 1116.53 2164
1517.78 1118.07 2167
1528.58 1122.2 2175
1540.13 1126.84 2184
1545.35 1126.84 2184
1552 1127.88 2186
1557.22 1127.88 2186
1571.03 1134.07 2198
1576.28 1134.07 2198
1585.86 1137.16 2204
1603.4 1145.93 2221
1608.71 1145.93 2221
1614.02 1145.93 2221
1619.33 1145.93 2221
1616.6 1140.26 2210
1629.95 1145.93 2221
1639.68 1149.03 2227
1645.01 1149.03 2227
1657 1153.67 2236
1666.81 1156.77 2242
1676.65 1159.87 2248
1682.02 1159.87 2248
1687.4 1159.87 2248
1692.78 1159.87 2248
1698.15 1159.87 2248
1689.89 1150.58 2230
1688.38 1145.93 2221
1685.3 1140.26 2210
1690.58 1140.26 2210
-1567.08 1084.91 2093
-1562.08 1084.91 2093
-1557.07 1084.91 2093
-1552.07 1084.91 2093
-1547.06 1084.91 2093
-1540.58 1083.87 2091
-1527.5 1078.17 2080
-1490.04 1140.89 2201
-1484.78 1140.89 2201
-1479.52 1140.89 2201
-1468.23 1136.22 2192
-1462.99 1136.22 2192
-1452.42 1132.08 2184
-1447.2 1132.08 2184
-1440 1130.52 2181
-1426.89 1124.3 2169
-1418.42 1121.71 2164
-1415.21 1123.26 2167
-1410.03 1123.26 2167
-1404.84 1123.26 2167
-1400.95 1124.3 2169
-1395.77 1124.3 2169
-1390.58 1124.3 2169
-1385.39 1124.3 2169
-1380.21 1124.3 2169
-1375.02 1124.3 2169
-1366.68 1121.71 2164
-1361.5 1121.71 2164
-1352.57 1118.6 2158
-1347.41 1118.6 2158
-1340.38 1117.04 2155
-1335.23 1117.04 2155
-1330.07 1117.04 2155
-1324.92 1117.04 2155
-1319.77 1117.04 2155
-1313.39 1116.01 2153
-1308.24 1116.01 2153
-1303.1 1116.01 2153
-1296.14 1114.45 2150
-1291 1114.45 2150
-1285.86 1114.45 2150
-1280.71 1114.45 2150
-1270.83 1110.31 2142
-1265.7 1110.31 2142
-1260.58 1110.31 2142
-1255.46 1110.31 2142
-1250.34 1110.31 2142
-1245.22 1110.31 2142
-1238.36 1108.75 2139
-1231.51 1107.2 2136
-1229.85 1110.31 2142
-1224.73 1110.31 2142
-1228.72 1118.6 2158
-1225.26 1120.15 2161
-1220.09 1120.15 2161
-1214.92 1120.15 2161
-1206.39 1117.04 2155
-1201.24 1117.04 2155
-1202.75 1123.26 2167
-1197.57 1123.26 2167
-1192.38 1123.26 2167
-1177.89 1114.45 2150
-1172.75 1114.45 2150
-1167.61 1114.45 2150
-1165.17 1117.04 2155
-1166.47 1123.26 2167
-1163.97 1125.86 2172
-1158.78 1125.86 2172
-1153.58 1125.86 2172
-1148.39 1125.86 2172
-1143.2 1125.86 2172
-1133.81 1121.71 2164
-1128.64 1121.71 2164
-1121.9 1120.15 2161
-1116.74 1120.15 2161
-1107.45 1116.01 2153
-1102.3 1116.01 2153
-1094.1 1112.9 2147
-1088.96 1112.9 2147
-1081.31 1110.31 2142
-1073.17 1107.2 2136
-1066.56 1105.64 2133
-1061.46 1105.64 2133
-1053.88 1103.05 2128
-1052.74 1107.2 2136
-1049.1 1108.75 2139
-1043.99 1108.75 2139
-1038.87 1108.75 2139
-1033.76 1108.75 2139
-1027.2 1107.2 2136
-1022.09 1107.2 2136
-1016.98 1107.2 2136
-1019.93 1116.01 2153
-1018.55 1120.15 2161
-1022.76 1130.52 2181
-1017.55 1130.52 2181
-1012.33 1130.52 2181
-1007.12 1130.52 2181
-1003.28 1132.08 2184
-998.056 1132.08 2184
-995.107 1134.67 2189
-995.299 1140.89 2201
-990.035 1140.89 2201
-984.772 1140.89 2201
-979.509 1140.89 2201
-968.934 1134.67 2189
-963.699 1134.67 2189
-956.276 1132.08 2184
-951.053 1132.08 2184
-943.232 1128.97 2178
-938.024 1128.97 2178
-931.531 1127.41 2175
-926.329 1127.41 2175
-919.858 1125.86 2172
-914.664 1125.86 2172
-908.214 1124.3 2169
-900.945 1121.71 2164
-894.529 1120.15 2161
-889.361 1120.15 2161
-884.194 1120.15 2161
-879.026 1120.15 2161
-873.858 1120.15 2161
-866.279 1117.04 2155
-861.126 1117.04 2155
-855.972 1117.04 2155
-848.845 1114.45 2150
-842.527 1112.9 2147
-837.392 1112.9 2147
-832.258 1112.9 2147
-825.968 1111.34 2144
-821.99 1112.9 2147
-817.997 1114.45 2150
-812.856 1114.45 2150
-809.593 1117.04 2155
-806.68 1120.15 2161
-804.479 1124.3 2169
-799.292 1124.3 2169
-794.106 1124.3 2169
-788.919 1124.3 2169
-783.732 1124.3 2169
-778.545 1124.3 2169
-772.646 1123.26 2167
-766.401 1121.71 2164
-761.226 1121.71 2164
-755.004 1120.15 2161
-747.754 1117.04 2155
-741.912 1116.01 2153
-736.763 1116.01 2153
-730.595 1114.45 2150
-727.141 1117.04 2155
-721.988 1117.04 2155
-716.834 1117.04 2155
-711.681 1117.04 2155
-706.528 1117.04 2155
-700.724 1116.01 2153
-695.575 1116.01 2153
-688.503 1112.9 2147
-683.369 1112.9 2147
-678.234 1112.9 2147
-672.16 1111.34 2144
-667.033 1111.34 2144
-661.906 1111.34 2144
-656.166 1110.31 2142
-651.044 1110.31 2142
-647.43 1112.9 2147
-642.296 1112.9 2147
-638.052 1114.45 2150
-635.265 1118.6 2158
-630.981 1120.15 2161
-625.813 1120.15 2161
-623.805 1125.86 2172
-618.611 1125.86 2172
-613.417 1125.86 2172
-608.223 1125.86 2172
-603.029 1125.86 2172
-597.01 1124.3 2169
-591.823 1124.3 2169
-586.095 1123.26 2167
-580.913 1123.26 2167
-574.934 1121.71 2164
-569.76 1121.71 2164
-564.585 1121.71 2164
-557.859 1118.6 2158
-552.699 1118.6 2158
-548.299 1120.15 2161
-543.132 1120.15 2161
-539.458 1123.26 2167
-534.276 1123.26 2167
-529.094 1123.26 2167
-523.912 1123.26 2167
-518.012 1121.71 2164
-512.837 1121.71 2164
-508.366 1123.26 2167
-503.184 1123.26 2167
-498.002 1123.26 2167
-492.82 1123.26 2167
-487.638 1123.26 2167
-482.456 1123.26 2167
-476.614 1121.71 2164
-471.439 1121.71 2164
-466.264 1121.71 2164
-461.089 1121.71 2164
-455.914 1121.71 2164
-450.74 1121.71 2164
-445.565 1121.71 2164
-440.39 1121.71 2164
-435.215 1121.71 2164
-430.04 1121.71 2164
-424.277 1120.15 2161
-419.109 1120.15 2161
-413.367 1118.6 2158
-408.206 1118.6 2158
-403.046 1118.6 2158
-397.886 1118.6 2158
-391.815 1116.01 2153
-386.128 1114.45 2150
-380.455 1112.9 2147
-375.321 1112.9 2147
-369.67 1111.34 2144
-364.543 1111.34 2144
-359.919 1112.9 2147
-354.784 1112.9 2147
-349.65 1112.9 2147
-344.516 1112.9 2147
-339.382 1112.9 2147
-334.248 1112.9 2147
-329.114 1112.9 2147
-324.432 1114.45 2150
-319.737 1116.01 2153
-314.588 1116.01 2153
-309.44 1116.01 2153
-304.574 1117.04 2155
-299.421 1117.04 2155
-295.087 1120.15 2161
-290.724 1123.26 2167
-285.542 1123.26 2167
-280.619 1124.3 2169
-276.575 1128.97 2178
-271.74 1130.52 2181
-266.525 1130.52 2181
-261.31 1130.52 2181
-255.742 1128.97 2178
-250.534 1128.97 2178
-245.325 1128.97 2178
-240.117 1128.97 2178
-234.909 1128.97 2178
-230.017 1130.52 2181
-224.802 1130.52 2181
-219.888 1132.08 2184
-215.157 1134.67 2189
-210.21 1136.22 2192
-204.968 1136.22 2192
-199.727 1136.22 2192
-194.485 1136.22 2192
-189.243 1136.22 2192
-183.33 1132.08 2184
-178.107 1132.08 2184
-172.885 1132.08 2184
-167.662 1132.08 2184
-162.439 1132.08 2184
-157.001 1130.52 2181
-151.368 1127.41 2175
-146.167 1127.41 2175
-140.447 1123.26 2167
-135.078 1121.71 2164
-129.723 1120.15 2161
-124.556 1120.15 2161
-119.388 1120.15 2161
-114.22 1120.15 2161
-109.356 1123.26 2167
-104.174 1123.26 2167
-98.9916 1123.26 2167
-93.6798 1121.71 2164
-88.3823 1120.15 2161
-82.9837 1117.04 2155
-77.8304 1117.04 2155
-72.6772 1117.04 2155
-67.5239 1117.04 2155
-62.2259 1114.45 2150
-57.0846 1114.45 2150
-51.7501 1110.31 2142
-46.6714 1111.34 2144
-41.5445 1111.34 2144
-36.5704 1116.01 2153
-31.4219 1116.01 2153
-26.2978 1117.04 2155
-21.1446 1117.04 2155
-15.9913 1117.04 2155
-10.8381 1117.04 2155
-5.68481 1117.04 2155
127.347 1108.75 2139
132.462 1108.75 2139
137.577 1108.75 2139
142.692 1108.75 2139
174.274 1114.45 2150
179.832 1117.04 2155
184.986 1117.04 2155
190.404 1118.6 2158
196.38 1123.26 2167
201.748 1124.3 2169
206.934 1124.3 2169
212.121 1124.3 2169
216.506 1120.15 2161
221.982 1121.71 2164
227.157 1121.71 2164
232.653 1123.26 2167
239.043 1128.97 2178
244.251 1128.97 2178
249.459 1128.97 2178
254.667 1128.97 2178
259.16 1125.86 2172
264.354 1125.86 2172
269.548 1125.86 2172
274.741 1125.86 2172
280.322 1127.41 2175
285.523 1127.41 2175
290.724 1127.41 2175
295.925 1127.41 2175
301.126 1127.41 2175
306.327 1127.41 2175
311.529 1127.41 2175
316.293 1125.86 2172
321.487 1125.86 2172
327.132 1127.41 2175
332.333 1127.41 2175
337.534 1127.41 2175
343.208 1128.97 2178
348.416 1128.97 2178
353.624 1128.97 2178
358.833 1128.97 2178
364.041 1128.97 2178
369.249 1128.97 2178
374.457 1128.97 2178
379.666 1128.97 2178
384.874 1128.97 2178
390.082 1128.97 2178
395.29 1128.97 2178
400.499 1128.97 2178
405.707 1128.97 2178
409.217 1124.3 2169
414.404 1124.3 2169
419.591 1124.3 2169
424.777 1124.3 2169
429.964 1124.3 2169
435.151 1124.3 2169
440.338 1124.3 2169
443.881 1120.15 2161
449.049 1120.15 2161
454.216 1120.15 2161
460.022 1121.71 2164
465.196 1121.71 2164
472.11 1125.86 2172
477.963 1127.41 2175
483.164 1127.41 2175
488.365 1127.41 2175
494.247 1128.97 2178
499.456 1128.97 2178
504.664 1128.97 2178
509.872 1128.97 2178
515.08 1128.97 2178
520.289 1128.97 2178
525.497 1128.97 2178
530.705 1128.97 2178
535.913 1128.97 2178
541.122 1128.97 2178
548.337 1133.11 2186
553.564 1133.11 2186
558.791 1133.11 2186
564.793 1134.67 2189
570.027 1134.67 2189
575.262 1134.67 2189
580.497 1134.67 2189
585.731 1134.67 2189
587.996 1128.97 2178
593.204 1128.97 2178
598.412 1128.97 2178
604.452 1130.52 2181
610.506 1132.08 2184
616.293 1133.11 2186
621.52 1133.11 2186
627.608 1134.67 2189
633.709 1136.22 2192
639.826 1137.78 2195
645.075 1137.78 2195
653.879 1144 2207
659.156 1144 2207
664.434 1144 2207
669.712 1144 2207
674.989 1144 2207
678.417 1140.89 2201
683.681 1140.89 2201
688.944 1140.89 2201
697.046 1145.55 2210
704.873 1149.7 2218
710.177 1149.7 2218
715.481 1149.7 2218
720.785 1149.7 2218
723.47 1145.55 2210
727.765 1144 2207
733.043 1144 2207
738.32 1144 2207
740.566 1139.33 2198
741.75 1133.11 2186
746.977 1133.11 2186
749.452 1128.97 2178
753.621 1127.41 2175
757.775 1125.86 2172
762.969 1125.86 2172
768.163 1125.86 2172
773.357 1125.86 2172
779.626 1127.41 2175
785.91 1128.97 2178
791.118 1128.97 2178
796.326 1128.97 2178
801.535 1128.97 2178
806.743 1128.97 2178
810.833 1127.41 2175
814.908 1125.86 2172
818.969 1124.3 2169
824.156 1124.3 2169
829.343 1124.3 2169
834.53 1124.3 2169
839.716 1124.3 2169
844.903 1124.3 2169
850.09 1124.3 2169
854.488 1123.26 2167
858.48 1121.71 2164
865.65 1124.3 2169
870.837 1124.3 2169
876.023 1124.3 2169
884.867 1128.97 2178
890.075 1128.97 2178
895.283 1128.97 2178
900.491 1128.97 2178
905.7 1128.97 2178
910.908 1128.97 2178
919.481 1133.11 2186
929.785 1139.33 2198
935.041 1139.33 2198
944.147 1144 2207
949.425 1144 2207
954.702 1144 2207
958.675 1142.44 2204
963.945 1142.44 2204
967.897 1140.89 2201
973.16 1140.89 2201
978.423 1140.89 2201
985.027 1142.44 2204
994.341 1147.11 2213
999.633 1147.11 2213
1004.93 1147.11 2213
1012.5 1149.7 2218
1017.8 1149.7 2218
1023.11 1149.7 2218
1028.41 1149.7 2218
1033.72 1149.7 2218
1033.87 1144 2207
1039.14 1144 2207
1041.58 1140.89 2201
1042.56 1136.22 2192
1044.94 1133.11 2186
1044.88 1127.41 2175
1054.43 1132.08 2184
1059.65 1132.08 2184
1071.7 1139.33 2198
1084.3 1147.11 2213
1093.54 1151.26 2221
1098.85 1151.26 2221
1111.61 1159.03 2236
1119.96 1162.14 2242
1125.32 1162.14 2242
1130.68 1162.14 2242
1133 1159.03 2236
1138.35 1159.03 2236
1143.7 1159.03 2236
1149.04 1159.03 2236
1154.39 1159.03 2236
1161.29 1160.59 2239
1166.65 1160.59 2239
1175.14 1163.7 2245
1180.51 1163.7 2245
1185.88 1163.7 2245
1196.02 1168.36 2254
1201.41 1168.36 2254
1206.8 1168.36 2254
1212.19 1168.36 2254
1215.96 1166.81 2251
1221.35 1166.81 2251
1201.11 1142.44 2204
1198.17 1134.67 2189
1197.36 1128.97 2178
1202.57 1128.97 2178
1202.79 1124.3 2169
1206.86 1123.26 2167
1207.01 1118.6 2158
1212.17 1118.6 2158
1241.59 1140.89 2201
1246.85 1140.89 2201
1252.11 1140.89 2201
1234.52 1120.15 2161
1239.69 1120.15 2161
1238.52 1114.45 2150
1240.19 1111.34 2144
1244.16 1110.31 2142
1249.28 1110.31 2142
1250.89 1107.2 2136
1256 1107.2 2136
1261.11 1107.2 2136
1267.99 1108.75 2139
1273.11 1108.75 2139
1278.22 1108.75 2139
1285.14 1110.31 2142
1295.08 1114.45 2150
1303.24 1117.04 2155
1308.4 1117.04 2155
1322.08 1124.3 2169
1327.27 1124.3 2169
1339.83 1130.52 2181
1345.04 1130.52 2181
1355.21 1134.67 2189
1366.04 1139.33 2198
1375.04 1142.44 2204
1380.31 1142.44 2204
1389.35 1145.55 2210
1399.69 1149.7 2218
1408.79 1152.81 2224
1414.11 1152.81 2224
1419.43 1152.81 2224
1428.59 1155.92 2230
1433.92 1155.92 2230
1439.25 1155.92 2230
1446.53 1157.48 2233
1451.87 1157.48 2233
1457.21 1157.48 2233
1458.62 1154.37 2227
1460 1151.26 2221
1461.35 1148.15 2215
1466.65 1148.15 2215
1471.95 1148.15 2215
1473.91 1145.55 2210
1477.19 1144 2207
1470.37 1134.67 2189
1475.61 1134.67 2189
1477.46 1132.08 2184
1480.64 1130.52 2181
1481.77 1127.41 2175
1486.97 1127.41 2175
1486.69 1123.26 2167
1491.87 1123.26 2167
1497.05 1123.26 2167
1498.07 1120.15 2161
1503.24 1120.15 2161
1506.31 1118.6 2158
1511.47 1118.6 2158
1518.74 1120.15 2161
1529.55 1124.3 2169
1534.74 1124.3 2169
1550.58 1132.08 2184
1555.8 1132.08 2184
1561.02 1132.08 2184
1566.24 1132.08 2184
1571.47 1132.08 2184
1582.46 1136.22 2192
1587.71 1136.22 2192
1592.95 1136.22 2192
1598.19 1136.22 2192
1601.24 1134.67 2189
1613.08 1139.33 2198
1629.38 1147.11 2213
1634.67 1147.11 2213
1645.89 1151.26 2221
1653.43 1152.81 2224
1663.22 1155.92 2230
1668.56 1155.92 2230
1673.89 1155.92 2230
1672.44 1151.26 2221
1677.75 1151.26 2221
1672.46 1144 2207
1673.17 1140.89 2201
1671.57 1136.22 2192
1676.81 1136.22 2192
-1559.59 1084.71 2083
-1554.61 1084.71 2083
-1553.35 1087.32 2088
-1548.36 1087.32 2088
-1543.36 1087.32 2088
-1534.69 1084.71 2083
-1527.5 1083.15 2080
-1504.23 1070.13 2055
-1499.32 1070.13 2055
-1492.22 1068.57 2052
-1490.94 1071.17 2057
-1493.24 1076.38 2067
-1488.3 1076.38 2067
-1483.36 1076.38 2067
-1481.99 1078.98 2072
-1477.04 1078.98 2072
-1472.08 1078.98 2072
-1458.3 1113.87 2139
-1453.19 1113.87 2139
-1470.41 1131.06 2172
-1465.22 1131.06 2172
-1462.04 1132.62 2175
-1456.84 1132.62 2175
-1451.64 1132.62 2175
-1444.44 1131.06 2172
-1439.25 1131.06 2172
-1430.75 1128.46 2167
-1423.6 1126.89 2164
-1412.52 1122.21 2155
-1411.29 1125.33 2161
-1406.12 1125.33 2161
-1400.95 1125.33 2161
-1397.72 1126.89 2164
-1392.55 1126.89 2164
-1387.37 1126.89 2164
-1382.2 1126.89 2164
-1377.03 1126.89 2164
-1371.85 1126.89 2164
-1364.78 1125.33 2161
-1357.73 1123.77 2158
-1350.69 1122.21 2155
-1345.53 1122.21 2155
-1339.13 1121.16 2153
-1333.99 1121.16 2153
-1325.13 1118.04 2147
-1320 1118.04 2147
-1314.87 1118.04 2147
-1307.9 1116.48 2144
-1297.91 1112.31 2136
-1294.62 1113.87 2139
-1289.51 1113.87 2139
-1284.39 1113.87 2139
-1279.28 1113.87 2139
-1274.16 1113.87 2139
-1267.27 1112.31 2136
-1255.66 1106.58 2125
-1250.58 1106.58 2125
-1249.01 1109.71 2131
-1243.92 1109.71 2131
-1238.82 1109.71 2131
-1233.73 1109.71 2131
-1228.63 1109.71 2131
-1223.53 1109.71 2131
-1216.72 1108.15 2128
-1213.34 1109.71 2131
-1208.25 1109.71 2131
-1203.15 1109.71 2131
-1198.05 1109.71 2131
-1195.76 1112.31 2136
-1195.11 1116.48 2144
-1189.98 1116.48 2144
-1184.86 1116.48 2144
-1179.73 1116.48 2144
-1174.6 1116.48 2144
-1169.47 1116.48 2144
-1158.37 1110.75 2133
-1159.22 1116.48 2144
-1154.09 1116.48 2144
-1150.57 1118.04 2147
-1145.44 1118.04 2147
-1140.31 1118.04 2147
-1135.17 1118.04 2147
-1130.04 1118.04 2147
-1124.9 1118.04 2147
-1119.77 1118.04 2147
-1114.64 1118.04 2147
-1109.5 1118.04 2147
-1102.82 1116.48 2144
-1096.67 1115.44 2142
-1091.55 1115.44 2142
-1086.43 1115.44 2142
-1076.76 1110.75 2133
-1071.66 1110.75 2133
-1064.06 1108.15 2128
-1058.97 1108.15 2128
-1053.88 1108.15 2128
-1048.8 1108.15 2128
-1047.63 1112.31 2136
-1042.52 1112.31 2136
-1037.42 1112.31 2136
-1029.89 1109.71 2131
-1024.79 1109.71 2131
-1022.09 1112.31 2136
-1016.98 1112.31 2136
-1015.67 1116.48 2144
-1015.72 1122.21 2155
-1016.2 1128.46 2167
-1011.02 1128.46 2167
-1006.76 1129.5 2169
-1001.58 1129.5 2169
-997.767 1131.06 2172
-992.573 1131.06 2172
-990.106 1134.18 2178
-987.611 1137.31 2184
-982.389 1137.31 2184
-977.166 1137.31 2184
-971.943 1137.31 2184
-964.065 1134.18 2178
-958.857 1134.18 2178
-952.335 1132.62 2175
-947.134 1132.62 2175
-940.634 1131.06 2172
-935.44 1131.06 2172
-930.246 1131.06 2172
-923.774 1129.5 2169
-918.587 1129.5 2169
-913.401 1129.5 2169
-904.864 1125.33 2161
-898.447 1123.77 2158
-893.287 1123.77 2158
-888.127 1123.77 2158
-882.966 1123.77 2158
-877.806 1123.77 2158
-872.645 1123.77 2158
-866.279 1122.21 2155
-861.126 1122.21 2155
-855.972 1122.21 2155
-848.845 1119.6 2150
-842.527 1118.04 2147
-837.392 1118.04 2147
-832.258 1118.04 2147
-825.968 1116.48 2144
-821.99 1118.04 2147
-817.997 1119.6 2150
-812.856 1119.6 2150
-809.593 1122.21 2155
-806.68 1125.33 2161
-804.479 1129.5 2169
-799.292 1129.5 2169
-794.106 1129.5 2169
-788.919 1129.5 2169
-783.732 1129.5 2169
-778.545 1129.5 2169
-772.646 1128.46 2167
-766.401 1126.89 2164
-761.226 1126.89 2164
-755.004 1125.33 2161
-747.754 1122.21 2155
-741.912 1121.16 2153
-736.763 1121.16 2153
-730.595 1119.6 2150
-727.141 1122.21 2155
-721.988 1122.21 2155
-716.834 1122.21 2155
-711.681 1122.21 2155
-706.528 1122.21 2155
-700.724 1121.16 2153
-695.575 1121.16 2153
-688.503 1118.04 2147
-683.369 1118.04 2147
-678.234 1118.04 2147
-672.16 1116.48 2144
-667.033 1116.48 2144
-661.906 1116.48 2144
-656.166 1115.44 2142
-651.044 1115.44 2142
-647.43 1118.04 2147
-642.296 1118.04 2147
-638.052 1119.6 2150
-635.265 1123.77 2158
-630.981 1125.33 2161
-625.813 1125.33 2161
-623.805 1131.06 2172
-618.611 1131.06 2172
-613.417 1131.06 2172
-608.223 1131.06 2172
-603.029 1131.06 2172
-597.01 1129.5 2169
-591.823 1129.5 2169
-586.095 1128.46 2167
-580.913 1128.46 2167
-574.934 1126.89 2164
-569.76 1126.89 2164
-564.585 1126.89 2164
-557.859 1123.77 2158
-552.699 1123.77 2158
-548.299 1125.33 2161
-543.132 1125.33 2161
-539.458 1128.46 2167
-534.276 1128.46 2167
-529.094 1128.46 2167
-523.912 1128.46 2167
-518.012 1126.89 2164
-512.837 1126.89 2164
-508.366 1128.46 2167
-503.184 1128.46 2167
-498.002 1128.46 2167
-492.82 1128.46 2167
-487.638 1128.46 2167
-482.456 1128.46 2167
-476.614 1126.89 2164
-471.439 1126.89 2164
-466.264 1126.89 2164
-461.089 1126.89 2164
-455.914 1126.89 2164
-450.74 1126.89 2164
-445.565 1126.89 2164
-440.39 1126.89 2164
-435.215 1126.89 2164
-430.04 1126.89 2164
-424.277 1125.33 2161
-419.109 1125.33 2161
-413.367 1123.77 2158
-408.206 1123.77 2158
-403.046 1123.77 2158
-397.886 1123.77 2158
-391.815 1121.16 2153
-386.128 1119.6 2150
-380.455 1118.04 2147
-375.321 1118.04 2147
-369.67 1116.48 2144
-363.182 1112.31 2136
-358.577 1113.87 2139
-353.462 1113.87 2139
-348.347 1113.87 2139
-343.232 1113.87 2139
-338.117 1113.87 2139
-333.469 1115.44 2142
-328.347 1115.44 2142
-323.527 1116.48 2144
-318.845 1118.04 2147
-313.711 1118.04 2147
-308.577 1118.04 2147
-303.443 1118.04 2147
-297.892 1116.48 2144
-293.585 1119.6 2150
-288.443 1119.6 2150
-283.302 1119.6 2150
-278.549 1121.16 2153
-274.416 1125.33 2161
-269.249 1125.33 2161
-264.081 1125.33 2161
-258.913 1125.33 2161
-253.393 1123.77 2158
-248.233 1123.77 2158
-242.735 1122.21 2155
-237.361 1121.16 2153
-232.428 1122.21 2155
-227.591 1123.77 2158
-222.431 1123.77 2158
-217.572 1125.33 2161
-212.995 1128.46 2167
-207.813 1128.46 2167
-202.631 1128.46 2167
-197.449 1128.46 2167
-192.267 1128.46 2167
-187.085 1128.46 2167
-181.903 1128.46 2167
-176.721 1128.46 2167
-171.697 1129.5 2169
-166.511 1129.5 2169
-161.324 1129.5 2169
-155.777 1126.89 2164
-150.602 1126.89 2164
-145.428 1126.89 2164
-139.864 1123.77 2158
-134.704 1123.77 2158
-129.723 1125.33 2161
-124.556 1125.33 2161
-119.388 1125.33 2161
-114.062 1123.77 2158
-108.901 1123.77 2158
-103.741 1123.77 2158
-98.5805 1123.77 2158
-93.2036 1121.16 2153
-88.0551 1121.16 2153
-82.7911 1119.6 2150
-77.6498 1119.6 2150
-72.5085 1119.6 2150
-67.3672 1119.6 2150
-62.0523 1116.48 2144
-56.9253 1116.48 2144
-51.7501 1115.44 2142
-46.6714 1116.48 2144
-41.6607 1119.6 2150
-36.6044 1122.21 2155
-31.4511 1122.21 2155
-26.2978 1122.21 2155
-21.174 1123.77 2158
-16.0136 1123.77 2158
-10.8532 1123.77 2158
-5.68481 1122.21 2155
122.232 1113.87 2139
127.526 1115.44 2142
132.648 1115.44 2142
137.77 1115.44 2142
142.692 1113.87 2139
147.807 1113.87 2139
152.922 1113.87 2139
168.897 1118.04 2147
174.274 1119.6 2150
179.666 1121.16 2153
184.814 1121.16 2153
190.404 1123.77 2158
196.38 1128.46 2167
201.562 1128.46 2167
206.744 1128.46 2167
211.926 1128.46 2167
216.506 1125.33 2161
221.674 1125.33 2161
226.527 1123.77 2158
232.331 1126.89 2164
237.835 1128.46 2167
243.578 1131.06 2172
248.772 1131.06 2172
253.966 1131.06 2172
259.16 1131.06 2172
264.354 1131.06 2172
269.175 1129.5 2169
274.362 1129.5 2169
279.935 1131.06 2172
285.523 1132.62 2175
290.724 1132.62 2175
295.925 1132.62 2175
300.711 1131.06 2172
305.905 1131.06 2172
311.099 1131.06 2172
315.856 1129.5 2169
321.043 1129.5 2169
326.681 1131.06 2172
331.875 1131.06 2172
337.068 1131.06 2172
342.262 1131.06 2172
347.456 1131.06 2172
353.137 1132.62 2175
358.338 1132.62 2175
363.539 1132.62 2175
368.74 1132.62 2175
373.942 1132.62 2175
379.143 1132.62 2175
384.344 1132.62 2175
389.545 1132.62 2175
394.746 1132.62 2175
398.476 1128.46 2167
403.658 1128.46 2167
408.84 1128.46 2167
414.022 1128.46 2167
419.204 1128.46 2167
424.386 1128.46 2167
428.378 1125.33 2161
433.546 1125.33 2161
438.104 1123.77 2158
442.649 1122.21 2155
447.386 1121.16 2153
452.535 1121.16 2153
458.746 1123.77 2158
463.907 1123.77 2158
469.719 1125.33 2161
476.205 1128.46 2167
481.831 1129.5 2169
487.018 1129.5 2169
492.886 1131.06 2172
498.08 1131.06 2172
503.969 1132.62 2175
509.17 1132.62 2175
514.371 1132.62 2175
519.572 1132.62 2175
524.773 1132.62 2175
529.974 1132.62 2175
534.437 1131.06 2172
540.376 1132.62 2175
546.33 1134.18 2178
551.538 1134.18 2178
558.28 1137.31 2184
563.503 1137.31 2184
568.725 1137.31 2184
573.948 1137.31 2184
579.171 1137.31 2184
583.59 1135.75 2181
587.996 1134.18 2178
593.204 1134.18 2178
597.588 1132.62 2175
603.621 1134.18 2178
609.668 1135.75 2181
615.729 1137.31 2184
620.951 1137.31 2184
626.174 1137.31 2184
632.842 1139.91 2189
638.951 1141.47 2192
644.193 1141.47 2192
650.323 1143.04 2195
655.572 1143.04 2195
662.628 1146.16 2201
667.891 1146.16 2201
673.154 1146.16 2201
676.568 1143.04 2195
682.749 1144.6 2198
688.005 1144.6 2198
694.207 1146.16 2201
700.424 1147.72 2204
705.694 1147.72 2204
710.965 1147.72 2204
716.235 1147.72 2204
720.523 1146.16 2201
724.797 1144.6 2198
730.054 1144.6 2198
735.31 1144.6 2198
736.523 1138.35 2186
740.053 1135.75 2181
745.269 1135.75 2181
747.387 1131.06 2172
750.849 1128.46 2167
757.775 1131.06 2172
762.969 1131.06 2172
768.163 1131.06 2172
773.357 1131.06 2172
778.551 1131.06 2172
783.745 1131.06 2172
790.028 1132.62 2175
795.229 1132.62 2175
800.43 1132.62 2175
803.409 1129.5 2169
808.596 1129.5 2169
811.907 1126.89 2164
817.081 1126.89 2164
821.116 1125.33 2161
826.284 1125.33 2161
831.452 1125.33 2161
836.619 1125.33 2161
841.787 1125.33 2161
846.954 1125.33 2161
850.939 1123.77 2158
857.29 1125.33 2161
863.654 1126.89 2164
870.837 1129.5 2169
876.023 1129.5 2169
881.21 1129.5 2169
890.075 1134.18 2178
895.283 1134.18 2178
900.491 1134.18 2178
905.7 1134.18 2178
909.653 1132.62 2175
919.481 1138.35 2186
927.247 1141.47 2192
932.488 1141.47 2192
941.58 1146.16 2201
946.844 1146.16 2201
952.107 1146.16 2201
954.76 1143.04 2195
960.009 1143.04 2195
961.3 1138.35 2186
966.528 1138.35 2186
971.755 1138.35 2186
976.982 1138.35 2186
982.21 1138.35 2186
987.437 1138.35 2186
992.665 1138.35 2186
996.979 1137.31 2184
1002.2 1137.31 2184
1007.42 1137.31 2184
1011.26 1135.75 2181
1016.47 1135.75 2181
1020.28 1134.18 2178
1021.25 1129.5 2169
1026.44 1129.5 2169
1031.63 1129.5 2169
1035.86 1128.46 2167
1036.71 1123.77 2158
1046.22 1128.46 2167
1051.4 1128.46 2167
1061.95 1134.18 2178
1072.55 1139.91 2189
1082.21 1144.6 2198
1087.47 1144.6 2198
1101.17 1153.45 2215
1106.47 1153.45 2215
1111.77 1153.45 2215
1117.07 1153.45 2215
1122.36 1153.45 2215
1132.24 1158.14 2224
1137.56 1158.14 2224
1142.88 1158.14 2224
1148.2 1158.14 2224
1153.51 1158.14 2224
1163.52 1162.82 2233
1172 1165.95 2239
1177.36 1165.95 2239
1182.71 1165.95 2239
1189.66 1167.51 2242
1195.02 1167.51 2242
1200.38 1167.51 2242
1205.74 1167.51 2242
1199.76 1156.58 2221
1205.07 1156.58 2221
1201.11 1147.72 2204
1198.17 1139.91 2189
1197.36 1134.18 2178
1202.57 1134.18 2178
1202.79 1129.5 2169
1206.86 1128.46 2167
1207.01 1123.77 2158
1212.17 1123.77 2158
1241.59 1146.16 2201
1246.85 1146.16 2201
1252.11 1146.16 2201
1234.52 1125.33 2161
1239.69 1125.33 2161
1238.52 1119.6 2150
1240.19 1116.48 2144
1244.16 1115.44 2142
1249.28 1115.44 2142
1250.89 1112.31 2136
1256 1112.31 2136
1261.11 1112.31 2136
1267.99 1113.87 2139
1273.11 1113.87 2139
1278.22 1113.87 2139
1285.14 1115.44 2142
1295.08 1119.6 2150
1303.24 1122.21 2155
1308.4 1122.21 2155
1322.08 1129.5 2169
1327.27 1129.5 2169
1339.83 1135.75 2181
1345.04 1135.75 2181
1355.21 1139.91 2189
1366.04 1144.6 2198
1375.04 1147.72 2204
1380.31 1147.72 2204
1389.35 1150.85 2210
1399.69 1155.01 2218
1408.79 1158.14 2224
1414.11 1158.14 2224
1419.43 1158.14 2224
1428.59 1161.26 2230
1433.92 1161.26 2230
1439.25 1161.26 2230
1446.53 1162.82 2233
1451.87 1162.82 2233
1457.21 1162.82 2233
1458.62 1159.7 2227
1460 1156.58 2221
1461.35 1153.45 2215
1466.65 1153.45 2215
1471.95 1153.45 2215
1473.91 1150.85 2210
1477.19 1149.29 2207
1470.37 1139.91 2189
1475.61 1139.91 2189
1477.46 1137.31 2184
1480.64 1135.75 2181
1481.77 1132.62 2175
1486.97 1132.62 2175
1486.69 1128.46 2167
1491.87 1128.46 2167
1497.05 1128.46 2167
1498.07 1125.33 2161
1503.24 1125.33 2161
1506.31 1123.77 2158
1511.47 1123.77 2158
1518.74 1125.33 2161
1529.55 1129.5 2169
1534.74 1129.5 2169
1550.58 1137.31 2184
1555.8 1137.31 2184
1561.02 1137.31 2184
1566.24 1137.31 2184
1571.47 1137.31 2184
1582.46 1141.47 2192
1587.71 1141.47 2192
1592.95 1141.47 2192
1598.19 1141.47 2192
1601.24 1139.91 2189
1613.08 1144.6 2198
1629.38 1152.41 2213
1634.67 1152.41 2213
1645.89 1156.58 2221
1653.43 1158.14 2224
1663.22 1161.26 2230
1668.56 1161.26 2230
1673.89 1161.26 2230
1672.44 1156.58 2221
1677.75 1156.58 2221
1672.46 1149.29 2207
1673.17 1146.16 2201
1671.57 1141.47 2192
1676.81 1141.47 2192
-1546.12 1080.29 2065
-1541.18 1080.29 2065
-1547.4 1088.13 2080
-1542.43 1088.13 2080
-1537.45 1088.13 2080
-1532.48 1088.13 2080
-1520.16 1082.9 2070
-1509.35 1078.72 2062
-1504.42 1078.72 2062
-1494.4 1075.05 2055
-1490.94 1076.1 2057
-1493.24 1081.33 2067
-1488.3 1081.33 2067
-1483.36 1081.33 2067
-1484.14 1085.52 2075
-1481.31 1087.09 2078
-1494.82 1100.69 2104
-1489.78 1100.69 2104
-1486.16 1101.73 2106
-1481.13 1101.73 2106
-1476.09 1101.73 2106
-1471.06 1101.73 2106
-1468.11 1103.3 2109
-1466.53 1105.92 2114
-1463.55 1107.49 2117
-1458.49 1107.49 2117
-1453.43 1107.49 2117
-1451.79 1110.11 2122
-1458.3 1119 2139
-1453.19 1119 2139
-1455.52 1124.75 2150
-1453.75 1127.37 2155
-1448.6 1127.37 2155
-1443.44 1127.37 2155
-1438.29 1127.37 2155
-1435.13 1128.94 2158
-1429.97 1128.94 2158
-1424.81 1128.94 2158
-1417.68 1127.37 2155
-1411.21 1126.32 2153
-1406.06 1126.32 2153
-1400.92 1126.32 2153
-1397.06 1127.37 2155
-1393.85 1128.94 2158
-1390.62 1130.51 2161
-1385.45 1130.51 2161
-1380.28 1130.51 2161
-1375.12 1130.51 2161
-1369.95 1130.51 2161
-1362.89 1128.94 2158
-1355.84 1127.37 2155
-1350.69 1127.37 2155
-1345.53 1127.37 2155
-1337.27 1124.75 2150
-1330.27 1123.18 2147
-1323.28 1121.61 2144
-1318.16 1121.61 2144
-1313.03 1121.61 2144
-1303.02 1117.43 2136
-1297.91 1117.43 2136
-1292.81 1117.43 2136
-1287.7 1117.43 2136
-1282.59 1117.43 2136
-1277.48 1117.43 2136
-1272.37 1117.43 2136
-1264.3 1114.81 2131
-1253.89 1110.11 2122
-1248.81 1110.11 2122
-1245.5 1111.67 2125
-1240.41 1111.67 2125
-1235.33 1111.67 2125
-1230.25 1111.67 2125
-1220.56 1107.49 2117
-1217.22 1109.06 2120
-1212.15 1109.06 2120
-1211.63 1113.24 2128
-1208.25 1114.81 2131
-1203.15 1114.81 2131
-1198.05 1114.81 2131
-1192.96 1114.81 2131
-1192.32 1119 2139
-1187.21 1119 2139
-1182.09 1119 2139
-1176.98 1119 2139
-1170.22 1117.43 2136
-1165.11 1117.43 2136
-1157.29 1114.81 2131
-1152.19 1114.81 2131
-1153.02 1120.57 2142
-1148.97 1121.61 2144
-1143.84 1121.61 2144
-1138.71 1121.61 2144
-1133.59 1121.61 2144
-1128.46 1121.61 2144
-1123.33 1121.61 2144
-1118.2 1121.61 2144
-1113.08 1121.61 2144
-1107.95 1121.61 2144
-1101.8 1120.57 2142
-1096.67 1120.57 2142
-1088.49 1117.43 2136
-1083.39 1117.43 2136
-1076.76 1115.86 2133
-1069.15 1113.24 2128
-1062.56 1111.67 2125
-1057.48 1111.67 2125
-1052.4 1111.67 2125
-1048.8 1113.24 2128
-1043.71 1113.24 2128
-1038.62 1113.24 2128
-1033.53 1113.24 2128
-1029.89 1114.81 2131
-1024.79 1114.81 2131
-1020.66 1115.86 2133
-1015.56 1115.86 2133
-1011.88 1117.43 2136
-1014.78 1126.32 2153
-1009.63 1126.32 2153
-1004.48 1126.32 2153
-1000.26 1127.37 2155
-995.11 1127.37 2155
-989.957 1127.37 2155
-984.804 1127.37 2155
-982.378 1130.51 2161
-979.924 1133.65 2167
-974.742 1133.65 2167
-969.56 1133.65 2167
-965.268 1134.69 2169
-960.081 1134.69 2169
-954.895 1134.69 2169
-948.832 1133.65 2167
-943.65 1133.65 2167
-937.169 1132.08 2164
-931.994 1132.08 2164
-924.25 1128.94 2158
-916.96 1126.32 2153
-911.811 1126.32 2153
-905.399 1124.75 2150
-900.258 1124.75 2150
-893.868 1123.18 2147
-888.734 1123.18 2147
-883.6 1123.18 2147
-878.465 1123.18 2147
-873.331 1123.18 2147
-868.197 1123.18 2147
-863.063 1123.18 2147
-857.929 1123.18 2147
-852.795 1123.18 2147
-845.687 1120.57 2142
-840.564 1120.57 2142
-835.442 1120.57 2142
-829.157 1119 2139
-824.042 1119 2139
-818.927 1119 2139
-815.714 1121.61 2144
-810.588 1121.61 2144
-807.715 1124.75 2150
-803.693 1126.32 2153
-801.512 1130.51 2161
-796.344 1130.51 2161
-791.177 1130.51 2161
-786.009 1130.51 2161
-780.842 1130.51 2161
-775.674 1130.51 2161
-769.437 1128.94 2158
-762.505 1126.32 2153
-757.357 1126.32 2153
-752.208 1126.32 2153
-744.978 1123.18 2147
-739.844 1123.18 2147
-734.71 1123.18 2147
-728.556 1121.61 2144
-725.454 1124.75 2150
-720.313 1124.75 2150
-715.171 1124.75 2150
-710.03 1124.75 2150
-704.889 1124.75 2150
-698.771 1123.18 2147
-693.637 1123.18 2147
-687.541 1121.61 2144
-681.777 1120.57 2142
-676.655 1120.57 2142
-671.533 1120.57 2142
-666.411 1120.57 2142
-660.362 1119 2139
-656.166 1120.57 2142
-651.044 1120.57 2142
-645.922 1120.57 2142
-640.8 1120.57 2142
-637.161 1123.18 2147
-632.027 1123.18 2147
-630.105 1128.94 2158
-624.945 1128.94 2158
-619.784 1128.94 2158
-615.478 1130.51 2161
-610.311 1130.51 2161
-605.143 1130.51 2161
-600.808 1132.08 2164
-595.633 1132.08 2164
-590.459 1132.08 2164
-585.284 1132.08 2164
-580.109 1132.08 2164
-574.137 1130.51 2161
-568.97 1130.51 2161
-562.237 1127.37 2155
-557.083 1127.37 2155
-551.93 1127.37 2155
-547.538 1128.94 2158
-542.378 1128.94 2158
-537.964 1130.51 2161
-532.796 1130.51 2161
-527.629 1130.51 2161
-522.461 1130.51 2161
-517.294 1130.51 2161
-512.126 1130.51 2161
-508.366 1133.65 2167
-503.184 1133.65 2167
-498.002 1133.65 2167
-492.138 1132.08 2164
-486.963 1132.08 2164
-481.788 1132.08 2164
-475.953 1130.51 2161
-469.478 1127.37 2155
-463.894 1126.32 2153
-458.745 1126.32 2153
-453.597 1126.32 2153
-448.865 1127.37 2155
-443.712 1127.37 2155
-438.559 1127.37 2155
-433.405 1127.37 2155
-427.258 1124.75 2150
-422.117 1124.75 2150
-416.976 1124.75 2150
-411.834 1124.75 2150
-405.558 1121.61 2144
-400.431 1121.61 2144
-395.304 1121.61 2144
-389.813 1120.57 2142
-384.152 1119 2139
-378.506 1117.43 2136
-373.398 1117.43 2136
-367.773 1115.86 2133
-363.182 1117.43 2136
-358.577 1119 2139
-353.462 1119 2139
-348.347 1119 2139
-343.232 1119 2139
-338.117 1119 2139
-333.469 1120.57 2142
-328.347 1120.57 2142
-323.527 1121.61 2144
-318.845 1123.18 2147
-313.711 1123.18 2147
-308.577 1123.18 2147
-303.443 1123.18 2147
-297.892 1121.61 2144
-293.585 1124.75 2150
-288.443 1124.75 2150
-283.302 1124.75 2150
-278.549 1126.32 2153
-274.416 1130.51 2161
-269.249 1130.51 2161
-264.081 1130.51 2161
-258.913 1130.51 2161
-253.393 1128.94 2158
-248.233 1128.94 2158
-242.735 1127.37 2155
-237.361 1126.32 2153
-232.428 1127.37 2155
-227.591 1128.94 2158
-222.431 1128.94 2158
-217.572 1130.51 2161
-212.995 1133.65 2167
-207.813 1133.65 2167
-202.631 1133.65 2167
-197.449 1133.65 2167
-192.267 1133.65 2167
-187.085 1133.65 2167
-181.903 1133.65 2167
-176.721 1133.65 2167
-171.697 1134.69 2169
-166.511 1134.69 2169
-161.324 1134.69 2169
-155.777 1132.08 2164
-150.602 1132.08 2164
-145.428 1132.08 2164
-139.864 1128.94 2158
-134.704 1128.94 2158
-129.723 1130.51 2161
-124.556 1130.51 2161
-119.388 1130.51 2161
-114.062 1128.94 2158
-108.901 1128.94 2158
-103.741 1128.94 2158
-98.5805 1128.94 2158
-93.2036 1126.32 2153
-88.0551 1126.32 2153
-82.7911 1124.75 2150
-77.6498 1124.75 2150
-72.5085 1124.75 2150
-67.3672 1124.75 2150
-62.0523 1121.61 2144
-56.9253 1121.61 2144
-51.7501 1120.57 2142
-46.6714 1121.61 2144
-41.6607 1124.75 2150
-36.6044 1127.37 2155
-31.4511 1127.37 2155
-26.2978 1127.37 2155
-21.174 1128.94 2158
-16.0136 1128.94 2158
-10.8532 1128.94 2158
-5.68481 1127.37 2155
122.404 1120.57 2142
127.526 1120.57 2142
132.648 1120.57 2142
137.77 1120.57 2142
142.692 1119 2139
147.807 1119 2139
152.922 1119 2139
158.259 1120.57 2142
163.381 1120.57 2142
168.897 1123.18 2147
174.274 1124.75 2150
179.666 1126.32 2153
184.814 1126.32 2153
190.404 1128.94 2158
196.108 1132.08 2164
201.283 1132.08 2164
206.457 1132.08 2164
211.632 1132.08 2164
216.506 1130.51 2161
221.674 1130.51 2161
226.527 1128.94 2158
232.331 1132.08 2164
237.506 1132.08 2164
243.017 1133.65 2167
248.199 1133.65 2167
253.615 1134.69 2169
258.802 1134.69 2169
263.989 1134.69 2169
269.175 1134.69 2169
274.109 1133.65 2167
279.291 1133.65 2167
285.129 1136.26 2172
290.323 1136.26 2172
295.517 1136.26 2172
300.711 1136.26 2172
305.905 1136.26 2172
310.669 1134.69 2169
315.856 1134.69 2169
321.043 1134.69 2169
326.229 1134.69 2169
331.416 1134.69 2169
336.603 1134.69 2169
341.79 1134.69 2169
346.976 1134.69 2169
352.163 1134.69 2169
357.35 1134.69 2169
362.537 1134.69 2169
367.384 1133.65 2167
372.566 1133.65 2167
377.748 1133.65 2167
382.93 1133.65 2167
388.112 1133.65 2167
393.294 1133.65 2167
397.924 1132.08 2164
401.981 1128.94 2158
406.576 1127.37 2155
412.302 1128.94 2158
417.463 1128.94 2158
422.623 1128.94 2158
427.189 1127.37 2155
432.342 1127.37 2155
436.48 1124.75 2150
441.622 1124.75 2150
446.763 1124.75 2150
451.904 1124.75 2150
457.683 1126.32 2153
462.832 1126.32 2153
468.415 1127.37 2155
474.227 1128.94 2158
480.054 1130.51 2161
485.222 1130.51 2161
490.39 1130.51 2161
495.557 1130.51 2161
500.725 1130.51 2161
505.892 1130.51 2161
511.06 1130.51 2161
516.228 1130.51 2161
521.395 1130.51 2161
526.563 1130.51 2161
530.992 1128.94 2158
538.389 1133.65 2167
544.072 1134.69 2169
549.259 1134.69 2169
554.446 1134.69 2169
559.633 1134.69 2169
566.382 1137.83 2175
571.583 1137.83 2175
576.784 1137.83 2175
581.985 1137.83 2175
587.186 1137.83 2175
592.387 1137.83 2175
594.566 1132.08 2164
601.126 1134.69 2169
607.99 1137.83 2175
613.191 1137.83 2175
618.393 1137.83 2175
624.454 1139.4 2178
630.529 1140.97 2181
637.202 1143.59 2186
642.43 1143.59 2186
649.435 1146.72 2192
654.676 1146.72 2192
659.918 1146.72 2192
665.16 1146.72 2192
670.402 1146.72 2192
674.719 1145.16 2189
679.953 1145.16 2189
685.188 1145.16 2189
690.422 1145.16 2189
696.61 1146.72 2192
701.852 1146.72 2192
709.029 1149.86 2198
714.285 1149.86 2198
719.541 1149.86 2198
723.808 1148.29 2195
729.057 1148.29 2195
731.295 1143.59 2186
734.838 1140.97 2181
735.982 1134.69 2169
741.168 1134.69 2169
745.667 1133.65 2167
748.77 1130.51 2161
753.937 1130.51 2161
759.105 1130.51 2161
764.273 1130.51 2161
769.44 1130.51 2161
773.533 1128.94 2158
780.858 1132.08 2164
786.033 1132.08 2164
791.208 1132.08 2164
796.382 1132.08 2164
800.446 1130.51 2161
805.614 1130.51 2161
808.53 1127.37 2155
812.928 1126.32 2153
816.937 1124.75 2150
822.078 1124.75 2150
826.065 1123.18 2147
831.199 1123.18 2147
836.333 1123.18 2147
841.467 1123.18 2147
846.602 1123.18 2147
854.909 1127.37 2155
860.063 1127.37 2155
868.829 1132.08 2164
874.004 1132.08 2164
879.179 1132.08 2164
885.58 1133.65 2167
890.762 1133.65 2167
895.943 1133.65 2167
901.125 1133.65 2167
907.144 1134.69 2169
913.592 1136.26 2172
921.324 1139.4 2178
926.533 1139.4 2178
933.024 1140.97 2181
938.24 1140.97 2181
943.455 1140.97 2181
948.671 1140.97 2181
953.886 1140.97 2181
956.463 1137.83 2175
961.664 1137.83 2175
966.865 1137.83 2175
972.066 1137.83 2175
977.267 1137.83 2175
982.468 1137.83 2175
984.037 1133.65 2167
987.849 1132.08 2164
988.894 1127.37 2155
994.047 1127.37 2155
999.201 1127.37 2155
1004.35 1127.37 2155
1009.51 1127.37 2155
1012.31 1124.75 2150
1017.45 1124.75 2150
1022.59 1124.75 2150
1027.73 1124.75 2150
1031.43 1123.18 2147
1036.56 1123.18 2147
1041.7 1123.18 2147
1052.2 1128.94 2158
1057.36 1128.94 2158
1065.47 1132.08 2164
1070.65 1132.08 2164
1079.8 1136.26 2172
1086.49 1137.83 2175
1093.2 1139.4 2178
1098.41 1139.4 2178
1105.13 1140.97 2181
1115.95 1146.72 2192
1121.19 1146.72 2192
1126.43 1146.72 2192
1131.67 1146.72 2192
1136.92 1146.72 2192
1148.41 1153 2204
1155.25 1154.57 2207
1160.53 1154.57 2207
1165.81 1154.57 2207
1171.08 1154.57 2207
1176.36 1154.57 2207
1181.64 1154.57 2207
1186.92 1154.57 2207
1190.57 1153 2204
1195.84 1153 2204
1191.31 1143.59 2186
1187.23 1134.69 2169
1188.02 1130.51 2161
1193.18 1130.51 2161
1195.02 1127.37 2155
1195.72 1123.18 2147
1199.18 1121.61 2144
1204.31 1121.61 2144
1209.43 1121.61 2144
1211.73 1119 2139
1218.55 1120.57 2142
1223.67 1120.57 2142
1228.79 1120.57 2142
1233.91 1120.57 2142
1239.04 1120.57 2142
1238.93 1115.86 2133
1244.03 1115.86 2133
1249.13 1115.86 2133
1254.23 1115.86 2133
1261.11 1117.43 2136
1267.99 1119 2139
1273.11 1119 2139
1278.22 1119 2139
1285.14 1120.57 2142
1295.08 1124.75 2150
1302.03 1126.32 2153
1307.18 1126.32 2153
1315.38 1128.94 2158
1324.21 1132.08 2164
1337.99 1139.4 2178
1343.19 1139.4 2178
1352.12 1142.54 2184
1357.34 1142.54 2184
1363.81 1143.59 2186
1369.04 1143.59 2186
1376.15 1145.16 2189
1381.38 1145.16 2189
1392.32 1149.86 2198
1397.58 1149.86 2198
1404.75 1151.43 2201
1415.78 1156.14 2210
1421.06 1156.14 2210
1426.35 1156.14 2210
1433.57 1157.71 2213
1440.17 1158.76 2215
1445.46 1158.76 2215
1450.76 1158.76 2215
1456.06 1158.76 2215
1458.05 1156.14 2210
1463.34 1156.14 2210
1468.62 1156.14 2210
1471.91 1154.57 2207
1473.17 1151.43 2201
1467.01 1142.54 2184
1472.24 1142.54 2184
1473.4 1139.4 2178
1474.53 1136.26 2172
1474.28 1132.08 2164
1479.45 1132.08 2164
1480.51 1128.94 2158
1485.67 1128.94 2158
