ply
format ascii 1.0
comment File generated
element vertex 2252
property float x
property float y
property float z
end_header
-1961.85 266.807 2828
-1961.31 267.656 2837
-1961.42 268.6 2847
-1954.61 268.6 2847
-1947.8 268.6 2847
-1940.99 268.6 2847
-1930.79 268.128 2842
-1937.53 270.015 2862
-1930.69 270.015 2862
-1933.26 271.336 2876
-1936.43 272.751 2891
-1946.86 275.204 2917
-1939.89 275.204 2917
-1942.85 276.619 2932
-1970.18 281.525 2984
-1970.28 282.563 2995
-1963.11 282.563 2995
-1973.58 285.11 3022
-1966.36 285.11 3022
-1959.13 285.11 3022
-1951.91 285.11 3022
-1951.76 286.148 3033
-1944.5 286.148 3033
-1937.25 286.148 3033
-1930 286.148 3033
-1919.58 285.676 3028
-2152.86 335.585 3557
-2144.36 335.585 3557
-2135.85 335.585 3557
-2127.34 335.585 3557
-2118.84 335.585 3557
-2110.33 335.585 3557
-2097.1 334.83 3549
-2088.61 334.83 3549
-2084.81 335.585 3557
-2076.31 335.585 3557
-2067.8 335.585 3557
-2054.67 334.83 3549
-2046.18 334.83 3549
-2046.88 336.339 3565
-2038.35 336.339 3565
-2029.83 336.339 3565
-2021.3 336.339 3565
-2012.78 336.339 3565
-1986.82 333.415 3534
-1986.77 334.83 3549
-1978.28 334.83 3549
-1969.8 334.83 3549
-1961.31 334.83 3549
-1944.57 333.415 3534
-1940.5 334.17 3542
-1932.03 334.17 3542
-1923.56 334.17 3542
-1918.88 334.83 3549
-1914.7 335.585 3557
-1906.19 335.585 3557
-1897.69 335.585 3557
-1893.43 336.339 3565
-1884.9 336.339 3565
-1880.06 337 3572
-1871.52 337 3572
-1871.32 338.509 3588
-1866.38 339.17 3595
-1874.32 342.189 3627
-1865.64 342.189 3627
-1881.55 346.717 3675
-1876.84 347.472 3683
-1876.14 348.982 3699
-1867.3 348.982 3699
-1883.57 353.699 3749
-1891.61 356.907 3783
-1903.96 360.963 3826
-1894.81 360.963 3826
-1898.97 363.511 3853
-1920.66 369.455 3916
-1952.78 377.474 4001
-1943.21 377.474 4001
-1933.64 377.474 4001
-1933.21 379.266 4020
-1951.83 384.833 4079
-1942.08 384.833 4079
-1932.32 384.833 4079
-1927.28 385.776 4089
-1917.5 385.776 4089
-1907.73 385.776 4089
-1897.95 385.776 4089
-1888.17 385.776 4089
-1878.39 385.776 4089
-1864.04 384.833 4079
-1858.84 385.776 4089
-1849.06 385.776 4089
-1839.28 385.776 4089
-1829.5 385.776 4089
-1819.72 385.776 4089
-1796.67 382.946 4059
-1786.96 382.946 4059
-1739.16 374.738 3972
-1670 361.813 3835
-1605.4 349.736 3707
-1568.54 343.604 3642
-1559.83 343.604 3642
-1544.73 342.189 3627
-1525.9 339.925 3603
-1485.28 332.754 3527
-1476.84 332.754 3527
-1447.17 327.943 3476
-1426.86 325.207 3447
-1401.33 321.244 3405
-1393.19 321.244 3405
-1373.66 318.603 3377
-1362.75 317.942 3370
-1354.69 317.942 3370
-1346.63 317.942 3370
-1338.57 317.942 3370
-1322.62 316.055 3350
-1301.66 312.942 3317
-1270.71 307.376 3258
-1262.92 307.376 3258
-1247.81 305.583 3239
-1228.2 302.658 3208
-1206.83 299.262 3172
-1199.25 299.262 3172
-1178.14 295.866 3136
-1166.16 294.733 3124
-1150.16 292.563 3101
-1142.74 292.563 3101
-1110.43 286.148 3033
-1101.36 285.676 3028
-1098.09 286.714 3039
-1094.77 287.752 3050
-1093.54 289.356 3067
-1086.21 289.356 3067
-1078.87 289.356 3067
-1067.35 288.224 3055
-1060.04 288.224 3055
-1048.95 287.186 3044
-1037.9 286.148 3033
-1028.95 285.676 3028
-1021.71 285.676 3028
-1014.47 285.676 3028
-1001.57 284.072 3011
-992.721 283.601 3006
-985.533 283.601 3006
-969.557 281.053 2979
-920.771 277.091 2937
-916.859 278.034 2947
-918.147 280.582 2974
-911.036 280.582 2974
-906.963 281.525 2984
-901.637 282.091 2990
-897.479 283.035 3000
-890.305 283.035 3000
-883.131 283.035 3000
-875.957 283.035 3000
-868.783 283.035 3000
-858.737 282.091 2990
-848.454 281.053 2979
-836.812 279.544 2963
-829.726 279.544 2963
-818.199 278.034 2947
-807.023 276.619 2932
-800.011 276.619 2932
-793 276.619 2932
-785.989 276.619 2932
-778.978 276.619 2932
-771.966 276.619 2932
-764.955 276.619 2932
-757.944 276.619 2932
-750.932 276.619 2932
-742.652 276.147 2927
-734.396 275.676 2922
-727.409 275.676 2922
-719.189 275.204 2917
-710.749 274.638 2911
-697.743 272.279 2886
-690.842 272.279 2886
-682.756 271.808 2881
-675.866 271.808 2881
-668.977 271.808 2881
-662.088 271.808 2881
-652.924 270.864 2871
-647.184 271.336 2876
-642.533 272.279 2886
-638.935 273.694 2901
-631.998 273.694 2901
-626.138 274.166 2906
-620.254 274.638 2911
-615.611 275.676 2922
-608.623 275.676 2922
-606.784 278.034 2947
-613.982 284.638 3017
-609.985 286.148 3033
-602.732 286.148 3033
-595.48 286.148 3033
-554.518 376.53 3991
-552.895 382.002 4049
-543.212 382.002 4049
-538.801 385.776 4089
-529.023 385.776 4089
-519.245 385.776 4089
-509.467 385.776 4089
-488.712 384.833 4079
-480.132 385.776 4089
-470.354 385.776 4089
-460.576 385.776 4089
-448.593 383.889 4069
-436.706 382.002 4049
-429.133 383.889 4069
-419.403 383.889 4069
-409.673 383.889 4069
-396.109 380.21 4030
-386.472 380.21 4030
-376.835 380.21 4030
-370.752 383.889 4069
-361.022 383.889 4069
-351.291 383.889 4069
-341.561 383.889 4069
-331.831 383.889 4069
-308.564 367.756 3898
-299.243 367.756 3898
-289.922 367.756 3898
-280.6 367.756 3898
-154.987 210.106 2227
-149.661 210.106 2227
-143.429 208.785 2213
-137.2 207.37 2198
-131.224 206.238 2186
-125.708 205.766 2181
-120.493 205.766 2181
-115.119 205.483 2178
-109.608 204.917 2172
-104.029 204.162 2164
-98.8546 204.162 2164
-93.5499 203.879 2161
-88.2596 203.596 2158
-82.9837 203.313 2155
-77.8304 203.313 2155
-72.6097 203.125 2153
-67.3672 202.841 2150
-62.1391 202.558 2147
-57.005 202.558 2147
-51.7984 202.275 2144
-46.6279 202.087 2142
-41.5057 202.087 2142
-36.3835 202.087 2142
-31.2614 202.087 2142
-26.1392 202.087 2142
-20.9876 201.804 2139
-15.8726 201.804 2139
-10.7727 202.087 2142
-5.65052 202.087 2142
-0.528349 202.087 2142
4.59811 202.275 2144
9.73867 202.558 2147
14.8728 202.558 2147
20.0815 203.313 2155
25.305 203.879 2161
30.5572 204.445 2167
35.7392 204.445 2167
40.9589 204.634 2169
46.2094 204.917 2172
51.5454 205.483 2178
56.7536 205.483 2178
62.0472 205.766 2181
67.2626 205.766 2181
72.5778 206.049 2184
77.8004 206.049 2184
83.3271 206.804 2192
88.6901 207.087 2195
93.939 207.087 2195
99.1879 207.087 2195
104.58 207.37 2198
109.836 207.37 2198
115.092 207.37 2198
120.348 207.37 2198
125.604 207.37 2198
130.86 207.37 2198
136.116 207.37 2198
141.179 207.087 2195
146.428 207.087 2195
151.262 206.521 2189
156.497 206.521 2189
161.731 206.521 2189
166.737 206.238 2186
171.807 206.049 2184
177.03 206.049 2184
182.253 206.049 2184
187.475 206.049 2184
192.168 205.483 2178
197.105 205.2 2175
202.306 205.2 2175
207.221 204.917 2172
212.415 204.917 2172
217.608 204.917 2172
222.802 204.917 2172
227.681 204.634 2169
232.653 204.445 2167
237.835 204.445 2167
243.017 204.445 2167
247.856 204.162 2164
252.329 203.596 2158
256.893 203.125 2153
262.041 203.125 2153
267.19 203.125 2153
271.2 202.275 2144
276.069 202.087 2142
280.797 201.804 2139
285.912 201.804 2139
290.619 201.521 2136
437.572 288.224 3055
444.878 288.224 3055
452.183 288.224 3055
457.082 286.714 3039
462.669 285.676 3028
469.909 285.676 3028
475.417 284.638 3017
481.672 284.072 3011
488.06 283.601 3006
495.248 283.601 3006
499.762 282.091 2990
502.335 279.544 2963
510.28 280.016 2968
517.377 280.016 2968
524.475 280.016 2968
531.572 280.016 2968
537.762 279.544 2963
544.847 279.544 2963
551.933 279.544 2963
559.018 279.544 2963
563.047 278.034 2947
569.127 277.563 2942
576.162 277.563 2942
583.197 277.563 2942
589.229 277.091 2937
595.237 276.619 2932
602.249 276.619 2932
609.26 276.619 2932
616.271 276.619 2932
623.283 276.619 2932
630.294 276.619 2932
637.305 276.619 2932
643.218 276.147 2927
650.217 276.147 2927
657.216 276.147 2927
664.216 276.147 2927
671.215 276.147 2927
677.056 275.676 2922
682.873 275.204 2917
689.848 275.204 2917
696.824 275.204 2917
703.799 275.204 2917
711.993 275.676 2922
718.98 275.676 2922
725.968 275.676 2922
732.955 275.676 2922
739.942 275.676 2922
746.93 275.676 2922
753.917 275.676 2922
760.904 275.676 2922
767.892 275.676 2922
774.879 275.676 2922
781.867 275.676 2922
790.204 276.147 2927
797.203 276.147 2927
804.203 276.147 2927
811.202 276.147 2927
818.201 276.147 2927
823.791 275.676 2922
830.778 275.676 2922
837.766 275.676 2922
844.753 275.676 2922
850.283 275.204 2917
855.495 274.638 2911
862.456 274.638 2911
869.417 274.638 2911
878.185 275.204 2917
885.16 275.204 2917
893.665 275.676 2922
900.652 275.676 2922
909.193 276.147 2927
917.757 276.619 2932
927.923 277.563 2942
934.958 277.563 2942
957.362 282.091 2990
964.512 282.091 2990
971.662 282.091 2990
978.812 282.091 2990
1239.38 342.189 3627
1250.81 342.944 3635
1259.5 342.944 3635
1276.22 345.114 3658
1290.94 346.717 3675
1305.38 348.227 3691
1314.21 348.227 3691
1328.77 349.736 3707
1337.63 349.736 3707
1352.67 351.34 3724
1361.58 351.34 3724
1370.48 351.34 3724
1379.39 351.34 3724
1388.29 351.34 3724
1394.2 350.586 3716
1399.69 349.736 3707
1405.51 348.982 3699
1414.36 348.982 3699
1417.05 347.472 3683
1413.08 344.359 3650
1418.69 343.604 3642
1427.4 343.604 3642
1433.35 342.944 3635
1438.87 342.189 3627
1428.78 337.755 3580
1418.87 333.415 3534
1427.32 333.415 3534
1408.96 327.188 3468
1391.51 321.244 3405
1385.26 317.942 3370
1393.32 317.942 3370
1379.34 312.942 3317
1368.03 308.602 3271
1362.4 305.583 3239
1357.03 302.658 3208
1370.23 303.885 3221
1377.93 303.885 3221
1396.39 306.243 3246
1414.97 308.602 3271
1431.05 310.395 3290
1438.92 310.395 3290
1458.66 312.942 3317
1472.34 314.168 3330
1480.3 314.168 3330
1488.27 314.168 3330
1484.1 311.621 3303
1474.83 308.036 3265
1482.64 308.036 3265
1475.84 305.017 3233
1483.57 305.017 3233
1463.16 299.262 3172
1448.49 294.733 3124
1455.96 294.733 3124
1433.92 288.79 3061
1430.88 286.714 3039
1435.31 286.148 3033
1442.56 286.148 3033
1426.39 281.525 2984
1423.44 279.544 2963
1417.97 277.091 2937
1412.38 274.638 2911
1419.34 274.638 2911
1423.85 274.166 2906
1423.42 272.751 2891
1427.86 272.279 2886
1434.76 272.279 2886
1439.16 271.808 2881
1441.03 270.864 2871
1445.38 270.392 2866
1452.23 270.392 2866
1459.08 270.392 2866
1465.94 270.392 2866
1472.79 270.392 2866
1479.64 270.392 2866
1479.24 269.072 2852
1486.06 269.072 2852
1492.88 269.072 2852
1499.7 269.072 2852
1506.52 269.072 2852
1510.68 268.6 2847
1514.83 268.128 2842
1518.94 267.656 2837
1525.73 267.656 2837
1529.81 267.185 2832
1534.41 266.807 2828
1541.18 266.807 2828
1547.94 266.807 2828
1551.95 266.336 2823
1555.94 265.864 2818
1562.68 265.864 2818
1572.2 266.336 2823
1578.96 266.336 2823
1585.71 266.336 2823
1592.46 266.336 2823
1599.21 266.336 2823
1605.96 266.336 2823
1612.71 266.336 2823
1619.46 266.336 2823
1626.21 266.336 2823
1635.85 266.807 2828
1642.62 266.807 2828
1649.38 266.807 2828
1656.14 266.807 2828
1662.9 266.807 2828
1669.67 266.807 2828
1678.8 267.185 2832
1685.57 267.185 2832
1692.34 267.185 2832
1699.12 267.185 2832
1708.9 267.656 2837
1715.68 267.656 2837
1722.47 267.656 2837
1726.2 267.185 2832
1730.53 266.807 2828
1734.22 266.336 2823
1740.97 266.336 2823
1747.72 266.336 2823
1748.26 265.392 2813
1752.49 265.015 2809
1756.07 264.543 2804
1762.78 264.543 2804
1766.33 264.071 2799
1769.86 263.6 2794
1773.99 263.222 2790
1780.67 263.222 2790
1784.13 262.75 2785
1787.58 262.279 2780
1791.64 261.901 2776
1798.28 261.901 2776
1804.92 261.901 2776
1808.3 261.43 2771
1814.92 261.43 2771
1818.92 261.052 2767
1825.54 261.052 2767
1832.15 261.052 2767
1838.77 261.052 2767
1845.39 261.052 2767
1852 261.052 2767
1858.62 261.052 2767
1865.24 261.052 2767
1871.85 261.052 2767
1878.47 261.052 2767
1885.09 261.052 2767
1891.7 261.052 2767
1898.32 261.052 2767
1904.94 261.052 2767
1911.55 261.052 2767
1914.7 260.581 2762
1921.31 260.581 2762
1931.4 261.052 2767
1938.02 261.052 2767
1944.64 261.052 2767
1951.25 261.052 2767
1957.87 261.052 2767
1964.49 261.052 2767
1971.1 261.052 2767
1977.72 261.052 2767
1984.34 261.052 2767
1990.95 261.052 2767
1993.96 260.581 2762
2000.57 260.581 2762
2007.17 260.581 2762
2010.13 260.109 2757
2016.72 260.109 2757
2020.38 259.731 2753
2033.59 260.581 2762
2040.2 260.581 2762
2046.8 260.581 2762
2053.41 260.581 2762
2049.57 259.26 2748
2056.14 259.26 2748
2062.71 259.26 2748
2062.5 258.411 2739
2055.46 256.712 2721
2072.57 258.033 2735
2095.84 260.109 2757
2102.43 260.109 2757
2109.02 260.109 2757
-2091.94 270.293 2794
-2092.72 271.26 2804
-2092.71 272.131 2813
-2085.98 272.131 2813
-2086.65 273.098 2823
-2086.53 273.969 2832
-2079.75 273.969 2832
-2072.98 273.969 2832
-2066.21 273.969 2832
-2052.89 273.098 2823
-2046.14 273.098 2823
-2035.78 272.614 2818
-2029.04 272.614 2818
-2022.3 272.614 2818
-2015.56 272.614 2818
-2008.83 272.614 2818
-2002.09 272.614 2818
-1995.35 272.614 2818
-1988.61 272.614 2818
-1978.35 272.131 2813
-1975.13 272.614 2818
-1971.89 273.098 2823
-1971.4 273.969 2832
-1964.63 273.969 2832
-1964.77 274.936 2842
-1961.42 275.42 2847
-1954.61 275.42 2847
-1947.8 275.42 2847
-1940.99 275.42 2847
-1930.79 274.936 2842
-1937.53 276.871 2862
-1930.69 276.871 2862
-1933.26 278.225 2876
-1936.43 279.676 2891
-1946.86 282.192 2917
-1939.89 282.192 2917
-1942.85 283.643 2932
-1970.18 288.673 2984
-1970.28 289.737 2995
-1963.11 289.737 2995
-1973.58 292.349 3022
-1966.36 292.349 3022
-1959.13 292.349 3022
-1951.91 292.349 3022
-1951.76 293.414 3033
-1944.5 293.414 3033
-1937.25 293.414 3033
-1930 293.414 3033
-1919.58 292.93 3028
-2120.66 337.624 3490
-2152.86 344.106 3557
-2144.36 344.106 3557
-2135.85 344.106 3557
-2127.34 344.106 3557
-2118.84 344.106 3557
-2110.33 344.106 3557
-2097.1 343.332 3549
-2088.61 343.332 3549
-2084.81 344.106 3557
-2076.31 344.106 3557
-2067.8 344.106 3557
-2054.67 343.332 3549
-2046.18 343.332 3549
-2046.88 344.879 3565
-2038.35 344.879 3565
-2029.83 344.879 3565
-2021.3 344.879 3565
-2012.78 344.879 3565
-1986.82 341.88 3534
-1986.77 343.332 3549
-1978.28 343.332 3549
-1969.8 343.332 3549
-1961.31 343.332 3549
-1944.57 341.88 3534
-1940.5 342.654 3542
-1932.03 342.654 3542
-1923.56 342.654 3542
-1918.88 343.332 3549
-1914.7 344.106 3557
-1906.19 344.106 3557
-1897.69 344.106 3557
-1893.43 344.879 3565
-1888.6 345.557 3572
-1884.27 346.331 3580
-1875.71 346.331 3580
-1871.32 347.104 3588
-1866.38 347.782 3595
-1878.45 351.651 3635
-1869.76 351.651 3635
-1881.55 355.521 3675
-1884.99 357.843 3699
-1884.77 359.487 3716
-1875.88 359.487 3716
-1887.59 363.454 3757
-1891.61 365.969 3783
-1912.92 371.87 3844
-1903.73 371.87 3844
-1903.41 373.611 3862
-1929.98 380.673 3935
-1952.78 387.058 4001
-1943.21 387.058 4001
-1933.64 387.058 4001
-1933.21 388.896 4020
-1951.83 394.604 4079
-1942.08 394.604 4079
-1932.32 394.604 4079
-1927.28 395.571 4089
-1917.5 395.571 4089
-1907.73 395.571 4089
-1897.95 395.571 4089
-1888.17 395.571 4089
-1878.39 395.571 4089
-1864.04 394.604 4079
-1858.84 395.571 4089
-1849.06 395.571 4089
-1839.28 395.571 4089
-1829.5 395.571 4089
-1819.72 395.571 4089
-1796.67 392.669 4059
-1786.96 392.669 4059
-1739.16 384.253 3972
-1670 370.999 3835
-1616.23 361.035 3732
-1579.31 354.747 3667
-1570.54 354.747 3667
-1548.14 351.651 3635
-1529.28 349.33 3611
-1494.54 343.332 3549
-1486.05 343.332 3549
-1453 337.624 3490
-1429.76 334.141 3454
-1401.33 329.401 3405
-1393.19 329.401 3405
-1373.66 326.692 3377
-1362.75 326.015 3370
-1354.69 326.015 3370
-1346.63 326.015 3370
-1338.57 326.015 3370
-1322.62 324.08 3350
-1301.66 320.888 3317
-1273.44 315.857 3265
-1265.64 315.857 3265
-1247.81 313.342 3239
-1228.2 310.343 3208
-1206.83 306.861 3172
-1199.25 306.861 3172
-1178.14 303.378 3136
-1168.4 302.797 3130
-1152.38 300.572 3107
-1144.95 300.572 3107
-1118.48 295.542 3055
-1107.18 294.478 3044
-1099.9 294.478 3044
-1100.88 296.703 3067
-1093.54 296.703 3067
-1086.21 296.703 3067
-1078.87 296.703 3067
-1071.54 296.703 3067
-1064.2 296.703 3067
-1048.95 294.478 3044
-1037.9 293.414 3033
-1028.95 292.93 3028
-1021.71 292.93 3028
-1014.47 292.93 3028
-1001.57 291.285 3011
-992.721 290.802 3006
-985.533 290.802 3006
-969.557 288.19 2979
-920.771 284.126 2937
-916.859 285.094 2947
-918.147 287.706 2974
-911.036 287.706 2974
-906.963 288.673 2984
-901.637 289.254 2990
-897.479 290.221 3000
-890.305 290.221 3000
-883.131 290.221 3000
-875.957 290.221 3000
-868.783 290.221 3000
-858.737 289.254 2990
-848.454 288.19 2979
-836.812 286.642 2963
-829.726 286.642 2963
-818.199 285.094 2947
-807.023 283.643 2932
-800.011 283.643 2932
-793 283.643 2932
-785.989 283.643 2932
-778.978 283.643 2932
-771.966 283.643 2932
-764.955 283.643 2932
-757.944 283.643 2932
-750.932 283.643 2932
-742.652 283.159 2927
-734.396 282.675 2922
-727.409 282.675 2922
-719.189 282.192 2917
-710.749 281.611 2911
-697.743 279.193 2886
-690.842 279.193 2886
-682.756 278.709 2881
-675.866 278.709 2881
-668.977 278.709 2881
-662.088 278.709 2881
-652.924 277.742 2871
-647.184 278.225 2876
-642.533 279.193 2886
-638.935 280.644 2901
-631.998 280.644 2901
-626.138 281.128 2906
-622.598 282.675 2922
-617.718 283.643 2932
-610.706 283.643 2932
-613.372 288.19 2979
-613.982 291.866 3017
-612.197 294.478 3044
-604.918 294.478 3044
-607.652 299.411 3095
-608.203 303.378 3136
-618.135 312.181 3227
-610.418 312.181 3227
-606.25 314.019 3246
-598.488 314.019 3246
-590.726 314.019 3246
-581.706 313.342 3239
-554.518 386.091 3991
-552.895 391.702 4049
-543.212 391.702 4049
-538.801 395.571 4089
-529.023 395.571 4089
-519.245 395.571 4089
-509.467 395.571 4089
-499.689 395.571 4089
-489.911 395.571 4089
-480.132 395.571 4089
-470.354 395.571 4089
-460.576 395.571 4089
-448.593 393.637 4069
-436.706 391.702 4049
-429.133 393.637 4069
-419.403 393.637 4069
-409.673 393.637 4069
-396.109 389.864 4030
-386.472 389.864 4030
-376.835 389.864 4030
-370.752 393.637 4069
-361.022 393.637 4069
-351.291 393.637 4069
-341.561 393.637 4069
-331.831 393.637 4069
-309.277 377.965 3907
-299.934 377.965 3907
-289.922 377.094 3898
-280.6 377.094 3898
-270.653 376.223 3889
-261.353 376.223 3889
-143.947 214.86 2221
-137.2 212.635 2198
-131.404 211.765 2189
-125.881 211.281 2184
-120.659 211.281 2184
-115.119 210.701 2178
-109.608 210.12 2172
-104.27 209.83 2169
-99.083 209.83 2169
-93.6798 209.346 2164
-88.2596 208.766 2158
-83.0992 208.766 2158
-77.9388 208.766 2158
-72.6772 208.476 2155
-67.4612 208.282 2153
-62.1391 207.702 2147
-57.005 207.702 2147
-51.8709 207.702 2147
-46.6714 207.411 2144
-41.5445 207.411 2144
-36.4175 207.411 2144
-31.2906 207.411 2144
-26.1636 207.411 2144
-21.017 207.218 2142
-15.8949 207.218 2142
-10.7828 207.411 2144
-5.6558 207.411 2144
-0.528842 207.411 2144
4.60455 207.702 2147
9.75228 207.992 2150
14.8936 207.992 2150
20.0815 208.476 2155
25.3401 209.346 2164
30.5572 209.636 2167
35.7392 209.636 2167
41.0155 210.12 2172
46.2733 210.41 2175
51.6164 210.991 2181
56.8318 210.991 2181
62.0472 210.991 2181
67.3552 211.281 2184
72.6442 211.474 2186
77.8716 211.474 2186
83.3271 212.055 2192
88.6901 212.345 2195
94.0674 212.635 2198
99.3234 212.635 2198
104.58 212.635 2198
109.986 212.926 2201
115.249 212.926 2201
120.512 212.926 2201
125.775 212.926 2201
131.039 212.926 2201
136.302 212.926 2201
141.565 212.926 2201
146.428 212.345 2195
151.677 212.345 2195
156.926 212.345 2195
161.953 212.055 2192
167.195 212.055 2192
171.965 211.474 2186
177.192 211.474 2186
182.419 211.474 2186
187.475 211.281 2184
192.698 211.281 2184
197.377 210.701 2178
202.585 210.701 2178
207.507 210.41 2175
212.708 210.41 2175
217.608 210.12 2172
222.802 210.12 2172
227.996 210.12 2172
232.868 209.83 2169
238.055 209.83 2169
243.242 209.83 2169
248.199 209.636 2167
252.329 208.766 2158
257.131 208.476 2155
262.285 208.476 2155
267.19 208.282 2153
271.2 207.411 2144
276.069 207.218 2142
280.797 206.928 2139
285.912 206.928 2139
290.619 206.637 2136
437.572 295.542 3055
444.878 295.542 3055
452.183 295.542 3055
459.489 295.542 3055
463.432 293.414 3033
470.685 293.414 3033
476.205 292.349 3022
481.672 291.285 3011
486.274 289.737 2995
493.436 289.737 2995
499.762 289.254 2990
502.335 286.642 2963
510.28 287.125 2968
517.377 287.125 2968
524.475 287.125 2968
531.572 287.125 2968
538.669 287.125 2968
544.847 286.642 2963
551.933 286.642 2963
559.018 286.642 2963
564.193 285.674 2953
569.127 284.61 2942
576.162 284.61 2942
583.197 284.61 2942
589.229 284.126 2937
595.237 283.643 2932
602.249 283.643 2932
609.26 283.643 2932
616.271 283.643 2932
623.283 283.643 2932
630.294 283.643 2932
637.305 283.643 2932
643.218 283.159 2927
650.217 283.159 2927
657.216 283.159 2927
664.216 283.159 2927
671.215 283.159 2927
677.056 282.675 2922
684.043 282.675 2922
691.031 282.675 2922
698.018 282.675 2922
705.005 282.675 2922
711.993 282.675 2922
718.98 282.675 2922
725.968 282.675 2922
732.955 282.675 2922
739.942 282.675 2922
746.93 282.675 2922
753.917 282.675 2922
760.904 282.675 2922
767.892 282.675 2922
774.879 282.675 2922
781.867 282.675 2922
788.854 282.675 2922
797.203 283.159 2927
804.203 283.159 2927
811.202 283.159 2927
816.804 282.675 2922
823.791 282.675 2922
830.778 282.675 2922
837.766 282.675 2922
843.308 282.192 2917
848.534 281.611 2911
854.026 281.128 2906
860.975 281.128 2906
867.924 281.128 2906
878.185 282.192 2917
885.16 282.192 2917
892.136 282.192 2917
899.111 282.192 2917
907.64 282.675 2922
917.757 283.643 2932
929.5 285.094 2947
936.547 285.094 2947
955.441 288.673 2984
962.576 288.673 2984
969.712 288.673 2984
976.848 288.673 2984
1244.51 352.328 3642
1253.22 352.328 3642
1261.92 352.328 3642
1270.63 352.328 3642
1284.96 353.876 3658
1299.72 355.521 3675
1308.51 355.521 3675
1323.03 357.069 3691
1334.75 357.843 3699
1349.77 359.487 3716
1358.65 359.487 3716
1370.48 360.261 3724
1379.39 360.261 3724
1388.29 360.261 3724
1394.2 359.487 3716
1396.67 357.843 3699
1402.47 357.069 3691
1411.3 357.069 3691
1420.12 357.069 3691
1419.66 354.747 3667
1421.81 353.102 3650
1430.53 353.102 3650
1433.35 351.651 3635
1435.69 350.103 3619
1428.78 346.331 3580
1418.87 341.88 3534
1427.32 341.88 3534
1417.9 337.624 3490
1400.09 331.433 3426
1388.14 326.692 3377
1396.22 326.692 3377
1387.66 322.823 3337
1384.35 320.211 3310
1373.33 315.857 3265
1370.14 313.342 3239
1380.87 314.019 3246
1388.63 314.019 3246
1407.14 316.438 3271
1423.19 318.276 3290
1439.75 320.211 3310
1447.67 320.211 3310
1461.3 321.468 3323
1481.18 324.08 3350
1489.19 324.08 3350
1497.21 324.08 3350
1493.08 321.468 3323
1501.03 321.468 3323
1508.98 321.468 3323
1496.38 317.115 3278
1501.01 316.438 3271
1508.83 316.438 3271
1516.65 316.438 3271
1455.96 302.217 3124
1439.07 297.186 3072
1441.24 296.122 3061
1438.15 293.994 3039
1445.42 293.994 3039
1431.65 289.737 2995
1423.44 286.642 2963
1417.97 284.126 2937
1412.38 281.611 2911
1419.34 281.611 2911
1421.4 280.644 2901
1423.42 279.676 2891
1425.38 278.709 2881
1432.27 278.709 2881
1439.16 278.709 2881
1441.03 277.742 2871
1445.38 277.258 2866
1452.23 277.258 2866
1459.08 277.258 2866
1465.94 277.258 2866
1470.73 276.871 2862
1477.58 276.871 2862
1476.64 275.42 2847
1483.45 275.42 2847
1490.26 275.42 2847
1497.07 275.42 2847
1503.87 275.42 2847
1508.03 274.936 2842
1514.83 274.936 2842
1516.27 273.969 2832
1523.04 273.969 2832
1529.81 273.969 2832
1534.41 273.582 2828
1538.45 273.098 2823
1545.2 273.098 2823
1551.95 273.098 2823
1555.94 272.614 2818
1562.68 272.614 2818
1572.2 273.098 2823
1578.96 273.098 2823
1585.71 273.098 2823
1592.46 273.098 2823
1599.21 273.098 2823
1605.96 273.098 2823
1612.71 273.098 2823
1619.46 273.098 2823
1626.21 273.098 2823
1635.85 273.582 2828
1642.62 273.582 2828
1649.38 273.582 2828
1656.14 273.582 2828
1662.9 273.582 2828
1669.67 273.582 2828
1678.8 273.969 2832
1691.52 274.936 2842
1698.32 274.936 2842
1705.12 274.936 2842
1711.91 274.936 2842
1718.71 274.936 2842
1725.5 274.936 2842
1729.25 274.452 2837
1732.98 273.969 2832
1737.29 273.582 2828
1740.97 273.098 2823
1747.72 273.098 2823
1748.26 272.131 2813
1754.98 272.131 2813
1759.21 271.744 2809
1765.92 271.744 2809
1769.48 271.26 2804
1773.02 270.776 2799
1776.54 270.293 2794
1783.22 270.293 2794
1787.34 269.906 2790
1790.79 269.422 2785
1794.23 268.938 2780
1798.28 268.551 2776
1804.92 268.551 2776
1808.3 268.068 2771
1814.92 268.068 2771
1818.92 267.681 2767
1825.54 267.681 2767
1832.15 267.681 2767
1838.77 267.681 2767
1845.39 267.681 2767
1852 267.681 2767
1858.62 267.681 2767
1865.24 267.681 2767
1871.85 267.681 2767
1878.47 267.681 2767
1885.09 267.681 2767
1891.7 267.681 2767
1898.32 267.681 2767
1904.94 267.681 2767
1911.55 267.681 2767
1914.7 267.197 2762
1921.31 267.197 2762
1931.4 267.681 2767
1938.02 267.681 2767
1944.64 267.681 2767
1951.25 267.681 2767
1954.33 267.197 2762
1964.49 267.681 2767
1971.1 267.681 2767
1977.72 267.681 2767
1980.75 267.197 2762
1987.36 267.197 2762
1993.96 267.197 2762
2000.57 267.197 2762
2003.54 266.713 2757
2010.13 266.713 2757
2016.72 266.713 2757
2020.38 266.326 2753
2033.59 267.197 2762
2040.2 267.197 2762
2046.8 267.197 2762
2053.41 267.197 2762
2049.57 265.843 2748
2056.14 265.843 2748
2062.71 265.843 2748
2062.5 264.972 2739
2055.46 263.231 2721
2072.57 264.585 2735
2079.11 264.585 2735
2085.65 264.585 2735
2092.19 264.585 2735
-2091.94 276.986 2794
-2085.26 276.986 2794
-2092.71 278.869 2813
-2085.98 278.869 2813
-2086.65 279.861 2823
-2086.53 280.753 2832
-2079.75 280.753 2832
-2072.98 280.753 2832
-2066.21 280.753 2832
-2052.89 279.861 2823
-2046.14 279.861 2823
-2035.78 279.365 2818
-2029.04 279.365 2818
-2022.3 279.365 2818
-2015.56 279.365 2818
-2008.83 279.365 2818
-2002.09 279.365 2818
-1995.35 279.365 2818
-1988.61 279.365 2818
-1978.35 278.869 2813
-1975.13 279.365 2818
-1971.89 279.861 2823
-1971.4 280.753 2832
-1964.63 280.753 2832
-1964.77 281.744 2842
-1961.42 282.24 2847
-1954.61 282.24 2847
-1947.8 282.24 2847
-1940.99 282.24 2847
-1927.39 281.249 2837
-1937.53 283.727 2862
-1930.69 283.727 2862
-1926.53 284.123 2866
-1933.08 286.106 2886
-1936.19 287.593 2901
-1929.25 287.593 2901
-1936.23 289.675 2922
-1945.75 292.153 2947
-1963.04 295.822 2984
-1955.9 295.822 2984
-1966.4 298.498 3011
-1963.1 299.093 3017
-1955.89 299.093 3017
-1948.68 299.093 3017
-1941.46 299.093 3017
-1934.25 299.093 3017
-1934.06 300.183 3028
-1926.82 300.183 3028
-1919.58 300.183 3028
-2120.66 345.984 3490
-2125.63 348.165 3512
-2122.05 348.958 3520
-2113.63 348.958 3520
-2109.4 349.652 3527
-2100.97 349.652 3527
-2092.53 349.652 3527
-2084.1 349.652 3527
-2084.49 351.139 3542
-2076.02 351.139 3542
-2067.55 351.139 3542
-2059.08 351.139 3542
-2050.61 351.139 3542
-2042.14 351.139 3542
-2037.69 351.833 3549
-2029.2 351.833 3549
-2020.72 351.833 3549
-2012.23 351.833 3549
-2003.74 351.833 3549
-1986.82 350.346 3534
-1982.85 351.139 3542
-1974.38 351.139 3542
-1965.91 351.139 3542
-1957.44 351.139 3542
-1944.57 350.346 3534
-1940.5 351.139 3542
-1932.03 351.139 3542
-1923.56 351.139 3542
-1918.88 351.833 3549
-1914.7 352.626 3557
-1906.19 352.626 3557
-1897.69 352.626 3557
-1893.43 353.419 3565
-1888.6 354.113 3572
-1884.27 354.906 3580
-1875.71 354.906 3580
-1871.32 355.7 3588
-1866.38 356.394 3595
-1878.45 360.359 3635
-1869.76 360.359 3635
-1881.55 364.324 3675
-1884.99 366.704 3699
-1884.77 368.389 3716
-1875.88 368.389 3716
-1887.59 372.454 3757
-1891.61 375.031 3783
-1912.92 381.078 3844
-1903.73 381.078 3844
-1903.41 382.863 3862
-1929.98 390.1 3935
-1952.78 396.643 4001
-1943.21 396.643 4001
-1933.64 396.643 4001
-1933.21 398.526 4020
-1951.83 404.375 4079
-1942.08 404.375 4079
-1932.32 404.375 4079
-1922.57 404.375 4079
-1912.81 404.375 4079
-1903.06 404.375 4079
-1893.31 404.375 4079
-1883.55 404.375 4079
-1873.8 404.375 4079
-1864.04 404.375 4079
-1854.29 404.375 4079
-1849.06 405.367 4089
-1839.28 405.367 4089
-1829.5 405.367 4089
-1819.72 405.367 4089
-1796.67 402.393 4059
-1786.96 402.393 4059
-1739.16 393.768 3972
-1670 380.186 3835
-1616.23 369.975 3732
-1579.31 363.531 3667
-1570.54 363.531 3667
-1548.14 360.359 3635
-1529.28 357.98 3611
-1494.54 351.833 3549
-1486.05 351.833 3549
-1453 345.984 3490
-1429.76 342.415 3454
-1401.33 337.558 3405
-1393.19 337.558 3405
-1373.66 334.782 3377
-1362.75 334.088 3370
-1354.69 334.088 3370
-1346.63 334.088 3370
-1338.57 334.088 3370
-1322.62 332.105 3350
-1301.66 328.834 3317
-1273.44 323.679 3265
-1265.64 323.679 3265
-1247.81 321.101 3239
-1228.2 318.028 3208
-1206.83 314.459 3172
-1199.25 314.459 3172
-1178.14 310.89 3136
-1168.4 310.295 3130
-1152.38 308.015 3107
-1144.95 308.015 3107
-1118.48 302.86 3055
-1107.18 301.77 3044
-1099.9 301.77 3044
-1100.88 304.05 3067
-1093.54 304.05 3067
-1086.21 304.05 3067
-1078.87 304.05 3067
-1071.54 304.05 3067
-1064.2 304.05 3067
-1048.95 301.77 3044
-1036.19 300.183 3028
-1028.95 300.183 3028
-1021.71 300.183 3028
-1010.78 299.093 3017
-1001.57 298.498 3011
-989.088 296.912 2995
-981.926 296.912 2995
-905.444 295.326 2979
-899.828 295.822 2984
-892.692 295.822 2984
-885.556 295.822 2984
-878.421 295.822 2984
-871.285 295.822 2984
-864.149 295.822 2984
-855.578 295.326 2979
-842.473 293.244 2958
-833.988 292.748 2953
-826.926 292.748 2953
-818.199 292.153 2947
-807.023 290.666 2932
-800.011 290.666 2932
-793 290.666 2932
-785.989 290.666 2932
-778.978 290.666 2932
-771.966 290.666 2932
-764.955 290.666 2932
-757.944 290.666 2932
-749.652 290.171 2927
-742.652 290.171 2927
-733.14 289.179 2917
-726.164 289.179 2917
-717.71 288.585 2911
-710.749 288.585 2911
-697.743 286.106 2886
-690.842 286.106 2886
-682.756 285.611 2881
-675.866 285.611 2881
-667.816 285.115 2876
-660.939 285.115 2876
-652.924 284.619 2871
-647.184 285.115 2876
-642.533 286.106 2886
-638.935 287.593 2901
-631.998 287.593 2901
-626.138 288.089 2906
-622.598 289.675 2922
-617.718 290.666 2932
-610.706 290.666 2932
-613.372 295.326 2979
-613.982 299.093 3017
-612.197 301.77 3044
-604.918 301.77 3044
-607.652 306.826 3095
-608.203 310.89 3136
-618.135 319.912 3227
-610.418 319.912 3227
-606.25 321.795 3246
-598.488 321.795 3246
-590.726 321.795 3246
-581.706 321.101 3239
-549.239 391.884 3953
-544.975 395.651 3991
-535.431 395.651 3991
-536.165 403.384 4069
-529.023 405.367 4089
-519.245 405.367 4089
-509.467 405.367 4089
-499.689 405.367 4089
-489.911 405.367 4089
-480.132 405.367 4089
-469.204 404.375 4079
-458.324 403.384 4069
-446.388 401.401 4049
-436.706 401.401 4049
-427.024 401.401 4049
-417.341 401.401 4049
-405.746 399.518 4030
-395.126 398.526 4020
-385.513 398.526 4020
-374.123 396.643 4001
-367.198 399.518 4030
-358.36 400.41 4039
-348.701 400.41 4039
-339.043 400.41 4039
-328.65 399.518 4030
-309.277 387.324 3907
-299.934 387.324 3907
-289.922 386.432 3898
-280.6 386.432 3898
-270.653 385.539 3889
-261.353 385.539 3889
-143.947 220.181 2221
-137.2 217.901 2198
-131.404 217.008 2189
-125.881 216.513 2184
-120.659 216.513 2184
-115.119 215.918 2178
-109.608 215.323 2172
-104.27 215.026 2169
-99.083 215.026 2169
-93.6798 214.53 2164
-88.2596 213.935 2158
-83.0992 213.935 2158
-77.9388 213.935 2158
-72.6772 213.638 2155
-67.4612 213.44 2153
-62.1391 212.845 2147
-57.005 212.845 2147
-51.8709 212.845 2147
-46.6714 212.547 2144
-41.5445 212.547 2144
-36.4175 212.547 2144
-31.2906 212.547 2144
-26.1636 212.547 2144
-21.017 212.349 2142
-15.8949 212.349 2142
-10.7828 212.547 2144
-5.6558 212.547 2144
-0.528842 212.547 2144
4.60455 212.845 2147
9.75228 213.142 2150
14.8936 213.142 2150
20.0815 213.638 2155
25.3401 214.53 2164
30.5572 214.827 2167
35.7392 214.827 2167
41.0155 215.323 2172
46.2733 215.621 2175
51.6164 216.215 2181
56.8318 216.215 2181
62.0472 216.215 2181
67.3552 216.513 2184
72.6442 216.711 2186
77.8716 216.711 2186
83.3271 217.306 2192
88.6901 217.603 2195
94.0674 217.901 2198
99.3234 217.901 2198
104.58 217.901 2198
109.986 218.198 2201
115.406 218.495 2204
120.676 218.495 2204
126.118 218.793 2207
131.396 218.793 2207
136.673 218.793 2207
141.758 218.495 2204
146.828 218.198 2201
151.884 217.901 2198
157.14 217.901 2198
162.175 217.603 2195
167.424 217.603 2195
172.437 217.306 2192
177.678 217.306 2192
182.67 217.008 2189
187.647 216.711 2186
192.698 216.513 2184
197.648 216.215 2181
202.864 216.215 2181
207.507 215.621 2175
212.708 215.621 2175
217.608 215.323 2172
222.802 215.323 2172
227.996 215.323 2172
232.868 215.026 2169
238.055 215.026 2169
243.242 215.026 2169
248.199 214.827 2167
252.329 213.935 2158
257.131 213.638 2155
262.285 213.638 2155
267.19 213.44 2153
271.2 212.547 2144
276.069 212.349 2142
280.403 211.754 2136
285.511 211.754 2136
290.211 211.457 2133
440.867 305.14 3078
448.227 305.14 3078
455.587 305.14 3078
460.391 303.455 3061
466.794 302.86 3055
474.099 302.86 3055
478.884 301.274 3039
483.431 299.589 3022
487.086 297.408 3000
494.26 297.408 3000
499.762 296.416 2990
503.182 294.235 2968
510.28 294.235 2968
517.377 294.235 2968
524.475 294.235 2968
531.572 294.235 2968
538.669 294.235 2968
545.767 294.235 2968
552.864 294.235 2968
559.018 293.74 2963
564.193 292.748 2953
570.094 292.153 2947
577.141 292.153 2947
584.188 292.153 2947
589.229 291.162 2937
596.252 291.162 2937
603.276 291.162 2937
609.26 290.666 2932
616.271 290.666 2932
623.283 290.666 2932
630.294 290.666 2932
637.305 290.666 2932
644.316 290.666 2932
651.328 290.666 2932
658.339 290.666 2932
665.35 290.666 2932
671.215 290.171 2927
677.056 289.675 2922
684.043 289.675 2922
691.031 289.675 2922
698.018 289.675 2922
705.005 289.675 2922
711.993 289.675 2922
718.98 289.675 2922
725.968 289.675 2922
732.955 289.675 2922
739.942 289.675 2922
746.93 289.675 2922
753.917 289.675 2922
760.904 289.675 2922
767.892 289.675 2922
774.879 289.675 2922
781.867 289.675 2922
788.854 289.675 2922
797.203 290.171 2927
804.203 290.171 2927
811.202 290.171 2927
816.804 289.675 2922
823.791 289.675 2922
830.778 289.675 2922
837.766 289.675 2922
843.308 289.179 2917
848.534 288.585 2911
854.026 288.089 2906
860.975 288.089 2906
867.924 288.089 2906
878.185 289.179 2917
885.16 289.179 2917
892.136 289.179 2917
899.111 289.179 2917
907.64 289.675 2922
917.757 290.666 2932
931.392 292.748 2953
938.453 292.748 2953
955.441 295.822 2984
962.576 295.822 2984
969.712 295.822 2984
976.848 295.822 2984
1247.24 361.846 3650
1255.97 361.846 3650
1264.7 361.846 3650
1273.43 361.846 3650
1284.96 362.639 3658
1299.72 364.324 3675
1308.51 364.324 3675
1323.03 365.911 3691
1334.75 366.704 3699
1349.77 368.389 3716
1358.65 368.389 3716
1370.48 369.182 3724
1379.39 369.182 3724
1388.29 369.182 3724
1394.2 368.389 3716
1399.69 367.497 3707
1405.51 366.704 3699
1414.36 366.704 3699
1420.12 365.911 3691
1419.66 363.531 3667
1421.81 361.846 3650
1430.53 361.846 3650
1439.26 361.846 3650
1435.69 358.773 3619
1431.97 355.7 3588
1422.09 351.139 3542
1430.56 351.139 3542
1423.99 347.471 3505
1405.81 341.027 3440
1396.77 336.864 3398
1404.9 336.864 3398
1401.38 334.088 3370
1387.27 328.834 3317
1375.86 324.273 3271
1370.14 321.101 3239
1385.97 322.985 3258
1393.76 322.985 3258
1407.14 324.273 3271
1423.19 326.157 3290
1442.8 328.834 3317
1450.73 328.834 3317
1467.46 330.816 3337
1486.93 333.394 3363
1494.97 333.394 3363
1503.02 333.394 3363
1505.22 332.105 3350
1513.23 332.105 3350
1521.24 332.105 3350
1526.05 331.411 3343
1534.05 331.411 3343
1523.59 327.446 3303
1531.49 327.446 3303
1467.15 312.08 3148
1449.85 306.826 3095
1446.42 304.545 3072
1440.52 301.77 3044
1447.8 301.77 3044
1439.3 298.498 3011
1423.44 293.74 2963
1417.97 291.162 2937
1412.38 288.585 2911
1419.34 288.585 2911
1421.4 287.593 2901
1423.42 286.602 2891
1425.38 285.611 2881
1432.27 285.611 2881
1439.16 285.611 2881
1441.03 284.619 2871
1445.38 284.123 2866
1452.23 284.123 2866
1459.08 284.123 2866
1465.94 284.123 2866
1470.73 283.727 2862
1477.58 283.727 2862
1476.64 282.24 2847
1483.45 282.24 2847
1490.26 282.24 2847
1497.07 282.24 2847
1503.87 282.24 2847
1508.03 281.744 2842
1514.83 281.744 2842
1516.27 280.753 2832
1523.04 280.753 2832
1529.81 280.753 2832
1534.41 280.356 2828
1538.45 279.861 2823
1545.2 279.861 2823
1551.95 279.861 2823
1555.94 279.365 2818
1562.68 279.365 2818
1572.2 279.861 2823
1578.96 279.861 2823
1585.71 279.861 2823
1592.46 279.861 2823
1599.21 279.861 2823
1605.96 279.861 2823
1612.71 279.861 2823
1619.46 279.861 2823
1626.21 279.861 2823
1635.85 280.356 2828
1642.62 280.356 2828
1649.38 280.356 2828
1656.14 280.356 2828
1662.9 280.356 2828
1669.67 280.356 2828
1681.76 281.249 2837
1691.52 281.744 2842
1698.32 281.744 2842
1705.12 281.744 2842
1714.92 282.24 2847
1721.73 282.24 2847
1728.54 282.24 2847
1732.3 281.744 2842
1736.04 281.249 2837
1737.29 280.356 2828
1744.05 280.356 2828
1750.82 280.356 2828
1748.26 278.869 2813
1754.98 278.869 2813
1759.21 278.473 2809
1765.92 278.473 2809
1769.48 277.977 2804
1773.02 277.481 2799
1776.54 276.986 2794
1783.22 276.986 2794
1787.34 276.589 2790
1790.79 276.093 2785
1794.23 275.598 2780
1798.28 275.201 2776
1804.92 275.201 2776
1808.3 274.706 2771
1814.92 274.706 2771
1818.92 274.309 2767
1825.54 274.309 2767
1832.15 274.309 2767
1838.77 274.309 2767
1845.39 274.309 2767
1852 274.309 2767
1858.62 274.309 2767
1865.24 274.309 2767
1871.85 274.309 2767
1878.47 274.309 2767
1885.09 274.309 2767
1891.7 274.309 2767
1898.32 274.309 2767
1904.94 274.309 2767
1911.55 274.309 2767
1914.7 273.813 2762
1921.31 273.813 2762
1931.4 274.309 2767
1938.02 274.309 2767
1944.64 274.309 2767
1951.25 274.309 2767
1954.33 273.813 2762
1964.49 274.309 2767
1971.1 274.309 2767
1977.72 274.309 2767
1980.75 273.813 2762
1987.36 273.813 2762
1993.96 273.813 2762
2000.57 273.813 2762
2003.54 273.318 2757
2010.13 273.318 2757
2016.72 273.318 2757
2020.38 272.921 2753
2033.59 273.813 2762
2040.2 273.813 2762
2046.8 273.813 2762
2053.41 273.813 2762
2053.3 272.921 2753
2056.14 272.425 2748
2062.71 272.425 2748
2066.27 272.029 2744
2059.23 270.244 2726
2072.57 271.137 2735
2085.96 272.029 2744
2092.52 272.029 2744
2099.08 272.029 2744
-2091.94 283.679 2794
-2085.26 283.679 2794
-2092.71 285.608 2813
-2085.98 285.608 2813
-2086.65 286.623 2823
-2086.53 287.537 2832
-2079.75 287.537 2832
-2072.98 287.537 2832
-2066.21 287.537 2832
-2052.89 286.623 2823
-2046.14 286.623 2823
-2035.78 286.115 2818
-2029.04 286.115 2818
-2022.3 286.115 2818
-2015.56 286.115 2818
-2008.83 286.115 2818
-2005.64 286.623 2823
-1998.89 286.623 2823
-1992.14 286.623 2823
-1981.87 286.115 2818
-1975.13 286.115 2818
-1971.89 286.623 2823
-1971.4 287.537 2832
-1964.63 287.537 2832
-1964.77 288.552 2842
-1961.42 289.06 2847
-1954.61 289.06 2847
-1947.8 289.06 2847
-1940.99 289.06 2847
-1930.79 288.552 2842
-1937.53 290.583 2862
-1930.69 290.583 2862
-1926.53 290.989 2866
-1933.08 293.02 2886
-1932.85 294.035 2896
-1925.92 294.035 2896
-1936.23 296.675 2922
-1945.75 299.213 2947
-1952.51 301.345 2968
-1945.42 301.345 2968
-1948.77 302.97 2984
-1959.2 305.711 3011
-1952 305.711 3011
-1944.8 305.711 3011
-1937.6 305.711 3011
-1930.4 305.711 3011
-1923.2 305.711 3011
-1912.82 305.203 3006
-1905.63 305.203 3006
-1898.44 305.203 3006
-1891.25 305.203 3006
-2120.66 354.345 3490
-2112.31 354.345 3490
-2113.01 355.868 3505
-2104.63 355.868 3505
-2096.24 355.868 3505
-2087.86 355.868 3505
-2083.63 356.578 3512
-2075.24 356.578 3512
-2071.55 357.391 3520
-2067.23 358.101 3527
-2058.8 358.101 3527
-2050.36 358.101 3527
-2041.93 358.101 3527
-2037.53 358.812 3534
-2033.67 359.624 3542
-2025.2 359.624 3542
-2016.73 359.624 3542
-2003.73 358.812 3534
-1995.28 358.812 3534
-1982.89 358.101 3527
-1970.54 357.391 3520
-1966.02 358.101 3527
-1957.59 358.101 3527
-1949.15 358.101 3527
-1940.72 358.101 3527
-1936.12 358.812 3534
-1932.03 359.624 3542
-1923.56 359.624 3542
-1918.88 360.335 3549
-1910.39 360.335 3549
-1906.19 361.147 3557
-1897.69 361.147 3557
-1893.43 361.959 3565
-1888.6 362.67 3572
-1884.27 363.482 3580
-1875.71 363.482 3580
-1871.32 364.295 3588
-1866.38 365.005 3595
-1878.45 369.067 3635
-1869.76 369.067 3635
-1885.64 373.94 3683
-1884.99 375.565 3699
-1884.77 377.291 3716
-1875.88 377.291 3716
-1887.59 381.453 3757
-1891.61 384.093 3783
-1912.92 390.287 3844
-1903.73 390.287 3844
-1903.41 392.114 3862
-1929.98 399.526 3935
-1924.96 400.44 3944
-1915.53 400.44 3944
-1933.64 406.227 4001
-1933.21 408.156 4020
-1951.83 414.147 4079
-1942.08 414.147 4079
-1932.32 414.147 4079
-1922.57 414.147 4079
-1912.81 414.147 4079
-1903.06 414.147 4079
-1893.31 414.147 4079
-1883.55 414.147 4079
-1873.8 414.147 4079
-1859.47 413.131 4069
-1849.74 413.131 4069
-1844.54 414.147 4079
-1834.78 414.147 4079
-1825.03 414.147 4079
-1810.82 413.131 4069
-1787.81 410.085 4039
-1778.16 410.085 4039
-1739.16 403.283 3972
-1670 389.373 3835
-1616.23 378.915 3732
-1579.31 372.316 3667
-1570.54 372.316 3667
-1548.14 369.067 3635
-1532.67 367.442 3619
-1497.91 361.147 3557
-1489.4 361.147 3557
-1453 354.345 3490
-1429.76 350.689 3454
-1401.33 345.714 3405
-1393.19 345.714 3405
-1370.81 342.161 3370
-1362.75 342.161 3370
-1354.69 342.161 3370
-1346.63 342.161 3370
-1338.57 342.161 3370
-1322.62 340.13 3350
-1301.66 336.78 3317
-1273.44 331.5 3265
-1265.64 331.5 3265
-1247.81 328.86 3239
-1228.2 325.713 3208
-1204.55 321.448 3166
-1196.98 321.448 3166
-1178.14 318.402 3136
-1168.4 317.793 3130
-1152.38 315.458 3107
-1144.95 315.458 3107
-1118.48 310.178 3055
-1109.36 309.671 3050
-1106.04 310.788 3061
-1102.67 311.904 3072
-1097.46 312.514 3078
-1090.1 312.514 3078
-1082.74 312.514 3078
-1075.38 312.514 3078
-1068.02 312.514 3078
-1054.8 310.788 3061
-1041.67 309.062 3044
-1028.95 307.437 3028
-1021.71 307.437 3028
-1008.77 305.711 3011
-996.25 304.087 2995
-983.804 302.462 2979
-976.681 302.462 2979
-888.67 299.213 2947
-886.41 300.838 2963
-879.324 300.838 2963
-875.477 301.954 2974
-868.365 301.954 2974
-861.254 301.954 2974
-854.142 301.954 2974
-841.049 299.822 2953
-833.988 299.822 2953
-826.926 299.822 2953
-818.199 299.213 2947
-807.023 297.69 2932
-800.011 297.69 2932
-793 297.69 2932
-785.989 297.69 2932
-777.649 297.182 2927
-770.65 297.182 2927
-763.651 297.182 2927
-756.651 297.182 2927
-749.652 297.182 2927
-741.384 296.675 2922
-731.632 295.558 2911
-724.671 295.558 2911
-717.71 295.558 2911
-708.307 294.543 2901
-697.743 293.02 2886
-690.842 293.02 2886
-681.571 292.004 2876
-674.693 292.004 2876
-667.816 292.004 2876
-660.939 292.004 2876
-654.061 292.004 2876
-648.309 292.512 2881
-643.646 293.527 2891
-640.036 295.05 2906
-633.087 295.05 2906
-628.508 296.167 2917
-623.664 297.182 2927
-619.824 298.705 2942
-612.789 298.705 2942
-621.196 306.32 3017
-618.459 308.554 3039
-612.197 309.062 3044
-604.918 309.062 3044
-607.652 314.24 3095
-608.203 318.402 3136
-618.135 327.642 3227
-610.418 327.642 3227
-606.25 329.571 3246
-598.488 329.571 3246
-590.726 329.571 3246
-581.706 328.86 3239
-567.404 325.104 3202
-539.786 401.354 3953
-530.333 401.354 3953
-532.212 410.085 4039
-526.435 413.131 4069
-517.975 414.147 4079
-508.221 414.147 4079
-499.689 415.162 4089
-489.911 415.162 4089
-480.132 415.162 4089
-469.204 414.147 4079
-451.678 407.141 4010
-445.286 410.085 4039
-435.628 410.085 4039
-425.969 410.085 4039
-416.311 410.085 4039
-404.739 408.156 4020
-395.126 408.156 4020
-385.513 408.156 4020
-374.123 406.227 4001
-364.556 406.227 4001
-354.988 406.227 4001
-345.421 406.227 4001
-335.853 406.227 4001
-324.736 404.298 3982
-311.493 399.526 3935
-302.083 399.526 3935
-289.922 395.769 3898
-280.6 395.769 3898
-271.279 395.769 3898
-261.958 395.769 3898
-252.637 395.769 3898
-138.636 225.501 2221
-131.584 222.557 2192
-125.997 221.948 2186
-120.769 221.948 2186
-115.436 221.745 2184
-109.911 221.135 2178
-104.414 220.526 2172
-99.22 220.526 2172
-93.6798 219.714 2164
-88.505 219.714 2164
-83.0992 219.105 2158
-77.9388 219.105 2158
-72.7783 219.105 2158
-67.4612 218.597 2153
-62.2259 218.293 2150
-57.0846 218.293 2150
-51.8709 217.988 2147
-46.7367 217.988 2147
-41.6026 217.988 2147
-36.4685 217.988 2147
-31.3343 217.988 2147
-26.2002 217.988 2147
-21.0661 217.988 2147
-15.932 217.988 2147
-10.7978 217.988 2147
-5.66371 217.988 2147
-0.529582 217.988 2147
4.61098 218.293 2150
9.75228 218.293 2150
14.8936 218.293 2150
20.0815 218.8 2155
25.3753 220.019 2167
30.5572 220.019 2167
35.7392 220.019 2167
41.0155 220.526 2172
46.2733 220.831 2175
51.6164 221.44 2181
56.8318 221.44 2181
62.1326 221.745 2184
67.3552 221.745 2184
72.6442 221.948 2186
77.8716 221.948 2186
83.3271 222.557 2192
88.6901 222.861 2195
94.0674 223.166 2198
99.3234 223.166 2198
104.58 223.166 2198
109.986 223.471 2201
115.406 223.775 2204
120.676 223.775 2204
126.118 224.08 2207
131.396 224.08 2207
136.673 224.08 2207
141.758 223.775 2204
146.828 223.471 2201
151.884 223.166 2198
157.14 223.166 2198
162.175 222.861 2195
167.424 222.861 2195
172.437 222.557 2192
177.678 222.557 2192
182.67 222.252 2189
187.647 221.948 2186
192.698 221.745 2184
197.648 221.44 2181
202.864 221.44 2181
207.507 220.831 2175
212.708 220.831 2175
217.608 220.526 2172
222.802 220.526 2172
227.996 220.526 2172
232.868 220.222 2169
238.055 220.222 2169
243.242 220.222 2169
248.199 220.019 2167
252.329 219.105 2158
257.131 218.8 2155
262.285 218.8 2155
267.19 218.597 2153
271.2 217.683 2144
275.682 217.176 2139
280.403 216.871 2136
285.511 216.871 2136
289.939 216.363 2131
440.867 312.514 3078
448.227 312.514 3078
455.587 312.514 3078
460.391 310.788 3061
466.794 310.178 3055
474.099 310.178 3055
478.884 308.554 3039
483.431 306.828 3022
487.086 304.594 3000
494.26 304.594 3000
499.762 303.579 2990
503.182 301.345 2968
510.28 301.345 2968
517.377 301.345 2968
524.475 301.345 2968
531.572 301.345 2968
538.669 301.345 2968
545.767 301.345 2968
552.864 301.345 2968
559.018 300.838 2963
564.193 299.822 2953
570.094 299.213 2947
577.141 299.213 2947
584.188 299.213 2947
589.229 298.198 2937
596.252 298.198 2937
603.276 298.198 2937
609.26 297.69 2932
616.271 297.69 2932
623.283 297.69 2932
630.294 297.69 2932
637.305 297.69 2932
644.316 297.69 2932
651.328 297.69 2932
658.339 297.69 2932
665.35 297.69 2932
671.215 297.182 2927
677.056 296.675 2922
684.043 296.675 2922
691.031 296.675 2922
698.018 296.675 2922
705.005 296.675 2922
711.993 296.675 2922
718.98 296.675 2922
725.968 296.675 2922
732.955 296.675 2922
739.942 296.675 2922
746.93 296.675 2922
753.917 296.675 2922
760.904 296.675 2922
766.578 296.167 2917
773.553 296.167 2917
780.529 296.167 2917
788.854 296.675 2922
795.841 296.675 2922
802.829 296.675 2922
809.816 296.675 2922
816.804 296.675 2922
822.381 296.167 2917
829.357 296.167 2917
836.332 296.167 2917
841.573 295.558 2911
845.619 294.543 2901
852.556 294.543 2901
859.494 294.543 2901
866.431 294.543 2901
874.873 295.05 2906
881.822 295.05 2906
892.136 296.167 2917
899.111 296.167 2917
906.087 296.167 2917
916.192 297.182 2927
931.392 299.822 2953
938.453 299.822 2953
955.441 302.97 2984
962.576 302.97 2984
969.712 302.97 2984
976.848 302.97 2984
1247.24 370.59 3650
1255.97 370.59 3650
1264.7 370.59 3650
1273.43 370.59 3650
1282.15 370.59 3650
1296.89 372.316 3667
1305.66 372.316 3667
1323.03 374.752 3691
1331.86 374.752 3691
1346.5 376.377 3707
1355.36 376.377 3707
1367.54 377.291 3716
1376.43 377.291 3716
1385.31 377.291 3716
1394.2 377.291 3716
1399.69 376.377 3707
1405.51 375.565 3699
1414.36 375.565 3699
1420.12 374.752 3691
1419.66 372.316 3667
1421.81 370.59 3650
1430.53 370.59 3650
1439.26 370.59 3650
1435.69 367.442 3619
1431.97 364.295 3588
1422.09 359.624 3542
1430.56 359.624 3542
1423.99 355.868 3505
1405.81 349.268 3440
1396.77 345.004 3398
1404.9 345.004 3398
1401.38 342.161 3370
1387.27 336.78 3317
1375.86 332.109 3271
1370.14 328.86 3239
1385.97 330.789 3258
1393.76 330.789 3258
1407.14 332.109 3271
1423.19 334.038 3290
1442.8 336.78 3317
1450.73 336.78 3317
1467.46 338.81 3337
1486.93 341.45 3363
1494.97 341.45 3363
1503.02 341.45 3363
1505.22 340.13 3350
1513.23 340.13 3350
1521.24 340.13 3350
1526.05 339.419 3343
1534.05 339.419 3343
1523.59 335.358 3303
1531.49 335.358 3303
1467.15 319.621 3148
1449.85 314.24 3095
1446.42 311.904 3072
1440.52 309.062 3044
1447.8 309.062 3044
1439.3 305.711 3011
1421.04 300.33 2958
1417.97 298.198 2937
1412.38 295.558 2911
1419.34 295.558 2911
1421.4 294.543 2901
1420.96 293.02 2886
1425.38 292.512 2881
1432.27 292.512 2881
1439.16 292.512 2881
1441.03 291.497 2871
1443.36 290.583 2862
1450.2 290.583 2862
1457.05 290.583 2862
1463.89 290.583 2862
1468.17 290.075 2857
1475 290.075 2857
1476.64 289.06 2847
1480.85 288.552 2842
1487.64 288.552 2842
1494.44 288.552 2842
1501.23 288.552 2842
1505.38 288.045 2837
1509.5 287.537 2832
1516.27 287.537 2832
1523.04 287.537 2832
