ply
format ascii 1.0
comment File generated
element vertex 2248
property float x
property float y
property float z
end_header
1506.76 506.379 3233
1511.68 505.439 3227
1516.58 504.499 3221
1509.61 499.644 3190
1517.24 499.644 3190
1516.26 496.824 3172
1506.55 491.186 3136
1497.15 485.704 3101
1504.57 485.704 3101
1489.55 478.499 3055
1475.3 471.607 3011
1453.94 462.523 2953
1453.09 460.017 2937
1460.11 460.017 2937
1444.16 452.812 2891
1446.05 451.246 2881
1445.38 448.896 2866
1452.23 448.896 2866
1459.08 448.896 2866
1463.89 448.27 2862
1468.17 447.486 2857
1475 447.486 2857
1481.83 447.486 2857
1486.06 446.703 2852
1490.26 445.92 2847
1497.07 445.92 2847
1503.87 445.92 2847
1510.68 445.92 2847
1514.83 445.137 2842
1518.94 444.354 2837
1525.73 444.354 2837
1529.81 443.571 2832
1531.7 442.161 2823
1535.73 441.378 2818
1542.47 441.378 2818
1546.46 440.595 2813
1550.97 439.968 2809
1552.15 438.402 2799
1558.84 438.402 2799
1560.5 436.992 2790
1567.17 436.992 2790
1573.84 436.992 2790
1580.51 436.992 2790
1587.18 436.992 2790
1593.86 436.992 2790
1600.53 436.992 2790
1607.2 436.992 2790
1613.87 436.992 2790
1620.54 436.992 2790
1629.55 437.619 2794
1636.23 437.619 2794
1642.91 437.619 2794
1649.59 437.619 2794
1656.27 437.619 2794
1665.93 438.402 2799
1672.62 438.402 2799
1679.32 438.402 2799
1686.01 438.402 2799
1695.73 439.185 2804
1702.43 439.185 2804
1709.14 439.185 2804
1715.84 439.185 2804
1719.48 438.402 2799
1726.17 438.402 2799
1732.86 438.402 2799
1736.45 437.619 2794
1743.13 437.619 2794
1749.81 437.619 2794
1756.49 437.619 2794
1763.17 437.619 2794
1769.86 437.619 2794
1773.99 436.992 2790
1780.67 436.992 2790
1787.34 436.992 2790
1794.01 436.992 2790
1800.68 436.992 2790
1807.35 436.992 2790
1814.02 436.992 2790
1820.7 436.992 2790
1820.82 435.426 2780
1827.47 435.426 2780
1834.11 435.426 2780
1840.76 435.426 2780
1847.41 435.426 2780
1854.06 435.426 2780
1860.7 435.426 2780
1867.35 435.426 2780
1874 435.426 2780
1874.56 434.016 2771
1881.19 434.016 2771
1887.81 434.016 2771
1888.29 432.607 2762
1898.32 433.39 2767
1907.69 434.016 2771
1914.32 434.016 2771
1920.94 434.016 2771
1924.79 433.39 2767
1931.4 433.39 2767
1938.02 433.39 2767
1944.64 433.39 2767
1951.25 433.39 2767
1950.8 431.824 2757
1960.94 432.607 2762
1967.54 432.607 2762
1974.15 432.607 2762
1980.75 432.607 2762
1987.36 432.607 2762
1993.96 432.607 2762
1994.05 431.197 2753
1997 430.414 2748
2007.21 431.197 2753
2016.72 431.824 2757
2023.32 431.824 2757
2029.91 431.824 2757
2036.5 431.824 2757
2043.09 431.824 2757
2046.71 431.197 2753
2053.3 431.197 2753
2070.36 433.39 2767
2076.97 433.39 2767
2083.59 433.39 2767
2093.23 434.016 2771
2099.85 434.016 2771
2110.28 434.8 2776
2116.92 434.8 2776
2123.56 434.8 2776
-2109.91 448.129 2818
-2103.17 448.129 2818
-2096.43 448.129 2818
-2085.98 447.333 2813
-2079.26 447.333 2813
-2076.21 448.129 2818
-2069.47 448.129 2818
-2062.73 448.129 2818
-2052.35 447.333 2813
-2039.08 445.902 2804
-2036 446.697 2809
-2029.28 446.697 2809
-2022.56 446.697 2809
-2015.84 446.697 2809
-2019.14 448.924 2823
-2012.39 448.924 2823
-2015.59 451.15 2837
-2036.42 457.352 2876
-2029.54 457.352 2876
-2022.66 457.352 2876
-2015.78 457.352 2876
-2005.41 456.557 2871
-1998.55 456.557 2871
-1981.97 454.33 2857
-1978.6 455.126 2862
-1971.75 455.126 2862
-1964.91 455.126 2862
-1958.06 455.126 2862
-1947.81 454.33 2857
-1940.98 454.33 2857
-1934.15 454.33 2857
-1927.32 454.33 2857
-1917.12 453.535 2852
-1910.3 453.535 2852
-1903.48 453.535 2852
-1893.34 452.74 2847
-1886.53 452.74 2847
-1879.72 452.74 2847
-1872.91 452.74 2847
-1866.11 452.74 2847
-1856.03 451.945 2842
-1849.24 451.945 2842
-1852.16 454.33 2857
-1845.33 454.33 2857
-1841.72 455.126 2862
-1837.44 455.762 2866
-1843.36 458.942 2886
-1836.46 458.942 2886
-1839.07 461.327 2901
-1851.71 466.257 2932
-1854.13 468.643 2947
-1847.09 468.643 2947
-1853.15 471.982 2968
-1846.05 471.982 2968
-1838.96 471.982 2968
-1831.86 471.982 2968
-1848.12 478.025 3006
-1888.7 490.429 3084
-1891.7 493.132 3101
-1884.28 493.132 3101
-1876.87 493.132 3101
-1869.45 493.132 3101
-1862.04 493.132 3101
-1847.45 491.224 3089
-1860.91 496.79 3124
-1892.59 507.285 3190
-1884.97 507.285 3190
-1895.58 512.215 3221
-1906.05 517.145 3252
-1936.21 527.481 3317
-1928.28 527.481 3317
-1935.4 531.616 3343
-1951.05 538.136 3384
-1955.01 541.475 3405
-1946.87 541.475 3405
-1958.66 547.041 3440
-1962.34 550.381 3461
-1958.01 551.494 3468
-1949.72 551.494 3468
-1941.43 551.494 3468
-1937.59 552.766 3476
-1940.94 556.106 3497
-1932.57 556.106 3497
-1932.47 558.491 3512
-1928.45 559.763 3520
-1923.85 560.876 3527
-1915.42 560.876 3527
-1910.77 561.989 3534
-1906.62 563.262 3542
-1901.9 564.375 3549
-1893.42 564.375 3549
-1884.93 564.375 3549
-1876.44 564.375 3549
-1872.17 565.647 3557
-1863.66 565.647 3557
-1862.98 568.032 3572
-1858.59 569.305 3580
-1861.92 572.962 3603
-1853.3 572.962 3603
-1844.68 572.962 3603
-1840.14 574.234 3611
-1835.57 575.506 3619
-1826.91 575.506 3619
-1822.28 576.779 3627
-1817.61 578.051 3635
-1808.91 578.051 3635
-1800.22 578.051 3635
-1791.53 578.051 3635
-1798.53 583.14 3667
-1793.67 584.412 3675
-1784.88 584.412 3675
-1783.82 586.956 3691
-1782.69 589.501 3707
-1793.92 596.18 3749
-1784.96 596.18 3749
-1787.84 600.155 3774
-1787.3 603.018 3792
-1781.98 604.29 3800
-1772.89 604.29 3800
-1772.16 607.152 3818
-1775.04 611.287 3844
-1769.98 612.718 3853
-1760.77 612.718 3853
-1767.92 618.443 3889
-1770.83 622.736 3916
-1774.06 627.189 3944
-1764.63 627.189 3944
-1755.19 627.189 3944
-1745.76 627.189 3944
-1736.33 627.189 3944
-1722.96 625.758 3935
-1701.36 621.305 3907
-1638.31 601.586 3783
-1596.54 589.501 3707
-1587.67 589.501 3707
-1554.53 580.436 3650
-1525.9 572.962 3603
-1501.28 566.919 3565
-1492.75 566.919 3565
-1474.65 563.262 3542
-1457.08 559.763 3520
-1436.31 554.992 3490
-1427.97 554.992 3490
-1413.93 552.766 3476
-1391.06 547.041 3440
-1360.32 538.136 3384
-1352.23 538.136 3384
-1319.91 528.435 3323
-1309.59 527.481 3317
-1291.06 523.188 3290
-1283.2 523.188 3290
-1275.33 523.188 3290
-1262.84 521.279 3278
-1255 521.279 3278
-1239.55 518.099 3258
-1231.76 518.099 3258
-1216.83 515.077 3239
-1199.75 511.102 3214
-1180.94 506.331 3184
-1173.33 506.331 3184
-1154.73 501.56 3154
-1147.19 501.56 3154
-1139.65 501.56 3154
-1132.1 501.56 3154
-1118.14 498.698 3136
-1110.64 498.698 3136
-1096.81 495.836 3118
-1091.45 496.79 3124
-1083.98 496.79 3124
-1076.51 496.79 3124
-1069.04 496.79 3124
-1043.9 488.521 3072
-1036.56 488.521 3072
-1019.83 484.068 3044
-992.591 474.526 2984
-973.236 468.643 2947
-966.189 468.643 2947
-874.138 457.352 2876
-867.26 457.352 2876
-860.383 457.352 2876
-853.505 457.352 2876
-842.507 455.126 2862
-853.182 464.667 2922
-846.195 464.667 2922
-839.207 464.667 2922
-830.796 463.872 2917
-822.126 462.918 2911
-815.165 462.918 2911
-808.204 462.918 2911
-799.866 462.123 2906
-792.917 462.123 2906
-785.968 462.123 2906
-781.968 463.872 2917
-774.992 463.872 2917
-769.333 464.667 2922
-762.346 464.667 2922
-755.359 464.667 2922
-748.371 464.667 2922
-740.115 463.872 2917
-729.118 461.327 2901
-724.671 462.918 2911
-717.71 462.918 2911
-710.749 462.918 2911
-703.787 462.918 2911
-696.826 462.918 2911
-688.68 462.123 2906
-675.866 458.147 2881
-667.816 457.352 2876
-660.939 457.352 2876
-664.511 469.597 2953
-662.125 472.936 2974
-655.013 472.936 2974
-647.901 472.936 2974
-645.315 476.276 2995
-641.562 478.82 3011
-636.679 480.569 3022
-629.452 480.569 3022
-633.756 489.475 3078
-628.634 491.224 3089
-628.287 496.79 3124
-620.816 496.79 3124
-615.702 498.698 3136
-611.694 501.56 3154
-604.152 501.56 3154
-596.609 501.56 3154
-593.55 505.377 3178
-585.95 505.377 3178
-578.351 505.377 3178
-570.751 505.377 3178
-569.531 511.102 3214
-565.167 514.123 3233
-561.746 518.099 3258
-553.955 518.099 3258
-579.021 549.268 3454
-570.762 549.268 3454
-563.642 550.381 3461
-555.366 550.381 3461
-554.045 557.378 3505
-550.178 561.989 3534
-544.026 564.375 3549
-535.54 564.375 3549
-529.429 566.919 3565
-520.904 566.919 3565
-520.14 575.506 3619
-511.486 575.506 3619
-503.944 576.779 3627
-495.27 576.779 3627
-486.597 576.779 3627
-477.924 576.779 3627
-469.25 576.779 3627
-460.577 576.779 3627
-451.904 576.779 3627
-443.231 576.779 3627
-437.313 580.436 3650
-429.524 581.708 3658
-423.653 585.684 3683
-414.845 585.684 3683
-406.92 586.956 3691
-398.957 588.228 3699
-391.904 590.932 3716
-383.018 590.932 3716
-375.743 593.476 3732
-367.605 594.748 3740
-360.292 597.452 3757
-351.308 597.452 3757
-343.144 598.883 3766
-335.646 601.586 3783
-327.377 603.018 3792
-318.309 603.018 3792
-310.628 605.721 3809
-307.139 617.012 3880
-299.243 619.874 3898
-289.922 619.874 3898
-282.544 624.168 3925
-277.125 633.232 3982
-270.829 640.865 4030
-261.192 640.865 4030
-252.741 643.887 4049
-243.058 643.887 4049
-233.376 643.887 4049
-223.694 643.887 4049
-119.664 360.029 2264
-114.251 360.029 2264
-108.837 360.029 2264
-102.829 357.962 2251
-96.1474 353.191 2221
-90.0183 350.011 2201
-84.524 349.057 2195
-79.2751 349.057 2195
-73.6552 347.308 2184
-68.2446 346.353 2178
-62.8627 345.399 2172
-57.6688 345.399 2172
-52.3541 344.604 2167
-47.1068 344.127 2164
-41.932 344.127 2164
-36.7572 344.127 2164
-31.5825 344.127 2164
-26.3711 343.65 2161
-21.2035 343.65 2161
-16.0359 343.65 2161
-10.8532 343.173 2158
-5.69273 343.173 2158
-0.533776 344.127 2164
4.641 344.127 2164
9.82939 344.604 2167
15.0113 344.604 2167
20.2399 345.399 2172
25.4689 345.876 2175
30.8251 347.626 2186
36.0525 347.626 2186
41.2799 347.626 2186
46.5711 348.103 2189
51.8767 348.58 2192
57.1184 348.58 2192
62.6162 350.011 2201
67.972 350.488 2204
73.2424 350.488 2204
78.5128 350.488 2204
83.8973 350.965 2207
89.1749 350.965 2207
94.5809 351.442 2210
99.8657 351.442 2210
105.15 351.442 2210
110.135 350.488 2204
115.406 350.488 2204
120.676 350.488 2204
125.432 349.057 2195
130.503 348.58 2192
135.744 348.58 2192
140.986 348.58 2192
146.228 348.58 2192
151.47 348.58 2192
156.711 348.58 2192
161.731 348.103 2189
166.966 348.103 2189
172.673 349.057 2195
178.165 349.534 2198
183.421 349.534 2198
188.677 349.534 2198
193.933 349.534 2198
199.189 349.534 2198
204.445 349.534 2198
209.129 348.58 2192
214.957 349.534 2198
220.814 350.488 2204
226.393 350.965 2207
231.67 350.965 2207
236.948 350.965 2207
496.072 478.82 3011
503.272 478.82 3011
510.472 478.82 3011
518.704 479.774 3017
525.919 479.774 3017
534.017 480.569 3022
541.243 480.569 3022
548.47 480.569 3022
555.696 480.569 3022
562.923 480.569 3022
570.15 480.569 3022
574.319 478.025 3006
577.251 474.526 2984
584.387 474.526 2984
590.532 473.731 2979
600.865 476.276 2995
608.027 476.276 2995
615.189 476.276 2995
622.351 476.276 2995
629.513 476.276 2995
636.675 476.276 2995
643.837 476.276 2995
646.434 472.936 2974
652.228 471.982 2968
660.658 472.936 2974
670.015 474.526 2984
677.151 474.526 2984
684.286 474.526 2984
689.105 472.936 2974
696.216 472.936 2974
703.328 472.936 2974
710.44 472.936 2974
714.898 471.187 2963
721.983 471.187 2963
729.069 471.187 2963
736.154 471.187 2963
743.239 471.187 2963
746.273 468.643 2947
753.32 468.643 2947
759.077 467.847 2942
764.811 467.052 2937
771.834 467.052 2937
780.183 467.847 2942
787.218 467.847 2942
794.253 467.847 2942
801.289 467.847 2942
808.324 467.847 2942
813.973 467.052 2937
820.997 467.052 2937
832.531 469.597 2953
841.014 470.392 2958
849.521 471.187 2963
856.606 471.187 2963
865.149 471.982 2968
875.479 473.731 2979
893.861 479.774 3017
901.076 479.774 3017
913.107 482.319 3033
930.678 487.725 3067
951.774 494.881 3112
959.216 494.881 3112
998.341 511.102 3214
1027.94 522.234 3284
1035.79 522.234 3284
1043.64 522.234 3284
1051.5 522.234 3284
1055.16 520.166 3271
1071.43 524.301 3297
1079.31 524.301 3297
1095.77 528.435 3323
1108.37 530.662 3337
1141.44 542.589 3412
1149.6 542.589 3412
1164.88 545.928 3433
1182.66 550.381 3461
1193.34 551.494 3468
1201.64 551.494 3468
1209.93 551.494 3468
1218.22 551.494 3468
1226.51 551.494 3468
1234.81 551.494 3468
1243.1 551.494 3468
1256.81 553.879 3483
1267.68 554.992 3490
1276.02 554.992 3490
1289.89 557.378 3505
1303.83 559.763 3520
1314.85 560.876 3527
1323.29 560.876 3527
1337.39 563.262 3542
1348.52 564.375 3549
1357 564.375 3549
1365.49 564.375 3549
1373.98 564.375 3549
1379.74 563.262 3542
1388.21 563.262 3542
1390.76 560.876 3527
1387.29 556.106 3497
1384.08 551.494 3468
1375.51 544.815 3426
1383.71 544.815 3426
1369.15 535.91 3370
1363.72 530.662 3337
1360.6 526.368 3310
1368.52 526.368 3310
1371.02 524.301 3297
1373.47 522.234 3284
1375.86 520.166 3271
1378.18 518.099 3258
1385.97 518.099 3258
1388.63 516.191 3246
1393.38 515.077 3239
1401.12 515.077 3239
1408.87 515.077 3239
1413.99 514.123 3233
1421.72 514.123 3233
1432.11 515.077 3239
1442.96 516.191 3246
1450.73 516.191 3246
1463.88 518.099 3258
1471.67 518.099 3258
1479.46 518.099 3258
1487.25 518.099 3258
1492.29 517.145 3252
1497.3 516.191 3246
1505.06 516.191 3246
1506.76 514.123 3233
1511.68 513.169 3227
1516.58 512.215 3221
1509.61 507.285 3190
1517.24 507.285 3190
1516.26 504.423 3172
1506.55 498.698 3136
1497.15 493.132 3101
1504.57 493.132 3101
1489.55 485.817 3055
1475.3 478.82 3011
1456.41 470.392 2958
1453.09 467.052 2937
1460.11 467.052 2937
1444.16 459.737 2891
1446.05 458.147 2881
1445.38 455.762 2866
1452.23 455.762 2866
1459.08 455.762 2866
1463.89 455.126 2862
1468.17 454.33 2857
1475 454.33 2857
1481.83 454.33 2857
1486.06 453.535 2852
1490.26 452.74 2847
1497.07 452.74 2847
1503.87 452.74 2847
1510.68 452.74 2847
1514.83 451.945 2842
1518.94 451.15 2837
1525.73 451.15 2837
1529.81 450.355 2832
1531.7 448.924 2823
1535.73 448.129 2818
1542.47 448.129 2818
1546.46 447.333 2813
1550.97 446.697 2809
1552.15 445.107 2799
1558.84 445.107 2799
1562.74 444.312 2794
1567.17 443.676 2790
1573.84 443.676 2790
1580.51 443.676 2790
1587.18 443.676 2790
1593.86 443.676 2790
1600.53 443.676 2790
1607.2 443.676 2790
1613.87 443.676 2790
1620.54 443.676 2790
1629.55 444.312 2794
1636.23 444.312 2794
1642.91 444.312 2794
1649.59 444.312 2794
1656.27 444.312 2794
1665.93 445.107 2799
1672.62 445.107 2799
1679.32 445.107 2799
1686.01 445.107 2799
1695.73 445.902 2804
1702.43 445.902 2804
1709.14 445.902 2804
1715.84 445.902 2804
1719.48 445.107 2799
1726.17 445.107 2799
1732.86 445.107 2799
1739.56 445.107 2799
1743.13 444.312 2794
1749.81 444.312 2794
1756.49 444.312 2794
1763.17 444.312 2794
1769.86 444.312 2794
1776.54 444.312 2794
1783.22 444.312 2794
1789.9 444.312 2794
1796.58 444.312 2794
1800.68 443.676 2790
1807.35 443.676 2790
1814.02 443.676 2790
1820.7 443.676 2790
1820.82 442.086 2780
1827.47 442.086 2780
1834.11 442.086 2780
1840.76 442.086 2780
1847.41 442.086 2780
1854.06 442.086 2780
1860.7 442.086 2780
1867.35 442.086 2780
1874 442.086 2780
1874.56 440.654 2771
1881.19 440.654 2771
1887.81 440.654 2771
1888.29 439.223 2762
1898.32 440.018 2767
1907.69 440.654 2771
1914.32 440.654 2771
1920.94 440.654 2771
1924.79 440.018 2767
1931.4 440.018 2767
1938.02 440.018 2767
1944.64 440.018 2767
1951.25 440.018 2767
1954.33 439.223 2762
1960.94 439.223 2762
1967.54 439.223 2762
1974.15 439.223 2762
1980.75 439.223 2762
1987.36 439.223 2762
1993.96 439.223 2762
1994.05 437.792 2753
2000.63 437.792 2753
2007.21 437.792 2753
2026.96 440.654 2771
2033.59 440.654 2771
2040.22 440.654 2771
2046.84 440.654 2771
2053.47 440.654 2771
2046.71 437.792 2753
2070.45 441.45 2776
2087.57 443.676 2790
2094.24 443.676 2790
2100.91 443.676 2790
2107.58 443.676 2790
2110.46 442.881 2785
2117.12 442.881 2785
2123.78 442.881 2785
2130.44 442.881 2785
-2113.65 455.686 2823
-2106.9 455.686 2823
-2100.15 455.686 2823
-2089.69 454.879 2818
-2082.95 454.879 2818
-2076.21 454.879 2818
-2069.47 454.879 2818
-2062.73 454.879 2818
-2056 454.879 2818
-2039.08 452.619 2804
-2036 453.426 2809
-2029.28 453.426 2809
-2022.56 453.426 2809
-2015.84 453.426 2809
-2019.14 455.686 2823
-2012.39 455.686 2823
-2015.59 457.946 2837
-2036.42 464.241 2876
-2029.54 464.241 2876
-2022.66 464.241 2876
-2015.78 464.241 2876
-2008.91 464.241 2876
-2002.03 464.241 2876
-1985.44 461.982 2862
-1978.6 461.982 2862
-1971.75 461.982 2862
-1964.91 461.982 2862
-1958.06 461.982 2862
-1951.22 461.982 2862
-1944.38 461.982 2862
-1937.53 461.982 2862
-1930.69 461.982 2862
-1923.84 461.982 2862
-1917 461.982 2862
-1910.16 461.982 2862
-1896.66 460.367 2852
-1896.47 461.982 2862
-1889.62 461.982 2862
-1882.78 461.982 2862
-1875.94 461.982 2862
-1865.83 461.174 2857
-1859 461.174 2857
-1864.48 464.241 2876
-1857.6 464.241 2876
-1866.81 468.277 2901
-1859.88 468.277 2901
-1859.33 469.891 2911
-1852.37 469.891 2911
-1865.06 474.895 2942
-1891.49 483.45 2995
-1915.16 491.36 3044
-1907.88 491.36 3044
-1914.96 495.072 3067
-1921.31 498.624 3089
-1913.93 498.624 3089
-1906.54 498.624 3089
-1916.98 503.305 3118
-1931.57 509.116 3154
-1924.03 509.116 3154
-1920.14 510.084 3160
-1912.58 510.084 3160
-1905.02 510.084 3160
-1890.26 508.147 3148
-1875.56 506.21 3136
-1882.35 510.084 3160
-1906.83 518.801 3214
-1899.15 518.801 3214
-1910.29 523.966 3246
-1917.19 528.002 3271
-1939.72 536.396 3323
-1931.77 536.396 3323
-1939.46 540.754 3350
-1963.16 549.632 3405
-1967.07 553.022 3426
-1958.88 553.022 3426
-1962.64 556.412 3447
-1966.31 559.802 3468
-1962.53 561.093 3476
-1954.22 561.093 3476
-1945.91 561.093 3476
-1949.3 564.483 3497
-1949.26 566.904 3512
-1940.86 566.904 3512
-1936.87 568.195 3520
-1928.45 568.195 3520
-1927.67 570.455 3534
-1919.22 570.455 3534
-1915.09 571.747 3542
-1910.39 572.876 3549
-1906.19 574.168 3557
-1897.69 574.168 3557
-1889.18 574.168 3557
-1880.67 574.168 3557
-1876.38 575.459 3565
-1867.85 575.459 3565
-1862.98 576.589 3572
-1858.59 577.88 3580
-1854.16 579.172 3588
-1845.58 579.172 3588
-1844.68 581.593 3603
-1840.14 582.884 3611
-1835.57 584.176 3619
-1826.91 584.176 3619
-1822.28 585.467 3627
-1817.61 586.758 3635
-1808.91 586.758 3635
-1800.22 586.758 3635
-1791.53 586.758 3635
-1794.12 590.471 3658
-1789.76 591.924 3667
-1780.99 591.924 3667
-1779.96 594.507 3683
-1782.69 598.381 3707
-1789.62 603.708 3740
-1780.67 603.708 3740
-1784.05 607.904 3766
-1778.81 609.196 3774
-1774.01 610.649 3783
-1764.96 610.649 3783
-1767.98 614.845 3809
-1766.72 617.59 3826
-1761.71 619.042 3835
-1752.54 619.042 3835
-1755.64 623.401 3862
-1754.55 626.306 3880
-1765.51 633.57 3925
-1756.12 633.57 3925
-1751.19 635.184 3935
-1741.78 635.184 3935
-1732.37 635.184 3935
-1714.64 632.117 3916
-1685.68 624.853 3871
-1630.95 607.904 3766
-1593.09 597.089 3699
-1584.24 597.089 3699
-1554.53 589.18 3650
-1529.28 582.884 3611
-1501.28 575.459 3565
-1492.75 575.459 3565
-1480.9 574.168 3557
-1462.87 570.455 3534
-1448.66 568.195 3520
-1440.24 568.195 3520
-1419.62 563.353 3490
-1399.55 558.672 3461
-1380.02 554.152 3433
-1371.81 554.152 3433
-1333.41 541.884 3357
-1314.72 537.526 3330
-1304.01 536.396 3323
-1293.73 535.427 3317
-1285.79 535.427 3317
-1272.47 533.167 3303
-1262.27 532.199 3297
-1247.16 529.132 3278
-1239.32 529.132 3278
-1228.85 528.002 3271
-1213.94 524.935 3252
-1192.07 518.801 3214
-1184.38 518.801 3214
-1176.7 518.801 3214
-1166.83 517.833 3208
-1159.16 517.833 3208
-1151.49 517.833 3208
-1143.82 517.833 3208
-1172.27 534.297 3310
-1171.39 537.526 3330
-1163.43 537.526 3330
-1155.46 537.526 3330
-1147.5 537.526 3330
-1069.04 504.273 3124
-1001.43 475.702 2947
-994.378 475.702 2947
-987.331 475.702 2947
-980.284 475.702 2947
-966.631 472.474 2927
-959.632 472.474 2927
-873.663 460.367 2852
-874.138 464.241 2876
-867.26 464.241 2876
-860.383 464.241 2876
-849.351 461.982 2862
-841.035 461.174 2857
-853.182 471.667 2922
-846.195 471.667 2922
-839.207 471.667 2922
-829.087 469.891 2911
-822.126 469.891 2911
-813.765 469.084 2906
-806.815 469.084 2906
-798.49 468.277 2901
-791.553 468.277 2901
-785.968 469.084 2906
-780.359 469.891 2911
-773.398 469.891 2911
-768.017 470.86 2917
-761.042 470.86 2917
-754.066 470.86 2917
-747.091 470.86 2917
-736.056 468.277 2901
-729.118 468.277 2901
-723.426 469.084 2906
-716.477 469.084 2906
-709.528 469.084 2906
-702.579 469.084 2906
-695.629 469.084 2906
-688.68 469.084 2906
-628.287 504.273 3124
-620.816 504.273 3124
-615.702 506.21 3136
-611.694 509.116 3154
-604.152 509.116 3154
-596.609 509.116 3154
-593.55 512.99 3178
-631.676 553.022 3426
-626.031 555.282 3440
-617.805 555.282 3440
-613.3 558.672 3461
-605.024 558.672 3461
-596.747 558.672 3461
-588.471 558.672 3461
-586.23 564.483 3497
-577.867 564.483 3497
-571.948 566.904 3512
-563.549 566.904 3512
-557.522 569.325 3527
-552.513 572.876 3549
-546.479 575.459 3565
-537.954 575.459 3565
-529.429 575.459 3565
-521.927 576.589 3572
-520.14 584.176 3619
-511.486 584.176 3619
-503.944 585.467 3627
-495.27 585.467 3627
-486.597 585.467 3627
-477.924 585.467 3627
-469.25 585.467 3627
-459.561 584.176 3619
-451.904 585.467 3627
-443.231 585.467 3627
-435.516 586.758 3635
-428.585 589.18 3650
-421.812 591.924 3667
-413.043 591.924 3667
-406.038 594.507 3683
-398.094 595.798 3691
-391.904 599.833 3716
-383.018 599.833 3716
-374.132 599.833 3716
-367.605 603.708 3740
-359.525 605.16 3749
-350.56 605.16 3749
-342.323 606.452 3757
-334.138 607.904 3766
-325.132 607.904 3766
-316.127 607.904 3766
-309.241 612.101 3792
-305.002 621.948 3853
-297.861 626.306 3880
-288.583 626.306 3880
-280.6 629.212 3898
-275.803 639.704 3963
-268.208 644.224 3991
-258.664 644.224 3991
-250.931 648.905 4020
-241.318 648.905 4020
-231.704 648.905 4020
-219.44 641.157 3972
-119.664 365.453 2264
-114.251 365.453 2264
-108.837 365.453 2264
-102.829 363.354 2251
-96.1474 358.512 2221
-90.0183 355.283 2201
-84.524 354.315 2195
-79.2751 354.315 2195
-73.6552 352.539 2184
-68.2446 351.571 2178
-62.8627 350.602 2172
-57.6688 350.602 2172
-52.4024 350.118 2169
-47.1721 349.795 2167
-41.932 349.311 2164
-36.7572 349.311 2164
-31.5825 349.311 2164
-26.3711 348.827 2161
-21.2035 348.827 2161
-16.0359 348.827 2161
-10.8682 348.827 2161
-5.69273 348.342 2158
-0.533776 349.311 2164
4.64744 349.795 2167
9.82939 349.795 2167
15.0113 349.795 2167
20.2678 351.087 2175
25.4689 351.087 2175
30.9097 353.831 2192
36.1515 353.831 2192
41.3932 353.831 2192
46.6988 354.315 2195
52.0897 355.283 2201
57.3529 355.283 2201
62.7015 355.768 2204
68.0645 356.252 2207
73.3421 356.252 2207
78.6197 356.252 2207
84.0114 356.736 2210
89.2961 356.736 2210
94.5809 356.736 2210
99.8657 356.736 2210
105.15 356.736 2210
110.435 356.736 2210
115.72 356.736 2210
120.841 356.252 2207
125.432 354.315 2195
130.503 353.831 2192
135.744 353.831 2192
140.986 353.831 2192
146.228 353.831 2192
151.47 353.831 2192
156.711 353.831 2192
161.731 353.346 2189
166.737 352.862 2186
172.909 354.799 2198
178.165 354.799 2198
183.421 354.799 2198
188.677 354.799 2198
193.933 354.799 2198
199.189 354.799 2198
204.445 354.799 2198
209.701 354.799 2198
215.544 355.768 2204
221.115 356.252 2207
226.7 356.736 2210
231.985 356.736 2210
237.27 356.736 2210
242.225 356.252 2207
247.503 356.252 2207
524.873 486.033 3011
534.017 487.809 3022
541.243 487.809 3022
548.47 487.809 3022
555.696 487.809 3022
562.923 487.809 3022
570.15 487.809 3022
574.319 485.226 3006
577.251 481.675 2984
584.387 481.675 2984
590.532 480.868 2979
600.865 483.45 2995
608.027 483.45 2995
615.189 483.45 2995
622.351 483.45 2995
629.513 483.45 2995
636.675 483.45 2995
643.837 483.45 2995
646.434 480.06 2974
652.228 479.092 2968
660.658 480.06 2974
670.015 481.675 2984
677.151 481.675 2984
684.286 481.675 2984
689.105 480.06 2974
696.216 480.06 2974
703.328 480.06 2974
710.44 480.06 2974
714.898 478.285 2963
721.983 478.285 2963
729.069 478.285 2963
736.154 478.285 2963
743.239 478.285 2963
746.273 475.702 2947
753.32 475.702 2947
759.077 474.895 2942
764.811 474.088 2937
771.834 474.088 2937
780.183 474.895 2942
787.218 474.895 2942
794.253 474.895 2942
801.289 474.895 2942
808.324 474.895 2942
813.973 474.088 2937
820.997 474.088 2937
832.531 476.671 2953
841.014 477.478 2958
849.521 478.285 2963
856.606 478.285 2963
865.149 479.092 2968
875.479 480.868 2979
893.861 487.001 3017
901.076 487.001 3017
913.107 489.584 3033
930.678 495.072 3067
951.774 502.336 3112
959.216 502.336 3112
998.341 518.801 3214
1027.94 530.1 3284
1035.79 530.1 3284
1043.64 530.1 3284
1051.5 530.1 3284
1055.16 528.002 3271
1071.43 532.199 3297
1079.31 532.199 3297
1095.77 536.396 3323
1108.37 538.656 3337
1141.44 550.762 3412
1149.6 550.762 3412
1164.88 554.152 3433
1182.66 558.672 3461
1193.34 559.802 3468
1201.64 559.802 3468
1209.93 559.802 3468
1218.22 559.802 3468
1226.51 559.802 3468
1234.81 559.802 3468
1243.1 559.802 3468
1256.81 562.223 3483
1267.68 563.353 3490
1276.02 563.353 3490
1289.89 565.774 3505
1303.83 568.195 3520
1314.85 569.325 3527
1323.29 569.325 3527
1337.39 571.747 3542
1348.52 572.876 3549
1357 572.876 3549
1365.49 572.876 3549
1373.98 572.876 3549
1379.74 571.747 3542
1388.21 571.747 3542
1390.76 569.325 3527
1387.29 564.483 3497
1384.08 559.802 3468
1375.51 553.022 3426
1383.71 553.022 3426
1369.15 543.982 3370
1363.72 538.656 3337
1360.6 534.297 3310
1368.52 534.297 3310
1371.02 532.199 3297
1373.47 530.1 3284
1375.86 528.002 3271
1378.18 525.904 3258
1385.97 525.904 3258
1388.63 523.966 3246
1393.38 522.837 3239
1401.12 522.837 3239
1408.87 522.837 3239
1413.99 521.868 3233
1421.72 521.868 3233
1429.45 521.868 3233
1442.96 523.966 3246
1450.73 523.966 3246
1461.18 524.935 3252
1468.96 524.935 3252
1476.74 524.935 3252
1484.51 524.935 3252
1492.29 524.935 3252
1497.3 523.966 3246
1505.06 523.966 3246
1503.97 520.899 3227
1511.68 520.899 3227
1516.58 519.931 3221
1509.61 514.927 3190
1517.24 514.927 3190
1516.26 512.021 3172
1506.55 506.21 3136
1497.15 500.561 3101
1504.57 500.561 3101
1489.55 493.135 3055
1475.3 486.033 3011
1456.41 477.478 2958
1453.09 474.088 2937
1460.11 474.088 2937
1444.16 466.663 2891
1446.05 465.048 2881
1445.38 462.627 2866
1452.23 462.627 2866
1459.08 462.627 2866
1463.89 461.982 2862
1468.17 461.174 2857
1475 461.174 2857
1481.83 461.174 2857
1486.06 460.367 2852
1490.26 459.56 2847
1497.07 459.56 2847
1503.87 459.56 2847
1510.68 459.56 2847
1514.83 458.753 2842
1518.94 457.946 2837
1525.73 457.946 2837
1529.81 457.139 2832
1531.7 455.686 2823
1535.73 454.879 2818
1542.47 454.879 2818
1546.46 454.072 2813
1550.97 453.426 2809
1552.15 451.812 2799
1558.84 451.812 2799
1562.74 451.005 2794
1564.36 449.552 2785
1573.84 450.359 2790
1580.51 450.359 2790
1587.18 450.359 2790
1593.86 450.359 2790
1600.53 450.359 2790
1607.2 450.359 2790
1613.87 450.359 2790
1620.54 450.359 2790
1627.22 450.359 2790
1633.89 450.359 2790
1642.91 451.005 2794
1649.59 451.005 2794
1656.27 451.005 2794
1665.93 451.812 2799
1672.62 451.812 2799
1679.32 451.812 2799
1686.01 451.812 2799
1695.73 452.619 2804
1702.43 452.619 2804
1709.14 452.619 2804
1715.84 452.619 2804
1719.48 451.812 2799
1726.17 451.812 2799
1732.86 451.812 2799
1739.56 451.812 2799
1743.13 451.005 2794
1749.81 451.005 2794
1756.49 451.005 2794
1763.17 451.005 2794
1769.86 451.005 2794
1776.54 451.005 2794
1783.22 451.005 2794
1789.9 451.005 2794
1796.58 451.005 2794
1800.68 450.359 2790
1807.35 450.359 2790
1814.02 450.359 2790
1817.43 449.552 2785
1820.82 448.745 2780
1827.47 448.745 2780
1834.11 448.745 2780
1840.76 448.745 2780
1847.41 448.745 2780
1854.06 448.745 2780
1860.7 448.745 2780
1867.35 448.745 2780
1871.3 448.099 2776
1874.56 447.292 2771
1881.19 447.292 2771
1887.81 447.292 2771
1888.29 445.84 2762
1898.32 446.647 2767
1904.94 446.647 2767
1911.55 446.647 2767
1918.17 446.647 2767
1924.79 446.647 2767
1931.4 446.647 2767
1938.02 446.647 2767
1944.64 446.647 2767
1947.73 445.84 2762
1954.33 445.84 2762
1964.49 446.647 2767
1971.1 446.647 2767
1977.72 446.647 2767
1980.75 445.84 2762
1987.36 445.84 2762
1993.96 445.84 2762
1994.05 444.387 2753
2000.63 444.387 2753
2007.21 444.387 2753
2026.96 447.292 2771
2033.59 447.292 2771
2040.22 447.292 2771
2046.84 447.292 2771
2053.47 447.292 2771
2049.69 445.033 2757
2080.89 450.359 2790
2098.04 452.619 2804
2104.75 452.619 2804
2111.45 452.619 2804
2118.16 452.619 2804
2124.86 452.619 2804
2131.57 452.619 2804
2134.46 451.812 2799
2134.27 450.359 2790
-2117.39 463.268 2828
-2110.63 463.268 2828
-2103.87 463.268 2828
-2093.4 462.449 2823
-2082.95 461.63 2818
-2079.9 462.449 2823
-2073.15 462.449 2823
-2066.39 462.449 2823
-2056 461.63 2818
-2045.62 460.811 2813
-2038.89 460.811 2813
-2029.28 460.155 2809
-2022.56 460.155 2809
-2015.84 460.155 2809
-2019.14 462.449 2823
-2012.39 462.449 2823
-2039.74 470.312 2871
-2043.5 472.769 2886
-2036.6 472.769 2886
-2029.69 472.769 2886
-2022.79 472.769 2886
-2012.4 471.95 2881
-2008.99 472.769 2886
-2002.09 472.769 2886
-1995.19 472.769 2886
-1988.29 472.769 2886
-1981.39 472.769 2886
-1974.48 472.769 2886
-1960.76 471.131 2876
-1953.89 471.131 2876
-1947.01 471.131 2876
-1940.13 471.131 2876
-1936.62 471.95 2881
-1929.73 471.95 2881
-1922.84 471.95 2881
-1915.95 471.95 2881
-1919 474.407 2896
-1912.07 474.407 2896
-1905.15 474.407 2896
-1898.22 474.407 2896
-1888.03 473.588 2891
-1884.37 474.407 2896
-1891.06 477.847 2917
-1884.09 477.847 2917
-1886.76 480.305 2932
-1899.63 485.383 2963
-1909.79 489.806 2990
-1902.64 489.806 2990
-1912.6 494.229 3017
-1947.7 505.204 3084
-1940.33 505.204 3084
-1947.37 508.972 3107
-1939.94 508.972 3107
-1943.08 511.757 3124
-1935.61 511.757 3124
-1931.84 512.74 3130
-1939.12 516.671 3154
-1942.6 519.62 3172
-1935.01 519.62 3172
-1934.72 521.586 3184
-1927.1 521.586 3184
-1919.49 521.586 3184
-1908.27 520.603 3178
-1893.5 518.637 3166
-1896.65 521.586 3184
-1918.11 529.613 3233
-1910.37 529.613 3233
-1925.01 535.838 3271
-1935.94 541.08 3303
-1955.48 548.779 3350
-1947.47 548.779 3350
-1971.3 557.789 3405
-1975.26 561.229 3426
-1979.13 564.669 3447
-1970.88 564.669 3447
-1979.15 569.42 3476
-1974.81 570.566 3483
-1966.48 570.566 3483
-1958.15 570.566 3483
-1957.66 572.86 3497
-1953.76 574.17 3505
-1953.7 576.628 3520
-1945.28 576.628 3520
-1936.87 576.628 3520
-1932.28 577.774 3527
-1927.67 578.921 3534
-1919.22 578.921 3534
-1915.09 580.231 3542
-1910.39 581.378 3549
-1906.19 582.689 3557
-1897.69 582.689 3557
-1889.18 582.689 3557
-1880.67 582.689 3557
-1876.38 583.999 3565
-1867.85 583.999 3565
-1862.98 585.146 3572
-1858.59 586.456 3580
-1854.16 587.767 3588
-1845.58 587.767 3588
-1844.68 590.224 3603
-1840.14 591.535 3611
-1835.57 592.845 3619
-1826.91 592.845 3619
-1822.28 594.156 3627
-1817.61 595.466 3635
-1808.91 595.466 3635
-1800.22 595.466 3635
-1791.53 595.466 3635
-1794.12 599.234 3658
-1789.76 600.708 3667
-1780.99 600.708 3667
-1779.96 603.329 3683
-1782.69 607.261 3707
-1789.62 612.667 3740
-1780.67 612.667 3740
-1779.78 615.452 3757
-1775.04 616.926 3766
-1774.01 619.711 3783
-1764.96 619.711 3783
-1760.09 621.185 3792
-1766.72 626.755 3826
-1757.58 626.755 3826
-1748.43 626.755 3826
-1755.64 632.652 3862
-1746.41 632.652 3862
-1745.27 635.601 3880
-1735.99 635.601 3880
-1726.71 635.601 3880
-1717.43 635.601 3880
-1708.16 635.601 3880
-1694.94 634.126 3871
-1670 628.229 3835
-1627.05 615.452 3757
-1593.09 605.95 3699
-1584.24 605.95 3699
-1554.53 597.923 3650
-1529.28 591.535 3611
-1501.28 583.999 3565
-1492.75 583.999 3565
-1480.9 582.689 3557
-1466.18 580.231 3542
-1448.66 576.628 3520
-1440.24 576.628 3520
-1422.47 572.86 3497
-1402.38 568.109 3468
-1380.02 562.376 3433
-1371.81 562.376 3433
-1338.57 552.055 3370
-1322.62 548.779 3350
-1309.51 546.649 3337
-1298.8 545.503 3330
-1290.83 545.503 3330
-1280.17 544.356 3323
-1264.57 541.08 3303
-1256.67 541.08 3303
-1248.77 541.08 3303
-1233.74 537.967 3284
-1221.03 535.838 3271
-1208.39 533.708 3258
-1200.6 533.708 3258
-1190.61 532.725 3252
-1180.65 531.742 3246
-1172.89 531.742 3246
-1188.1 542.226 3310
-1180.18 542.226 3310
-1186.43 548.779 3350
-1178.42 548.779 3350
-1170.41 548.779 3350
-1162.4 548.779 3350
-1154.39 548.779 3350
-873.663 467.199 2852
-866.843 467.199 2852
-860.023 467.199 2852
-853.203 467.199 2852
-846.383 467.199 2852
-841.561 476.045 2906
-836.048 476.864 2911
-829.087 476.864 2911
-822.126 476.864 2911
-766.437 476.864 2911
-759.476 476.864 2911
-752.515 476.864 2911
-742.993 475.226 2901
-736.056 475.226 2901
-727.862 474.407 2896
-720.937 474.407 2896
-674.143 569.42 3476
-665.831 569.42 3476
-657.519 569.42 3476
-649.207 569.42 3476
-640.894 569.42 3476
-636.404 572.86 3497
-628.042 572.86 3497
-619.679 572.86 3497
-611.317 572.86 3497
-602.954 572.86 3497
-594.592 572.86 3497
-591.259 577.774 3527
-582.825 577.774 3527
-574.391 577.774 3527
-565.956 577.774 3527
-561 581.378 3549
-555.004 583.999 3565
-546.479 583.999 3565
-537.954 583.999 3565
-530.469 585.146 3572
-523.096 586.456 3580
-520.14 592.845 3619
-511.486 592.845 3619
-503.944 594.156 3627
-495.27 594.156 3627
-486.597 594.156 3627
-477.924 594.156 3627
-468.215 592.845 3619
-459.561 592.845 3619
-451.904 594.156 3627
-443.231 594.156 3627
-435.516 595.466 3635
-428.585 597.923 3650
-420.777 599.234 3658
-412.029 599.234 3658
-404.274 600.708 3667
-398.094 604.64 3691
-390.111 605.95 3699
-381.266 605.95 3699
-373.226 607.261 3707
-366.819 611.356 3732
-359.525 614.141 3749
-350.56 614.141 3749
-341.595 614.141 3749
-333.339 615.452 3757
-325.132 616.926 3766
-316.127 616.926 3766
-309.241 621.185 3792
-305.002 631.178 3853
-297.17 634.126 3871
-287.914 634.126 3871
-281.248 640.024 3907
-275.803 649.197 3963
-268.208 653.784 3991
-258.664 653.784 3991
-249.12 653.784 3991
-239.577 653.784 3991
-230.033 653.784 3991
-219.44 650.672 3972
-118.977 368.747 2251
-113.595 368.747 2251
-108.212 368.747 2251
-102.692 368.255 2248
-96.1474 363.832 2221
-90.0183 360.556 2201
-84.524 359.573 2195
-79.2751 359.573 2195
-73.6552 357.771 2184
-68.2446 356.788 2178
-62.8627 355.805 2172
-57.6688 355.805 2172
-52.4024 355.314 2169
-47.1721 354.986 2167
-41.932 354.495 2164
-36.7572 354.495 2164
-31.5825 354.495 2164
-26.3711 354.003 2161
-21.2035 354.003 2161
-16.0359 354.003 2161
-10.8682 354.003 2161
-5.69273 353.512 2158
-0.533776 354.495 2164
4.64744 354.986 2167
9.82939 354.986 2167
15.0113 354.986 2167
20.2678 356.297 2175
25.4689 356.297 2175
30.9097 359.082 2192
36.1515 359.082 2192
41.3932 359.082 2192
46.6988 359.573 2195
52.0897 360.556 2201
57.3529 360.556 2201
62.7015 361.047 2204
68.0645 361.539 2207
73.3421 361.539 2207
78.6197 361.539 2207
84.1254 362.522 2213
89.4174 362.522 2213
94.7093 362.522 2213
100.001 362.522 2213
105.293 362.522 2213
110.435 362.03 2210
115.72 362.03 2210
121.005 362.03 2210
125.432 359.573 2195
130.681 359.573 2195
135.93 359.573 2195
140.986 359.082 2192
146.228 359.082 2192
151.47 359.082 2192
156.711 359.082 2192
161.731 358.59 2189
166.737 358.099 2186
172.909 360.065 2198
178.165 360.065 2198
183.421 360.065 2198
188.677 360.065 2198
193.933 360.065 2198
199.189 360.065 2198
204.445 360.065 2198
209.701 360.065 2198
215.544 361.047 2204
221.115 361.539 2207
226.7 362.03 2210
231.985 362.03 2210
237.27 362.03 2210
242.225 361.539 2207
247.503 361.539 2207
534.017 495.048 3022
541.243 495.048 3022
553.552 499.635 3050
560.845 499.635 3050
568.139 499.635 3050
573.357 497.833 3039
578.522 496.031 3028
580.347 491.444 3000
587.521 491.444 3000
593.703 490.625 2995
603.072 492.427 3006
612.494 494.229 3017
619.708 494.229 3017
626.923 494.229 3017
634.137 494.229 3017
639.013 492.427 3006
646.202 492.427 3006
650.999 490.625 2995
653.546 487.185 2974
662.879 488.823 2984
670.015 488.823 2984
677.151 488.823 2984
684.286 488.823 2984
691.422 488.823 2984
698.557 488.823 2984
705.693 488.823 2984
711.634 488.004 2979
717.552 487.185 2974
724.663 487.185 2974
731.775 487.185 2974
737.396 486.202 2968
744.494 486.202 2968
747.793 483.745 2953
754.854 483.745 2953
761.916 483.745 2953
770.279 484.564 2958
777.353 484.564 2958
785.752 485.383 2963
792.837 485.383 2963
799.923 485.383 2963
808.37 486.202 2968
815.467 486.202 2968
822.565 486.202 2968
829.662 486.202 2968
838.451 487.185 2974
854.661 492.427 3006
863.283 493.246 3011
870.483 493.246 3011
879.432 494.229 3017
893.112 497.833 3039
901.861 498.652 3044
909.14 498.652 3044
923.343 502.419 3067
939.174 507.006 3095
960.95 514.706 3142
968.463 514.706 3142
998.341 526.5 3214
1027.94 537.967 3284
1035.79 537.967 3284
1043.64 537.967 3284
1057.58 541.08 3303
1065.48 541.08 3303
1084.43 546.649 3337
1092.41 546.649 3337
1102.36 547.632 3343
1126.3 555.495 3391
1148.46 562.376 3433
1156.67 562.376 3433
1176.76 568.109 3468
1187.78 569.42 3476
1196.09 569.42 3476
1204.41 569.42 3476
1212.72 569.42 3476
1221.03 569.42 3476
1229.34 569.42 3476
1237.66 569.42 3476
1250.99 571.713 3490
1259.33 571.713 3490
1275.67 575.317 3512
1284.07 575.317 3512
1292.47 575.317 3512
1306.42 577.774 3527
1317.46 578.921 3534
1325.91 578.921 3534
1340.03 581.378 3549
1348.52 581.378 3549
1357 581.378 3549
1365.49 581.378 3549
1373.98 581.378 3549
1379.74 580.231 3542
1388.21 580.231 3542
1390.76 577.774 3527
1387.29 572.86 3497
1387.27 569.42 3476
1378.32 562.376 3433
1386.53 562.376 3433
1371.99 553.202 3377
1363.72 546.649 3337
1368.82 545.503 3330
1376.78 545.503 3330
1373.52 541.08 3303
1375.98 538.95 3290
1381.32 537.967 3284
1381.14 534.855 3265
1388.95 534.855 3265
1393.76 533.708 3258
1396.39 531.742 3246
1401.12 530.596 3239
1408.87 530.596 3239
1413.99 529.613 3233
1421.72 529.613 3233
1429.45 529.613 3233
1442.96 531.742 3246
1450.73 531.742 3246
1458.49 531.742 3246
1468.96 532.725 3252
1476.74 532.725 3252
1484.51 532.725 3252
1489.54 531.742 3246
1494.07 530.596 3239
1501.81 530.596 3239
1506.76 529.613 3233
1511.68 528.63 3227
1516.58 527.647 3221
1509.61 522.569 3190
1517.24 522.569 3190
1516.26 519.62 3172
1506.55 513.723 3136
1497.15 507.989 3101
1504.57 507.989 3101
1489.55 500.454 3055
1475.3 493.246 3011
1461.33 486.202 2968
1455.56 481.943 2942
1462.6 481.943 2942
1449.15 475.226 2901
1446.05 471.95 2881
1445.38 469.493 2866
1452.23 469.493 2866
1459.08 469.493 2866
1463.89 468.837 2862
1468.17 468.018 2857
1475 468.018 2857
1479.24 467.199 2852
1486.06 467.199 2852
1490.26 466.38 2847
1497.07 466.38 2847
1503.87 466.38 2847
1508.03 465.561 2842
1514.83 465.561 2842
1518.94 464.742 2837
1525.73 464.742 2837
1529.81 463.923 2832
1531.7 462.449 2823
1535.73 461.63 2818
1542.47 461.63 2818
1546.46 460.811 2813
1550.97 460.155 2809
1554.92 459.336 2804
1561.62 459.336 2804
1565.53 458.517 2799
1569.42 457.698 2794
1573.84 457.043 2790
1580.51 457.043 2790
1589.46 457.698 2794
1596.14 457.698 2794
1602.82 457.698 2794
1609.5 457.698 2794
1616.19 457.698 2794
1622.87 457.698 2794
1629.55 457.698 2794
1636.23 457.698 2794
1642.91 457.698 2794
1649.59 457.698 2794
1659.24 458.517 2799
1668.91 459.336 2804
1675.61 459.336 2804
1682.32 459.336 2804
1689.02 459.336 2804
1695.73 459.336 2804
1702.43 459.336 2804
1709.14 459.336 2804
1715.84 459.336 2804
1722.55 459.336 2804
1729.25 459.336 2804
1735.96 459.336 2804
1742.66 459.336 2804
1749.37 459.336 2804
1756.07 459.336 2804
1762.78 459.336 2804
1766.33 458.517 2799
1773.02 458.517 2799
1776.54 457.698 2794
1783.22 457.698 2794
1789.9 457.698 2794
1796.58 457.698 2794
1803.26 457.698 2794
1807.35 457.043 2790
1814.02 457.043 2790
1817.43 456.224 2785
1824.09 456.224 2785
1830.75 456.224 2785
1837.41 456.224 2785
1840.76 455.405 2780
1850.73 456.224 2785
1857.39 456.224 2785
1864.05 456.224 2785
1867.35 455.405 2780
1871.3 454.749 2776
1874.56 453.93 2771
1881.19 453.93 2771
1887.81 453.93 2771
1888.29 452.456 2762
1898.32 453.275 2767
1904.94 453.275 2767
1911.55 453.275 2767
1918.17 453.275 2767
1921.31 452.456 2762
1927.91 452.456 2762
1934.52 452.456 2762
1941.12 452.456 2762
1947.73 452.456 2762
1954.33 452.456 2762
1964.49 453.275 2767
1971.1 453.275 2767
1977.72 453.275 2767
1980.75 452.456 2762
1987.36 452.456 2762
1993.96 452.456 2762
1994.05 450.982 2753
2000.63 450.982 2753
2007.21 450.982 2753
2026.96 453.93 2771
2033.59 453.93 2771
2040.22 453.93 2771
2046.84 453.93 2771
2053.47 453.93 2771
2049.69 451.637 2757
2080.89 457.043 2790
2098.04 459.336 2804
2104.75 459.336 2804
2111.45 459.336 2804
2118.16 459.336 2804
2124.86 459.336 2804
2131.57 459.336 2804
2134.46 458.517 2799
2134.27 457.043 2790
-2117.39 470.042 2828
-2110.63 470.042 2828
-2103.87 470.042 2828
-2093.4 469.211 2823
-2082.95 468.38 2818
-2079.9 469.211 2823
-2073.15 469.211 2823
-2066.39 469.211 2823
-2056 468.38 2818
-2045.62 467.549 2813
-2038.89 467.549 2813
-2025.67 466.053 2804
-2018.96 466.053 2804
-2015.84 466.884 2809
-2019.14 469.211 2823
-2012.39 469.211 2823
-2039.74 477.189 2871
-2043.5 479.682 2886
-2036.6 479.682 2886
-2029.69 479.682 2886
-2022.79 479.682 2886
-2012.4 478.851 2881
-2008.99 479.682 2886
-2002.09 479.682 2886
-1995.19 479.682 2886
-1988.29 479.682 2886
-1981.39 479.682 2886
-1974.48 479.682 2886
-1960.76 478.02 2876
-1953.89 478.02 2876
-1947.01 478.02 2876
-1940.13 478.02 2876
-1936.62 478.851 2881
-1929.73 478.851 2881
-1922.84 478.851 2881
-1915.95 478.851 2881
-1919 481.345 2896
-1912.07 481.345 2896
-1905.15 481.345 2896
-1898.22 481.345 2896
-1888.03 480.514 2891
-1884.37 481.345 2896
-1891.06 484.835 2917
-1884.09 484.835 2917
-1886.76 487.328 2932
-1899.63 492.481 2963
-1909.79 496.968 2990
-1902.64 496.968 2990
-1912.6 501.456 3017
-1947.7 512.592 3084
-1940.33 512.592 3084
-1947.37 516.415 3107
-1939.94 516.415 3107
-1943.08 519.24 3124
-1935.61 519.24 3124
-1931.84 520.238 3130
-1939.12 524.227 3154
-1942.6 527.219 3172
-1935.01 527.219 3172
-1934.72 529.213 3184
-1927.1 529.213 3184
-1919.49 529.213 3184
-1908.27 528.216 3178
-1893.5 526.221 3166
-1896.65 529.213 3184
-1918.11 537.357 3233
-1910.37 537.357 3233
-1925.01 543.673 3271
-1935.94 548.992 3303
-1955.48 556.804 3350
-1947.47 556.804 3350
-1971.3 565.945 3405
-1975.26 569.436 3426
-1979.13 572.926 3447
-1970.88 572.926 3447
-1979.15 577.746 3476
-1974.81 578.91 3483
-1966.48 578.91 3483
-1958.15 578.91 3483
-1957.66 581.237 3497
-1953.76 582.567 3505
-1953.7 585.06 3520
-1945.28 585.06 3520
-1936.87 585.06 3520
-1932.28 586.223 3527
-1927.67 587.387 3534
-1919.22 587.387 3534
-1915.09 588.716 3542
-1910.39 589.88 3549
-1906.19 591.209 3557
-1897.69 591.209 3557
-1889.18 591.209 3557
-1880.67 591.209 3557
-1876.38 592.539 3565
-1867.85 592.539 3565
-1862.98 593.703 3572
-1858.59 595.032 3580
-1854.16 596.362 3588
-1845.58 596.362 3588
-1840.59 597.525 3595
-1836.07 598.855 3603
-1831.51 600.185 3611
-1822.87 600.185 3611
-1818.26 601.514 3619
-1809.6 601.514 3619
-1804.93 602.844 3627
-1796.26 602.844 3627
-1791.53 604.174 3635
-1786.27 605.337 3642
-1785.37 607.997 3658
-1776.62 607.997 3658
-1767.87 607.997 3658
-1771.15 612.152 3683
-1781.96 618.967 3724
-1773.06 618.967 3724
-1779.78 624.451 3757
-1775.04 625.947 3766
-1774.01 628.773 3783
-1764.96 628.773 3783
-1760.09 630.269 3792
-1766.72 635.92 3826
-1757.58 635.92 3826
-1748.43 635.92 3826
-1755.64 641.904 3862
-1746.41 641.904 3862
-1745.27 644.895 3880
-1735.99 644.895 3880
-1726.71 644.895 3880
-1717.43 644.895 3880
-1708.16 644.895 3880
-1694.94 643.399 3871
-1670 637.416 3835
-1627.05 624.451 3757
-1593.09 614.811 3699
-1584.24 614.811 3699
-1554.53 606.667 3650
-1529.28 600.185 3611
-1501.28 592.539 3565
-1492.75 592.539 3565
-1480.9 591.209 3557
-1466.18 588.716 3542
-1448.66 585.06 3520
-1440.24 585.06 3520
-1422.47 581.237 3497
-1402.38 576.417 3468
-1380.02 570.599 3433
-1371.81 570.599 3433
-1341.35 561.292 3377
-1327.75 558.965 3363
-1314.61 556.804 3350
-1301.53 554.643 3337
-1293.55 554.643 3337
-1282.87 553.48 3330
-1272.23 552.316 3323
-1264.28 552.316 3323
-1256.34 552.316 3323
-1248.39 552.316 3323
-1232.98 548.992 3303
-1218.03 545.834 3284
-1210.18 545.834 3284
-1197.57 543.673 3271
-1189.74 543.673 3271
-1196.01 550.156 3310
-1202.46 556.804 3350
-1194.45 556.804 3350
-1188.91 557.967 3357
-1180.89 557.967 3357
-1174.95 558.965 3363
-1166.91 558.965 3363
-1158.87 558.965 3363
-873.663 474.031 2852
-866.843 474.031 2852
-860.023 474.031 2852
-853.203 474.031 2852
-846.383 474.031 2852
-841.561 483.007 2906
-836.048 483.838 2911
-829.087 483.838 2911
-822.126 483.838 2911
-766.437 483.838 2911
-759.476 483.838 2911
-752.515 483.838 2911
-742.993 482.176 2901
-736.056 482.176 2901
-727.862 481.345 2896
-720.937 481.345 2896
-682.455 577.746 3476
-674.143 577.746 3476
-665.831 577.746 3476
-657.519 577.746 3476
-653.129 581.237 3497
-650.298 586.223 3527
-641.864 586.223 3527
-633.429 586.223 3527
-624.995 586.223 3527
-616.561 586.223 3527
-608.127 586.223 3527
-599.693 586.223 3527
-591.259 586.223 3527
-587.782 591.209 3557
-579.276 591.209 3557
-570.77 591.209 3557
-564.636 593.703 3572
-557.339 595.032 3580
-548.778 595.032 3580
-540.218 595.032 3580
-531.657 595.032 3580
-524.265 596.362 3588
-520.14 601.514 3619
-511.486 601.514 3619
-503.944 602.844 3627
-495.27 602.844 3627
-486.597 602.844 3627
-477.924 602.844 3627
-468.215 601.514 3619
-459.561 601.514 3619
-451.904 602.844 3627
-443.231 602.844 3627
-435.516 604.174 3635
-428.585 606.667 3650
-420.777 607.997 3658
-412.029 607.997 3658
-404.274 609.493 3667
-398.094 613.482 3691
-390.111 614.811 3699
-381.266 614.811 3699
-373.226 616.141 3707
-366.819 620.296 3732
-359.525 623.122 3749
-350.56 623.122 3749
-341.595 623.122 3749
-333.339 624.451 3757
-325.132 625.947 3766
-316.127 625.947 3766
-309.241 630.269 3792
-305.002 640.408 3853
-297.17 643.399 3871
-287.914 643.399 3871
-281.248 649.383 3907
-275.803 658.691 3963
-268.208 663.345 3991
-258.664 663.345 3991
-249.12 663.345 3991
-239.577 663.345 3991
-230.033 663.345 3991
-219.44 660.187 3972
-118.977 374.139 2251
-113.595 374.139 2251
-108.212 374.139 2251
-102.692 373.64 2248
-96.1474 369.153 2221
-90.0183 365.829 2201
-84.524 364.831 2195
-79.2751 364.831 2195
-73.6552 363.003 2184
-68.2446 362.006 2178
-62.8627 361.008 2172
-57.6688 361.008 2172
-52.4024 360.51 2169
-47.1721 360.177 2167
-41.932 359.679 2164
-36.7572 359.679 2164
-31.5825 359.679 2164
-26.3711 359.18 2161
-21.2035 359.18 2161
-16.0359 359.18 2161
-10.8682 359.18 2161
-5.69273 358.681 2158
-0.533776 359.679 2164
4.64744 360.177 2167
9.82939 360.177 2167
15.0113 360.177 2167
20.2678 361.507 2175
25.4689 361.507 2175
30.9097 364.333 2192
36.1515 364.333 2192
41.3932 364.333 2192
46.6988 364.831 2195
52.0897 365.829 2201
57.3529 365.829 2201
62.7015 366.327 2204
68.0645 366.826 2207
73.3421 366.826 2207
78.6197 366.826 2207
84.1254 367.823 2213
89.4174 367.823 2213
94.7093 367.823 2213
100.001 367.823 2213
105.293 367.823 2213
110.435 367.324 2210
115.72 367.324 2210
121.005 367.324 2210
125.604 365.33 2198
130.681 364.831 2195
135.93 364.831 2195
141.179 364.831 2195
146.228 364.333 2192
151.47 364.333 2192
156.711 364.333 2192
161.731 363.834 2189
166.737 363.335 2186
172.909 365.33 2198
178.165 365.33 2198
183.421 365.33 2198
188.677 365.33 2198
193.933 365.33 2198
199.189 365.33 2198
204.445 365.33 2198
209.701 365.33 2198
215.544 366.327 2204
221.115 366.826 2207
226.7 367.324 2210
231.985 367.324 2210
237.27 367.324 2210
242.225 366.826 2207
247.503 366.826 2207
553.552 506.941 3050
560.845 506.941 3050
568.139 506.941 3050
575.432 506.941 3050
580.624 505.113 3039
582.475 500.459 3011
589.675 500.459 3011
595.884 499.628 3006
606.282 502.287 3022
614.727 503.284 3028
621.968 503.284 3028
629.208 503.284 3028
636.449 503.284 3028
642.415 502.287 3022
649.641 502.287 3022
653.39 499.628 3006
660.578 499.628 3006
667.766 499.628 3006
674.955 499.628 3006
682.143 499.628 3006
689.331 499.628 3006
693.971 497.799 2995
701.133 497.799 2995
708.295 497.799 2995
714.262 496.968 2990
721.412 496.968 2990
725.882 495.14 2979
733.005 495.14 2979
740.129 495.14 2979
747.253 495.14 2979
751.591 493.312 2968
758.688 493.312 2968
765.786 493.312 2968
772.883 493.312 2968
779.981 493.312 2968
787.078 493.312 2968
794.175 493.312 2968
801.273 493.312 2968
810.004 494.309 2974
817.116 494.309 2974
824.228 494.309 2974
835.812 496.968 2990
847.473 499.628 3006
859.21 502.287 3022
869.591 504.115 3033
876.843 504.115 3033
887.303 505.944 3044
897.814 507.772 3055
911.934 511.595 3078
919.295 511.595 3078
931.773 514.42 3095
951.616 521.235 3136
964.62 524.227 3154
972.162 524.227 3154
998.341 534.199 3214
1027.94 545.834 3284
