ply
format ascii 1.0
comment File generated
element vertex 2264
property float x
property float y
property float z
end_header
175.652 53.9044 2167
181.251 54.0288 2172
186.445 54.0288 2172
192.433 54.2526 2181
198.102 54.377 2186
203.887 54.5263 2192
209.129 54.5263 2192
214.371 54.5263 2192
220.213 54.6755 2198
226.085 54.8248 2204
231.355 54.8248 2204
237.807 55.0984 2215
244.091 55.3223 2224
250.082 55.4715 2230
255.415 55.4715 2230
261.098 55.5461 2233
266.438 55.5461 2233
271.778 55.5461 2233
277.118 55.5461 2233
282.078 55.4715 2230
285.864 55.173 2218
291.168 55.173 2218
295.403 54.974 2210
300.687 54.974 2210
434.539 74.2273 2984
441.674 74.2273 2984
448.81 74.2273 2984
453.501 73.8293 2968
460.598 73.8293 2968
466.908 73.705 2963
473.993 73.705 2963
481.078 73.705 2963
488.164 73.705 2963
495.249 73.705 2963
499.622 73.307 2947
505.81 73.1826 2942
510.23 72.8095 2927
517.229 72.8095 2927
523.333 72.6851 2922
530.321 72.6851 2922
537.308 72.6851 2922
544.295 72.6851 2922
551.283 72.6851 2922
557.315 72.5607 2917
564.29 72.5607 2917
571.266 72.5607 2917
577.052 72.4115 2911
583.01 72.2871 2906
589.959 72.2871 2906
596.908 72.2871 2906
603.857 72.2871 2906
609.755 72.1627 2901
616.693 72.1627 2901
623.63 72.1627 2901
630.567 72.1627 2901
637.504 72.1627 2901
644.441 72.1627 2901
651.378 72.1627 2901
658.316 72.1627 2901
665.253 72.1627 2901
672.19 72.1627 2901
679.127 72.1627 2901
686.064 72.1627 2901
693.001 72.1627 2901
699.939 72.1627 2901
706.876 72.1627 2901
713.813 72.1627 2901
720.75 72.1627 2901
728.942 72.2871 2906
735.891 72.2871 2906
742.84 72.2871 2906
749.789 72.2871 2906
758.04 72.4115 2911
765.001 72.4115 2911
771.962 72.4115 2911
778.923 72.4115 2911
787.504 72.5607 2917
794.48 72.5607 2917
802.829 72.6851 2922
809.816 72.6851 2922
816.804 72.6851 2922
823.791 72.6851 2922
829.357 72.5607 2917
836.332 72.5607 2917
843.308 72.5607 2917
850.283 72.5607 2917
858.728 72.6851 2922
865.715 72.6851 2922
872.703 72.6851 2922
879.69 72.6851 2922
885.16 72.5607 2917
892.136 72.5607 2917
899.111 72.5607 2917
907.64 72.6851 2922
917.757 72.9338 2932
926.346 73.0582 2937
933.369 73.0582 2937
943.594 73.307 2947
957.415 73.8293 2968
968.087 74.103 2979
975.211 74.103 2979
983.983 74.2273 2984
1013.04 75.8691 3050
1029.7 76.5656 3078
1037.06 76.5656 3078
1068.17 78.3069 3148
1100.65 80.1227 3221
1134.5 82.0133 3297
1142.39 82.0133 3297
1205.04 85.9187 3454
1213.3 85.9187 3454
1266.12 89.0529 3580
1274.69 89.0529 3580
1294.36 89.824 3611
1302.99 89.824 3611
1311.63 89.824 3611
1317.34 89.625 3603
1325.95 89.625 3603
1343.46 90.222 3627
1357.73 90.5952 3642
1366.43 90.5952 3642
1375.14 90.5952 3642
1381.19 90.4211 3635
1389.89 90.4211 3635
1392.42 90.023 3619
1389.07 89.2519 3588
1388.69 88.6798 3565
1397.22 88.6798 3565
1393.52 87.9087 3534
1401.97 87.9087 3534
1404.84 87.5604 3520
1404.02 86.9883 3497
1412.38 86.9883 3497
1412.21 86.4659 3476
1408.67 85.7445 3447
1405.41 85.048 3419
1413.58 85.048 3419
1410.11 84.3515 3391
1415.3 84.1774 3384
1409.09 83.3316 3350
1417.1 83.3316 3350
1419.58 83.0083 3337
1419 82.5108 3317
1423.92 82.3366 3310
1431.84 82.3366 3310
1442.8 82.5108 3317
1450.73 82.5108 3317
1464.38 82.8341 3330
1517.88 85.3963 3433
1541.65 86.2669 3468
1549.94 86.2669 3468
1574.86 87.1873 3505
1596.34 87.9087 3534
1604.79 87.9087 3534
1613.24 87.9087 3534
1635.92 88.6798 3565
1644.44 88.6798 3565
1652.97 88.6798 3565
1654.04 88.2818 3549
1662.52 88.2818 3549
1667.72 88.1077 3542
1676.19 88.1077 3542
1677.52 87.7345 3527
1685.96 87.7345 3527
1694.39 87.7345 3527
1702.82 87.7345 3527
1703.98 87.3614 3512
1701.65 86.8142 3490
1699.22 86.2669 3468
1704.06 86.0928 3461
1712.34 86.0928 3461
1710.18 85.5704 3440
1707.91 85.048 3419
1695.01 84.0033 3377
1703.08 84.0033 3377
1693.93 83.1575 3343
1685.12 82.3366 3310
1676.67 81.5406 3278
1684.51 81.5406 3278
1688.73 81.3665 3271
1696.56 81.3665 3271
1701.25 81.2173 3265
1702.26 80.8939 3252
1710.03 80.8939 3252
1717.81 80.8939 3252
1725.58 80.8939 3252
1733.36 80.8939 3252
1741.14 80.8939 3252
1738.7 80.4212 3233
1736.16 79.9486 3214
1734.08 79.5009 3196
1741.73 79.5009 3196
1739.52 79.0531 3178
1737.22 78.6054 3160
1734.84 78.1576 3142
1729.04 77.5606 3118
1736.5 77.5606 3118
1715.43 76.292 3067
1700.86 75.3219 3028
1674.25 73.8293 2968
1681.35 73.8293 2968
1665.12 72.8095 2927
1648.7 71.7896 2886
1649.86 71.5408 2876
1648.68 71.1926 2862
1655.52 71.1926 2862
1659.46 71.0682 2857
1657.54 70.6951 2842
1658.48 70.4463 2832
1665.26 70.4463 2832
1666.71 70.2225 2823
1670.5 70.0981 2818
1674.26 69.9737 2813
1680.99 69.9737 2813
1685.32 69.8742 2809
1689.02 69.7498 2804
1695.73 69.7498 2804
1699.4 69.6255 2799
1706.09 69.6255 2799
1712.78 69.6255 2799
1716.41 69.5011 2794
1723.09 69.5011 2794
1729.77 69.5011 2794
1727.75 69.1528 2780
1731.9 69.0533 2776
1735.41 68.9289 2771
1742.03 68.9289 2771
1739.83 68.5807 2757
1746.42 68.5807 2757
1750.47 68.4812 2753
1757.05 68.4812 2753
1760.43 68.3568 2748
1767 68.3568 2748
1773.57 68.3568 2748
1780.14 68.3568 2748
1786.72 68.3568 2748
1787.41 68.1329 2739
1793.96 68.1329 2739
1797.88 68.0334 2735
1804.42 68.0334 2735
1807.65 67.9091 2730
1814.18 67.9091 2730
1814.71 67.6852 2721
1821.21 67.6852 2721
1827.72 67.6852 2721
1831.53 67.5857 2717
1838.03 67.5857 2717
1844.53 67.5857 2717
1851.02 67.5857 2717
1854.79 67.4862 2713
1861.27 67.4862 2713
1867.76 67.4862 2713
1874.25 67.4862 2713
1880.74 67.4862 2713
1880.96 67.2623 2704
1883.94 67.1379 2699
1890.39 67.1379 2699
1896.85 67.1379 2699
1900.48 67.0384 2695
1900.56 66.8146 2686
1906.98 66.8146 2686
1913.4 66.8146 2686
1919.83 66.8146 2686
1923.38 66.7151 2682
1929.79 66.7151 2682
1936.21 66.7151 2682
1942.62 66.7151 2682
1949.03 66.7151 2682
1948.89 66.4912 2673
1955.28 66.4912 2673
1955.8 66.2922 2665
1962.17 66.2922 2665
1968.54 66.2922 2665
1974.92 66.2922 2665
1971.63 65.9688 2652
1974.98 65.8693 2648
1981.32 65.8693 2648
1987.65 65.8693 2648
1987.96 65.6703 2640
1994.27 65.6703 2640
2006.64 65.8693 2648
2016.02 65.9688 2652
2032.27 66.2922 2665
2038.65 66.2922 2665
-2081.45 75.8123 2780
-2074.81 75.8123 2780
-2071.88 75.9487 2785
-2065.22 75.9487 2785
-2058.56 75.9487 2785
-2055.58 76.085 2790
-2051.85 76.1941 2794
-2045.17 76.1941 2794
-2038.49 76.1941 2794
-2031.8 76.1941 2794
-2025.12 76.1941 2794
-2011.94 75.9487 2785
-1998.8 75.7033 2776
-1978.53 75.1851 2757
-1971.93 75.1851 2757
-1962.49 75.076 2753
-1952.35 74.9397 2748
-1936.58 74.5852 2735
-1930.04 74.5852 2735
-1910.84 74.0943 2717
-1939.39 75.4578 2767
-1932.77 75.4578 2767
-1926.15 75.4578 2767
-1919.54 75.4578 2767
-1928.82 76.085 2790
-1922.15 76.085 2790
-1915.48 76.085 2790
-2172.82 106.301 3898
-2163.5 106.301 3898
-2154.18 106.301 3898
-2120.1 105.074 3853
-2086.78 103.874 3809
-2077.67 103.874 3809
-2049.56 102.919 3774
-2004.31 101.092 3707
-1969.06 99.7559 3658
-1973.71 100.438 3683
-1964.91 100.438 3683
-1956.1 100.438 3683
-1947.29 100.438 3683
-1938.49 100.438 3683
-1929.68 100.438 3683
-1920.87 100.438 3683
-1929.2 101.338 3716
-1920.31 101.338 3716
-1911.42 101.338 3716
-1885.64 100.438 3683
-1880.91 100.656 3691
-1888.82 101.556 3724
-1879.92 101.556 3724
-1879.05 101.992 3740
-1870.11 101.992 3740
-1861.17 101.992 3740
-1763.83 105.81 3880
-1754.55 105.81 3880
-1745.27 105.81 3880
-1715.86 104.583 3835
-1687.55 103.41 3792
-1662.99 102.456 3757
-1617.91 100.22 3675
-1609.12 100.22 3675
-1391.42 90.6203 3323
-1383.48 90.6203 3323
-1375.53 90.6203 3323
-1359.35 90.0749 3303
-1349 89.9113 3297
-1341.11 89.9113 3297
-1333.23 89.9113 3297
-1322.53 89.7204 3290
-1223.57 85.0298 3118
-1216.11 85.0298 3118
-1208.65 85.0298 3118
-1198.89 84.8662 3112
-1187.23 84.5662 3101
-1164.6 83.4754 3061
-1157.28 83.4754 3061
-1139.44 82.7118 3033
-1112.03 81.2392 2979
-1098.97 80.8029 2963
-1093.73 80.9392 2968
-1088.83 81.1028 2974
-1081.72 81.1028 2974
-1074.61 81.1028 2974
-1065.34 80.9392 2968
-1062.16 81.2392 2979
-1055.04 81.2392 2979
-1047.92 81.2392 2979
-1040.79 81.2392 2979
-1033.67 81.2392 2979
-1026.55 81.2392 2979
-1019.42 81.2392 2979
-1012.3 81.2392 2979
-1006.86 81.3755 2984
-999.727 81.3755 2984
-992.591 81.3755 2984
-985.456 81.3755 2984
-978.32 81.3755 2984
-969.557 81.2392 2979
-962.433 81.2392 2979
-955.31 81.2392 2979
-948.186 81.2392 2979
-941.062 81.2392 2979
-930.49 80.9392 2968
-923.392 80.9392 2968
-916.295 80.9392 2968
-907.666 80.8029 2963
-900.581 80.8029 2963
-891.987 80.6665 2958
-884.914 80.6665 2958
-874.576 80.3665 2947
-867.529 80.3665 2947
-860.482 80.3665 2947
-853.435 80.3665 2947
-846.387 80.3665 2947
-839.34 80.3665 2947
-830.881 80.2302 2942
-823.846 80.2302 2942
-816.81 80.2302 2942
-808.399 80.0938 2937
-800.011 79.9575 2932
-791.648 79.8211 2927
-784.648 79.8211 2927
-777.649 79.8211 2927
-769.333 79.6848 2922
-762.346 79.6848 2922
-755.359 79.6848 2922
-748.371 79.6848 2922
-742.652 79.8211 2927
-736.91 79.9575 2932
-729.898 79.9575 2932
-722.887 79.9575 2932
-715.876 79.9575 2932
-707.656 79.8211 2927
-700.656 79.8211 2927
-689.865 79.3848 2911
-681.731 79.2484 2906
-673.621 79.1121 2901
-666.684 79.1121 2901
-658.61 78.9757 2896
-651.684 78.9757 2896
-644.759 78.9757 2896
-637.834 78.9757 2896
-628.73 78.703 2886
-621.829 78.703 2886
-615.993 78.8394 2891
-611.187 79.1121 2901
-604.249 79.1121 2901
-599.371 79.3848 2911
-592.41 79.3848 2911
-589.672 79.9575 2932
-582.661 79.9575 2932
-575.65 79.9575 2932
-680.536 100.656 3691
-671.709 100.656 3691
-665.756 101.092 3707
-658.487 101.338 3716
-649.601 101.338 3716
-640.715 101.338 3716
-633.189 101.556 3724
-624.283 101.556 3724
-615.378 101.556 3724
-603.704 101.092 3707
-590.989 100.438 3683
-575.701 99.3196 3642
-565.902 99.1287 3635
-557.209 99.1287 3635
-547.31 98.9106 3627
-539.825 99.1287 3635
-531.132 99.1287 3635
-522.44 99.1287 3635
-509.225 98.2561 3603
-500.609 98.2561 3603
-281.199 57.1592 2096
-276.186 57.1592 2096
-271.174 57.1592 2096
-265.781 57.0774 2093
-260.776 57.0774 2093
-255.527 57.0229 2091
-249.808 56.8593 2085
-244.235 56.7229 2080
-239.261 56.7229 2080
-234.062 56.6684 2078
-229.092 56.6684 2078
-224.123 56.6684 2078
-219.154 56.6684 2078
-213.876 56.5865 2075
-208.914 56.5865 2075
-204.443 56.7229 2080
-200.237 56.9411 2088
-195.711 57.0774 2093
-190.706 57.0774 2093
-185.967 57.1592 2096
-181.387 57.2956 2101
-176.615 57.3774 2104
-171.583 57.3774 2104
-166.71 57.4319 2106
-161.674 57.4319 2106
-157.084 57.5956 2112
-152.034 57.5956 2112
-147.123 57.6501 2114
-142.269 57.7319 2117
-137.401 57.8137 2120
-132.332 57.8137 2120
-127.562 57.9501 2125
-122.481 57.9501 2125
-117.399 57.9501 2125
-112.318 57.9501 2125
-107.236 57.9501 2125
-102.155 57.9501 2125
-97.073 57.9501 2125
-91.775 57.8137 2120
-86.5828 57.7319 2117
-81.3279 57.5956 2112
-76.2774 57.5956 2112
-71.0247 57.4319 2106
-65.8319 57.2956 2101
-60.8078 57.2956 2101
-55.7836 57.2956 2101
-50.687 57.2138 2098
-45.6701 57.2138 2098
-40.6531 57.2138 2098
-35.6362 57.2138 2098
-30.59 57.1592 2096
-25.5779 57.1592 2096
-20.5363 57.0774 2093
-15.5313 57.0774 2093
-10.5263 57.0774 2093
-5.52126 57.0774 2093
-0.516263 57.0774 2093
4.48873 57.0774 2093
9.49373 57.0774 2093
14.4987 57.0774 2093
19.5037 57.0774 2093
24.5087 57.0774 2093
29.5137 57.0774 2093
34.5187 57.0774 2093
39.5237 57.0774 2093
44.5287 57.0774 2093
49.6047 57.1592 2096
54.6169 57.1592 2096
59.6291 57.1592 2096
64.6412 57.1592 2096
69.7199 57.2138 2098
74.7368 57.2138 2098
79.8678 57.2956 2101
85.094 57.4319 2106
90.3868 57.5956 2112
95.4373 57.5956 2112
100.583 57.6501 2114
105.788 57.7319 2117
111.007 57.8137 2120
116.351 57.9501 2125
121.432 57.9501 2125
126.99 58.1682 2133
132.648 58.4137 2142
137.77 58.4137 2142
142.892 58.4137 2142
148.775 58.7137 2153
154.281 58.85 2158
159.663 58.9318 2161
164.83 58.9318 2161
170.234 59.0136 2164
175.814 59.15 2169
181.501 59.3136 2175
186.703 59.3136 2175
192.698 59.559 2184
198.373 59.6954 2189
203.887 59.7772 2192
209.129 59.7772 2192
214.664 59.859 2195
220.213 59.9408 2198
226.085 60.1045 2204
231.355 60.1045 2204
238.129 60.4862 2218
244.091 60.6499 2224
250.082 60.8135 2230
255.415 60.8135 2230
261.098 60.8953 2233
266.438 60.8953 2233
271.778 60.8953 2233
277.118 60.8953 2233
282.078 60.8135 2230
287.024 60.7317 2227
292.349 60.7317 2227
296.472 60.4862 2218
300.687 60.2681 2210
434.539 81.3755 2984
441.674 81.3755 2984
448.81 81.3755 2984
453.501 80.9392 2968
460.598 80.9392 2968
466.908 80.8029 2963
473.993 80.8029 2963
481.078 80.8029 2963
488.164 80.8029 2963
494.414 80.6665 2958
500.639 80.5302 2953
505.81 80.2302 2942
511.102 79.9575 2932
518.113 79.9575 2932
524.229 79.8211 2927
531.228 79.8211 2927
537.308 79.6848 2922
544.295 79.6848 2922
551.283 79.6848 2922
558.27 79.6848 2922
565.258 79.6848 2922
572.245 79.6848 2922
578.241 79.5484 2917
585.217 79.5484 2917
590.974 79.3848 2911
597.935 79.3848 2911
604.896 79.3848 2911
611.857 79.3848 2911
617.755 79.2484 2906
624.705 79.2484 2906
631.654 79.2484 2906
638.603 79.2484 2906
645.552 79.2484 2906
652.501 79.2484 2906
659.45 79.2484 2906
665.253 79.1121 2901
672.19 79.1121 2901
679.127 79.1121 2901
686.064 79.1121 2901
693.001 79.1121 2901
699.939 79.1121 2901
706.876 79.1121 2901
715.043 79.2484 2906
721.992 79.2484 2906
728.942 79.2484 2906
735.891 79.2484 2906
742.84 79.2484 2906
749.789 79.2484 2906
758.04 79.3848 2911
766.578 79.5484 2917
773.553 79.5484 2917
780.529 79.5484 2917
787.504 79.5484 2917
794.48 79.5484 2917
802.829 79.6848 2922
809.816 79.6848 2922
816.804 79.6848 2922
823.791 79.6848 2922
830.778 79.6848 2922
837.766 79.6848 2922
843.308 79.5484 2917
850.283 79.5484 2917
858.728 79.6848 2922
865.715 79.6848 2922
872.703 79.6848 2922
879.69 79.6848 2922
886.677 79.6848 2922
893.665 79.6848 2922
899.111 79.5484 2917
907.64 79.6848 2922
914.627 79.6848 2922
924.768 79.9575 2932
931.78 79.9575 2932
943.594 80.3665 2947
957.415 80.9392 2968
968.087 81.2392 2979
975.211 81.2392 2979
982.335 81.2392 2979
1009.39 82.8754 3039
1029.7 83.939 3078
1037.06 83.939 3078
1062.07 85.3571 3130
1094.15 87.3205 3202
1127.96 89.3931 3278
1135.8 89.3931 3278
1205.04 94.1927 3454
1213.3 94.1927 3454
1266.12 97.6288 3580
1274.69 97.6288 3580
1317.3 100.22 3675
1326.09 100.22 3675
1334.88 100.22 3675
1334.52 99.5378 3650
1337.73 99.1287 3635
1351.98 99.5378 3650
1360.71 99.5378 3650
1369.44 99.5378 3650
1378.16 99.5378 3650
1386.89 99.5378 3650
1395.62 99.5378 3650
1401.27 99.3196 3642
1401.08 98.6924 3619
1397.65 97.847 3588
1406.23 97.847 3588
1405.74 97.2198 3565
1407.92 96.7834 3549
1416.41 96.7834 3549
1413.25 95.9926 3520
1421.67 95.9926 3520
1415.06 94.9836 3483
1420.52 94.7927 3476
1416.92 94.0018 3447
1425.16 94.0018 3447
1418.85 93.0474 3412
1418.22 92.4747 3391
1417.5 91.902 3370
1425.56 91.902 3370
1425.11 91.3566 3350
1421.57 90.6203 3323
1426.93 90.4567 3317
1434.87 90.4567 3317
1445.41 90.6203 3323
1453.35 90.6203 3323
1473.17 91.3566 3350
1530.26 94.3836 3461
1558.1 95.5835 3505
1566.48 95.5835 3505
1584.75 96.1835 3527
1610.34 97.2198 3565
1618.87 97.2198 3565
1627.39 97.2198 3565
1649.69 98.0379 3595
1658.28 98.0379 3595
1666.88 98.0379 3595
1675.48 98.0379 3595
1684.07 98.0379 3595
1685.61 97.6288 3580
1694.17 97.6288 3580
1691.79 97.0016 3557
1700.3 97.0016 3557
1704.96 96.7834 3549
1713.44 96.7834 3549
1721.93 96.7834 3549
1716.28 95.9926 3520
1710 95.1745 3490
1707.51 94.5745 3468
1715.8 94.5745 3468
1720.62 94.3836 3461
1707.91 93.2383 3419
1698.52 92.2838 3384
1706.61 92.2838 3384
1701.02 91.5475 3357
1681.56 90.0749 3303
1679.74 89.5567 3284
1687.59 89.5567 3284
1688.73 89.2022 3271
1693.44 89.0386 3265
1691.35 88.5204 3246
1695.45 88.3296 3239
1703.2 88.3296 3239
1710.94 88.3296 3239
1718.69 88.3296 3239
1723.23 88.1659 3233
1730.97 88.1659 3233
1728.48 87.6478 3214
1729.68 87.3205 3202
1724.32 86.666 3178
1731.92 86.666 3178
1736.23 86.5024 3172
1733.92 86.0116 3154
1728.21 85.3571 3130
1719.62 84.5662 3101
1727.03 84.5662 3101
1705.92 83.1754 3050
1685.13 81.8119 3000
1671.43 80.8029 2963
1678.52 80.8029 2963
1665.12 79.8211 2927
1648.7 78.703 2886
1649.86 78.4303 2876
1653.86 78.294 2871
1660.73 78.294 2871
1662.36 78.0485 2862
1660.46 77.6395 2847
1661.41 77.3668 2837
1668.2 77.3668 2837
1669.67 77.1213 2828
1670.5 76.8486 2818
1674.26 76.7123 2813
1680.99 76.7123 2813
1687.72 76.7123 2813
1692.03 76.6032 2809
1698.75 76.6032 2809
1702.43 76.4668 2804
1709.14 76.4668 2804
1712.78 76.3305 2799
1719.48 76.3305 2799
1723.09 76.1941 2794
1729.77 76.1941 2794
1727.75 75.8123 2780
1731.9 75.7033 2776
1738.54 75.7033 2776
1745.18 75.7033 2776
1746.14 75.4578 2767
1746.42 75.1851 2757
1750.47 75.076 2753
1757.05 75.076 2753
1763.63 75.076 2753
1770.22 75.076 2753
1776.8 75.076 2753
1780.14 74.9397 2748
1786.72 74.9397 2748
1793.29 74.9397 2748
1797.24 74.8306 2744
1800.51 74.6942 2739
1807.06 74.6942 2739
1810.96 74.5852 2735
1817.5 74.5852 2735
1820.71 74.4488 2730
1827.24 74.4488 2730
1833.77 74.4488 2730
1834.23 74.2034 2721
1838.03 74.0943 2717
1844.53 74.0943 2717
1851.02 74.0943 2717
1857.52 74.0943 2717
1864.02 74.0943 2717
1870.51 74.0943 2717
1877.01 74.0943 2717
1883.51 74.0943 2717
1887.22 73.9852 2713
1887.43 73.7398 2704
1893.9 73.7398 2704
1900.36 73.7398 2704
1906.83 73.7398 2704
1909.76 73.6034 2699
1916.21 73.6034 2699
1919.81 73.4943 2695
1926.26 73.4943 2695
1932.7 73.4943 2695
1932.67 73.2489 2686
1939.1 73.2489 2686
1945.52 73.2489 2686
1951.94 73.2489 2686
1955.45 73.1398 2682
1961.86 73.1398 2682
1961.67 72.8944 2673
1965.12 72.7853 2669
1968.54 72.6762 2665
1974.92 72.6762 2665
1971.63 72.3217 2652
1974.98 72.2126 2648
1981.32 72.2126 2648
1987.65 72.2126 2648
1987.96 71.9945 2640
1994.27 71.9945 2640
2006.64 72.2126 2648
2016.02 72.3217 2652
2032.27 72.6762 2665
2038.65 72.6762 2665
-2081.45 82.4719 2780
-2074.81 82.4719 2780
-2071.88 82.6202 2785
-2065.22 82.6202 2785
-2058.56 82.6202 2785
-2055.58 82.7685 2790
-2051.85 82.8872 2794
-2045.17 82.8872 2794
-2038.49 82.8872 2794
-2031.8 82.8872 2794
-2025.12 82.8872 2794
-2011.94 82.6202 2785
-1998.8 82.3532 2776
-1978.53 81.7895 2757
-1971.93 81.7895 2757
-1958.93 81.5225 2748
-1949.51 81.4039 2744
-1923.83 80.6029 2717
-1917.34 80.6029 2717
-1908.03 80.4842 2713
-1913.45 80.9885 2730
-1932.77 82.0862 2767
-1926.15 82.0862 2767
-1919.54 82.0862 2767
-1928.82 82.7685 2790
-1922.15 82.7685 2790
-1915.48 82.7685 2790
-2172.82 115.639 3898
-2163.5 115.639 3898
-2154.18 115.639 3898
-2100.84 113.265 3818
-2086.78 112.998 3809
-2077.67 112.998 3809
-2049.56 111.96 3774
-2004.31 109.972 3707
-1960.45 108.044 3642
-1973.71 109.26 3683
-1964.91 109.26 3683
-1956.1 109.26 3683
-1947.29 109.26 3683
-1938.49 109.26 3683
-1929.68 109.26 3683
-1916.7 109.023 3675
-1929.2 110.239 3716
-1920.31 110.239 3716
-1911.42 110.239 3716
-1885.64 109.26 3683
-1880.91 109.498 3691
-1872.09 109.498 3691
-1863.26 109.498 3691
-1763.83 115.105 3880
-1754.55 115.105 3880
-1745.27 115.105 3880
-1715.86 113.77 3835
-1687.55 112.494 3792
-1356.88 97.8092 3297
-1349 97.8092 3297
-1341.11 97.8092 3297
-1333.23 97.8092 3297
-1320.12 97.4236 3284
-1219.25 92.1727 3107
-1211.82 92.1727 3107
-1204.39 92.1727 3107
-1194.65 91.9947 3101
-1180.73 91.4904 3084
-1162.32 90.63 3055
-1155.01 90.63 3055
-1137.56 89.8291 3028
-1104.19 87.7524 2958
-1095.26 87.6041 2953
-1088.2 87.6041 2953
-1084.8 87.9008 2963
-1077.72 87.9008 2963
-1070.63 87.9008 2963
-1063.55 87.9008 2963
-1062.16 88.3754 2979
-1055.04 88.3754 2979
-1047.92 88.3754 2979
-1040.79 88.3754 2979
-1033.67 88.3754 2979
-1026.55 88.3754 2979
-1019.42 88.3754 2979
-1012.3 88.3754 2979
-1006.86 88.5237 2984
-999.727 88.5237 2984
-992.591 88.5237 2984
-985.456 88.5237 2984
-978.32 88.5237 2984
-969.557 88.3754 2979
-962.433 88.3754 2979
-955.31 88.3754 2979
-948.186 88.3754 2979
-941.062 88.3754 2979
-930.49 88.0491 2968
-923.392 88.0491 2968
-916.295 88.0491 2968
-907.666 87.9008 2963
-900.581 87.9008 2963
-891.987 87.7524 2958
-884.914 87.7524 2958
-874.576 87.4261 2947
-867.529 87.4261 2947
-860.482 87.4261 2947
-853.435 87.4261 2947
-846.387 87.4261 2947
-839.34 87.4261 2947
-830.881 87.2778 2942
-823.846 87.2778 2942
-816.81 87.2778 2942
-808.399 87.1294 2937
-800.011 86.9811 2932
-791.648 86.8328 2927
-784.648 86.8328 2927
-777.649 86.8328 2927
-769.333 86.6844 2922
-762.346 86.6844 2922
-755.359 86.6844 2922
-748.371 86.6844 2922
-742.652 86.8328 2927
-736.91 86.9811 2932
-729.898 86.9811 2932
-722.887 86.9811 2932
-715.876 86.9811 2932
-707.656 86.8328 2927
-700.656 86.8328 2927
-689.865 86.3581 2911
-681.731 86.2098 2906
-673.621 86.0615 2901
-666.684 86.0615 2901
-658.61 85.9131 2896
-651.684 85.9131 2896
-644.759 85.9131 2896
-637.834 85.9131 2896
-628.73 85.6165 2886
-621.829 85.6165 2886
-615.993 85.7648 2891
-610.133 85.9131 2896
-604.249 86.0615 2901
-597.312 86.0615 2901
-590.375 86.0615 2901
-583.438 86.0615 2901
-576.501 86.0615 2901
-680.536 109.498 3691
-671.709 109.498 3691
-665.756 109.972 3707
-658.487 110.239 3716
-649.601 110.239 3716
-640.715 110.239 3716
-633.189 110.477 3724
-624.283 110.477 3724
-615.378 110.477 3724
-603.704 109.972 3707
-590.989 109.26 3683
-575.701 108.044 3642
-565.902 107.836 3635
-557.209 107.836 3635
-547.31 107.599 3627
-539.825 107.836 3635
-531.132 107.836 3635
-522.44 107.836 3635
-509.225 106.887 3603
-500.609 106.887 3603
-281.199 62.1802 2096
-276.186 62.1802 2096
-271.174 62.1802 2096
-265.781 62.0912 2093
-260.776 62.0912 2093
-255.527 62.0319 2091
-249.808 61.8539 2085
-244.235 61.7056 2080
-239.261 61.7056 2080
-234.062 61.6462 2078
-229.092 61.6462 2078
-224.123 61.6462 2078
-219.154 61.6462 2078
-213.876 61.5572 2075
-208.914 61.5572 2075
-204.443 61.7056 2080
-200.237 61.9429 2088
-195.711 62.0912 2093
-190.706 62.0912 2093
-185.967 62.1802 2096
-181.387 62.3285 2101
-176.615 62.4175 2104
-171.583 62.4175 2104
-166.71 62.4769 2106
-161.674 62.4769 2106
-157.084 62.6549 2112
-152.034 62.6549 2112
-147.123 62.7142 2114
-142.269 62.8032 2117
-137.401 62.8922 2120
-132.332 62.8922 2120
-127.562 63.0405 2125
-122.481 63.0405 2125
-117.399 63.0405 2125
-112.318 63.0405 2125
-107.236 63.0405 2125
-102.155 63.0405 2125
-97.073 63.0405 2125
-91.775 62.8922 2120
-86.5828 62.8032 2117
-81.3279 62.6549 2112
-76.2774 62.6549 2112
-71.0247 62.4769 2106
-65.8319 62.3285 2101
-60.8078 62.3285 2101
-55.7836 62.3285 2101
-50.687 62.2395 2098
-45.6701 62.2395 2098
-40.6531 62.2395 2098
-35.6362 62.2395 2098
-30.59 62.1802 2096
-25.5779 62.1802 2096
-20.5363 62.0912 2093
-15.5313 62.0912 2093
-10.5263 62.0912 2093
-5.52126 62.0912 2093
-0.516263 62.0912 2093
4.48873 62.0912 2093
9.49373 62.0912 2093
14.4987 62.0912 2093
19.5037 62.0912 2093
24.5087 62.0912 2093
29.5137 62.0912 2093
34.5187 62.0912 2093
39.5237 62.0912 2093
44.5925 62.1802 2096
49.6047 62.1802 2096
54.6169 62.1802 2096
59.686 62.2395 2098
64.7029 62.2395 2098
69.8196 62.3285 2101
74.8437 62.3285 2101
79.9818 62.4175 2104
85.2152 62.5659 2109
90.4724 62.7142 2114
95.5276 62.7142 2114
100.726 62.8032 2117
105.938 62.8922 2120
111.112 62.9515 2122
116.515 63.1295 2128
121.604 63.1295 2128
126.99 63.2779 2133
132.648 63.5449 2142
137.899 63.6042 2144
143.026 63.6042 2144
148.775 63.8712 2153
154.281 64.0195 2158
159.884 64.1975 2164
165.059 64.1975 2164
170.627 64.3458 2169
176.3 64.5238 2175
182.002 64.7018 2181
187.218 64.7018 2181
192.874 64.8502 2186
198.645 65.0282 2192
204.166 65.1172 2195
209.415 65.1172 2195
214.957 65.2062 2198
220.814 65.3842 2204
227.008 65.6512 2213
232.3 65.6512 2213
238.773 65.9775 2224
244.75 66.1555 2230
250.419 66.2445 2233
255.759 66.2445 2233
261.098 66.2445 2233
266.796 66.3335 2236
272.143 66.3335 2236
277.49 66.3335 2236
282.837 66.3335 2236
288.184 66.3335 2236
293.531 66.3335 2236
297.675 66.0665 2227
300.687 65.5622 2210
434.539 88.5237 2984
441.674 88.5237 2984
448.81 88.5237 2984
452.737 87.9008 2963
459.822 87.9008 2963
466.908 87.9008 2963
473.993 87.9008 2963
481.078 87.9008 2963
488.164 87.9008 2963
495.249 87.9008 2963
501.487 87.7524 2958
506.669 87.4261 2947
512.845 87.2778 2942
519.88 87.2778 2942
525.124 86.9811 2932
532.136 86.9811 2932
539.147 86.9811 2932
546.158 86.9811 2932
552.226 86.8328 2927
559.226 86.8328 2927
566.225 86.8328 2927
573.224 86.8328 2927
579.232 86.6844 2922
585.217 86.5361 2917
592.192 86.5361 2917
599.168 86.5361 2917
606.143 86.5361 2917
611.857 86.3581 2911
618.818 86.3581 2911
625.779 86.3581 2911
632.741 86.3581 2911
639.702 86.3581 2911
645.552 86.2098 2906
652.501 86.2098 2906
659.45 86.2098 2906
665.253 86.0615 2901
672.19 86.0615 2901
679.127 86.0615 2901
686.064 86.0615 2901
693.001 86.0615 2901
699.939 86.0615 2901
706.876 86.0615 2901
715.043 86.2098 2906
721.992 86.2098 2906
728.942 86.2098 2906
735.891 86.2098 2906
742.84 86.2098 2906
749.789 86.2098 2906
758.04 86.3581 2911
766.578 86.5361 2917
773.553 86.5361 2917
780.529 86.5361 2917
787.504 86.5361 2917
794.48 86.5361 2917
802.829 86.6844 2922
809.816 86.6844 2922
816.804 86.6844 2922
823.791 86.6844 2922
830.778 86.6844 2922
837.766 86.6844 2922
844.753 86.6844 2922
851.741 86.6844 2922
858.728 86.6844 2922
867.197 86.8328 2927
874.196 86.8328 2927
881.195 86.8328 2927
888.195 86.8328 2927
895.194 86.8328 2927
900.652 86.6844 2922
907.64 86.6844 2922
914.627 86.6844 2922
924.768 86.9811 2932
931.78 86.9811 2932
943.594 87.4261 2947
957.415 88.0491 2968
968.087 88.3754 2979
975.211 88.3754 2979
982.335 88.3754 2979
1009.39 90.1554 3039
1029.7 91.3124 3078
1037.06 91.3124 3078
1062.07 92.855 3130
1094.15 94.991 3202
1127.96 97.2456 3278
1135.8 97.2456 3278
1205.04 102.467 3454
1213.3 102.467 3454
1266.12 106.205 3580
1274.69 106.205 3580
1317.3 109.023 3675
1326.09 109.023 3675
1334.88 109.023 3675
1343.66 109.023 3675
1352.45 109.023 3675
1367.17 109.498 3691
1375.99 109.498 3691
1384.82 109.498 3691
1393.64 109.498 3691
1399.43 109.26 3683
1408.24 109.26 3683
1413.97 109.023 3675
1407.27 107.836 3635
1403.5 106.887 3603
1412.11 106.887 3603
1417.57 106.65 3595
1423.39 106.442 3588
1422.79 105.76 3565
1424.9 105.285 3549
1433.38 105.285 3549
1420.74 103.742 3497
1420.52 103.119 3476
1416.92 102.259 3447
1425.16 102.259 3447
1418.85 101.221 3412
1418.22 100.598 3391
1417.5 99.9749 3370
1425.56 99.9749 3370
1425.11 99.3815 3350
1424.56 98.7882 3330
1432.53 98.7882 3330
1440.49 98.7882 3330
1451.5 98.9959 3337
1459.48 98.9959 3337
1476.25 99.5892 3357
1536.89 103.119 3476
1567.88 104.632 3527
1576.31 104.632 3527
1598.23 105.522 3557
1623.9 106.65 3595
1636.13 106.887 3603
1644.74 106.887 3603
1674.92 108.281 3650
1683.65 108.281 3650
1692.38 108.281 3650
1701.11 108.281 3650
1709.84 108.281 3650
1711.5 107.836 3635
1720.2 107.836 3635
1709.86 106.65 3595
1718.46 106.65 3595
1727.06 106.65 3595
1735.65 106.65 3595
1733.09 105.967 3572
1730.42 105.285 3549
1728.13 104.632 3527
1718.34 103.535 3490
1726.69 103.535 3490
1720.62 102.674 3461
1714.91 101.844 3433
1709.06 101.013 3405
1717.2 101.013 3405
1711.16 100.183 3377
1681.56 97.9872 3303
1679.74 97.4236 3284
1687.59 97.4236 3284
1688.73 97.0379 3271
1693.44 96.8599 3265
1691.35 96.2963 3246
1695.45 96.0886 3239
1703.2 96.0886 3239
1710.94 96.0886 3239
1718.69 96.0886 3239
1723.23 95.9106 3233
1730.97 95.9106 3233
1728.48 95.347 3214
1729.68 94.991 3202
1724.32 94.279 3178
1731.92 94.279 3178
1736.23 94.101 3172
1733.92 93.567 3154
1728.21 92.855 3130
1719.62 91.9947 3101
1727.03 91.9947 3101
1705.92 90.4817 3050
1685.13 88.9984 3000
1671.43 87.9008 2963
1678.52 87.9008 2963
1665.12 86.8328 2927
1648.7 85.6165 2886
1649.86 85.3198 2876
1653.86 85.1715 2871
1660.73 85.1715 2871
1662.36 84.9045 2862
1663.38 84.6078 2852
1661.41 84.1628 2837
1668.2 84.1628 2837
1669.67 83.8958 2828
1673.46 83.7475 2823
1677.24 83.5992 2818
1683.98 83.5992 2818
1690.72 83.5992 2818
1694.44 83.4508 2813
1698.75 83.3322 2809
1705.47 83.3322 2809
1712.19 83.3322 2809
1715.84 83.1838 2804
1719.48 83.0355 2799
1723.09 82.8872 2794
1729.77 82.8872 2794
1730.86 82.6202 2785
1734.4 82.4719 2780
1738.54 82.3532 2776
1745.18 82.3532 2776
1748.66 82.2049 2771
1752.75 82.0862 2767
1756.19 81.9379 2762
1762.79 81.9379 2762
1766.2 81.7895 2757
1772.79 81.7895 2757
1779.38 81.7895 2757
1785.97 81.7895 2757
1792.57 81.7895 2757
1796.55 81.6709 2753
1803.13 81.6709 2753
1806.43 81.5225 2748
1813 81.5225 2748
1816.92 81.4039 2744
1823.49 81.4039 2744
1826.71 81.2555 2739
1833.26 81.2555 2739
1839.81 81.2555 2739
1840.3 80.9885 2730
1844.12 80.8699 2726
1850.64 80.8699 2726
1857.15 80.8699 2726
1863.67 80.8699 2726
1870.19 80.8699 2726
1873.27 80.7215 2721
1879.78 80.7215 2721
1886.28 80.7215 2721
1892.79 80.7215 2721
1896.5 80.6029 2717
1903 80.6029 2717
1903.17 80.3359 2708
1909.65 80.3359 2708
1916.12 80.3359 2708
1922.6 80.3359 2708
1922.66 80.0689 2699
1929.12 80.0689 2699
1932.7 79.9502 2695
1936.27 79.8316 2691
1942.71 79.8316 2691
1949.14 79.8316 2691
1955.58 79.8316 2691
1958.36 79.6832 2686
1964.79 79.6832 2686
1968.28 79.5646 2682
1971.74 79.4459 2678
1971.5 79.1789 2669
1977.88 79.1789 2669
1978.32 78.9416 2661
1977.97 78.6746 2652
1981.32 78.5559 2648
1987.65 78.5559 2648
1990.97 78.4373 2644
1997.29 78.4373 2644
2006.64 78.5559 2648
2025.9 79.0602 2665
2045.24 79.5646 2682
2051.65 79.5646 2682
-2081.45 89.1314 2780
-2074.81 89.1314 2780
-2071.88 89.2917 2785
-2065.22 89.2917 2785
-2058.56 89.2917 2785
-2055.58 89.452 2790
-2048.91 89.452 2790
-2042.24 89.452 2790
-2035.57 89.452 2790
-2028.9 89.452 2790
-2022.22 89.452 2790
-2008.33 89.1314 2780
-1998.8 89.0031 2776
-1978.53 88.394 2757
-1971.93 88.394 2757
-1930.41 86.8229 2708
-1905.46 85.9893 2682
-1899.05 85.9893 2682
-1914.51 86.9832 2713
-1908.03 86.9832 2713
-1913.45 87.5283 2730
-1922.99 88.2657 2753
-1926.15 88.7146 2767
-1919.54 88.7146 2767
-1928.82 89.452 2790
-1922.15 89.452 2790
-1915.48 89.452 2790
-2114.11 122.123 3809
-2105 122.123 3809
-2095.89 122.123 3809
-2086.78 122.123 3809
-2077.67 122.123 3809
-2045.21 120.744 3766
-1991.33 118.083 3683
-1956.68 116.544 3635
-1965.14 117.57 3667
-1956.37 117.57 3667
-1947.6 117.57 3667
-1938.83 117.57 3667
-1930.06 117.57 3667
-1921.3 117.57 3667
-1938.08 119.141 3716
-1937.5 119.654 3732
-1928.58 119.654 3732
-1919.65 119.654 3732
-1767.92 124.688 3889
-1758.62 124.688 3889
-1749.32 124.688 3889
-1715.86 122.956 3835
-1380.98 106.348 3317
-1373.05 106.348 3317
-1365.11 106.348 3317
-1351.45 105.9 3303
-1343.56 105.9 3303
-1333.23 105.707 3297
-1320.12 105.29 3284
-1202.85 98.8781 3084
-1195.47 98.8781 3084
-1188.1 98.8781 3084
-1180.73 98.8781 3084
-1153.95 97.243 3033
-1146.69 97.243 3033
-1119.15 95.5116 2979
-1100.09 94.4857 2947
-1093.04 94.4857 2947
-1088.2 94.678 2953
-1084.8 94.9986 2963
-1077.72 94.9986 2963
-1070.63 94.9986 2963
-1065.34 95.159 2968
-1062.16 95.5116 2979
-1055.04 95.5116 2979
-1051.79 95.8643 2990
-1044.64 95.8643 2990
-1037.49 95.8643 2990
-1028.27 95.6719 2984
-1021.13 95.6719 2984
-1014 95.6719 2984
-1006.86 95.6719 2984
-999.727 95.6719 2984
-992.591 95.6719 2984
-985.456 95.6719 2984
-978.32 95.6719 2984
-971.184 95.6719 2984
-964.049 95.6719 2984
-956.913 95.6719 2984
-949.777 95.6719 2984
-942.642 95.6719 2984
-932.371 95.3513 2974
-925.259 95.3513 2974
-918.147 95.3513 2974
-909.198 95.159 2968
-900.581 94.9986 2963
-891.987 94.8383 2958
-884.914 94.8383 2958
-874.576 94.4857 2947
-867.529 94.4857 2947
-860.482 94.4857 2947
-853.435 94.4857 2947
-846.387 94.4857 2947
-839.34 94.4857 2947
-830.881 94.3254 2942
-823.846 94.3254 2942
-816.81 94.3254 2942
-808.399 94.165 2937
-800.011 94.0047 2932
-791.648 93.8444 2927
-784.648 93.8444 2927
-777.649 93.8444 2927
-770.65 93.8444 2927
-763.651 93.8444 2927
-756.651 93.8444 2927
-749.652 93.8444 2927
-742.652 93.8444 2927
-738.166 94.165 2937
-731.143 94.165 2937
-724.12 94.165 2937
-717.097 94.165 2937
-710.073 94.165 2937
-703.05 94.165 2937
-691.287 93.5238 2917
-682.904 93.3314 2911
-674.782 93.1711 2906
-667.833 93.1711 2906
-659.747 93.0108 2901
-652.81 93.0108 2901
-644.759 92.8505 2896
-637.834 92.8505 2896
-630.909 92.8505 2896
-622.906 92.6902 2891
-615.993 92.6902 2891
-610.133 92.8505 2896
-604.249 93.0108 2901
-597.312 93.0108 2901
-590.375 93.0108 2901
-583.438 93.0108 2901
-576.501 93.0108 2901
-680.536 118.34 3691
-671.709 118.34 3691
-668.81 119.398 3724
-664.334 120.199 3749
-655.369 120.199 3749
-646.404 120.199 3749
-637.439 120.199 3749
-628.474 120.199 3749
-619.509 120.199 3749
-606.473 119.398 3724
-594.84 118.853 3707
-582.182 118.083 3683
-566.992 116.769 3642
-558.282 116.769 3642
-549.573 116.769 3642
-540.864 116.769 3642
-532.155 116.769 3642
-523.446 116.769 3642
-509.225 115.518 3603
-500.609 115.518 3603
-280.796 67.105 2093
-275.791 67.105 2093
-270.786 67.105 2093
-265.527 67.0409 2091
-260.527 67.0409 2091
-254.549 66.7844 2083
-249.568 66.7844 2083
-244.235 66.6882 2080
-239.261 66.6882 2080
-234.062 66.6241 2078
-229.092 66.6241 2078
-224.123 66.6241 2078
-219.154 66.6241 2078
-214.185 66.6241 2078
-209.216 66.6241 2078
-204.443 66.6882 2080
-200.524 67.0409 2091
-195.992 67.2012 2096
-190.98 67.2012 2096
-185.967 67.2012 2096
-181.387 67.3615 2101
-176.782 67.5218 2106
-171.746 67.5218 2106
-166.948 67.618 2109
-162.135 67.7142 2112
-157.084 67.7142 2112
-152.034 67.7142 2112
-147.331 67.8745 2117
-142.269 67.8745 2117
-137.531 68.0348 2122
-132.456 68.0348 2122
-127.562 68.131 2125
-122.481 68.131 2125
-117.399 68.131 2125
-112.318 68.131 2125
-107.236 68.131 2125
-102.155 68.131 2125
-97.073 68.131 2125
-91.775 67.9707 2120
-86.5828 67.8745 2117
-81.3279 67.7142 2112
-76.2774 67.7142 2112
-71.0247 67.5218 2106
-65.9259 67.4577 2104
-60.8078 67.3615 2101
-55.7836 67.3615 2101
-50.7595 67.3615 2101
-45.6701 67.2653 2098
-40.6531 67.2653 2098
-35.6362 67.2653 2098
-30.59 67.2012 2096
-25.5779 67.2012 2096
-20.5657 67.2012 2096
-15.5313 67.105 2093
-10.5263 67.105 2093
-5.52126 67.105 2093
-0.516263 67.105 2093
4.48873 67.105 2093
9.49373 67.105 2093
14.4987 67.105 2093
19.5037 67.105 2093
24.5087 67.105 2093
29.5137 67.105 2093
34.5187 67.105 2093
39.5237 67.105 2093
44.5925 67.2012 2096
49.6047 67.2012 2096
54.6169 67.2012 2096
59.686 67.2653 2098
64.7029 67.2653 2098
69.8196 67.3615 2101
74.8437 67.3615 2101
79.9818 67.4577 2104
85.2152 67.618 2109
90.4724 67.7783 2114
95.5276 67.7783 2114
100.726 67.8745 2117
105.938 67.9707 2120
111.112 68.0348 2122
116.515 68.2272 2128
121.604 68.2272 2128
126.99 68.3875 2133
132.648 68.676 2142
137.899 68.7402 2144
143.026 68.7402 2144
148.775 69.0287 2153
154.281 69.189 2158
159.884 69.3814 2164
165.059 69.3814 2164
170.627 69.5417 2169
176.3 69.7341 2175
182.002 69.9264 2181
187.218 69.9264 2181
192.874 70.0868 2186
198.645 70.2791 2192
204.166 70.3753 2195
209.415 70.3753 2195
214.957 70.4715 2198
220.814 70.6639 2204
227.008 70.9524 2213
232.3 70.9524 2213
238.773 71.3051 2224
244.75 71.4975 2230
250.419 71.5937 2233
255.759 71.5937 2233
261.098 71.5937 2233
266.796 71.6898 2236
272.143 71.6898 2236
277.49 71.6898 2236
282.837 71.6898 2236
288.184 71.6898 2236
293.531 71.6898 2236
297.675 71.4013 2227
300.687 70.8562 2210
432.209 95.159 2968
439.306 95.159 2968
446.403 95.159 2968
452.737 94.9986 2963
459.822 94.9986 2963
466.12 94.8383 2958
473.193 94.8383 2958
481.078 94.9986 2963
488.164 94.9986 2963
495.249 94.9986 2963
501.487 94.8383 2958
506.669 94.4857 2947
512.845 94.3254 2942
519.88 94.3254 2942
525.124 94.0047 2932
532.136 94.0047 2932
539.147 94.0047 2932
546.158 94.0047 2932
552.226 93.8444 2927
559.226 93.8444 2927
566.225 93.8444 2927
573.224 93.8444 2927
579.232 93.6841 2922
585.217 93.5238 2917
592.192 93.5238 2917
599.168 93.5238 2917
606.143 93.5238 2917
611.857 93.3314 2911
618.818 93.3314 2911
625.779 93.3314 2911
632.741 93.3314 2911
639.702 93.3314 2911
645.552 93.1711 2906
652.501 93.1711 2906
659.45 93.1711 2906
665.253 93.0108 2901
672.19 93.0108 2901
679.127 93.0108 2901
686.064 93.0108 2901
693.001 93.0108 2901
699.939 93.0108 2901
706.876 93.0108 2901
715.043 93.1711 2906
721.992 93.1711 2906
728.942 93.1711 2906
735.891 93.1711 2906
742.84 93.1711 2906
749.789 93.1711 2906
758.04 93.3314 2911
766.578 93.5238 2917
773.553 93.5238 2917
780.529 93.5238 2917
787.504 93.5238 2917
794.48 93.5238 2917
802.829 93.6841 2922
809.816 93.6841 2922
816.804 93.6841 2922
823.791 93.6841 2922
830.778 93.6841 2922
837.766 93.6841 2922
844.753 93.6841 2922
851.741 93.6841 2922
858.728 93.6841 2922
867.197 93.8444 2927
874.196 93.8444 2927
881.195 93.8444 2927
888.195 93.8444 2927
895.194 93.8444 2927
900.652 93.6841 2922
907.64 93.6841 2922
914.627 93.6841 2922
924.768 94.0047 2932
931.78 94.0047 2932
940.392 94.165 2937
954.189 94.8383 2958
964.513 95.159 2968
971.61 95.159 2968
982.335 95.5116 2979
1002.08 96.73 3017
1022.01 97.9483 3055
1029.31 97.9483 3055
1036.62 97.9483 3055
1317.3 117.827 3675
1326.09 117.827 3675
1334.88 117.827 3675
1343.66 117.827 3675
1352.45 117.827 3675
1367.17 118.34 3691
1375.99 118.34 3691
1384.82 118.34 3691
1393.64 118.34 3691
1399.43 118.083 3683
1408.24 118.083 3683
1413.97 117.827 3675
1407.27 116.544 3635
1403.5 115.518 3603
1412.11 115.518 3603
1417.57 115.262 3595
1423.39 115.037 3588
1422.79 114.3 3565
1424.9 113.787 3549
1433.38 113.787 3549
1420.74 112.12 3497
1420.52 111.446 3476
1416.92 110.516 3447
1425.16 110.516 3447
1418.85 109.394 3412
1418.22 108.721 3391
1417.5 108.048 3370
1425.56 108.048 3370
1425.11 107.407 3350
1424.56 106.765 3330
1432.53 106.765 3330
1440.49 106.765 3330
1451.5 106.99 3337
1459.48 106.99 3337
1476.25 107.631 3357
1536.89 111.446 3476
1567.88 113.081 3527
1576.31 113.081 3527
1598.23 114.043 3557
1623.9 115.262 3595
1636.13 115.518 3603
1644.74 115.518 3603
1674.92 117.025 3650
1683.65 117.025 3650
1692.38 117.025 3650
1701.11 117.025 3650
1709.84 117.025 3650
1711.5 116.544 3635
1720.2 116.544 3635
1709.86 115.262 3595
1718.46 115.262 3595
1727.06 115.262 3595
1735.65 115.262 3595
1733.09 114.524 3572
1730.42 113.787 3549
1728.13 113.081 3527
1718.34 111.895 3490
1726.69 111.895 3490
1720.62 110.965 3461
1714.91 110.068 3433
1709.06 109.17 3405
1717.2 109.17 3405
1711.16 108.272 3377
1681.56 105.9 3303
1679.74 105.29 3284
1687.59 105.29 3284
1685.64 104.681 3265
1683.59 104.072 3246
1681.45 103.463 3227
1689.17 103.463 3227
1696.89 103.463 3227
1704.6 103.463 3227
1712.32 103.463 3227
1720.04 103.463 3227
1727.75 103.463 3227
1722.02 102.661 3202
1716.72 101.892 3178
1724.32 101.892 3178
1731.92 101.892 3178
1726.38 101.122 3154
1730.62 100.93 3148
1724.9 100.161 3124
1712.96 99.0384 3089
1720.35 99.0384 3089
1702.56 97.5956 3044
1673.33 95.5116 2979
1659.58 94.3254 2942
1666.62 94.3254 2942
1656.02 93.3314 2911
1648.7 92.5299 2886
1649.86 92.2093 2876
1653.86 92.049 2871
1660.73 92.049 2871
1662.36 91.7604 2862
1663.38 91.4398 2852
1661.41 90.9589 2837
1668.2 90.9589 2837
1669.67 90.6703 2828
1673.46 90.51 2823
1677.24 90.3497 2818
1683.98 90.3497 2818
1690.72 90.3497 2818
1694.44 90.1894 2813
1698.75 90.0612 2809
1705.47 90.0612 2809
1712.19 90.0612 2809
1715.84 89.9008 2804
1719.48 89.7405 2799
1723.09 89.5802 2794
1729.77 89.5802 2794
1730.86 89.2917 2785
1734.4 89.1314 2780
1738.54 89.0031 2776
1745.18 89.0031 2776
1748.66 88.8428 2771
1752.75 88.7146 2767
1756.19 88.5543 2762
1762.79 88.5543 2762
1766.2 88.394 2757
1772.79 88.394 2757
1779.38 88.394 2757
1785.97 88.394 2757
1792.57 88.394 2757
1796.55 88.2657 2753
1803.13 88.2657 2753
1806.43 88.1054 2748
1813 88.1054 2748
1816.92 87.9771 2744
1823.49 87.9771 2744
1826.71 87.8168 2739
1833.26 87.8168 2739
1839.81 87.8168 2739
1840.3 87.5283 2730
1844.12 87.4 2726
1850.64 87.4 2726
1857.15 87.4 2726
1863.67 87.4 2726
1870.19 87.4 2726
1873.27 87.2397 2721
1879.78 87.2397 2721
1886.28 87.2397 2721
1892.79 87.2397 2721
1896.5 87.1115 2717
1903 87.1115 2717
1903.17 86.8229 2708
1909.65 86.8229 2708
1916.12 86.8229 2708
1922.6 86.8229 2708
1922.66 86.5344 2699
1929.12 86.5344 2699
1932.7 86.4061 2695
1936.27 86.2779 2691
1942.71 86.2779 2691
1949.14 86.2779 2691
1955.58 86.2779 2691
1958.36 86.1176 2686
1964.79 86.1176 2686
1968.28 85.9893 2682
1971.74 85.8611 2678
1971.5 85.5725 2669
1977.88 85.5725 2669
1978.32 85.316 2661
1977.97 85.0275 2652
1981.32 84.8992 2648
1987.65 84.8992 2648
1990.97 84.771 2644
1997.29 84.771 2644
2006.64 84.8992 2648
2025.9 85.4443 2665
2045.24 85.9893 2682
2051.65 85.9893 2682
-2078.46 95.6531 2776
-2071.82 95.6531 2776
-2065.18 95.6531 2776
-2058.54 95.6531 2776
-2051.91 95.6531 2776
-2045.27 95.6531 2776
-2038.63 95.6531 2776
-2031.99 95.6531 2776
-2028.27 95.7909 2780
-2021.62 95.7909 2780
-2014.98 95.7909 2780
-2001.83 95.4808 2771
-1992.32 95.3429 2767
-1943.36 93.31 2708
-1936.89 93.31 2708
-1927.56 93.1721 2704
-1905.46 92.4141 2682
-1899.05 92.4141 2682
-1898.99 92.7242 2691
-1892.55 92.7242 2691
-1913.45 94.068 2730
-1922.99 94.8605 2753
-1928.94 95.4808 2771
-1922.31 95.4808 2771
-1925.36 95.9632 2785
-1918.7 95.9632 2785
-1912.04 95.9632 2785
-2072.23 129.766 3766
-2063.22 129.766 3766
-2054.22 129.766 3766
-2045.21 129.766 3766
-1982.68 126.354 3667
-1948.07 124.7 3619
-1951.74 125.493 3642
-1943.03 125.493 3642
-1942.82 126.044 3658
-1934.07 126.044 3658
-1925.33 126.044 3658
-1916.58 126.044 3658
-1938.08 128.043 3716
-1937.5 128.594 3732
-1928.58 128.594 3732
-1919.65 128.594 3732
-1767.92 134.004 3889
-1758.62 134.004 3889
-1749.32 134.004 3889
-1715.86 132.143 3835
-1380.98 114.294 3317
-1373.05 114.294 3317
-1365.11 114.294 3317
-1351.45 113.812 3303
-1343.56 113.812 3303
-1333.23 113.605 3297
-1320.12 113.157 3284
-1150.86 103.578 3006
-1143.67 103.578 3006
-1136.49 103.578 3006
-1119.15 102.648 2979
-1098.22 101.373 2942
-1091.18 101.373 2942
-1088.2 101.752 2953
-1084.8 102.097 2963
-1077.72 102.097 2963
-1070.63 102.097 2963
-1065.34 102.269 2968
-1063.95 102.82 2984
-1056.81 102.82 2984
-1051.79 103.027 2990
-1044.64 103.027 2990
-1037.49 103.027 2990
-1028.27 102.82 2984
-1021.13 102.82 2984
-1014 102.82 2984
-1006.86 102.82 2984
-999.727 102.82 2984
-992.591 102.82 2984
-985.456 102.82 2984
-978.32 102.82 2984
-971.184 102.82 2984
-964.049 102.82 2984
-956.913 102.82 2984
-949.777 102.82 2984
-942.642 102.82 2984
-932.371 102.476 2974
-925.259 102.476 2974
-918.147 102.476 2974
-909.198 102.269 2968
-899.061 101.924 2958
-891.987 101.924 2958
-884.914 101.924 2958
-874.576 101.545 2947
-867.529 101.545 2947
-860.482 101.545 2947
-853.435 101.545 2947
-846.387 101.545 2947
-837.916 101.373 2942
-830.881 101.373 2942
-822.446 101.201 2937
-815.422 101.201 2937
-808.399 101.201 2937
-801.376 101.201 2937
-793 101.028 2932
-785.989 101.028 2932
-778.978 101.028 2932
-770.65 100.856 2927
-763.651 100.856 2927
-756.651 100.856 2927
-749.652 100.856 2927
-745.19 101.201 2937
-739.423 101.373 2942
-732.388 101.373 2942
-725.353 101.373 2942
-718.318 101.373 2942
-710.073 101.201 2937
-703.05 101.201 2937
-694.842 101.028 2932
-684.312 100.512 2917
-675.943 100.305 2911
-668.982 100.305 2911
-660.884 100.132 2906
-653.935 100.132 2906
-645.872 99.9602 2901
-638.935 99.9602 2901
-631.998 99.9602 2901
-622.906 99.6156 2891
-615.993 99.6156 2891
-609.08 99.6156 2891
-602.167 99.6156 2891
-597.312 99.9602 2901
-590.375 99.9602 2901
-583.438 99.9602 2901
-575.507 99.7879 2896
-676.352 129.766 3766
-674.967 131.247 3809
-665.858 131.247 3809
-656.75 131.247 3809
-641.69 130.041 3774
-632.665 130.041 3774
-623.641 130.041 3774
-610.544 129.18 3749
-597.568 128.318 3724
-582.182 126.906 3683
-569.482 126.044 3658
-560.735 126.044 3658
-550.78 125.769 3650
-542.052 125.769 3650
-532.155 125.493 3642
-523.446 125.493 3642
-277.979 71.3952 2072
-273.024 71.3952 2072
-268.069 71.3952 2072
-263.114 71.3952 2072
-259.156 71.6709 2080
-254.182 71.6709 2080
-249.209 71.6709 2080
-244 71.602 2078
-239.031 71.602 2078
-234.062 71.602 2078
-228.762 71.4986 2075
-223.8 71.4986 2075
-218.838 71.4986 2075
-214.185 71.602 2078
-209.216 71.602 2078
-204.738 71.7742 2083
-200.524 72.0499 2091
-195.992 72.2222 2096
-190.98 72.2222 2096
-186.145 72.2911 2098
-181.387 72.3945 2101
-176.782 72.5668 2106
-171.746 72.5668 2106
-167.185 72.7735 2112
-162.135 72.7735 2112
-157.233 72.8424 2114
-152.178 72.8424 2114
-147.331 72.9458 2117
-142.471 73.0492 2120
-137.531 73.1181 2122
-132.456 73.1181 2122
-127.562 73.2215 2125
-122.481 73.2215 2125
-117.399 73.2215 2125
-112.318 73.2215 2125
-107.236 73.2215 2125
-102.155 73.2215 2125
-97.073 73.2215 2125
-91.775 73.0492 2120
-86.5828 72.9458 2117
-81.3279 72.7735 2112
-76.2774 72.7735 2112
-71.0247 72.5668 2106
-65.9259 72.4978 2104
-60.8078 72.3945 2101
-55.7836 72.3945 2101
-50.7595 72.3945 2101
-45.6701 72.2911 2098
-40.6531 72.2911 2098
-35.6362 72.2911 2098
-30.6192 72.2911 2098
-25.5779 72.2222 2096
-20.5657 72.2222 2096
-15.5313 72.1188 2093
-10.5413 72.2222 2096
-5.52917 72.2222 2096
-0.517003 72.2222 2096
4.48873 72.1188 2093
9.49373 72.1188 2093
14.4987 72.1188 2093
19.5037 72.1188 2093
24.5087 72.1188 2093
29.556 72.2222 2096
34.5682 72.2222 2096
39.5804 72.2222 2096
44.5925 72.2222 2096
49.6047 72.2222 2096
54.6169 72.2222 2096
59.686 72.2911 2098
64.7029 72.2911 2098
69.8196 72.3945 2101
74.8437 72.3945 2101
79.9818 72.4978 2104
85.2152 72.6701 2109
90.4724 72.8424 2114
95.5276 72.8424 2114
100.868 73.0492 2120
106.038 73.1181 2122
111.426 73.3248 2128
116.515 73.3248 2128
121.775 73.4282 2131
127.347 73.7038 2139
132.772 73.8761 2144
138.478 74.1862 2153
143.626 74.1862 2153
149.12 74.3585 2158
154.924 74.6686 2167
160.254 74.7376 2169
165.441 74.7376 2169
171.099 74.9443 2175
176.787 75.151 2181
182.419 75.3233 2186
187.647 75.3233 2186
193.668 75.6334 2195
198.917 75.6334 2195
204.445 75.7368 2198
209.701 75.7368 2198
215.544 75.9436 2204
221.115 76.0469 2207
227.213 76.3226 2215
232.51 76.3226 2215
239.417 76.8394 2230
245.079 76.9428 2233
250.755 77.0462 2236
256.102 77.0462 2236
261.8 77.1496 2239
267.154 77.1496 2239
272.508 77.1496 2239
277.862 77.1496 2239
284.355 77.4597 2248
289.731 77.4597 2248
295.106 77.4597 2248
300.081 77.3563 2245
305.449 77.3563 2245
432.209 102.269 2968
439.306 102.269 2968
446.403 102.269 2968
452.737 102.097 2963
459.822 102.097 2963
466.12 101.924 2958
473.993 102.097 2963
481.078 102.097 2963
488.164 102.097 2963
495.249 102.097 2963
502.335 102.097 2963
508.561 101.924 2958
513.716 101.545 2947
520.764 101.545 2947
526.915 101.373 2942
533.043 101.201 2937
540.066 101.201 2937
547.09 101.201 2937
553.17 101.028 2932
560.181 101.028 2932
567.192 101.028 2932
574.203 101.028 2932
580.224 100.856 2927
586.22 100.684 2922
593.207 100.684 2922
600.195 100.684 2922
606.143 100.512 2917
613.118 100.512 2917
618.818 100.305 2911
625.779 100.305 2911
632.741 100.305 2911
639.702 100.305 2911
646.663 100.305 2911
652.501 100.132 2906
659.45 100.132 2906
665.253 99.9602 2901
672.19 99.9602 2901
679.127 99.9602 2901
686.064 99.9602 2901
693.001 99.9602 2901
699.939 99.9602 2901
706.876 99.9602 2901
715.043 100.132 2906
721.992 100.132 2906
728.942 100.132 2906
735.891 100.132 2906
742.84 100.132 2906
749.789 100.132 2906
758.04 100.305 2911
766.578 100.512 2917
773.553 100.512 2917
780.529 100.512 2917
787.504 100.512 2917
795.841 100.684 2922
802.829 100.684 2922
809.816 100.684 2922
816.804 100.684 2922
823.791 100.684 2922
830.778 100.684 2922
837.766 100.684 2922
844.753 100.684 2922
851.741 100.684 2922
860.197 100.856 2927
868.678 101.028 2932
875.689 101.028 2932
882.701 101.028 2932
888.195 100.856 2927
895.194 100.856 2927
902.193 100.856 2927
907.64 100.684 2922
914.627 100.684 2922
921.614 100.684 2922
928.602 100.684 2922
938.791 101.028 2932
947.415 101.201 2937
961.263 101.924 2958
968.336 101.924 2958
975.41 101.924 2958
985.805 102.269 2968
992.902 102.269 2968
1000 102.269 2968
1367.93 129.766 3766
1376.94 129.766 3766
1385.94 129.766 3766
1391.61 129.456 3757
1400.6 129.456 3757
1409.58 129.456 3757
1415.54 129.18 3749
1411.97 128.043 3716
1420.86 128.043 3716
1423.2 127.457 3699
1422.76 126.63 3675
1409.73 124.7 3619
1418.38 124.7 3619
1427.04 124.7 3619
1429.34 124.149 3603
1434.77 123.873 3595
1431.32 122.84 3565
1439.84 122.84 3565
1426.84 121.014 3512
1417.25 119.497 3468
1414.04 118.533 3440
1422.26 118.533 3440
1415.94 117.327 3405
1418.22 116.844 3391
1414.55 115.879 3363
1422.6 115.879 3363
1425.11 115.431 3350
1427.56 114.984 3337
1432.53 114.742 3330
1440.49 114.742 3330
1451.5 114.984 3337
