ply
format ascii 1.0
comment File generated
element vertex 2245
property float x
property float y
property float z
end_header
-1200.6 1119.64 2356
-1194.97 1119.64 2356
-1192.87 1122.97 2363
-1190.74 1126.3 2370
-1188.07 1129.15 2376
-1182.39 1129.15 2376
-1178.69 1131.05 2380
-1173 1131.05 2380
-1167.3 1131.05 2380
-1159.66 1129.15 2376
-1139.41 1114.89 2346
-1129.45 1110.61 2337
-1123.86 1110.61 2337
-1111.57 1103.96 2323
-1101.73 1099.68 2314
-1096.2 1099.68 2314
-1092.08 1101.11 2317
-1086.54 1101.11 2317
-1081 1101.11 2317
-1075.46 1101.11 2317
-1069.92 1101.11 2317
-1064.38 1101.11 2317
-1057.46 1099.68 2314
-1047.39 1094.93 2304
-1041.88 1094.93 2304
-1036.37 1094.93 2304
-1030.86 1094.93 2304
-1025.35 1094.93 2304
-1021.17 1096.36 2307
-1021.37 1102.54 2320
-1015.82 1102.54 2320
-1010.28 1102.54 2320
-1007.76 1105.86 2327
-1002.2 1105.86 2327
-996.631 1105.86 2327
-992.344 1107.29 2330
-988.043 1108.71 2333
-982.464 1108.71 2333
-976.885 1108.71 2333
-970.057 1107.29 2330
-963.243 1105.86 2327
-957.679 1105.86 2327
-949.25 1102.54 2320
-940.041 1098.26 2311
-932.897 1096.36 2307
-927.381 1096.36 2307
-920.665 1094.93 2304
-913.964 1093.51 2301
-906.093 1090.65 2295
-900.605 1090.65 2295
-895.117 1090.65 2295
-888.466 1089.23 2292
-881.444 1087.33 2288
-877.504 1089.23 2292
-872.023 1089.23 2292
-868.811 1092.08 2298
-866.697 1096.36 2307
-862.673 1098.26 2311
-857.147 1098.26 2311
-851.62 1098.26 2311
-844.63 1096.36 2307
-839.113 1096.36 2307
-833.596 1096.36 2307
-827.003 1094.93 2304
-821.493 1094.93 2304
-817.046 1096.36 2307
-813.992 1099.68 2314
-808.458 1099.68 2314
-803.966 1101.11 2317
-798.425 1101.11 2317
-792.884 1101.11 2317
-787.344 1101.11 2317
-783.828 1103.96 2323
-780.618 1107.29 2330
-775.046 1107.29 2330
-769.474 1107.29 2330
-763.903 1107.29 2330
-758.331 1107.29 2330
-752.759 1107.29 2330
-747.187 1107.29 2330
-739.388 1103.96 2323
-731.937 1101.11 2317
-726.397 1101.11 2317
-719.923 1099.68 2314
-714.389 1099.68 2314
-707.937 1098.26 2311
-702.41 1098.26 2311
-695.678 1096.36 2307
-687.469 1092.08 2298
-681.083 1090.65 2295
-675.595 1090.65 2295
-669.231 1089.23 2292
-663.75 1089.23 2292
-658.269 1089.23 2292
-652.789 1089.23 2292
-645.331 1085.9 2285
-639.867 1085.9 2285
-633.57 1084.48 2282
-628.113 1084.48 2282
-621.837 1083.05 2279
-612.33 1075.92 2264
-608.525 1078.77 2270
-606.285 1084.48 2282
-602.408 1087.33 2288
-596.936 1087.33 2288
-591.465 1087.33 2288
-585.994 1087.33 2288
-583.06 1092.08 2298
-577.564 1092.08 2298
-572.069 1092.08 2298
-567.314 1093.51 2301
-563.276 1096.36 2307
-557.759 1096.36 2307
-552.243 1096.36 2307
-548.385 1099.68 2314
-543.555 1101.11 2317
-538.014 1101.11 2317
-532.474 1101.11 2317
-528.298 1103.96 2323
-522.743 1103.96 2323
-517.188 1103.96 2323
-511.633 1103.96 2323
-506.078 1103.96 2323
-500.523 1103.96 2323
-494.968 1103.96 2323
-489.413 1103.96 2323
-481.983 1099.68 2314
-476.45 1099.68 2314
-470.916 1099.68 2314
-466.589 1102.54 2320
-461.042 1102.54 2320
-456.868 1105.86 2327
-451.304 1105.86 2327
-445.739 1105.86 2327
-440.174 1105.86 2327
-434.61 1105.86 2327
-429.045 1105.86 2327
-422.207 1102.54 2320
-416.12 1101.11 2317
-411.111 1102.54 2320
-405.563 1102.54 2320
-400.016 1102.54 2320
-394.978 1103.96 2323
-390.093 1105.86 2327
-385.025 1107.29 2330
-379.453 1107.29 2330
-373.881 1107.29 2330
-368.784 1108.71 2333
-363.827 1110.61 2337
-358.239 1110.61 2337
-352.65 1110.61 2337
-347.062 1110.61 2337
-341.473 1110.61 2337
-335.31 1108.71 2333
-329.731 1108.71 2333
-324.152 1108.71 2333
-318.573 1108.71 2333
-312.592 1107.29 2330
-306.625 1105.86 2327
-301.06 1105.86 2327
-295.877 1107.29 2330
-290.305 1107.29 2330
-285.1 1108.71 2333
-279.521 1108.71 2333
-273.942 1108.71 2333
-268.363 1108.71 2333
-261.658 1103.96 2323
-255.772 1102.54 2320
-250.224 1102.54 2320
-244.676 1102.54 2320
-239.129 1102.54 2320
-233.581 1102.54 2320
-228.033 1102.54 2320
-222.197 1101.11 2317
-216.657 1101.11 2317
-211.39 1102.54 2320
-205.842 1102.54 2320
-200.294 1102.54 2320
-194.746 1102.54 2320
-189.769 1105.86 2327
-184.442 1107.29 2330
-179.408 1110.61 2337
-173.819 1110.61 2337
-168.231 1110.61 2337
-161.668 1103.96 2323
-156.113 1103.96 2323
-148.549 1089.23 2292
-143.068 1089.23 2292
46.1456 1030.78 2169
51.4034 1032.2 2172
56.5973 1032.2 2172
61.7912 1032.2 2172
67.2626 1036.48 2181
72.6442 1038.85 2186
77.8716 1038.85 2186
83.099 1038.85 2186
88.3264 1038.85 2186
93.5538 1038.85 2186
98.4197 1035.05 2178
102.962 1028.4 2164
107.837 1025.55 2158
112.997 1025.55 2158
117.993 1024.12 2155
122.689 1020.32 2147
127.824 1020.32 2147
132.958 1020.32 2147
138.092 1020.32 2147
143.226 1020.32 2147
220.768 1099.68 2314
226.888 1102.54 2320
233.438 1107.29 2330
239.01 1107.29 2330
244.897 1108.71 2333
250.475 1108.71 2333
256.054 1108.71 2333
261.633 1108.71 2333
268.358 1113.47 2343
273.96 1113.47 2343
279.563 1113.47 2343
284.801 1112.04 2340
290.397 1112.04 2340
295.992 1112.04 2340
301.201 1110.61 2337
306.79 1110.61 2337
311.443 1107.29 2330
317.422 1108.71 2333
323.001 1108.71 2333
328.58 1108.71 2333
334.159 1108.71 2333
339.738 1108.71 2333
344.873 1107.29 2330
350.445 1107.29 2330
354.947 1103.96 2323
360.502 1103.96 2323
366.057 1103.96 2323
371.612 1103.96 2323
377.167 1103.96 2323
382.722 1103.96 2323
388.277 1103.96 2323
393.832 1103.96 2323
398.871 1102.54 2320
403.373 1099.68 2314
408.906 1099.68 2314
414.44 1099.68 2314
419.973 1099.68 2314
425.507 1099.68 2314
431.599 1101.11 2317
438.272 1103.96 2323
444.591 1105.86 2327
450.156 1105.86 2327
455.72 1105.86 2327
461.879 1107.29 2330
467.451 1107.29 2330
473.023 1107.29 2330
478.595 1107.29 2330
484.166 1107.29 2330
490.369 1108.71 2333
495.948 1108.71 2333
502.386 1110.61 2337
508.627 1112.04 2340
514.223 1112.04 2340
519.818 1112.04 2340
526.087 1113.47 2343
531.69 1113.47 2343
537.293 1113.47 2343
541.506 1110.61 2337
547.094 1110.61 2337
552.683 1110.61 2337
560.421 1114.89 2346
566.031 1114.89 2346
571.641 1114.89 2346
575.036 1110.61 2337
580.625 1110.61 2337
586.213 1110.61 2337
590.789 1108.71 2333
596.368 1108.71 2333
602.979 1110.61 2337
608.567 1110.61 2337
614.156 1110.61 2337
619.744 1110.61 2337
626.135 1112.04 2340
631.731 1112.04 2340
637.327 1112.04 2340
643.747 1113.47 2343
649.35 1113.47 2343
656.909 1116.79 2350
662.529 1116.79 2350
669.001 1118.22 2353
676.635 1121.54 2360
682.278 1121.54 2360
687.922 1121.54 2360
693.565 1121.54 2360
698.024 1119.64 2356
704.852 1121.54 2360
710.496 1121.54 2360
716.139 1121.54 2360
721.783 1121.54 2360
727.426 1121.54 2360
733.07 1121.54 2360
738.713 1121.54 2360
744.357 1121.54 2360
748.729 1119.64 2356
754.363 1119.64 2356
758.061 1116.79 2350
761.406 1113.47 2343
765.045 1110.61 2337
770.633 1110.61 2337
773.897 1107.29 2330
779.468 1107.29 2330
782.682 1103.96 2323
788.237 1103.96 2323
791.741 1101.11 2317
791.776 1093.51 2301
796.239 1092.08 2298
800.688 1090.65 2295
808.284 1093.51 2301
813.786 1093.51 2301
819.288 1093.51 2301
825.866 1094.93 2304
832.458 1096.36 2307
837.975 1096.36 2307
844.954 1098.26 2311
853.793 1102.54 2320
859.34 1102.54 2320
864.888 1102.54 2320
874.188 1107.29 2330
882.403 1110.61 2337
891.411 1114.89 2346
897.021 1114.89 2346
905.324 1118.22 2353
912.112 1119.64 2356
920.473 1122.97 2363
926.124 1122.97 2363
932.957 1124.4 2366
940.202 1126.3 2370
945.869 1126.3 2370
951.537 1126.3 2370
957.204 1126.3 2370
962.871 1126.3 2370
970.991 1129.15 2376
981.194 1134.38 2387
986.902 1134.38 2387
993.858 1135.8 2390
1000.83 1137.23 2393
1006.55 1137.23 2393
1012.27 1137.23 2393
1023.95 1143.88 2407
1029.71 1143.88 2407
1035.46 1143.88 2407
1041.22 1143.88 2407
1046.97 1143.88 2407
1042.23 1132.47 2383
1047.93 1132.47 2383
1047.88 1126.3 2370
1051.77 1124.4 2366
1056.09 1122.97 2363
1063.09 1124.4 2366
1068.74 1124.4 2366
1074.4 1124.4 2366
1080.06 1124.4 2366
1085.72 1124.4 2366
1091.38 1124.4 2366
1095.64 1122.97 2363
1096.63 1118.22 2353
1102.26 1118.22 2353
1107.89 1118.22 2353
1113.51 1118.22 2353
1119.14 1118.22 2353
1124.77 1118.22 2353
1130.39 1118.22 2353
1136.02 1118.22 2353
1140.19 1116.79 2350
1142.4 1113.47 2343
1148 1113.47 2343
1153.6 1113.47 2343
1159.21 1113.47 2343
1164.81 1113.47 2343
1176.91 1119.64 2356
1182.54 1119.64 2356
1188.17 1119.64 2356
1193.81 1119.64 2356
1199.44 1119.64 2356
1205.08 1119.64 2356
1210.71 1119.64 2356
1218.41 1121.54 2360
1224.05 1121.54 2360
1229.7 1121.54 2360
1230.1 1116.79 2350
1230.47 1112.04 2340
1239.23 1114.89 2346
1244.84 1114.89 2346
1250.45 1114.89 2346
1256.06 1114.89 2346
1260.06 1113.47 2343
1265.66 1113.47 2343
1272.89 1114.89 2346
1278.5 1114.89 2346
1284.11 1114.89 2346
1293.57 1118.22 2353
1299.2 1118.22 2353
1304.82 1118.22 2353
1310.45 1118.22 2353
1314.4 1116.79 2350
1320.02 1116.79 2350
1325.64 1116.79 2350
1331.26 1116.79 2350
1334.6 1114.89 2346
1345.92 1119.64 2356
1351.56 1119.64 2356
1366.98 1127.72 2373
1372.66 1127.72 2373
1378.33 1127.72 2373
1384.01 1127.72 2373
1389.22 1118.22 2353
1399 1121.54 2360
1404.64 1121.54 2360
1416.26 1126.3 2370
1421.93 1126.3 2370
1427.6 1126.3 2370
1433.26 1126.3 2370
1436.5 1124.4 2366
1438.5 1121.54 2360
1444.15 1121.54 2360
1449.79 1121.54 2360
1465.3 1129.15 2376
1475.32 1132.47 2383
1481.02 1132.47 2383
1486.71 1132.47 2383
1492.41 1132.47 2383
1496.23 1131.05 2380
1501.92 1131.05 2380
1498.74 1124.4 2366
1502.49 1122.97 2363
1508.14 1122.97 2363
1513.79 1122.97 2363
1536.8 1135.8 2390
1542.52 1135.8 2390
1563.78 1147.21 2414
1572.15 1149.11 2418
1577.94 1149.11 2418
1583.72 1149.11 2418
1586.87 1147.21 2414
1551.94 1105.86 2327
1557.5 1105.86 2327
1563.07 1105.86 2327
1568.63 1105.86 2327
1574.2 1105.86 2327
1577.05 1103.96 2323
1587.37 1107.29 2330
1592.94 1107.29 2330
1598.51 1107.29 2330
1615.1 1114.89 2346
1627.62 1119.64 2356
1638.11 1122.97 2363
1643.76 1122.97 2363
1654.29 1126.3 2370
1659.96 1126.3 2370
1665.63 1126.3 2370
1671.29 1126.3 2370
1674.13 1124.4 2366
1675.53 1121.54 2360
1681.17 1121.54 2360
1681.81 1118.22 2353
1687.44 1118.22 2353
1693.07 1118.22 2353
1696.53 1116.79 2350
1702.15 1116.79 2350
1698.32 1110.61 2337
1700.99 1108.71 2333
1706.57 1108.71 2333
1712.15 1108.71 2333
1717.73 1108.71 2333
1726.26 1110.61 2337
1731.85 1110.61 2337
1737.44 1110.61 2337
1740.04 1108.71 2333
1741.13 1105.86 2327
1741.44 1102.54 2320
1742.47 1099.68 2314
1748.01 1099.68 2314
1745.96 1094.93 2304
1753.75 1096.36 2307
1766.9 1101.11 2317
1772.44 1101.11 2317
-1820.55 1180.21 2471
-1833.74 1192.63 2497
-1827.77 1192.63 2497
-1821.8 1192.63 2497
-1796.92 1180.21 2471
-1772.89 1168.27 2446
-1767.04 1168.27 2446
-1743.19 1156.33 2421
-1737.4 1156.33 2421
-1731.61 1156.33 2421
-1725.82 1156.33 2421
-1678.83 1128.63 2363
-1673.18 1128.63 2363
-1651.29 1117.65 2340
-1647.81 1119.08 2343
-1642.21 1119.08 2343
-1638.7 1120.51 2346
-1635.87 1122.42 2350
-1630.25 1122.42 2350
-1624.63 1122.42 2350
-1612.12 1117.65 2340
-1606.53 1117.65 2340
-1600.93 1117.65 2340
-1586.47 1111.44 2327
-1580.91 1111.44 2327
-1572.64 1109.53 2323
-1567.08 1109.53 2323
-1555.48 1105.23 2314
-1547.93 1103.79 2311
-1542.41 1103.79 2311
-1536.88 1103.79 2311
-1531.36 1103.79 2311
-1531.77 1108.09 2320
-1526.22 1108.09 2320
-1522.64 1109.53 2323
-1517.09 1109.53 2323
-1511.53 1109.53 2323
-1505.98 1109.53 2323
-1500.42 1109.53 2323
-1494.87 1109.53 2323
-1495.72 1114.3 2333
-1494.62 1117.65 2340
-1489.02 1117.65 2340
-1483.42 1117.65 2340
-1475.93 1116.21 2337
-1464.05 1111.44 2327
-1458.49 1111.44 2327
-1452.92 1111.44 2327
-1453.58 1116.21 2337
-1457.91 1123.85 2353
-1454.13 1125.29 2356
-1448.5 1125.29 2356
-1442.86 1125.29 2356
-1425.64 1116.21 2337
-1425.52 1120.51 2346
-1424.14 1123.85 2353
-1418.52 1123.85 2353
-1412.89 1123.85 2353
-1403.08 1120.51 2346
-1403.42 1125.29 2356
-1397.79 1125.29 2356
-1392.16 1125.29 2356
-1386.52 1125.29 2356
-1380.89 1125.29 2356
-1373.5 1123.85 2353
-1367.88 1123.85 2353
-1362.25 1123.85 2353
-1356.62 1123.85 2353
-1351 1123.85 2353
-1345.37 1123.85 2353
-1338.04 1122.42 2350
-1332.42 1122.42 2350
-1317.2 1114.3 2333
-1311.62 1114.3 2333
-1304.36 1112.87 2330
-1298.79 1112.87 2330
-1289.33 1109.53 2323
-1283.78 1109.53 2323
-1278.22 1109.53 2323
-1272.67 1109.53 2323
-1267.11 1109.53 2323
-1255.04 1103.79 2311
-1249.51 1103.79 2311
-1243.99 1103.79 2311
-1238.46 1103.79 2311
-1232.94 1103.79 2311
-1227.41 1103.79 2311
-1221.88 1103.79 2311
-1216.36 1103.79 2311
-1213.97 1106.66 2317
-1208.43 1106.66 2317
-1206.01 1109.53 2323
-1200.45 1109.53 2323
-1200.04 1114.3 2333
-1198.05 1117.65 2340
-1197.55 1122.42 2350
-1191.93 1122.42 2350
-1189.34 1125.29 2356
-1185.71 1127.2 2360
-1185.07 1131.97 2370
-1179.4 1131.97 2370
-1175.22 1133.41 2373
-1169.55 1133.41 2373
-1163.87 1133.41 2373
-1148.43 1123.85 2353
-1136.49 1117.65 2340
-1124.62 1111.44 2327
-1119.05 1111.44 2327
-1110.14 1108.09 2320
-1101.73 1105.23 2314
-1094.78 1103.79 2311
-1092.08 1106.66 2317
-1087.95 1108.09 2320
-1082.4 1108.09 2320
-1076.85 1108.09 2320
-1069.92 1106.66 2317
-1064.38 1106.66 2317
-1056.09 1103.79 2311
-1046.02 1099.02 2301
-1037.81 1096.15 2295
-1033.67 1097.59 2298
-1028.17 1097.59 2298
-1025.35 1100.45 2304
-1021.17 1101.88 2307
-1017.41 1103.79 2311
-1011.88 1103.79 2311
-1006.36 1103.79 2311
-1002.13 1105.23 2314
-997.888 1106.66 2317
-992.348 1106.66 2317
-991.066 1111.44 2327
-985.502 1111.44 2327
-979.937 1111.44 2327
-974.372 1111.44 2327
-968.808 1111.44 2327
-960.346 1108.09 2320
-954.798 1108.09 2320
-946.795 1105.23 2314
-938.414 1101.88 2307
-932.897 1101.88 2307
-927.381 1101.88 2307
-920.665 1100.45 2304
-913.964 1099.02 2301
-906.093 1096.15 2295
-900.605 1096.15 2295
-893.947 1094.72 2292
-886.915 1092.81 2288
-881.444 1092.81 2288
-877.504 1094.72 2292
-872.023 1094.72 2292
-868.811 1097.59 2298
-868.199 1103.79 2311
-862.673 1103.79 2311
-857.147 1103.79 2311
-851.62 1103.79 2311
-846.094 1103.79 2311
-840.568 1103.79 2311
-833.596 1101.88 2307
-828.079 1101.88 2307
-822.563 1101.88 2307
-815.984 1100.45 2304
-813.992 1105.23 2314
-808.458 1105.23 2314
-802.925 1105.23 2314
-798.425 1106.66 2317
-792.884 1106.66 2317
-787.344 1106.66 2317
-781.803 1106.66 2317
-777.268 1108.09 2320
-774.048 1111.44 2327
-768.484 1111.44 2327
-762.919 1111.44 2327
-757.354 1111.44 2327
-751.79 1111.44 2327
-743.981 1108.09 2320
-735.568 1103.79 2311
-728.778 1101.88 2307
-723.261 1101.88 2307
-717.745 1101.88 2307
-712.228 1101.88 2307
-704.873 1099.02 2301
-699.371 1099.02 2301
-691.155 1094.72 2292
-684.477 1092.81 2288
-678.115 1091.38 2285
-672.651 1091.38 2285
-666.311 1089.94 2282
-660.854 1089.94 2282
-655.397 1089.94 2282
-649.94 1089.94 2282
-642.789 1087.08 2276
-636.506 1085.64 2273
-630.238 1084.21 2270
-624.81 1084.21 2270
-616.926 1079.91 2261
-607.191 1072.27 2245
-602.627 1073.7 2248
-601.503 1081.35 2264
-597.668 1084.21 2270
-592.24 1084.21 2270
-587.587 1085.64 2273
-583.689 1088.51 2279
-579.761 1091.38 2285
-574.297 1091.38 2285
-568.833 1091.38 2285
-564.108 1092.81 2288
-558.637 1092.81 2288
-553.166 1092.81 2288
-547.695 1092.81 2288
-543.171 1094.72 2292
-539.098 1097.59 2298
-533.603 1097.59 2298
-528.107 1097.59 2298
-523.977 1100.45 2304
-518.467 1100.45 2304
-512.958 1100.45 2304
-509.651 1105.23 2314
-504.117 1105.23 2314
-498.584 1105.23 2314
-493.05 1105.23 2314
-487.517 1105.23 2314
-479.275 1099.02 2301
-473.773 1099.02 2301
-468.271 1099.02 2301
-463.975 1101.88 2307
-459.253 1103.79 2311
-454.905 1106.66 2317
-449.364 1106.66 2317
-444.398 1108.09 2320
-438.85 1108.09 2320
-433.302 1108.09 2320
-427.755 1108.09 2320
-421.115 1105.23 2314
-415.581 1105.23 2314
-410.58 1106.66 2317
-405.039 1106.66 2317
-399.498 1106.66 2317
-394.468 1108.09 2320
-388.92 1108.09 2320
-383.868 1109.53 2323
-378.313 1109.53 2323
-372.758 1109.53 2323
-367.835 1111.44 2327
-362.271 1111.44 2327
-356.706 1111.44 2327
-351.141 1111.44 2327
-344.537 1108.09 2320
-338.989 1108.09 2320
-333.442 1108.09 2320
-327.046 1105.23 2314
-321.096 1103.79 2311
-315.569 1103.79 2311
-310.043 1103.79 2311
-303.99 1101.88 2307
-298.99 1103.79 2311
-294.226 1106.66 2317
-288.685 1106.66 2317
-283.145 1106.66 2317
-277.604 1106.66 2317
-272.063 1106.66 2317
-266.523 1106.66 2317
-260.982 1106.66 2317
-255.111 1105.23 2314
-249.577 1105.23 2314
-244.044 1105.23 2314
-238.51 1105.23 2314
-232.675 1103.79 2311
-227.148 1103.79 2311
-221.238 1101.88 2307
-215.722 1101.88 2307
-210.843 1105.23 2314
-205.309 1105.23 2314
-200.035 1106.66 2317
-194.494 1106.66 2317
-188.954 1106.66 2317
-183.888 1109.53 2323
-178.333 1109.53 2323
-172.778 1109.53 2323
-167.007 1108.09 2320
-161.042 1105.23 2314
-155.508 1105.23 2314
-148.549 1094.72 2292
-143.068 1094.72 2292
51.4034 1037.4 2172
56.5973 1037.4 2172
61.7912 1037.4 2172
67.2626 1041.7 2181
72.6442 1044.09 2186
77.8716 1044.09 2186
83.099 1044.09 2186
88.3264 1044.09 2186
93.5538 1044.09 2186
98.4197 1040.27 2178
102.962 1033.58 2164
107.837 1030.72 2158
112.997 1030.72 2158
117.993 1029.28 2155
122.689 1025.46 2147
127.824 1025.46 2147
132.958 1025.46 2147
220.768 1105.23 2314
226.888 1108.09 2320
233.438 1112.87 2330
239.01 1112.87 2330
244.897 1114.3 2333
250.475 1114.3 2333
256.054 1114.3 2333
261.633 1114.3 2333
268.014 1117.65 2340
273.61 1117.65 2340
279.205 1117.65 2340
284.436 1116.21 2337
290.024 1116.21 2337
295.613 1116.21 2337
300.686 1114.3 2333
306.265 1114.3 2333
311.443 1112.87 2330
317.014 1112.87 2330
322.586 1112.87 2330
328.158 1112.87 2330
333.729 1112.87 2330
339.301 1112.87 2330
343.837 1109.53 2323
349.392 1109.53 2323
354.947 1109.53 2323
360.502 1109.53 2323
366.057 1109.53 2323
371.612 1109.53 2323
377.167 1109.53 2323
382.228 1108.09 2320
387.775 1108.09 2320
393.323 1108.09 2320
398.871 1108.09 2320
402.85 1103.79 2311
408.376 1103.79 2311
414.44 1105.23 2314
419.973 1105.23 2314
425.507 1105.23 2314
431.599 1106.66 2317
438.272 1109.53 2323
443.827 1109.53 2323
449.382 1109.53 2323
454.937 1109.53 2323
460.492 1109.53 2323
466.849 1111.44 2327
472.414 1111.44 2327
477.978 1111.44 2327
483.543 1111.44 2327
489.108 1111.44 2327
493.822 1109.53 2323
501.526 1114.3 2333
507.975 1116.21 2337
514.223 1117.65 2340
519.818 1117.65 2340
525.414 1117.65 2340
531.009 1117.65 2340
536.605 1117.65 2340
541.506 1116.21 2337
547.094 1116.21 2337
552.683 1116.21 2337
560.421 1120.51 2346
566.031 1120.51 2346
571.641 1120.51 2346
575.036 1116.21 2337
580.625 1116.21 2337
586.213 1116.21 2337
590.789 1114.3 2333
596.368 1114.3 2333
602.979 1116.21 2337
608.567 1116.21 2337
614.156 1116.21 2337
619.744 1116.21 2337
626.135 1117.65 2340
631.731 1117.65 2340
637.327 1117.65 2340
643.747 1119.08 2343
649.35 1119.08 2343
656.909 1122.42 2350
662.529 1122.42 2350
669.001 1123.85 2353
676.635 1127.2 2360
682.278 1127.2 2360
687.922 1127.2 2360
693.565 1127.2 2360
698.024 1125.29 2356
704.852 1127.2 2360
710.496 1127.2 2360
716.139 1127.2 2360
721.783 1127.2 2360
727.426 1127.2 2360
733.07 1127.2 2360
738.713 1127.2 2360
744.357 1127.2 2360
748.729 1125.29 2356
754.363 1125.29 2356
758.061 1122.42 2350
761.406 1119.08 2343
765.045 1116.21 2337
770.633 1116.21 2337
773.897 1112.87 2330
779.468 1112.87 2330
782.682 1109.53 2323
788.237 1109.53 2323
791.741 1106.66 2317
791.776 1099.02 2301
796.239 1097.59 2298
800.688 1096.15 2295
808.284 1099.02 2301
813.786 1099.02 2301
819.288 1099.02 2301
825.866 1100.45 2304
832.458 1101.88 2307
837.975 1101.88 2307
844.954 1103.79 2311
853.793 1108.09 2320
859.34 1108.09 2320
864.888 1108.09 2320
874.188 1112.87 2330
882.403 1116.21 2337
891.411 1120.51 2346
897.021 1120.51 2346
905.324 1123.85 2353
912.112 1125.29 2356
920.473 1128.63 2363
926.124 1128.63 2363
932.957 1130.06 2366
940.202 1131.97 2370
945.869 1131.97 2370
951.537 1131.97 2370
957.204 1131.97 2370
962.871 1131.97 2370
970.991 1134.84 2376
981.194 1140.09 2387
986.902 1140.09 2387
993.858 1141.53 2390
1000.83 1142.96 2393
1006.55 1142.96 2393
1012.27 1142.96 2393
1023.95 1149.65 2407
1029.71 1149.65 2407
1035.46 1149.65 2407
1041.22 1149.65 2407
1046.97 1149.65 2407
1042.23 1138.18 2383
1047.93 1138.18 2383
1047.88 1131.97 2370
1051.77 1130.06 2366
1056.09 1128.63 2363
1063.09 1130.06 2366
1068.74 1130.06 2366
1074.4 1130.06 2366
1080.06 1130.06 2366
1085.72 1130.06 2366
1091.38 1130.06 2366
1095.64 1128.63 2363
1096.63 1123.85 2353
1102.26 1123.85 2353
1107.89 1123.85 2353
1113.51 1123.85 2353
1119.14 1123.85 2353
1123.33 1122.42 2350
1128.95 1122.42 2350
1134.57 1122.42 2350
1136.8 1119.08 2343
1142.4 1119.08 2343
1148 1119.08 2343
1150.65 1116.21 2337
1156.24 1116.21 2337
1163.32 1117.65 2340
1168.91 1117.65 2340
1174.51 1117.65 2340
1180.1 1117.65 2340
1190.77 1122.42 2350
1196.39 1122.42 2350
1202.01 1122.42 2350
1205.57 1120.51 2346
1211.18 1120.51 2346
1216.79 1120.51 2346
1222.4 1120.51 2346
1224.87 1117.65 2340
1226.78 1114.3 2333
1230.78 1112.87 2330
1236.35 1112.87 2330
1241.92 1112.87 2330
1247.49 1112.87 2330
1253.07 1112.87 2330
1258.64 1112.87 2330
1262.58 1111.44 2327
1268.15 1111.44 2327
1275.35 1112.87 2330
1282.57 1114.3 2333
1288.15 1114.3 2333
1293.73 1114.3 2333
1299.31 1114.3 2333
1304.89 1114.3 2333
1310.47 1114.3 2333
1312.66 1111.44 2327
1315.96 1109.53 2323
1321.52 1109.53 2323
1338.5 1119.08 2343
1344.1 1119.08 2343
1349.7 1119.08 2343
1353.57 1117.65 2340
1359.17 1117.65 2340
1364.76 1117.65 2340
1351.03 1101.88 2307
1362.43 1106.66 2317
1381.55 1117.65 2340
1388.92 1119.08 2343
1394.53 1119.08 2343
1406.1 1123.85 2353
1411.73 1123.85 2353
1417.36 1123.85 2353
1422.98 1123.85 2353
1426.79 1122.42 2350
1428.14 1119.08 2343
1435.58 1120.51 2346
1441.19 1120.51 2346
1452.97 1125.29 2356
1461.08 1127.2 2360
1470.45 1130.06 2366
1476.11 1130.06 2366
1481.77 1130.06 2366
1485.54 1128.63 2363
1491.19 1128.63 2363
1494.94 1127.2 2360
1498.04 1125.29 2356
1501.76 1123.85 2353
1505.46 1122.42 2350
1513.01 1123.85 2353
1518.64 1123.85 2353
1526.21 1125.29 2356
1569.55 1152.99 2414
1575.33 1152.99 2414
1581.1 1152.99 2414
1586.87 1152.99 2414
1537.74 1105.23 2314
1551.94 1111.44 2327
1557.5 1111.44 2327
1563.07 1111.44 2327
1568.63 1111.44 2327
1569.46 1108.09 2320
1575.01 1108.09 2320
1585.33 1111.44 2327
1590.89 1111.44 2327
1596.46 1111.44 2327
1608.9 1116.21 2337
1625.55 1123.85 2353
1638.11 1128.63 2363
1643.76 1128.63 2363
1654.29 1131.97 2370
1659.96 1131.97 2370
1665.63 1131.97 2370
1671.29 1131.97 2370
1674.13 1130.06 2366
1675.53 1127.2 2360
1681.17 1127.2 2360
1681.81 1123.85 2353
1687.44 1123.85 2353
1690.91 1122.42 2350
1693.64 1120.51 2346
1699.25 1120.51 2346
1695.41 1114.3 2333
1700.99 1114.3 2333
1706.57 1114.3 2333
1712.15 1114.3 2333
1717.73 1114.3 2333
1726.26 1116.21 2337
1731.85 1116.21 2337
1737.44 1116.21 2337
1740.04 1114.3 2333
1741.13 1111.44 2327
1741.44 1108.09 2320
1740.21 1103.79 2311
1745.74 1103.79 2311
1741.42 1097.59 2298
1753.75 1101.88 2307
1764.61 1105.23 2314
1770.14 1105.23 2314
-1750.38 1155.41 2407
-1744.62 1155.41 2407
-1738.87 1155.41 2407
-1631.01 1098.29 2288
-1625.54 1098.29 2288
-1627.15 1103.09 2298
-1621.66 1103.09 2298
-1620.38 1105.97 2304
-1614.87 1105.97 2304
-1622.63 1115.09 2323
-1617.08 1115.09 2323
-1611.52 1115.09 2323
-1605.97 1115.09 2323
-1600.41 1115.09 2323
-1590.74 1112.21 2317
-1585.2 1112.21 2317
-1579.66 1112.21 2317
-1574.12 1112.21 2317
-1559.77 1105.97 2304
-1554.26 1105.97 2304
-1548.76 1105.97 2304
-1535.21 1100.21 2292
-1523.05 1095.41 2282
-1526.24 1101.65 2295
-1520.75 1101.65 2295
-1521.21 1105.97 2304
-1517.67 1107.41 2307
-1516.74 1110.77 2314
-1511.21 1110.77 2314
-1505.68 1110.77 2314
-1500.14 1110.77 2314
-1494.61 1110.77 2314
-1489.08 1110.77 2314
-1487.39 1113.65 2320
-1483.76 1115.09 2323
-1478.2 1115.09 2323
-1472.65 1115.09 2323
-1467.09 1115.09 2323
-1461.54 1115.09 2323
-1455.98 1115.09 2323
-1450.43 1115.09 2323
-1444.87 1115.09 2323
-1443.65 1118.45 2330
-1438.08 1118.45 2330
-1432.51 1118.45 2330
-1426.94 1118.45 2330
-1421.37 1118.45 2330
-1404.25 1109.33 2311
-1414.46 1121.81 2337
-1408.87 1121.81 2337
-1403.28 1121.81 2337
-1397.7 1121.81 2337
-1393.89 1123.25 2340
-1388.3 1123.25 2340
-1382.7 1123.25 2340
-1377.11 1123.25 2340
-1371.51 1123.25 2340
-1355.99 1115.09 2323
-1346.95 1112.21 2317
-1341.41 1112.21 2317
-1335.87 1112.21 2317
-1330.33 1112.21 2317
-1324.79 1112.21 2317
-1319.25 1112.21 2317
-1313.71 1112.21 2317
-1300.83 1105.97 2304
-1295.32 1105.97 2304
-1288.13 1104.53 2301
-1282.62 1104.53 2301
-1275.46 1103.09 2298
-1268.3 1101.65 2295
-1264.47 1103.09 2298
-1263.9 1107.41 2307
-1258.38 1107.41 2307
-1255.04 1109.33 2311
-1249.51 1109.33 2311
-1243.99 1109.33 2311
-1238.46 1109.33 2311
-1232.94 1109.33 2311
-1227.41 1109.33 2311
-1221.88 1109.33 2311
-1216.36 1109.33 2311
-1213.97 1112.21 2317
-1208.43 1112.21 2317
-1206.01 1115.09 2323
-1200.45 1115.09 2323
-1200.04 1119.89 2333
-1198.05 1123.25 2340
-1197.55 1128.05 2350
-1191.93 1128.05 2350
-1189.34 1130.93 2356
-1185.71 1132.85 2360
-1185.07 1137.65 2370
-1179.4 1137.65 2370
-1175.22 1139.09 2373
-1169.55 1139.09 2373
-1163.87 1139.09 2373
-1148.43 1129.49 2353
-1136.49 1123.25 2340
-1124.62 1117.01 2327
-1119.05 1117.01 2327
-1110.14 1113.65 2320
-1101.73 1110.77 2314
-1094.78 1109.33 2311
-1092.08 1112.21 2317
-1089.35 1115.09 2323
-1083.8 1115.09 2323
-1078.24 1115.09 2323
-1072.69 1115.09 2323
-1067.13 1115.09 2323
-1056.09 1109.33 2311
-1046.02 1104.53 2301
-1037.81 1101.65 2295
-1033.67 1103.09 2298
-1028.17 1103.09 2298
-1025.35 1105.97 2304
-1021.17 1107.41 2307
-1017.41 1109.33 2311
-1011.88 1109.33 2311
-1006.36 1109.33 2311
-1002.13 1110.77 2314
-997.888 1112.21 2317
-992.348 1112.21 2317
-991.066 1117.01 2327
-985.502 1117.01 2327
-979.937 1117.01 2327
-974.372 1117.01 2327
-968.808 1117.01 2327
-960.346 1113.65 2320
-954.798 1113.65 2320
-946.795 1110.77 2314
-938.414 1107.41 2307
-932.897 1107.41 2307
-927.381 1107.41 2307
-920.665 1105.97 2304
-913.964 1104.53 2301
-906.093 1101.65 2295
-900.605 1101.65 2295
-893.947 1100.21 2292
-886.915 1098.29 2288
-881.444 1098.29 2288
-877.504 1100.21 2292
-872.023 1100.21 2292
-868.811 1103.09 2298
-868.199 1109.33 2311
-862.673 1109.33 2311
-857.147 1109.33 2311
-851.62 1109.33 2311
-846.094 1109.33 2311
-840.568 1109.33 2311
-833.596 1107.41 2307
-828.079 1107.41 2307
-822.563 1107.41 2307
-815.984 1105.97 2304
-813.992 1110.77 2314
-808.458 1110.77 2314
-802.925 1110.77 2314
-798.425 1112.21 2317
-792.884 1112.21 2317
-787.344 1112.21 2317
-781.803 1112.21 2317
-777.268 1113.65 2320
-774.048 1117.01 2327
-768.484 1117.01 2327
-762.919 1117.01 2327
-757.354 1117.01 2327
-751.79 1117.01 2327
-743.981 1113.65 2320
-735.568 1109.33 2311
-728.778 1107.41 2307
-723.261 1107.41 2307
-717.745 1107.41 2307
-712.228 1107.41 2307
-704.873 1104.53 2301
-699.371 1104.53 2301
-691.155 1100.21 2292
-684.477 1098.29 2288
-678.115 1096.85 2285
-672.651 1096.85 2285
-664.559 1092.53 2276
-659.117 1092.53 2276
-653.674 1092.53 2276
-648.232 1092.53 2276
-641.094 1089.65 2270
-633.986 1086.77 2264
-624.963 1080.53 2251
-617.928 1077.65 2245
-612.56 1077.65 2245
-602.323 1069.01 2227
-597.802 1070.45 2230
-596.455 1077.65 2245
-592.666 1080.53 2251
-587.283 1080.53 2251
-582.676 1081.97 2254
-580.615 1088.21 2267
-576.716 1091.09 2273
-571.281 1091.09 2273
-565.846 1091.09 2273
-558.931 1088.21 2267
-553.51 1088.21 2267
-548.089 1088.21 2267
-542.668 1088.21 2267
-539.379 1092.53 2276
-536.048 1096.85 2285
-530.584 1096.85 2285
-525.12 1096.85 2285
-520.338 1098.29 2288
-517.117 1103.09 2298
-511.622 1103.09 2298
-507.448 1105.97 2304
-501.938 1105.97 2304
-496.429 1105.97 2304
-490.919 1105.97 2304
-484.778 1104.53 2301
-478.026 1101.65 2295
-472.538 1101.65 2295
-467.05 1101.65 2295
-462.165 1103.09 2298
-456.67 1103.09 2298
-452.352 1105.97 2304
-446.843 1105.97 2304
-442.674 1109.33 2311
-437.715 1110.77 2314
-432.182 1110.77 2314
-426.648 1110.77 2314
-420.569 1109.33 2311
-414.324 1107.41 2307
-409.516 1109.33 2311
-403.99 1109.33 2311
-398.464 1109.33 2311
-393.958 1112.21 2317
-388.417 1112.21 2317
-382.876 1112.21 2317
-376.359 1109.33 2311
-370.832 1109.33 2311
-365.306 1109.33 2311
-359.78 1109.33 2311
-354.253 1109.33 2311
-348.727 1109.33 2311
-342.607 1107.41 2307
-337.09 1107.41 2307
-331.573 1107.41 2307
-325.632 1105.97 2304
-319.706 1104.53 2301
-314.204 1104.53 2301
-308.701 1104.53 2301
-303.594 1105.97 2304
-298.085 1105.97 2304
-292.575 1105.97 2304
-287.066 1105.97 2304
-281.923 1107.41 2307
-276.406 1107.41 2307
-270.889 1107.41 2307
-265.372 1107.41 2307
-259.856 1107.41 2307
-254.78 1109.33 2311
-249.254 1109.33 2311
-243.727 1109.33 2311
-237.789 1107.41 2307
-232.272 1107.41 2307
-226.755 1107.41 2307
-220.951 1105.97 2304
-215.441 1105.97 2304
-210.205 1107.41 2307
-204.688 1107.41 2307
-199.172 1107.41 2307
-193.655 1107.41 2307
-187.893 1105.97 2304
-182.938 1109.33 2311
-177.642 1110.77 2314
-172.109 1110.77 2314
-166.575 1110.77 2314
-160.554 1107.41 2307
-155.038 1107.41 2307
-148.549 1100.21 2292
-142.818 1098.29 2288
-132.845 1062.29 2213
-127.553 1062.29 2213
67.2626 1046.93 2181
72.6442 1049.33 2186
77.8716 1049.33 2186
83.099 1049.33 2186
88.3264 1049.33 2186
93.5538 1049.33 2186
98.6908 1048.37 2184
103.628 1045.49 2178
108.386 1041.17 2169
113.573 1041.17 2169
118.65 1040.21 2167
123.832 1040.21 2167
129.014 1040.21 2167
134.196 1040.21 2167
220.768 1110.77 2314
226.888 1113.65 2320
233.438 1118.45 2330
239.01 1118.45 2330
244.897 1119.89 2333
250.475 1119.89 2333
256.054 1119.89 2333
261.633 1119.89 2333
267.212 1119.89 2333
272.791 1119.89 2333
278.847 1121.81 2337
284.436 1121.81 2337
290.024 1121.81 2337
295.613 1121.81 2337
300.299 1118.45 2330
305.871 1118.45 2330
311.443 1118.45 2330
317.014 1118.45 2330
322.586 1118.45 2330
328.158 1118.45 2330
333.729 1118.45 2330
338.864 1117.01 2327
343.837 1115.09 2323
349.392 1115.09 2323
354.488 1113.65 2320
360.036 1113.65 2320
365.584 1113.65 2320
371.132 1113.65 2320
376.68 1113.65 2320
382.228 1113.65 2320
387.775 1113.65 2320
393.323 1113.65 2320
398.871 1113.65 2320
402.85 1109.33 2311
408.376 1109.33 2311
413.903 1109.33 2311
419.429 1109.33 2311
424.955 1109.33 2311
431.04 1110.77 2314
438.272 1115.09 2323
443.827 1115.09 2323
449.382 1115.09 2323
454.937 1115.09 2323
460.492 1115.09 2323
466.047 1115.09 2323
471.602 1115.09 2323
477.157 1115.09 2323
482.088 1113.65 2320
487.636 1113.65 2320
492.546 1112.21 2317
499.377 1115.09 2323
504.932 1115.09 2323
510.487 1115.09 2323
516.042 1115.09 2323
521.597 1115.09 2323
527.152 1115.09 2323
532.707 1115.09 2323
538.262 1115.09 2323
543.114 1113.65 2320
548.662 1113.65 2320
554.21 1113.65 2320
559.758 1113.65 2320
565.306 1113.65 2320
570.115 1112.21 2317
574.165 1109.33 2311
579.692 1109.33 2311
585.218 1109.33 2311
590.744 1109.33 2311
597.045 1110.77 2314
602.578 1110.77 2314
608.112 1110.77 2314
614.441 1112.21 2317
619.981 1112.21 2317
626.332 1113.65 2320
631.88 1113.65 2320
639.351 1117.01 2327
645.747 1118.45 2330
651.318 1118.45 2330
656.89 1118.45 2330
665.305 1123.25 2340
672.621 1126.13 2346
678.231 1126.13 2346
683.841 1126.13 2346
689.451 1126.13 2346
697.135 1129.49 2353
702.762 1129.49 2353
710.496 1132.85 2360
716.139 1132.85 2360
721.783 1132.85 2360
727.426 1132.85 2360
733.07 1132.85 2360
738.713 1132.85 2360
743.095 1130.93 2356
747.776 1129.49 2353
753.402 1129.49 2353
756.771 1126.13 2346
761.406 1124.69 2343
763.735 1119.89 2333
769.314 1119.89 2333
772.9 1117.01 2327
778.465 1117.01 2327
780.66 1112.21 2317
786.201 1112.21 2317
789.691 1109.33 2311
791.776 1104.53 2301
796.239 1103.09 2298
800.688 1101.65 2295
808.284 1104.53 2301
813.786 1104.53 2301
819.288 1104.53 2301
825.866 1105.97 2304
832.458 1107.41 2307
837.975 1107.41 2307
843.492 1107.41 2307
851.584 1110.77 2314
858.229 1112.21 2317
863.77 1112.21 2317
870.436 1113.65 2320
879.76 1118.45 2330
889.131 1123.25 2340
894.727 1123.25 2340
904.17 1128.05 2350
912.112 1130.93 2356
919.304 1132.85 2360
924.948 1132.85 2360
932.957 1135.73 2366
938.615 1135.73 2366
944.273 1135.73 2366
948.726 1134.29 2363
954.377 1134.29 2363
960.028 1134.29 2363
966.904 1135.73 2366
976.673 1140.53 2376
982.354 1140.53 2376
990.947 1143.89 2383
998.318 1145.81 2387
1004.03 1145.81 2387
1009.73 1145.81 2387
1017.99 1148.69 2393
1029.71 1155.41 2407
1035.46 1155.41 2407
1041.22 1155.41 2407
1036.53 1143.89 2383
1040.92 1142.45 2380
1046.61 1142.45 2380
1044.79 1134.29 2363
1047.33 1130.93 2356
1052.96 1130.93 2356
1058.59 1130.93 2356
1064.23 1130.93 2356
1069.86 1130.93 2356
1075.5 1130.93 2356
1081.13 1130.93 2356
1086.76 1130.93 2356
1091.01 1129.49 2353
1095.23 1128.05 2350
1098.98 1126.13 2346
1107.89 1129.49 2353
1113.51 1129.49 2353
1119.14 1129.49 2353
1123.33 1128.05 2350
1128.95 1128.05 2350
1134.57 1128.05 2350
1136.8 1124.69 2343
1142.4 1124.69 2343
1148 1124.69 2343
1150.65 1121.81 2337
1156.24 1121.81 2337
1163.32 1123.25 2340
1168.91 1123.25 2340
1174.51 1123.25 2340
1180.1 1123.25 2340
1190.77 1128.05 2350
1196.39 1128.05 2350
1202.01 1128.05 2350
1205.57 1126.13 2346
1211.18 1126.13 2346
1216.79 1126.13 2346
1222.4 1126.13 2346
1224.87 1123.25 2340
1226.78 1119.89 2333
1230.78 1118.45 2330
1236.35 1118.45 2330
1241.92 1118.45 2330
1247.49 1118.45 2330
1253.07 1118.45 2330
1258.64 1118.45 2330
1262.58 1117.01 2327
1268.15 1117.01 2327
1275.35 1118.45 2330
1282.57 1119.89 2333
1288.15 1119.89 2333
1293.73 1119.89 2333
1299.31 1119.89 2333
1304.89 1119.89 2333
1310.47 1119.89 2333
1312.66 1117.01 2327
1315.96 1115.09 2323
1321.52 1115.09 2323
1338.5 1124.69 2343
1344.1 1124.69 2343
1349.7 1124.69 2343
1353.57 1123.25 2340
1359.17 1123.25 2340
1364.76 1123.25 2340
1351.03 1107.41 2307
1362.43 1112.21 2317
1381.55 1123.25 2340
1388.92 1124.69 2343
1394.53 1124.69 2343
1406.1 1129.49 2353
1411.73 1129.49 2353
1417.36 1129.49 2353
1422.98 1129.49 2353
1426.79 1128.05 2350
1428.14 1124.69 2343
1435.58 1126.13 2346
1441.19 1126.13 2346
1452.97 1130.93 2356
1461.08 1132.85 2360
1470.45 1135.73 2366
1476.11 1135.73 2366
1481.77 1135.73 2366
1485.54 1134.29 2363
1491.19 1134.29 2363
1494.94 1132.85 2360
1498.04 1130.93 2356
1501.76 1129.49 2353
1505.46 1128.05 2350
1513.01 1129.49 2353
1518.64 1129.49 2353
1526.21 1130.93 2356
1569.55 1158.77 2414
1575.33 1158.77 2414
1581.1 1158.77 2414
1586.87 1158.77 2414
1503.58 1093.97 2279
1514.99 1098.29 2288
1537.74 1110.77 2314
1551.94 1117.01 2327
1557.5 1117.01 2327
1563.07 1117.01 2327
1568.63 1117.01 2327
1569.46 1113.65 2320
1575.01 1113.65 2320
1585.33 1117.01 2327
1590.89 1117.01 2327
1596.46 1117.01 2327
1608.9 1121.81 2337
1625.55 1129.49 2353
1638.11 1134.29 2363
1643.76 1134.29 2363
1654.29 1137.65 2370
1659.96 1137.65 2370
1665.63 1137.65 2370
1671.29 1137.65 2370
1674.13 1135.73 2366
1675.53 1132.85 2360
1681.17 1132.85 2360
1681.81 1129.49 2353
1675.97 1121.81 2337
1681.55 1121.81 2337
1684.26 1119.89 2333
1689.83 1119.89 2333
1691.05 1117.01 2327
1696.62 1117.01 2327
1702.18 1117.01 2327
1709.95 1118.45 2330
1715.52 1118.45 2330
1723.31 1119.89 2333
1728.89 1119.89 2333
1734.47 1119.89 2333
1740.04 1119.89 2333
1735.9 1113.65 2320
1736.94 1110.77 2314
1734.94 1105.97 2304
1740.45 1105.97 2304
1741.42 1103.09 2298
1751.47 1105.97 2304
1764.61 1110.77 2314
1770.14 1110.77 2314
-1655.96 1120.66 2323
-1650.41 1120.66 2323
-1644.85 1120.66 2323
-1630.83 1114.87 2311
-1625.3 1114.87 2311
-1619.78 1114.87 2311
-1618.44 1117.76 2317
-1614.99 1119.21 2320
-1609.44 1119.21 2320
-1603.89 1119.21 2320
-1596.28 1117.76 2317
-1590.74 1117.76 2317
-1585.2 1117.76 2317
-1572.84 1112.94 2307
-1567.32 1112.94 2307
-1559.77 1111.49 2304
-1554.26 1111.49 2304
-1546.74 1110.04 2301
-1535.21 1105.7 2292
-1523.05 1100.88 2282
-1519.59 1102.32 2285
-1514.13 1102.32 2285
-1515.27 1107.15 2295
-1515.7 1111.49 2304
-1514.78 1114.87 2311
-1509.25 1114.87 2311
-1503.72 1114.87 2311
-1498.2 1114.87 2311
-1492.67 1114.87 2311
-1487.15 1114.87 2311
-1479.05 1112.94 2307
-1478.01 1116.31 2314
-1474.38 1117.76 2317
-1468.84 1117.76 2317
-1463.3 1117.76 2317
-1449.58 1111.49 2304
-1445.95 1112.94 2307
-1448.55 1119.21 2320
-1443.01 1119.21 2320
-1437.46 1119.21 2320
-1431.91 1119.21 2320
-1426.36 1119.21 2320
-1420.81 1119.21 2320
-1407.34 1112.94 2307
-1398.17 1110.04 2301
-1396.3 1112.94 2307
-1390.79 1112.94 2307
-1387.67 1114.87 2311
-1383.94 1116.31 2314
-1383.77 1120.66 2323
-1378.21 1120.66 2323
-1372.66 1120.66 2323
-1367.1 1120.66 2323
-1361.55 1120.66 2323
-1350.74 1116.31 2314
-1339.39 1111.49 2304
-1330.41 1108.59 2298
-1324.91 1108.59 2298
-1319.42 1108.59 2298
-1310.49 1105.7 2292
-1305.01 1105.7 2292
-1299.53 1105.7 2292
-1291.79 1103.77 2288
-1284.63 1102.32 2285
-1274.13 1097.98 2276
-1268.69 1097.98 2276
-1261.58 1096.53 2273
-1254.49 1095.09 2270
-1257.31 1102.32 2285
-1257.33 1107.15 2295
-1251.84 1107.15 2295
-1249.61 1110.04 2301
-1244.11 1110.04 2301
-1238.6 1110.04 2301
-1233.1 1110.04 2301
-1227.6 1110.04 2301
-1220.5 1108.59 2298
-1215.01 1108.59 2298
-1209.51 1108.59 2298
-1207.16 1111.49 2304
-1201.65 1111.49 2304
-1201.33 1116.31 2314
-1195.8 1116.31 2314
-1194.9 1120.66 2323
-1189.34 1120.66 2323
-1187.35 1124.03 2330
-1181.78 1124.03 2330
-1177.73 1125.48 2333
-1172.15 1125.48 2333
-1168.57 1127.41 2337
-1162.98 1127.41 2337
-1158.88 1128.86 2340
-1153.28 1128.86 2340
-1147.69 1128.86 2340
-1140.63 1127.41 2337
-1135.04 1127.41 2337
-1122.68 1120.66 2323
-1117.13 1120.66 2323
-1108.7 1117.76 2317
-1100.3 1114.87 2311
-1094.78 1114.87 2311
-1092.08 1117.76 2317
-1089.35 1120.66 2323
-1083.8 1120.66 2323
-1078.24 1120.66 2323
-1072.69 1120.66 2323
-1067.13 1120.66 2323
-1056.09 1114.87 2311
-1046.02 1110.04 2301
-1037.81 1107.15 2295
-1033.67 1108.59 2298
-1028.17 1108.59 2298
-1024.01 1110.04 2301
-1021.17 1112.94 2307
-1015.65 1112.94 2307
-1010.13 1112.94 2307
-1006.36 1114.87 2311
-1000.83 1114.87 2311
-996.596 1116.31 2314
-991.063 1116.31 2314
-986.807 1117.76 2317
-983.807 1120.66 2323
-978.253 1120.66 2323
-972.698 1120.66 2323
-965.893 1119.21 2320
-959.104 1117.76 2317
-953.563 1117.76 2317
-943.931 1112.94 2307
-935.974 1110.04 2301
-930.471 1110.04 2301
-924.969 1110.04 2301
-919.466 1110.04 2301
-912.772 1108.59 2298
-903.329 1103.77 2288
-897.858 1103.77 2288
-892.386 1103.77 2288
-885.752 1102.32 2285
-880.288 1102.32 2285
-877.504 1105.7 2292
-872.023 1105.7 2292
-868.811 1108.59 2298
-868.199 1114.87 2311
-862.673 1114.87 2311
-857.147 1114.87 2311
-851.62 1114.87 2311
-846.094 1114.87 2311
-840.568 1114.87 2311
-833.596 1112.94 2307
-828.079 1112.94 2307
-822.563 1112.94 2307
-815.984 1111.49 2304
-813.992 1116.31 2314
-808.458 1116.31 2314
-802.925 1116.31 2314
-797.391 1116.31 2314
-791.858 1116.31 2314
-786.324 1116.31 2314
-780.791 1116.31 2314
-776.262 1117.76 2317
-771.72 1119.21 2320
-766.172 1119.21 2320
-760.624 1119.21 2320
-755.076 1119.21 2320
-749.528 1119.21 2320
-743.018 1117.76 2317
-734.295 1112.94 2307
-726.883 1110.04 2301
-721.38 1110.04 2301
-714.945 1108.59 2298
-709.45 1108.59 2298
-702.116 1105.7 2292
-696.635 1105.7 2292
-689.044 1102.32 2285
-682.682 1100.88 2282
-675.445 1097.98 2276
-670.002 1097.98 2276
-664.559 1097.98 2276
-659.117 1097.98 2276
-653.674 1097.98 2276
-648.232 1097.98 2276
-641.094 1095.09 2270
-633.986 1092.19 2264
-624.963 1085.92 2251
-617.928 1083.03 2245
-612.56 1083.03 2245
-602.323 1074.34 2227
-597.802 1075.79 2230
-596.455 1083.03 2245
-592.666 1085.92 2251
-587.283 1085.92 2251
-582.676 1087.37 2254
-580.615 1093.64 2267
-576.716 1096.53 2273
-571.281 1096.53 2273
-565.846 1096.53 2273
-558.931 1093.64 2267
-553.51 1093.64 2267
-548.089 1093.64 2267
-542.668 1093.64 2267
-539.379 1097.98 2276
-536.048 1102.32 2285
-530.584 1102.32 2285
-525.12 1102.32 2285
-520.338 1103.77 2288
-517.117 1108.59 2298
-511.622 1108.59 2298
-507.448 1111.49 2304
-501.938 1111.49 2304
-496.429 1111.49 2304
-490.919 1111.49 2304
-484.778 1110.04 2301
-478.026 1107.15 2295
-472.538 1107.15 2295
-467.05 1107.15 2295
-462.165 1108.59 2298
-456.67 1108.59 2298
-452.352 1111.49 2304
-446.843 1111.49 2304
-442.674 1114.87 2311
-437.715 1116.31 2314
-432.182 1116.31 2314
-426.648 1116.31 2314
-420.569 1114.87 2311
-414.324 1112.94 2307
-409.516 1114.87 2311
-403.99 1114.87 2311
-398.464 1114.87 2311
-393.958 1117.76 2317
-388.417 1117.76 2317
-382.876 1117.76 2317
-376.359 1114.87 2311
-370.832 1114.87 2311
-365.306 1114.87 2311
-359.78 1114.87 2311
-354.253 1114.87 2311
-348.727 1114.87 2311
-342.607 1112.94 2307
-337.09 1112.94 2307
-331.573 1112.94 2307
-325.632 1111.49 2304
-319.706 1110.04 2301
-314.204 1110.04 2301
-308.701 1110.04 2301
-303.594 1111.49 2304
-298.085 1111.49 2304
-292.575 1111.49 2304
-287.066 1111.49 2304
-281.923 1112.94 2307
-276.406 1112.94 2307
-270.889 1112.94 2307
-265.372 1112.94 2307
-259.856 1112.94 2307
-254.78 1114.87 2311
-249.254 1114.87 2311
-243.727 1114.87 2311
-237.789 1112.94 2307
-232.272 1112.94 2307
-226.755 1112.94 2307
-220.951 1111.49 2304
-215.441 1111.49 2304
-210.205 1112.94 2307
-204.688 1112.94 2307
-199.172 1112.94 2307
-193.655 1112.94 2307
-187.893 1111.49 2304
-182.938 1114.87 2311
-177.642 1116.31 2314
-172.109 1116.31 2314
-166.575 1116.31 2314
-160.554 1112.94 2307
-155.038 1112.94 2307
-148.549 1105.7 2292
-142.818 1103.77 2288
-132.845 1067.59 2213
-127.553 1067.59 2213
-120.769 1054.56 2186
-116.176 1060.35 2198
-110.92 1060.35 2198
-105.664 1060.35 2198
72.7439 1056.01 2189
77.9785 1056.01 2189
83.2131 1056.01 2189
88.4476 1056.01 2189
93.6822 1056.01 2189
98.6908 1053.6 2184
103.628 1050.7 2178
108.386 1046.36 2169
113.573 1046.36 2169
118.76 1046.36 2169
123.832 1045.4 2167
129.014 1045.4 2167
134.196 1045.4 2167
218.288 1103.77 2288
226.302 1116.31 2314
232.436 1119.21 2320
237.984 1119.21 2320
244.582 1124.03 2330
250.153 1124.03 2330
255.725 1124.03 2330
261.297 1124.03 2330
266.869 1124.03 2330
272.44 1124.03 2330
278.012 1124.03 2330
283.584 1124.03 2330
289.156 1124.03 2330
294.727 1124.03 2330
299.397 1120.66 2323
304.952 1120.66 2323
310.507 1120.66 2323
316.062 1120.66 2323
322.171 1122.59 2327
327.735 1122.59 2327
333.3 1122.59 2327
338.282 1120.66 2323
343.393 1119.21 2320
348.941 1119.21 2320
354.488 1119.21 2320
360.036 1119.21 2320
365.584 1119.21 2320
371.132 1119.21 2320
376.193 1117.76 2317
381.733 1117.76 2317
387.274 1117.76 2317
392.815 1117.76 2317
397.839 1116.31 2314
402.153 1112.94 2307
407.669 1112.94 2307
413.186 1112.94 2307
418.703 1112.94 2307
424.22 1112.94 2307
431.04 1116.31 2314
436.574 1116.31 2314
443.827 1120.66 2323
449.382 1120.66 2323
454.937 1120.66 2323
459.897 1119.21 2320
465.445 1119.21 2320
470.993 1119.21 2320
475.924 1117.76 2317
480.842 1116.31 2314
486.375 1116.31 2314
489.783 1111.49 2304
495.937 1112.94 2307
501.454 1112.94 2307
506.971 1112.94 2307
512.487 1112.94 2307
518.004 1112.94 2307
522.84 1111.49 2304
528.35 1111.49 2304
533.859 1111.49 2304
538.667 1110.04 2301
544.169 1110.04 2301
548.955 1108.59 2298
554.45 1108.59 2298
559.945 1108.59 2298
564.702 1107.15 2295
569.445 1105.7 2292
574.926 1105.7 2292
579.394 1103.77 2288
585.887 1105.7 2292
592.142 1107.15 2295
598.412 1108.59 2298
603.907 1108.59 2298
610.198 1110.04 2301
617.305 1112.94 2307
622.822 1112.94 2307
628.339 1112.94 2307
636.603 1117.76 2317
642.144 1117.76 2317
648.523 1119.21 2320
654.071 1119.21 2320
662.462 1124.03 2330
668.894 1125.48 2333
676.496 1128.86 2340
682.092 1128.86 2340
687.688 1128.86 2340
695.061 1131.75 2346
701.866 1133.68 2350
709.292 1136.58 2356
714.925 1136.58 2356
720.559 1136.58 2356
726.193 1136.58 2356
731.827 1136.58 2356
737.461 1136.58 2356
741.203 1133.68 2350
745.551 1131.75 2346
751.161 1131.75 2346
755.803 1130.3 2343
759.456 1127.41 2337
761.771 1122.59 2327
767.336 1122.59 2327
771.572 1120.66 2323
776.123 1119.21 2320
778.638 1114.87 2311
784.165 1114.87 2311
787.299 1111.49 2304
791.776 1110.04 2301
795.2 1107.15 2295
799.641 1105.7 2292
805.122 1105.7 2292
810.603 1105.7 2292
818.22 1108.59 2298
824.791 1110.04 2301
830.293 1110.04 2301
835.795 1110.04 2301
843.492 1112.94 2307
849.008 1112.94 2307
854.525 1112.94 2307
860.042 1112.94 2307
869.31 1117.76 2317
875.984 1119.21 2320
887.991 1127.41 2337
893.58 1127.41 2337
901.477 1130.3 2343
908.241 1131.75 2346
916.578 1135.13 2353
922.204 1135.13 2353
929.014 1136.58 2356
934.648 1136.58 2356
940.282 1136.58 2356
944.711 1135.13 2353
950.338 1135.13 2353
954.746 1133.68 2350
961.591 1135.13 2353
970.096 1138.5 2360
975.739 1138.5 2360
983.878 1141.4 2366
989.535 1141.4 2366
998.138 1144.78 2373
1003.81 1144.78 2373
1010.76 1146.22 2376
1019.44 1149.6 2383
1025.14 1149.6 2383
1030.84 1149.6 2383
1035.23 1148.15 2380
1034.8 1141.4 2366
1040.46 1141.4 2366
1041.69 1136.58 2356
1045.99 1135.13 2353
1050.28 1133.68 2350
1055.9 1133.68 2350
1061.52 1133.68 2350
1067.14 1133.68 2350
1074.13 1135.13 2353
1079.75 1135.13 2353
1085.38 1135.13 2353
1089.62 1133.68 2350
1093.37 1131.75 2346
1098.98 1131.75 2346
1104.59 1131.75 2346
1110.2 1131.75 2346
1115.81 1131.75 2346
1119.99 1130.3 2343
1125.59 1130.3 2343
1131.19 1130.3 2343
1133.88 1127.41 2337
1137.52 1125.48 2333
1143.1 1125.48 2333
1147.2 1124.03 2330
1152.77 1124.03 2330
1159.84 1125.48 2333
1167.41 1127.41 2337
1173 1127.41 2337
1178.59 1127.41 2337
1185.7 1128.86 2340
1191.3 1128.86 2340
1196.89 1128.86 2340
1202.49 1128.86 2340
1208.08 1128.86 2340
1213.68 1128.86 2340
1219.27 1128.86 2340
1219.64 1124.03 2330
1219.95 1119.21 2320
1227.08 1120.66 2323
1234.76 1122.59 2327
1240.32 1122.59 2327
1245.89 1122.59 2327
1251.45 1122.59 2327
1257.02 1122.59 2327
1262.58 1122.59 2327
1264.33 1119.21 2320
1271.52 1120.66 2323
1280.92 1124.03 2330
1286.5 1124.03 2330
1292.07 1124.03 2330
1295.97 1122.59 2327
1301.53 1122.59 2327
1307.1 1122.59 2327
1308.71 1119.21 2320
1312.56 1117.76 2317
1318.1 1117.76 2317
1327.07 1120.66 2323
1332.63 1120.66 2323
1338.18 1120.66 2323
1343.74 1120.66 2323
1349.29 1120.66 2323
1354.85 1120.66 2323
1351.03 1112.94 2307
1362.43 1117.76 2317
1375.64 1124.03 2330
1382.99 1125.48 2333
1388.57 1125.48 2333
1396.54 1127.41 2337
1402.13 1127.41 2337
1407.72 1127.41 2337
1413.31 1127.41 2337
1412.82 1122.59 2327
1418.39 1122.59 2327
1425.79 1124.03 2330
1431.36 1124.03 2330
1443.1 1128.86 2340
1450.55 1130.3 2343
1458.02 1131.75 2346
1463.63 1131.75 2346
1469.24 1131.75 2346
1474.85 1131.75 2346
1480.46 1131.75 2346
1486.07 1131.75 2346
1489.77 1130.3 2343
1491.55 1127.41 2337
1497.13 1127.41 2337
1508.51 1131.75 2346
1514.12 1131.75 2346
1519.73 1131.75 2346
1503.58 1099.43 2279
1514.99 1103.77 2288
1537.74 1116.31 2314
1543.27 1116.31 2314
1548.8 1116.31 2314
1554.34 1116.31 2314
1559.87 1116.31 2314
1558.64 1111.49 2304
1568.9 1114.87 2311
1578.51 1117.76 2317
1584.05 1117.76 2317
1589.59 1117.76 2317
1606.15 1125.48 2333
1614.49 1127.41 2337
1631.17 1135.13 2353
1636.8 1135.13 2353
1644.52 1136.58 2356
1650.15 1136.58 2356
1655.79 1136.58 2356
1661.42 1136.58 2356
1662.81 1133.68 2350
1663.46 1130.3 2343
1669.06 1130.3 2343
1674.67 1130.3 2343
1675.97 1127.41 2337
1681.55 1127.41 2337
1684.26 1125.48 2333
1689.83 1125.48 2333
1691.05 1122.59 2327
1696.62 1122.59 2327
1702.18 1122.59 2327
1709.95 1124.03 2330
1715.52 1124.03 2330
1723.31 1125.48 2333
1728.89 1125.48 2333
1734.47 1125.48 2333
1740.04 1125.48 2333
1735.9 1119.21 2320
1736.94 1116.31 2314
1734.94 1111.49 2304
1740.45 1111.49 2304
1741.42 1108.59 2298
1751.47 1111.49 2304
1764.61 1116.31 2314
1770.14 1116.31 2314
-1655.96 1126.22 2323
-1650.41 1126.22 2323
-1644.85 1126.22 2323
-1630.83 1120.4 2311
-1625.3 1120.4 2311
-1619.78 1120.4 2311
-1618.44 1123.31 2317
-1614.99 1124.77 2320
-1609.44 1124.77 2320
-1603.89 1124.77 2320
-1596.28 1123.31 2317
-1590.74 1123.31 2317
-1585.2 1123.31 2317
-1572.84 1118.46 2307
-1567.32 1118.46 2307
-1561.81 1118.46 2307
-1556.29 1118.46 2307
-1550.77 1118.46 2307
-1541.24 1115.55 2301
-1531.73 1112.65 2295
-1526.24 1112.65 2295
-1520.75 1112.65 2295
-1519.23 1115.55 2301
-1520.3 1120.4 2311
-1514.78 1120.4 2311
-1509.25 1120.4 2311
-1505.68 1121.86 2314
-1500.14 1121.86 2314
-1494.61 1121.86 2314
-1487.15 1120.4 2311
-1477.13 1117.01 2304
-1471.62 1117.01 2304
-1466.11 1117.01 2304
-1460.6 1117.01 2304
-1455.09 1117.01 2304
-1447.7 1115.55 2301
-1444.07 1117.01 2304
-1440.44 1118.46 2307
-1434.92 1118.46 2307
-1429.4 1118.46 2307
