ply
format ascii 1.0
comment File generated
element vertex 2246
property float x
property float y
property float z
end_header
1694.57 1009.66 3208
1686.32 1000.22 3178
1677.93 990.775 3148
1688.67 992.664 3154
1696.21 992.664 3154
1703.75 992.664 3154
1711.29 992.664 3154
1718.84 992.664 3154
1726.38 992.664 3154
1727.32 988.887 3142
1741.46 992.664 3154
1749.01 992.664 3154
1756.55 992.664 3154
1764.09 992.664 3154
1771.63 992.664 3154
1775.79 990.775 3148
1783.32 990.775 3148
1945.27 981.333 3118
1952.72 981.333 3118
1960.18 981.333 3118
1967.64 981.333 3118
1975.09 981.333 3118
1982.55 981.333 3118
1975.33 974.095 3095
1982.73 974.095 3095
1983.05 970.633 3084
1979.46 965.282 3067
1986.79 965.282 3067
1983.07 959.932 3050
1979.27 954.581 3033
1983.25 953.008 3028
1990.49 953.008 3028
1997.73 953.008 3028
2004.97 953.008 3028
2012.21 953.008 3028
2019.45 953.008 3028
2007.36 902.021 2866
2014.21 902.021 2866
2021.07 902.021 2866
2027.92 902.021 2866
2045.42 906.742 2881
2052.31 906.742 2881
2080.65 916.184 2911
2095.5 919.646 2922
2109.68 922.793 2932
2116.69 922.793 2932
2123.7 922.793 2932
2156.87 934.124 2968
2236.15 965.282 3067
2243.49 965.282 3067
2263.3 970.633 3084
2283.19 975.983 3101
2316.46 986.999 3136
2323.96 986.999 3136
2349.3 994.552 3160
2379.23 1003.99 3190
2410.05 1013.75 3221
2417.76 1013.75 3221
2425.46 1013.75 3221
2433.16 1013.75 3221
2440.86 1013.75 3221
2448.56 1013.75 3221
2405.17 992.664 3154
-2172.05 919.986 2901
-2268.11 963.75 3039
-2260.84 963.75 3039
-2253.57 963.75 3039
-2246.31 963.75 3039
-2239.04 963.75 3039
-2227.36 961.847 3033
-2216.45 960.261 3028
-2036.24 896.836 2828
-2035.94 899.69 2837
-2036.31 902.861 2847
-2029.5 902.861 2847
-2022.69 902.861 2847
-1945.34 883.199 2785
-1942.16 884.785 2790
-1935.49 884.785 2790
-1928.82 884.785 2790
-1924.9 886.053 2794
-1941.57 896.836 2828
-1934.8 896.836 2828
-1944.4 904.447 2852
-1944.38 907.618 2862
-1937.53 907.618 2862
-1930.69 907.618 2862
-1841.34 887.639 2799
-1834.64 887.639 2799
-1831.22 889.225 2804
-1845.98 899.69 2837
-1845.68 902.861 2847
-1838.87 902.861 2847
-1832.06 902.861 2847
-1776.9 949.796 2995
-1769.74 949.796 2995
-1762.58 949.796 2995
-1777.69 961.847 3033
-1770.44 961.847 3033
-1763.18 961.847 3033
-1749.56 958.358 3022
-1739.45 956.773 3017
-1732.24 956.773 3017
-1725.02 956.773 3017
-1708.13 951.382 3000
-1682.81 941.234 2968
-1663.86 934.574 2947
-1656.81 934.574 2947
-1649.76 934.574 2947
-1657.77 943.136 2974
-1668.42 953.284 3006
-1682.23 965.335 3044
-1674.95 965.335 3044
-1686.3 976.117 3078
-1682.21 978.02 3084
-1674.84 978.02 3084
-1667.46 978.02 3084
-1454.71 988.803 3118
-1447.25 988.803 3118
-1439.79 988.803 3118
-1427.28 985.314 3107
-1419.85 985.314 3107
-1401.97 978.02 3084
-1386.91 972.629 3067
-1371.93 967.238 3050
-1357.03 961.847 3033
-1349.77 961.847 3033
-1295.6 928.231 2927
-1270.55 915.229 2886
-1263.65 915.229 2886
-1263.28 919.986 2901
-1256.34 919.986 2901
-1269.22 934.574 2947
-1262.17 934.574 2947
-1255.12 934.574 2947
-1248.08 934.574 2947
-1241.03 934.574 2947
-1249.47 946.308 2984
-1242.34 946.308 2984
-1235.2 946.308 2984
-1228.07 946.308 2984
-1220.93 946.308 2984
-1213.8 946.308 2984
-1200.19 941.234 2968
-1201.94 948.21 2990
-1203.18 954.87 3011
-1195.98 954.87 3011
-1188.78 954.87 3011
-1181.58 954.87 3011
-1193.13 994.511 3136
-1206.05 1011.64 3190
-1198.42 1011.64 3190
-1195.27 1015.44 3202
-1196.89 1023.37 3227
-1189.17 1023.37 3227
-1181.46 1023.37 3227
-1173.74 1023.37 3227
-1163.85 1021.47 3221
-1156.15 1021.47 3221
-1137.4 1011.64 3190
-1123.39 1005.93 3172
-1111.59 1002.12 3160
-1104.03 1002.12 3160
-1094.39 1000.22 3154
-1074.45 988.803 3118
-1063.22 985.314 3107
-1055.79 985.314 3107
-1038.58 976.117 3078
-1027.53 972.629 3067
-1010.89 963.75 3039
-1001.64 961.847 3033
-994.385 961.847 3033
-987.132 961.847 3033
-979.879 961.847 3033
-965.571 954.87 3011
-958.371 954.87 3011
-949.591 953.284 3006
-940.522 951.382 3000
-930.237 948.21 2990
-923.087 948.21 2990
-907.666 939.648 2963
-897.541 936.477 2953
-888.67 934.574 2947
-881.623 934.574 2947
-874.576 934.574 2947
-870.767 938.062 2958
-865.153 939.648 2963
-865.887 948.21 2990
-858.737 948.21 2990
-854.435 951.382 3000
-847.261 951.382 3000
-840.087 951.382 3000
-827.083 944.722 2979
-819.959 944.722 2979
-812.836 944.722 2979
-805.712 944.722 2979
-801.537 948.21 2990
-794.387 948.21 2990
-787.237 948.21 2990
-777.217 944.722 2979
-770.094 944.722 2979
-757.591 938.062 2958
-751.787 939.648 2963
-745.958 941.234 2968
-740.354 943.136 2974
-733.242 943.136 2974
-726.131 943.136 2974
-719.019 943.136 2974
-711.907 943.136 2974
-702.189 939.648 2963
-695.103 939.648 2963
-685.696 936.477 2953
-678.634 936.477 2953
-667.934 931.403 2937
-658.66 928.231 2927
-650.548 926.646 2922
-643.56 926.646 2922
-636.573 926.646 2922
-629.586 926.646 2922
-622.598 926.646 2922
-615.611 926.646 2922
-608.623 926.646 2922
-601.636 926.646 2922
-594.649 926.646 2922
-587.661 926.646 2922
-580.674 926.646 2922
-573.687 926.646 2922
-566.699 926.646 2922
-562.585 931.403 2937
-556.508 932.988 2942
-549.472 932.988 2942
-547.231 941.234 2968
-545.957 951.382 3000
-538.783 951.382 3000
-538.52 963.75 3039
-533.176 967.238 3050
-525.883 967.238 3050
-518.589 967.238 3050
-510.29 965.335 3044
-503.011 965.335 3044
-493.94 961.847 3033
-486.687 961.847 3033
-478.644 960.261 3028
-471.403 960.261 3028
-465.848 963.75 3039
-458.581 963.75 3039
-451.314 963.75 3039
-448.869 974.215 3072
-441.523 974.215 3072
-434.177 974.215 3072
-426.136 972.629 3067
-418.802 972.629 3067
-410.663 970.726 3061
-403.343 970.726 3061
-396.023 970.726 3061
-390.1 974.215 3072
-382.754 974.215 3072
-375.408 974.215 3072
-368.062 974.215 3072
-360.716 974.215 3072
-313.545 1011.64 3190
-306.493 1013.54 3196
-299.972 1017.34 3208
-292.301 1017.34 3208
-284.629 1017.34 3208
-275.922 1013.54 3196
-268.279 1013.54 3196
-260.148 1011.64 3190
-252.044 1009.73 3184
-244.43 1009.73 3184
-236.817 1009.73 3184
-228.339 1005.93 3172
-220.336 1004.02 3166
-212.362 1002.12 3160
-204.805 1002.12 3160
-197.249 1002.12 3160
-189.332 1000.22 3154
-181.098 996.414 3142
-172.922 992.608 3130
-165.437 992.608 3130
-157.952 992.608 3130
-149.602 986.9 3112
-141.658 983.411 3101
-134.243 983.411 3101
-124.946 968.824 3055
-117.217 965.335 3044
-109.938 965.335 3044
-102.659 965.335 3044
-94.6901 958.358 3022
-41.7576 683.409 2155
-36.6044 683.409 2155
-31.4511 683.409 2155
-26.2978 683.409 2155
-21.0661 680.872 2147
-15.932 680.872 2147
-10.7828 679.921 2144
-5.65052 679.286 2142
-0.528842 679.921 2144
4.60455 680.872 2147
9.73867 680.872 2147
14.8728 680.872 2147
20.0815 683.409 2155
25.2347 683.409 2155
30.388 683.409 2155
35.5413 683.409 2155
40.6567 682.775 2153
45.7414 681.823 2150
50.8827 681.823 2150
56.024 681.823 2150
61.2506 682.775 2153
66.6458 685.312 2161
71.9131 686.263 2164
77.0879 686.263 2164
82.4528 687.849 2169
87.8819 689.752 2175
93.3398 691.654 2181
98.5552 691.654 2181
104.009 693.24 2186
109.536 695.143 2192
115.092 697.046 2198
120.348 697.046 2198
125.947 698.948 2204
131.396 699.9 2207
136.859 700.851 2210
142.144 700.851 2210
147.762 702.437 2215
154.717 710.048 2239
160.072 710.048 2239
165.426 710.048 2239
171.009 710.999 2242
176.606 711.951 2245
181.974 711.951 2245
187.343 711.951 2245
192.711 711.951 2245
198.08 711.951 2245
203.448 711.951 2245
208.817 711.951 2245
214.185 711.951 2245
220.727 715.756 2257
227.126 718.927 2267
232.547 718.927 2267
237.969 718.927 2267
365.129 951.382 3000
372.303 951.382 3000
379.477 951.382 3000
386.651 951.382 3000
417.574 990.705 3124
425.044 990.705 3124
432.514 990.705 3124
439.985 990.705 3124
446.596 988.803 3118
454.052 988.803 3118
461.508 988.803 3118
482.169 985.314 3107
489.599 985.314 3107
503.588 998.316 3148
513.064 1002.12 3160
524.574 1009.73 3184
532.188 1009.73 3184
539.802 1009.73 3184
545.353 1005.93 3172
552.938 1005.93 3172
565.893 988.803 3118
573.349 988.803 3118
580.805 988.803 3118
588.261 988.803 3118
741.197 974.215 3072
754.147 981.509 3095
770.16 992.608 3130
777.645 992.608 3130
786.635 994.511 3136
803.25 1005.93 3172
815.437 1011.64 3190
823.065 1011.64 3190
830.693 1011.64 3190
838.321 1011.64 3190
845.95 1011.64 3190
851.972 1009.73 3184
853.107 1002.12 3160
910.09 998.316 3148
919.367 1000.22 3154
926.909 1000.22 3154
934.451 1000.22 3154
941.993 1000.22 3154
949.535 1000.22 3154
957.078 1000.22 3154
962.785 998.316 3148
964.764 992.608 3130
970.385 990.705 3124
975.978 988.803 3118
983.434 988.803 3118
988.983 986.9 3112
1000.27 990.705 3124
1009.67 992.608 3130
1017.16 992.608 3130
1024.64 992.608 3130
1032.13 992.608 3130
1039.61 992.608 3130
1047.1 992.608 3130
1052.56 990.705 3124
1057.99 988.803 3118
1063.4 986.9 3112
1070.84 986.9 3112
1074.47 983.411 3101
1081.89 983.411 3101
1089.3 983.411 3101
1096.72 983.411 3101
1104.13 983.411 3101
1109.4 981.509 3095
1114.64 979.606 3089
1115.85 974.215 3072
1123.19 974.215 3072
1130.54 974.215 3072
1137.89 974.215 3072
1149.7 978.02 3084
1158.96 979.606 3089
1166.34 979.606 3089
1180.57 985.314 3107
1199.09 994.511 3136
1206.59 994.511 3136
1214.08 994.511 3136
1221.58 994.511 3136
1226.73 992.608 3130
1234.22 992.608 3130
1239.32 990.705 3124
1399.11 1073.16 3384
1407.2 1073.16 3384
1415.3 1073.16 3384
1378.8 1039.54 3278
1386.64 1039.54 3278
1385.97 1033.2 3258
1385.63 1027.17 3239
1382.62 1019.25 3214
1377.33 1009.73 3184
1384.95 1009.73 3184
1392.56 1009.73 3184
1402.81 1011.64 3190
1410.44 1011.64 3190
1418.07 1011.64 3190
1425.7 1011.64 3190
1430.63 1009.73 3184
1432.82 1005.93 3172
1440.41 1005.93 3172
1447.99 1005.93 3172
1455.58 1005.93 3172
1454.86 1000.22 3154
1462.4 1000.22 3154
1469.95 1000.22 3154
1474.68 998.316 3148
1485.03 1000.22 3154
1495.41 1002.12 3160
1502.97 1002.12 3160
1510.52 1002.12 3160
1526.73 1007.83 3178
1537.22 1009.73 3184
1547.75 1011.64 3190
1555.38 1011.64 3190
1565.95 1013.54 3196
1579.5 1017.34 3208
1587.17 1017.34 3208
1594.84 1017.34 3208
1635.15 1023.37 3227
1642.87 1023.37 3227
1650.59 1023.37 3227
1658.3 1023.37 3227
1666.02 1023.37 3227
1673.74 1023.37 3227
1678.33 1021.47 3221
1686.03 1021.47 3221
1693.73 1021.47 3221
1691.4 1015.44 3202
1686.32 1007.83 3178
1677.93 998.316 3148
1688.67 1000.22 3154
1696.21 1000.22 3154
1703.75 1000.22 3154
1711.29 1000.22 3154
1718.84 1000.22 3154
1726.38 1000.22 3154
1727.32 996.414 3142
1741.46 1000.22 3154
1752.33 1002.12 3160
1759.89 1002.12 3160
1767.45 1002.12 3160
1775 1002.12 3160
1775.79 998.316 3148
1783.32 998.316 3148
1945.27 988.803 3118
1952.72 988.803 3118
1960.18 988.803 3118
1967.64 988.803 3118
1972.12 972.629 3067
1979.46 972.629 3067
1986.79 972.629 3067
1983.07 967.238 3050
1983.19 963.75 3039
1990.45 963.75 3039
1997.72 963.75 3039
1997.73 960.261 3028
2004.97 960.261 3028
2012.21 960.261 3028
2019.45 960.261 3028
1994.27 896.836 2828
2001.03 896.836 2828
2007.8 896.836 2828
2014.56 896.836 2828
2031.33 901.276 2842
2066.09 913.643 2881
2072.98 913.643 2881
2079.87 913.643 2881
2083.14 912.058 2876
2100.92 916.815 2891
2107.83 916.815 2891
2114.74 916.815 2891
2258.89 976.117 3078
2270.67 978.02 3084
2290.6 983.411 3101
2298.02 983.411 3101
2344.84 1000.22 3154
2370.28 1007.83 3178
2410.05 1021.47 3221
2417.76 1021.47 3221
2425.46 1021.47 3221
2433.16 1021.47 3221
2440.86 1021.47 3221
2448.56 1021.47 3221
-2172.05 926.935 2901
-2268.11 971.029 3039
-2260.84 971.029 3039
-2253.57 971.029 3039
-2246.31 971.029 3039
-2239.04 971.029 3039
-2227.36 969.112 3033
-2216.45 967.515 3028
-2036.24 903.61 2828
-2035.94 906.486 2837
-2036.31 909.681 2847
-2029.5 909.681 2847
-2022.69 909.681 2847
-1998.89 902.013 2823
-1992.14 902.013 2823
-1964.9 898.817 2813
-1958.17 898.817 2813
-1951.45 898.817 2813
-1948.18 900.415 2818
-1941.44 900.415 2818
-1941.57 903.61 2828
-1934.8 903.61 2828
-1944.4 911.279 2852
-1944.38 914.474 2862
-1937.53 914.474 2862
-1930.69 914.474 2862
-1917.12 911.279 2852
-1866.33 906.486 2837
-1859.55 906.486 2837
-1852.77 906.486 2837
-1845.98 906.486 2837
-1845.68 909.681 2847
-1838.87 909.681 2847
-1832.06 909.681 2847
-1776.9 956.971 2995
-1769.74 956.971 2995
-1762.58 956.971 2995
-1771.24 965.598 3022
-1764.02 965.598 3022
-1756.79 965.598 3022
-1749.56 965.598 3022
-1714.66 950.26 2974
-1716.74 955.373 2990
-1709.59 955.373 2990
-1702.44 955.373 2990
-1682.81 948.343 2968
-1661.04 940.036 2942
-1654 940.036 2942
-1644.17 938.438 2937
-1657.77 950.26 2974
-1668.42 960.485 3006
-1682.23 972.627 3044
-1674.95 972.627 3044
-1686.3 983.491 3078
-1682.21 985.408 3084
-1674.84 985.408 3084
-1667.46 985.408 3084
-1454.71 996.272 3118
-1447.25 996.272 3118
-1439.79 996.272 3118
-1427.28 992.757 3107
-1419.85 992.757 3107
-1401.97 985.408 3084
-1384.19 978.059 3061
-1366.98 971.029 3039
-1344.95 960.485 3006
-1337.76 960.485 3006
-1325.7 956.971 2995
-1270.55 922.143 2886
-1263.65 922.143 2886
-1263.28 926.935 2901
-1256.34 926.935 2901
-1289.89 956.971 2995
-1282.73 956.971 2995
-1275.57 956.971 2995
-1248.08 941.633 2947
-1241.03 941.633 2947
-1231.89 940.036 2942
-1242.34 953.456 2984
-1235.2 953.456 2984
-1228.07 953.456 2984
-1210.29 945.148 2958
-1203.22 945.148 2958
-1196.15 945.148 2958
-1199.53 953.456 2984
-1203.18 962.083 3011
-1202.73 967.515 3028
-1195.49 967.515 3028
-1203.55 979.976 3067
-1213.77 994.355 3112
-1206.33 994.355 3112
-1198.89 994.355 3112
-1193.74 996.272 3118
-1193.13 1002.02 3136
-1196.98 1011.61 3166
-1189.41 1011.61 3166
-1188.56 1017.36 3184
-1180.94 1017.36 3184
-1173.33 1017.36 3184
-1165.71 1017.36 3184
-1158.1 1017.36 3184
-1150.49 1017.36 3184
-1142.87 1017.36 3184
-1135.26 1017.36 3184
-1119.14 1009.69 3160
-1109.48 1007.77 3154
-1101.93 1007.77 3154
-1092.31 1005.86 3148
-1074.45 996.272 3118
-1063.22 992.757 3107
-1055.79 992.757 3107
-1038.58 983.491 3078
-1027.53 979.976 3067
-1010.89 971.029 3039
-1001.64 969.112 3033
-994.385 969.112 3033
-987.132 969.112 3033
-979.879 969.112 3033
-967.495 964 3017
-960.281 964 3017
-949.591 960.485 3006
-940.522 958.568 3000
-931.793 956.971 2995
-924.631 956.971 2995
-907.666 946.746 2963
-897.541 943.551 2953
-888.67 941.633 2947
-881.623 941.633 2947
-874.576 941.633 2947
-870.767 945.148 2958
-865.153 946.746 2963
-865.887 955.373 2990
-858.737 955.373 2990
-854.435 958.568 3000
-847.261 958.568 3000
-840.087 958.568 3000
-827.083 951.858 2979
-819.959 951.858 2979
-812.836 951.858 2979
-808.687 955.373 2990
-801.537 955.373 2990
-797.044 958.568 3000
-789.87 958.568 3000
-782.696 958.568 3000
-775.522 958.568 3000
-758.872 946.746 2963
-751.787 946.746 2963
-745.958 948.343 2968
-740.354 950.26 2974
-733.242 950.26 2974
-726.131 950.26 2974
-719.019 950.26 2974
-711.907 950.26 2974
-702.189 946.746 2963
-695.103 946.746 2963
-684.302 941.633 2947
-677.255 941.633 2947
-665.66 935.243 2927
-656.41 932.048 2917
-649.435 932.048 2917
-642.459 932.048 2917
-635.484 932.048 2917
-628.508 932.048 2917
-621.533 932.048 2917
-614.557 932.048 2917
-605.291 928.533 2906
-598.342 928.533 2906
-591.393 928.533 2906
-584.443 928.533 2906
-577.494 928.533 2906
-570.545 928.533 2906
-562.626 926.935 2901
-555.689 926.935 2901
-550.644 930.131 2911
-543.683 930.131 2911
-542.437 940.036 2942
-540.134 948.343 2968
-535.012 951.858 2979
-527.888 951.858 2979
-520.764 951.858 2979
-513.641 951.858 2979
-506.517 951.858 2979
-499.393 951.858 2979
-490.452 948.343 2968
-481.726 945.148 2958
-474.652 945.148 2958
-467.579 945.148 2958
-455.679 935.243 2927
-448.68 935.243 2927
-449.527 951.858 2979
-442.404 951.858 2979
-442.44 967.515 3028
-438.361 974.544 3050
-431.067 974.544 3050
-423.774 974.544 3050
-417.163 976.142 3055
-409.858 976.142 3055
-402.552 976.142 3055
-395.247 976.142 3055
-389.465 979.976 3067
-382.754 981.574 3072
-375.408 981.574 3072
-368.062 981.574 3072
-360.716 981.574 3072
-313.545 1019.28 3190
-306.493 1021.19 3196
-298.85 1021.19 3196
-291.207 1021.19 3196
-283.032 1019.28 3190
-275.404 1019.28 3190
-267.776 1019.28 3190
-258.19 1011.61 3166
-250.145 1009.69 3160
-242.588 1009.69 3160
-235.031 1009.69 3160
-211.152 1003.94 3142
-203.639 1003.94 3142
-196.125 1003.94 3142
-188.252 1002.02 3136
-180.407 1000.11 3130
-172.59 998.189 3124
-165.12 998.189 3124
-157.347 996.272 3118
-149.602 994.355 3112
-141.384 988.923 3095
-133.983 988.923 3095
-124.946 976.142 3055
-117.217 972.627 3044
-109.938 972.627 3044
-102.659 972.627 3044
-94.6901 965.598 3022
-41.7189 687.932 2153
-36.5704 687.932 2153
-31.4219 687.932 2153
-26.2734 687.932 2153
-21.0661 686.015 2147
-15.932 686.015 2147
-10.7828 685.057 2144
-5.66371 686.015 2147
-0.529582 686.015 2147
4.60455 686.015 2147
9.73867 686.015 2147
14.8728 686.015 2147
20.0815 688.571 2155
25.2347 688.571 2155
30.388 688.571 2155
35.5413 688.571 2155
40.6567 687.932 2153
45.7414 686.974 2150
50.8827 686.974 2150
56.024 686.974 2150
61.2506 687.932 2153
66.6458 690.489 2161
71.9131 691.447 2164
77.0879 691.447 2164
82.4528 693.045 2169
87.8819 694.962 2175
93.3398 696.879 2181
98.5552 696.879 2181
104.009 698.477 2186
109.536 700.394 2192
115.092 702.311 2198
120.348 702.311 2198
125.947 704.228 2204
131.396 705.187 2207
136.859 706.145 2210
142.144 706.145 2210
147.762 707.743 2215
154.717 715.411 2239
160.072 715.411 2239
165.426 715.411 2239
171.009 716.37 2242
176.37 716.37 2242
181.974 717.328 2245
187.343 717.328 2245
192.711 717.328 2245
197.815 716.37 2242
203.176 716.37 2242
208.538 716.37 2242
213.899 716.37 2242
219.26 716.37 2242
224.622 716.37 2242
229.983 716.37 2242
365.129 958.568 3000
372.303 958.568 3000
379.477 958.568 3000
386.651 958.568 3000
421.915 990.84 3101
429.33 990.84 3101
437.591 992.757 3107
445.02 992.757 3107
452.45 992.757 3107
458.992 990.84 3101
482.169 992.757 3107
489.599 992.757 3107
497.829 994.355 3112
511.115 1005.86 3148
520.62 1009.69 3160
528.177 1009.69 3160
537.768 1013.53 3172
545.353 1013.53 3172
552.938 1013.53 3172
741.197 981.574 3072
754.147 988.923 3095
770.16 1000.11 3130
777.645 1000.11 3130
786.635 1002.02 3136
798.692 1007.77 3154
813.903 1017.36 3184
821.517 1017.36 3184
829.131 1017.36 3184
836.745 1017.36 3184
844.359 1017.36 3184
848.761 1013.53 3172
853.107 1009.69 3160
910.09 1005.86 3148
919.367 1007.77 3154
926.909 1007.77 3154
934.451 1007.77 3154
941.993 1007.77 3154
949.535 1007.77 3154
957.078 1007.77 3154
960.95 1003.94 3142
962.915 998.189 3124
968.522 996.272 3118
974.1 994.355 3112
981.541 994.355 3112
987.394 992.757 3107
1000.27 998.189 3124
1009.67 1000.11 3130
1017.16 1000.11 3130
1024.64 1000.11 3130
1030.15 998.189 3124
1035.63 996.272 3118
1043.08 996.272 3118
1050.54 996.272 3118
1055.96 994.355 3112
1059.64 990.84 3101
1067.06 990.84 3101
1074.47 990.84 3101
1081.89 990.84 3101
1087.2 988.923 3095
1094.6 988.923 3095
1099.86 987.006 3089
1107.25 987.006 3089
1108.5 981.574 3072
1115.85 981.574 3072
1123.19 981.574 3072
1128.7 979.976 3067
1136.03 979.976 3067
1143.37 979.976 3067
1152.58 981.574 3072
1159.92 981.574 3072
1173.73 987.006 3089
1192.2 996.272 3118
1204.28 1000.11 3130
1211.76 1000.11 3130
1219.25 1000.11 3130
1226.73 1000.11 3130
1234.22 1000.11 3130
1239.32 998.189 3124
1399.11 1081.26 3384
1407.2 1081.26 3384
1415.3 1081.26 3384
1378.8 1047.4 3278
1386.64 1047.4 3278
1385.97 1041.01 3258
1385.63 1034.93 3239
1382.62 1026.95 3214
1377.33 1017.36 3184
1384.95 1017.36 3184
1392.56 1017.36 3184
1402.81 1019.28 3190
1410.44 1019.28 3190
1418.07 1019.28 3190
1425.7 1019.28 3190
1430.63 1017.36 3184
1432.82 1013.53 3172
1440.41 1013.53 3172
1447.99 1013.53 3172
1455.58 1013.53 3172
1454.86 1007.77 3154
1462.4 1007.77 3154
1469.95 1007.77 3154
1474.68 1005.86 3148
1485.03 1007.77 3154
1495.41 1009.69 3160
1502.97 1009.69 3160
1510.52 1009.69 3160
1526.73 1015.44 3178
1537.22 1017.36 3184
1547.75 1019.28 3190
1555.38 1019.28 3190
1565.95 1021.19 3196
1579.5 1025.03 3208
1587.17 1025.03 3208
1594.84 1025.03 3208
1635.15 1031.1 3227
1642.87 1031.1 3227
1650.59 1031.1 3227
1658.3 1031.1 3227
1666.02 1031.1 3227
1673.74 1031.1 3227
1678.33 1029.18 3221
1686.03 1029.18 3221
1693.73 1029.18 3221
1691.4 1023.11 3202
1686.32 1015.44 3178
1677.93 1005.86 3148
1688.67 1007.77 3154
1696.21 1007.77 3154
1703.75 1007.77 3154
1711.29 1007.77 3154
1718.84 1007.77 3154
1726.38 1007.77 3154
1727.32 1003.94 3142
1741.46 1007.77 3154
1752.33 1009.69 3160
1759.89 1009.69 3160
1767.45 1009.69 3160
1775 1009.69 3160
1775.79 1005.86 3148
1783.32 1005.86 3148
1741.35 978.059 3061
1945.27 996.272 3118
1952.72 996.272 3118
1960.18 996.272 3118
1967.64 996.272 3118
1972.12 979.976 3067
1979.46 979.976 3067
1986.79 979.976 3067
1983.07 974.544 3050
1990.37 974.544 3050
1997.66 974.544 3050
2004.95 974.544 3050
1997.73 967.515 3028
2004.97 967.515 3028
2012.21 967.515 3028
2019.45 967.515 3028
1994.27 903.61 2828
2001.03 903.61 2828
2007.8 903.61 2828
2014.56 903.61 2828
2031.33 908.083 2842
2066.09 920.545 2881
2072.98 920.545 2881
2079.87 920.545 2881
2083.14 918.947 2876
2100.92 923.74 2891
2107.83 923.74 2891
2114.74 923.74 2891
2121.66 923.74 2891
2266.25 983.491 3078
2278.05 985.408 3084
2285.42 985.408 3084
2292.8 985.408 3084
2300.17 985.408 3084
2307.54 985.408 3084
-2164.56 930.666 2891
-2172.58 937.104 2911
-2165.61 937.104 2911
-2245.42 974.768 3028
-2238.17 974.768 3028
-2230.93 974.768 3028
-2219.29 972.837 3022
-2036 904.268 2809
-2029.28 904.268 2809
-2036.24 910.385 2828
-2035.94 913.282 2837
-2036.31 916.501 2847
-2029.5 916.501 2847
-2022.69 916.501 2847
-1998.89 908.775 2823
-1992.14 908.775 2823
-1968.39 907.166 2818
-1961.65 907.166 2818
-1954.92 907.166 2818
-1948.18 907.166 2818
-1941.44 907.166 2818
-1941.57 910.385 2828
-1934.8 910.385 2828
-1944.4 918.111 2852
-1944.38 921.33 2862
-1937.53 921.33 2862
-1930.69 921.33 2862
-1917.12 918.111 2852
-1862.08 894.933 2780
-1855.43 894.933 2780
-1854.63 904.268 2809
-1866.33 913.282 2837
-1859.55 913.282 2837
-1852.77 913.282 2837
-1845.98 913.282 2837
-1845.68 916.501 2847
-1838.87 916.501 2847
-1832.06 916.501 2847
-1776.9 964.145 2995
-1776.24 967.686 3006
-1769.05 967.686 3006
-1771.24 972.837 3022
-1764.02 972.837 3022
-1756.79 972.837 3022
-1749.56 972.837 3022
-1714.66 957.385 2974
-1716.74 962.535 2990
-1709.59 962.535 2990
-1702.44 962.535 2990
-1682.81 955.453 2968
-1661.04 947.083 2942
-1654 947.083 2942
-1644.17 945.474 2937
-1657.77 957.385 2974
-1668.42 967.686 3006
-1682.23 979.919 3044
-1674.95 979.919 3044
-1686.3 990.864 3078
-1682.21 992.796 3084
-1674.84 992.796 3084
-1667.46 992.796 3084
-1454.71 1003.74 3118
-1447.25 1003.74 3118
-1439.79 1003.74 3118
-1427.28 1000.2 3107
-1419.85 1000.2 3107
-1401.97 992.796 3084
-1384.19 985.392 3061
-1366.98 978.309 3039
-1344.95 967.686 3006
-1337.76 967.686 3006
-1325.7 964.145 2995
-1270.55 929.056 2886
-1263.65 929.056 2886
-1263.28 933.885 2901
-1256.34 933.885 2901
-1289.89 964.145 2995
-1282.73 964.145 2995
-1275.57 964.145 2995
-1261.63 958.994 2979
-1241.03 948.693 2947
-1231.89 947.083 2942
-1242.34 960.604 2984
-1235.2 960.604 2984
-1228.07 960.604 2984
-1210.29 952.234 2958
-1203.22 952.234 2958
-1196.15 952.234 2958
-1199.53 960.604 2984
-1203.18 969.296 3011
-1202.73 974.768 3028
-1195.49 974.768 3028
-1203.55 987.323 3067
-1213.77 1001.81 3112
-1206.33 1001.81 3112
-1198.89 1001.81 3112
-1193.74 1003.74 3118
-1193.13 1009.54 3136
-1196.98 1019.19 3166
-1189.41 1019.19 3166
-1188.56 1024.99 3184
-1180.94 1024.99 3184
-1173.33 1024.99 3184
-1165.71 1024.99 3184
-1158.1 1024.99 3184
-1150.49 1024.99 3184
-1142.87 1024.99 3184
-1135.26 1024.99 3184
-1119.14 1017.26 3160
-1109.48 1015.33 3154
-1101.93 1015.33 3154
-1088.15 1009.54 3136
-1074.45 1003.74 3118
-1063.22 1000.2 3107
-1055.79 1000.2 3107
-1038.58 990.864 3078
-1018.15 978.309 3039
-1008.89 976.378 3033
-1001.64 976.378 3033
-994.385 976.378 3033
-987.132 976.378 3033
-979.879 976.378 3033
-967.495 971.227 3017
-960.281 971.227 3017
-949.591 967.686 3006
-940.522 965.755 3000
-931.793 964.145 2995
-924.631 964.145 2995
-907.666 953.844 2963
-895.718 948.693 2947
-887.163 947.083 2942
-880.127 947.083 2942
-873.092 947.083 2942
-870.767 952.234 2958
-865.153 953.844 2963
-865.887 962.535 2990
-858.737 962.535 2990
-853.011 964.145 2995
-845.849 964.145 2995
-838.687 964.145 2995
-827.083 958.994 2979
-819.959 958.994 2979
-812.836 958.994 2979
-808.687 962.535 2990
-801.537 962.535 2990
-801.56 971.227 3017
-794.346 971.227 3017
-787.131 971.227 3017
-779.917 971.227 3017
-758.872 953.844 2963
-751.787 953.844 2963
-747.466 957.385 2974
-741.599 958.994 2979
-734.475 958.994 2979
-727.351 958.994 2979
-719.019 957.385 2974
-711.907 957.385 2974
-702.189 953.844 2963
-692.757 950.624 2953
-683.141 947.083 2942
-676.106 947.083 2942
-663.385 939.035 2917
-655.06 937.104 2911
-645.872 933.885 2901
-641.138 937.104 2911
-634.177 937.104 2911
-627.216 937.104 2911
-620.254 937.104 2911
-613.293 937.104 2911
-604.249 933.885 2901
-598.342 935.494 2906
-591.393 935.494 2906
-584.443 935.494 2906
-577.494 935.494 2906
-570.545 935.494 2906
-562.626 933.885 2901
-556.647 935.494 2906
-552.724 940.645 2922
-545.737 940.645 2922
-540.593 943.864 2932
-538.314 952.234 2958
-535.012 958.994 2979
-527.888 958.994 2979
-520.764 958.994 2979
-513.641 958.994 2979
-506.517 958.994 2979
-498.555 957.385 2974
-489.626 953.844 2963
-479.934 948.693 2947
-472.887 948.693 2947
-462.679 942.255 2927
-453.188 937.104 2911
-444.694 933.885 2901
-440.172 939.035 2917
-433.196 939.035 2917
-435.28 958.994 2979
-435.199 974.768 3028
-427.958 974.768 3028
-420.717 974.768 3028
-413.476 974.768 3028
-405.43 972.837 3022
-398.204 972.837 3022
-390.331 971.227 3017
-383.116 971.227 3017
-376.524 972.837 3022
-369.298 972.837 3022
-362.071 972.837 3022
-354.845 972.837 3022
-202.472 1005.67 3124
-195.376 1007.6 3130
-187.892 1007.6 3130
-180.407 1007.6 3130
-172.59 1005.67 3124
-165.12 1005.67 3124
-157.347 1003.74 3118
-148.785 996.337 3095
-140.882 992.796 3084
-133.507 992.796 3084
-124.496 979.919 3044
-116.37 972.837 3022
-109.143 972.837 3022
-101.917 972.837 3022
-94.3455 969.296 3011
-85.756 953.844 2963
-41.7189 693.09 2153
-36.5704 693.09 2153
-31.4219 693.09 2153
-26.2734 693.09 2153
-21.0955 692.124 2150
-15.9542 692.124 2150
-10.8129 692.124 2150
-5.67162 692.124 2150
-0.530322 692.124 2150
4.61741 693.09 2153
9.76589 693.09 2153
14.9144 693.09 2153
20.1094 694.7 2158
25.2699 694.7 2158
30.4303 694.7 2158
35.5907 694.7 2158
40.6945 693.734 2155
45.8052 693.09 2153
50.9537 693.09 2153
56.1022 693.09 2153
61.3075 693.734 2155
66.6458 695.665 2161
72.0128 697.597 2167
77.1948 697.597 2167
82.4528 698.241 2169
87.8819 700.172 2175
93.3398 702.104 2181
98.5552 702.104 2181
104.009 703.713 2186
109.686 706.61 2195
115.092 707.576 2198
120.348 707.576 2198
125.947 709.508 2204
131.396 710.474 2207
136.859 711.439 2210
142.144 711.439 2210
147.962 714.015 2218
154.717 720.775 2239
160.072 720.775 2239
165.426 720.775 2239
171.009 721.741 2242
176.37 721.741 2242
181.974 722.706 2245
187.343 722.706 2245
192.711 722.706 2245
197.815 721.741 2242
203.176 721.741 2242
208.538 721.741 2242
213.899 721.741 2242
218.967 720.775 2239
352.769 971.227 3017
359.984 971.227 3017
367.198 971.227 3017
372.303 965.755 3000
379.477 965.755 3000
386.651 965.755 3000
393.825 965.755 3000
409.153 985.392 3061
419.602 992.796 3084
426.976 992.796 3084
435.9 996.337 3095
443.302 996.337 3095
450.703 996.337 3095
458.104 996.337 3095
482.169 1000.2 3107
489.599 1000.2 3107
497.829 1001.81 3112
511.115 1013.4 3148
520.62 1017.26 3160
528.177 1017.26 3160
536.751 1019.19 3166
544.321 1019.19 3166
551.892 1019.19 3166
737.095 983.46 3055
751.467 992.796 3084
767.207 1003.74 3118
774.664 1003.74 3118
785.13 1007.6 3130
798.692 1015.33 3154
810.835 1021.12 3172
818.421 1021.12 3172
826.006 1021.12 3172
833.591 1021.12 3172
841.176 1021.12 3172
848.761 1021.12 3172
910.09 1013.4 3148
919.367 1015.33 3154
926.909 1015.33 3154
934.451 1015.33 3154
940.201 1013.4 3148
947.729 1013.4 3148
955.257 1013.4 3148
957.28 1007.6 3130
962.915 1005.67 3124
963.241 998.268 3101
970.657 998.268 3101
978.072 998.268 3101
981.674 994.405 3089
992.903 998.268 3101
1002.25 1000.2 3107
1009.68 1000.2 3107
1017.11 1000.2 3107
1022.56 998.268 3101
1029.98 998.268 3101
1037.4 998.268 3101
1040.77 994.405 3089
1048.15 994.405 3089
1055.54 994.405 3089
1062.93 994.405 3089
1068.58 992.796 3084
1075.96 992.796 3084
1083.33 992.796 3084
1090.71 992.796 3084
1098.08 992.796 3084
1105.46 992.796 3084
1108.5 988.933 3072
1115.85 988.933 3072
1123.19 988.933 3072
1126.49 985.392 3061
1133.81 985.392 3061
1141.13 985.392 3061
1148.45 985.392 3061
1155.77 985.392 3061
1167.27 988.933 3072
1179.2 992.796 3084
1186.58 992.796 3084
1193.95 992.796 3084
1201.33 992.796 3084
1208.7 992.796 3084
1216.08 992.796 3084
1207.58 979.919 3044
1354.81 1048.81 3258
1362.6 1048.81 3258
1370.39 1048.81 3258
1324.03 1007.6 3130
1336.62 1011.47 3142
1344.14 1011.47 3142
1351.65 1011.47 3142
1359.16 1011.47 3142
1366.68 1011.47 3142
1368.94 1007.6 3130
1386.98 1015.33 3154
1394.52 1015.33 3154
1402.07 1015.33 3154
1409.61 1015.33 3154
1417.15 1015.33 3154
1421.98 1013.4 3148
1429.51 1013.4 3148
1437.04 1013.4 3148
1444.57 1013.4 3148
1449.33 1011.47 3142
1456.84 1011.47 3142
1464.35 1011.47 3142
1466.24 1007.6 3130
1476.55 1009.54 3136
1492.57 1015.33 3154
1500.11 1015.33 3154
1507.66 1015.33 3154
1518.08 1017.26 3160
1534.33 1023.06 3178
1544.84 1024.99 3184
1552.45 1024.99 3184
1563.01 1026.92 3190
1570.63 1026.92 3190
1578.26 1026.92 3190
1648.54 1032.71 3208
1656.21 1032.71 3208
1663.88 1032.71 3208
1668.43 1030.78 3202
1676.08 1030.78 3202
1683.74 1030.78 3202
1688.23 1028.85 3196
1676.77 1017.26 3160
1668.33 1007.6 3130
1675.82 1007.6 3130
1680.08 1005.67 3124
1703.75 1015.33 3154
1711.29 1015.33 3154
1718.84 1015.33 3154
1723.09 1013.4 3148
1724.03 1009.54 3136
1741.46 1015.33 3154
1752.33 1017.26 3160
1759.89 1017.26 3160
1767.45 1017.26 3160
1775 1017.26 3160
1775.79 1013.4 3148
1783.32 1013.4 3148
1741.35 985.392 3061
1968.49 981.851 3050
1975.78 981.851 3050
1983.07 981.851 3050
1990.37 981.851 3050
1997.66 981.851 3050
2004.95 981.851 3050
1997.73 974.768 3028
2004.97 974.768 3028
2012.21 974.768 3028
2019.45 974.768 3028
1980.87 904.268 2809
1987.59 904.268 2809
1994.31 904.268 2809
1997.46 902.659 2804
2004.17 902.659 2804
2020.91 907.166 2818
2027.65 907.166 2818
2034.39 907.166 2818
2037.51 905.556 2813
2082.75 922.618 2866
2107.83 930.666 2891
2114.74 930.666 2891
2121.66 930.666 2891
2266.25 990.864 3078
2278.05 992.796 3084
2285.42 992.796 3084
2292.8 992.796 3084
2300.17 992.796 3084
2307.54 992.796 3084
-2153.33 932.726 2876
-2157.65 937.591 2891
-2150.74 937.591 2891
-2147.53 939.213 2896
-2140.61 939.213 2896
-2133.68 939.213 2896
-2126.75 939.213 2896
-2112.51 935.969 2886
-2036 910.997 2809
-2029.28 910.997 2809
-2032.64 915.538 2823
-2025.89 915.538 2823
-2019.14 915.538 2823
-2012.39 915.538 2823
-2005.64 915.538 2823
-1998.89 915.538 2823
-1992.14 915.538 2823
-1968.39 913.916 2818
-1961.65 913.916 2818
-1954.92 913.916 2818
-1948.18 913.916 2818
-1941.44 913.916 2818
-1941.57 917.159 2828
-1934.8 917.159 2828
-1944.4 924.943 2852
-1944.38 928.186 2862
-1937.53 928.186 2862
-1930.69 928.186 2862
-1917.12 924.943 2852
-1862.08 901.592 2780
-1855.43 901.592 2780
-1854.63 910.997 2809
-1866.33 920.078 2837
-1859.55 920.078 2837
-1852.77 920.078 2837
-1845.98 920.078 2837
-1845.68 923.321 2847
-1838.87 923.321 2847
-1832.06 923.321 2847
-1770.38 967.752 2984
-1776.24 974.887 3006
-1769.05 974.887 3006
-1764.8 976.509 3011
-1757.59 976.509 3011
-1750.39 976.509 3011
-1715.41 960.942 2963
-1705.44 959.32 2958
-1701.23 960.942 2963
-1694.15 960.942 2963
-1687.06 960.942 2963
-1674.31 957.698 2953
-1658.21 952.509 2937
-1651.19 952.509 2937
-1638.57 949.266 2927
-1648.85 959.32 2958
-1650.66 964.509 2974
-1663.99 976.509 3011
-1656.79 976.509 3011
-1673.7 990.778 3055
-1666.39 990.778 3055
-1659.09 990.778 3055
-1639.89 983.643 3033
-1431.47 1000.18 3084
-1424.09 1000.18 3084
-1416.72 1000.18 3084
-1398.83 992.724 3061
-1391.51 992.724 3061
-1376.51 987.211 3044
-1357.08 978.454 3017
-1344.95 974.887 3006
-1337.76 974.887 3006
-1325.7 971.32 2995
-1289.89 971.32 2995
-1282.73 971.32 2995
-1275.57 971.32 2995
-1261.63 966.131 2979
-1238.92 954.131 2942
-1229.79 952.509 2937
-1222.77 952.509 2937
-1215.75 952.509 2937
-1208.72 952.509 2937
-1201.7 952.509 2937
-1201.19 957.698 2953
-1194.12 957.698 2953
-1199.53 967.752 2984
-1196.78 971.32 2995
-1202.73 982.022 3028
-1195.49 982.022 3028
-1203.55 994.67 3067
-1213.77 1009.26 3112
-1206.33 1009.26 3112
-1198.89 1009.26 3112
-1193.74 1011.21 3118
-1186.29 1011.21 3118
-1185.64 1017.05 3136
-1178.14 1017.05 3136
-1181.84 1026.78 3166
-1176.49 1028.72 3172
-1173.33 1032.61 3184
-1165.71 1032.61 3184
-1158.1 1032.61 3184
-1150.49 1032.61 3184
-1142.87 1032.61 3184
-1130.98 1028.72 3172
-1117.02 1022.89 3154
-1107.37 1020.94 3148
-1099.84 1020.94 3148
-1088.15 1017.05 3136
-1074.45 1011.21 3118
-1063.22 1007.64 3107
-1055.79 1007.64 3107
-1038.58 998.238 3078
-1018.15 985.589 3039
-1008.89 983.643 3033
-1001.64 983.643 3033
-994.385 983.643 3033
-987.132 983.643 3033
-979.879 983.643 3033
-967.495 978.454 3017
-960.281 978.454 3017
-949.591 974.887 3006
-940.522 972.941 3000
-931.793 971.32 2995
-924.631 971.32 2995
-907.666 960.942 2963
-895.718 955.753 2947
-887.163 954.131 2942
-880.127 954.131 2942
-873.092 954.131 2942
-870.767 959.32 2958
-865.153 960.942 2963
-865.887 969.698 2990
-858.737 969.698 2990
-853.011 971.32 2995
-845.849 971.32 2995
-838.687 971.32 2995
-827.083 966.131 2979
-819.959 966.131 2979
-812.836 966.131 2979
-808.687 969.698 2990
-801.537 969.698 2990
-801.56 978.454 3017
-794.346 978.454 3017
-787.131 978.454 3017
-779.917 978.454 3017
-758.872 960.942 2963
-751.787 960.942 2963
-747.466 964.509 2974
-741.599 966.131 2979
-734.475 966.131 2979
-727.351 966.131 2979
-719.019 964.509 2974
-711.907 964.509 2974
-702.189 960.942 2963
-692.757 957.698 2953
-683.141 954.131 2942
-676.106 954.131 2942
-663.385 946.023 2917
-655.06 944.077 2911
-645.872 940.834 2901
-641.138 944.077 2911
-634.177 944.077 2911
-627.216 944.077 2911
-620.254 944.077 2911
-613.293 944.077 2911
-604.249 940.834 2901
-598.342 942.456 2906
-591.393 942.456 2906
-584.443 942.456 2906
-577.494 942.456 2906
-570.545 942.456 2906
-562.626 940.834 2901
-556.647 942.456 2906
-552.724 947.645 2922
-545.737 947.645 2922
-540.593 950.888 2932
-538.314 959.32 2958
-535.012 966.131 2979
-527.888 966.131 2979
-520.764 966.131 2979
-513.641 966.131 2979
-506.517 966.131 2979
-498.555 964.509 2974
-489.626 960.942 2963
-479.934 955.753 2947
-472.887 955.753 2947
-462.679 949.266 2927
-453.188 944.077 2911
-444.694 940.834 2901
-440.172 946.023 2917
-433.196 946.023 2917
-435.28 966.131 2979
-435.199 982.022 3028
-427.958 982.022 3028
-420.717 982.022 3028
-413.476 982.022 3028
-405.43 980.076 3022
-398.204 980.076 3022
-390.331 978.454 3017
-383.116 978.454 3017
-376.524 980.076 3022
-369.298 980.076 3022
-362.071 980.076 3022
-354.845 980.076 3022
-202.472 1013.16 3124
-195.376 1015.1 3130
-187.892 1015.1 3130
-180.407 1015.1 3130
-172.59 1013.16 3124
-165.12 1013.16 3124
-157.347 1011.21 3118
-148.785 1003.75 3095
-140.882 1000.18 3084
-133.507 1000.18 3084
-124.496 987.211 3044
-116.37 980.076 3022
-109.143 980.076 3022
-101.917 980.076 3022
-94.3455 976.509 3011
-85.756 960.942 2963
-41.7189 698.247 2153
-36.5704 698.247 2153
-31.4219 698.247 2153
-26.2734 698.247 2153
-21.0955 697.274 2150
-15.9542 697.274 2150
-10.8129 697.274 2150
-5.67162 697.274 2150
-0.531062 698.247 2153
4.6217 698.896 2155
9.77496 698.896 2155
14.9282 698.896 2155
20.1374 700.842 2161
25.305 700.842 2161
30.4726 700.842 2161
35.6402 700.842 2161
40.6945 698.896 2155
45.8052 698.247 2153
50.9537 698.247 2153
56.1022 698.247 2153
61.3075 698.896 2155
66.6458 700.842 2161
72.0793 703.436 2169
77.266 703.436 2169
82.5668 704.409 2172
87.8819 705.382 2175
93.4682 708.301 2184
98.6908 708.301 2184
104.009 708.95 2186
109.686 711.869 2195
115.092 712.842 2198
120.348 712.842 2198
125.947 714.787 2204
131.396 715.76 2207
137.045 717.706 2213
142.337 717.706 2213
147.962 719.328 2218
154.717 726.138 2239
160.072 726.138 2239
165.426 726.138 2239
170.78 726.138 2239
176.37 727.111 2242
181.731 727.111 2242
187.093 727.111 2242
192.196 726.138 2239
197.286 725.165 2236
202.633 725.165 2236
207.98 725.165 2236
213.327 725.165 2236
345.555 978.454 3017
352.769 978.454 3017
359.984 978.454 3017
367.198 978.454 3017
372.303 972.941 3000
379.477 972.941 3000
386.651 972.941 3000
396.057 978.454 3017
409.153 992.724 3061
417.289 994.67 3067
424.623 994.67 3067
432.661 996.292 3072
440.007 996.292 3072
447.353 996.292 3072
454.699 996.292 3072
482.169 1007.64 3107
489.599 1007.64 3107
497.029 1007.64 3107
505.27 1009.26 3112
518.643 1020.94 3148
526.171 1020.94 3148
535.733 1024.83 3160
543.29 1024.83 3160
550.846 1024.83 3160
735.889 989.157 3050
748.543 996.292 3072
763.024 1005.7 3101
770.44 1005.7 3101
785.13 1015.1 3130
792.615 1015.1 3130
806.234 1022.89 3154
813.776 1022.89 3154
824.443 1026.78 3166
833.591 1028.72 3172
841.176 1028.72 3172
848.761 1028.72 3172
910.09 1020.94 3148
917.618 1020.94 3148
925.146 1020.94 3148
932.673 1020.94 3148
938.409 1018.99 3142
942.31 1015.1 3130
949.795 1015.1 3130
953.61 1011.21 3118
948.736 998.238 3078
956.097 998.238 3078
963.457 998.238 3078
970.818 998.238 3078
978.178 998.238 3078
987.46 1000.18 3084
996.447 1001.81 3089
1003.83 1001.81 3089
1011.22 1001.81 3089
1018.61 1001.81 3089
1025.99 1001.81 3089
1033.38 1001.81 3089
1040.77 1001.81 3089
1046.46 1000.18 3084
1053.83 1000.18 3084
1061.21 1000.18 3084
1068.58 1000.18 3084
1075.96 1000.18 3084
1083.33 1000.18 3084
1090.71 1000.18 3084
1098.08 1000.18 3084
1105.46 1000.18 3084
1112.83 1000.18 3084
1120.21 1000.18 3084
1127.58 1000.18 3084
1134.96 1000.18 3084
1144.18 1001.81 3089
1153.81 1003.75 3095
1165.71 1007.64 3107
1173.14 1007.64 3107
1180.57 1007.64 3107
1181.12 1001.81 3089
1188.5 1001.81 3089
1193.95 1000.18 3084
1192.37 992.724 3061
1193.03 987.211 3044
1200.31 987.211 3044
1188.15 971.32 2995
1299.08 1013.16 3124
1306.55 1013.16 3124
1314.03 1013.16 3124
1318.96 1011.21 3118
1326.41 1011.21 3118
1324.03 1003.75 3095
1331.43 1003.75 3095
1334.07 1000.18 3084
1341.45 1000.18 3084
1343.58 996.292 3072
1358.4 1001.81 3089
1383.91 1015.1 3130
1391.4 1015.1 3130
1398.88 1015.1 3130
1406.37 1015.1 3130
1413.85 1015.1 3130
1421.34 1015.1 3130
1428.82 1015.1 3130
1436.31 1015.1 3130
1443.79 1015.1 3130
1451.28 1015.1 3130
1458.76 1015.1 3130
1460.62 1011.21 3118
1468.08 1011.21 3118
1484.05 1017.05 3136
1497.26 1020.94 3148
1504.79 1020.94 3148
1515.2 1022.89 3154
1528.53 1026.78 3166
1544.84 1032.61 3184
1552.45 1032.61 3184
1560.07 1032.61 3184
1633.12 1030.67 3178
1646.92 1034.56 3190
1654.54 1034.56 3190
1662.17 1034.56 3190
1669.8 1034.56 3190
1677.43 1034.56 3190
1672.38 1026.78 3166
1660.85 1015.1 3130
1649.68 1003.75 3095
1657.08 1003.75 3095
1664.48 1003.75 3095
1681.06 1009.26 3112
1688.51 1009.26 3112
1695.95 1009.26 3112
1703.39 1009.26 3112
1704.78 1005.7 3101
1731.52 1017.05 3136
1742.35 1018.99 3142
1749.86 1018.99 3142
1757.38 1018.99 3142
1764.89 1018.99 3142
1752.66 1007.64 3107
1760.09 1007.64 3107
1741.35 992.724 3061
1979.16 1005.7 3101
1986.57 1005.7 3101
1993.99 1005.7 3101
1964.61 987.211 3044
1975.78 989.157 3050
1983.07 989.157 3050
1990.37 989.157 3050
1997.66 989.157 3050
2004.95 989.157 3050
1950.8 894.133 2757
1957.39 894.133 2757
1963.98 894.133 2757
1970.57 894.133 2757
1977.17 894.133 2757
1983.76 894.133 2757
-2153.33 939.616 2876
-2146.45 939.616 2876
-2139.58 939.616 2876
-2132.7 939.616 2876
-2140.61 946.15 2896
-2133.68 946.15 2896
-2126.75 946.15 2896
-2112.51 942.883 2886
-2084.45 933.408 2857
-2077.62 933.408 2857
-2038.89 919.033 2813
-2032.17 919.033 2813
-2022.56 917.726 2809
-2015.84 917.726 2809
-2009.13 917.726 2809
-2002.41 917.726 2809
-1998.53 919.033 2813
-1991.81 919.033 2813
-1985.08 919.033 2813
-1968.39 920.667 2818
-1961.65 920.667 2818
-1954.92 920.667 2818
-1948.18 920.667 2818
-1941.44 920.667 2818
-1941.57 923.934 2828
-1934.8 923.934 2828
-1934.18 926.874 2837
-1927.39 926.874 2837
-1920.61 926.874 2837
-1913.82 926.874 2837
-1907.04 926.874 2837
-1862.08 908.252 2780
-1855.43 908.252 2780
-1846.12 906.945 2776
-1839.48 906.945 2776
-1854.63 917.726 2809
-1866.33 926.874 2837
-1859.55 926.874 2837
-1852.77 926.874 2837
-1845.98 926.874 2837
-1845.68 930.141 2847
-1838.87 930.141 2847
-1832.06 930.141 2847
-1776.24 982.088 3006
-1769.05 982.088 3006
-1761.86 982.088 3006
-1754.68 982.088 3006
-1747.49 982.088 3006
-1715.41 968.039 2963
-1705.44 966.406 2958
-1677.69 954.644 2922
-1670.71 954.644 2922
-1663.72 954.644 2922
-1656.73 954.644 2922
-1637.89 947.783 2901
-1630.95 947.783 2901
-1624.01 947.783 2901
-1617.08 947.783 2901
-1615.69 951.051 2911
-1637.47 968.039 2963
-1630.38 968.039 2963
-1652.88 985.682 3017
-1645.66 985.682 3017
-1638.45 985.682 3017
-1631.24 985.682 3017
-1398.34 994.503 3044
-1391.06 994.503 3044
-1383.78 994.503 3044
-1364.3 985.682 3017
-1352.13 982.088 3006
-1340.02 978.494 2995
-1332.86 978.494 2995
-1266.83 935.042 2862
-1276.11 968.039 2963
-1275.88 973.267 2979
-1268.75 973.267 2979
-1261.63 973.267 2979
-1247.77 968.039 2963
-1236.49 964.772 2953
-1229.43 964.772 2953
-1222.37 964.772 2953
-1215.31 964.772 2953
-1201.7 959.545 2937
-1194.68 959.545 2937
-1187.65 959.545 2937
-1187.06 964.772 2953
-1192.39 974.9 2984
-1202.73 989.276 3028
-1195.49 989.276 3028
-1203.55 1002.02 3067
-1213.77 1016.72 3112
-1206.33 1016.72 3112
-1198.89 1016.72 3112
-1193.74 1018.68 3118
-1186.29 1018.68 3118
-1181.1 1020.64 3124
-1173.63 1020.64 3124
-1166.16 1020.64 3124
-1053.3 1005.61 3078
-1045.94 1005.61 3078
-1038.58 1005.61 3078
-1012.46 987.315 3022
-1005.23 987.315 3022
-998.005 987.315 3022
-990.778 987.315 3022
-983.552 987.315 3022
-976.325 987.315 3022
-963.968 982.088 3006
-956.78 982.088 3006
-946.117 978.494 2995
-938.955 978.494 2995
-920.281 966.406 2958
-913.208 966.406 2958
-902.765 962.812 2947
-892.678 959.545 2937
-882.639 956.278 2927
-875.64 956.278 2927
-868.641 956.278 2927
-866.057 961.179 2942
-863.694 966.406 2958
-858.068 968.039 2963
-850.983 968.039 2963
-843.897 968.039 2963
-836.812 968.039 2963
-829.726 968.039 2963
-822.641 968.039 2963
-815.555 968.039 2963
-804.104 962.812 2947
-808.687 976.861 2990
-801.537 976.861 2990
-801.56 985.682 3017
-794.346 985.682 3017
-787.131 985.682 3017
-779.917 985.682 3017
-758.872 968.039 2963
-751.787 968.039 2963
-747.466 971.633 2974
-741.599 973.267 2979
-734.475 973.267 2979
-727.351 973.267 2979
-719.019 971.633 2974
-711.907 971.633 2974
-702.189 968.039 2963
-692.757 964.772 2953
-680.819 957.911 2932
-673.808 957.911 2932
-663.385 953.011 2917
-652.81 947.783 2901
-645.872 947.783 2901
-641.138 951.051 2911
-634.177 951.051 2911
-627.216 951.051 2911
-620.254 951.051 2911
-613.293 951.051 2911
-604.249 947.783 2901
-598.342 949.417 2906
-591.393 949.417 2906
-584.443 949.417 2906
-577.494 949.417 2906
-570.545 949.417 2906
-562.626 947.783 2901
-556.647 949.417 2906
-552.724 954.644 2922
-545.737 954.644 2922
-540.593 957.911 2932
-538.314 966.406 2958
-535.012 973.267 2979
-527.888 973.267 2979
-520.764 973.267 2979
-513.641 973.267 2979
-506.517 973.267 2979
-498.555 971.633 2974
-489.626 968.039 2963
-479.934 962.812 2947
-472.887 962.812 2947
-461.098 953.011 2917
-450.853 946.15 2896
-442.395 942.883 2886
-435.494 942.883 2886
-422.587 976.861 2990
-415.437 976.861 2990
-408.287 976.861 2990
-400.332 974.9 2984
-393.197 974.9 2984
-386.061 974.9 2984
-380.957 980.128 3000
-373.783 980.128 3000
-366.609 980.128 3000
-359.435 980.128 3000
-201.694 1016.72 3112
-194.253 1016.72 3112
-186.811 1016.72 3112
-179.369 1016.72 3112
-171.32 1013.13 3101
-163.904 1013.13 3101
-156.186 1011.17 3095
-148.256 1007.57 3084
-139.557 998.097 3055
-132.251 998.097 3055
-123.842 989.276 3028
-115.754 982.088 3006
-108.565 982.088 3006
-101.377 982.088 3006
-93.6875 976.861 2990
-85.756 968.039 2963
-36.5704 703.405 2153
-31.4219 703.405 2153
-26.2734 703.405 2153
-21.0955 702.425 2150
-15.9542 702.425 2150
-10.8129 702.425 2150
-5.67162 702.425 2150
-0.531062 703.405 2153
4.6217 704.058 2155
9.77496 704.058 2155
14.9282 704.058 2155
20.1374 706.019 2161
25.305 706.019 2161
30.4726 706.019 2161
35.6402 706.019 2161
40.7512 705.039 2158
45.8478 704.058 2155
51.001 704.058 2155
56.1543 704.058 2155
61.4782 706.019 2161
66.7384 706.999 2164
72.179 709.612 2172
77.3729 709.612 2172
82.6809 710.593 2175
88.0032 711.573 2178
93.4682 713.533 2184
98.6908 713.533 2184
104.009 714.186 2186
109.686 717.127 2195
115.249 719.087 2201
120.512 719.087 2201
125.947 720.067 2204
131.396 721.047 2207
137.045 723.008 2213
142.337 723.008 2213
147.962 724.641 2218
154.717 731.502 2239
160.072 731.502 2239
165.426 731.502 2239
171.009 732.482 2242
176.37 732.482 2242
181.731 732.482 2242
187.093 732.482 2242
192.196 731.502 2239
197.286 730.522 2236
202.633 730.522 2236
207.98 730.522 2236
213.327 730.522 2236
338.901 987.315 3022
346.127 987.315 3022
353.354 987.315 3022
360.58 987.315 3022
367.198 985.682 3017
372.303 980.128 3000
379.477 980.128 3000
386.651 980.128 3000
396.057 985.682 3017
409.153 1000.06 3061
417.289 1002.02 3067
424.623 1002.02 3067
432.661 1003.65 3072
440.007 1003.65 3072
447.353 1003.65 3072
454.699 1003.65 3072
482.169 1015.09 3107
489.599 1015.09 3107
497.029 1015.09 3107
505.27 1016.72 3112
518.643 1028.48 3148
526.171 1028.48 3148
535.733 1032.4 3160
543.29 1032.4 3160
550.846 1032.4 3160
740.778 1013.13 3101
748.194 1013.13 3101
755.609 1013.13 3101
763.024 1013.13 3101
770.44 1013.13 3101
785.13 1022.6 3130
792.615 1022.6 3130
806.234 1030.44 3154
813.776 1030.44 3154
824.443 1034.36 3166
833.591 1036.32 3172
841.176 1036.32 3172
848.761 1036.32 3172
910.09 1028.48 3148
917.618 1028.48 3148
925.146 1028.48 3148
932.673 1028.48 3148
938.409 1026.52 3142
942.31 1022.6 3130
949.795 1022.6 3130
953.61 1018.68 3118
948.736 1005.61 3078
956.097 1005.61 3078
963.457 1005.61 3078
970.818 1005.61 3078
978.178 1005.61 3078
987.46 1007.57 3084
996.447 1009.2 3089
1003.83 1009.2 3089
1011.22 1009.2 3089
1018.61 1009.2 3089
1025.99 1009.2 3089
1033.38 1009.2 3089
1037.06 1005.61 3078
1044.42 1005.61 3078
1051.78 1005.61 3078
1061.21 1007.57 3084
1068.58 1007.57 3084
1075.96 1007.57 3084
1083.33 1007.57 3084
1090.71 1007.57 3084
1098.08 1007.57 3084
1105.46 1007.57 3084
1112.83 1007.57 3084
1120.21 1007.57 3084
1129.41 1009.2 3089
1136.8 1009.2 3089
1146.4 1011.17 3095
1156.04 1013.13 3101
1165.71 1015.09 3107
1173.14 1015.09 3107
1180.57 1015.09 3107
1188 1015.09 3107
1195.43 1015.09 3107
1193.95 1007.57 3084
1192.37 1000.06 3061
1184.4 987.315 3022
1191.63 987.315 3022
1188.15 978.494 2995
1296.59 1018.68 3118
1304.05 1018.68 3118
1311.5 1018.68 3118
1309.23 1011.17 3095
1316.63 1011.17 3095
1319.32 1007.57 3084
1265.61 961.179 2942
1272.65 961.179 2942
1279.68 961.179 2942
1282.34 957.911 2932
1289.36 957.911 2932
1358.27 1003.65 3072
1365.61 1003.65 3072
1375.64 1005.61 3078
1383 1005.61 3078
1390.36 1005.61 3078
1400.45 1007.57 3084
1407.82 1007.57 3084
1415.2 1007.57 3084
1409.19 998.097 3055
1409.08 992.869 3039
1416.35 992.869 3039
1423.62 992.869 3039
1425.7 989.276 3028
1453.77 1003.65 3072
1461.11 1003.65 3072
1468.46 1003.65 3072
1483.97 1009.2 3089
1519.84 1028.48 3148
1527.37 1028.48 3148
1534.9 1028.48 3148
1615.94 1022.6 3130
1623.42 1022.6 3130
1649.67 1034.36 3166
1657.24 1034.36 3166
1664.81 1034.36 3166
1625.9 1005.61 3078
1633.26 1005.61 3078
1619.83 992.869 3039
1647.98 1005.61 3078
1655.34 1005.61 3078
1662.7 1005.61 3078
1670.06 1005.61 3078
1683.41 1009.2 3089
1690.8 1009.2 3089
1698.19 1009.2 3089
1708.89 1011.17 3095
1725.71 1016.72 3112
1733.16 1016.72 3112
1740.6 1016.72 3112
1748.04 1016.72 3112
1730.1 1002.02 3067
1737.43 1002.02 3067
1741.35 1000.06 3061
1978.73 1016.72 3112
1986.18 1016.72 3112
1993.62 1016.72 3112
1993.99 1013.13 3101
1964.61 994.503 3044
1971.89 994.503 3044
1979.17 994.503 3044
