ply
format ascii 1.0
comment File generated
element vertex 2255
property float x
property float y
property float z
end_header
706.78 1131.5 2224
714.019 1134.55 2230
719.352 1134.55 2230
726.634 1137.6 2236
731.981 1137.6 2236
737.328 1137.6 2236
741.679 1136.08 2233
745.011 1133.03 2227
743.598 1122.85 2207
747.858 1121.32 2204
754.153 1122.85 2207
759.431 1122.85 2207
766.787 1125.9 2213
772.777 1126.92 2215
779.128 1128.45 2218
784.432 1128.45 2218
794.008 1134.55 2230
801.492 1137.6 2236
811.169 1143.71 2248
816.544 1143.71 2248
824.114 1146.76 2254
833.184 1151.85 2264
838.598 1151.85 2264
844.012 1151.85 2264
846.799 1148.29 2257
849.931 1145.24 2251
861.393 1153.38 2267
866.814 1153.38 2267
878.007 1161.01 2282
887.335 1166.1 2292
893.985 1167.62 2295
899.473 1167.62 2295
904.961 1167.62 2295
910.449 1167.62 2295
914.739 1166.1 2292
920.22 1166.1 2292
921.662 1161.01 2282
924.682 1157.96 2276
930.124 1157.96 2276
935.567 1157.96 2276
936.048 1151.85 2264
938.551 1148.29 2257
937.675 1140.66 2242
943.036 1140.66 2242
945.859 1137.6 2236
951.206 1137.6 2236
956.553 1137.6 2236
968.353 1145.24 2251
973.736 1145.24 2251
979.119 1145.24 2251
979.253 1139.13 2239
983.288 1137.6 2236
988.635 1137.6 2236
987.314 1129.97 2221
991.284 1128.45 2218
990.298 1121.32 2204
998.278 1124.38 2210
1003.56 1124.38 2210
1008.85 1124.38 2210
1014.13 1124.38 2210
1019.42 1124.38 2210
1024.7 1124.38 2210
1029.99 1124.38 2210
1033.87 1122.85 2207
1039.14 1122.85 2207
1041.58 1119.8 2201
1041.14 1113.69 2189
1047.81 1115.22 2192
1058.81 1121.32 2204
1064.08 1121.32 2204
1069.35 1121.32 2204
1074.62 1121.32 2204
1082.83 1124.38 2210
1093.54 1129.97 2221
1098.85 1129.97 2221
1114.6 1140.66 2242
1121.46 1142.18 2245
1131.34 1146.76 2254
1136.73 1146.76 2254
1145.67 1150.32 2261
1151.08 1150.32 2261
1158.02 1151.85 2264
1163.43 1151.85 2264
1173.49 1156.43 2273
1178.93 1156.43 2273
1187.49 1159.48 2279
1192.94 1159.48 2279
1198.39 1159.48 2279
1205.42 1161.01 2282
1210.88 1161.01 2282
1216.34 1161.01 2282
1220.19 1159.48 2279
1225.64 1159.48 2279
1231.09 1159.48 2279
1236.54 1159.48 2279
1241.99 1159.48 2279
1247.44 1159.48 2279
1251.24 1157.96 2276
1256.68 1157.96 2276
1262.12 1157.96 2276
1265.9 1156.43 2273
1269.65 1154.9 2270
1275.08 1154.9 2270
1277.12 1151.85 2264
1278.57 1148.29 2257
1282.26 1146.76 2254
1287.65 1146.76 2254
1293.04 1146.76 2254
1296.71 1145.24 2251
1291.68 1136.08 2233
1297.02 1136.08 2233
1302.36 1136.08 2233
1298.91 1128.45 2218
1305.98 1129.97 2221
1314.83 1133.03 2227
1323.71 1136.08 2233
1329.05 1136.08 2233
1343.36 1143.71 2248
1352.33 1146.76 2254
1359.53 1148.29 2257
1364.93 1148.29 2257
1372.75 1150.32 2261
1387.3 1157.96 2276
1394.58 1159.48 2279
1400.03 1159.48 2279
1405.48 1159.48 2279
1410.93 1159.48 2279
1416.38 1159.48 2279
1425.57 1162.53 2285
1431.04 1162.53 2285
1436.5 1162.53 2285
1441.97 1162.53 2285
1447.43 1162.53 2285
1449.08 1159.48 2279
1454.53 1159.48 2279
1456.14 1156.43 2273
1461.57 1156.43 2273
1463.13 1153.38 2267
1460.13 1146.76 2254
1455.77 1139.13 2239
1461.12 1139.13 2239
1454.69 1129.97 2221
1460 1129.97 2221
1450.14 1118.27 2198
1446.12 1111.15 2184
1451.35 1111.15 2184
1446.56 1103.52 2169
1451.75 1103.52 2169
1460.97 1106.57 2175
1468.19 1108.1 2178
1473.4 1108.1 2178
1482.68 1111.15 2184
1495.4 1116.75 2195
1502.7 1118.27 2198
1507.95 1118.27 2198
1519.41 1122.85 2207
1524.68 1122.85 2207
1529.96 1122.85 2207
1535.24 1122.85 2207
1538.42 1121.32 2204
1553.5 1128.45 2218
1565.13 1133.03 2227
1576.8 1137.6 2236
1582.15 1137.6 2236
1609.5 1153.38 2267
1625.61 1161.01 2282
1633.21 1162.53 2285
1638.67 1162.53 2285
1644.14 1162.53 2285
1654.66 1166.1 2292
1660.14 1166.1 2292
1665.62 1166.1 2292
1671.1 1166.1 2292
1676.58 1166.1 2292
1682.06 1166.1 2292
1680.18 1161.01 2282
1685.64 1161.01 2282
1688.87 1159.48 2279
1694.32 1159.48 2279
1695.29 1156.43 2273
1700.73 1156.43 2273
1706.16 1156.43 2273
1711.6 1156.43 2273
1717.04 1156.43 2273
1720.2 1154.9 2270
1718.78 1150.32 2261
1718.85 1146.76 2254
1724.24 1146.76 2254
-1576.81 1076.51 2106
-1571.78 1076.51 2106
-1566.74 1076.51 2106
-1567.64 1080.6 2114
-1562.58 1080.6 2114
-1557.53 1080.6 2114
-1552.47 1080.6 2114
-1545.95 1079.58 2112
-1540.9 1079.58 2112
-1533.67 1078.04 2109
-1526.45 1076.51 2106
-1521.42 1076.51 2106
-1516.38 1076.51 2106
-1511.34 1076.51 2106
-1508.45 1078.04 2109
-1511.25 1083.67 2120
-1515.42 1090.31 2133
-1510.32 1090.31 2133
-1529.21 1107.69 2167
-1535.98 1116.38 2184
-1540.57 1123.54 2198
-1535.32 1123.54 2198
-1530.06 1123.54 2198
-1524.81 1123.54 2198
-1519.55 1123.54 2198
-1514.29 1123.54 2198
-1513.16 1126.6 2204
-1507.89 1126.6 2204
-1502.62 1126.6 2204
-1497.35 1126.6 2204
-1498.17 1131.2 2213
-1492.88 1131.2 2213
-1487.58 1131.2 2213
-1462.44 1128.14 2207
-1457.16 1128.14 2207
-1451.89 1128.14 2207
-1442.68 1125.07 2201
-1437.41 1125.07 2201
-1430.2 1123.54 2198
-1417.16 1117.4 2186
-1404.83 1111.78 2175
-1399.63 1111.78 2175
-1390.58 1108.71 2169
-1385.39 1108.71 2169
-1377.03 1106.16 2164
-1371.85 1106.16 2164
-1366.68 1106.16 2164
-1370.31 1113.31 2178
-1365.1 1113.31 2178
-1359.89 1113.31 2178
-1347.84 1107.69 2167
-1337.08 1103.09 2158
-1328.84 1100.53 2153
-1323.69 1100.53 2153
-1318.54 1100.53 2153
-1313.39 1100.53 2153
-1304.6 1097.47 2147
-1304.31 1101.56 2155
-1299.15 1101.56 2155
-1301.2 1107.69 2167
-1296.02 1107.69 2167
-1290.84 1107.69 2167
-1283.88 1106.16 2164
-1278.7 1106.16 2164
-1273.53 1106.16 2164
-1268.35 1106.16 2164
-1261.43 1104.62 2161
-1256.26 1104.62 2161
-1251.09 1104.62 2161
-1247.66 1106.16 2164
-1242.48 1106.16 2164
-1239.02 1107.69 2167
-1234.98 1108.71 2169
-1233.19 1111.78 2175
-1227.99 1111.78 2175
-1224.48 1113.31 2178
-1219.27 1113.31 2178
-1214.06 1113.31 2178
-1208.85 1113.31 2178
-1203.64 1113.31 2178
-1198.44 1113.31 2178
-1188.3 1108.71 2169
-1183.11 1108.71 2169
-1175.21 1106.16 2164
-1170.03 1106.16 2164
-1166.47 1107.69 2167
-1161.29 1107.69 2167
-1156.11 1107.69 2167
-1156.77 1113.31 2178
-1154.73 1116.38 2184
-1150.56 1117.4 2186
-1145.34 1117.4 2186
-1140.11 1117.4 2186
-1133.84 1116.38 2184
-1128.62 1116.38 2184
-1118.77 1111.78 2175
-1113.57 1111.78 2175
-1115.5 1118.94 2189
-1114.83 1123.54 2198
-1109.58 1123.54 2198
-1110.35 1129.67 2210
-1112.06 1136.83 2224
-1112.72 1142.96 2236
-1107.37 1142.96 2236
-1103.5 1144.49 2239
-1101.09 1147.56 2245
-1100.12 1152.16 2254
-1094.73 1152.16 2254
-1094.17 1157.27 2264
-1088.75 1157.27 2264
-1083.34 1157.27 2264
-1077.93 1157.27 2264
-1069.2 1153.7 2257
-1056.73 1146.03 2242
-1054.18 1149.1 2248
-1048.81 1149.1 2248
-1044.82 1150.63 2251
-1039.44 1150.63 2251
-1034.06 1150.63 2251
-1025.93 1147.56 2245
-1017.84 1144.49 2239
-1012.48 1144.49 2239
-1007.13 1144.49 2239
-1000.43 1142.96 2236
-987.074 1133.76 2218
-974.246 1125.07 2201
-968.982 1125.07 2201
-959.778 1120.47 2192
-951.053 1116.38 2184
-943.232 1113.31 2178
-938.024 1113.31 2178
-931.531 1111.78 2175
-926.329 1111.78 2175
-924.94 1116.38 2184
-921.823 1118.94 2189
-916.588 1118.94 2189
-911.354 1118.94 2189
-906.119 1118.94 2189
-903.354 1122 2195
-898.105 1122 2195
-892.856 1122 2195
-887.607 1122 2195
-882.358 1122 2195
-877.109 1122 2195
-870.669 1120.47 2192
-862.269 1116.38 2184
-857.046 1116.38 2184
-858.454 1125.07 2201
-853.191 1125.07 2201
-850.239 1128.14 2207
-851.47 1136.83 2224
-846.152 1136.83 2224
-840.833 1136.83 2224
-834.388 1135.29 2221
-829.077 1135.29 2221
-823.766 1135.29 2221
-815.507 1131.2 2213
-806.92 1126.6 2204
-800.558 1125.07 2201
-795.295 1125.07 2201
-787.878 1122 2195
-780.49 1118.94 2189
-771.359 1113.31 2178
-766.151 1113.31 2178
-757.799 1108.71 2169
-752.612 1108.71 2169
-747.425 1108.71 2169
-744.292 1111.78 2175
-739.09 1111.78 2175
-734.902 1113.31 2178
-729.693 1113.31 2178
-724.485 1113.31 2178
-718.286 1111.78 2175
-713.085 1111.78 2175
-708.86 1113.31 2178
-703.652 1113.31 2178
-698.444 1113.31 2178
-693.236 1113.31 2178
-688.975 1114.85 2181
-683.76 1114.85 2181
-678.544 1114.85 2181
-673.329 1114.85 2181
-668.113 1114.85 2181
-665.329 1118.94 2189
-661.904 1122 2195
-656.655 1122 2195
-658.232 1133.76 2218
-653.811 1135.29 2221
-648.5 1135.29 2221
-643.189 1135.29 2221
-637.016 1133.76 2218
-629.434 1129.67 2210
-624.149 1129.67 2210
-618.024 1128.14 2207
-612.747 1128.14 2207
-606.643 1126.6 2204
-601.373 1126.6 2204
-595.291 1125.07 2201
-587.615 1120.47 2192
-582.373 1120.47 2192
-577.132 1120.47 2192
-571.107 1118.94 2189
-565.873 1118.94 2189
-560.638 1118.94 2189
-556.165 1120.47 2192
-550.923 1120.47 2192
-545.681 1120.47 2192
-540.44 1120.47 2192
-535.198 1120.47 2192
-525.846 1111.78 2175
-519.927 1110.25 2172
-516.155 1113.31 2178
-513.527 1118.94 2189
-508.293 1118.94 2189
-503.058 1118.94 2189
-497.823 1118.94 2189
-492.589 1118.94 2189
-487.354 1118.94 2189
-482.12 1118.94 2189
-476.885 1118.94 2189
-471.651 1118.94 2189
-466.416 1118.94 2189
-461.181 1118.94 2189
-455.947 1118.94 2189
-451.948 1122 2195
-446.699 1122 2195
-441.45 1122 2195
-436.797 1123.54 2198
-432.719 1126.6 2204
-427.449 1126.6 2204
-422.178 1126.6 2204
-418.043 1129.67 2210
-412.758 1129.67 2210
-407.473 1129.67 2210
-402.188 1129.67 2210
-396.904 1129.67 2210
-390.556 1126.6 2204
-385.285 1126.6 2204
-378.463 1122 2195
-373.214 1122 2195
-366.456 1117.4 2186
-361.725 1118.94 2189
-356.49 1118.94 2189
-351.256 1118.94 2189
-346.021 1118.94 2189
-340.786 1118.94 2189
-335.092 1117.4 2186
-329.563 1116.38 2184
-323.895 1114.85 2181
-318.679 1114.85 2181
-313.464 1114.85 2181
-307.824 1113.31 2178
-302.616 1113.31 2178
-297.818 1114.85 2181
-292.602 1114.85 2181
-287.387 1114.85 2181
-282.171 1114.85 2181
-277.337 1116.38 2184
-272.114 1116.38 2184
-266.892 1116.38 2184
-262.268 1118.94 2189
-257.034 1118.94 2189
-251.799 1118.94 2189
-246.564 1118.94 2189
-241.33 1118.94 2189
-236.095 1118.94 2189
-230.861 1118.94 2189
-225.626 1118.94 2189
-220.694 1120.47 2192
-217.713 1132.23 2215
-212.416 1132.23 2215
-207.119 1132.23 2215
-201.822 1132.23 2215
-196.526 1132.23 2215
-191.229 1132.23 2215
-185.764 1131.2 2213
-180.472 1131.2 2213
-175.814 1135.29 2221
-170.963 1138.36 2227
-165.638 1138.36 2227
-160.312 1138.36 2227
-154.987 1138.36 2227
-149.661 1138.36 2227
-144.336 1138.36 2227
-139.011 1138.36 2227
-132.845 1131.2 2213
-127.553 1131.2 2213
-122.261 1131.2 2213
-118.026 1141.43 2233
-112.686 1141.43 2233
-107.346 1141.43 2233
-101.321 1133.76 2218
-95.8876 1132.23 2215
-90.5091 1131.2 2213
-85.2171 1131.2 2213
-79.9252 1131.2 2213
-74.532 1129.67 2210
-69.2473 1129.67 2210
-63.8757 1128.14 2207
-58.598 1128.14 2207
-53.3204 1128.14 2207
-48.0428 1128.14 2207
-42.4164 1118.94 2189
-37.1819 1118.94 2189
-31.6992 1110.25 2172
-26.4443 1107.69 2167
-21.2623 1107.69 2167
-16.0952 1108.71 2169
-10.9085 1108.71 2169
-5.72175 1108.71 2169
-0.533776 1106.16 2164
4.641 1106.16 2164
88.0032 1113.31 2178
93.2114 1113.31 2178
98.4197 1113.31 2178
103.628 1113.31 2178
108.536 1110.25 2172
113.73 1110.25 2172
118.486 1106.16 2164
124.804 1116.38 2184
130.026 1116.38 2184
135.249 1116.38 2184
140.472 1116.38 2184
142.492 1091.85 2136
148.913 1101.56 2155
155.711 1113.31 2178
160.919 1113.31 2178
166.356 1114.85 2181
171.807 1116.38 2184
177.192 1117.4 2186
182.419 1117.4 2186
188.419 1122 2195
193.668 1122 2195
200.277 1129.67 2210
207.143 1138.36 2227
212.468 1138.36 2227
218.087 1139.89 2230
223.419 1139.89 2230
228.752 1139.89 2230
234.085 1139.89 2230
238.129 1133.76 2218
242.225 1128.14 2207
247.84 1129.67 2210
253.124 1129.67 2210
258.409 1129.67 2210
263.336 1128.14 2207
268.614 1128.14 2207
272.402 1122 2195
277.651 1122 2195
284.06 1126.6 2204
289.33 1126.6 2204
294.601 1126.6 2204
300.687 1129.67 2210
305.972 1129.67 2210
311.257 1129.67 2210
316.542 1129.67 2210
321.826 1129.67 2210
327.111 1129.67 2210
332.396 1129.67 2210
335.847 1123.54 2198
340.638 1122 2195
345.887 1122 2195
352.095 1125.07 2201
357.359 1125.07 2201
362.622 1125.07 2201
368.387 1126.6 2204
375.522 1132.23 2215
381.334 1133.76 2218
386.638 1133.76 2218
393.003 1136.83 2224
398.321 1136.83 2224
403.639 1136.83 2224
407.302 1132.23 2215
411.668 1129.67 2210
416.386 1128.14 2207
421.664 1128.14 2207
426.942 1128.14 2207
432.219 1128.14 2207
436.902 1126.6 2204
442.173 1126.6 2204
447.443 1126.6 2204
455.589 1133.76 2218
461.516 1135.29 2221
468.089 1138.36 2227
473.414 1138.36 2227
478.74 1138.36 2227
484.065 1138.36 2227
489.39 1138.36 2227
494.716 1138.36 2227
500.041 1138.36 2227
506.048 1139.89 2230
511.38 1139.89 2230
518.103 1142.96 2236
523.45 1142.96 2236
528.797 1142.96 2236
534.86 1144.49 2239
540.215 1144.49 2239
545.569 1144.49 2239
547.97 1138.36 2227
553.296 1138.36 2227
560.126 1141.43 2233
565.466 1141.43 2233
571.573 1142.96 2236
577.693 1144.49 2239
583.048 1144.49 2239
588.402 1144.49 2239
593.756 1144.49 2239
599.11 1144.49 2239
604.464 1144.49 2239
609.818 1144.49 2239
614.348 1142.96 2236
617.201 1138.36 2227
621.688 1136.83 2224
627.006 1136.83 2224
632.324 1136.83 2224
637.642 1136.83 2224
643.828 1138.36 2227
650.902 1141.43 2233
656.242 1141.43 2233
662.471 1142.96 2236
667.818 1142.96 2236
674.068 1144.49 2239
679.422 1144.49 2239
684.776 1144.49 2239
686.431 1138.36 2227
691.757 1138.36 2227
694.265 1133.76 2218
697.046 1129.67 2210
705.826 1135.29 2221
711.137 1135.29 2221
716.449 1135.29 2221
721.76 1135.29 2221
727.071 1135.29 2221
730.403 1132.23 2215
735.7 1132.23 2215
740.997 1132.23 2215
741.576 1125.07 2201
745.822 1123.54 2198
752.103 1125.07 2201
757.366 1125.07 2201
764.708 1128.14 2207
771.033 1129.67 2210
777.371 1131.2 2213
782.663 1131.2 2213
787.955 1131.2 2213
793.247 1131.2 2213
804.673 1139.89 2230
810.006 1139.89 2230
819.726 1146.03 2242
827.296 1149.1 2248
832.671 1149.1 2248
838.047 1149.1 2248
841.171 1146.03 2242
839.736 1136.83 2224
848.474 1141.43 2233
866.814 1158.81 2267
872.235 1158.81 2267
883.464 1166.47 2282
888.921 1166.47 2282
894.378 1166.47 2282
899.834 1166.47 2282
901.721 1161.87 2273
902.367 1155.74 2261
907.774 1155.74 2261
911.565 1153.7 2257
910.868 1146.03 2242
912.552 1141.43 2233
917.891 1141.43 2233
921.991 1139.89 2230
920.254 1131.2 2213
924.291 1129.67 2210
929.576 1129.67 2210
933.592 1128.14 2207
936.317 1125.07 2201
947.569 1132.23 2215
959.319 1139.89 2230
964.652 1139.89 2230
969.984 1139.89 2230
975.317 1139.89 2230
976.692 1135.29 2221
982.003 1135.29 2221
978.423 1125.07 2201
983.686 1125.07 2201
988.95 1125.07 2201
995.568 1126.6 2204
1000.84 1126.6 2204
1008.85 1129.67 2210
1014.13 1129.67 2210
1019.42 1129.67 2210
1024.7 1129.67 2210
1028.59 1128.14 2207
1033.87 1128.14 2207
1039.14 1128.14 2207
1038.74 1122 2195
1039.71 1117.4 2186
1042.55 1114.85 2181
1053.05 1120.47 2192
1061.19 1123.54 2198
1066.44 1123.54 2198
1071.7 1123.54 2198
1076.96 1123.54 2198
1089.6 1131.2 2213
1094.89 1131.2 2213
1104.16 1135.29 2221
1119.96 1146.03 2242
1125.32 1146.03 2242
1130.68 1146.03 2242
1140.6 1150.63 2251
1147.51 1152.16 2254
1152.9 1152.16 2254
1158.29 1152.16 2254
1168.85 1157.27 2264
1177.37 1160.34 2270
1184.36 1161.87 2273
1189.8 1161.87 2273
1198.39 1164.94 2279
1203.84 1164.94 2279
1209.29 1164.94 2279
1214.74 1164.94 2279
1220.19 1164.94 2279
1225.64 1164.94 2279
1231.09 1164.94 2279
1236.54 1164.94 2279
1241.99 1164.94 2279
1247.44 1164.94 2279
1251.24 1163.41 2276
1256.68 1163.41 2276
1260.46 1161.87 2273
1264.22 1160.34 2270
1266.3 1157.27 2264
1271.71 1157.27 2264
1266.41 1147.56 2245
1268.38 1144.49 2239
1270.32 1141.43 2233
1275.66 1141.43 2233
1281 1141.43 2233
1286.34 1141.43 2233
1286.47 1136.83 2224
1288.3 1133.76 2218
1293.61 1133.76 2218
1298.91 1133.76 2218
1305.98 1135.29 2221
1314.83 1138.36 2227
1323.71 1141.43 2233
1329.05 1141.43 2233
1343.36 1149.1 2248
1352.33 1152.16 2254
1359.53 1153.7 2257
1364.93 1153.7 2257
1372.75 1155.74 2261
1387.3 1163.41 2276
1394.58 1164.94 2279
1400.03 1164.94 2279
1405.48 1164.94 2279
1410.93 1164.94 2279
1416.38 1164.94 2279
1425.57 1168.01 2285
1431.04 1168.01 2285
1436.5 1168.01 2285
1441.97 1168.01 2285
1447.43 1168.01 2285
1449.08 1164.94 2279
1454.53 1164.94 2279
1456.14 1161.87 2273
1461.57 1161.87 2273
1463.13 1158.81 2267
1460.13 1152.16 2254
1455.77 1144.49 2239
1461.12 1144.49 2239
1454.69 1135.29 2221
1460 1135.29 2221
1450.14 1123.54 2198
1446.12 1116.38 2184
1451.35 1116.38 2184
1446.56 1108.71 2169
1451.75 1108.71 2169
1460.97 1111.78 2175
1468.19 1113.31 2178
1473.4 1113.31 2178
1482.68 1116.38 2184
1495.4 1122 2195
1502.7 1123.54 2198
1507.95 1123.54 2198
1519.41 1128.14 2207
1524.68 1128.14 2207
1529.96 1128.14 2207
1535.24 1128.14 2207
1538.42 1126.6 2204
1553.5 1133.76 2218
1565.13 1138.36 2227
1576.8 1142.96 2236
1582.15 1142.96 2236
1609.5 1158.81 2267
1625.61 1166.47 2282
1633.21 1168.01 2285
1638.67 1168.01 2285
1644.14 1168.01 2285
1654.66 1171.59 2292
1660.14 1171.59 2292
1665.62 1171.59 2292
1671.1 1171.59 2292
1676.58 1171.59 2292
1682.06 1171.59 2292
1680.18 1166.47 2282
1685.64 1166.47 2282
1688.87 1164.94 2279
1694.32 1164.94 2279
1695.29 1161.87 2273
1700.73 1161.87 2273
1706.16 1161.87 2273
1711.6 1161.87 2273
1717.04 1161.87 2273
1720.2 1160.34 2270
1718.78 1155.74 2261
1718.85 1152.16 2254
1724.24 1152.16 2254
-1575.32 1080.53 2104
-1570.29 1080.53 2104
-1565.25 1080.53 2104
-1560.22 1080.53 2104
-1561.1 1084.64 2112
-1556.05 1084.64 2112
-1551 1084.64 2112
-1543.76 1083.1 2109
-1538.71 1083.1 2109
-1533.67 1083.1 2109
-1528.63 1083.1 2109
-1523.58 1083.1 2109
-1518.54 1083.1 2109
-1511.34 1081.56 2106
-1510.6 1084.64 2112
-1506.98 1085.66 2114
-1507.6 1089.77 2122
-1502.53 1089.77 2122
-1519.33 1105.69 2153
-1527.55 1115.45 2172
-1526.56 1118.53 2178
-1521.35 1118.53 2178
-1516.14 1118.53 2178
-1516.48 1122.64 2186
-1513.33 1124.18 2189
-1508.09 1124.18 2189
-1502.86 1124.18 2189
-1497.62 1124.18 2189
-1502.62 1131.88 2204
-1497.35 1131.88 2204
-1498.17 1136.51 2213
-1492.88 1136.51 2213
-1487.58 1136.51 2213
-1439.25 1115.45 2172
-1434.06 1115.45 2172
-1428.86 1115.45 2172
-1423.67 1115.45 2172
-1418.47 1115.45 2172
-1411.33 1113.91 2169
-1404.84 1112.88 2167
-1395.79 1109.8 2161
-1390.62 1109.8 2161
-1380.32 1105.69 2153
-1375.17 1105.69 2153
-1370.03 1105.69 2153
-1364.88 1105.69 2153
-1357.83 1104.15 2150
-1348.92 1101.07 2144
-1343.79 1101.07 2144
-1338.66 1101.07 2144
-1330.43 1098.5 2139
-1323.45 1096.96 2136
-1316.49 1095.42 2133
-1313.24 1096.96 2136
-1308.13 1096.96 2136
-1303.02 1096.96 2136
-1301.56 1100.04 2142
-1299.46 1102.61 2147
-1294.33 1102.61 2147
-1289.2 1102.61 2147
-1287.65 1105.69 2153
-1282.5 1105.69 2153
-1277.35 1105.69 2153
-1272.2 1105.69 2153
-1267.06 1105.69 2153
-1264.84 1108.26 2158
-1259.68 1108.26 2158
-1254.52 1108.26 2158
-1249.36 1108.26 2158
-1244.2 1108.26 2158
-1239.04 1108.26 2158
-1237.31 1111.34 2164
-1234.98 1113.91 2169
-1231.49 1115.45 2172
-1226.3 1115.45 2172
-1221.1 1115.45 2172
-1219.27 1118.53 2178
-1214.06 1118.53 2178
-1208.85 1118.53 2178
-1201.99 1116.99 2175
-1195.14 1115.45 2172
-1183.91 1109.8 2161
-1178.75 1109.8 2161
-1173.58 1109.8 2161
-1168.41 1109.8 2161
-1163.24 1109.8 2161
-1161.29 1112.88 2167
-1156.11 1112.88 2167
-1150.93 1112.88 2167
-1151.56 1118.53 2178
-1146.35 1118.53 2178
-1141.15 1118.53 2178
-1134.37 1116.99 2175
-1127.61 1115.45 2172
-1122.42 1115.45 2172
-1117.23 1115.45 2172
-1110.5 1113.91 2169
-1106.84 1115.45 2172
-1107.73 1121.61 2184
-1102.51 1121.61 2184
-1105.83 1130.34 2201
-1105.06 1134.97 2210
-1105.25 1140.61 2221
-1099.94 1140.61 2221
-1100.55 1146.78 2233
-1096.68 1148.32 2236
-1095.72 1152.94 2245
-1090.35 1152.94 2245
-1090.79 1159.1 2257
-1085.39 1159.1 2257
-1079.99 1159.1 2257
-1074.59 1159.1 2257
-1069.2 1159.1 2257
-1056.73 1151.4 2242
-1052.77 1152.94 2245
-1047.41 1152.94 2245
-1043.43 1154.48 2248
-1038.05 1154.48 2248
-1032.68 1154.48 2248
-1023.19 1149.86 2239
-1016.47 1148.32 2236
-1011.13 1148.32 2236
-1005.78 1148.32 2236
-996.405 1143.7 2227
-984.849 1136.51 2213
-974.246 1130.34 2201
-968.982 1130.34 2201
-954.962 1120.07 2181
-947.134 1116.99 2175
-940.634 1115.45 2172
-935.44 1115.45 2172
-928.961 1113.91 2169
-923.774 1113.91 2169
-919.858 1115.45 2172
-917.191 1118.53 2178
-911.982 1118.53 2178
-906.774 1118.53 2178
-901.566 1118.53 2178
-897.592 1120.07 2181
-892.377 1120.07 2181
-887.161 1120.07 2181
-881.946 1120.07 2181
-875.525 1118.53 2178
-870.316 1118.53 2178
-863.916 1116.99 2175
-857.531 1115.45 2172
-854.692 1118.53 2178
-851.823 1121.61 2184
-846.601 1121.61 2184
-846.772 1128.8 2198
-844.961 1133.42 2207
-839.684 1133.42 2207
-834.406 1133.42 2207
-828.001 1131.88 2204
-822.731 1131.88 2204
-817.461 1131.88 2204
-811.085 1130.34 2201
-803.625 1127.26 2195
-795.102 1122.64 2186
-789.875 1122.64 2186
-781.776 1118.53 2178
-774.428 1115.45 2172
-765.339 1109.8 2161
-760.171 1109.8 2161
-753.955 1108.26 2158
-747.754 1106.72 2155
-743.635 1108.26 2158
-740.527 1111.34 2164
-735.353 1111.34 2164
-730.178 1111.34 2164
-725.003 1111.34 2164
-719.828 1111.34 2164
-714.653 1111.34 2164
-708.495 1109.8 2161
-704.304 1111.34 2164
-699.129 1111.34 2164
-693.954 1111.34 2164
-688.779 1111.34 2164
-682.657 1109.8 2161
-677.489 1109.8 2161
-672.322 1109.8 2161
-667.154 1109.8 2161
-663.825 1112.88 2167
-659.251 1113.91 2169
-657.682 1120.07 2181
-652.467 1120.07 2181
-648.735 1122.64 2186
-643.508 1122.64 2186
-638.281 1122.64 2186
-633.053 1122.64 2186
-627.251 1121.61 2184
-619.466 1116.99 2175
-614.264 1116.99 2175
-608.223 1115.45 2172
-603.029 1115.45 2172
-596.459 1112.88 2167
-591.277 1112.88 2167
-583.661 1108.26 2158
-577.696 1106.72 2155
-572.012 1105.69 2153
-566.863 1105.69 2153
-561.715 1105.69 2153
-557.083 1106.72 2155
-556.284 1115.45 2172
-551.09 1115.45 2172
-545.896 1115.45 2172
-540.702 1115.45 2172
-535.508 1115.45 2172
-530.315 1115.45 2172
-524.395 1113.91 2169
-518.012 1111.34 2164
-514.022 1113.91 2169
-510.947 1118.53 2178
-505.738 1118.53 2178
-500.53 1118.53 2178
-495.322 1118.53 2178
-490.789 1120.07 2181
-485.573 1120.07 2181
-481.018 1121.61 2184
-475.796 1121.61 2184
-470.573 1121.61 2184
-465.351 1121.61 2184
-460.128 1121.61 2184
-455.322 1122.64 2186
-450.712 1124.18 2189
-445.478 1124.18 2189
-440.243 1124.18 2189
-435.009 1124.18 2189
-430.363 1125.72 2192
-425.703 1127.26 2195
-420.454 1127.26 2195
-416.908 1131.88 2204
-411.637 1131.88 2204
-406.367 1131.88 2204
-401.096 1131.88 2204
-395.826 1131.88 2204
-388.429 1125.72 2192
-383.187 1125.72 2192
-377.428 1124.18 2189
-371.344 1121.61 2184
-366.121 1121.61 2184
-361.229 1122.64 2186
-356.002 1122.64 2186
-350.774 1122.64 2186
-345.547 1122.64 2186
-340.319 1122.64 2186
-334.326 1120.07 2181
-329.11 1120.07 2181
-323.449 1118.53 2178
-318.241 1118.53 2178
-313.033 1118.53 2178
-307.824 1118.53 2178
-302.616 1118.53 2178
-297.818 1120.07 2181
-292.602 1120.07 2181
-287.387 1120.07 2181
-282.171 1120.07 2181
-277.337 1121.61 2184
-272.114 1121.61 2184
-266.892 1121.61 2184
-262.268 1124.18 2189
-257.034 1124.18 2189
-251.799 1124.18 2189
-246.564 1124.18 2189
-241.33 1124.18 2189
-236.095 1124.18 2189
-230.861 1124.18 2189
-225.626 1124.18 2189
-220.694 1125.72 2192
-217.713 1137.53 2215
-212.416 1137.53 2215
-207.119 1137.53 2215
-201.822 1137.53 2215
-196.526 1137.53 2215
-191.229 1137.53 2215
-185.764 1136.51 2213
-180.472 1136.51 2213
-175.814 1140.61 2221
-170.963 1143.7 2227
-165.638 1143.7 2227
-160.312 1143.7 2227
-154.987 1143.7 2227
-149.661 1143.7 2227
-144.336 1143.7 2227
-139.011 1143.7 2227
-132.845 1136.51 2213
-127.553 1136.51 2213
-122.261 1136.51 2213
-118.026 1146.78 2233
-112.686 1146.78 2233
-107.346 1146.78 2233
-101.321 1139.07 2218
-95.8876 1137.53 2215
-90.5091 1136.51 2213
-85.2171 1136.51 2213
-79.9252 1136.51 2213
-74.532 1134.97 2210
-69.2473 1134.97 2210
-63.8757 1133.42 2207
-58.598 1133.42 2207
-53.3204 1133.42 2207
-48.0428 1133.42 2207
-42.4164 1124.18 2189
-37.1819 1124.18 2189
-31.6992 1115.45 2172
-26.4443 1112.88 2167
-21.2623 1112.88 2167
-16.0952 1113.91 2169
-10.9085 1113.91 2169
-5.72175 1113.91 2169
-0.533776 1111.34 2164
4.641 1111.34 2164
88.0032 1118.53 2178
93.2114 1118.53 2178
98.4197 1118.53 2178
103.628 1118.53 2178
108.536 1115.45 2172
113.73 1115.45 2172
118.486 1111.34 2164
124.804 1121.61 2184
130.026 1121.61 2184
135.249 1121.61 2184
140.472 1121.61 2184
142.692 1098.5 2139
148.913 1106.72 2155
155.711 1118.53 2178
160.919 1118.53 2178
166.356 1120.07 2181
171.807 1121.61 2184
177.192 1122.64 2186
182.419 1122.64 2186
187.647 1122.64 2186
192.698 1121.61 2184
198.917 1127.26 2195
204.445 1128.8 2198
209.701 1128.8 2198
215.251 1130.34 2201
220.514 1130.34 2201
225.777 1130.34 2201
231.04 1130.34 2201
235.337 1125.72 2192
240.579 1125.72 2192
245.821 1125.72 2192
250.375 1122.64 2186
255.603 1122.64 2186
260.83 1122.64 2186
266.058 1122.64 2186
271.037 1121.61 2184
275.5 1118.53 2178
281.095 1120.07 2181
286.705 1121.61 2184
291.927 1121.61 2184
297.422 1122.64 2186
302.649 1122.64 2186
307.877 1122.64 2186
313.104 1122.64 2186
318.332 1122.64 2186
323.559 1122.64 2186
328.786 1122.64 2186
333.708 1121.61 2184
338 1118.53 2178
342.735 1116.99 2175
347.936 1116.99 2175
354.599 1121.61 2184
359.821 1121.61 2184
365.378 1122.64 2186
372.64 1128.8 2198
380.819 1137.53 2215
386.115 1137.53 2215
391.412 1137.53 2215
396.709 1137.53 2215
402.006 1137.53 2215
405.28 1131.88 2204
409.991 1130.34 2201
413.556 1125.72 2192
418.798 1125.72 2192
424.04 1125.72 2192
429.282 1125.72 2192
434.523 1125.72 2192
440.367 1127.26 2195
445.616 1127.26 2195
451.481 1128.8 2198
456.737 1128.8 2198
465.146 1136.51 2213
470.863 1137.53 2215
476.16 1137.53 2215
481.457 1137.53 2215
486.753 1137.53 2215
492.05 1137.53 2215
497.347 1137.53 2215
502.644 1137.53 2215
507.94 1137.53 2215
513.237 1137.53 2215
518.534 1137.53 2215
523.831 1137.53 2215
530.561 1140.61 2221
535.872 1140.61 2221
541.183 1140.61 2221
544.525 1136.51 2213
549.817 1136.51 2213
555.611 1137.53 2215
560.908 1137.53 2215
566.204 1137.53 2215
572.275 1139.07 2218
577.579 1139.07 2218
582.883 1139.07 2218
586.861 1136.51 2213
592.153 1136.51 2213
597.445 1136.51 2213
602.737 1136.51 2213
607.205 1134.97 2210
611.658 1133.42 2207
613.581 1127.26 2195
618.83 1127.26 2195
622.373 1124.18 2189
627.608 1124.18 2189
634.577 1127.26 2195
642.449 1131.88 2204
647.719 1131.88 2204
653.879 1133.42 2207
659.156 1133.42 2207
666.842 1137.53 2215
672.139 1137.53 2215
677.436 1137.53 2215
682.733 1137.53 2215
688.029 1137.53 2215
688.944 1130.34 2201
693.261 1128.8 2198
700.424 1131.88 2204
705.694 1131.88 2204
710.965 1131.88 2204
716.235 1131.88 2204
721.506 1131.88 2204
726.776 1131.88 2204
732.046 1131.88 2204
734.306 1127.26 2195
738.544 1125.72 2192
743.786 1125.72 2192
750.053 1127.26 2195
755.302 1127.26 2195
760.551 1127.26 2195
766.846 1128.8 2198
772.102 1128.8 2198
777.358 1128.8 2198
782.614 1128.8 2198
785.72 1125.72 2192
790.961 1125.72 2192
796.203 1125.72 2192
808.026 1134.97 2210
813.311 1134.97 2210
818.596 1134.97 2210
823.881 1134.97 2210
825.789 1130.34 2201
829.919 1128.8 2198
841.635 1137.53 2215
853.814 1146.78 2233
859.154 1146.78 2233
869.139 1152.94 2245
874.508 1152.94 2245
879.876 1152.94 2245
885.245 1152.94 2245
890.613 1152.94 2245
892.39 1148.32 2236
897.737 1148.32 2236
900.66 1145.24 2230
904.774 1143.7 2227
904.378 1136.51 2213
909.67 1136.51 2213
913.722 1134.97 2210
919.007 1134.97 2210
921.782 1131.88 2204
927.052 1131.88 2204
929.785 1128.8 2198
932.488 1125.72 2192
940.297 1128.8 2198
952.006 1136.51 2213
957.298 1136.51 2213
962.59 1136.51 2213
967.882 1136.51 2213
967.897 1130.34 2201
973.16 1130.34 2201
975.756 1127.26 2195
979.664 1125.72 2192
984.906 1125.72 2192
990.148 1125.72 2192
995.389 1125.72 2192
1002 1127.26 2195
1010 1130.34 2201
1015.27 1130.34 2201
1020.53 1130.34 2201
1021.6 1125.72 2192
1025.43 1124.18 2189
1030.67 1124.18 2189
1034.48 1122.64 2186
1035.91 1118.53 2178
1035.86 1112.88 2167
1044.88 1116.99 2175
1051.53 1118.53 2178
1056.74 1118.53 2178
1063.41 1120.07 2181
1072.55 1124.18 2189
1082.21 1128.8 2198
1087.47 1128.8 2198
1095.71 1131.88 2204
1105.47 1136.51 2213
1110.76 1136.51 2213
1116.06 1136.51 2213
1123.88 1139.07 2218
1129.19 1139.07 2218
1140.63 1145.24 2230
1145.96 1145.24 2230
1157.49 1151.4 2242
1162.85 1151.4 2242
1172.9 1156.02 2251
1181.42 1159.1 2257
1186.82 1159.1 2257
1195.92 1162.7 2264
1201.33 1162.7 2264
1208.34 1164.24 2267
1213.76 1164.24 2267
1219.18 1164.24 2267
1224.61 1164.24 2267
1230.03 1164.24 2267
1235.45 1164.24 2267
1235.4 1159.1 2257
1240.79 1159.1 2257
1246.19 1159.1 2257
1248.26 1156.02 2251
1250.3 1152.94 2245
1253.99 1151.4 2242
1259.35 1151.4 2242
1259.64 1146.78 2233
1254.78 1137.53 2215
1253.82 1131.88 2204
1259.09 1131.88 2204
1264.36 1131.88 2204
1267.9 1130.34 2201
1273.17 1130.34 2201
1276.69 1128.8 2198
1281.94 1128.8 2198
1283.68 1125.72 2192
1288.93 1125.72 2192
1294.17 1125.72 2192
1306.52 1131.88 2204
1311.79 1131.88 2204
1325.43 1139.07 2218
1337.93 1145.24 2230
1345.07 1146.78 2233
1350.41 1146.78 2233
1363.04 1152.94 2245
1373.89 1157.56 2254
1381.12 1159.1 2257
1386.52 1159.1 2257
1391.91 1159.1 2257
1397.31 1159.1 2257
1408.92 1164.24 2267
1414.34 1164.24 2267
1419.76 1164.24 2267
1425.19 1164.24 2267
1430.61 1164.24 2267
1436.03 1164.24 2267
1437.63 1161.16 2261
1440.49 1159.1 2257
1445.89 1159.1 2257
1451.28 1159.1 2257
1454.74 1157.56 2254
1450.42 1149.86 2239
1444.07 1140.61 2221
1449.38 1140.61 2221
1447.48 1134.97 2210
1440.94 1125.72 2192
1440.9 1121.61 2184
1436.19 1113.91 2169
1441.38 1113.91 2169
1443.23 1111.34 2164
1448.4 1111.34 2164
1458.95 1115.45 2172
1464.15 1115.45 2172
1469.34 1115.45 2172
1478.61 1118.53 2178
1485.86 1120.07 2181
1493.13 1121.61 2184
1498.35 1121.61 2184
1503.57 1121.61 2184
1502.58 1116.99 2175
1505.7 1115.45 2172
1510.89 1115.45 2172
1513.99 1113.91 2169
1531.09 1122.64 2186
1540.53 1125.72 2192
1558.46 1134.97 2210
1563.75 1134.97 2210
1578.97 1142.16 2224
1594.98 1149.86 2239
1606.76 1154.48 2248
1612.14 1154.48 2248
1621.83 1157.56 2254
1627.22 1157.56 2254
1632.61 1157.56 2254
1638 1157.56 2254
1648.5 1161.16 2261
1653.9 1161.16 2261
1659.31 1161.16 2261
1661.77 1159.1 2257
1667.17 1159.1 2257
1670.34 1157.56 2254
1675.73 1157.56 2254
1690.82 1164.24 2267
1696.24 1164.24 2267
1701.66 1164.24 2267
1707.08 1164.24 2267
1712.5 1164.24 2267
1717.92 1164.24 2267
1706.62 1152.94 2245
1707.41 1149.86 2239
1712.77 1149.86 2239
-1575.32 1085.57 2104
-1570.29 1085.57 2104
-1565.25 1085.57 2104
-1560.22 1085.57 2104
-1561.1 1089.7 2112
-1556.05 1089.7 2112
-1551 1089.7 2112
-1543.76 1088.15 2109
-1538.71 1088.15 2109
-1533.67 1088.15 2109
-1528.63 1088.15 2109
-1523.58 1088.15 2109
-1518.54 1088.15 2109
-1511.34 1086.6 2106
-1510.6 1089.7 2112
-1512.68 1094.86 2122
-1515.42 1100.53 2133
-1510.32 1100.53 2133
-1519.33 1110.85 2153
-1527.55 1120.65 2172
-1526.56 1123.75 2178
-1521.35 1123.75 2178
-1516.14 1123.75 2178
-1516.48 1127.88 2186
-1513.33 1129.42 2189
-1508.09 1129.42 2189
-1502.86 1129.42 2189
-1497.62 1129.42 2189
-1502.62 1137.16 2204
-1497.35 1137.16 2204
-1498.17 1141.81 2213
-1492.88 1141.81 2213
-1487.58 1141.81 2213
-1439.25 1120.65 2172
-1434.06 1120.65 2172
-1428.86 1120.65 2172
-1423.67 1120.65 2172
-1418.47 1120.65 2172
-1411.33 1119.11 2169
-1404.84 1118.07 2167
-1395.79 1114.98 2161
-1390.62 1114.98 2161
-1380.32 1110.85 2153
-1375.17 1110.85 2153
-1359.21 1102.08 2136
-1354.1 1102.08 2136
-1348.99 1102.08 2136
-1345.77 1103.63 2139
-1340.66 1103.63 2139
-1335.54 1103.63 2139
-1323.59 1097.95 2128
-1318.5 1097.95 2128
-1315.26 1099.5 2131
-1310.16 1099.5 2131
-1305.07 1099.5 2131
-1299.97 1099.5 2131
-1296.09 1100.53 2133
-1290.99 1100.53 2133
-1285.89 1100.53 2133
-1286.19 1105.17 2142
-1281.07 1105.17 2142
-1275.95 1105.17 2142
-1270.83 1105.17 2142
-1265.7 1105.17 2142
-1260.58 1105.17 2142
-1258.39 1107.75 2147
-1253.26 1107.75 2147
-1249.87 1109.3 2150
-1244.73 1109.3 2150
-1241.31 1110.85 2153
-1236.17 1110.85 2153
-1235.59 1114.98 2161
-1232.13 1116.53 2164
-1228.66 1118.07 2167
-1223.48 1118.07 2167
-1221.1 1120.65 2172
-1215.91 1120.65 2172
-1210.72 1120.65 2172
-1205.52 1120.65 2172
-1200.33 1120.65 2172
-1189.08 1114.98 2161
-1177.89 1109.3 2150
-1172.75 1109.3 2150
-1167.61 1109.3 2150
-1162.46 1109.3 2150
-1157.32 1109.3 2150
-1152.18 1109.3 2150
-1147.04 1109.3 2150
-1144.55 1111.88 2155
-1140.99 1113.43 2158
-1135.83 1113.43 2158
-1130.67 1113.43 2158
-1125.51 1113.43 2158
-1118.79 1111.88 2155
-1113.64 1111.88 2155
-1105.91 1109.3 2150
-1099.23 1107.75 2147
-1102.76 1116.53 2164
-1103.17 1122.2 2175
-1097.97 1122.2 2175
-1101.31 1130.97 2192
-1103.56 1138.71 2207
-1098.29 1138.71 2207
-1093.01 1138.71 2207
-1097.59 1149.03 2227
-1095.21 1152.13 2233
-1095.72 1158.32 2245
-1090.35 1158.32 2245
-1089.34 1162.96 2254
-1083.95 1162.96 2254
-1078.56 1162.96 2254
-1073.17 1162.96 2254
-1067.78 1162.96 2254
-1053.9 1153.67 2236
-1048.55 1153.67 2236
-1037.61 1147.48 2224
-1037.86 1153.67 2236
-1032.51 1153.67 2236
-1027.17 1153.67 2236
-1019.08 1150.58 2230
-1012.38 1149.03 2227
-1004.34 1145.93 2221
-999.032 1145.93 2221
-992.378 1144.39 2218
-980.844 1137.16 2204
-965.393 1125.3 2181
-960.177 1125.3 2181
-952.335 1122.2 2175
-943.65 1118.07 2167
-937.169 1116.53 2164
-931.994 1116.53 2164
-925.534 1114.98 2161
-920.367 1114.98 2161
-918.587 1119.11 2169
-913.401 1119.11 2169
-908.214 1119.11 2169
-903.027 1119.11 2169
-897.84 1119.11 2169
-891.831 1118.07 2167
-886.649 1118.07 2167
-881.467 1118.07 2167
-876.285 1118.07 2167
-871.103 1118.07 2167
-865.921 1118.07 2167
-858.356 1114.98 2161
-850.819 1111.88 2155
-845.666 1111.88 2155
-844.023 1116.53 2164
-838.848 1116.53 2164
-835.6 1119.11 2169
-833.859 1123.75 2178
-828.65 1123.75 2178
-823.442 1123.75 2178
-819.361 1125.3 2181
-814.145 1125.3 2181
-808.93 1125.3 2181
-803.714 1125.3 2181
-798.499 1125.3 2181
-788.191 1118.07 2167
-783.01 1118.07 2167
-775.674 1114.98 2161
-768.367 1111.88 2155
-760.38 1107.75 2147
-755.246 1107.75 2147
-749.064 1106.21 2144
-746.019 1109.3 2150
-740.878 1109.3 2150
-738.474 1113.43 2158
-733.314 1113.43 2158
-728.153 1113.43 2158
-722.993 1113.43 2158
-717.832 1113.43 2158
-712.672 1113.43 2158
-707.511 1113.43 2158
-701.375 1111.88 2155
-696.221 1111.88 2155
-691.068 1111.88 2155
-685.915 1111.88 2155
-680.762 1111.88 2155
-674.981 1110.85 2153
-669.833 1110.85 2153
-664.684 1110.85 2153
-661.068 1113.43 2158
-656.819 1114.98 2161
-654.064 1119.11 2169
-648.877 1119.11 2169
-645.471 1122.2 2175
-640.27 1122.2 2175
-635.069 1122.2 2175
-629.868 1122.2 2175
-623.805 1120.65 2172
-617.187 1118.07 2167
-612.005 1118.07 2167
-605.143 1114.98 2161
-599.975 1114.98 2161
-593.982 1113.43 2158
-588.822 1113.43 2158
-582.85 1111.88 2155
-577.16 1110.85 2153
-572.012 1110.85 2153
-566.863 1110.85 2153
-561.715 1110.85 2153
-556.566 1110.85 2153
-551.93 1111.88 2155
-550.329 1119.11 2169
-545.142 1119.11 2169
-539.956 1119.11 2169
-534.769 1119.11 2169
-529.582 1119.11 2169
-523.187 1116.53 2164
-517.294 1114.98 2161
-513.548 1118.07 2167
-509.539 1120.65 2172
-504.345 1120.65 2172
-499.841 1122.2 2175
-494.639 1122.2 2175
-490.113 1123.75 2178
-484.905 1123.75 2178
-480.358 1125.3 2181
-475.142 1125.3 2181
-469.927 1125.3 2181
-464.711 1125.3 2181
-458.864 1123.75 2178
-454.281 1125.3 2181
-450.095 1127.88 2186
-444.867 1127.88 2186
-439.64 1127.88 2186
-434.015 1126.84 2184
-428.792 1126.84 2184
-424.539 1129.42 2189
-419.305 1129.42 2189
-415.205 1132.52 2195
-409.956 1132.52 2195
-404.708 1132.52 2195
-399.459 1132.52 2195
-393.671 1130.97 2192
-387.366 1127.88 2186
-382.139 1127.88 2186
-376.566 1126.84 2184
-370.324 1123.75 2178
-365.115 1123.75 2178
-360.403 1125.3 2181
-355.187 1125.3 2181
-349.972 1125.3 2181
-344.756 1125.3 2181
-339.541 1125.3 2181
-333.406 1122.2 2175
-328.205 1122.2 2175
-323.004 1122.2 2175
-317.803 1122.2 2175
-312.602 1122.2 2175
-307.4 1122.2 2175
-302.199 1122.2 2175
-296.998 1122.2 2175
-291.797 1122.2 2175
-286.596 1122.2 2175
-281.395 1122.2 2175
-276.575 1123.75 2178
-271.74 1125.3 2181
-266.525 1125.3 2181
-261.31 1125.3 2181
-256.094 1125.3 2181
-250.879 1125.3 2181
-245.663 1125.3 2181
-240.117 1123.75 2178
-234.585 1122.2 2175
-229.384 1122.2 2175
-223.874 1120.65 2172
-219.586 1125.3 2181
-214.862 1127.88 2186
-209.635 1127.88 2186
-204.407 1127.88 2186
-199.18 1127.88 2186
-193.953 1127.88 2186
-188.725 1127.88 2186
-183.498 1127.88 2186
-178.27 1127.88 2186
-173.281 1129.42 2189
-168.046 1129.42 2189
-162.811 1129.42 2189
-157.577 1129.42 2189
-151.994 1126.84 2184
-146.772 1126.84 2184
-140.577 1119.11 2169
-135.39 1119.11 2169
-130.083 1118.07 2167
-125.19 1120.65 2172
-119.996 1120.65 2172
-114.802 1120.65 2172
-109.608 1120.65 2172
-104.414 1120.65 2172
-99.22 1120.65 2172
-94.0261 1120.65 2172
-89.0776 1123.75 2178
-83.8694 1123.75 2178
-78.6611 1123.75 2178
-73.4528 1123.75 2178
-68.2446 1123.75 2178
-63.0363 1123.75 2178
-57.8281 1123.75 2178
-52.3541 1118.07 2167
-47.1721 1118.07 2167
-41.9901 1118.07 2167
-36.8082 1118.07 2167
-31.6262 1118.07 2167
-26.4443 1118.07 2167
-21.2623 1118.07 2167
-16.0804 1118.07 2167
-10.8984 1118.07 2167
-5.70856 1116.53 2164
-0.533776 1116.53 2164
4.641 1116.53 2164
87.8819 1122.2 2175
93.083 1122.2 2175
98.2841 1122.2 2175
103.485 1122.2 2175
108.536 1120.65 2172
113.73 1120.65 2172
118.486 1116.53 2164
123.661 1116.53 2164
128.657 1114.98 2161
133.825 1114.98 2161
138.092 1107.75 2147
142.692 1103.63 2139
148.913 1111.88 2155
154.924 1118.07 2167
160.106 1118.07 2167
165.669 1120.65 2172
171.099 1122.2 2175
176.3 1122.2 2175
182.002 1125.3 2181
187.218 1125.3 2181
192.698 1126.84 2184
198.917 1132.52 2195
204.445 1134.07 2198
209.701 1134.07 2198
215.251 1135.62 2201
220.514 1135.62 2201
225.777 1135.62 2201
231.04 1135.62 2201
235.337 1130.97 2192
240.579 1130.97 2192
245.821 1130.97 2192
250.375 1127.88 2186
255.603 1127.88 2186
260.83 1127.88 2186
266.058 1127.88 2186
271.037 1126.84 2184
275.5 1123.75 2178
281.095 1125.3 2181
286.705 1126.84 2184
291.927 1126.84 2184
297.422 1127.88 2186
302.649 1127.88 2186
307.877 1127.88 2186
313.104 1127.88 2186
318.332 1127.88 2186
323.559 1127.88 2186
328.786 1127.88 2186
333.708 1126.84 2184
338 1123.75 2178
342.735 1122.2 2175
347.936 1122.2 2175
354.599 1126.84 2184
359.821 1126.84 2184
365.378 1127.88 2186
372.64 1134.07 2198
380.819 1142.84 2215
386.115 1142.84 2215
391.412 1142.84 2215
396.709 1142.84 2215
402.006 1142.84 2215
405.28 1137.16 2204
409.991 1135.62 2201
413.556 1130.97 2192
418.798 1130.97 2192
424.04 1130.97 2192
429.282 1130.97 2192
434.523 1130.97 2192
440.367 1132.52 2195
445.616 1132.52 2195
451.481 1134.07 2198
456.737 1134.07 2198
465.146 1141.81 2213
470.863 1142.84 2215
476.16 1142.84 2215
481.457 1142.84 2215
486.753 1142.84 2215
492.05 1142.84 2215
497.347 1142.84 2215
502.644 1142.84 2215
507.94 1142.84 2215
513.237 1142.84 2215
518.534 1142.84 2215
523.831 1142.84 2215
530.561 1145.93 2221
535.872 1145.93 2221
541.183 1145.93 2221
544.525 1141.81 2213
549.817 1141.81 2213
555.611 1142.84 2215
560.908 1142.84 2215
566.204 1142.84 2215
572.275 1144.39 2218
577.579 1144.39 2218
582.883 1144.39 2218
586.861 1141.81 2213
592.153 1141.81 2213
597.445 1141.81 2213
602.737 1141.81 2213
607.205 1140.26 2210
611.658 1138.71 2207
613.581 1132.52 2195
618.83 1132.52 2195
622.373 1129.42 2189
627.608 1129.42 2189
634.577 1132.52 2195
642.449 1137.16 2204
647.719 1137.16 2204
653.879 1138.71 2207
659.156 1138.71 2207
666.842 1142.84 2215
672.139 1142.84 2215
677.436 1142.84 2215
682.733 1142.84 2215
688.029 1142.84 2215
688.944 1135.62 2201
693.261 1134.07 2198
693.115 1125.3 2181
698.33 1125.3 2181
703.545 1125.3 2181
708.761 1125.3 2181
713.976 1125.3 2181
719.192 1125.3 2181
724.407 1125.3 2181
729.622 1125.3 2181
732.816 1122.2 2175
739.035 1123.75 2178
744.244 1123.75 2178
749.452 1123.75 2178
756.739 1126.84 2184
762.66 1127.88 2186
767.887 1127.88 2186
773.114 1127.88 2186
778.342 1127.88 2186
782.852 1126.84 2184
788.075 1126.84 2184
792.208 1125.3 2181
801.445 1130.97 2192
806.687 1130.97 2192
811.928 1130.97 2192
817.17 1130.97 2192
820.161 1127.88 2186
825.388 1127.88 2186
830.616 1127.88 2186
842.725 1137.16 2204
847.996 1137.16 2204
863.332 1150.58 2230
871.002 1153.67 2236
876.349 1153.67 2236
881.696 1153.67 2236
885.853 1152.13 2233
889.995 1150.58 2230
895.328 1150.58 2230
894.602 1142.84 2215
897.867 1140.26 2210
903.152 1140.26 2210
908.437 1140.26 2210
911.241 1137.16 2204
916.512 1137.16 2204
916.763 1130.97 2192
922.005 1130.97 2192
927.247 1130.97 2192
929.936 1127.88 2186
937.73 1130.97 2192
946.844 1135.62 2201
952.107 1135.62 2201
957.37 1135.62 2201
962.633 1135.62 2201
965.258 1132.52 2195
970.507 1132.52 2195
973.089 1129.42 2189
974.748 1125.3 2181
979.963 1125.3 2181
985.179 1125.3 2181
990.394 1125.3 2181
997.892 1127.88 2186
1003.12 1127.88 2186
1008.35 1127.88 2186
1013.57 1127.88 2186
1015.07 1123.75 2178
1016.07 1119.11 2169
1018.9 1116.53 2164
1024.07 1116.53 2164
1024.97 1111.88 2155
1029.16 1110.85 2153
1034.31 1110.85 2153
1040.43 1111.88 2155
1045.58 1111.88 2155
1055.12 1116.53 2164
1064.22 1120.65 2172
1072.36 1123.75 2178
1077.57 1123.75 2178
1089.74 1130.97 2192
1099.48 1135.62 2201
1104.74 1135.62 2201
1110 1135.62 2201
1121.35 1141.81 2213
1126.64 1141.81 2213
1132.96 1142.84 2215
1138.25 1142.84 2215
1151.29 1150.58 2230
1161.29 1155.22 2239
1169.77 1158.32 2245
1179.85 1162.96 2254
1185.24 1162.96 2254
1194.33 1166.57 2261
1199.74 1166.57 2261
1206.74 1168.12 2264
1212.16 1168.12 2264
1217.57 1168.12 2264
1222.99 1168.12 2264
1228.4 1168.12 2264
1230 1164.51 2257
1235.4 1164.51 2257
1237.49 1161.41 2251
1242.88 1161.41 2251
1246.6 1159.87 2248
1248.63 1156.77 2242
1252.31 1155.22 2239
1257.67 1155.22 2239
1251.18 1144.39 2218
1250.25 1138.71 2207
1253.82 1137.16 2204
1257.38 1135.62 2201
1262.64 1135.62 2201
1266.17 1134.07 2198
1271.43 1134.07 2198
1269.72 1127.88 2186
1274.94 1127.88 2186
1279 1126.84 2184
1284.22 1126.84 2184
1287.67 1125.3 2181
1297.63 1129.42 2189
1302.87 1129.42 2189
1315.27 1135.62 2201
1327.73 1141.81 2213
1334.23 1142.84 2215
1339.53 1142.84 2215
1352.11 1149.03 2227
1364.75 1155.22 2239
1371.94 1156.77 2242
1377.3 1156.77 2242
1382.66 1156.77 2242
1388.02 1156.77 2242
1398.98 1161.41 2251
1404.36 1161.41 2251
1409.74 1161.41 2251
1415.13 1161.41 2251
1420.51 1161.41 2251
1427.79 1162.96 2254
1433.18 1162.96 2254
1438.57 1162.96 2254
1440.12 1159.87 2248
1445.5 1159.87 2248
1448.93 1158.32 2245
1446.53 1152.13 2233
1436.92 1140.26 2210
1442.2 1140.26 2210
1435.7 1130.97 2192
1438.96 1129.42 2189
1440.9 1126.84 2184
1436.19 1119.11 2169
1441.38 1119.11 2169
1441.23 1114.98 2161
1446.4 1114.98 2161
1453.58 1116.53 2164
1458.75 1116.53 2164
1463.93 1116.53 2164
1472.5 1119.11 2169
1477.68 1119.11 2169
1486.97 1122.2 2175
1492.17 1122.2 2175
1497.38 1122.2 2175
1494.98 1116.53 2164
1498.07 1114.98 2161
1503.24 1114.98 2161
1506.31 1113.43 2158
1511.47 1113.43 2158
1524.37 1119.11 2169
1543.66 1129.42 2189
1548.89 1129.42 2189
1562.64 1135.62 2201
1572.18 1138.71 2207
1577.46 1138.71 2207
1582.74 1138.71 2207
1590.17 1140.26 2210
1599.07 1142.84 2215
1604.36 1142.84 2215
1609.66 1142.84 2215
1611.31 1140.26 2210
1616.6 1140.26 2210
1621.88 1140.26 2210
1627.17 1140.26 2210
1632.45 1140.26 2210
1652.56 1150.58 2230
1660.12 1152.13 2233
1676.65 1159.87 2248
1682.02 1159.87 2248
1687.4 1159.87 2248
1690.52 1158.32 2245
1695.88 1158.32 2245
1701.25 1158.32 2245
1690.66 1147.48 2224
1691.4 1144.39 2218
1696.7 1144.39 2218
-1567.08 1084.91 2093
-1562.08 1084.91 2093
-1565.25 1090.61 2104
-1560.22 1090.61 2104
-1556.67 1091.65 2106
-1551.63 1091.65 2106
-1546.6 1091.65 2106
-1543.76 1093.2 2109
-1538.71 1093.2 2109
-1533.67 1093.2 2109
-1528.63 1093.2 2109
-1523.58 1093.2 2109
-1518.54 1093.2 2109
-1511.34 1091.65 2106
-1510.6 1094.76 2112
-1512.68 1099.94 2122
-1515.42 1105.64 2133
-1510.32 1105.64 2133
-1515.1 1112.9 2147
-1519.81 1120.15 2161
-1514.64 1120.15 2161
-1509.47 1120.15 2161
-1504.31 1120.15 2161
-1510.93 1128.97 2178
-1505.72 1128.97 2178
-1500.52 1128.97 2178
-1500.8 1133.11 2186
-1495.57 1133.11 2186
-1492.39 1134.67 2189
-1487.16 1134.67 2189
-1481.92 1134.67 2189
-1417.68 1117.04 2155
-1416.46 1120.15 2161
-1411.29 1120.15 2161
-1406.12 1120.15 2161
-1397.06 1117.04 2155
-1390.62 1116.01 2153
-1385.47 1116.01 2153
-1380.32 1116.01 2153
-1373.26 1114.45 2150
-1359.21 1107.2 2136
-1354.1 1107.2 2136
-1348.99 1107.2 2136
-1345.77 1108.75 2139
-1340.66 1108.75 2139
-1335.54 1108.75 2139
-1323.59 1103.05 2128
-1318.5 1103.05 2128
-1315.26 1104.6 2131
-1310.16 1104.6 2131
-1305.07 1104.6 2131
-1299.97 1104.6 2131
-1296.09 1105.64 2133
-1290.99 1105.64 2133
-1285.89 1105.64 2133
-1286.19 1110.31 2142
-1281.07 1110.31 2142
-1275.95 1110.31 2142
-1270.83 1110.31 2142
-1265.7 1110.31 2142
-1260.58 1110.31 2142
-1258.39 1112.9 2147
-1253.26 1112.9 2147
-1249.87 1114.45 2150
-1244.73 1114.45 2150
-1241.31 1116.01 2153
-1236.17 1116.01 2153
-1235.59 1120.15 2161
-1232.13 1121.71 2164
-1228.66 1123.26 2167
-1223.48 1123.26 2167
-1221.1 1125.86 2172
-1215.91 1125.86 2172
-1210.72 1125.86 2172
-1205.52 1125.86 2172
-1200.33 1125.86 2172
-1189.08 1120.15 2161
-1177.89 1114.45 2150
-1172.75 1114.45 2150
-1167.61 1114.45 2150
-1162.46 1114.45 2150
-1157.32 1114.45 2150
-1152.18 1114.45 2150
-1147.04 1114.45 2150
-1144.55 1117.04 2155
-1140.99 1118.6 2158
-1135.83 1118.6 2158
-1130.67 1118.6 2158
-1125.51 1118.6 2158
-1118.79 1117.04 2155
-1113.64 1117.04 2155
-1105.91 1114.45 2150
-1099.23 1112.9 2147
-1102.76 1121.71 2164
-1103.17 1127.41 2175
-1097.97 1127.41 2175
-1101.31 1136.22 2192
-1103.56 1144 2207
-1098.29 1144 2207
-1093.01 1144 2207
-1097.59 1154.37 2227
-1095.21 1157.48 2233
-1095.72 1163.7 2245
-1090.35 1163.7 2245
-1089.34 1168.36 2254
-1083.95 1168.36 2254
-1078.56 1168.36 2254
-1073.17 1168.36 2254
-1067.78 1168.36 2254
-1053.9 1159.03 2236
-1048.55 1159.03 2236
-1037.61 1152.81 2224
-1037.86 1159.03 2236
-1032.51 1159.03 2236
-1027.17 1159.03 2236
-1019.08 1155.92 2230
-1012.38 1154.37 2227
-1004.34 1151.26 2221
-999.032 1151.26 2221
-992.378 1149.7 2218
-980.844 1142.44 2204
-965.393 1130.52 2181
-960.177 1130.52 2181
-952.335 1127.41 2175
-943.65 1123.26 2167
-937.169 1121.71 2164
-931.994 1121.71 2164
-925.534 1120.15 2161
-920.367 1120.15 2161
-918.587 1124.3 2169
-913.401 1124.3 2169
-908.214 1124.3 2169
-903.027 1124.3 2169
-897.84 1124.3 2169
-891.831 1123.26 2167
-886.649 1123.26 2167
-881.467 1123.26 2167
-876.285 1123.26 2167
-867.485 1118.6 2158
-862.324 1118.6 2158
-855.178 1116.01 2153
-846.476 1111.34 2144
-839.387 1108.75 2139
-838.562 1114.45 2150
-833.421 1114.45 2150
-829.436 1116.01 2153
-826.201 1118.6 2158
-821.041 1118.6 2158
-815.881 1118.6 2158
-811.847 1120.15 2161
-806.68 1120.15 2161
-801.512 1120.15 2161
-796.344 1120.15 2161
-791.177 1120.15 2161
-783.099 1116.01 2153
-777.951 1116.01 2153
-769.572 1111.34 2144
-763.732 1110.31 2142
-756.485 1107.2 2136
-751.377 1107.2 2136
-745.221 1105.64 2133
-742.202 1108.75 2139
-738.121 1110.31 2142
-735.736 1114.45 2150
-730.595 1114.45 2150
-727.141 1117.04 2155
-721.988 1117.04 2155
-716.834 1117.04 2155
-711.681 1117.04 2155
-706.528 1117.04 2155
-701.375 1117.04 2155
-696.221 1117.04 2155
-691.068 1117.04 2155
-684.323 1114.45 2150
-679.182 1114.45 2150
-674.981 1116.01 2153
-669.833 1116.01 2153
-664.684 1116.01 2153
-659.536 1116.01 2153
-655.907 1118.6 2158
-652.556 1121.71 2164
-647.381 1121.71 2164
-643.69 1124.3 2169
-638.504 1124.3 2169
-633.317 1124.3 2169
-628.13 1124.3 2169
-621.507 1121.71 2164
-615.478 1120.15 2161
-610.311 1120.15 2161
-604.303 1118.6 2158
-599.142 1118.6 2158
-592.606 1116.01 2153
-587.457 1116.01 2153
-581.497 1114.45 2150
-575.552 1112.9 2147
-570.418 1112.9 2147
-565.284 1112.9 2147
-560.15 1112.9 2147
-555.015 1112.9 2147
-551.93 1117.04 2155
-548.299 1120.15 2161
-543.132 1120.15 2161
-537.964 1120.15 2161
-532.796 1120.15 2161
-527.629 1120.15 2161
-522.461 1120.15 2161
-517.294 1120.15 2161
-512.837 1121.71 2164
-509.539 1125.86 2172
-504.345 1125.86 2172
-499.151 1125.86 2172
-493.957 1125.86 2172
-489.438 1127.41 2175
-484.237 1127.41 2175
-479.697 1128.97 2178
-474.489 1128.97 2178
-469.28 1128.97 2178
-464.072 1128.97 2178
-458.232 1127.41 2175
