ply
format ascii 1.0
comment File generated
element vertex 2165
property float x
property float y
property float z
end_header
19.5317 -274.226 2096
24.5439 -274.226 2096
29.556 -274.226 2096
34.5187 -273.833 2093
39.5237 -273.833 2093
44.5287 -273.833 2093
49.5337 -273.833 2093
54.5387 -273.833 2093
59.5437 -273.833 2093
64.5487 -273.833 2093
69.6534 -274.226 2096
74.6656 -274.226 2096
79.6777 -274.226 2096
84.6899 -274.226 2096
89.7877 -274.488 2098
94.9402 -274.88 2101
99.9643 -274.88 2101
105.138 -275.273 2104
110.17 -275.273 2104
115.31 -275.534 2106
120.347 -275.534 2106
125.561 -275.927 2109
130.79 -276.319 2112
135.969 -276.581 2114
141.025 -276.581 2114
146.287 -276.973 2117
151.707 -277.628 2122
156.781 -277.628 2122
161.856 -277.628 2122
167.166 -278.02 2125
172.491 -278.413 2128
177.83 -278.805 2131
182.926 -278.805 2131
188.021 -278.805 2131
193.117 -278.805 2131
199.236 -280.244 2142
204.359 -280.244 2142
210.263 -281.291 2150
216.807 -283.123 2164
223.726 -285.347 2181
228.941 -285.347 2181
234.479 -285.739 2184
240.579 -286.786 2192
246.157 -287.178 2195
251.406 -287.178 2195
257.708 -288.356 2204
264.29 -289.795 2215
271.048 -291.365 2227
276.373 -291.365 2227
284.355 -294.112 2248
292.179 -296.598 2267
298.388 -297.383 2273
303.824 -297.383 2273
311.3 -299.346 2288
318.156 -300.654 2298
324.918 -301.832 2307
330.435 -301.832 2307
335.952 -301.832 2307
551.749 -472.438 3611
560.384 -472.438 3611
569.019 -472.438 3611
577.654 -472.438 3611
586.289 -472.438 3611
594.924 -472.438 3611
604.896 -473.484 3619
613.55 -473.484 3619
622.204 -473.484 3619
630.859 -473.484 3619
639.513 -473.484 3619
649.6 -474.531 3627
658.273 -474.531 3627
666.946 -474.531 3627
675.619 -474.531 3627
684.293 -474.531 3627
695.832 -476.494 3642
706.088 -477.54 3650
714.817 -477.54 3650
725.131 -478.587 3658
737.289 -480.811 3675
746.077 -480.811 3675
754.865 -480.811 3675
766.978 -482.904 3691
782.74 -487.222 3724
791.645 -487.222 3724
800.551 -487.222 3724
809.456 -487.222 3724
820.119 -488.269 3732
829.043 -488.269 3732
837.968 -488.269 3732
846.892 -488.269 3732
855.816 -488.269 3732
864.741 -488.269 3732
873.665 -488.269 3732
880.698 -487.222 3724
887.692 -486.175 3716
896.578 -486.175 3716
903.271 -484.998 3707
910.167 -483.951 3699
919.012 -483.951 3699
923.844 -481.858 3683
932.651 -481.858 3683
939.414 -480.811 3675
946.138 -479.764 3667
954.906 -479.764 3667
963.675 -479.764 3667
970.058 -478.587 3658
974.524 -476.494 3642
983.233 -476.494 3642
991.942 -476.494 3642
1000.65 -476.494 3642
1005.2 -474.531 3627
1013.88 -474.531 3627
1022.55 -474.531 3627
1031.22 -474.531 3627
1037.6 -473.484 3619
1046.26 -473.484 3619
1054.91 -473.484 3619
1063.56 -473.484 3619
1072.22 -473.484 3619
1080.87 -473.484 3619
1087.12 -472.438 3611
1095.75 -472.438 3611
1101.94 -471.391 3603
1110.56 -471.391 3603
1119.17 -471.391 3603
1127.79 -471.391 3603
1136.41 -471.391 3603
1145.02 -471.391 3603
1153.64 -471.391 3603
1162.25 -471.391 3603
1170.87 -471.391 3603
1179.48 -471.391 3603
1190.74 -472.438 3611
1199.37 -472.438 3611
1208.01 -472.438 3611
1213.95 -471.391 3603
1222.56 -471.391 3603
1231.18 -471.391 3603
1239.8 -471.391 3603
1248.41 -471.391 3603
1257.03 -471.391 3603
1265.64 -471.391 3603
1274.26 -471.391 3603
1282.88 -471.391 3603
1294.36 -472.438 3611
1302.99 -472.438 3611
1311.63 -472.438 3611
1320.26 -472.438 3611
1328.9 -472.438 3611
1337.53 -472.438 3611
1346.17 -472.438 3611
1354.8 -472.438 3611
1360.42 -471.391 3603
1365.99 -470.344 3595
1374.59 -470.344 3595
1383.19 -470.344 3595
1391.78 -470.344 3595
1394.54 -468.382 3580
1403.1 -468.382 3580
1408.51 -467.335 3572
1414.27 -466.419 3565
1422.79 -466.419 3565
1428.11 -465.373 3557
1436.61 -465.373 3557
1445.12 -465.373 3557
1453.63 -465.373 3557
1458.84 -464.326 3549
1467.33 -464.326 3549
1472.91 -463.41 3542
1481.38 -463.41 3542
1489.85 -463.41 3542
1498.32 -463.41 3542
1503.38 -462.364 3534
1511.83 -462.364 3534
1520.28 -462.364 3534
1532.2 -463.41 3542
1540.67 -463.41 3542
1549.14 -463.41 3542
1557.61 -463.41 3542
1566.08 -463.41 3542
1574.55 -463.41 3542
1583.02 -463.41 3542
1615.24 -465.373 3557
1623.74 -465.373 3557
1632.25 -465.373 3557
-2542.16 -465.843 3627
-2533.49 -465.843 3627
-2524.81 -465.843 3627
-2516.14 -465.843 3627
-2507.47 -465.843 3627
-2482.26 -462.76 3603
-2447.55 -457.88 3565
-2428.08 -455.824 3549
-2419.59 -455.824 3549
-2411.11 -455.824 3549
-2397.88 -454.925 3542
-2389.41 -454.925 3542
-2396.4 -457.88 3565
-2392.57 -458.779 3572
-2384.03 -458.779 3572
-2375.48 -458.779 3572
-2366.94 -458.779 3572
-2358.4 -458.779 3572
-2349.86 -458.779 3572
-2341.32 -458.779 3572
-2332.77 -458.779 3572
-2324.23 -458.779 3572
-1493.78 -477.274 3716
-1484.89 -477.274 3716
-1476.01 -477.274 3716
-1467.12 -477.274 3716
-1458.23 -477.274 3716
-1449.35 -477.274 3716
-1430.77 -474.063 3691
-1421.94 -474.063 3691
-1416.18 -475.09 3699
-1407.34 -475.09 3699
-1398.49 -475.09 3699
-1386.64 -474.063 3691
-1371.84 -472.008 3675
-1363.05 -472.008 3675
-1351.32 -470.98 3667
-1339.25 -469.824 3658
-1330.51 -469.824 3658
-1325.01 -470.98 3667
-1321.98 -473.035 3683
-1313.18 -473.035 3683
-1312.87 -476.118 3707
-1312.8 -479.329 3732
-1306.67 -480.356 3740
-1297.73 -480.356 3740
-1297.74 -483.695 3766
-1291.47 -484.723 3774
-1282.45 -484.723 3774
-1303.12 -496.025 3862
-1305.94 -500.649 3898
-1308.93 -505.401 3935
-1299.52 -505.401 3935
-1290.11 -505.401 3935
-1298.93 -512.594 3991
-1317.81 -523.896 4079
-1308.06 -523.896 4079
-1298.3 -523.896 4079
-1288.55 -523.896 4079
-1278.8 -523.896 4079
-1256.6 -518.759 4039
-1229.34 -511.438 3982
-203.952 -266.508 2075
-198.99 -266.508 2075
-194.028 -266.508 2075
-189.066 -266.508 2075
-183.66 -265.866 2070
-178.71 -265.866 2070
-173.76 -265.866 2070
-168.811 -265.866 2070
-163.861 -265.866 2070
-158.911 -265.866 2070
-153.961 -265.866 2070
-148.795 -265.48 2067
-144.061 -265.866 2070
-139.447 -266.508 2075
-134.679 -266.893 2078
-129.71 -266.893 2078
-124.861 -267.15 2080
-119.887 -267.15 2080
-115.079 -267.535 2083
-110.098 -267.535 2083
-105.217 -267.792 2085
-100.52 -268.563 2091
-95.6112 -268.82 2093
-90.6062 -268.82 2093
-85.6012 -268.82 2093
-80.7117 -269.205 2096
-75.7718 -269.462 2098
-70.7549 -269.462 2098
-65.8319 -269.847 2101
-60.8946 -270.232 2104
-55.8633 -270.232 2104
-50.8803 -270.489 2106
-45.8442 -270.489 2106
-40.8663 -270.875 2109
-35.823 -270.875 2109
-30.7798 -270.875 2109
-25.7365 -270.875 2109
-20.6638 -270.489 2106
-15.6129 -270.232 2104
-10.5816 -270.232 2104
-5.54236 -269.847 2101
-0.518236 -269.847 2101
4.49946 -269.462 2098
9.51641 -269.462 2098
14.5334 -269.462 2098
19.5317 -269.205 2096
24.5439 -269.205 2096
29.556 -269.205 2096
34.5187 -268.82 2093
39.5237 -268.82 2093
44.5287 -268.82 2093
49.5337 -268.82 2093
54.5387 -268.82 2093
59.5437 -268.82 2093
64.5487 -268.82 2093
69.6534 -269.205 2096
74.6656 -269.205 2096
79.6777 -269.205 2096
84.6899 -269.205 2096
89.7877 -269.462 2098
94.9402 -269.847 2101
99.9643 -269.847 2101
105.138 -270.232 2104
110.17 -270.232 2104
115.31 -270.489 2106
120.347 -270.489 2106
125.561 -270.875 2109
130.79 -271.26 2112
135.969 -271.517 2114
141.025 -271.517 2114
146.287 -271.902 2117
151.707 -272.544 2122
156.781 -272.544 2122
161.856 -272.544 2122
167.166 -272.93 2125
172.491 -273.315 2128
177.83 -273.7 2131
182.926 -273.7 2131
188.021 -273.7 2131
193.117 -273.7 2131
199.236 -275.113 2142
204.359 -275.113 2142
210.263 -276.141 2150
216.807 -277.939 2164
223.726 -280.122 2181
228.941 -280.122 2181
234.479 -280.507 2184
240.579 -281.535 2192
246.157 -281.92 2195
251.406 -281.92 2195
257.708 -283.076 2204
264.29 -284.489 2215
271.048 -286.03 2227
276.373 -286.03 2227
284.355 -288.727 2248
292.179 -291.168 2267
298.388 -291.938 2273
303.824 -291.938 2273
311.3 -293.865 2288
318.156 -295.149 2298
324.918 -296.305 2307
330.435 -296.305 2307
335.952 -296.305 2307
551.749 -463.788 3611
560.384 -463.788 3611
569.019 -463.788 3611
577.654 -463.788 3611
586.289 -463.788 3611
594.924 -463.788 3611
604.896 -464.815 3619
613.55 -464.815 3619
622.204 -464.815 3619
630.859 -464.815 3619
639.513 -464.815 3619
649.6 -465.843 3627
658.273 -465.843 3627
666.946 -465.843 3627
675.619 -465.843 3627
684.293 -465.843 3627
695.832 -467.769 3642
704.541 -467.769 3642
713.25 -467.769 3642
725.131 -469.824 3658
737.289 -472.008 3675
746.077 -472.008 3675
754.865 -472.008 3675
766.978 -474.063 3691
781.059 -477.274 3716
789.945 -477.274 3716
798.831 -477.274 3716
809.456 -478.301 3724
818.361 -478.301 3724
829.043 -479.329 3732
837.968 -479.329 3732
846.892 -479.329 3732
853.982 -478.301 3724
862.887 -478.301 3724
871.792 -478.301 3724
880.698 -478.301 3724
887.692 -477.274 3716
896.578 -477.274 3716
903.271 -476.118 3707
910.167 -475.09 3699
919.012 -475.09 3699
923.844 -473.035 3683
932.651 -473.035 3683
939.414 -472.008 3675
946.138 -470.98 3667
954.906 -470.98 3667
963.675 -470.98 3667
970.058 -469.824 3658
974.524 -467.769 3642
983.233 -467.769 3642
991.942 -467.769 3642
1000.65 -467.769 3642
1005.2 -465.843 3627
1013.88 -465.843 3627
1022.55 -465.843 3627
1028.95 -464.815 3619
1037.6 -464.815 3619
1046.26 -464.815 3619
1054.91 -464.815 3619
1063.56 -464.815 3619
1072.22 -464.815 3619
1080.87 -464.815 3619
1087.12 -463.788 3611
1095.75 -463.788 3611
1101.94 -462.76 3603
1110.56 -462.76 3603
1119.17 -462.76 3603
1127.79 -462.76 3603
1136.41 -462.76 3603
1145.02 -462.76 3603
1153.64 -462.76 3603
1162.25 -462.76 3603
1170.87 -462.76 3603
1179.48 -462.76 3603
1190.74 -463.788 3611
1199.37 -463.788 3611
1208.01 -463.788 3611
1213.95 -462.76 3603
1222.56 -462.76 3603
1231.18 -462.76 3603
1239.8 -462.76 3603
1248.41 -462.76 3603
1257.03 -462.76 3603
1265.64 -462.76 3603
1274.26 -462.76 3603
1282.88 -462.76 3603
1294.36 -463.788 3611
1302.99 -463.788 3611
1311.63 -463.788 3611
1320.26 -463.788 3611
1328.9 -463.788 3611
1337.53 -463.788 3611
1346.17 -463.788 3611
1354.8 -463.788 3611
1360.42 -462.76 3603
1365.99 -461.733 3595
1374.59 -461.733 3595
1383.19 -461.733 3595
1391.78 -461.733 3595
1394.54 -459.806 3580
1403.1 -459.806 3580
1408.51 -458.779 3572
1414.27 -457.88 3565
1419.6 -456.852 3557
1428.11 -456.852 3557
1436.61 -456.852 3557
1445.12 -456.852 3557
1450.36 -455.824 3549
1458.84 -455.824 3549
1467.33 -455.824 3549
1472.91 -454.925 3542
1478.03 -453.898 3534
1486.48 -453.898 3534
1494.93 -453.898 3534
1503.38 -453.898 3534
1511.83 -453.898 3534
1520.28 -453.898 3534
1528.73 -453.898 3534
1537.19 -453.898 3534
1545.64 -453.898 3534
1557.61 -454.925 3542
1566.08 -454.925 3542
1574.55 -454.925 3542
1583.02 -454.925 3542
1615.24 -456.852 3557
1623.74 -456.852 3557
1632.25 -456.852 3557
-2536.55 -456.146 3619
-2527.9 -456.146 3619
-2519.24 -456.146 3619
-2510.59 -456.146 3619
-2501.94 -456.146 3619
-2482.26 -454.129 3603
-2436.57 -447.323 3549
-2428.08 -447.323 3549
-2414.82 -446.441 3542
-2406.35 -446.441 3542
-2392.47 -445.432 3534
-2384.02 -445.432 3534
-2385.65 -447.323 3549
-2392.57 -450.222 3572
-2384.03 -450.222 3572
-2375.48 -450.222 3572
-2366.94 -450.222 3572
-2358.4 -450.222 3572
-2349.86 -450.222 3572
-2341.32 -450.222 3572
-2332.77 -450.222 3572
-2324.23 -450.222 3572
-1493.78 -468.372 3716
-1484.89 -468.372 3716
-1476.01 -468.372 3716
-1467.12 -468.372 3716
-1458.23 -468.372 3716
-1449.35 -468.372 3716
-1430.77 -465.221 3691
-1421.94 -465.221 3691
-1416.18 -466.229 3699
-1407.34 -466.229 3699
-1398.49 -466.229 3699
-1389.64 -466.229 3699
-1374.83 -464.212 3683
-1366.02 -464.212 3683
-1357.21 -464.212 3683
-1345.48 -463.204 3675
-1336.69 -463.204 3675
-1327.9 -463.204 3675
-1327.73 -466.229 3699
-1318.88 -466.229 3699
-1312.87 -467.237 3707
-1312.8 -470.389 3732
-1312.61 -473.54 3757
-1303.62 -473.54 3757
-1297.74 -474.674 3766
-1294.55 -476.817 3783
-1285.51 -476.817 3783
-1306.15 -487.908 3871
-1302.93 -490.177 3889
-1296.62 -491.311 3898
-1287.3 -491.311 3898
-1280.93 -492.446 3907
-1296 -501.899 3982
-1314.58 -512.865 4069
-1304.85 -512.865 4069
-1295.12 -512.865 4069
-1285.39 -512.865 4069
-1275.66 -512.865 4069
-1256.6 -509.083 4039
-1229.34 -501.899 3982
-1219.82 -501.899 3982
-1204.52 -499.504 3963
-1195.05 -499.504 3963
-203.952 -261.537 2075
-198.99 -261.537 2075
-194.028 -261.537 2075
-189.066 -261.537 2075
-183.838 -261.159 2072
-178.71 -260.907 2070
-173.76 -260.907 2070
-168.811 -260.907 2070
-163.861 -260.907 2070
-158.911 -260.907 2070
-153.961 -260.907 2070
-149.011 -260.907 2070
-144.2 -261.159 2072
-139.447 -261.537 2075
-134.679 -261.915 2078
-129.71 -261.915 2078
-124.861 -262.167 2080
-120.06 -262.545 2083
-115.189 -262.797 2085
-110.203 -262.797 2085
-105.369 -263.176 2088
-100.616 -263.806 2093
-95.6112 -263.806 2093
-90.6062 -263.806 2093
-85.7239 -264.184 2096
-80.7888 -264.436 2098
-75.7718 -264.436 2098
-70.7549 -264.436 2098
-65.8319 -264.814 2101
-60.8946 -265.192 2104
-55.8633 -265.192 2104
-50.8803 -265.444 2106
-45.8442 -265.444 2106
-40.8081 -265.444 2106
-35.7721 -265.444 2106
-30.736 -265.444 2106
-25.6999 -265.444 2106
-20.6442 -265.192 2104
-15.5906 -264.814 2101
-10.5665 -264.814 2101
-5.54236 -264.814 2101
-0.518236 -264.814 2101
4.49946 -264.436 2098
9.51641 -264.436 2098
14.5334 -264.436 2098
19.5503 -264.436 2098
24.5439 -264.184 2096
29.556 -264.184 2096
34.5187 -263.806 2093
39.5237 -263.806 2093
44.5287 -263.806 2093
49.6047 -264.184 2096
54.6169 -264.184 2096
59.6291 -264.184 2096
64.6412 -264.184 2096
69.6534 -264.184 2096
74.6656 -264.184 2096
79.7538 -264.436 2098
84.7707 -264.436 2098
89.9161 -264.814 2101
94.9402 -264.814 2101
99.9643 -264.814 2101
105.138 -265.192 2104
110.17 -265.192 2104
115.31 -265.444 2106
120.347 -265.444 2106
125.561 -265.822 2109
130.79 -266.201 2112
135.969 -266.453 2114
141.025 -266.453 2114
146.494 -267.209 2120
151.707 -267.461 2122
156.781 -267.461 2122
161.856 -267.461 2122
167.166 -267.839 2125
172.491 -268.217 2128
177.83 -268.595 2131
182.926 -268.595 2131
188.021 -268.595 2131
193.117 -268.595 2131
199.236 -269.982 2142
204.359 -269.982 2142
210.263 -270.99 2150
216.807 -272.755 2164
223.726 -274.897 2181
228.941 -274.897 2181
234.479 -275.276 2184
240.579 -276.284 2192
246.494 -277.04 2198
251.75 -277.04 2198
258.058 -278.175 2207
264.052 -278.931 2213
271.048 -280.695 2227
276.373 -280.695 2227
285.114 -284.099 2254
292.953 -286.493 2273
299.963 -288.006 2285
305.428 -288.006 2285
313.069 -290.022 2301
319.955 -291.283 2311
325.482 -291.283 2311
331.008 -291.283 2311
336.534 -291.283 2311
551.749 -455.137 3611
560.384 -455.137 3611
569.019 -455.137 3611
577.654 -455.137 3611
586.289 -455.137 3611
594.924 -455.137 3611
604.896 -456.146 3619
613.55 -456.146 3619
622.204 -456.146 3619
630.859 -456.146 3619
639.513 -456.146 3619
649.6 -457.154 3627
658.273 -457.154 3627
666.946 -457.154 3627
675.619 -457.154 3627
684.293 -457.154 3627
695.832 -459.045 3642
704.541 -459.045 3642
713.25 -459.045 3642
725.131 -461.061 3658
737.289 -463.204 3675
746.077 -463.204 3675
754.865 -463.204 3675
765.315 -464.212 3683
779.167 -467.237 3707
788.031 -467.237 3707
796.896 -467.237 3707
805.761 -467.237 3707
814.625 -467.237 3707
827.266 -469.38 3724
836.171 -469.38 3724
845.077 -469.38 3724
853.982 -469.38 3724
862.887 -469.38 3724
871.792 -469.38 3724
878.806 -468.372 3716
887.692 -468.372 3716
896.578 -468.372 3716
901.321 -466.229 3699
910.167 -466.229 3699
915.037 -464.212 3683
923.844 -464.212 3683
932.651 -464.212 3683
939.414 -463.204 3675
946.138 -462.196 3667
954.906 -462.196 3667
963.675 -462.196 3667
970.058 -461.061 3658
974.524 -459.045 3642
983.233 -459.045 3642
991.942 -459.045 3642
1000.65 -459.045 3642
1005.2 -457.154 3627
1013.88 -457.154 3627
1022.55 -457.154 3627
1031.22 -457.154 3627
1037.6 -456.146 3619
1046.26 -456.146 3619
1057.24 -457.154 3627
1065.92 -457.154 3627
1074.59 -457.154 3627
1083.26 -457.154 3627
1087.12 -455.137 3611
1095.75 -455.137 3611
1104.39 -455.137 3611
1110.56 -454.129 3603
1119.17 -454.129 3603
1127.79 -454.129 3603
1136.41 -454.129 3603
1145.02 -454.129 3603
1153.64 -454.129 3603
1164.83 -455.137 3611
1173.47 -455.137 3611
1182.1 -455.137 3611
1190.74 -455.137 3611
1199.37 -455.137 3611
1208.01 -455.137 3611
1216.64 -455.137 3611
1225.28 -455.137 3611
1233.91 -455.137 3611
1242.55 -455.137 3611
1251.18 -455.137 3611
1257.03 -454.129 3603
1265.64 -454.129 3603
1274.26 -454.129 3603
1282.88 -454.129 3603
1294.36 -455.137 3611
1302.99 -455.137 3611
1311.63 -455.137 3611
1320.26 -455.137 3611
1328.9 -455.137 3611
1337.53 -455.137 3611
1346.17 -455.137 3611
1354.8 -455.137 3611
1360.42 -454.129 3603
1365.99 -453.121 3595
1374.59 -453.121 3595
1383.19 -453.121 3595
1389.07 -452.238 3588
1394.54 -451.23 3580
1403.1 -451.23 3580
1405.74 -449.34 3565
1407.92 -447.323 3549
1416.41 -447.323 3549
1428.11 -448.331 3557
1436.61 -448.331 3557
1445.12 -448.331 3557
1450.36 -447.323 3549
1458.84 -447.323 3549
1467.33 -447.323 3549
1472.91 -446.441 3542
1478.03 -445.432 3534
1486.48 -445.432 3534
1494.93 -445.432 3534
1503.38 -445.432 3534
1518.25 -447.323 3549
1526.74 -447.323 3549
1535.22 -447.323 3549
1543.71 -447.323 3549
1549.14 -446.441 3542
1570.8 -450.222 3572
1589.51 -453.121 3595
1598.11 -453.121 3595
1606.7 -453.121 3595
1615.3 -453.121 3595
1610.34 -449.34 3565
1618.87 -449.34 3565
1627.39 -449.34 3565
1635.92 -449.34 3565
1644.44 -449.34 3565
1652.97 -449.34 3565
1657.77 -448.331 3557
-2536.55 -447.476 3619
-2527.9 -447.476 3619
-2519.24 -447.476 3619
-2505.04 -446.487 3611
-2496.4 -446.487 3611
-2471.92 -443.643 3588
-2436.57 -438.821 3549
-2428.08 -438.821 3549
-2414.82 -437.956 3542
-2406.35 -437.956 3542
-2392.47 -436.966 3534
-2379.29 -436.101 3527
-2380.94 -437.956 3542
-2387.88 -440.8 3565
-2379.35 -440.8 3565
-2375.48 -441.665 3572
-2366.94 -441.665 3572
-2358.4 -441.665 3572
-2349.86 -441.665 3572
-2341.32 -441.665 3572
-2328.2 -440.8 3565
-2319.68 -440.8 3565
-1490.16 -458.357 3707
-1488.09 -460.459 3724
-1479.18 -460.459 3724
-1470.28 -460.459 3724
-1454.7 -458.357 3707
-1445.84 -458.357 3707
-1430.77 -456.379 3691
-1421.94 -456.379 3691
-1416.18 -457.368 3699
-1407.34 -457.368 3699
-1398.49 -457.368 3699
-1389.64 -457.368 3699
-1377.81 -456.379 3691
-1368.99 -456.379 3691
-1357.21 -455.39 3683
-1345.48 -454.401 3675
-1336.69 -454.401 3675
-1333.68 -456.379 3691
-1330.6 -458.357 3707
-1321.73 -458.357 3707
-1321.72 -461.448 3732
-1315.61 -462.438 3740
-1312.61 -464.54 3757
-1303.62 -464.54 3757
-1297.74 -465.652 3766
-1294.55 -467.754 3783
-1285.51 -467.754 3783
-1306.15 -478.635 3871
-1296.9 -478.635 3871
-1293.63 -480.861 3889
-1284.33 -480.861 3889
-1275.03 -480.861 3889
-1280.7 -486.549 3935
-1295.52 -495.822 4010
-1285.93 -495.822 4010
-1285.57 -499.408 4039
-1275.91 -499.408 4039
-1266.26 -499.408 4039
-1247.58 -495.822 4010
-1229.34 -492.36 3982
-1219.82 -492.36 3982
-1210.3 -492.36 3982
-1200.78 -492.36 3982
-1185.57 -490.011 3963
-203.952 -256.566 2075
-198.99 -256.566 2075
-194.028 -256.566 2075
-189.066 -256.566 2075
-183.838 -256.195 2072
-178.71 -255.948 2070
-173.76 -255.948 2070
-168.811 -255.948 2070
-163.861 -255.948 2070
-158.911 -255.948 2070
-153.961 -255.948 2070
-149.011 -255.948 2070
-144.2 -256.195 2072
-139.447 -256.566 2075
-134.809 -257.185 2080
-129.835 -257.185 2080
-124.861 -257.185 2080
-120.06 -257.556 2083
-115.189 -257.803 2085
-110.203 -257.803 2085
-105.52 -258.545 2091
-100.616 -258.792 2093
-95.7483 -259.163 2096
-90.7361 -259.163 2096
-85.7239 -259.163 2096
-80.7888 -259.41 2098
-75.8801 -259.781 2101
-70.856 -259.781 2101
-65.8319 -259.781 2101
-60.8946 -260.152 2104
-55.9164 -260.399 2106
-50.8803 -260.399 2106
-45.8442 -260.399 2106
-40.8081 -260.399 2106
-35.7721 -260.399 2106
-30.736 -260.399 2106
-25.6999 -260.399 2106
-20.6442 -260.152 2104
-15.5906 -259.781 2101
-10.5665 -259.781 2101
-5.54236 -259.781 2101
-0.518236 -259.781 2101
4.49946 -259.41 2098
9.51641 -259.41 2098
14.5334 -259.41 2098
19.5503 -259.41 2098
24.5673 -259.41 2098
29.5842 -259.41 2098
34.5682 -259.163 2096
39.5804 -259.163 2096
44.5925 -259.163 2096
49.6047 -259.163 2096
54.6169 -259.163 2096
59.6291 -259.163 2096
64.7029 -259.41 2098
69.7199 -259.41 2098
74.7368 -259.41 2098
79.8678 -259.781 2101
84.8919 -259.781 2101
89.9161 -259.781 2101
95.0758 -260.152 2104
100.107 -260.152 2104
105.138 -260.152 2104
110.274 -260.399 2106
115.31 -260.399 2106
120.347 -260.399 2106
125.561 -260.77 2109
130.914 -261.389 2114
136.162 -261.759 2117
141.225 -261.759 2117
146.494 -262.13 2120
151.707 -262.378 2122
156.781 -262.378 2122
161.856 -262.378 2122
167.166 -262.749 2125
172.491 -263.12 2128
177.83 -263.491 2131
182.926 -263.491 2131
188.021 -263.491 2131
193.117 -263.491 2131
199.236 -264.851 2142
204.359 -264.851 2142
210.263 -265.84 2150
216.506 -267.2 2161
223.726 -269.673 2181
228.941 -269.673 2181
235.015 -270.662 2189
241.567 -272.146 2201
247.503 -272.888 2207
252.781 -272.888 2207
258.409 -273.259 2210
265.006 -274.619 2221
272.873 -277.215 2242
278.235 -277.215 2242
287.138 -280.677 2270
294.499 -282.532 2285
301.67 -284.139 2298
307.165 -284.139 2298
314.837 -286.118 2314
320.786 -286.489 2317
326.327 -286.489 2317
331.867 -286.489 2317
337.408 -286.489 2317
551.749 -446.487 3611
560.384 -446.487 3611
569.019 -446.487 3611
576.374 -445.498 3603
586.289 -446.487 3611
594.924 -446.487 3611
604.896 -447.476 3619
613.55 -447.476 3619
622.204 -447.476 3619
630.859 -447.476 3619
639.513 -447.476 3619
648.167 -447.476 3619
658.273 -448.466 3627
666.946 -448.466 3627
675.619 -448.466 3627
684.293 -448.466 3627
694.494 -449.455 3635
704.541 -450.32 3642
713.25 -450.32 3642
723.545 -451.309 3650
735.684 -453.411 3667
744.453 -453.411 3667
753.222 -453.411 3667
766.978 -456.379 3691
779.167 -458.357 3707
788.031 -458.357 3707
796.896 -458.357 3707
805.761 -458.357 3707
812.867 -457.368 3699
823.49 -458.357 3707
832.354 -458.357 3707
841.219 -458.357 3707
850.083 -458.357 3707
858.948 -458.357 3707
867.813 -458.357 3707
876.677 -458.357 3707
885.542 -458.357 3707
894.406 -458.357 3707
899.372 -456.379 3691
906.23 -455.39 3683
915.037 -455.39 3683
921.838 -454.401 3675
930.626 -454.401 3675
937.369 -453.411 3667
946.138 -453.411 3667
952.563 -452.299 3658
961.31 -452.299 3658
965.815 -450.32 3642
974.524 -450.32 3642
983.233 -450.32 3642
991.942 -450.32 3642
998.728 -449.455 3635
1005.2 -448.466 3627
1013.88 -448.466 3627
1022.55 -448.466 3627
1031.22 -448.466 3627
1039.9 -448.466 3627
1046.26 -447.476 3619
1057.24 -448.466 3627
1065.92 -448.466 3627
1074.59 -448.466 3627
1083.26 -448.466 3627
1087.12 -446.487 3611
1095.75 -446.487 3611
1104.39 -446.487 3611
1110.56 -445.498 3603
1119.17 -445.498 3603
1130.29 -446.487 3611
1138.93 -446.487 3611
1147.56 -446.487 3611
1156.2 -446.487 3611
1164.83 -446.487 3611
1173.47 -446.487 3611
1182.1 -446.487 3611
1190.74 -446.487 3611
1199.37 -446.487 3611
1208.01 -446.487 3611
1216.64 -446.487 3611
1225.28 -446.487 3611
1233.91 -446.487 3611
1242.55 -446.487 3611
1251.18 -446.487 3611
1257.03 -445.498 3603
1265.64 -445.498 3603
1277.09 -446.487 3611
1285.72 -446.487 3611
1294.36 -446.487 3611
1302.99 -446.487 3611
1311.63 -446.487 3611
1320.26 -446.487 3611
1328.9 -446.487 3611
1337.53 -446.487 3611
1346.17 -446.487 3611
1351.8 -445.498 3603
1357.4 -444.509 3595
1365.99 -444.509 3595
1374.59 -444.509 3595
1383.19 -444.509 3595
1389.07 -443.643 3588
1391.42 -441.665 3572
1399.96 -441.665 3572
1405.74 -440.8 3565
1407.92 -438.821 3549
1416.41 -438.821 3549
1428.11 -439.81 3557
1436.61 -439.81 3557
1445.12 -439.81 3557
1453.63 -439.81 3557
1462.13 -439.81 3557
1470.64 -439.81 3557
1472.91 -437.956 3542
1481.38 -437.956 3542
1489.85 -437.956 3542
1501.28 -438.821 3549
1509.76 -438.821 3549
1521.67 -439.81 3557
1530.18 -439.81 3557
1538.68 -439.81 3557
1547.19 -439.81 3557
1562.26 -441.665 3572
1580.91 -444.509 3595
1589.51 -444.509 3595
1598.11 -444.509 3595
1606.7 -444.509 3595
1615.3 -444.509 3595
1610.34 -440.8 3565
1618.87 -440.8 3565
1627.39 -440.8 3565
1635.92 -440.8 3565
1644.44 -440.8 3565
1652.97 -440.8 3565
1657.77 -439.81 3557
-2375.01 -409.464 3377
-2498.7 -432.26 3565
-2490.18 -432.26 3565
-2492.09 -434.078 3580
-2483.53 -434.078 3580
-2474.97 -434.078 3580
-2445.05 -430.32 3549
-2431.76 -429.471 3542
-2413.03 -427.652 3527
-2404.6 -427.652 3527
-2396.16 -427.652 3527
-2382.99 -426.803 3520
-2364.45 -424.984 3505
-2356.07 -424.984 3505
-2372.47 -429.471 3542
-2364 -429.471 3542
-2355.53 -429.471 3542
-2357 -431.29 3557
-2348.5 -431.29 3557
-2339.99 -431.29 3557
-2331.48 -431.29 3557
-2307.96 -428.501 3534
-2299.51 -428.501 3534
-2248.27 -420.498 3468
-1490.16 -449.477 3707
-1488.09 -451.538 3724
-1479.18 -451.538 3724
-1470.28 -451.538 3724
-1454.7 -449.477 3707
-1445.84 -449.477 3707
-1430.77 -447.537 3691
-1421.94 -447.537 3691
-1416.18 -448.507 3699
-1407.34 -448.507 3699
-1398.49 -448.507 3699
-1389.64 -448.507 3699
-1377.81 -447.537 3691
-1368.99 -447.537 3691
-1360.16 -447.537 3691
-1351.33 -447.537 3691
-1342.51 -447.537 3691
-1333.68 -447.537 3691
-1330.6 -449.477 3707
-1321.73 -449.477 3707
-1324.56 -453.478 3740
-1321.59 -455.54 3757
-1315.75 -456.631 3766
-1306.75 -456.631 3766
-1297.74 -456.631 3766
-1297.63 -459.784 3792
-1288.57 -459.784 3792
-1306.15 -469.362 3871
-1296.9 -469.362 3871
-1293.63 -471.545 3889
-1284.33 -471.545 3889
-1275.03 -471.545 3889
-1280.7 -477.122 3935
-1295.52 -486.216 4010
-1285.93 -486.216 4010
-1285.57 -489.732 4039
-1275.91 -489.732 4039
-1266.26 -489.732 4039
-1247.58 -486.216 4010
-1229.34 -482.821 3982
-1225.64 -485.125 4001
-1216.07 -485.125 4001
-1206.51 -485.125 4001
-1196.94 -485.125 4001
-203.952 -251.596 2075
-198.99 -251.596 2075
-194.028 -251.596 2075
-189.066 -251.596 2075
-183.838 -251.232 2072
-178.71 -250.989 2070
-173.76 -250.989 2070
-168.811 -250.989 2070
-163.861 -250.989 2070
-158.911 -250.989 2070
-153.961 -250.989 2070
-149.011 -250.989 2070
-144.2 -251.232 2072
-139.648 -251.959 2078
-134.809 -252.202 2080
-129.835 -252.202 2080
-124.861 -252.202 2080
-120.175 -252.808 2085
-115.189 -252.808 2085
-110.203 -252.808 2085
-105.52 -253.536 2091
-100.616 -253.778 2093
-95.7483 -254.142 2096
-90.7361 -254.142 2096
-85.8057 -254.384 2098
-80.9043 -254.748 2101
-75.8801 -254.748 2101
-70.856 -254.748 2101
-65.9259 -255.112 2104
-60.9525 -255.354 2106
-55.9164 -255.354 2106
-50.8803 -255.354 2106
-45.8442 -255.354 2106
-40.8081 -255.354 2106
-35.7721 -255.354 2106
-30.736 -255.354 2106
-25.6999 -255.354 2106
-20.6442 -255.112 2104
-15.5906 -254.748 2101
-10.5665 -254.748 2101
-5.54236 -254.748 2101
-0.518236 -254.748 2101
4.49946 -254.384 2098
9.51641 -254.384 2098
14.5334 -254.384 2098
19.5503 -254.384 2098
24.5673 -254.384 2098
29.5842 -254.384 2098
34.5682 -254.142 2096
39.5804 -254.142 2096
44.5925 -254.142 2096
49.652 -254.384 2098
54.669 -254.384 2098
59.686 -254.384 2098
64.7954 -254.748 2101
69.8196 -254.748 2101
74.8437 -254.748 2101
79.9818 -255.112 2104
85.0132 -255.112 2104
90.0445 -255.112 2104
95.0758 -255.112 2104
100.107 -255.112 2104
105.238 -255.354 2106
110.274 -255.354 2106
115.31 -255.354 2106
120.347 -255.354 2106
125.74 -256.082 2112
130.914 -256.324 2114
136.162 -256.688 2117
141.225 -256.688 2117
146.494 -257.052 2120
151.707 -257.294 2122
156.781 -257.294 2122
161.856 -257.294 2122
167.402 -258.022 2128
172.491 -258.022 2128
177.83 -258.386 2131
182.926 -258.386 2131
188.021 -258.386 2131
193.117 -258.386 2131
199.236 -259.719 2142
204.359 -259.719 2142
210.556 -261.053 2153
216.506 -262.023 2161
223.726 -264.448 2181
228.941 -264.448 2181
235.337 -265.782 2192
241.567 -266.873 2201
247.84 -267.965 2210
253.124 -267.965 2210
259.695 -269.298 2221
266.796 -271.117 2236
274.334 -273.3 2254
279.724 -273.3 2254
289.035 -277.058 2285
296.175 -278.635 2298
303.377 -280.211 2311
308.903 -280.211 2311
315.245 -280.938 2317
321.201 -281.302 2320
326.749 -281.302 2320
332.297 -281.302 2320
337.845 -281.302 2320
551.749 -437.837 3611
560.384 -437.837 3611
569.019 -437.837 3611
576.374 -436.867 3603
586.289 -437.837 3611
594.924 -437.837 3611
604.896 -438.807 3619
613.55 -438.807 3619
622.204 -438.807 3619
630.859 -438.807 3619
639.513 -438.807 3619
648.167 -438.807 3619
658.273 -439.777 3627
666.946 -439.777 3627
675.619 -439.777 3627
684.293 -439.777 3627
694.494 -440.747 3635
704.541 -441.596 3642
713.25 -441.596 3642
723.545 -442.566 3650
735.684 -444.627 3667
744.453 -444.627 3667
753.222 -444.627 3667
766.978 -447.537 3691
779.167 -449.477 3707
788.031 -449.477 3707
796.896 -449.477 3707
805.761 -449.477 3707
814.625 -449.477 3707
823.49 -449.477 3707
832.354 -449.477 3707
841.219 -449.477 3707
850.083 -449.477 3707
858.948 -449.477 3707
867.813 -449.477 3707
876.677 -449.477 3707
885.542 -449.477 3707
894.406 -449.477 3707
899.372 -447.537 3691
906.23 -446.567 3683
915.037 -446.567 3683
921.838 -445.597 3675
930.626 -445.597 3675
937.369 -444.627 3667
946.138 -444.627 3667
952.563 -443.536 3658
961.31 -443.536 3658
965.815 -441.596 3642
974.524 -441.596 3642
983.233 -441.596 3642
991.942 -441.596 3642
998.728 -440.747 3635
1007.42 -440.747 3635
1013.88 -439.777 3627
1022.55 -439.777 3627
1031.22 -439.777 3627
1039.9 -439.777 3627
1048.57 -439.777 3627
1059.57 -440.747 3635
1068.27 -440.747 3635
1076.96 -440.747 3635
1085.65 -440.747 3635
1087.12 -437.837 3611
1095.75 -437.837 3611
1104.39 -437.837 3611
1113.02 -437.837 3611
1121.66 -437.837 3611
1132.8 -438.807 3619
1141.45 -438.807 3619
1150.11 -438.807 3619
1158.76 -438.807 3619
1167.41 -438.807 3619
1176.07 -438.807 3619
1184.72 -438.807 3619
1190.74 -437.837 3611
1199.37 -437.837 3611
1208.01 -437.837 3611
1216.64 -437.837 3611
1225.28 -437.837 3611
1233.91 -437.837 3611
1242.55 -437.837 3611
1251.18 -437.837 3611
1257.03 -436.867 3603
1268.45 -437.837 3611
1277.09 -437.837 3611
1285.72 -437.837 3611
1294.36 -437.837 3611
1302.99 -437.837 3611
1311.63 -437.837 3611
1320.26 -437.837 3611
1328.9 -437.837 3611
1337.53 -437.837 3611
1346.17 -437.837 3611
1351.8 -436.867 3603
1357.4 -435.897 3595
1365.99 -435.897 3595
1374.59 -435.897 3595
1383.19 -435.897 3595
1389.07 -435.048 3588
1391.42 -433.108 3572
1399.96 -433.108 3572
1405.74 -432.26 3565
1407.92 -430.32 3549
1416.41 -430.32 3549
1428.11 -431.29 3557
1436.61 -431.29 3557
1445.12 -431.29 3557
1453.63 -431.29 3557
1462.13 -431.29 3557
1470.64 -431.29 3557
1472.91 -429.471 3542
1481.38 -429.471 3542
1489.85 -429.471 3542
1501.28 -430.32 3549
1509.76 -430.32 3549
1525.09 -432.26 3565
1533.62 -432.26 3565
1542.14 -432.26 3565
1550.67 -432.26 3565
1579.31 -437.837 3611
1587.95 -437.837 3611
1596.58 -437.837 3611
1605.22 -437.837 3611
1613.85 -437.837 3611
1615.3 -435.897 3595
1623.9 -435.897 3595
1632.49 -435.897 3595
1641.09 -435.897 3595
1639.13 -433.108 3572
1644.44 -432.26 3565
1652.97 -432.26 3565
1657.77 -431.29 3557
-2375.01 -401.375 3377
-2498.7 -423.72 3565
-2490.18 -423.72 3565
-2492.09 -425.502 3580
-2483.53 -425.502 3580
-2474.97 -425.502 3580
-2445.05 -421.818 3549
-2431.76 -420.986 3542
-2413.03 -419.203 3527
-2404.6 -419.203 3527
-2396.16 -419.203 3527
-2382.99 -418.371 3520
-2364.45 -416.588 3505
-2356.07 -416.588 3505
-2372.47 -420.986 3542
-2364 -420.986 3542
-2355.53 -420.986 3542
-2357 -422.769 3557
-2348.5 -422.769 3557
-2339.99 -422.769 3557
-2331.48 -422.769 3557
-2307.96 -420.035 3534
-2299.51 -420.035 3534
-2248.27 -412.191 3468
-1488.09 -442.618 3724
-1479.18 -442.618 3724
-1470.28 -442.618 3724
-1454.7 -440.597 3707
-1445.84 -440.597 3707
-1430.77 -438.695 3691
-1418.86 -437.744 3683
-1416.18 -439.646 3699
-1410.38 -440.597 3707
-1401.51 -440.597 3707
-1392.65 -440.597 3707
-1383.79 -440.597 3707
-1374.92 -440.597 3707
-1366.06 -440.597 3707
-1351.33 -438.695 3691
-1342.51 -438.695 3691
-1339.46 -440.597 3707
-1330.6 -440.597 3707
-1333.5 -444.519 3740
-1330.58 -446.54 3757
-1327.57 -448.56 3774
-1318.55 -448.56 3774
-1312.65 -449.63 3783
-1306.7 -450.7 3792
-1312.35 -455.811 3835
-1303.18 -455.811 3835
-1303.12 -459.02 3862
-1296.9 -460.089 3871
-1287.64 -460.089 3871
-1278.38 -460.089 3871
-1269.13 -460.089 3871
-1271.59 -464.368 3907
-1277.11 -469.835 3953
-1270.86 -471.024 3963
-1276.34 -476.61 4010
-1266.75 -476.61 4010
-1257.16 -476.61 4010
-1247.58 -476.61 4010
-1237.99 -476.61 4010
-1234.52 -478.987 4030
-1224.89 -478.987 4030
-1215.25 -478.987 4030
-1199.63 -476.61 4010
-203.952 -246.625 2075
-198.99 -246.625 2075
-194.028 -246.625 2075
-189.066 -246.625 2075
-183.66 -246.031 2070
-178.451 -245.674 2067
-173.76 -246.031 2070
-168.811 -246.031 2070
-163.861 -246.031 2070
-158.911 -246.031 2070
-153.961 -246.031 2070
-149.011 -246.031 2070
-144.2 -246.268 2072
-139.648 -246.982 2078
-134.809 -247.219 2080
-129.835 -247.219 2080
-124.861 -247.219 2080
-120.175 -247.814 2085
-115.189 -247.814 2085
-110.203 -247.814 2085
-105.52 -248.527 2091
-100.616 -248.764 2093
-95.7483 -249.121 2096
-90.7361 -249.121 2096
-85.8057 -249.359 2098
-80.9043 -249.715 2101
-75.8801 -249.715 2101
-70.856 -249.715 2101
-65.9259 -250.072 2104
-60.9525 -250.309 2106
-55.9164 -250.309 2106
-50.8803 -250.309 2106
-45.8442 -250.309 2106
-40.8081 -250.309 2106
-35.7721 -250.309 2106
-30.736 -250.309 2106
-25.6999 -250.309 2106
-20.6442 -250.072 2104
-15.5906 -249.715 2101
-10.5665 -249.715 2101
-5.54236 -249.715 2101
-0.518236 -249.715 2101
4.49946 -249.359 2098
9.51641 -249.359 2098
14.5334 -249.359 2098
19.5503 -249.359 2098
24.5673 -249.359 2098
29.5842 -249.359 2098
34.5682 -249.121 2096
39.5804 -249.121 2096
44.5925 -249.121 2096
49.652 -249.359 2098
54.669 -249.359 2098
59.686 -249.359 2098
64.7954 -249.715 2101
69.8196 -249.715 2101
74.8437 -249.715 2101
79.9818 -250.072 2104
85.0132 -250.072 2104
90.0445 -250.072 2104
95.0758 -250.072 2104
100.107 -250.072 2104
105.238 -250.309 2106
110.274 -250.309 2106
115.31 -250.309 2106
120.347 -250.309 2106
125.74 -251.023 2112
130.914 -251.26 2114
136.162 -251.617 2117
141.225 -251.617 2117
146.494 -251.973 2120
151.707 -252.211 2122
156.781 -252.211 2122
161.856 -252.211 2122
167.402 -252.924 2128
172.491 -252.924 2128
177.83 -253.281 2131
182.926 -253.281 2131
188.021 -253.281 2131
193.117 -253.281 2131
199.236 -254.588 2142
204.359 -254.588 2142
210.556 -255.896 2153
216.506 -256.847 2161
223.726 -259.224 2181
228.941 -259.224 2181
235.337 -260.531 2192
241.567 -261.601 2201
247.84 -262.67 2210
253.124 -262.67 2210
259.695 -263.978 2221
266.796 -265.761 2236
274.334 -267.9 2254
279.724 -267.9 2254
289.035 -271.585 2285
296.175 -273.13 2298
303.377 -274.675 2311
308.903 -274.675 2311
315.245 -275.388 2317
321.201 -275.745 2320
326.749 -275.745 2320
332.297 -275.745 2320
337.845 -275.745 2320
550.527 -428.236 3603
559.143 -428.236 3603
567.758 -428.236 3603
576.374 -428.236 3603
586.289 -429.187 3611
594.924 -429.187 3611
604.896 -430.138 3619
613.55 -430.138 3619
622.204 -430.138 3619
630.859 -430.138 3619
639.513 -430.138 3619
648.167 -430.138 3619
656.821 -430.138 3619
665.475 -430.138 3619
674.129 -430.138 3619
682.783 -430.138 3619
694.494 -432.039 3635
704.541 -432.871 3642
713.25 -432.871 3642
723.545 -433.822 3650
735.684 -435.843 3667
744.453 -435.843 3667
753.222 -435.843 3667
766.978 -438.695 3691
777.485 -439.646 3699
786.331 -439.646 3699
795.176 -439.646 3699
804.022 -439.646 3699
814.625 -440.597 3707
823.49 -440.597 3707
832.354 -440.597 3707
841.219 -440.597 3707
848.249 -439.646 3699
857.094 -439.646 3699
865.94 -439.646 3699
874.785 -439.646 3699
881.72 -438.695 3691
890.546 -438.695 3691
897.423 -437.744 3683
906.23 -437.744 3683
913.05 -436.794 3675
921.838 -436.794 3675
930.626 -436.794 3675
937.369 -435.843 3667
943.815 -434.773 3658
950.48 -433.822 3650
959.208 -433.822 3650
965.815 -432.871 3642
974.524 -432.871 3642
981.343 -432.039 3635
990.035 -432.039 3635
998.728 -432.039 3635
1007.42 -432.039 3635
1013.88 -431.089 3627
1022.55 -431.089 3627
1031.22 -431.089 3627
1039.9 -431.089 3627
1048.57 -431.089 3627
1059.57 -432.039 3635
1068.27 -432.039 3635
1076.96 -432.039 3635
1085.65 -432.039 3635
1087.12 -429.187 3611
1095.75 -429.187 3611
1104.39 -429.187 3611
1113.02 -429.187 3611
1121.66 -429.187 3611
1132.8 -430.138 3619
1141.45 -430.138 3619
1150.11 -430.138 3619
1158.76 -430.138 3619
1167.41 -430.138 3619
1176.07 -430.138 3619
1184.72 -430.138 3619
1190.74 -429.187 3611
1199.37 -429.187 3611
1208.01 -429.187 3611
1216.64 -429.187 3611
1225.28 -429.187 3611
1233.91 -429.187 3611
1242.55 -429.187 3611
1251.18 -429.187 3611
1257.03 -428.236 3603
1268.45 -429.187 3611
1277.09 -429.187 3611
1285.72 -429.187 3611
1294.36 -429.187 3611
1302.99 -429.187 3611
1311.63 -429.187 3611
1320.26 -429.187 3611
1328.9 -429.187 3611
1337.53 -429.187 3611
1346.17 -429.187 3611
1351.8 -428.236 3603
1357.4 -427.285 3595
1365.99 -427.285 3595
1374.59 -427.285 3595
1380.49 -426.453 3588
1389.07 -426.453 3588
1391.42 -424.552 3572
1399.96 -424.552 3572
1405.74 -423.72 3565
1407.92 -421.818 3549
1416.41 -421.818 3549
1428.11 -422.769 3557
1436.61 -422.769 3557
1445.12 -422.769 3557
1453.63 -422.769 3557
1462.13 -422.769 3557
1470.64 -422.769 3557
1472.91 -420.986 3542
1481.38 -420.986 3542
1489.85 -420.986 3542
1501.28 -421.818 3549
1509.76 -421.818 3549
1525.09 -423.72 3565
1533.62 -423.72 3565
1542.14 -423.72 3565
1550.67 -423.72 3565
1579.31 -429.187 3611
1587.95 -429.187 3611
1596.58 -429.187 3611
1605.22 -429.187 3611
1613.85 -429.187 3611
1615.3 -427.285 3595
1623.9 -427.285 3595
1632.49 -427.285 3595
1641.09 -427.285 3595
1639.13 -424.552 3572
1640.75 -422.769 3557
1649.26 -422.769 3557
1657.77 -422.769 3557
-2375.01 -393.285 3377
-2401.28 -398.992 3426
-2393.09 -398.992 3426
-2384.89 -398.992 3426
-2371.84 -398.176 3419
-2383.03 -401.437 3447
-2374.78 -401.437 3447
-2366.54 -401.437 3447
-2358.3 -401.437 3447
-2350.05 -401.437 3447
-2341.81 -401.437 3447
-2324.09 -399.807 3433
-2311.16 -398.992 3426
-2326.49 -403.068 3461
-2328.26 -404.815 3476
-2319.95 -404.815 3476
-2311.64 -404.815 3476
-2307.97 -405.63 3483
-2299.64 -405.63 3483
-2291.31 -405.63 3483
-2282.98 -405.63 3483
-2274.65 -405.63 3483
-2266.32 -405.63 3483
-2248.27 -403.883 3468
-1450.93 -427.99 3675
-1442.14 -427.99 3675
-1433.36 -427.99 3675
-1424.57 -427.99 3675
-1415.78 -427.99 3675
-1413.12 -429.854 3691
-1410.38 -431.717 3707
-1401.51 -431.717 3707
-1392.65 -431.717 3707
-1383.79 -431.717 3707
-1374.92 -431.717 3707
-1366.06 -431.717 3707
-1351.33 -429.854 3691
-1342.51 -429.854 3691
-1339.46 -431.717 3707
-1330.6 -431.717 3707
-1333.5 -435.56 3740
-1330.58 -437.54 3757
-1327.57 -439.52 3774
-1318.55 -439.52 3774
-1312.65 -440.568 3783
-1306.7 -441.616 3792
-1312.35 -446.624 3835
-1303.18 -446.624 3835
-1303.12 -449.768 3862
-1293.88 -449.768 3862
-1287.64 -450.816 3871
-1278.38 -450.816 3871
-1269.13 -450.816 3871
-1271.59 -455.009 3907
-1277.11 -460.366 3953
-1270.86 -461.531 3963
-1273.48 -465.956 4001
-1266.75 -467.004 4010
-1257.16 -467.004 4010
-1247.58 -467.004 4010
-1237.99 -467.004 4010
-1234.52 -469.333 4030
-1224.89 -469.333 4030
-1215.25 -469.333 4030
-1199.63 -467.004 4010
-203.952 -241.654 2075
-198.99 -241.654 2075
-194.028 -241.654 2075
-188.61 -241.072 2070
-183.394 -240.723 2067
-178.279 -240.49 2065
-173.509 -240.723 2067
-168.566 -240.723 2067
-163.623 -240.723 2067
-158.68 -240.723 2067
-153.737 -240.723 2067
-148.795 -240.723 2067
-144.2 -241.305 2072
-139.648 -242.004 2078
-134.809 -242.237 2080
-129.835 -242.237 2080
-124.861 -242.237 2080
-120.175 -242.819 2085
-115.355 -243.168 2088
-110.362 -243.168 2088
-105.52 -243.518 2091
-100.76 -244.1 2096
-95.8396 -244.333 2098
-90.8227 -244.333 2098
-85.8057 -244.333 2098
-80.9043 -244.682 2101
-75.8801 -244.682 2101
-70.856 -244.682 2101
-65.9886 -245.265 2106
-60.9525 -245.265 2106
-55.9164 -245.265 2106
-50.8803 -245.265 2106
-45.8442 -245.265 2106
-40.8081 -245.265 2106
-35.7721 -245.265 2106
-30.736 -245.265 2106
-25.6755 -245.032 2104
-20.6442 -245.032 2104
-15.5906 -244.682 2101
-10.5665 -244.682 2101
-5.54236 -244.682 2101
-0.518236 -244.682 2101
4.49946 -244.333 2098
9.51641 -244.333 2098
14.5334 -244.333 2098
19.5503 -244.333 2098
24.5673 -244.333 2098
29.5842 -244.333 2098
34.5682 -244.1 2096
39.5804 -244.1 2096
44.6351 -244.333 2098
49.652 -244.333 2098
54.669 -244.333 2098
59.686 -244.333 2098
64.7954 -244.682 2101
69.8196 -244.682 2101
74.8437 -244.682 2101
79.9818 -245.032 2104
85.0132 -245.032 2104
90.0445 -245.032 2104
95.1661 -245.265 2106
100.202 -245.265 2106
105.238 -245.265 2106
110.274 -245.265 2106
115.475 -245.614 2109
120.518 -245.614 2109
125.859 -246.196 2114
131.1 -246.546 2117
136.355 -246.895 2120
141.425 -246.895 2120
146.633 -247.128 2122
151.707 -247.128 2122
156.781 -247.128 2122
161.856 -247.128 2122
167.402 -247.827 2128
172.491 -247.827 2128
177.83 -248.176 2131
182.926 -248.176 2131
188.021 -248.176 2131
193.299 -248.409 2133
199.422 -249.69 2144
204.549 -249.69 2144
210.556 -250.738 2153
216.807 -252.019 2164
224.033 -254.348 2184
229.256 -254.348 2184
235.66 -255.629 2195
242.225 -257.027 2207
248.737 -258.308 2218
254.041 -258.308 2218
260.397 -259.356 2227
267.512 -261.103 2242
274.699 -262.85 2257
280.096 -262.85 2257
289.035 -266.111 2285
296.175 -267.625 2298
303.77 -269.488 2314
309.304 -269.488 2314
315.654 -270.187 2320
321.201 -270.187 2320
327.172 -270.536 2323
332.727 -270.536 2323
338.282 -270.536 2323
343.837 -270.536 2323
349.392 -270.536 2323
549.304 -418.673 3595
557.901 -418.673 3595
566.498 -418.673 3595
576.374 -419.605 3603
584.99 -419.605 3603
593.606 -419.605 3603
603.559 -420.537 3611
612.194 -420.537 3611
622.204 -421.468 3619
630.859 -421.468 3619
639.513 -421.468 3619
648.167 -421.468 3619
656.821 -421.468 3619
665.475 -421.468 3619
674.129 -421.468 3619
682.783 -421.468 3619
692.966 -422.4 3627
703.187 -423.332 3635
711.879 -423.332 3635
723.545 -425.079 3650
735.684 -427.058 3667
744.453 -427.058 3667
753.222 -427.058 3667
766.978 -429.854 3691
777.485 -430.785 3699
786.331 -430.785 3699
795.176 -430.785 3699
804.022 -430.785 3699
814.625 -431.717 3707
823.49 -431.717 3707
832.354 -431.717 3707
841.219 -431.717 3707
848.249 -430.785 3699
857.094 -430.785 3699
865.94 -430.785 3699
872.893 -429.854 3691
879.808 -428.922 3683
888.616 -428.922 3683
897.423 -428.922 3683
904.262 -427.99 3675
911.062 -427.058 3667
919.831 -427.058 3667
928.6 -427.058 3667
937.369 -427.058 3667
943.815 -426.01 3658
950.48 -425.079 3650
959.208 -425.079 3650
967.936 -425.079 3650
974.524 -424.147 3642
983.233 -424.147 3642
991.942 -424.147 3642
1000.65 -424.147 3642
1009.36 -424.147 3642
1018.07 -424.147 3642
1026.78 -424.147 3642
1035.49 -424.147 3642
1044.2 -424.147 3642
1050.88 -423.332 3635
1061.61 -424.147 3642
1070.32 -424.147 3642
1079.03 -424.147 3642
1085.65 -423.332 3635
1089.53 -421.468 3619
1098.18 -421.468 3619
1104.39 -420.537 3611
1113.02 -420.537 3611
1124.14 -421.468 3619
1132.8 -421.468 3619
1141.45 -421.468 3619
1150.11 -421.468 3619
1158.76 -421.468 3619
1167.41 -421.468 3619
1176.07 -421.468 3619
1184.72 -421.468 3619
1190.74 -420.537 3611
1199.37 -420.537 3611
1208.01 -420.537 3611
1216.64 -420.537 3611
1225.28 -420.537 3611
1233.91 -420.537 3611
1242.55 -420.537 3611
1251.18 -420.537 3611
1257.03 -419.605 3603
1268.45 -420.537 3611
1277.09 -420.537 3611
1285.72 -420.537 3611
1294.36 -420.537 3611
1302.99 -420.537 3611
1311.63 -420.537 3611
1320.26 -420.537 3611
1328.9 -420.537 3611
1334.57 -419.605 3603
1343.19 -419.605 3603
1351.8 -419.605 3603
1357.4 -418.673 3595
1363.33 -417.858 3588
1371.91 -417.858 3588
1380.49 -417.858 3588
1385.98 -416.926 3580
1391.42 -415.995 3572
1399.96 -415.995 3572
1405.74 -415.18 3565
1407.92 -413.316 3549
1416.41 -413.316 3549
1428.11 -414.248 3557
1436.61 -414.248 3557
1445.12 -414.248 3557
1450.36 -413.316 3549
1458.84 -413.316 3549
1467.33 -413.316 3549
1466.67 -410.754 3527
1478.03 -411.569 3534
1486.48 -411.569 3534
1501.28 -413.316 3549
1509.76 -413.316 3549
1525.09 -415.18 3565
1533.62 -415.18 3565
1545.17 -415.995 3572
1553.71 -415.995 3572
1579.31 -420.537 3611
1587.95 -420.537 3611
1596.58 -420.537 3611
1605.22 -420.537 3611
1613.85 -420.537 3611
1615.3 -418.673 3595
1623.9 -418.673 3595
1632.49 -418.673 3595
1641.09 -418.673 3595
1639.13 -415.995 3572
1630.15 -411.569 3534
1638.6 -411.569 3534
1647.05 -411.569 3534
-2528.74 -400.594 3512
-2520.34 -400.594 3512
-2511.95 -400.594 3512
-2503.55 -400.594 3512
-2495.15 -400.594 3512
-2357.12 -383.599 3363
-2358.86 -385.195 3377
-2350.78 -385.195 3377
-2342.71 -385.195 3377
-2363.67 -389.986 3419
-2355.49 -389.986 3419
-2347.32 -389.986 3419
-2348.72 -391.583 3433
-2340.51 -391.583 3433
-2332.3 -391.583 3433
-2309.87 -389.188 3412
-2282.83 -385.994 3384
-2298.26 -389.986 3419
-2308.84 -393.18 3447
-2300.6 -393.18 3447
-2292.35 -393.18 3447
-2298.03 -395.575 3468
-2289.73 -395.575 3468
-2281.44 -395.575 3468
-2273.15 -395.575 3468
-2264.86 -395.575 3468
-2256.56 -395.575 3468
-2239.19 -393.978 3454
-1447.77 -418.274 3667
-1439.01 -418.274 3667
-1430.24 -418.274 3667
-1421.47 -418.274 3667
-1418.86 -420.099 3683
-1413.12 -421.012 3691
-1410.38 -422.837 3707
-1401.51 -422.837 3707
-1396.03 -423.863 3716
-1387.15 -423.863 3716
-1378.26 -423.863 3716
-1369.37 -423.863 3716
-1360.49 -423.863 3716
-1351.6 -423.863 3716
-1342.71 -423.863 3716
-1333.83 -423.863 3716
-1336.71 -427.627 3749
-1342.97 -432.532 3792
-1349.03 -437.437 3835
-1339.86 -437.437 3835
-1330.69 -437.437 3835
-1321.52 -437.437 3835
-1321.59 -440.517 3862
-1312.35 -440.517 3862
-1312.23 -443.596 3889
-1302.93 -443.596 3889
-1293.63 -443.596 3889
-1284.33 -443.596 3889
-1280.93 -445.65 3907
-1280.7 -448.843 3935
-1277.11 -450.897 3953
-1267.65 -450.897 3953
-1273.48 -456.372 4001
-1266.75 -457.398 4010
-1257.16 -457.398 4010
-1247.58 -457.398 4010
-1237.99 -457.398 4010
-1234.52 -459.68 4030
-1224.89 -459.68 4030
-1215.25 -459.68 4030
-1205.61 -459.68 4030
-203.657 -236.341 2072
-198.702 -236.341 2072
-193.747 -236.341 2072
-188.793 -236.341 2072
-183.217 -235.543 2065
-178.02 -235.201 2062
-173.341 -235.543 2065
-168.403 -235.543 2065
-163.623 -235.771 2067
-158.68 -235.771 2067
-153.961 -236.113 2070
-149.011 -236.113 2070
-144.408 -236.684 2075
-139.783 -237.254 2080
-134.809 -237.254 2080
-129.835 -237.254 2080
-124.861 -237.254 2080
-120.348 -238.166 2088
-115.355 -238.166 2088
-110.362 -238.166 2088
-105.52 -238.509 2091
-100.76 -239.079 2096
-95.8396 -239.307 2098
-90.8227 -239.307 2098
-85.9284 -239.649 2101
-80.9043 -239.649 2101
-75.9885 -239.991 2104
-70.9572 -239.991 2104
-65.9886 -240.22 2106
-60.9525 -240.22 2106
-55.9164 -240.22 2106
-50.8803 -240.22 2106
-45.8442 -240.22 2106
-40.8081 -240.22 2106
-35.7721 -240.22 2106
-30.736 -240.22 2106
-25.6755 -239.991 2104
-20.6442 -239.991 2104
-15.5906 -239.649 2101
-10.5665 -239.649 2101
-5.54236 -239.649 2101
-0.518236 -239.649 2101
4.49946 -239.307 2098
9.51641 -239.307 2098
14.5334 -239.307 2098
19.5503 -239.307 2098
24.5673 -239.307 2098
29.5842 -239.307 2098
34.5682 -239.079 2096
39.5804 -239.079 2096
44.6351 -239.307 2098
49.652 -239.307 2098
54.669 -239.307 2098
59.686 -239.307 2098
64.7954 -239.649 2101
69.8196 -239.649 2101
74.8437 -239.649 2101
79.9818 -239.991 2104
85.0132 -239.991 2104
90.0445 -239.991 2104
95.1661 -240.22 2106
100.202 -240.22 2106
105.388 -240.562 2109
110.431 -240.562 2109
115.475 -240.562 2109
120.518 -240.562 2109
125.859 -241.132 2114
131.1 -241.474 2117
136.355 -241.817 2120
141.425 -241.817 2120
146.633 -242.045 2122
151.707 -242.045 2122
156.781 -242.045 2122
161.856 -242.045 2122
167.402 -242.729 2128
172.491 -242.729 2128
177.83 -243.071 2131
182.926 -243.071 2131
188.021 -243.071 2131
193.299 -243.299 2133
199.422 -244.554 2144
204.549 -244.554 2144
210.752 -245.809 2155
216.807 -246.835 2164
224.033 -249.117 2184
229.256 -249.117 2184
235.66 -250.371 2195
242.225 -251.74 2207
249.073 -253.337 2221
254.384 -253.337 2221
260.748 -254.364 2230
267.87 -256.075 2245
274.699 -257.443 2257
280.096 -257.443 2257
289.035 -260.637 2285
296.175 -262.12 2298
303.77 -263.945 2314
309.304 -263.945 2314
315.654 -264.629 2320
321.201 -264.629 2320
327.172 -264.972 2323
332.727 -264.972 2323
338.282 -264.972 2323
343.837 -264.972 2323
349.392 -264.972 2323
565.395 -409.263 3588
575.094 -410.061 3595
583.691 -410.061 3595
592.288 -410.061 3595
602.222 -410.974 3603
610.838 -410.974 3603
