ply
format ascii 1.0
comment File generated
element vertex 2256
property float x
property float y
property float z
end_header
1708.09 1082.93 2717
1712.06 1081.33 2713
1709.68 1075.75 2699
1716.13 1075.75 2699
1720.03 1074.16 2695
1726.48 1074.16 2695
1711.06 1060.61 2661
1717.42 1060.61 2661
1715.37 1055.43 2648
1721.7 1055.43 2648
1714.33 1047.06 2627
1681.31 1023.14 2567
1687.45 1023.14 2567
1693.59 1023.14 2567
1691.78 1018.36 2555
1687.26 1011.98 2539
1698.66 1015.17 2547
1704.75 1015.17 2547
1710.84 1015.17 2547
1716.93 1015.17 2547
1723.03 1015.17 2547
1726.4 1013.57 2543
1732.48 1013.57 2543
1733.09 1010.39 2535
1791.8 1023.14 2567
1797.94 1023.14 2567
1804.08 1023.14 2567
1810.22 1023.14 2567
1899.57 1052.24 2640
1908.77 1053.83 2644
1915.1 1053.83 2644
1921.42 1053.83 2644
1927.74 1053.83 2644
1934.07 1053.83 2644
1927.91 1047.06 2627
1984.99 1037.49 2603
1991.22 1037.49 2603
-1628.97 1042.12 2599
-1622.76 1042.12 2599
-1616.54 1042.12 2599
-1632.63 1056.56 2635
-1626.33 1056.56 2635
-1620.03 1056.56 2635
-1629.65 1066.98 2661
-1625.73 1068.59 2665
-1624.22 1071.79 2673
-1617.82 1071.79 2673
-1611.43 1071.79 2673
-1590.03 1061.77 2648
-1583.7 1061.77 2648
-1577.36 1061.77 2648
-1571.03 1061.77 2648
-1564.7 1061.77 2648
-1558.37 1061.77 2648
-1552.03 1061.77 2648
-1548.04 1063.37 2652
-1544.02 1064.98 2656
-1542.88 1068.59 2665
-1536.51 1068.59 2665
-1554.82 1085.83 2708
-1560.93 1094.65 2730
-1554.4 1094.65 2730
-1547.87 1094.65 2730
-1131.77 1042.12 2599
-1165.4 1079.01 2691
-1158.96 1079.01 2691
-1163.66 1089.44 2717
-1162.7 1094.65 2730
-1159.99 1098.26 2739
-1153.44 1098.26 2739
-1148.98 1100.26 2744
-1142.42 1100.26 2744
-1135.86 1100.26 2744
-1127.24 1098.26 2739
-1120.69 1098.26 2739
-1057.19 1042.12 2599
-1050.98 1042.12 2599
-1044.76 1042.12 2599
-1024.16 1027.69 2563
-1016.44 1026.08 2559
-1010.32 1026.08 2559
-1001.06 1022.87 2551
-996.524 1024.48 2555
-990.414 1024.48 2555
-984.305 1024.48 2555
-979.726 1026.08 2559
-973.607 1026.08 2559
-972.025 1030.89 2571
-967.004 1032.1 2574
-960.848 1032.1 2574
-954.693 1032.1 2574
-948.538 1032.1 2574
-939.82 1029.29 2567
-933.681 1029.29 2567
-926.098 1027.69 2563
-923.917 1032.1 2574
-919.188 1033.7 2578
-914.44 1035.3 2582
-908.266 1035.3 2582
-908.031 1042.12 2599
-903.204 1043.72 2603
-901.114 1048.54 2615
-894.861 1048.54 2615
-891.326 1051.74 2623
-885.054 1051.74 2623
-880.121 1053.35 2627
-873.839 1053.35 2627
-870.2 1056.56 2635
-865.538 1058.56 2640
-859.225 1058.56 2640
-852.912 1058.56 2640
-846.599 1058.56 2640
-841.559 1060.16 2644
-837.763 1063.37 2652
-831.422 1063.37 2652
-829.124 1068.59 2665
-825.221 1071.79 2673
-826.794 1082.22 2699
-820.34 1082.22 2699
-813.886 1082.22 2699
-807.432 1082.22 2699
-800.977 1082.22 2699
-789.519 1075.4 2682
-780.478 1071.79 2673
-770.611 1066.98 2661
-764.247 1066.98 2661
-750.479 1056.56 2635
-743.048 1054.95 2631
-735.637 1053.35 2627
-729.355 1053.35 2627
-723.073 1053.35 2627
-713.516 1048.54 2615
-704.018 1043.72 2603
-697.793 1043.72 2603
-691.568 1043.72 2603
-685.344 1043.72 2603
-679.119 1043.72 2603
-672.895 1043.72 2603
-666.67 1043.72 2603
-660.446 1043.72 2603
-650.954 1038.51 2590
-642.769 1035.3 2582
-637.581 1036.91 2586
-631.397 1036.91 2586
-627.147 1040.12 2594
-624.056 1045.33 2607
-619.718 1048.54 2615
-613.464 1048.54 2615
-607.211 1048.54 2615
-602.796 1051.74 2623
-596.524 1051.74 2623
-590.251 1051.74 2623
-585.76 1054.95 2631
-590.701 1075.4 2682
-586.248 1079.01 2691
-579.813 1079.01 2691
-573.378 1079.01 2691
-566.943 1079.01 2691
-560.508 1079.01 2691
-549.544 1070.19 2669
-542.347 1068.59 2665
-536.779 1070.19 2669
-533.775 1077.01 2686
-527.352 1077.01 2686
-520.929 1077.01 2686
-512.016 1071.79 2673
-505.624 1071.79 2673
-498.485 1070.19 2669
-491.365 1068.59 2665
-484.992 1068.59 2665
-478.619 1068.59 2665
-471.537 1066.98 2661
-463.601 1063.37 2652
-459.501 1068.59 2665
-453.128 1068.59 2665
-446.755 1068.59 2665
-438.895 1064.98 2656
-429.938 1058.56 2640
-422.823 1056.56 2635
-417.312 1058.56 2640
-410.999 1058.56 2640
-404.686 1058.56 2640
-398.373 1058.56 2640
-392.06 1058.56 2640
-385.747 1058.56 2640
-378.14 1054.95 2631
-371.849 1054.95 2631
-366.808 1058.56 2640
-360.494 1058.56 2640
-354.181 1058.56 2640
-347.868 1058.56 2640
-341.555 1058.56 2640
-334.607 1056.56 2635
-326.811 1051.74 2623
-319.561 1048.54 2615
-313.308 1048.54 2615
-307.055 1048.54 2615
-301.722 1051.74 2623
-295.9 1053.35 2627
-289.618 1053.35 2627
-283.336 1053.35 2627
-277.054 1053.35 2627
-270.36 1051.74 2623
-264.087 1051.74 2623
-257.422 1050.14 2619
-250.008 1045.33 2607
-243.774 1045.33 2607
-237.54 1045.33 2607
-231.306 1045.33 2607
-225.072 1045.33 2607
-218.502 1043.72 2603
-212.277 1043.72 2603
-206.369 1045.33 2607
-200.135 1045.33 2607
-193.901 1045.33 2607
-187.667 1045.33 2607
-181.433 1045.33 2607
-175.199 1045.33 2607
-168.964 1045.33 2607
-162.481 1043.72 2603
-156.256 1043.72 2603
-148.187 1030.89 2571
-141.155 1024.48 2555
-133.407 1012.05 2524
-127.371 1012.05 2524
-117.442 979.57 2443
-110.458 969.545 2418
-103.766 961.125 2397
-97.7482 958.318 2390
-92.033 958.318 2390
-84.9814 943.482 2353
-78.4779 933.057 2327
-72.506 927.845 2314
-66.9725 927.845 2314
-61.1735 923.835 2304
-55.519 921.429 2298
-49.8061 917.419 2288
-44.1022 912.608 2276
-38.6596 912.608 2276
-33.1295 910.202 2270
-27.6646 908.999 2267
-22.1846 906.593 2261
-16.7779 906.593 2261
-11.3511 904.989 2257
-5.96444 906.593 2261
-0.558442 907.796 2264
4.8619 908.999 2267
10.283 908.999 2267
15.7456 911.405 2273
21.209 912.608 2276
26.6868 913.811 2279
32.1365 913.811 2279
37.6853 916.216 2285
43.1494 916.216 2285
48.6774 917.419 2288
54.1487 917.419 2288
59.62 917.419 2288
65.2051 919.023 2292
70.871 921.429 2298
76.3662 921.429 2298
81.8614 921.429 2298
87.3566 921.429 2298
92.8518 921.429 2298
98.2186 920.226 2295
103.571 919.023 2292
109.052 919.023 2292
114.533 919.023 2292
120.014 919.023 2292
125.276 917.419 2288
130.747 917.419 2288
136.04 916.216 2285
141.504 916.216 2285
146.968 916.216 2285
152.432 916.216 2285
157.896 916.216 2285
163.575 917.419 2288
169.046 917.419 2288
174.517 917.419 2288
180.539 920.226 2295
186.514 922.632 2301
192.016 922.632 2301
197.518 922.632 2301
220.395 975.159 2432
226.21 975.159 2432
244.524 1027.69 2563
250.653 1027.69 2563
256.782 1027.69 2563
262.911 1027.69 2563
269.04 1027.69 2563
278.068 1038.51 2590
284.261 1038.51 2590
298.417 1066.98 2661
306.154 1071.79 2673
312.546 1071.79 2673
318.938 1071.79 2673
323.87 1066.98 2661
324.524 1048.54 2615
330.272 1046.93 2611
336.515 1046.93 2611
342.759 1046.93 2611
349.003 1046.93 2611
355.246 1046.93 2611
362.598 1050.14 2619
368.861 1050.14 2619
377.415 1056.56 2635
385.027 1060.16 2644
391.941 1061.77 2648
398.274 1061.77 2648
405.217 1063.37 2652
411.559 1063.37 2652
417.9 1063.37 2652
424.242 1063.37 2652
429.285 1060.16 2644
435.608 1060.16 2644
441.93 1060.16 2644
448.253 1060.16 2644
456.639 1064.98 2656
466.825 1073.8 2678
476.94 1082.22 2699
483.394 1082.22 2699
489.848 1082.22 2699
497.221 1084.22 2704
503.688 1084.22 2704
510.908 1085.83 2708
517.384 1085.83 2708
523.86 1085.83 2708
530.335 1085.83 2708
536.811 1085.83 2708
543.287 1085.83 2708
549.762 1085.83 2708
555.416 1084.22 2704
561.882 1084.22 2704
564.565 1077.01 2686
568.224 1071.79 2673
570.962 1064.98 2656
577.313 1064.98 2656
583.665 1064.98 2656
590.016 1064.98 2656
596.367 1064.98 2656
602.718 1064.98 2656
606.318 1060.16 2644
612.641 1060.16 2644
614.983 1053.35 2627
622.211 1054.95 2631
630.653 1058.56 2640
636.966 1058.56 2640
644.254 1060.16 2644
653.529 1064.98 2656
662.116 1068.59 2665
668.489 1068.59 2665
681.446 1079.01 2691
689.926 1082.22 2699
701.024 1089.44 2717
707.521 1089.44 2717
719.8 1098.26 2739
727.676 1100.26 2744
734.238 1100.26 2744
740.799 1100.26 2744
745.999 1098.26 2739
747.603 1091.04 2721
754.11 1091.04 2721
758.381 1087.83 2713
764.868 1087.83 2713
767.375 1082.22 2699
773.83 1082.22 2699
777.971 1079.01 2691
779.159 1071.79 2673
784.375 1070.19 2669
790.758 1070.19 2669
794.751 1066.98 2661
801.114 1066.98 2661
805.96 1064.98 2656
812.311 1064.98 2656
818.663 1064.98 2656
817.248 1054.95 2631
819.784 1050.14 2619
826.047 1050.14 2619
837.394 1056.56 2635
843.695 1056.56 2635
852.9 1060.16 2644
863.122 1064.98 2656
873.729 1070.19 2669
880.111 1070.19 2669
890.811 1075.4 2682
897.225 1075.4 2682
908.018 1080.61 2695
914.463 1080.61 2695
923.983 1084.22 2704
936.299 1091.04 2721
942.806 1091.04 2721
949.312 1091.04 2721
955.819 1091.04 2721
960.911 1089.44 2717
967.408 1089.44 2717
967.453 1082.22 2699
973.907 1082.22 2699
982.178 1084.22 2704
996.688 1093.04 2726
1007.99 1098.26 2739
1014.54 1098.26 2739
1022.95 1100.26 2744
1032.89 1103.87 2753
1040.99 1105.47 2757
1047.58 1105.47 2757
1054.17 1105.47 2757
1060.76 1105.47 2757
1072.78 1111.09 2771
1079.4 1111.09 2771
1086.03 1111.09 2771
1092.66 1111.09 2771
1099.28 1111.09 2771
1106.24 1098.26 2739
1112.79 1098.26 2739
1125.06 1103.87 2753
1131.64 1103.87 2753
1138.22 1103.87 2753
1141.07 1100.26 2744
1147.63 1100.26 2744
1154.19 1100.26 2744
1154.83 1094.65 2730
1152 1085.83 2708
1158.47 1085.83 2708
1163.23 1084.22 2704
1169.69 1084.22 2704
1176.16 1084.22 2704
1182.63 1084.22 2704
1178.31 1068.59 2665
1184.69 1068.59 2665
1194.64 1071.79 2673
1201.03 1071.79 2673
1219.16 1082.22 2699
1237.88 1093.04 2726
1246.22 1094.65 2730
1263.31 1103.87 2753
1269.89 1103.87 2753
1280.65 1107.48 2762
1293.78 1113.09 2776
1306.97 1118.71 2790
1313.64 1118.71 2790
1322.21 1120.31 2794
1328.89 1120.31 2794
1335.57 1120.31 2794
1340.33 1118.71 2790
1347 1118.71 2790
1355.61 1120.31 2794
1374 1129.93 2818
1380.74 1129.93 2818
1387.48 1129.93 2818
1394.21 1129.93 2818
1400.95 1129.93 2818
1405.19 1127.93 2813
1409.91 1126.32 2809
1416.63 1126.32 2809
1423.35 1126.32 2809
1430.06 1126.32 2809
1436.78 1126.32 2809
1440.93 1124.32 2804
1447.63 1124.32 2804
1447.08 1118.71 2790
1451.14 1116.7 2785
1448.38 1109.48 2767
1457.1 1111.09 2771
1468.48 1114.7 2780
1475.13 1114.7 2780
1481.78 1114.7 2780
1488.43 1114.7 2780
1495.07 1114.7 2780
1501.72 1114.7 2780
1506.2 1113.09 2776
1505.21 1107.48 2762
1511.81 1107.48 2762
1513.47 1103.87 2753
1520.05 1103.87 2753
1523.86 1101.87 2748
1518.18 1093.04 2726
1524.7 1093.04 2726
1504.26 1073.8 2678
1505.59 1070.19 2669
1500.07 1061.77 2648
1510.95 1064.98 2656
1517.31 1064.98 2656
1538.57 1075.4 2682
1544.99 1075.4 2682
1551.4 1075.4 2682
1542.71 1064.98 2656
1544.4 1061.77 2648
1533.75 1050.14 2619
1540.01 1050.14 2619
1565.75 1063.37 2652
1572.1 1063.37 2652
1588.56 1070.19 2669
1597.33 1071.79 2673
1611.52 1077.01 2686
1617.94 1077.01 2686
1645.53 1091.04 2721
1652.04 1091.04 2721
1658.55 1091.04 2721
1665.05 1091.04 2721
1671.56 1091.04 2721
1675.6 1089.44 2717
1682.1 1089.44 2717
1688.59 1089.44 2717
1695.09 1089.44 2717
1701.59 1089.44 2717
1708.09 1089.44 2717
1712.06 1087.83 2713
1709.68 1082.22 2699
1716.13 1082.22 2699
1720.03 1080.61 2695
1726.48 1080.61 2695
1711.06 1066.98 2661
1717.42 1066.98 2661
1715.37 1061.77 2648
1721.7 1061.77 2648
1714.33 1053.35 2627
1681.31 1029.29 2567
1687.45 1029.29 2567
1693.59 1029.29 2567
1691.78 1024.48 2555
1687.26 1018.06 2539
1698.66 1021.27 2547
1704.75 1021.27 2547
1710.84 1021.27 2547
1716.93 1021.27 2547
1723.03 1021.27 2547
1726.4 1019.67 2543
1732.48 1019.67 2543
1733.09 1016.46 2535
1791.8 1029.29 2567
1802.84 1032.1 2574
1809 1032.1 2574
1815.15 1032.1 2574
1821.31 1032.1 2574
1899.57 1058.56 2640
1908.77 1060.16 2644
1915.1 1060.16 2644
1921.42 1060.16 2644
1927.74 1060.16 2644
1934.07 1060.16 2644
1937.45 1058.56 2640
1934.19 1053.35 2627
1997.19 1050.14 2619
2003.46 1050.14 2619
-1591.36 1024.15 2539
-1585.29 1024.15 2539
-1586.68 1028.99 2551
-1590.5 1035.44 2567
-1593.62 1041.49 2582
-1587.44 1041.49 2582
-1591.68 1048.35 2599
-1597.67 1056.41 2619
-1591.4 1056.41 2619
-1585.14 1056.41 2619
-1578.88 1056.41 2619
-1572.61 1056.41 2619
-1566.35 1056.41 2619
-1555.32 1053.19 2611
-1546.71 1051.57 2607
-1540.47 1051.57 2607
-1534.24 1051.57 2607
-1528 1051.57 2607
-1538.11 1062.87 2635
-1531.81 1062.87 2635
-1537.67 1071.34 2656
-1531.32 1071.34 2656
-1524.97 1071.34 2656
-1518.62 1071.34 2656
-1512.26 1071.34 2656
-1131.77 1048.35 2599
-1132.48 1054.8 2615
-1126.23 1054.8 2615
-1121.69 1056.41 2619
-1117.13 1058.03 2623
-1110.86 1058.03 2623
-1104.59 1058.03 2623
-1098.31 1058.03 2623
-1092.04 1058.03 2623
-1085.77 1058.03 2623
-1067.56 1046.33 2594
-1063.41 1048.35 2599
-1057.19 1048.35 2599
-1050.98 1048.35 2599
-1044.76 1048.35 2599
-1024.16 1033.83 2563
-1013.26 1028.99 2551
-1007.16 1028.99 2551
-1001.06 1028.99 2551
-994.964 1028.99 2551
-988.864 1028.99 2551
-984.305 1030.6 2555
-978.195 1030.6 2555
-972.085 1030.6 2555
-972.025 1037.05 2571
-965.876 1037.05 2571
-959.728 1037.05 2571
-953.58 1037.05 2571
-945.958 1035.44 2567
-938.355 1033.83 2563
-932.227 1033.83 2563
-924.652 1032.21 2559
-921.404 1035.44 2567
-917.762 1038.26 2574
-914.44 1041.49 2582
-908.266 1041.49 2582
-904.886 1044.72 2590
-903.204 1049.96 2603
-899.736 1053.19 2611
-893.492 1053.19 2611
-889.967 1056.41 2619
-885.054 1058.03 2623
-878.781 1058.03 2623
-872.509 1058.03 2623
-870.2 1062.87 2635
-865.538 1064.89 2640
-859.225 1064.89 2640
-852.912 1064.89 2640
-846.599 1064.89 2640
-841.559 1066.5 2644
-837.763 1069.73 2652
-831.422 1069.73 2652
-829.124 1074.97 2665
-825.221 1078.2 2673
-826.794 1088.68 2699
-820.34 1088.68 2699
-813.886 1088.68 2699
-807.432 1088.68 2699
-800.977 1088.68 2699
-789.519 1081.83 2682
-780.478 1078.2 2673
-770.611 1073.36 2661
-764.247 1073.36 2661
-750.479 1062.87 2635
-743.048 1061.25 2631
-735.637 1059.64 2627
-729.355 1059.64 2627
-723.073 1059.64 2627
-713.516 1054.8 2615
-704.018 1049.96 2603
-697.793 1049.96 2603
-691.568 1049.96 2603
-685.344 1049.96 2603
-679.119 1049.96 2603
-672.895 1049.96 2603
-666.67 1049.96 2603
-660.446 1049.96 2603
-650.954 1044.72 2590
-642.769 1041.49 2582
-637.581 1043.1 2586
-631.397 1043.1 2586
-627.147 1046.33 2594
-624.056 1051.57 2607
-619.718 1054.8 2615
-613.464 1054.8 2615
-607.211 1054.8 2615
-602.796 1058.03 2623
-596.524 1058.03 2623
-590.251 1058.03 2623
-585.76 1061.25 2631
-590.701 1081.83 2682
-586.248 1085.46 2691
-579.813 1085.46 2691
-573.378 1085.46 2691
-566.943 1085.46 2691
-560.508 1085.46 2691
-549.544 1076.58 2669
-542.347 1074.97 2665
-536.779 1076.58 2669
-533.775 1083.44 2686
-527.352 1083.44 2686
-520.929 1083.44 2686
-512.016 1078.2 2673
-505.624 1078.2 2673
-498.485 1076.58 2669
-491.365 1074.97 2665
-484.992 1074.97 2665
-478.619 1074.97 2665
-471.537 1073.36 2661
-463.601 1069.73 2652
-459.501 1074.97 2665
-453.128 1074.97 2665
-446.755 1074.97 2665
-438.895 1071.34 2656
-429.938 1064.89 2640
-422.823 1062.87 2635
-417.312 1064.89 2640
-410.999 1064.89 2640
-404.686 1064.89 2640
-398.373 1064.89 2640
-392.06 1064.89 2640
-385.747 1064.89 2640
-378.14 1061.25 2631
-371.849 1061.25 2631
-366.808 1064.89 2640
-360.494 1064.89 2640
-354.181 1064.89 2640
-347.868 1064.89 2640
-341.555 1064.89 2640
-334.607 1062.87 2635
-326.811 1058.03 2623
-319.561 1054.8 2615
-313.308 1054.8 2615
-307.055 1054.8 2615
-301.722 1058.03 2623
-295.9 1059.64 2627
-289.618 1059.64 2627
-283.336 1059.64 2627
-277.054 1059.64 2627
-270.36 1058.03 2623
-264.087 1058.03 2623
-257.422 1056.41 2619
-250.008 1051.57 2607
-243.774 1051.57 2607
-237.54 1051.57 2607
-231.306 1051.57 2607
-225.072 1051.57 2607
-218.502 1049.96 2603
-212.277 1049.96 2603
-206.369 1051.57 2607
-200.135 1051.57 2607
-193.901 1051.57 2607
-187.667 1051.57 2607
-181.433 1051.57 2607
-175.199 1051.57 2607
-168.964 1051.57 2607
-162.481 1049.96 2603
-156.256 1049.96 2603
-148.187 1037.05 2571
-141.155 1030.6 2555
-133.407 1018.09 2524
-127.371 1018.09 2524
-117.442 985.422 2443
-110.458 975.338 2418
-103.766 966.867 2397
-97.7482 964.044 2390
-92.033 964.044 2390
-84.9814 949.119 2353
-78.4779 938.632 2327
-72.506 933.388 2314
-66.9725 933.388 2314
-61.1735 929.354 2304
-55.2774 922.9 2288
-49.7408 921.69 2285
-43.986 915.64 2270
-38.5577 915.64 2270
-33.0857 914.43 2267
-27.5914 912.009 2261
-22.116 909.186 2254
-16.726 909.186 2254
-11.336 909.186 2254
-5.94597 909.186 2254
-0.556715 910.396 2257
4.85547 913.22 2264
10.2694 913.22 2264
15.7041 914.43 2267
21.1531 915.64 2270
26.6165 916.85 2273
32.0519 916.85 2273
37.5863 919.27 2279
43.0361 919.27 2279
48.6135 921.69 2285
54.0777 921.69 2285
59.5418 921.69 2285
65.0913 922.9 2288
70.6859 924.514 2292
76.1668 924.514 2292
81.6477 924.514 2292
87.1285 924.514 2292
92.6094 924.514 2292
98.0903 924.514 2292
103.571 924.514 2292
109.052 924.514 2292
114.333 922.9 2288
119.804 922.9 2288
125.276 922.9 2288
130.404 920.48 2282
135.861 920.48 2282
141.318 920.48 2282
146.582 919.27 2279
152.232 920.48 2282
157.689 920.48 2282
163.36 921.69 2285
168.824 921.69 2285
174.517 922.9 2288
180.303 924.514 2292
186.514 928.144 2301
192.016 928.144 2301
197.518 928.144 2301
203.903 932.178 2311
220.395 980.985 2432
226.21 980.985 2432
240.04 1014.87 2516
246.839 1018.09 2524
253.275 1019.71 2528
259.321 1019.71 2528
266.521 1024.15 2539
273.451 1027.37 2547
281.298 1033.83 2563
287.427 1033.83 2563
304.78 1073.36 2661
311.143 1073.36 2661
317.507 1073.36 2661
318.271 1054.8 2615
324.028 1053.19 2611
329.26 1049.96 2603
335.484 1049.96 2603
341.709 1049.96 2603
348.468 1051.57 2607
354.702 1051.57 2607
361.49 1053.19 2611
367.734 1053.19 2611
375.123 1056.41 2619
383.134 1061.25 2631
390.017 1062.87 2635
396.318 1062.87 2635
403.995 1066.5 2644
410.317 1066.5 2644
416.64 1066.5 2644
422.962 1066.5 2644
427.824 1062.87 2635
432.148 1058.03 2623
438.42 1058.03 2623
444.014 1056.41 2619
453.888 1064.89 2640
462.99 1071.34 2656
470.932 1074.97 2665
477.304 1074.97 2665
484.403 1076.58 2669
490.786 1076.58 2669
497.168 1076.58 2669
503.55 1076.58 2669
509.933 1076.58 2669
515.541 1074.97 2665
521.131 1073.36 2661
528.287 1074.97 2665
534.66 1074.97 2665
542.657 1078.2 2673
549.049 1078.2 2673
555.441 1078.2 2673
561.833 1078.2 2673
562.91 1068.11 2648
568.382 1066.5 2644
574.705 1066.5 2644
581.028 1066.5 2644
587.35 1066.5 2644
593.673 1066.5 2644
599.995 1066.5 2644
605.401 1064.89 2640
608.701 1059.64 2627
611.238 1053.19 2611
618.427 1054.8 2615
627.547 1059.64 2627
633.829 1059.64 2627
642.061 1062.87 2635
650.576 1066.5 2644
659.88 1071.34 2656
666.231 1071.34 2656
681.446 1085.46 2691
688.903 1087.07 2695
698.702 1092.31 2708
705.178 1092.31 2708
717.435 1101.19 2730
723.963 1101.19 2730
730.491 1101.19 2730
737.02 1101.19 2730
742.458 1099.57 2726
747.603 1097.56 2721
754.11 1097.56 2721
758.381 1094.33 2713
762.331 1090.7 2704
766.238 1087.07 2695
772.683 1087.07 2695
776.525 1083.44 2686
777.993 1076.58 2669
782.024 1073.36 2661
788.388 1073.36 2661
794.751 1073.36 2661
801.114 1073.36 2661
803.533 1068.11 2648
804.665 1061.25 2631
810.957 1061.25 2631
813.521 1056.41 2619
816.028 1051.57 2607
823.523 1053.19 2611
832.309 1056.41 2619
838.572 1056.41 2619
847.416 1059.64 2627
857.922 1064.89 2640
868.164 1069.73 2652
874.505 1069.73 2652
886.494 1076.58 2669
894.214 1078.2 2673
903.638 1081.83 2682
910.052 1081.83 2682
920.908 1087.07 2695
928.729 1088.68 2699
935.183 1088.68 2699
941.637 1088.68 2699
946.686 1087.07 2695
953.13 1087.07 2695
959.575 1087.07 2695
959.926 1080.21 2678
966.33 1080.21 2678
980.362 1088.68 2699
996.688 1099.57 2726
1007.99 1104.82 2739
1014.54 1104.82 2739
1022.95 1106.83 2744
1032.89 1110.47 2753
1039.48 1110.47 2753
1046.06 1110.47 2753
1052.64 1110.47 2753
1060.76 1112.08 2757
1067.36 1112.08 2757
1073.95 1112.08 2757
1086.03 1117.73 2771
1092.66 1117.73 2771
1099.28 1117.73 2771
1106.24 1104.82 2739
1112.79 1104.82 2739
1119.34 1104.82 2739
1124.24 1103.2 2735
1130.78 1103.2 2735
1137.32 1103.2 2735
1143.86 1103.2 2735
1142.83 1095.94 2717
1138.33 1085.46 2691
1137.11 1078.2 2673
1143.5 1078.2 2673
1149.89 1078.2 2673
1151.09 1073.36 2661
1169.57 1061.25 2631
1189.27 1073.36 2661
1201.03 1078.2 2673
1207.42 1078.2 2673
1225.62 1088.68 2699
1238.46 1094.33 2713
1252.75 1101.19 2730
1259.28 1101.19 2730
1274.15 1108.45 2748
1287.25 1114.1 2762
1296.2 1116.11 2767
1302.81 1116.11 2767
1315.58 1121.36 2780
1322.23 1121.36 2780
1328.88 1121.36 2780
1335.53 1121.36 2780
1344.59 1123.37 2785
1353.67 1125.39 2790
1364.73 1129.02 2799
1371.43 1129.02 2799
1378.12 1129.02 2799
1384.81 1129.02 2799
1391.51 1129.02 2799
1398.2 1129.02 2799
1397.87 1123.37 2785
1404.53 1123.37 2785
1413.72 1125.39 2790
1420.39 1125.39 2790
1427.06 1125.39 2790
1433.73 1125.39 2790
1440.41 1125.39 2790
1447.08 1125.39 2790
1439.16 1114.1 2762
1445.77 1114.1 2762
1455 1116.11 2767
1463.73 1117.73 2771
1470.36 1117.73 2771
1476.98 1117.73 2771
1486.28 1119.74 2776
1492.92 1119.74 2776
1499.56 1119.74 2776
1493.72 1110.47 2753
1497.58 1108.45 2748
1504.15 1108.45 2748
1510.72 1108.45 2748
1517.29 1108.45 2748
1521.65 1106.83 2744
1518.18 1099.57 2726
1524.7 1099.57 2726
1504.26 1080.21 2678
1505.59 1076.58 2669
1500.07 1068.11 2648
1510.95 1071.34 2656
1517.31 1071.34 2656
1523.66 1071.34 2656
1530.01 1071.34 2656
1536.36 1071.34 2656
1542.71 1071.34 2656
1544.4 1068.11 2648
1531.4 1054.8 2615
1537.66 1054.8 2615
1546.27 1056.41 2619
1552.53 1056.41 2619
1565.94 1061.25 2631
1584.78 1069.73 2652
1598.92 1074.97 2665
1605.29 1074.97 2665
1619.53 1080.21 2678
1641.72 1090.7 2704
1648.18 1090.7 2704
1654.65 1090.7 2704
1661.12 1090.7 2704
1667.58 1090.7 2704
1674.05 1090.7 2704
1680.51 1090.7 2704
1686.98 1090.7 2704
1685.31 1085.46 2691
1691.74 1085.46 2691
1689.97 1080.21 2678
1685.61 1073.36 2661
1688.79 1071.34 2656
1692.59 1069.73 2652
1698.93 1069.73 2652
1700.13 1066.5 2644
1695.48 1059.64 2627
1691.4 1053.19 2611
1697.64 1053.19 2611
1692.79 1046.33 2594
1681.31 1035.44 2567
1682.19 1032.21 2559
1688.31 1032.21 2559
1691.78 1030.6 2555
1687.26 1024.15 2539
1693.33 1024.15 2539
1699.4 1024.15 2539
1705.47 1024.15 2539
1711.54 1024.15 2539
1714.91 1022.53 2535
1716.22 1019.71 2528
1722.26 1019.71 2528
1728.31 1019.71 2528
1791.8 1035.44 2567
1802.84 1038.26 2574
1809 1038.26 2574
1815.15 1038.26 2574
1821.31 1038.26 2574
1893.1 1061.25 2631
1905.89 1064.89 2640
1912.2 1064.89 2640
1918.51 1064.89 2640
1924.83 1064.89 2640
1931.14 1064.89 2640
1937.45 1064.89 2640
1934.19 1059.64 2627
1997.19 1056.41 2619
2003.46 1056.41 2619
-1552.77 1001.42 2468
-1574.44 1019.27 2512
-1568.43 1019.27 2512
-1572.38 1025.76 2528
-1568.81 1027.39 2532
-1567.08 1030.23 2539
-1561.01 1030.23 2539
-1557.38 1031.85 2543
-1553.74 1033.47 2547
-1547.65 1033.47 2547
-1541.56 1033.47 2547
-1535.47 1033.47 2547
-1534.18 1036.72 2555
-1544.22 1047.67 2582
-1538.05 1047.67 2582
-1546.71 1057.82 2607
-1540.47 1057.82 2607
-1534.24 1057.82 2607
-1528 1057.82 2607
-1538.11 1069.18 2635
-1531.81 1069.18 2635
-1535.35 1076.08 2652
-1529.01 1076.08 2652
-1524.97 1077.7 2656
-1518.62 1077.7 2656
-1512.26 1077.7 2656
-1126.11 1049.3 2586
-1125.56 1054.57 2599
-1119.34 1054.57 2599
-1113.13 1054.57 2599
-1113.72 1061.07 2615
-1107.47 1061.07 2615
-1101.22 1061.07 2615
-1084.5 1050.92 2590
-1076.64 1049.3 2586
-1073.77 1052.54 2594
-1067.56 1052.54 2594
-1063.41 1054.57 2599
-1057.19 1054.57 2599
-1050.98 1054.57 2599
-1034.71 1044.43 2574
-1019.36 1035.1 2551
-1013.26 1035.1 2551
-1007.16 1035.1 2551
-1001.06 1035.1 2551
-996.524 1036.72 2555
-990.414 1036.72 2555
-984.305 1036.72 2555
-978.195 1036.72 2555
-975.129 1039.97 2563
-972.025 1043.21 2571
-967.004 1044.43 2574
-960.848 1044.43 2574
-954.693 1044.43 2574
-947.432 1043.21 2571
-938.355 1039.97 2563
-932.227 1039.97 2563
-926.098 1039.97 2563
-922.84 1043.21 2571
-917.762 1044.43 2574
-914.44 1047.67 2582
-908.266 1047.67 2582
-904.886 1050.92 2590
-903.204 1056.2 2603
-899.736 1059.44 2611
-893.492 1059.44 2611
-888.608 1061.07 2615
-885.054 1064.31 2623
-878.781 1064.31 2623
-872.509 1064.31 2623
-867.557 1065.93 2627
-865.538 1071.21 2640
-859.225 1071.21 2640
-852.912 1071.21 2640
-844.995 1069.18 2635
-838.694 1069.18 2635
-837.763 1076.08 2652
-831.422 1076.08 2652
-827.88 1079.73 2661
-825.221 1084.6 2673
-824.343 1091.9 2691
-817.908 1091.9 2691
-811.473 1091.9 2691
-805.038 1091.9 2691
-798.603 1091.9 2691
-789.519 1088.25 2682
-776.974 1079.73 2661
-768.004 1076.08 2652
-761.662 1076.08 2652
-750.479 1069.18 2635
-739.659 1062.69 2619
-733.396 1062.69 2619
-727.133 1062.69 2619
-718.669 1059.44 2611
-709.151 1054.57 2599
-699.42 1049.3 2586
-695.38 1052.54 2594
-690.506 1054.57 2599
-684.291 1054.57 2599
-678.076 1054.57 2599
-671.861 1054.57 2599
-665.646 1054.57 2599
-657.147 1050.92 2590
-648.943 1047.67 2582
-640.777 1044.43 2574
-634.622 1044.43 2574
-628.467 1044.43 2574
-623.279 1046.05 2578
-619.986 1050.92 2590
-616.874 1056.2 2603
-610.649 1056.2 2603
-605.353 1057.82 2607
-600.039 1059.44 2611
-593.795 1059.44 2611
-587.551 1059.44 2611
-583.979 1064.31 2623
-583.213 1074.46 2648
-583.416 1086.63 2678
-577.012 1086.63 2678
-570.609 1086.63 2678
-560.623 1079.73 2661
-554.26 1079.73 2661
-545.22 1074.46 2648
-538.888 1074.46 2648
-533.36 1076.08 2652
-527.018 1076.08 2652
-520.676 1076.08 2652
-514.335 1076.08 2652
-507.993 1076.08 2652
-501.651 1076.08 2652
-493.815 1072.83 2644
-485.833 1069.18 2635
-479.532 1069.18 2635
-473.231 1069.18 2635
-466.93 1069.18 2635
-460.629 1069.18 2635
-455.88 1072.83 2644
-449.557 1072.83 2644
-443.235 1072.83 2644
-435.425 1069.18 2635
-427.821 1065.93 2627
-420.897 1064.31 2623
-415.889 1067.56 2631
-409.598 1067.56 2631
-403.306 1067.56 2631
-397.015 1067.56 2631
-390.723 1067.56 2631
-384.432 1067.56 2631
-376.99 1064.31 2623
-371.283 1065.93 2627
-365.001 1065.93 2627
-358.719 1065.93 2627
-352.437 1065.93 2627
-345.628 1064.31 2623
-339.356 1064.31 2623
-332.068 1061.07 2615
-324.818 1057.82 2607
-318.095 1056.2 2603
-311.87 1056.2 2603
-305.176 1054.57 2599
-299.421 1056.2 2603
-294.548 1061.07 2615
-288.295 1061.07 2615
-282.042 1061.07 2615
-275.788 1061.07 2615
-269.123 1059.44 2611
-262.879 1059.44 2611
-255.849 1056.2 2603
-249.241 1054.57 2599
-243.026 1054.57 2599
-236.811 1054.57 2599
-230.596 1054.57 2599
-224.381 1054.57 2599
-218.166 1054.57 2599
-211.951 1054.57 2599
-206.053 1056.2 2603
-199.828 1056.2 2603
-193.901 1057.82 2607
-187.667 1057.82 2607
-181.433 1057.82 2607
-174.93 1056.2 2603
-168.705 1056.2 2603
-162.231 1054.57 2599
-156.016 1054.57 2599
-147.726 1039.97 2563
-140.492 1031.85 2543
-132.773 1019.27 2512
-126.766 1019.27 2512
-116.913 986.811 2432
-109.635 973.826 2400
-103.463 969.769 2390
-97.0529 962.871 2373
-91.3783 962.871 2373
-84.7286 951.915 2346
-78.2418 941.366 2320
-72.1926 934.873 2304
-66.6831 934.873 2304
-60.9345 931.222 2295
-55.2774 928.381 2288
-49.7408 927.164 2285
-43.986 921.078 2270
-38.5577 921.078 2270
-33.0857 919.86 2267
-27.5914 917.426 2261
-22.116 914.585 2254
-16.726 914.585 2254
-11.336 914.585 2254
-5.94597 914.585 2254
-0.556715 915.803 2257
4.85547 918.643 2264
10.2694 918.643 2264
15.7041 919.86 2267
21.1531 921.078 2270
26.6165 922.295 2273
32.0519 922.295 2273
37.5863 924.729 2279
43.0361 924.729 2279
48.6135 927.164 2285
54.0777 927.164 2285
59.5418 927.164 2285
65.0913 928.381 2288
70.6859 930.004 2292
76.1668 930.004 2292
81.6477 930.004 2292
87.1285 930.004 2292
92.6094 930.004 2292
98.0903 930.004 2292
103.571 930.004 2292
109.052 930.004 2292
114.333 928.381 2288
119.804 928.381 2288
125.276 928.381 2288
130.404 925.947 2282
135.861 925.947 2282
141.318 925.947 2282
146.582 924.729 2279
152.232 925.947 2282
157.689 925.947 2282
163.36 927.164 2285
168.824 927.164 2285
174.517 928.381 2288
180.303 930.004 2292
186.514 933.656 2301
192.016 933.656 2301
197.518 933.656 2301
203.903 937.714 2311
220.395 986.811 2432
226.21 986.811 2432
240.04 1020.89 2516
246.839 1024.14 2524
253.275 1025.76 2528
259.321 1025.76 2528
266.521 1030.23 2539
273.451 1033.47 2547
281.298 1039.97 2563
287.427 1039.97 2563
304.78 1079.73 2661
311.143 1079.73 2661
317.507 1079.73 2661
318.271 1061.07 2615
324.028 1059.44 2611
329.26 1056.2 2603
335.484 1056.2 2603
341.709 1056.2 2603
348.468 1057.82 2607
354.702 1057.82 2607
361.49 1059.44 2611
367.734 1059.44 2611
375.123 1062.69 2619
383.134 1067.56 2631
390.017 1069.18 2635
396.318 1069.18 2635
403.995 1072.83 2644
410.317 1072.83 2644
416.64 1072.83 2644
422.962 1072.83 2644
427.824 1069.18 2635
432.148 1064.31 2623
438.42 1064.31 2623
444.014 1062.69 2619
453.888 1071.21 2640
462.99 1077.7 2656
470.932 1081.35 2665
477.304 1081.35 2665
484.403 1082.98 2669
490.786 1082.98 2669
497.168 1082.98 2669
503.55 1082.98 2669
509.933 1082.98 2669
515.541 1081.35 2665
521.131 1079.73 2661
528.287 1081.35 2665
534.66 1081.35 2665
542.657 1084.6 2673
549.049 1084.6 2673
555.441 1084.6 2673
561.833 1084.6 2673
562.91 1074.46 2648
568.382 1072.83 2644
574.705 1072.83 2644
581.028 1072.83 2644
587.35 1072.83 2644
593.673 1072.83 2644
599.995 1072.83 2644
605.401 1071.21 2640
608.701 1065.93 2627
611.238 1059.44 2611
618.427 1061.07 2615
627.547 1065.93 2627
633.829 1065.93 2627
642.061 1069.18 2635
650.576 1072.83 2644
656.899 1072.83 2644
663.221 1072.83 2644
678.154 1086.63 2678
687.881 1091.9 2691
696.38 1095.15 2699
702.834 1095.15 2699
712.967 1100.83 2713
722.902 1106.1 2726
729.421 1106.1 2726
735.94 1106.1 2726
741.097 1104.08 2721
744.032 1098.8 2708
750.507 1098.8 2708
754.467 1095.15 2699
759.794 1093.53 2695
763.679 1089.87 2686
770.102 1089.87 2686
770.454 1081.35 2665
775.661 1079.73 2661
779.379 1076.08 2652
785.721 1076.08 2652
790.868 1074.46 2648
797.2 1074.46 2648
798.374 1067.56 2631
802.219 1064.31 2623
808.491 1064.31 2623
808.551 1056.2 2603
810.706 1050.92 2590
819.739 1054.57 2599
829.767 1059.44 2611
836.011 1059.44 2611
844.835 1062.69 2619
854.998 1067.56 2631
865.545 1072.83 2644
871.867 1072.83 2644
882.176 1077.7 2656
892.876 1082.98 2669
903.638 1088.25 2682
910.052 1088.25 2682
919.541 1091.9 2691
927.352 1093.53 2695
933.797 1093.53 2695
940.241 1093.53 2695
946.686 1093.53 2695
943.935 1082.98 2669
948.893 1081.35 2665
964.586 1091.9 2691
971.021 1091.9 2691
983.631 1098.8 2708
1001.44 1111.38 2739
1013.14 1117.06 2753
1019.73 1117.06 2753
1026.31 1117.06 2753
1032.89 1117.06 2753
1039.48 1117.06 2753
1046.06 1117.06 2753
1052.64 1117.06 2753
1057.3 1115.03 2748
1063.87 1115.03 2748
1068.89 1113.41 2744
1073.49 1111.38 2739
1080.04 1111.38 2739
1086.59 1111.38 2739
1087.95 1106.1 2726
1082.02 1093.53 2695
1090.08 1095.15 2699
1096.54 1095.15 2699
1102.99 1095.15 2699
1109.44 1095.15 2699
1110.52 1089.87 2686
1116.95 1089.87 2686
1123.37 1089.87 2686
1124.32 1084.6 2673
1123.53 1077.7 2656
1119.24 1067.56 2631
1125.53 1067.56 2631
1123.22 1059.44 2611
1129.46 1059.44 2611
1187.04 1077.7 2656
1193.39 1077.7 2656
1199.74 1077.7 2656
1210.18 1081.35 2665
1230.25 1093.53 2695
1240.82 1097.18 2704
1247.29 1097.18 2704
1263.95 1106.1 2726
1278.86 1113.41 2744
1287.3 1115.03 2748
1293.87 1115.03 2748
1302.81 1117.06 2753
1313.67 1120.71 2762
1320.27 1120.71 2762
1326.88 1120.71 2762
1335.9 1122.74 2767
1346.88 1126.39 2776
1360.35 1132.07 2790
1367.02 1132.07 2790
1373.69 1132.07 2790
1380.36 1132.07 2790
1387.03 1132.07 2790
1391.21 1130.04 2785
1393.35 1126.39 2776
1397.47 1124.36 2771
1406.63 1126.39 2776
1413.26 1126.39 2776
1419.9 1126.39 2776
1426.54 1126.39 2776
1428.53 1122.74 2767
1435.15 1122.74 2767
1436.56 1118.68 2757
1436.34 1113.41 2744
1442.91 1113.41 2744
1456.33 1118.68 2757
1462.93 1118.68 2757
1469.52 1118.68 2757
1476.11 1118.68 2757
1482.71 1118.68 2757
1489.3 1118.68 2757
1493.72 1117.06 2753
1495.4 1113.41 2744
1501.96 1113.41 2744
1508.52 1113.41 2744
1515.08 1113.41 2744
1518.87 1111.38 2739
1508.16 1098.8 2708
1514.63 1098.8 2708
1504.26 1086.63 2678
1505.59 1082.98 2669
1500.07 1074.46 2648
1510.95 1077.7 2656
1517.31 1077.7 2656
1523.66 1077.7 2656
1530.01 1077.7 2656
1536.36 1077.7 2656
1542.71 1077.7 2656
1544.4 1074.46 2648
1531.4 1061.07 2615
1535.3 1059.44 2611
1541.55 1059.44 2611
1547.79 1059.44 2611
1558.8 1062.69 2619
1569.84 1065.93 2627
1578.52 1067.56 2631
1584.81 1067.56 2631
1603.81 1076.08 2652
1625.93 1086.63 2678
1632.34 1086.63 2678
1638.74 1086.63 2678
1645.14 1086.63 2678
1648.46 1084.6 2673
1654.86 1084.6 2673
1653.79 1079.73 2661
1660.15 1079.73 2661
1666.52 1079.73 2661
1672.88 1079.73 2661
1671.04 1074.46 2648
1672.3 1071.21 2640
1678.62 1071.21 2640
1679.19 1067.56 2631
1685.48 1067.56 2631
1684.05 1062.69 2619
1682.57 1057.82 2607
1670.02 1046.05 2578
1676.18 1046.05 2578
1675.17 1041.59 2567
1673.45 1036.72 2555
1679.56 1036.72 2555
1685.67 1036.72 2555
1681.18 1030.23 2539
1682.6 1027.39 2532
1690.66 1028.6 2535
1696.72 1028.6 2535
1702.78 1028.6 2535
1704.13 1025.76 2528
1707.47 1024.14 2524
1713.5 1024.14 2524
1719.54 1024.14 2524
1722.84 1022.52 2520
1791.8 1041.59 2567
1802.84 1044.43 2574
1809 1044.43 2574
1815.15 1044.43 2574
1821.31 1044.43 2574
1893.1 1067.56 2631
1905.89 1071.21 2640
1912.2 1071.21 2640
1918.51 1071.21 2640
1924.83 1071.21 2640
1931.14 1071.21 2640
1937.45 1071.21 2640
1940.08 1069.18 2635
1990.93 1062.69 2619
1997.19 1062.69 2619
2003.46 1062.69 2619
-1518.25 981.208 2404
-1552.77 1007.33 2468
-1558.15 1014.68 2486
-1552.2 1014.68 2486
-1551.23 1017.94 2494
-1558.9 1026.92 2516
-1557.82 1030.19 2524
-1551.78 1030.19 2524
-1552.49 1034.68 2535
-1548.86 1036.31 2539
-1547.65 1039.57 2547
-1541.56 1039.57 2547
-1535.47 1039.57 2547
-1531.78 1041.21 2551
-1554.39 1060.8 2599
-1548.18 1060.8 2599
-1544.33 1062.43 2603
-1540.47 1064.06 2607
-1534.24 1064.06 2607
-1528 1064.06 2607
-1526.44 1067.33 2615
-1529.49 1073.86 2631
-1530.72 1079.17 2644
-1524.4 1079.17 2644
-1524.97 1084.06 2656
-1518.62 1084.06 2656
-1512.26 1084.06 2656
-1119.58 1049.37 2571
-1118.19 1053.86 2582
-1112.02 1053.86 2582
-1105.84 1053.86 2582
-1099.67 1053.86 2582
-1093.5 1053.86 2582
-1087.32 1053.86 2582
-1077.8 1050.59 2574
-1068.73 1047.74 2567
-1073.77 1058.76 2594
-1067.56 1058.76 2594
-1061.36 1058.76 2594
-1044.17 1047.74 2567
-1038.04 1047.74 2567
-1031.9 1047.74 2567
-1019.36 1041.21 2551
-1013.26 1041.21 2551
-1007.16 1041.21 2551
-1001.06 1041.21 2551
-996.524 1042.84 2555
-990.414 1042.84 2555
-984.305 1042.84 2555
-978.195 1042.84 2555
-975.129 1046.11 2563
-972.025 1049.37 2571
-967.004 1050.59 2574
-960.848 1050.59 2574
-954.693 1050.59 2574
-947.432 1049.37 2571
-938.355 1046.11 2563
-932.227 1046.11 2563
-926.098 1046.11 2563
-922.84 1049.37 2571
-917.762 1050.59 2574
-914.44 1053.86 2582
-908.266 1053.86 2582
-904.886 1057.13 2590
-900.081 1058.76 2594
-896.979 1062.43 2603
-890.754 1062.43 2603
-887.248 1065.7 2611
-881.005 1065.7 2611
-874.761 1065.7 2611
-868.517 1065.7 2611
-863.595 1067.33 2615
-861.276 1072.23 2627
-854.994 1072.23 2627
-848.712 1072.23 2627
-838.582 1067.33 2615
-832.328 1067.33 2615
-831.129 1073.86 2631
-824.838 1073.86 2631
-823.835 1080.8 2648
-821.517 1086.1 2661
-815.153 1086.1 2661
-808.79 1086.1 2661
-804.839 1089.37 2669
-798.457 1089.37 2669
-792.074 1089.37 2669
-783.337 1086.1 2661
-774.346 1082.43 2652
-763.081 1075.49 2635
-756.78 1075.49 2635
-745.922 1068.96 2619
-736.27 1064.06 2607
-730.036 1064.06 2607
-723.802 1064.06 2607
-713.989 1058.76 2594
-703.421 1052.23 2578
-696.174 1050.59 2574
-693.236 1055.49 2586
-689.177 1058.76 2594
-682.974 1058.76 2594
-686.424 1073.86 2631
-680.133 1073.86 2631
-673.841 1073.86 2631
-657.147 1057.13 2590
-646.932 1050.59 2574
-640.03 1049.37 2571
-633.882 1049.37 2571
-625.781 1046.11 2563
-622.312 1050.59 2574
-617.114 1052.23 2578
-613.793 1057.13 2590
-607.599 1057.13 2590
-601.406 1057.13 2590
-598.2 1062.43 2603
-591.975 1062.43 2603
-585.751 1062.43 2603
-580.417 1064.06 2607
-575.945 1067.33 2615
-576.009 1079.17 2644
-569.687 1079.17 2644
-563.364 1079.17 2644
-557.041 1079.17 2644
-550.719 1079.17 2644
-540.072 1070.59 2623
-532.986 1068.96 2619
-525.919 1067.33 2615
-520.46 1068.96 2619
-514.197 1068.96 2619
-507.935 1068.96 2619
-501.672 1068.96 2619
-495.409 1068.96 2619
-488.399 1067.33 2615
-481.408 1065.7 2611
-475.165 1065.7 2611
-469.639 1067.33 2615
-463.386 1067.33 2615
-457.133 1067.33 2615
-451.569 1068.96 2619
-445.306 1068.96 2619
-439.044 1068.96 2619
-432.781 1068.96 2619
-425.867 1067.33 2615
-418.971 1065.7 2611
-413.992 1068.96 2619
-407.729 1068.96 2619
-401.467 1068.96 2619
-395.204 1068.96 2619
-388.941 1068.96 2619
-382.678 1068.96 2619
-375.84 1067.33 2615
-370.153 1068.96 2619
-363.89 1068.96 2619
-357.627 1068.96 2619
-351.364 1068.96 2619
-344.574 1067.33 2615
-338.321 1067.33 2615
-330.544 1062.43 2603
-322.7 1057.13 2590
-316.017 1055.49 2586
-309.833 1055.49 2586
-303.649 1055.49 2586
-297.466 1055.49 2586
-292.183 1058.76 2594
-286.531 1060.8 2599
-280.316 1060.8 2599
-274.101 1060.8 2599
-267.371 1058.76 2594
-261.168 1058.76 2594
-254.571 1057.13 2590
-247.611 1053.86 2582
-242.184 1057.13 2590
-235.991 1057.13 2590
-229.797 1057.13 2590
-223.604 1057.13 2590
-217.746 1058.76 2594
-211.543 1058.76 2594
-205.34 1058.76 2594
-199.137 1058.76 2594
-193.306 1060.8 2599
-187.091 1060.8 2599
-180.876 1060.8 2599
-174.661 1060.8 2599
-168.446 1060.8 2599
-161.42 1055.49 2586
-155.236 1055.49 2586
-147.265 1042.84 2555
-140.05 1034.68 2535
-132.191 1020.8 2501
-126.211 1020.8 2501
-115.567 981.208 2404
-109.179 975.494 2390
-102.857 969.78 2376
-96.5212 963.249 2360
-90.8777 963.249 2360
-84.4036 953.862 2337
-78.0394 944.474 2314
-72.0046 937.944 2298
-66.5094 937.944 2298
-60.7487 933.862 2288
-55.2049 932.638 2285
-49.6102 930.189 2279
-43.9279 925.291 2267
-38.5068 925.291 2267
-32.9981 922.842 2261
-27.506 919.985 2254
-22.0571 917.536 2248
-16.6814 917.536 2248
-11.3058 917.536 2248
-5.93014 917.536 2248
-0.555235 918.76 2251
4.83402 919.985 2254
10.224 919.985 2254
15.6348 921.209 2257
21.0972 924.066 2264
26.5462 925.291 2267
31.9673 925.291 2267
37.4874 927.74 2273
42.9794 928.964 2276
48.4859 930.189 2279
53.9357 930.189 2279
59.3854 930.189 2279
65.0059 932.638 2285
70.5626 933.862 2288
76.0339 933.862 2288
81.5052 933.862 2288
86.9765 933.862 2288
92.4478 933.862 2288
97.9191 933.862 2288
103.39 933.862 2288
108.862 933.862 2288
114.333 933.862 2288
119.804 933.862 2288
125.276 933.862 2288
130.404 931.413 2282
135.682 930.189 2279
141.132 930.189 2279
146.582 930.189 2279
152.032 930.189 2279
157.481 930.189 2279
162.931 930.189 2279
168.381 930.189 2279
173.831 930.189 2279
179.989 933.862 2288
185.784 935.495 2292
191.265 935.495 2292
197.518 939.168 2301
203.903 943.25 2311
216.317 974.27 2387
222.025 974.27 2387
232.026 992.637 2432
240.971 1005.7 2464
251.372 1024.06 2509
257.372 1024.06 2509
263.686 1025.29 2512
272.163 1034.68 2535
278.225 1034.68 2535
284.287 1034.68 2535
291.723 1039.57 2547
298.749 1042.84 2555
306.768 1049.37 2571
312.916 1049.37 2571
319.064 1049.37 2571
325.591 1050.59 2574
331.747 1050.59 2574
337.902 1050.59 2574
344.057 1050.59 2574
350.757 1052.23 2578
359.137 1058.76 2594
365.34 1058.76 2594
372.259 1060.8 2599
378.474 1060.8 2599
385.281 1062.43 2603
391.505 1062.43 2603
399.563 1067.33 2615
405.817 1067.33 2615
412.07 1067.33 2615
418.323 1067.33 2615
423.927 1065.7 2611
428.853 1062.43 2603
435.077 1062.43 2603
440.624 1060.8 2599
448.902 1065.7 2611
460.201 1077.53 2640
468.634 1082.43 2652
474.976 1082.43 2652
481.318 1082.43 2652
487.66 1082.43 2652
494.001 1082.43 2652
500.343 1082.43 2652
505.921 1080.8 2648
511.479 1079.17 2644
517.801 1079.17 2644
524.124 1079.17 2644
530.447 1079.17 2644
536.769 1079.17 2644
543.092 1079.17 2644
549.414 1079.17 2644
555.737 1079.17 2644
561.209 1077.53 2640
563.868 1070.59 2623
572.749 1075.49 2635
579.05 1075.49 2635
585.351 1075.49 2635
591.652 1075.49 2635
597.953 1075.49 2635
604.254 1075.49 2635
604.994 1065.7 2611
609.365 1062.43 2603
615.59 1062.43 2603
624.681 1067.33 2615
630.934 1067.33 2615
638.162 1068.96 2619
648.362 1075.49 2635
656.899 1079.17 2644
663.221 1079.17 2644
678.154 1093.04 2678
687.881 1098.35 2691
696.38 1101.61 2699
702.834 1101.61 2699
712.967 1107.33 2713
722.902 1112.63 2726
729.421 1112.63 2726
735.94 1112.63 2726
741.097 1110.59 2721
744.032 1105.29 2708
750.507 1105.29 2708
754.467 1101.61 2699
759.794 1099.98 2695
763.679 1096.31 2686
770.102 1096.31 2686
770.454 1087.74 2665
775.661 1086.1 2661
779.379 1082.43 2652
785.721 1082.43 2652
790.868 1080.8 2648
797.2 1080.8 2648
798.374 1073.86 2631
802.219 1070.59 2623
808.491 1070.59 2623
808.551 1062.43 2603
810.706 1057.13 2590
819.739 1060.8 2599
829.767 1065.7 2611
836.011 1065.7 2611
844.835 1068.96 2619
854.998 1073.86 2631
865.545 1079.17 2644
871.867 1079.17 2644
882.176 1084.06 2656
892.876 1089.37 2669
903.638 1094.68 2682
910.052 1094.68 2682
919.541 1098.35 2691
927.352 1099.98 2695
933.797 1099.98 2695
940.241 1099.98 2695
946.686 1099.98 2695
943.935 1089.37 2669
948.893 1087.74 2665
964.586 1098.35 2691
971.021 1098.35 2691
983.631 1105.29 2708
1001.44 1117.94 2739
1013.14 1123.65 2753
1019.73 1123.65 2753
1026.31 1123.65 2753
1032.89 1123.65 2753
1039.48 1123.65 2753
1046.06 1123.65 2753
1052.64 1123.65 2753
1057.3 1121.61 2748
1063.87 1121.61 2748
1068.89 1119.98 2744
1073.49 1117.94 2739
1080.04 1117.94 2739
1086.59 1117.94 2739
1087.95 1112.63 2726
1082.02 1099.98 2695
1090.08 1101.61 2699
1096.54 1101.61 2699
1102.99 1101.61 2699
1109.44 1101.61 2699
1110.52 1096.31 2686
1116.95 1096.31 2686
1123.37 1096.31 2686
1124.32 1091 2673
1123.53 1084.06 2656
1119.24 1073.86 2631
1125.53 1073.86 2631
1123.22 1065.7 2611
1129.46 1065.7 2611
1187.04 1084.06 2656
1193.39 1084.06 2656
1199.74 1084.06 2656
1210.18 1087.74 2665
1230.25 1099.98 2695
1240.82 1103.66 2704
1247.29 1103.66 2704
1263.95 1112.63 2726
1278.86 1119.98 2744
1287.3 1121.61 2748
1293.87 1121.61 2748
1302.81 1123.65 2753
1313.67 1127.33 2762
1320.27 1127.33 2762
1326.88 1127.33 2762
1335.9 1129.37 2767
1346.88 1133.04 2776
1360.35 1138.76 2790
1367.02 1138.76 2790
1373.69 1138.76 2790
1380.36 1138.76 2790
1387.03 1138.76 2790
1391.21 1136.72 2785
1393.35 1133.04 2776
1397.47 1131 2771
1406.63 1133.04 2776
1413.26 1133.04 2776
1419.9 1133.04 2776
1426.54 1133.04 2776
1428.53 1129.37 2767
1435.15 1129.37 2767
1436.56 1125.29 2757
1436.34 1119.98 2744
1442.91 1119.98 2744
1449.47 1119.98 2744
1456.03 1119.98 2744
1462.59 1119.98 2744
1469.15 1119.98 2744
1475.71 1119.98 2744
1482.28 1119.98 2744
1486.12 1117.94 2739
1487.77 1114.27 2730
1494.3 1114.27 2730
1500.83 1114.27 2730
1507.35 1114.27 2730
1511.66 1112.63 2726
1508.16 1105.29 2708
1514.63 1105.29 2708
1501.45 1091 2673
1505.59 1089.37 2669
1500.07 1080.8 2648
1510.95 1084.06 2656
1517.31 1084.06 2656
1523.66 1084.06 2656
1530.01 1084.06 2656
1536.36 1084.06 2656
1542.71 1084.06 2656
1529.82 1070.59 2623
1531.4 1067.33 2615
1532.95 1064.06 2607
1539.19 1064.06 2607
1545.42 1064.06 2607
1554.04 1065.7 2611
1560.28 1065.7 2611
1571.32 1068.96 2619
1577.59 1068.96 2619
1586.27 1070.59 2623
1602.86 1077.53 2640
1614.05 1080.8 2648
1620.38 1080.8 2648
1626.71 1080.8 2648
1633.05 1080.8 2648
1641.86 1082.43 2652
1648.2 1082.43 2652
1654.54 1082.43 2652
1653.37 1077.53 2640
1659.68 1077.53 2640
1660.31 1073.86 2631
1666.6 1073.86 2631
1672.89 1073.86 2631
1663.87 1064.06 2607
1670.1 1064.06 2607
1676.34 1064.06 2607
1671.6 1057.13 2590
1670.02 1052.23 2578
1676.18 1052.23 2578
1669.95 1044.47 2559
1673.45 1042.84 2555
1679.56 1042.84 2555
1685.67 1042.84 2555
1678.54 1034.68 2535
1682.6 1033.45 2532
1685.99 1031.82 2528
1692.04 1031.82 2528
1698.08 1031.82 2528
1701.43 1030.19 2524
1704.76 1028.55 2520
1710.79 1028.55 2520
1716.81 1028.55 2520
1722.84 1028.55 2520
1786.22 1044.47 2559
1797.94 1047.74 2567
1806.89 1049.37 2571
1813.04 1049.37 2571
1819.19 1049.37 2571
1816.81 1044.47 2559
1822.93 1044.47 2559
1899.39 1073.86 2631
1905.68 1073.86 2631
1911.97 1073.86 2631
1924.83 1077.53 2640
1931.14 1077.53 2640
1937.45 1077.53 2640
1940.08 1075.49 2635
1937.52 1070.59 2623
1943.79 1070.59 2623
1932.22 1060.8 2599
1938.44 1060.8 2599
1944.65 1060.8 2599
1950.87 1060.8 2599
1957.08 1060.8 2599
1963.3 1060.8 2599
1984.67 1068.96 2619
1990.93 1068.96 2619
1997.19 1068.96 2619
2003.46 1068.96 2619
-1518.25 986.967 2404
-1552.77 1013.24 2468
-1558.15 1020.63 2486
-1552.2 1020.63 2486
-1551.23 1023.92 2494
-1558.9 1032.95 2516
-1557.82 1036.23 2524
-1551.78 1036.23 2524
-1552.49 1040.75 2535
-1548.86 1042.39 2539
-1547.65 1045.68 2547
-1541.56 1045.68 2547
-1535.47 1045.68 2547
-1531.78 1047.32 2551
-1554.39 1067.02 2599
-1548.18 1067.02 2599
-1544.33 1068.67 2603
-1540.47 1070.31 2607
-1534.24 1070.31 2607
-1528 1070.31 2607
-1526.44 1073.59 2615
-1529.49 1080.16 2631
-1530.72 1085.5 2644
-1524.4 1085.5 2644
-1524.97 1090.43 2656
-1518.62 1090.43 2656
-1512.26 1090.43 2656
-1113.47 1044.03 2543
-1119.58 1055.53 2571
-1118.19 1060.05 2582
-1112.02 1060.05 2582
-1105.84 1060.05 2582
-1099.67 1060.05 2582
-1093.5 1060.05 2582
-1087.32 1060.05 2582
-1077.8 1056.76 2574
-1068.73 1053.89 2567
-1073.77 1064.97 2594
-1067.56 1064.97 2594
-1061.36 1064.97 2594
-1044.17 1053.89 2567
-1038.04 1053.89 2567
-1031.9 1053.89 2567
-1019.36 1047.32 2551
-1013.26 1047.32 2551
-1007.16 1047.32 2551
-1001.06 1047.32 2551
-996.524 1048.96 2555
-990.414 1048.96 2555
-984.305 1048.96 2555
-978.195 1048.96 2555
-975.129 1052.24 2563
-972.025 1055.53 2571
-967.004 1056.76 2574
-960.848 1056.76 2574
-954.693 1056.76 2574
-947.432 1055.53 2571
-938.355 1052.24 2563
-932.227 1052.24 2563
-926.098 1052.24 2563
-922.84 1055.53 2571
-917.762 1056.76 2574
-913.023 1058.4 2578
-906.858 1058.4 2578
-902.091 1060.05 2582
-897.305 1061.69 2586
-893.878 1064.97 2594
-887.675 1064.97 2594
-884.53 1068.67 2603
-878.305 1068.67 2603
-872.081 1068.67 2603
-865.856 1068.67 2603
-859.632 1068.67 2603
-853.407 1068.67 2603
-847.182 1068.67 2603
-840.958 1068.67 2603
-831.847 1064.97 2594
-825.644 1064.97 2594
-823.548 1070.31 2607
-817.314 1070.31 2607
-812.324 1071.95 2611
-808.55 1075.24 2619
-803.513 1076.88 2623
-797.24 1076.88 2623
-790.968 1076.88 2623
-784.695 1076.88 2623
-778.423 1076.88 2623
-772.151 1076.88 2623
-762.375 1071.95 2611
-753.814 1068.67 2603
-747.589 1068.67 2603
-737.662 1063.33 2590
-728.08 1058.4 2578
-720.795 1056.76 2574
-714.64 1056.76 2574
-707.659 1055.53 2571
-699.328 1052.24 2563
-693.199 1052.24 2563
-690.019 1056.76 2574
-688.115 1063.33 2590
-691.663 1078.52 2627
-686.424 1080.16 2631
-680.133 1080.16 2631
-673.841 1080.16 2631
-666.535 1078.52 2627
-646.178 1055.53 2571
-637.043 1050.6 2559
-630.924 1050.6 2559
-623.828 1048.96 2555
-618.685 1050.6 2559
-614.481 1053.89 2567
-610.001 1056.76 2574
-603.846 1056.76 2574
-597.691 1056.76 2574
-595.212 1063.33 2590
-589.019 1063.33 2590
-582.826 1063.33 2590
-576.632 1063.33 2590
-572.421 1067.02 2599
-567.077 1068.67 2603
-560.853 1068.67 2603
-554.628 1068.67 2603
-548.404 1068.67 2603
-542.179 1068.67 2603
-533.278 1063.33 2590
-526.27 1061.69 2586
-520.086 1061.69 2586
-513.902 1061.69 2586
-507.718 1061.69 2586
-501.535 1061.69 2586
-495.351 1061.69 2586
-489.167 1061.69 2586
-482.983 1061.69 2586
-476.799 1061.69 2586
-471.343 1063.33 2590
-465.868 1064.97 2594
-459.665 1064.97 2594
-453.462 1064.97 2594
-448.121 1067.02 2599
-441.906 1067.02 2599
-435.691 1067.02 2599
-429.476 1067.02 2599
-422.447 1064.97 2594
-417.688 1068.67 2603
-412.095 1070.31 2607
-405.861 1070.31 2607
-399.627 1070.31 2607
-393.997 1071.95 2611
-387.753 1071.95 2611
-381.509 1071.95 2611
-375.266 1071.95 2611
-369.022 1071.95 2611
-362.778 1071.95 2611
-356.534 1071.95 2611
-350.291 1071.95 2611
-342.993 1068.67 2603
-336.768 1068.67 2603
-328.893 1063.33 2590
-321.204 1058.4 2578
-314.551 1056.76 2574
-308.396 1056.76 2574
-301.888 1055.53 2571
-296.545 1058.4 2578
-290.381 1058.4 2578
-284.216 1058.4 2578
-278.051 1058.4 2578
-271.886 1058.4 2578
-265.721 1058.4 2578
-259.557 1058.4 2578
-252.999 1056.76 2574
-246.556 1055.53 2571
-240.408 1055.53 2571
-234.26 1055.53 2571
-228.378 1056.76 2574
-222.223 1056.76 2574
-216.403 1058.4 2578
-210.565 1060.05 2582
-204.39 1060.05 2582
-198.216 1060.05 2582
-192.339 1061.69 2586
-186.155 1061.69 2586
-179.971 1061.69 2586
-173.787 1061.69 2586
-167.603 1061.69 2586
-160.92 1058.4 2578
-154.755 1058.4 2578
-146.573 1044.03 2543
