ply
format ascii 1.0
comment File generated
element vertex 2151
property float x
property float y
property float z
end_header
681.334 -59.4625 2881
688.224 -59.4625 2881
695.113 -59.4625 2881
702.003 -59.4625 2881
708.892 -59.4625 2881
715.781 -59.4625 2881
722.671 -59.4625 2881
729.56 -59.4625 2881
736.449 -59.4625 2881
743.339 -59.4625 2881
750.228 -59.4625 2881
755.803 -59.3593 2876
762.681 -59.3593 2876
769.558 -59.3593 2876
776.435 -59.3593 2876
783.313 -59.3593 2876
790.19 -59.3593 2876
797.068 -59.3593 2876
803.945 -59.3593 2876
810.822 -59.3593 2876
816.278 -59.2562 2871
823.144 -59.2562 2871
830.009 -59.2562 2871
836.874 -59.2562 2871
845.209 -59.3593 2876
852.087 -59.3593 2876
858.964 -59.3593 2876
867.347 -59.4625 2881
874.236 -59.4625 2881
881.125 -59.4625 2881
886.474 -59.3593 2876
894.904 -59.4625 2881
906.489 -59.7721 2896
918.145 -60.0817 2911
925.106 -60.0817 2911
935.589 -60.3088 2922
947.415 -60.6184 2937
959.638 -60.9486 2953
966.7 -60.9486 2953
978.707 -61.2582 2968
998.426 -62.0425 3006
1010.97 -62.3727 3022
1018.19 -62.3727 3022
1046.46 -63.6524 3084
1077.75 -65.0971 3154
1105.94 -66.3355 3214
1113.63 -66.3355 3214
1136.66 -67.2437 3258
1165.18 -68.4614 3317
1189.38 -69.4108 3363
1197.42 -69.4108 3363
1218.01 -70.1332 3398
1238.76 -70.8556 3433
1252.06 -71.1445 3447
1260.3 -71.1445 3447
1268.54 -71.1445 3447
1276.79 -71.1445 3447
1292.86 -71.578 3468
1301.15 -71.578 3468
1315.11 -71.8876 3483
1323.44 -71.8876 3483
1331.77 -71.8876 3483
1340.1 -71.8876 3483
1345.71 -71.7431 3476
1350.91 -71.578 3468
1356.46 -71.4335 3461
1364.74 -71.4335 3461
1370.24 -71.289 3454
1364.53 -70.5666 3419
1358.65 -69.8442 3384
1366.74 -69.8442 3384
1371.99 -69.6998 3377
1377.2 -69.5553 3370
1385.26 -69.5553 3370
1393.32 -69.5553 3370
1395.98 -69.287 3357
1395.64 -68.8742 3337
1395.21 -68.4614 3317
1403.14 -68.4614 3317
1411.07 -68.4614 3317
1413.01 -68.1724 3303
1418.33 -68.0486 3297
1431.84 -68.3169 3310
1445.41 -68.5852 3323
1453.35 -68.5852 3323
1461.3 -68.5852 3323
1466.59 -68.4614 3317
1474.53 -68.4614 3317
1482.46 -68.4614 3317
1490.39 -68.4614 3317
1498.32 -68.4614 3317
1506.25 -68.4614 3317
1514.18 -68.4614 3317
1518.9 -68.3169 3310
1532.82 -68.5852 3323
1553.28 -69.1425 3350
1561.29 -69.1425 3350
1585.23 -69.8442 3384
1609.8 -70.5666 3419
1634.54 -71.289 3454
1642.8 -71.289 3454
1651.06 -71.289 3454
1659.32 -71.289 3454
1657.44 -70.8556 3433
1665.65 -70.8556 3433
1663.62 -70.4221 3412
1668.35 -70.2777 3405
1666.15 -69.8442 3384
1674.24 -69.8442 3384
1675.38 -69.5553 3370
1679.94 -69.4108 3363
1671.42 -68.7297 3330
1679.38 -68.7297 3330
1680.76 -68.4614 3317
1695.31 -68.7297 3330
1703.27 -68.7297 3330
1711.23 -68.7297 3330
1719.2 -68.7297 3330
1720.42 -68.4614 3317
1708.03 -67.6564 3278
1709.06 -67.3881 3265
1716.87 -67.3881 3265
1717.81 -67.1198 3252
1725.58 -67.1198 3252
1733.36 -67.1198 3252
1741.14 -67.1198 3252
1748.91 -67.1198 3252
1756.69 -67.1198 3252
1750.9 -66.6038 3227
1758.62 -66.6038 3227
1746.08 -65.8402 3190
1730.62 -64.9733 3148
1724.9 -64.478 3124
1706.86 -63.5285 3078
1714.22 -63.5285 3078
1687.46 -62.2695 3017
1685.13 -61.9187 3000
1665.79 -60.9486 2953
1672.85 -60.9486 2953
1647.49 -59.7721 2896
1634.99 -59.0704 2862
1630.36 -58.6576 2842
1631.39 -58.4512 2832
1638.17 -58.4512 2832
1633.9 -58.0591 2813
1635.38 -57.8733 2804
1639.16 -57.7701 2799
1645.85 -57.7701 2799
1647.23 -57.5843 2790
1647.97 -57.378 2780
1654.62 -57.378 2780
1661.27 -57.378 2780
1662.52 -57.1922 2771
1663.72 -57.0064 2762
1670.33 -57.0064 2762
1673.9 -56.9032 2757
1680.49 -56.9032 2757
1687.08 -56.9032 2757
1688.15 -56.7175 2748
1694.72 -56.7175 2748
1701.29 -56.7175 2748
1705.37 -56.6349 2744
1706.32 -56.4492 2735
1712.86 -56.4492 2735
1719.4 -56.4492 2735
1720.26 -56.2634 2726
1723.61 -56.1602 2721
1730.12 -56.1602 2721
1734.07 -56.0777 2717
1740.57 -56.0777 2717
1747.07 -56.0777 2717
1747.76 -55.8919 2708
1748.4 -55.7062 2699
1754.86 -55.7062 2699
1758.7 -55.6236 2695
1759.25 -55.4378 2686
1763.04 -55.3553 2682
1769.46 -55.3553 2682
1769.91 -55.1695 2673
1776.3 -55.1695 2673
1780.03 -55.087 2669
1786.41 -55.087 2669
1787.42 -54.9218 2661
1793.78 -54.9218 2661
1796.76 -54.8186 2656
1803.11 -54.8186 2656
1812.87 -54.9218 2661
1819.24 -54.9218 2661
1825.6 -54.9218 2661
1828.52 -54.8186 2656
1834.87 -54.8186 2656
1838.45 -54.7361 2652
1844.79 -54.7361 2652
1851.13 -54.7361 2652
1857.47 -54.7361 2652
1858.19 -54.571 2644
1864.52 -54.571 2644
1870.84 -54.571 2644
1877.16 -54.571 2644
1883.48 -54.571 2644
1883.37 -54.3852 2635
1886.81 -54.3027 2631
1890.22 -54.2201 2627
1896.5 -54.2201 2627
1899.89 -54.1375 2623
1906.16 -54.1375 2623
1912.43 -54.1375 2623
1918.7 -54.1375 2623
1924.98 -54.1375 2623
1928.3 -54.055 2619
1934.57 -54.055 2619
1940.83 -54.055 2619
1947.09 -54.055 2619
1953.35 -54.055 2619
1959.62 -54.055 2619
1962.88 -53.9724 2615
1969.13 -53.9724 2615
1975.38 -53.9724 2615
1981.64 -53.9724 2615
1981.81 -53.8073 2607
1988.04 -53.8073 2607
1991.22 -53.7248 2603
-2044.02 -49.8062 2730
-2044.21 -49.9704 2739
-2037.66 -49.9704 2739
-2031.11 -49.9704 2739
-2024.56 -49.9704 2739
-2018.01 -49.9704 2739
-2015.13 -50.0617 2744
-2008.57 -50.0617 2744
-2004.92 -50.1346 2748
-1998.35 -50.1346 2748
-1991.78 -50.1346 2748
-1985.21 -50.1346 2748
-1985.12 -50.2988 2757
-1985.7 -50.4813 2767
-1979.09 -50.4813 2767
-1972.47 -50.4813 2767
-1972.25 -50.6455 2776
-2005.26 -51.6671 2832
-2047.18 -52.926 2901
-2040.24 -52.926 2901
-2118.12 -55.1335 3022
-2130.45 -55.6443 3050
-2123.15 -55.6443 3050
-2175.52 -57.2133 3136
-2180.47 -57.5417 3154
-2244.57 -59.4391 3258
-2236.78 -59.4391 3258
-2233.78 -59.5668 3265
-2230.06 -59.6763 3271
-2222.24 -59.6763 3271
-2214.42 -59.6763 3271
-2241.68 -60.625 3323
-2256.58 -61.2453 3357
-2257.26 -61.4824 3370
-2249.21 -61.4824 3370
-2241.15 -61.4824 3370
-2242.37 -61.7378 3384
-2238.9 -61.8655 3391
-2230.79 -61.8655 3391
-2222.68 -61.8655 3391
-2228.28 -62.2487 3412
-2233.79 -62.6318 3433
-2225.58 -62.6318 3433
-2230.93 -63.0149 3454
-2236.83 -63.4163 3476
-2228.52 -63.4163 3476
-2220.21 -63.4163 3476
-2211.89 -63.4163 3476
-2203.58 -63.4163 3476
-2223.06 -64.219 3520
-2214.64 -64.219 3520
-2224.4 -64.7481 3549
-2215.91 -64.7481 3549
-2207.43 -64.7481 3549
-2198.94 -64.7481 3549
-2190.45 -64.7481 3549
-2181.97 -64.7481 3549
-2192.46 -65.3137 3580
-2183.9 -65.3137 3580
-2184.46 -65.5873 3595
-2200.07 -66.3171 3635
-2191.38 -66.3171 3635
-2182.69 -66.3171 3635
-2173.99 -66.3171 3635
-2169.47 -66.4448 3642
-2170.25 -66.7367 3658
-2161.51 -66.7367 3658
-2158.06 -66.9009 3667
-2149.29 -66.9009 3667
-2140.52 -66.9009 3667
-2131.75 -66.9009 3667
-2122.98 -66.9009 3667
-2114.21 -66.9009 3667
-2105.44 -66.9009 3667
-2091.53 -66.7367 3658
-2073.67 -66.4448 3642
-2064.96 -66.4448 3642
-2060.77 -66.5908 3650
-2052.04 -66.5908 3650
-2043.31 -66.5908 3650
-2034.58 -66.5908 3650
-2025.86 -66.5908 3650
-2008.84 -66.3171 3635
-1995.74 -66.1711 3627
-1982.69 -66.0252 3619
-1974.03 -66.0252 3619
-1965.38 -66.0252 3619
-1956.73 -66.0252 3619
-1948.07 -66.0252 3619
-1939.42 -66.0252 3619
-1926.49 -65.8792 3611
-1909.36 -65.5873 3595
-1900.77 -65.5873 3595
-1892.17 -65.5873 3595
-1879.9 -65.4596 3588
-1867.15 -65.3137 3580
-1862.74 -65.4596 3588
-1857.78 -65.5873 3595
-1849.18 -65.5873 3595
-1840.59 -65.5873 3595
-1831.99 -65.5873 3595
-1823.39 -65.5873 3595
-1814.8 -65.5873 3595
-1798.66 -65.3137 3580
-1790.1 -65.3137 3580
-1789.01 -65.5873 3595
-1780.41 -65.5873 3595
-1771.81 -65.5873 3595
-1763.22 -65.5873 3595
-1754.62 -65.5873 3595
-1746.02 -65.5873 3595
-1734.04 -65.4596 3588
-1725.46 -65.4596 3588
-1713.06 -65.3137 3580
-1704.5 -65.3137 3580
-1692.14 -65.1677 3572
-1680.3 -65.04 3565
-1671.78 -65.04 3565
-1663.25 -65.04 3565
-1654.73 -65.04 3565
-1646.2 -65.04 3565
-1630.33 -64.7481 3549
-1621.84 -64.7481 3549
-1613.35 -64.7481 3549
-1604.87 -64.7481 3549
-1596.38 -64.7481 3549
-1587.89 -64.7481 3549
-1579.41 -64.7481 3549
-1567.82 -64.6204 3542
-1552.75 -64.3467 3527
-1544.32 -64.3467 3527
-1532.83 -64.219 3520
-1514.45 -63.7994 3497
-1506.09 -63.7994 3497
-1497.73 -63.7994 3497
-1486.39 -63.6717 3490
-1472.11 -63.4163 3476
-1457.48 -63.1426 3461
-1449.21 -63.1426 3461
-1438.02 -63.0149 3454
-1423.96 -62.7595 3440
-1415.73 -62.7595 3440
-1407.51 -62.7595 3440
-1376.5 -61.7378 3384
-1346.58 -60.7527 3330
-1307.26 -59.3296 3252
-1277.1 -58.308 3196
-1269.46 -58.308 3196
-1247.6 -57.6512 3160
-1225.92 -56.9944 3124
-1207.14 -56.4653 3095
-1199.74 -56.4653 3095
-1175 -55.6443 3050
-1155.07 -55.0423 3017
-1135.3 -54.4402 2984
-1120.23 -54.0571 2963
-1113.14 -54.0571 2963
-1096.35 -53.5828 2937
-1087.47 -53.4915 2932
-1085.99 -53.7652 2947
-1081.14 -53.8747 2953
-1074.08 -53.8747 2953
-1068.82 -53.9659 2958
-1061.75 -53.9659 2958
-1054.68 -53.9659 2958
-1041.94 -53.674 2942
-1034.9 -53.674 2942
-1027.87 -53.674 2942
-1020.83 -53.674 2942
-1012.07 -53.5828 2937
-1001.63 -53.4003 2927
-992.93 -53.3091 2922
-985.942 -53.3091 2922
-975.27 -53.1084 2911
-970.304 -53.2179 2917
-963.329 -53.2179 2917
-956.354 -53.2179 2917
-949.378 -53.2179 2917
-942.403 -53.2179 2917
-935.427 -53.2179 2917
-928.452 -53.2179 2917
-921.476 -53.2179 2917
-914.501 -53.2179 2917
-907.526 -53.2179 2917
-900.55 -53.2179 2917
-891.737 -53.1084 2911
-884.776 -53.1084 2911
-877.815 -53.1084 2911
-870.853 -53.1084 2911
-863.892 -53.1084 2911
-856.931 -53.1084 2911
-849.97 -53.1084 2911
-843.009 -53.1084 2911
-836.048 -53.1084 2911
-829.087 -53.1084 2911
-822.126 -53.1084 2911
-815.165 -53.1084 2911
-808.204 -53.1084 2911
-801.243 -53.1084 2911
-794.282 -53.1084 2911
-787.32 -53.1084 2911
-780.359 -53.1084 2911
-773.398 -53.1084 2911
-765.121 -53.0172 2906
-756.867 -52.926 2901
-749.93 -52.926 2901
-742.993 -52.926 2901
-736.056 -52.926 2901
-727.862 -52.8347 2896
-720.937 -52.8347 2896
-714.011 -52.8347 2896
-705.865 -52.7435 2891
-697.743 -52.6523 2886
-690.842 -52.6523 2886
-683.941 -52.6523 2886
-675.866 -52.5611 2881
-667.816 -52.4699 2876
-662.088 -52.5611 2881
-655.198 -52.5611 2881
-648.309 -52.5611 2881
-641.42 -52.5611 2881
-634.53 -52.5611 2881
-627.641 -52.5611 2881
-623.984 -52.8347 2896
-620.254 -53.1084 2911
-615.611 -53.3091 2922
-608.623 -53.3091 2922
-606.784 -53.7652 2947
-606.249 -54.349 2979
-611.192 -55.4436 3039
-603.925 -55.4436 3039
-608.83 -56.5748 3101
-622.167 -58.5269 3208
-626.563 -59.6763 3271
-618.741 -59.6763 3271
-614.468 -60.0229 3290
-608.997 -60.2601 3303
-603.647 -60.5155 3317
-595.715 -60.5155 3317
-591.327 -60.8804 3337
-586.843 -61.2453 3357
-582.264 -61.6101 3377
-574.189 -61.6101 3377
-566.113 -61.6101 3377
-559.194 -61.7378 3384
-554.522 -62.121 3405
-546.38 -62.121 3405
-539.344 -62.2487 3412
-535.544 -62.7595 3440
-527.318 -62.7595 3440
-519.092 -62.7595 3440
-512.945 -63.0149 3454
-505.708 -63.1426 3461
-497.432 -63.1426 3461
-489.155 -63.1426 3461
-480.879 -63.1426 3461
-471.647 -63.0149 3454
-463.387 -63.0149 3454
-454.205 -62.8872 3447
-445.963 -62.8872 3447
-437.72 -62.8872 3447
-429.477 -62.8872 3447
-418.668 -62.5041 3426
-407.121 -61.9933 3398
-396.529 -61.6101 3377
-387.648 -61.4824 3370
-379.59 -61.4824 3370
-370.098 -61.2453 3357
-362.07 -61.2453 3357
-353.304 -61.1175 3350
-345.294 -61.1175 3350
-333.96 -60.5155 3317
-320.229 -59.4391 3258
-312.438 -59.4391 3258
-304.647 -59.4391 3258
-296.31 -59.3296 3252
-284.097 -58.4174 3202
-275.404 -58.1985 3190
-267.776 -58.1985 3190
-167.587 -37.4915 2055
-162.673 -37.4915 2055
-157.145 -37.3456 2047
-152.25 -37.3456 2047
-146.131 -37.0354 2030
-141.068 -36.9807 2027
-136.422 -37.0354 2030
-133.318 -37.528 2057
-128.399 -37.528 2057
-123.66 -37.5827 2060
-119.022 -37.6739 2065
-114.195 -37.7104 2067
-109.252 -37.7104 2067
-104.461 -37.7652 2070
-99.7509 -37.8564 2075
-94.926 -37.9111 2078
-89.9569 -37.9111 2078
-84.9877 -37.9111 2078
-80.0186 -37.9111 2078
-75.1217 -37.9476 2080
-70.1478 -37.9476 2080
-65.2679 -38.0023 2083
-60.2868 -38.0023 2083
-55.4385 -38.0936 2088
-50.6387 -38.2395 2096
-45.6265 -38.2395 2096
-40.6144 -38.2395 2096
-35.6022 -38.2395 2096
-30.59 -38.2395 2096
-25.5779 -38.2395 2096
-20.5657 -38.2395 2096
-15.5313 -38.1848 2093
-10.5263 -38.1848 2093
-5.51598 -38.1483 2091
-0.515029 -38.0936 2088
4.47158 -38.0388 2085
9.45744 -38.0388 2085
14.4433 -38.0388 2085
19.4105 -38.0023 2083
24.3916 -38.0023 2083
29.3727 -38.0023 2083
34.3538 -38.0023 2083
39.3726 -38.0388 2085
44.3585 -38.0388 2085
49.3444 -38.0388 2085
54.3302 -38.0388 2085
59.4015 -38.0936 2088
64.3945 -38.0936 2088
69.3875 -38.0936 2088
74.3806 -38.0936 2088
79.3736 -38.0936 2088
84.3667 -38.0936 2088
89.3597 -38.0936 2088
94.3527 -38.0936 2088
99.3458 -38.0936 2088
104.489 -38.1483 2091
109.751 -38.2395 2096
114.872 -38.276 2098
119.889 -38.276 2098
124.906 -38.276 2098
130.109 -38.3307 2101
135.455 -38.422 2106
140.491 -38.422 2106
145.527 -38.422 2106
151.135 -38.5679 2114
156.634 -38.6774 2120
161.703 -38.6774 2120
166.93 -38.7139 2122
172.247 -38.7686 2125
177.83 -38.8781 2131
182.926 -38.8781 2131
188.463 -38.9693 2136
194.295 -39.1152 2144
199.98 -39.2247 2150
205.122 -39.2247 2150
210.556 -39.2794 2153
215.905 -39.3159 2155
221.059 -39.3159 2155
226.212 -39.3159 2155
231.687 -39.3706 2158
238.384 -39.6261 2172
244.924 -39.845 2184
250.146 -39.845 2184
256.304 -39.9909 2192
261.546 -39.9909 2192
266.788 -39.9909 2192
272.03 -39.9909 2192
412.895 -56.3558 3089
420.282 -56.3558 3089
427.669 -56.3558 3089
432.661 -56.0457 3072
437.572 -55.7355 3055
444.878 -55.7355 3055
448.187 -55.243 3028
451.216 -54.7321 3000
455.181 -54.349 2979
462.305 -54.349 2979
468.641 -54.2578 2974
472.393 -53.8747 2953
476.857 -53.5828 2937
481.409 -53.3091 2922
488.396 -53.3091 2922
492.671 -53.0172 2906
499.62 -53.0172 2906
503.955 -52.7435 2891
510.868 -52.7435 2891
517.781 -52.7435 2891
523.787 -52.6523 2886
530.688 -52.6523 2886
537.59 -52.6523 2886
543.548 -52.5611 2881
550.437 -52.5611 2881
557.326 -52.5611 2881
564.216 -52.5611 2881
570.114 -52.4699 2876
576.991 -52.4699 2876
583.869 -52.4699 2876
590.746 -52.4699 2876
596.584 -52.3786 2871
603.45 -52.3786 2871
610.315 -52.3786 2871
618.255 -52.4699 2876
625.133 -52.4699 2876
632.01 -52.4699 2876
638.888 -52.4699 2876
645.765 -52.4699 2876
653.777 -52.5611 2881
660.666 -52.5611 2881
667.556 -52.5611 2881
674.445 -52.5611 2881
681.334 -52.5611 2881
688.224 -52.5611 2881
695.113 -52.5611 2881
702.003 -52.5611 2881
708.892 -52.5611 2881
715.781 -52.5611 2881
722.671 -52.5611 2881
729.56 -52.5611 2881
736.449 -52.5611 2881
743.339 -52.5611 2881
750.228 -52.5611 2881
755.803 -52.4699 2876
762.681 -52.4699 2876
769.558 -52.4699 2876
776.435 -52.4699 2876
783.313 -52.4699 2876
790.19 -52.4699 2876
797.068 -52.4699 2876
803.945 -52.4699 2876
810.822 -52.4699 2876
816.278 -52.3786 2871
823.144 -52.3786 2871
830.009 -52.3786 2871
836.874 -52.3786 2871
845.209 -52.4699 2876
852.087 -52.4699 2876
858.964 -52.4699 2876
867.347 -52.5611 2881
874.236 -52.5611 2881
881.125 -52.5611 2881
886.474 -52.4699 2876
894.904 -52.5611 2881
906.489 -52.8347 2896
918.145 -53.1084 2911
925.106 -53.1084 2911
935.589 -53.3091 2922
947.415 -53.5828 2937
959.638 -53.8747 2953
966.7 -53.8747 2953
978.707 -54.1483 2968
998.426 -54.8416 3006
1010.97 -55.1335 3022
1018.19 -55.1335 3022
1046.46 -56.2646 3084
1077.75 -57.5417 3154
1105.94 -58.6364 3214
1113.63 -58.6364 3214
1136.66 -59.4391 3258
1165.18 -60.5155 3317
1189.38 -61.3547 3363
1197.42 -61.3547 3363
1215.5 -61.8655 3391
1231.19 -62.2487 3412
1239.35 -62.2487 3412
1247.5 -62.2487 3412
1255.66 -62.2487 3412
1263.82 -62.2487 3412
1279.81 -62.6318 3433
1288.02 -62.6318 3433
1306.8 -63.1426 3461
1317.74 -63.2703 3468
1326.03 -63.2703 3468
1334.32 -63.2703 3468
1339.91 -63.1426 3461
1345.46 -63.0149 3454
1350.97 -62.8872 3447
1359.22 -62.8872 3447
1356.35 -62.3764 3419
1353.35 -61.8655 3391
1350.22 -61.3547 3363
1358.26 -61.3547 3363
1366.3 -61.3547 3363
1371.89 -61.2453 3357
1377.04 -61.1175 3350
1385.05 -61.1175 3350
1390.15 -60.9898 3343
1392.71 -60.7527 3330
1395.21 -60.5155 3317
1403.14 -60.5155 3317
1411.07 -60.5155 3317
1413.01 -60.2601 3303
1418.33 -60.1506 3297
1431.84 -60.3878 3310
1445.41 -60.625 3323
1453.35 -60.625 3323
1461.3 -60.625 3323
1466.59 -60.5155 3317
1474.53 -60.5155 3317
1482.46 -60.5155 3317
1490.39 -60.5155 3317
1498.32 -60.5155 3317
1506.25 -60.5155 3317
1514.18 -60.5155 3317
1518.9 -60.3878 3310
1526.82 -60.3878 3310
1547.25 -60.8804 3337
1555.23 -60.8804 3337
1575.39 -61.3547 3363
1590.03 -61.6101 3377
1617.98 -62.3764 3419
1629.48 -62.5041 3426
1637.68 -62.5041 3426
1645.87 -62.5041 3426
1647.3 -62.2487 3412
1655.46 -62.2487 3412
1643.14 -61.4824 3370
1651.2 -61.4824 3370
1652.86 -61.2453 3357
1660.89 -61.2453 3357
1661.95 -60.9898 3343
1663.45 -60.7527 3330
1657.86 -60.2601 3303
1665.76 -60.2601 3303
1670.62 -60.1506 3297
1688.69 -60.5155 3317
1696.62 -60.5155 3317
1704.55 -60.5155 3317
1712.48 -60.5155 3317
1703.3 -59.9134 3284
1701.25 -59.5668 3265
1702.26 -59.3296 3252
1710.03 -59.3296 3252
1717.81 -59.3296 3252
1725.58 -59.3296 3252
1733.36 -59.3296 3252
1741.14 -59.3296 3252
1748.91 -59.3296 3252
1756.69 -59.3296 3252
1747.65 -58.7641 3221
1755.35 -58.7641 3221
1739.52 -57.9796 3178
1730.62 -57.4322 3148
1724.9 -56.9944 3124
1706.86 -56.1552 3078
1714.22 -56.1552 3078
1687.46 -55.0423 3017
1685.13 -54.7321 3000
1665.79 -53.8747 2953
1672.85 -53.8747 2953
1647.49 -52.8347 2896
1634.99 -52.2145 2862
1630.36 -51.8496 2842
1631.39 -51.6671 2832
1638.17 -51.6671 2832
1633.9 -51.3205 2813
1635.38 -51.1563 2804
1639.16 -51.0651 2799
1645.85 -51.0651 2799
1647.23 -50.9009 2790
1647.97 -50.7184 2780
1654.62 -50.7184 2780
1661.27 -50.7184 2780
1662.52 -50.5542 2771
1663.72 -50.39 2762
1670.33 -50.39 2762
1673.9 -50.2988 2757
1680.49 -50.2988 2757
1687.08 -50.2988 2757
1688.15 -50.1346 2748
1694.72 -50.1346 2748
1701.29 -50.1346 2748
1705.37 -50.0617 2744
1706.32 -49.8975 2735
1712.86 -49.8975 2735
1719.4 -49.8975 2735
1720.26 -49.7333 2726
1723.61 -49.642 2721
1730.12 -49.642 2721
1734.07 -49.5691 2717
1740.57 -49.5691 2717
1747.07 -49.5691 2717
1747.76 -49.4049 2708
1748.4 -49.2407 2699
1754.86 -49.2407 2699
1758.7 -49.1677 2695
1759.25 -49.0035 2686
1763.04 -48.9305 2682
1769.46 -48.9305 2682
1769.91 -48.7663 2673
1776.3 -48.7663 2673
1780.03 -48.6933 2669
1786.41 -48.6933 2669
1787.42 -48.5474 2661
1793.78 -48.5474 2661
1796.76 -48.4562 2656
1803.11 -48.4562 2656
1812.87 -48.5474 2661
1819.24 -48.5474 2661
1825.6 -48.5474 2661
1828.52 -48.4562 2656
1834.87 -48.4562 2656
1838.45 -48.3832 2652
1844.79 -48.3832 2652
1851.13 -48.3832 2652
1857.47 -48.3832 2652
1858.19 -48.2372 2644
1864.52 -48.2372 2644
1870.84 -48.2372 2644
1877.16 -48.2372 2644
1883.48 -48.2372 2644
1883.37 -48.0731 2635
1886.81 -48.0001 2631
1890.22 -47.9271 2627
1896.5 -47.9271 2627
1899.89 -47.8541 2623
1906.16 -47.8541 2623
1912.43 -47.8541 2623
1918.7 -47.8541 2623
1924.98 -47.8541 2623
1928.3 -47.7811 2619
1934.57 -47.7811 2619
1940.83 -47.7811 2619
1947.09 -47.7811 2619
1953.35 -47.7811 2619
1959.62 -47.7811 2619
1962.88 -47.7082 2615
1969.13 -47.7082 2615
1975.38 -47.7082 2615
1981.64 -47.7082 2615
1981.81 -47.5622 2607
1988.04 -47.5622 2607
1991.22 -47.4892 2603
-2047.76 -43.3457 2735
-2044.21 -43.4091 2739
-2037.66 -43.4091 2739
-2031.11 -43.4091 2739
-2024.56 -43.4091 2739
-2018.01 -43.4091 2739
-2015.13 -43.4884 2744
-2008.57 -43.4884 2744
-2004.92 -43.5518 2748
-1998.35 -43.5518 2748
-1991.78 -43.5518 2748
-1985.21 -43.5518 2748
-1985.12 -43.6944 2757
-1982.11 -43.7737 2762
-1975.51 -43.7737 2762
-1968.91 -43.7737 2762
-1965.85 -43.8529 2767
-1995.35 -44.6612 2818
-2036.6 -45.7389 2886
-2029.69 -45.7389 2886
-2102.7 -47.5456 3000
-2122.76 -48.1637 3039
-2115.5 -48.1637 3039
-2175.52 -49.701 3136
-2184.61 -50.0814 3160
-2258.35 -51.9515 3278
-2250.51 -51.9515 3278
-2242.67 -51.9515 3278
-2234.84 -51.9515 3278
-2227 -51.9515 3278
-2210.36 -51.7455 3265
-2251.12 -52.8866 3337
-2265.32 -53.4096 3370
-2266.64 -53.6314 3384
-2258.55 -53.6314 3384
-2250.46 -53.6314 3384
-2265.56 -54.1861 3419
-2257.38 -54.1861 3419
-2249.21 -54.1861 3419
-2245.62 -54.2971 3426
-2242 -54.408 3433
-2252.01 -54.8518 3461
-2243.73 -54.8518 3461
-2245.14 -55.0895 3476
-2241.34 -55.2004 3483
-2233.01 -55.2004 3483
-2224.68 -55.2004 3483
-2216.35 -55.2004 3483
-2216.9 -55.4223 3497
-2223.06 -55.7868 3520
-2214.64 -55.7868 3520
-2224.4 -56.2464 3549
-2220.91 -56.3732 3557
-2212.4 -56.3732 3557
-2203.9 -56.3732 3557
-2190.45 -56.2464 3549
-2181.97 -56.2464 3549
-2192.46 -56.7378 3580
-2183.9 -56.7378 3580
-2184.46 -56.9755 3595
-2200.07 -57.6094 3635
-2191.38 -57.6094 3635
-2182.69 -57.6094 3635
-2173.99 -57.6094 3635
-2169.47 -57.7204 3642
-2170.25 -57.9739 3658
-2161.51 -57.9739 3658
-2158.06 -58.1166 3667
-2149.29 -58.1166 3667
-2140.52 -58.1166 3667
-2131.75 -58.1166 3667
-2122.98 -58.1166 3667
-2114.21 -58.1166 3667
-2105.44 -58.1166 3667
-2091.53 -57.9739 3658
-2073.67 -57.7204 3642
-2064.96 -57.7204 3642
-2060.77 -57.8471 3650
-2052.04 -57.8471 3650
-2043.31 -57.8471 3650
-2034.58 -57.8471 3650
-2025.86 -57.8471 3650
-2008.84 -57.6094 3635
-1995.74 -57.4826 3627
-1987.07 -57.4826 3627
-1978.4 -57.4826 3627
-1965.38 -57.3558 3619
-1956.73 -57.3558 3619
-1948.07 -57.3558 3619
-1939.42 -57.3558 3619
-1926.49 -57.2291 3611
-1909.36 -56.9755 3595
-1900.77 -56.9755 3595
-1892.17 -56.9755 3595
-1879.9 -56.8645 3588
-1867.15 -56.7378 3580
-1862.74 -56.8645 3588
-1861.92 -57.1023 3603
-1853.3 -57.1023 3603
-1844.68 -57.1023 3603
-1836.07 -57.1023 3603
-1827.45 -57.1023 3603
-1814.8 -56.9755 3595
-1798.66 -56.7378 3580
-1794.1 -56.8645 3588
-1789.01 -56.9755 3595
-1780.41 -56.9755 3595
-1771.81 -56.9755 3595
-1763.22 -56.9755 3595
-1754.62 -56.9755 3595
-1746.02 -56.9755 3595
-1737.43 -56.9755 3595
-1728.83 -56.9755 3595
-1720.23 -56.9755 3595
-1711.64 -56.9755 3595
-1695.93 -56.7378 3580
-1683.6 -56.611 3572
-1675.06 -56.611 3572
-1666.52 -56.611 3572
-1657.98 -56.611 3572
-1649.44 -56.611 3572
-1640.89 -56.611 3572
-1632.35 -56.611 3572
-1623.81 -56.611 3572
-1615.27 -56.611 3572
-1606.73 -56.611 3572
-1598.19 -56.611 3572
-1586.53 -56.5 3565
-1574.46 -56.3732 3557
-1559.35 -56.1355 3542
-1550.88 -56.1355 3542
-1535.88 -55.8978 3527
-1524.42 -55.7868 3520
-1509.54 -55.5491 3505
-1501.16 -55.5491 3505
-1489.37 -55.4223 3497
-1472.11 -55.0895 3476
-1460.43 -54.9627 3468
-1452.14 -54.9627 3468
-1440.93 -54.8518 3461
-1429.76 -54.7408 3454
-1415.73 -54.519 3440
-1407.51 -54.519 3440
-1385.05 -53.9643 3405
-1368.41 -53.6314 3384
-1322.53 -52.1417 3290
-1287.09 -51.0481 3221
-1279.39 -51.0481 3221
-1254.71 -50.3666 3178
-1230.63 -49.701 3136
-1211.82 -49.2414 3107
-1204.39 -49.2414 3107
-1183.48 -48.6867 3072
-1167.71 -48.338 3050
-1143.67 -47.6407 3006
-1136.49 -47.6407 3006
-1119.15 -47.2128 2979
-1102.33 -46.8007 2953
-1095.26 -46.8007 2953
-1090.04 -46.88 2958
-1084.8 -46.9592 2963
-1077.72 -46.9592 2963
-1070.63 -46.9592 2963
-1063.55 -46.9592 2963
-1056.46 -46.9592 2963
-1049.37 -46.9592 2963
-1042.29 -46.9592 2963
-1033.46 -46.88 2958
-1026.38 -46.88 2958
-1015.52 -46.7056 2947
-1005.05 -46.5471 2937
-994.629 -46.3887 2927
-987.63 -46.3887 2927
-980.63 -46.3887 2927
-971.968 -46.3094 2922
-964.98 -46.3094 2922
-957.993 -46.3094 2922
-949.378 -46.2302 2917
-942.403 -46.2302 2917
-935.427 -46.2302 2917
-930.043 -46.3094 2922
-923.056 -46.3094 2922
-916.069 -46.3094 2922
-907.526 -46.2302 2917
-900.55 -46.2302 2917
-891.737 -46.1351 2911
-884.776 -46.1351 2911
-877.815 -46.1351 2911
-870.853 -46.1351 2911
-863.892 -46.1351 2911
-856.931 -46.1351 2911
-849.97 -46.1351 2911
-843.009 -46.1351 2911
-836.048 -46.1351 2911
-829.087 -46.1351 2911
-822.126 -46.1351 2911
-815.165 -46.1351 2911
-808.204 -46.1351 2911
-801.243 -46.1351 2911
-794.282 -46.1351 2911
-787.32 -46.1351 2911
-780.359 -46.1351 2911
-773.398 -46.1351 2911
-766.437 -46.1351 2911
-758.172 -46.0558 2906
-751.222 -46.0558 2906
-744.273 -46.0558 2906
-736.056 -45.9766 2901
-729.118 -45.9766 2901
-722.181 -45.9766 2901
-714.011 -45.8974 2896
-707.086 -45.8974 2896
-698.952 -45.8181 2891
-692.039 -45.8181 2891
-683.941 -45.7389 2886
-675.866 -45.6596 2881
-667.816 -45.5804 2876
-663.237 -45.7389 2886
-656.335 -45.7389 2886
-649.434 -45.7389 2886
-642.533 -45.7389 2886
-636.733 -45.8181 2891
-629.82 -45.8181 2891
-625.061 -45.9766 2901
-620.254 -46.1351 2911
-615.611 -46.3094 2922
-608.623 -46.3094 2922
-604.725 -46.5471 2937
-607.266 -47.292 2984
-613.404 -48.338 3050
-606.111 -48.338 3050
-608.83 -49.1463 3101
-619.839 -50.6519 3196
-626.563 -51.8406 3271
-618.741 -51.8406 3271
-614.468 -52.1417 3290
-611.578 -52.5696 3317
-604.738 -52.6647 3323
-596.792 -52.6647 3323
-592.39 -52.9816 3343
-590.339 -53.5205 3377
-583.471 -53.6314 3384
-575.379 -53.6314 3384
-569.633 -53.8533 3398
-563.821 -54.0752 3412
-555.662 -54.0752 3412
-547.503 -54.0752 3412
-543.77 -54.519 3440
-537.723 -54.7408 3454
-530.537 -54.8518 3461
-522.261 -54.8518 3461
-515.024 -54.9627 3468
-507.9 -55.0895 3476
-499.588 -55.0895 3476
-491.275 -55.0895 3476
-482.963 -55.0895 3476
-473.559 -54.9627 3468
-465.266 -54.9627 3468
-456.05 -54.8518 3461
-446.868 -54.7408 3454
-438.609 -54.7408 3454
-430.349 -54.7408 3454
-421.234 -54.6299 3447
-410.475 -54.2971 3426
-398.995 -53.8533 3398
-388.454 -53.5205 3377
-380.378 -53.5205 3377
-371.531 -53.4096 3370
-363.472 -53.4096 3370
-354.043 -53.2035 3357
-346.015 -53.2035 3357
-334.564 -52.6647 3323
-320.917 -51.7455 3265
-312.438 -51.6345 3258
-304.647 -51.6345 3258
-296.857 -51.6345 3258
-284.097 -50.747 3202
-171.83 -32.4419 2047
-166.935 -32.4419 2047
-162.04 -32.4419 2047
-156.915 -32.3944 2044
-152.027 -32.3944 2044
-145.915 -32.125 2027
-141.068 -32.125 2027
-136.422 -32.1725 2030
-133.318 -32.6004 2057
-128.399 -32.6004 2057
-123.78 -32.6797 2062
-119.022 -32.7272 2065
-114.195 -32.7589 2067
-109.252 -32.7589 2067
-104.461 -32.8065 2070
-99.7509 -32.8857 2075
-94.926 -32.9333 2078
-89.9569 -32.9333 2078
-84.9877 -32.9333 2078
-80.0186 -32.9333 2078
-75.2301 -33.0125 2083
-70.249 -33.0125 2083
-65.2679 -33.0125 2083
-60.2868 -33.0125 2083
-55.4385 -33.0917 2088
-50.6387 -33.2185 2096
-45.6265 -33.2185 2096
-40.6144 -33.2185 2096
-35.6022 -33.2185 2096
-30.59 -33.2185 2096
-25.5779 -33.2185 2096
-20.5657 -33.2185 2096
-15.5313 -33.171 2093
-10.5263 -33.171 2093
-5.51598 -33.1393 2091
-0.515029 -33.0917 2088
4.47801 -33.0917 2088
9.47105 -33.0917 2088
14.4641 -33.0917 2088
19.4292 -33.0442 2085
24.415 -33.0442 2085
29.4009 -33.0442 2085
34.3538 -33.0125 2083
39.3726 -33.0442 2085
44.3585 -33.0442 2085
49.3444 -33.0442 2085
54.3302 -33.0442 2085
59.3161 -33.0442 2085
64.3945 -33.0917 2088
69.3875 -33.0917 2088
74.3806 -33.0917 2088
79.3736 -33.0917 2088
84.3667 -33.0917 2088
89.3597 -33.0917 2088
94.3527 -33.0917 2088
99.3458 -33.0917 2088
104.489 -33.1393 2091
109.751 -33.2185 2096
114.872 -33.2502 2098
119.889 -33.2502 2098
124.906 -33.2502 2098
130.109 -33.2978 2101
135.455 -33.377 2106
140.491 -33.377 2106
145.527 -33.377 2106
151.135 -33.5038 2114
156.634 -33.5989 2120
161.703 -33.5989 2120
166.93 -33.6306 2122
172.491 -33.7257 2128
177.83 -33.7732 2131
182.926 -33.7732 2131
188.463 -33.8525 2136
194.295 -33.9793 2144
200.259 -34.1219 2153
205.408 -34.1219 2153
210.752 -34.1536 2155
216.206 -34.2011 2158
221.366 -34.2011 2158
226.527 -34.2011 2158
232.331 -34.2962 2164
239.372 -34.5657 2181
245.821 -34.74 2192
251.063 -34.74 2192
257.708 -34.9302 2204
263.336 -34.9777 2207
268.614 -34.9777 2207
273.891 -34.9777 2207
279.169 -34.9777 2207
414.499 -49.1463 3101
421.915 -49.1463 3101
429.33 -49.1463 3101
435.055 -48.9561 3089
438.432 -48.5124 3061
445.751 -48.5124 3061
450.555 -48.2429 3044
452.119 -47.6407 3006
455.181 -47.2128 2979
462.305 -47.2128 2979
468.641 -47.1335 2974
473.193 -46.88 2958
477.669 -46.6264 2942
482.233 -46.3887 2927
489.232 -46.3887 2927
493.519 -46.1351 2911
499.62 -46.0558 2906
504.826 -45.8974 2896
511.751 -45.8974 2896
517.781 -45.8181 2891
523.787 -45.7389 2886
530.688 -45.7389 2886
537.59 -45.7389 2886
544.491 -45.7389 2886
550.437 -45.6596 2881
557.326 -45.6596 2881
564.216 -45.6596 2881
571.105 -45.6596 2881
576.991 -45.5804 2876
583.869 -45.5804 2876
590.746 -45.5804 2876
597.623 -45.5804 2876
604.501 -45.5804 2876
611.378 -45.5804 2876
618.255 -45.5804 2876
625.133 -45.5804 2876
632.01 -45.5804 2876
638.888 -45.5804 2876
645.765 -45.5804 2876
653.777 -45.6596 2881
660.666 -45.6596 2881
668.714 -45.7389 2886
675.616 -45.7389 2886
682.517 -45.7389 2886
688.224 -45.6596 2881
695.113 -45.6596 2881
702.003 -45.6596 2881
708.892 -45.6596 2881
715.781 -45.6596 2881
722.671 -45.6596 2881
729.56 -45.6596 2881
736.449 -45.6596 2881
743.339 -45.6596 2881
750.228 -45.6596 2881
755.803 -45.5804 2876
762.681 -45.5804 2876
769.558 -45.5804 2876
776.435 -45.5804 2876
783.313 -45.5804 2876
790.19 -45.5804 2876
797.068 -45.5804 2876
803.945 -45.5804 2876
810.822 -45.5804 2876
816.278 -45.5011 2871
823.144 -45.5011 2871
830.009 -45.5011 2871
838.332 -45.5804 2876
845.209 -45.5804 2876
853.568 -45.6596 2881
860.457 -45.6596 2881
867.347 -45.6596 2881
874.236 -45.6596 2881
881.125 -45.6596 2881
888.015 -45.6596 2881
898.01 -45.8181 2891
911.184 -46.1351 2911
923.191 -46.3887 2927
930.191 -46.3887 2927
941.993 -46.6264 2942
955.802 -46.9592 2963
974.912 -47.5456 3000
982.086 -47.5456 3000
996.514 -47.8943 3022
1009.39 -48.1637 3039
1022.01 -48.4173 3055
1029.31 -48.4173 3055
1055.96 -49.3206 3112
1085.95 -50.3666 3178
1105.94 -50.9372 3214
1113.63 -50.9372 3214
1136.66 -51.6345 3258
1165.18 -52.5696 3317
1187.26 -53.2035 3357
1195.29 -53.2035 3357
1207.97 -53.4096 3370
1221.08 -53.6314 3384
1229.18 -53.6314 3384
1237.27 -53.6314 3384
1245.36 -53.6314 3384
1248.27 -53.4096 3370
1266.76 -53.8533 3398
1274.89 -53.8533 3398
1296.23 -54.408 3433
1304.44 -54.408 3433
1312.65 -54.408 3433
1320.86 -54.408 3433
1329.07 -54.408 3433
1331.82 -54.1861 3419
1337.26 -54.0752 3412
1345.41 -54.0752 3412
1348.02 -53.8533 3398
1347.76 -53.5205 3377
1342.19 -52.9816 3343
1350.18 -52.9816 3343
1358.18 -52.9816 3343
1366.17 -52.9816 3343
1374.17 -52.9816 3343
1382.16 -52.9816 3343
1384.75 -52.7756 3330
1392.71 -52.7756 3330
1397.73 -52.6647 3323
1405.68 -52.6647 3323
1411.07 -52.5696 3317
1413.01 -52.3477 3303
1418.33 -52.2526 3297
1431.84 -52.4586 3310
1445.41 -52.6647 3323
1453.35 -52.6647 3323
1461.3 -52.6647 3323
1466.59 -52.5696 3317
1474.53 -52.5696 3317
1482.46 -52.5696 3317
1490.39 -52.5696 3317
1498.32 -52.5696 3317
1506.25 -52.5696 3317
1514.18 -52.5696 3317
1518.9 -52.4586 3310
1526.82 -52.4586 3310
1540.76 -52.6647 3323
1548.71 -52.6647 3323
1569.3 -53.0926 3350
1583.44 -53.2986 3363
1598.1 -53.5205 3377
1606.18 -53.5205 3377
1614.25 -53.5205 3377
1622.33 -53.5205 3377
1627.02 -53.4096 3370
1635.08 -53.4096 3370
1629.98 -52.9816 3343
1635.03 -52.8866 3337
1636.12 -52.6647 3323
1644.06 -52.6647 3323
1652.01 -52.6647 3323
1649.97 -52.3477 3303
1651.34 -52.1417 3290
1659.21 -52.1417 3290
1664.03 -52.0466 3284
1678.51 -52.2526 3297
1686.39 -52.2526 3297
1694.27 -52.2526 3297
1698.54 -52.1417 3290
1703.3 -52.0466 3284
1701.25 -51.7455 3265
1705.4 -51.6345 3258
1713.19 -51.6345 3258
1720.98 -51.6345 3258
1732.48 -51.7455 3265
1740.29 -51.7455 3265
1748.1 -51.7455 3265
1752.14 -51.6345 3258
1756.69 -51.5394 3252
1754.16 -51.2383 3233
1761.89 -51.2383 3233
1755.94 -50.8421 3208
1743.82 -50.2715 3172
1738.15 -49.8912 3148
1729.04 -49.4157 3118
1736.5 -49.4157 3118
1727.73 -48.9561 3089
1709.84 -48.2429 3044
1692.3 -47.5456 3000
1699.48 -47.5456 3000
1670.81 -46.5471 2937
1645.84 -45.6596 2881
1641.83 -45.3585 2862
1637.16 -45.0415 2842
1643.95 -45.0415 2842
1644.94 -44.883 2832
1643.55 -44.6612 2818
1642.09 -44.4393 2804
1648.79 -44.4393 2804
1652.54 -44.36 2799
1653.9 -44.2174 2790
1654.62 -44.0589 2780
1661.27 -44.0589 2780
1665.52 -43.9955 2776
1666.73 -43.8529 2767
1670.33 -43.7737 2762
1673.9 -43.6944 2757
1680.49 -43.6944 2757
1687.08 -43.6944 2757
1693.68 -43.6944 2757
1694.72 -43.5518 2748
1701.29 -43.5518 2748
1705.37 -43.4884 2744
1708.82 -43.4091 2739
1712.86 -43.3457 2735
1719.4 -43.3457 2735
1722.79 -43.2665 2730
1726.78 -43.2031 2726
1730.12 -43.1239 2721
1736.63 -43.1239 2721
1743.13 -43.1239 2721
1747.07 -43.0605 2717
1747.76 -42.9178 2708
1751.64 -42.8544 2704
1758.11 -42.8544 2704
1758.7 -42.7118 2695
1762.53 -42.6484 2691
1765.67 -42.5692 2686
1772.1 -42.5692 2686
1775.87 -42.5058 2682
1779.63 -42.4424 2678
1782.7 -42.3631 2673
1789.09 -42.3631 2673
1790.11 -42.2363 2665
1793.78 -42.1729 2661
1800.15 -42.1729 2661
1809.22 -42.2363 2665
1815.6 -42.2363 2665
1821.97 -42.2363 2665
1828.34 -42.2363 2665
1831.96 -42.1729 2661
1838.33 -42.1729 2661
1841.22 -42.0937 2656
1847.57 -42.0937 2656
1851.13 -42.0303 2652
1857.47 -42.0303 2652
1863.82 -42.0303 2652
1867.34 -41.9669 2648
1873.67 -41.9669 2648
1880 -41.9669 2648
1886.33 -41.9669 2648
1886.95 -41.8401 2640
1889.68 -41.7609 2635
1895.98 -41.7609 2635
1902.28 -41.7609 2635
1905.68 -41.6975 2631
1911.97 -41.6975 2631
1915.35 -41.6341 2627
1921.63 -41.6341 2627
1924.98 -41.5707 2623
1931.25 -41.5707 2623
1937.52 -41.5707 2623
1943.79 -41.5707 2623
1950.07 -41.5707 2623
1956.34 -41.5707 2623
1959.62 -41.5073 2619
1965.88 -41.5073 2619
1972.14 -41.5073 2619
1978.41 -41.5073 2619
1981.64 -41.4439 2615
1984.85 -41.3805 2611
1991.09 -41.3805 2611
1991.22 -41.2537 2603
-2047.76 -36.794 2735
-2044.21 -36.8478 2739
-2037.66 -36.8478 2739
-2031.11 -36.8478 2739
-2024.56 -36.8478 2739
-2021.69 -36.9151 2744
-2015.13 -36.9151 2744
-2008.57 -36.9151 2744
-2004.92 -36.9689 2748
-1998.35 -36.9689 2748
-1991.78 -36.9689 2748
-1985.21 -36.9689 2748
-1988.72 -37.1573 2762
-1985.7 -37.2245 2767
-1979.09 -37.2245 2767
-1972.47 -37.2245 2767
-1965.85 -37.2245 2767
-1995.35 -37.9106 2818
-2036.6 -38.8254 2886
-2029.69 -38.8254 2886
-2087.98 -40.0766 2979
-2107.4 -40.5878 3017
-2100.18 -40.5878 3017
-2167.2 -42.0272 3124
-2184.61 -42.5116 3160
-2258.35 -44.099 3278
-2250.51 -44.099 3278
-2242.67 -44.099 3278
-2234.84 -44.099 3278
-2227 -44.099 3278
-2214.42 -44.0048 3271
-2255.17 -44.9735 3343
-2274.73 -45.525 3384
-2280.71 -45.8075 3405
-2272.57 -45.8075 3405
-2273.73 -45.9959 3419
-2270.2 -46.0901 3426
-2275.87 -46.3726 3447
-2267.63 -46.3726 3447
-2259.38 -46.3726 3447
-2260.28 -46.5609 3461
-2256.56 -46.6551 3468
-2248.27 -46.6551 3468
-2249.66 -46.8569 3483
-2245.84 -46.9511 3490
-2237.49 -46.9511 3490
-2229.15 -46.9511 3490
-2220.8 -46.9511 3490
-2216.9 -47.0452 3497
-2223.06 -47.3546 3520
-2214.64 -47.3546 3520
-2224.4 -47.7448 3549
-2220.91 -47.8524 3557
-2212.4 -47.8524 3557
-2203.9 -47.8524 3557
-2190.45 -47.7448 3549
-2181.97 -47.7448 3549
-2192.46 -48.1618 3580
-2183.9 -48.1618 3580
-2184.46 -48.3636 3595
-2190.39 -48.6865 3619
-2191.38 -48.9017 3635
-2182.69 -48.9017 3635
-2173.99 -48.9017 3635
-2169.47 -48.9959 3642
-2170.25 -49.2112 3658
-2161.51 -49.2112 3658
-2158.06 -49.3322 3667
-2149.29 -49.3322 3667
-2140.52 -49.3322 3667
-2131.75 -49.3322 3667
-2122.98 -49.3322 3667
-2114.21 -49.3322 3667
-2105.44 -49.3322 3667
-2091.53 -49.2112 3658
-2073.67 -48.9959 3642
-2060.99 -48.9017 3635
-2060.77 -49.1035 3650
-2052.04 -49.1035 3650
-2043.31 -49.1035 3650
-2034.58 -49.1035 3650
-2025.86 -49.1035 3650
-2008.84 -48.9017 3635
-2000.15 -48.9017 3635
-1987.07 -48.7941 3627
-1978.4 -48.7941 3627
-1969.72 -48.7941 3627
-1961.05 -48.7941 3627
-1948.07 -48.6865 3619
-1939.42 -48.6865 3619
-1926.49 -48.5789 3611
-1909.36 -48.3636 3595
-1900.77 -48.3636 3595
-1892.17 -48.3636 3595
-1879.9 -48.2695 3588
-1867.15 -48.1618 3580
-1862.74 -48.2695 3588
-1866.05 -48.5789 3611
-1857.41 -48.5789 3611
-1848.78 -48.5789 3611
-1836.07 -48.4712 3603
-1827.45 -48.4712 3603
-1818.84 -48.4712 3603
-1802.68 -48.2695 3588
-1797.6 -48.3636 3595
-1792.99 -48.4712 3603
-1784.37 -48.4712 3603
-1775.76 -48.4712 3603
-1767.14 -48.4712 3603
-1758.53 -48.4712 3603
-1749.91 -48.4712 3603
-1741.29 -48.4712 3603
-1732.68 -48.4712 3603
-1724.06 -48.4712 3603
-1715.45 -48.4712 3603
-1699.72 -48.2695 3588
-1691.14 -48.2695 3588
-1682.56 -48.2695 3588
-1673.98 -48.2695 3588
-1661.69 -48.1618 3580
-1653.13 -48.1618 3580
-1640.89 -48.0542 3572
-1632.35 -48.0542 3572
-1623.81 -48.0542 3572
-1618.89 -48.1618 3580
-1610.33 -48.1618 3580
-1601.76 -48.1618 3580
-1589.64 -48.0542 3572
-1578 -47.96 3565
-1562.43 -47.7448 3549
-1553.95 -47.7448 3549
-1535.88 -47.4488 3527
-1524.42 -47.3546 3520
-1516 -47.3546 3520
-1507.58 -47.3546 3520
-1489.37 -47.0452 3497
-1472.11 -46.7627 3476
-1460.43 -46.6551 3468
-1452.14 -46.6551 3468
-1440.93 -46.5609 3461
-1432.65 -46.5609 3461
-1415.73 -46.2784 3440
-1407.51 -46.2784 3440
-1393.59 -46.0901 3426
-1368.41 -45.525 3384
-1335.8 -44.7044 3323
-1294.29 -43.5743 3239
-1286.54 -43.5743 3239
-1261.82 -42.9959 3196
-1237.69 -42.4308 3154
-1220.79 -42.108 3130
-1213.31 -42.108 3130
-1188.1 -41.4891 3084
-1174.22 -41.2604 3067
-1153.95 -40.803 3033
-1146.69 -40.803 3033
-1123.29 -40.2245 2990
-1107.92 -39.9286 2968
-1098.97 -39.8613 2963
-1095.94 -40.0093 2974
-1090.66 -40.0766 2979
-1083.54 -40.0766 2979
-1076.41 -40.0766 2979
-1069.29 -40.0766 2979
-1062.16 -40.0766 2979
-1053.27 -40.0093 2974
-1046.16 -40.0093 2974
-1036.95 -39.9286 2968
-1029.85 -39.9286 2968
-1019.31 -39.794 2958
-1008.47 -39.6461 2947
-998.027 -39.5115 2937
-991.004 -39.5115 2937
-982.305 -39.4443 2932
-973.631 -39.377 2927
-966.631 -39.377 2927
-959.632 -39.377 2927
-952.633 -39.377 2927
-945.633 -39.377 2927
-938.634 -39.377 2927
-931.635 -39.377 2927
-923.056 -39.3097 2922
-916.069 -39.3097 2922
-909.081 -39.3097 2922
-902.094 -39.3097 2922
-891.737 -39.1618 2911
-884.776 -39.1618 2911
-877.815 -39.1618 2911
-870.853 -39.1618 2911
-863.892 -39.1618 2911
-856.931 -39.1618 2911
-849.97 -39.1618 2911
-843.009 -39.1618 2911
-836.048 -39.1618 2911
-829.087 -39.1618 2911
-823.82 -39.2425 2917
-816.845 -39.2425 2917
-809.87 -39.2425 2917
-802.894 -39.2425 2917
-795.919 -39.2425 2917
-788.943 -39.2425 2917
-781.968 -39.2425 2917
-773.398 -39.1618 2911
-766.437 -39.1618 2911
-759.476 -39.1618 2911
-752.515 -39.1618 2911
-745.554 -39.1618 2911
-737.324 -39.0945 2906
-730.375 -39.0945 2906
-723.426 -39.0945 2906
-715.244 -39.0272 2901
-708.307 -39.0272 2901
-700.161 -38.96 2896
-693.236 -38.96 2896
-685.126 -38.8927 2891
-677.039 -38.8254 2886
-670.138 -38.8254 2886
-664.386 -38.8927 2891
-657.473 -38.8927 2891
-650.559 -38.8927 2891
-643.646 -38.8927 2891
-636.733 -38.8927 2891
-629.82 -38.8927 2891
-627.216 -39.1618 2911
-622.598 -39.3097 2922
-616.664 -39.377 2927
-609.665 -39.377 2927
-608.019 -39.7268 2953
-610.522 -40.3591 3000
-613.404 -41.0317 3050
-606.111 -41.0317 3050
-608.83 -41.7178 3101
-619.839 -42.9959 3196
-626.563 -44.0048 3271
-618.741 -44.0048 3271
-614.468 -44.2605 3290
-612.685 -44.7044 3323
-608.378 -44.9735 3343
-600.384 -44.9735 3343
-595.934 -45.2425 3363
-591.563 -45.525 3384
-588.299 -45.9017 3412
-580.14 -45.9017 3412
-571.98 -45.9017 3412
-568.448 -46.2784 3440
-560.222 -46.2784 3440
-551.996 -46.2784 3440
-547.089 -46.5609 3461
-539.903 -46.6551 3468
-532.836 -46.7627 3476
-524.524 -46.7627 3476
-517.251 -46.8569 3483
-510.968 -47.0452 3497
-502.606 -47.0452 3497
-494.243 -47.0452 3497
-485.881 -47.0452 3497
-477.519 -47.0452 3497
-469.156 -47.0452 3497
-460.794 -47.0452 3497
-452.431 -47.0452 3497
-442.291 -46.8569 3483
-433.962 -46.8569 3483
-422.945 -46.5609 3461
-412.991 -46.3726 3447
-403.105 -46.1842 3433
-394.895 -46.1842 3433
-385.897 -46.0901 3426
-377.705 -46.0901 3426
-369.512 -46.0901 3426
-357.628 -45.6192 3391
-349.52 -45.6192 3391
-337.987 -45.1618 3357
-324.652 -44.4353 3303
-312.438 -43.83 3258
-304.647 -43.83 3258
-296.857 -43.83 3258
-175.861 -27.4038 2037
-171.83 -27.5383 2047
-166.935 -27.5383 2047
-162.04 -27.5383 2047
-156.915 -27.498 2044
-152.027 -27.498 2044
-146.131 -27.3096 2030
-141.068 -27.2693 2027
-136.557 -27.3365 2032
-133.318 -27.6729 2057
-128.399 -27.6729 2057
-123.78 -27.7401 2062
-119.022 -27.7805 2065
-114.084 -27.7805 2065
-109.146 -27.7805 2065
-104.461 -27.8478 2070
-99.6067 -27.8747 2072
-94.7889 -27.915 2075
-89.827 -27.915 2075
-84.9877 -27.9554 2078
-80.0186 -27.9554 2078
-75.2301 -28.0227 2083
-70.249 -28.0227 2083
-65.2679 -28.0227 2083
-60.2868 -28.0227 2083
-55.4385 -28.0899 2088
-50.6387 -28.1975 2096
-45.6265 -28.1975 2096
-40.6144 -28.1975 2096
-35.6022 -28.1975 2096
-30.59 -28.1975 2096
-25.5779 -28.1975 2096
-20.5657 -28.1975 2096
-15.5313 -28.1572 2093
-10.5263 -28.1572 2093
-5.51598 -28.1303 2091
-0.515769 -28.1303 2091
4.47801 -28.0899 2088
9.47105 -28.0899 2088
14.4641 -28.0899 2088
19.4292 -28.0496 2085
24.415 -28.0496 2085
29.4009 -28.0496 2085
34.3868 -28.0496 2085
39.3726 -28.0496 2085
44.3585 -28.0496 2085
49.4154 -28.0899 2088
54.4084 -28.0899 2088
59.4015 -28.0899 2088
64.3945 -28.0899 2088
69.3875 -28.0899 2088
74.3806 -28.0899 2088
79.3736 -28.0899 2088
84.3667 -28.0899 2088
89.3597 -28.0899 2088
94.3527 -28.0899 2088
99.3458 -28.0899 2088
104.339 -28.0899 2088
109.751 -28.1975 2096
114.763 -28.1975 2096
119.775 -28.1975 2096
124.906 -28.2244 2098
130.109 -28.2648 2101
135.326 -28.3052 2104
140.357 -28.3052 2104
145.527 -28.3321 2106
151.135 -28.4397 2114
156.412 -28.4801 2117
161.474 -28.4801 2117
166.93 -28.5473 2122
172.734 -28.6684 2131
178.247 -28.7357 2136
183.355 -28.7357 2136
188.992 -28.8164 2142
194.839 -28.924 2150
200.446 -28.9913 2155
205.599 -28.9913 2155
211.045 -29.0316 2158
216.506 -29.072 2161
221.982 -29.1123 2164
227.157 -29.1123 2164
233.19 -29.22 2172
239.921 -29.4083 2186
247.167 -29.6505 2204
252.437 -29.6505 2204
258.76 -29.7715 2213
264.648 -29.8388 2218
269.952 -29.8388 2218
275.256 -29.8388 2218
280.56 -29.8388 2218
414.499 -41.7178 3101
421.915 -41.7178 3101
429.33 -41.7178 3101
435.055 -41.5564 3089
439.291 -41.2604 3067
446.625 -41.2604 3067
451.443 -41.0317 3050
452.119 -40.4398 3006
456.862 -40.2245 2990
464.012 -40.2245 2990
469.429 -40.0766 2979
473.993 -39.8613 2963
477.669 -39.5788 2942
482.233 -39.377 2927
489.232 -39.377 2927
493.519 -39.1618 2911
500.48 -39.1618 2911
505.698 -39.0272 2901
512.635 -39.0272 2901
517.781 -38.8927 2891
524.694 -38.8927 2891
531.608 -38.8927 2891
538.521 -38.8927 2891
544.491 -38.8254 2886
551.392 -38.8254 2886
558.294 -38.8254 2886
565.195 -38.8254 2886
571.105 -38.7582 2881
577.994 -38.7582 2881
583.869 -38.6909 2876
590.746 -38.6909 2876
597.623 -38.6909 2876
604.501 -38.6909 2876
611.378 -38.6909 2876
619.33 -38.7582 2881
626.22 -38.7582 2881
633.109 -38.7582 2881
639.998 -38.7582 2881
646.888 -38.7582 2881
654.912 -38.8254 2886
661.813 -38.8254 2886
668.714 -38.8254 2886
675.616 -38.8254 2886
682.517 -38.8254 2886
689.418 -38.8254 2886
696.32 -38.8254 2886
702.003 -38.7582 2881
708.892 -38.7582 2881
715.781 -38.7582 2881
722.671 -38.7582 2881
729.56 -38.7582 2881
736.449 -38.7582 2881
743.339 -38.7582 2881
750.228 -38.7582 2881
757.117 -38.7582 2881
764.007 -38.7582 2881
769.558 -38.6909 2876
776.435 -38.6909 2876
783.313 -38.6909 2876
790.19 -38.6909 2876
797.068 -38.6909 2876
803.945 -38.6909 2876
810.822 -38.6909 2876
817.7 -38.6909 2876
824.577 -38.6909 2876
831.455 -38.6909 2876
838.332 -38.6909 2876
846.679 -38.7582 2881
855.049 -38.8254 2886
861.951 -38.8254 2886
868.852 -38.8254 2886
875.753 -38.8254 2886
884.184 -38.8927 2891
891.097 -38.8927 2891
899.563 -38.96 2896
916.192 -39.377 2927
927.923 -39.5788 2942
934.958 -39.5788 2942
948.717 -39.8613 2963
967.738 -40.3591 3000
982.061 -40.655 3022
989.288 -40.655 3022
1002.12 -40.8837 3039
1013.04 -41.0317 3050
1027.69 -41.3277 3072
1035.04 -41.3277 3072
1057.99 -41.9465 3118
1088 -42.8344 3184
1105.94 -43.238 3214
1113.63 -43.238 3214
1136.66 -43.83 3258
1162.72 -44.5295 3310
1184.78 -45.0676 3350
1192.79 -45.0676 3350
1205.46 -45.2425 3363
1216.03 -45.3367 3370
1224.09 -45.3367 3370
1232.15 -45.3367 3370
1237.63 -45.2425 3363
1243.45 -45.1618 3357
1256.32 -45.3367 3370
1274.89 -45.7134 3398
1283.01 -45.7134 3398
1301.78 -46.0901 3426
1309.97 -46.0901 3426
1318.16 -46.0901 3426
1326.36 -46.0901 3426
1331.82 -45.9959 3419
1331.77 -45.7134 3398
1339.89 -45.7134 3398
1342.47 -45.525 3384
1336.99 -45.0676 3350
1342.19 -44.9735 3343
1350.18 -44.9735 3343
1355.74 -44.8927 3337
1363.72 -44.8927 3337
1371.7 -44.8927 3337
1379.68 -44.8927 3337
1384.75 -44.7986 3330
1392.71 -44.7986 3330
1397.73 -44.7044 3323
1405.68 -44.7044 3323
1408.09 -44.5295 3310
1413.01 -44.4353 3303
1415.32 -44.2605 3290
1428.81 -44.4353 3303
1439.75 -44.5295 3310
1447.67 -44.5295 3310
1455.58 -44.5295 3310
1460.4 -44.4353 3303
1471.41 -44.5295 3310
1479.33 -44.5295 3310
1487.24 -44.5295 3310
1498.32 -44.6237 3317
1506.25 -44.6237 3317
1514.18 -44.6237 3317
1512.94 -44.3546 3297
1520.82 -44.3546 3297
1528.71 -44.3546 3297
1542.65 -44.5295 3310
1550.57 -44.5295 3310
1558.48 -44.5295 3310
1588.64 -45.1618 3357
1596.67 -45.1618 3357
1604.69 -45.1618 3357
1612.72 -45.1618 3357
1620.75 -45.1618 3357
1628.78 -45.1618 3357
1623.64 -44.7986 3330
1628.17 -44.7044 3323
1629.72 -44.5295 3310
1637.63 -44.5295 3310
1645.55 -44.5295 3310
1646.97 -44.3546 3297
1648.33 -44.1797 3284
1656.18 -44.1797 3284
1660.99 -44.099 3278
1671.89 -44.1797 3284
1679.74 -44.1797 3284
1687.59 -44.1797 3284
1695.45 -44.1797 3284
1700.19 -44.099 3278
1704.38 -44.0048 3271
1709.06 -43.9241 3265
1720.02 -44.0048 3271
1727.84 -44.0048 3271
1735.67 -44.0048 3271
1743.49 -44.0048 3271
1751.31 -44.0048 3271
1755.91 -43.9241 3265
1763.71 -43.9241 3265
1764.47 -43.7492 3252
1772.24 -43.7492 3252
1759.22 -43.238 3214
1750.41 -42.8344 3184
1751.4 -42.673 3172
1745.68 -42.3501 3148
1753.21 -42.3501 3148
1747.31 -42.0272 3124
1735.12 -41.5564 3089
1717.12 -40.951 3044
1724.4 -40.951 3044
1682.76 -39.794 2958
1654.41 -38.96 2896
1652.73 -38.7582 2881
1648.68 -38.5026 2862
1655.52 -38.5026 2862
1650.75 -38.2335 2842
1649.38 -38.0452 2828
1650.28 -37.9106 2818
1657.02 -37.9106 2818
1655.5 -37.7223 2804
1659.24 -37.655 2799
1657.6 -37.4667 2785
1664.26 -37.4667 2785
1665.52 -37.3456 2776
1669.14 -37.2783 2771
1673.35 -37.2245 2767
1673.9 -37.09 2757
1680.49 -37.09 2757
1687.08 -37.09 2757
1693.68 -37.09 2757
1694.72 -36.9689 2748
1701.29 -36.9689 2748
1705.37 -36.9151 2744
1708.82 -36.8478 2739
1712.86 -36.794 2735
1719.4 -36.794 2735
1722.79 -36.7268 2730
1726.78 -36.6729 2726
1730.12 -36.6057 2721
1736.63 -36.6057 2721
1743.13 -36.6057 2721
1747.07 -36.5519 2717
1747.76 -36.4308 2708
1751.64 -36.377 2704
1758.11 -36.377 2704
1761.31 -36.3097 2699
1765.15 -36.2559 2695
1768.96 -36.2021 2691
1775.4 -36.2021 2691
1775.87 -36.081 2682
1782.28 -36.081 2682
1786.03 -36.0272 2678
1792.43 -36.0272 2678
1792.79 -35.9061 2669
1796.48 -35.8523 2665
1802.85 -35.8523 2665
1814.66 -35.9599 2673
1821.05 -35.9599 2673
1827.44 -35.9599 2673
1833.83 -35.9599 2673
1834.72 -35.8523 2665
1841.09 -35.8523 2665
1844.69 -35.7985 2661
1851.05 -35.7985 2661
1857.41 -35.7985 2661
1863.78 -35.7985 2661
1863.82 -35.6774 2652
1870.16 -35.6774 2652
1873.67 -35.6236 2648
1880 -35.6236 2648
1886.33 -35.6236 2648
1886.95 -35.516 2640
1889.68 -35.4487 2635
1895.98 -35.4487 2635
1902.28 -35.4487 2635
1908.58 -35.4487 2635
1914.88 -35.4487 2635
1918.26 -35.3949 2631
1924.56 -35.3949 2631
1930.85 -35.3949 2631
1934.19 -35.3411 2627
1937.52 -35.2873 2623
1943.79 -35.2873 2623
1950.07 -35.2873 2623
1956.34 -35.2873 2623
1962.61 -35.2873 2623
1968.88 -35.2873 2623
1975.16 -35.2873 2623
1981.43 -35.2873 2623
1987.7 -35.2873 2623
1990.93 -35.2335 2619
1997.19 -35.2335 2619
1997.34 -35.1258 2611
-2047.76 -30.2423 2735
-2044.21 -30.2865 2739
-2041.38 -30.3418 2744
-2034.81 -30.3418 2744
-2028.25 -30.3418 2744
-2021.69 -30.3418 2744
-2015.13 -30.3418 2744
-2008.57 -30.3418 2744
-2004.92 -30.3861 2748
-2001.99 -30.4413 2753
-1998.31 -30.4856 2757
-1991.71 -30.4856 2757
-1992.32 -30.5961 2767
-1988.57 -30.6404 2771
-1981.95 -30.6404 2771
-1975.32 -30.6404 2771
-1968.69 -30.6404 2771
-1995.35 -31.1601 2818
-2036.6 -31.912 2886
-2029.69 -31.912 2886
-2087.98 -32.9403 2979
-2107.4 -33.3605 3017
-2100.18 -33.3605 3017
-2171.36 -34.61 3130
-2188.76 -35.0081 3166
-2258.35 -36.2465 3278
-2250.51 -36.2465 3278
-2255.67 -36.4566 3297
-2247.79 -36.4566 3297
-2239.91 -36.4566 3297
-2223.22 -36.3129 3284
-2255.17 -36.9653 3343
-2288.85 -37.6508 3405
-2294.77 -37.883 3426
-2286.58 -37.883 3426
-2283.04 -37.9605 3433
