ply
format ascii 1.0
comment File generated
element vertex 2250
property float x
property float y
property float z
end_header
-1995.44 1073.97 2744
-1988.88 1073.97 2744
-1982.32 1073.97 2744
-1988.72 1081.01 2762
-1982.11 1081.01 2762
-1975.51 1081.01 2762
-1707.4 1012.13 2586
-1703.84 1013.69 2590
-1700.27 1015.26 2594
-1694.07 1015.26 2594
-1693.72 1018.78 2603
-1690.09 1020.35 2607
-1686.44 1021.91 2611
-1680.2 1021.91 2611
-1673.95 1021.91 2611
-1675.37 1026.61 2623
-1669.1 1026.61 2623
-1662.83 1026.61 2623
-1656.56 1026.61 2623
-1657.83 1031.31 2635
-1651.53 1031.31 2635
-1674.58 1049.7 2682
-1676.25 1054.79 2695
-1672.28 1056.36 2699
-1665.83 1056.36 2699
-1681.51 1070.45 2735
-1674.97 1070.45 2735
-1668.43 1070.45 2735
-1661.89 1070.45 2735
-1655.35 1070.45 2735
-1656.65 1075.53 2748
-1653.08 1077.49 2753
-1646.49 1077.49 2753
-1639.91 1077.49 2753
-1638.67 1081.01 2762
-1637.38 1084.54 2771
-1630.75 1084.54 2771
-1627.06 1086.49 2776
-1622.75 1088.06 2780
-1616.11 1088.06 2780
-1609.46 1088.06 2780
-1600.5 1086.49 2776
-1596.16 1088.06 2780
-1589.52 1088.06 2780
-1582.87 1088.06 2780
-1576.22 1088.06 2780
-1414.99 1123.67 2871
-1408.12 1123.67 2871
-1401.26 1123.67 2871
-1394.39 1123.67 2871
-1387.53 1123.67 2871
-1373.93 1118.2 2857
-1359.92 1112.32 2842
-1348.36 1108.41 2832
-1341.59 1108.41 2832
-1334.82 1108.41 2832
-1326.17 1106.85 2828
-1314.74 1102.93 2818
-1308 1102.93 2818
-1283.72 1088.06 2780
-1275.23 1086.49 2776
-1264.48 1082.97 2767
-1257.86 1082.97 2767
-1251.25 1082.97 2767
-1240.13 1079.06 2757
-1229.51 1075.53 2748
-1222.94 1075.53 2748
-1210.61 1070.45 2735
-1204.07 1070.45 2735
-1195.34 1068.49 2730
-1181.41 1061.84 2713
-1174.93 1061.84 2713
-1160.69 1054.79 2695
-1155.95 1056.36 2699
-1155.46 1061.84 2713
-1148.98 1061.84 2713
-1142.49 1061.84 2713
-1136 1061.84 2713
-1123.68 1056.36 2699
-1117.23 1056.36 2699
-1103.78 1049.7 2682
-1085.09 1037.96 2652
-1075.5 1034.83 2644
-1076.05 1041.48 2661
-1069.68 1041.48 2661
-1064.92 1043.05 2665
-1058.55 1043.05 2665
-1052.17 1043.05 2665
-1044.23 1041.48 2661
-1019.93 1023.48 2615
-1009.02 1018.78 2603
-1004.34 1020.35 2607
-998.103 1020.35 2607
-993.391 1021.91 2611
-988.66 1023.48 2615
-983.909 1025.05 2619
-977.646 1025.05 2619
-971.384 1025.05 2619
-965.121 1025.05 2619
-958.858 1025.05 2619
-945.321 1017.22 2599
-939.106 1017.22 2599
-935.762 1020.35 2607
-930.954 1021.91 2611
-927.544 1025.05 2619
-921.281 1025.05 2619
-915.018 1025.05 2619
-907.367 1023.48 2615
-903.871 1026.61 2623
-897.598 1026.61 2623
-894.045 1029.74 2631
-900.575 1044.61 2669
-894.193 1044.61 2669
-887.81 1044.61 2669
-894.307 1059.88 2708
-889.471 1061.84 2713
-882.984 1061.84 2713
-876.496 1061.84 2713
-870.008 1061.84 2713
-860.656 1058.31 2704
-859.56 1064.97 2721
-853.054 1064.97 2721
-849.347 1068.49 2730
-847.141 1073.97 2744
-840.579 1073.97 2744
-834.017 1073.97 2744
-823.234 1068.49 2730
-806.235 1054.79 2695
-799.79 1054.79 2695
-793.346 1054.79 2695
-789.529 1058.31 2704
-786.828 1063.4 2717
-780.331 1063.4 2717
-773.833 1063.4 2717
-764.794 1059.88 2708
-755.799 1056.36 2699
-749.344 1056.36 2699
-742.89 1056.36 2699
-736.436 1056.36 2699
-729.982 1056.36 2699
-725.941 1059.88 2708
-719.465 1059.88 2708
-712.989 1059.88 2708
-706.514 1059.88 2708
-700.038 1059.88 2708
-693.562 1059.88 2708
-683.788 1054.79 2695
-679.606 1058.31 2704
-675.38 1061.84 2713
-668.893 1061.84 2713
-663.382 1063.4 2717
-659.06 1066.92 2726
-652.542 1066.92 2726
-646.023 1066.92 2726
-637.393 1063.4 2717
-628.806 1059.88 2708
-619.343 1054.79 2695
-612.898 1054.79 2695
-601.503 1046.18 2673
-597.115 1049.7 2682
-591.582 1051.27 2686
-585.159 1051.27 2686
-578.736 1051.27 2686
-567.839 1043.05 2665
-561.466 1043.05 2665
-556.759 1046.18 2673
-550.367 1046.18 2673
-543.975 1046.18 2673
-535.974 1043.05 2665
-529.602 1043.05 2665
-523.229 1043.05 2665
-516.856 1043.05 2665
-512.016 1046.18 2673
-505.624 1046.18 2673
-499.232 1046.18 2673
-492.84 1046.18 2673
-484.264 1041.48 2661
-477.901 1041.48 2661
-470.651 1039.53 2656
-465.873 1043.05 2665
-459.501 1043.05 2665
-453.128 1043.05 2665
-444.576 1037.96 2652
-436.251 1033.26 2640
-429.938 1033.26 2640
-426.192 1039.53 2656
-423.319 1048.14 2678
-416.915 1048.14 2678
-410.511 1048.14 2678
-407.276 1056.36 2699
-400.822 1056.36 2699
-394.367 1056.36 2699
-389.207 1059.88 2708
-382.731 1059.88 2708
-376.256 1059.88 2708
-368.005 1054.79 2695
-361.56 1054.79 2695
-358.015 1063.4 2717
-352.035 1064.97 2721
-345.528 1064.97 2721
-341.264 1072.01 2739
-334.714 1072.01 2739
-328.165 1072.01 2739
-317.975 1059.88 2708
-308.968 1051.27 2686
-302.095 1049.7 2682
-295.681 1049.7 2682
-288.836 1048.14 2678
-281.483 1044.61 2669
-273.761 1039.53 2656
-267.41 1039.53 2656
-260.665 1037.96 2652
-254.707 1039.53 2656
-250.413 1048.14 2678
-244.738 1051.27 2686
-238.315 1051.27 2686
-232.669 1054.79 2695
-226.56 1056.36 2699
-220.106 1056.36 2699
-213.652 1056.36 2699
-206.891 1054.79 2695
-199.777 1051.27 2686
-192.13 1044.61 2669
-185.748 1044.61 2669
-179.365 1044.61 2669
-172.983 1044.61 2669
-166.351 1043.05 2665
-159.978 1043.05 2665
-153.375 1041.48 2661
-146.293 1036.4 2648
-139.961 1036.4 2648
-133.629 1036.4 2648
-125.71 1023.48 2615
-90.7237 922.11 2356
-85.0898 922.11 2356
-79.4559 922.11 2356
-73.2266 914.674 2337
-67.6382 914.674 2337
-61.9435 913.108 2333
-56.123 909.194 2323
-50.3721 905.672 2314
-44.8386 905.672 2314
-39.0333 899.41 2298
-33.4943 898.235 2295
-27.9209 895.496 2288
-22.4496 895.496 2288
-16.9783 895.496 2288
-11.507 895.496 2288
-6.02775 894.322 2285
-0.563622 894.322 2285
4.90051 894.322 2285
10.3646 894.322 2285
15.8288 894.322 2285
21.3208 895.496 2288
26.7921 895.496 2288
32.2634 895.496 2288
37.7347 895.496 2288
43.2061 895.496 2288
48.8263 898.235 2295
54.3143 898.235 2295
59.8024 898.235 2295
65.2904 898.235 2295
70.9635 900.584 2301
76.4659 900.584 2301
81.9683 900.584 2301
87.4706 900.584 2301
92.973 900.584 2301
98.347 899.41 2298
103.571 897.061 2292
109.052 897.061 2292
114.533 897.061 2292
120.014 897.061 2292
125.495 897.061 2292
130.975 897.061 2292
136.218 895.496 2288
141.689 895.496 2288
146.968 894.322 2285
152.432 894.322 2285
157.896 894.322 2285
163.36 894.322 2285
168.824 894.322 2285
174.822 897.061 2292
180.303 897.061 2292
185.784 897.061 2292
261.793 1073.97 2744
268.354 1073.97 2744
274.916 1073.97 2744
281.478 1073.97 2744
288.04 1073.97 2744
297.071 1082.97 2767
303.687 1082.97 2767
311.762 1088.06 2780
318.41 1088.06 2780
325.058 1088.06 2780
331.705 1088.06 2780
336.162 1081.01 2762
340.533 1073.97 2744
348.74 1079.06 2757
355.332 1079.06 2757
362.582 1081.01 2762
369.186 1081.01 2762
376.471 1082.97 2767
383.642 1084.54 2771
390.268 1084.54 2771
397.611 1086.49 2776
404.249 1086.49 2776
410.887 1086.49 2776
416.773 1084.54 2771
422.789 1082.97 2767
429.405 1082.97 2767
436.022 1082.97 2767
441.839 1081.01 2762
448.444 1081.01 2762
453.566 1077.49 2753
460.149 1077.49 2753
466.732 1077.49 2753
474.863 1081.01 2762
481.468 1081.01 2762
488.072 1081.01 2762
494.677 1081.01 2762
501.282 1081.01 2762
509.542 1084.54 2771
516.168 1084.54 2771
522.794 1084.54 2771
526.746 1079.06 2757
530.824 1073.97 2744
537.385 1073.97 2744
543.947 1073.97 2744
547.7 1068.49 2730
553.416 1066.92 2726
557.265 1061.84 2713
563.752 1061.84 2713
567.297 1056.36 2699
573.752 1056.36 2699
577.411 1051.27 2686
583.834 1051.27 2686
590.257 1051.27 2686
592.015 1043.05 2665
597.49 1041.48 2661
603.853 1041.48 2661
610.216 1041.48 2661
616.58 1041.48 2661
619.9 1036.4 2648
626.232 1036.4 2648
634.475 1039.53 2656
640.826 1039.53 2656
647.178 1039.53 2656
656.728 1044.61 2669
671.806 1058.31 2704
678.272 1058.31 2704
689.043 1064.97 2721
702.451 1075.53 2748
713.925 1082.97 2767
720.542 1082.97 2767
727.158 1082.97 2767
733.775 1082.97 2767
740.392 1082.97 2767
747.009 1082.97 2767
754.715 1084.54 2771
761.341 1084.54 2771
767.967 1084.54 2771
773.476 1082.97 2767
780.092 1082.97 2767
786.709 1082.97 2767
794.473 1084.54 2771
801.099 1084.54 2771
807.725 1084.54 2771
814.352 1084.54 2771
823.644 1088.06 2780
830.292 1088.06 2780
836.94 1088.06 2780
850.871 1097.45 2804
857.576 1097.45 2804
864.281 1097.45 2804
869.433 1095.49 2799
873.309 1091.97 2790
879.981 1091.97 2790
885.064 1090.02 2785
891.723 1090.02 2785
898.383 1090.02 2785
905.043 1090.02 2785
916.286 1095.49 2799
922.979 1095.49 2799
929.672 1095.49 2799
933.355 1091.97 2790
940.027 1091.97 2790
946.698 1091.97 2790
953.37 1091.97 2790
958.321 1090.02 2785
964.981 1090.02 2785
971.641 1090.02 2785
975.139 1086.49 2776
980.009 1084.54 2771
986.635 1084.54 2771
986.81 1077.49 2753
988.341 1072.01 2739
994.891 1072.01 2739
1004.73 1075.53 2748
1011.3 1075.53 2748
1017.87 1075.53 2748
1024.45 1075.53 2748
1031.02 1075.53 2748
1037.59 1075.53 2748
1044.16 1075.53 2748
1045.76 1070.45 2735
1045.37 1063.4 2717
1053.42 1064.97 2721
1059.93 1064.97 2721
1066.43 1064.97 2721
1072.94 1064.97 2721
1079.45 1064.97 2721
1084.36 1063.4 2717
1087.24 1059.88 2708
1088.47 1054.79 2695
1094.91 1054.79 2695
1099.72 1053.22 2691
1106.16 1053.22 2691
1103.49 1044.61 2669
1109.88 1044.61 2669
1120.02 1048.14 2678
1126.43 1048.14 2678
1132.83 1048.14 2678
1128.17 1037.96 2652
1134.52 1037.96 2652
1137.42 1034.83 2644
1151.09 1041.48 2661
1162.68 1046.18 2673
1169.07 1046.18 2673
1175.46 1046.18 2673
1181.85 1046.18 2673
1182.91 1041.48 2661
1189.27 1041.48 2661
1195.64 1041.48 2661
1202 1041.48 2661
1216.08 1048.14 2678
1228.42 1053.22 2691
1242.66 1059.88 2708
1249.13 1059.88 2708
1257.93 1061.84 2713
1274.67 1070.45 2735
1287.3 1075.53 2748
1293.87 1075.53 2748
1300.44 1075.53 2748
1307.01 1075.53 2748
1313.58 1075.53 2748
1320.15 1075.53 2748
1329.14 1077.49 2753
1335.72 1077.49 2753
1342.31 1077.49 2753
1348.89 1077.49 2753
1355.47 1077.49 2753
1366.51 1081.01 2762
1377.59 1084.54 2771
1384.21 1084.54 2771
1395.36 1088.06 2780
1411.59 1095.49 2799
1420.81 1097.45 2804
1427.52 1097.45 2804
1438.83 1100.97 2813
1445.55 1100.97 2813
1452.28 1100.97 2813
1459.01 1100.97 2813
1465.73 1100.97 2813
1462.52 1093.54 2794
1471.83 1095.49 2799
1478.52 1095.49 2799
1485.21 1095.49 2799
1497.24 1099.41 2809
1503.95 1099.41 2809
1510.67 1099.41 2809
1517.39 1099.41 2809
1524.1 1099.41 2809
1522.65 1093.54 2794
1529.33 1093.54 2794
1536.01 1093.54 2794
1542.69 1093.54 2794
1554.92 1097.45 2804
1561.62 1097.45 2804
1568.33 1097.45 2804
1588.44 1097.45 2804
1605.96 1104.89 2823
1612.71 1104.89 2823
1630.36 1112.32 2842
1637.16 1112.32 2842
1643.95 1112.32 2842
1650.75 1112.32 2842
1660.46 1114.28 2847
1667.27 1114.28 2847
1674.08 1114.28 2847
1677.93 1112.32 2842
1684.73 1112.32 2842
1694.5 1114.28 2847
1704.3 1116.24 2852
1711.12 1116.24 2852
1717.94 1116.24 2852
1721.73 1114.28 2847
1728.54 1114.28 2847
1732.3 1112.32 2842
1739.1 1112.32 2842
1718.62 1086.49 2776
1725.26 1086.49 2776
1731.9 1086.49 2776
1738.54 1086.49 2776
1745.18 1086.49 2776
1746.14 1082.97 2767
1743.88 1077.49 2753
1735.84 1068.49 2730
1742.37 1068.49 2730
1740.57 1063.4 2717
1772.41 1066.92 2726
1778.93 1066.92 2726
1785.45 1066.92 2726
1791.97 1066.92 2726
1798.49 1066.92 2726
1769.91 1046.18 2673
1745.73 1028.18 2627
1741.35 1021.91 2611
1760.98 1029.74 2631
1778.69 1036.4 2648
1785.02 1036.4 2648
1791.35 1036.4 2648
1794.97 1034.83 2644
1833.31 1053.22 2691
1839.75 1053.22 2691
1870.19 1066.92 2726
1876.71 1066.92 2726
1883.23 1066.92 2726
1889.75 1066.92 2726
1896.27 1066.92 2726
1893.71 1061.84 2713
1900.2 1061.84 2713
2092.52 1073.97 2744
2099.08 1073.97 2744
-1957.91 1029.74 2615
-1966.59 1037.62 2635
-1975.91 1045.89 2656
-1969.56 1045.89 2656
-1982.43 1056.13 2682
-2008.43 1073.45 2726
-2004.85 1075.03 2730
-1998.32 1075.03 2730
-1991.79 1075.03 2730
-1988.9 1077 2735
-1982.36 1077 2735
-1975.82 1077 2735
-1969.28 1077 2735
-1784.34 992.334 2520
-1778.32 992.334 2520
-1772.29 992.334 2520
-1766.26 992.334 2520
-1738.2 983.277 2497
-1745.41 990.759 2516
-1739.39 990.759 2516
-1733.38 990.759 2516
-1727.36 990.759 2516
-1721.34 990.759 2516
-1707.4 1018.32 2586
-1701.21 1018.32 2586
-1697.65 1019.9 2590
-1691.46 1019.9 2590
-1687.87 1021.47 2594
-1690.09 1026.59 2607
-1686.44 1028.17 2611
-1680.2 1028.17 2611
-1673.95 1028.17 2611
-1667.71 1028.17 2611
-1661.47 1028.17 2611
-1655.22 1028.17 2611
-1648.98 1028.17 2611
-1642.74 1028.17 2611
-1636.49 1028.17 2611
-1661.47 1047.86 2661
-1662.57 1052.58 2673
-1659.27 1054.55 2678
-1652.87 1054.55 2678
-1670.44 1069.91 2717
-1666.4 1071.48 2721
-1659.89 1071.48 2721
-1653.38 1071.48 2721
-1642.03 1068.33 2713
-1643.38 1073.45 2726
-1647.67 1080.54 2744
-1641.11 1080.54 2744
-1636.93 1082.12 2748
-1633.33 1084.09 2753
-1632.06 1087.63 2762
-1625.46 1087.63 2762
-1621.78 1089.6 2767
-1617.5 1091.17 2771
-1610.87 1091.17 2771
-1604.25 1091.17 2771
-1597.62 1091.17 2771
-1591 1091.17 2771
-1584.37 1091.17 2771
-1577.74 1091.17 2771
-1414.99 1130.55 2871
-1408.12 1130.55 2871
-1401.26 1130.55 2871
-1394.39 1130.55 2871
-1387.53 1130.55 2871
-1373.93 1125.04 2857
-1359.92 1119.13 2842
-1348.36 1115.19 2832
-1341.59 1115.19 2832
-1332.93 1113.62 2828
-1321.48 1109.68 2818
-1297.01 1094.72 2780
-1290.36 1094.72 2780
-1277.71 1089.6 2767
-1271.1 1089.6 2767
-1259.91 1085.66 2757
-1253.32 1085.66 2757
-1242.65 1082.12 2748
-1230.23 1077 2735
-1223.69 1077 2735
-1217.15 1077 2735
-1208.4 1075.03 2730
-1201.87 1075.03 2730
-1180.02 1061.25 2695
-1160.51 1049.43 2665
-1154.14 1049.43 2665
-1146.04 1047.86 2661
-1143.11 1051.01 2669
-1147.8 1061.25 2695
-1141.35 1061.25 2695
-1134.91 1061.25 2695
-1128.46 1061.25 2695
-1071.83 1037.62 2635
-1076.05 1047.86 2661
-1069.68 1047.86 2661
-1063.32 1047.86 2661
-1056.96 1047.86 2661
-1050.59 1047.86 2661
-1029.32 1032.89 2623
-1015.25 1025.02 2603
-1007.47 1023.44 2599
-1002.8 1025.02 2603
-996.572 1025.02 2603
-990.347 1025.02 2603
-987.147 1028.17 2611
-980.904 1028.17 2611
-974.66 1028.17 2611
-968.416 1028.17 2611
-962.173 1028.17 2611
-955.929 1028.17 2611
-943.502 1021.47 2594
-937.299 1021.47 2594
-932.891 1023.44 2599
-926.676 1023.44 2599
-923.294 1026.59 2607
-917.06 1026.59 2607
-910.826 1026.59 2607
-903.204 1025.02 2603
-899.736 1028.17 2611
-893.492 1028.17 2611
-891.326 1032.89 2623
-893.489 1042.74 2648
-892.853 1049.43 2665
-886.48 1049.43 2665
-881.428 1051.01 2669
-880.619 1057.7 2686
-874.196 1057.7 2686
-867.773 1057.7 2686
-861.35 1057.7 2686
-853.654 1056.13 2682
-852.611 1062.82 2699
-846.156 1062.82 2699
-845.302 1069.91 2717
-842.819 1075.03 2730
-836.29 1075.03 2730
-829.762 1075.03 2730
-823.234 1075.03 2730
-806.235 1061.25 2695
-799.79 1061.25 2695
-789.519 1056.13 2682
-788.069 1062.82 2699
-781.615 1062.82 2699
-777.746 1066.37 2708
-771.27 1066.37 2708
-764.794 1066.37 2708
-755.799 1062.82 2699
-749.344 1062.82 2699
-742.89 1062.82 2699
-736.436 1062.82 2699
-729.982 1062.82 2699
-725.941 1066.37 2708
-719.465 1066.37 2708
-712.989 1066.37 2708
-706.514 1066.37 2708
-700.038 1066.37 2708
-693.562 1066.37 2708
-683.788 1061.25 2695
-679.606 1064.79 2704
-675.38 1068.33 2713
-668.893 1068.33 2713
-663.382 1069.91 2717
-659.06 1073.45 2726
-652.542 1073.45 2726
-646.023 1073.45 2726
-637.393 1069.91 2717
-628.806 1066.37 2708
-619.343 1061.25 2695
-612.898 1061.25 2695
-601.503 1052.58 2673
-597.115 1056.13 2682
-591.582 1057.7 2686
-585.159 1057.7 2686
-578.736 1057.7 2686
-567.839 1049.43 2665
-561.466 1049.43 2665
-556.759 1052.58 2673
-550.367 1052.58 2673
-543.975 1052.58 2673
-535.974 1049.43 2665
-529.602 1049.43 2665
-523.229 1049.43 2665
-516.856 1049.43 2665
-512.016 1052.58 2673
-505.624 1052.58 2673
-499.232 1052.58 2673
-492.84 1052.58 2673
-484.264 1047.86 2661
-477.901 1047.86 2661
-470.651 1045.89 2656
-465.873 1049.43 2665
-459.501 1049.43 2665
-453.128 1049.43 2665
-444.576 1044.31 2652
-436.251 1039.59 2640
-429.938 1039.59 2640
-426.192 1045.89 2656
-423.319 1054.55 2678
-416.915 1054.55 2678
-410.511 1054.55 2678
-407.276 1062.82 2699
-400.822 1062.82 2699
-394.367 1062.82 2699
-389.207 1066.37 2708
-382.731 1066.37 2708
-376.256 1066.37 2708
-368.005 1061.25 2695
-361.56 1061.25 2695
-358.015 1069.91 2717
-352.035 1071.48 2721
-345.528 1071.48 2721
-341.264 1078.57 2739
-334.714 1078.57 2739
-328.165 1078.57 2739
-317.975 1066.37 2708
-308.968 1057.7 2686
-302.095 1056.13 2682
-295.681 1056.13 2682
-288.836 1054.55 2678
-281.483 1051.01 2669
-273.761 1045.89 2656
-267.41 1045.89 2656
-260.665 1044.31 2652
-254.707 1045.89 2656
-250.413 1054.55 2678
-244.738 1057.7 2686
-238.315 1057.7 2686
-232.669 1061.25 2695
-226.56 1062.82 2699
-220.106 1062.82 2699
-213.652 1062.82 2699
-206.891 1061.25 2695
-199.777 1057.7 2686
-192.13 1051.01 2669
-185.748 1051.01 2669
-179.365 1051.01 2669
-172.983 1051.01 2669
-166.351 1049.43 2665
-159.978 1049.43 2665
-153.375 1047.86 2661
-146.293 1042.74 2648
-139.961 1042.74 2648
-133.629 1042.74 2648
-125.71 1029.74 2615
-90.7237 927.754 2356
-85.0898 927.754 2356
-79.4559 927.754 2356
-73.2266 920.272 2337
-67.6382 920.272 2337
-61.9435 918.697 2333
-56.123 914.759 2323
-50.3721 911.215 2314
-44.8386 911.215 2314
-39.0333 904.914 2298
-33.4943 903.733 2295
-27.9209 900.977 2288
-22.4496 900.977 2288
-16.9783 900.977 2288
-11.507 900.977 2288
-6.02775 899.795 2285
-0.563622 899.795 2285
4.90051 899.795 2285
10.3646 899.795 2285
15.8288 899.795 2285
21.2929 899.795 2285
26.757 899.795 2285
32.2211 899.795 2285
37.6853 899.795 2285
43.1494 899.795 2285
48.6774 900.977 2288
54.1487 900.977 2288
59.62 900.977 2288
65.2051 902.552 2292
70.7784 903.733 2295
76.2665 903.733 2295
81.8614 904.914 2298
87.3566 904.914 2298
92.8518 904.914 2298
98.2186 903.733 2295
103.39 900.977 2288
108.862 900.977 2288
114.533 902.552 2292
120.014 902.552 2292
125.495 902.552 2292
130.747 900.977 2288
136.218 900.977 2288
141.689 900.977 2288
146.775 898.614 2282
152.232 898.614 2282
157.896 899.795 2285
163.36 899.795 2285
168.824 899.795 2285
174.822 902.552 2292
180.775 904.914 2298
186.27 904.914 2298
191.766 904.914 2298
252.634 1042.74 2648
259.748 1045.89 2656
266.1 1045.89 2656
272.451 1045.89 2656
281.951 1057.7 2686
292.669 1073.45 2726
299.187 1073.45 2726
306.155 1075.03 2730
312.683 1075.03 2730
319.211 1075.03 2730
325.739 1075.03 2730
330.686 1069.91 2717
337.679 1071.48 2721
345.957 1077 2735
352.497 1077 2735
360.219 1080.54 2744
366.78 1080.54 2744
373.342 1080.54 2744
378.658 1077 2735
383.93 1073.45 2726
390.449 1073.45 2726
396.968 1073.45 2726
403.487 1073.45 2726
410.005 1073.45 2726
418.51 1078.57 2739
425.06 1078.57 2739
431.61 1078.57 2739
438.16 1078.57 2739
442.599 1073.45 2726
448.294 1071.48 2721
455.636 1073.45 2726
462.155 1073.45 2726
470.221 1077 2735
476.761 1077 2735
484.008 1078.57 2739
490.558 1078.57 2739
497.108 1078.57 2739
504.577 1080.54 2744
511.139 1080.54 2744
517.7 1080.54 2744
524.262 1080.54 2744
527.342 1073.45 2726
533.86 1073.45 2726
538.595 1069.91 2717
544.29 1068.33 2713
547.935 1062.82 2699
550.897 1056.13 2682
557.311 1056.13 2682
562.883 1054.55 2678
569.287 1054.55 2678
572.897 1049.43 2665
579.27 1049.43 2665
585.642 1049.43 2665
588.239 1042.74 2648
593.673 1041.16 2644
599.995 1041.16 2644
605.401 1039.59 2640
610.555 1037.62 2635
614.047 1032.89 2623
620.319 1032.89 2623
629.458 1037.62 2635
635.76 1037.62 2635
642.061 1037.62 2635
650.576 1041.16 2644
659.88 1045.89 2656
666.231 1045.89 2656
679.167 1056.13 2682
695.55 1071.48 2721
705.669 1077 2735
712.209 1077 2735
718.749 1077 2735
725.289 1077 2735
732.9 1078.57 2739
739.449 1078.57 2739
748.451 1082.12 2748
755.022 1082.12 2748
761.593 1082.12 2748
768.164 1082.12 2748
774.736 1082.12 2748
781.307 1082.12 2748
787.878 1082.12 2748
794.45 1082.12 2748
801.021 1082.12 2748
810.237 1085.66 2757
816.83 1085.66 2757
823.423 1085.66 2757
836.94 1094.72 2780
843.588 1094.72 2780
850.236 1094.72 2780
856.883 1094.72 2780
863.531 1094.72 2780
866.11 1089.6 2767
871.15 1087.63 2762
877.754 1087.63 2762
882.758 1085.66 2757
890.964 1087.63 2762
903.418 1094.72 2780
910.066 1094.72 2780
916.714 1094.72 2780
923.362 1094.72 2780
928.671 1093.14 2776
935.31 1093.14 2776
940.251 1091.17 2771
946.878 1091.17 2771
952.127 1089.6 2767
958.744 1089.6 2767
965.361 1089.6 2767
970.221 1087.63 2762
971.875 1082.12 2748
978.446 1082.12 2748
981.791 1078.57 2739
986.898 1077 2735
990.169 1073.45 2726
1003.27 1080.54 2744
1011.3 1082.12 2748
1017.87 1082.12 2748
1024.45 1082.12 2748
1031.02 1082.12 2748
1037.59 1082.12 2748
1040.74 1078.57 2739
1042.32 1073.45 2726
1043.84 1068.33 2713
1051.87 1069.91 2717
1058.37 1069.91 2717
1064.87 1069.91 2717
1071.36 1069.91 2717
1077.86 1069.91 2717
1080.77 1066.37 2708
1082.02 1061.25 2695
1088.47 1061.25 2695
1094.91 1061.25 2695
1097.68 1057.7 2686
1097.11 1051.01 2669
1101.84 1049.43 2665
1108.21 1049.43 2665
1114.59 1049.43 2665
1119.28 1047.86 2661
1121.83 1044.31 2652
1119.24 1036.04 2631
1129.38 1039.59 2640
1135.7 1039.59 2640
1145.47 1042.74 2648
1157.46 1047.86 2661
1163.82 1047.86 2661
1170.18 1047.86 2661
1176.55 1047.86 2661
1175.35 1041.16 2644
1181.68 1041.16 2644
1188 1041.16 2644
1194.32 1041.16 2644
1208.36 1047.86 2661
1226.14 1057.7 2686
1234.86 1059.67 2691
1241.29 1059.67 2691
1255.61 1066.37 2708
1266.28 1069.91 2717
1285.42 1080.54 2744
1291.99 1080.54 2744
1300.44 1082.12 2748
1307.01 1082.12 2748
1313.58 1082.12 2748
1320.15 1082.12 2748
1326.72 1082.12 2748
1335.72 1084.09 2753
1342.31 1084.09 2753
1348.89 1084.09 2753
1355.47 1084.09 2753
1362.06 1084.09 2753
1377.59 1091.17 2771
1384.21 1091.17 2771
1390.84 1091.17 2771
1411.59 1102.2 2799
1418.28 1102.2 2799
1424.97 1102.2 2799
1436.78 1106.14 2809
1443.5 1106.14 2809
1450.22 1106.14 2809
1454.34 1104.17 2804
1455.83 1100.23 2794
1457.8 1096.69 2785
1469.2 1100.23 2794
1478.52 1102.2 2799
1485.21 1102.2 2799
1491.91 1102.2 2799
1498.6 1102.2 2799
1505.29 1102.2 2799
1511.99 1102.2 2799
1515.97 1100.23 2794
1517.74 1096.69 2785
1527.14 1098.66 2790
1533.81 1098.66 2790
1540.48 1098.66 2790
1547.15 1098.66 2790
1553.83 1098.66 2790
1560.5 1098.66 2790
1564.65 1087.63 2762
1581.5 1094.72 2780
1588.14 1094.72 2780
1613.72 1107.71 2813
1629.09 1113.62 2828
1638.17 1115.19 2832
1644.94 1115.19 2832
1651.71 1115.19 2832
1658.48 1115.19 2832
1665.26 1115.19 2832
1663.76 1109.68 2818
1670.5 1109.68 2818
1688.55 1117.16 2837
1701.31 1121.1 2847
1708.12 1121.1 2847
1714.92 1121.1 2847
1721.73 1121.1 2847
1728.54 1121.1 2847
1732.3 1119.13 2842
1739.1 1119.13 2842
1713.05 1089.6 2767
1719.67 1089.6 2767
1726.29 1089.6 2767
1732.9 1089.6 2767
1739.52 1089.6 2767
1737.3 1084.09 2753
1735.02 1078.57 2739
1730.12 1071.48 2721
1736.63 1071.48 2721
1738.01 1068.33 2713
1772.41 1073.45 2726
1778.93 1073.45 2726
1785.45 1073.45 2726
1791.97 1073.45 2726
1798.49 1073.45 2726
1717.6 1021.47 2594
1708.52 1012.42 2571
1719.34 1015.17 2578
1730.86 1018.32 2586
1739.73 1019.9 2590
1745.92 1019.9 2590
1752.11 1019.9 2590
1758.31 1019.9 2590
1786.98 1032.89 2623
1793.26 1032.89 2623
1799.53 1032.89 2623
2092.52 1080.54 2744
2099.08 1080.54 2744
-1957.91 1036.01 2615
-1966.59 1043.93 2635
-1972.93 1050.67 2652
-1966.59 1050.67 2652
-1969.86 1055.82 2665
-1976.01 1062.55 2682
-1982.08 1069.29 2699
-1975.63 1069.29 2699
-1985.23 1078 2721
-1985.26 1081.57 2730
-1978.74 1081.57 2730
-1972.21 1081.57 2730
-1784.34 998.371 2520
-1778.32 998.371 2520
-1772.29 998.371 2520
-1766.26 998.371 2520
-1739.28 986.486 2490
-1738.2 989.259 2497
-1745.41 996.786 2516
-1739.39 996.786 2516
-1733.38 996.786 2516
-1727.36 996.786 2516
-1721.34 996.786 2516
-1679.01 1007.48 2543
-1678.19 1010.65 2551
-1672.09 1010.65 2551
-1665.99 1010.65 2551
-1665.09 1013.82 2559
-1687.5 1031.25 2603
-1686.44 1034.42 2611
-1680.2 1034.42 2611
-1673.95 1034.42 2611
-1667.71 1034.42 2611
-1661.47 1034.42 2611
-1655.22 1034.42 2611
-1643.93 1031.25 2603
-1637.7 1031.25 2603
-1636.49 1034.42 2611
-1630.25 1034.42 2611
-1655.1 1054.23 2661
-1648.74 1054.23 2661
-1642.38 1054.23 2661
-1643.39 1058.99 2673
-1658.43 1072.85 2708
-1651.96 1072.85 2708
-1645.48 1072.85 2708
-1628.72 1066.12 2691
-1635.55 1074.83 2713
-1636.86 1079.98 2726
-1630.35 1079.98 2726
-1623.83 1079.98 2726
-1622.65 1083.55 2735
-1623.79 1088.7 2748
-1617.22 1088.7 2748
-1615.92 1092.27 2757
-1612.25 1094.25 2762
-1605.64 1094.25 2762
-1599.04 1094.25 2762
-1595.32 1096.23 2767
-1588.7 1096.23 2767
-1582.08 1096.23 2767
-1414.99 1137.43 2871
-1408.12 1137.43 2871
-1401.26 1137.43 2871
-1394.39 1137.43 2871
-1387.53 1137.43 2871
-1373.93 1131.88 2857
-1359.92 1125.94 2842
-1348.36 1121.98 2832
-1341.59 1121.98 2832
-1332.93 1120.39 2828
-1321.48 1116.43 2818
-1295.14 1099.79 2776
-1288.51 1099.79 2776
-1275.4 1094.25 2762
-1258.23 1085.13 2739
-1251.68 1085.13 2739
-1245.13 1085.13 2739
-1234.51 1081.57 2730
-1222.14 1076.42 2717
-1209.82 1071.27 2704
-1195.35 1064.14 2686
-1188.92 1064.14 2686
-1182.5 1064.14 2686
-1166.88 1055.82 2665
-1156.59 1052.25 2656
-1150.24 1052.25 2656
-1133.12 1042.35 2631
-1125.12 1040.76 2627
-1118.84 1040.76 2627
-1112.55 1040.76 2627
-1106.27 1040.76 2627
-1094.97 1036.01 2615
-1062.07 1034.42 2611
-1060.68 1039.18 2623
-1054.41 1039.18 2623
-1048.14 1039.18 2623
-1041.86 1039.18 2623
-1035.59 1039.18 2623
-1023.04 1032.84 2607
-1013.69 1029.67 2599
-1002.43 1024.52 2586
-999.329 1027.69 2594
-993.126 1027.69 2594
-988.826 1029.67 2599
-987.147 1034.42 2611
-980.904 1034.42 2611
-974.66 1034.42 2611
-968.416 1034.42 2611
-962.173 1034.42 2611
-955.929 1034.42 2611
-943.502 1027.69 2594
-937.299 1027.69 2594
-932.891 1029.67 2599
-926.676 1029.67 2599
-920.461 1029.67 2599
-914.246 1029.67 2599
-908.031 1029.67 2599
-901.816 1029.67 2599
-899.736 1034.42 2611
-893.492 1034.42 2611
-891.326 1039.18 2623
-889.103 1043.93 2635
-885.817 1047.5 2644
-879.494 1047.5 2644
-878.786 1054.23 2661
-873.734 1055.82 2665
-867.361 1055.82 2665
-860.988 1055.82 2665
-854.616 1055.82 2665
-848.243 1055.82 2665
-851.347 1067.7 2695
-844.902 1067.7 2695
-838.458 1067.7 2695
-838.805 1076.42 2717
-832.308 1076.42 2717
-825.811 1076.42 2717
-815.393 1071.27 2704
-802.346 1062.55 2682
-795.932 1062.55 2682
-788.341 1060.97 2678
-783.105 1062.55 2682
-776.692 1062.55 2682
-770.279 1062.55 2682
-763.865 1062.55 2682
-757.452 1062.55 2682
-751.038 1062.55 2682
-744.625 1062.55 2682
-738.211 1062.55 2682
-730.706 1060.97 2678
-722.95 1058.99 2673
-717.898 1060.97 2678
-711.495 1060.97 2678
-707.197 1064.14 2686
-700.774 1064.14 2686
-694.351 1064.14 2686
-686.903 1062.55 2682
-677.191 1057.4 2669
-676.338 1066.12 2691
-669.903 1066.12 2691
-663.468 1066.12 2691
-657.033 1066.12 2691
-650.598 1066.12 2691
-644.163 1066.12 2691
-637.728 1066.12 2691
-631.293 1066.12 2691
-615.802 1050.67 2652
-607.622 1047.5 2644
-601.3 1047.5 2644
-592.052 1042.35 2631
-587.764 1045.91 2640
-581.451 1045.91 2640
-575.138 1045.91 2640
-568.825 1045.91 2640
-558.037 1037.59 2619
-551.774 1037.59 2619
-546.345 1039.18 2623
-540.072 1039.18 2623
-533.8 1039.18 2623
-526.723 1037.59 2619
-520.46 1037.59 2619
-514.197 1037.59 2619
-514.335 1050.67 2652
-508.759 1052.25 2656
-503.354 1054.23 2661
-496.99 1054.23 2661
-490.627 1054.23 2661
-483.354 1052.25 2656
-477.003 1052.25 2656
-468.525 1047.5 2644
-462.902 1049.08 2648
-456.569 1049.08 2648
-450.237 1049.08 2648
-442.564 1045.91 2640
-433.442 1039.18 2623
-426.518 1037.59 2619
-422.823 1043.93 2635
-419.209 1050.67 2652
-412.867 1050.67 2652
-406.525 1050.67 2652
-402.749 1057.4 2669
-396.366 1057.4 2669
-389.984 1057.4 2669
-383.027 1055.82 2665
-376.654 1055.82 2665
-370.281 1055.82 2665
-362.679 1052.25 2656
-355.791 1050.67 2652
-351.163 1055.82 2665
-345.307 1057.4 2669
-338.925 1057.4 2669
-335.284 1066.12 2691
-328.849 1066.12 2691
-322.414 1066.12 2691
-315.979 1066.12 2691
-306.553 1055.82 2665
-300.18 1055.82 2665
-293.807 1055.82 2665
-286.464 1052.25 2656
-279.691 1050.67 2652
-272.524 1047.5 2644
-266.604 1049.08 2648
-260.272 1049.08 2648
-254.707 1052.25 2656
-249.571 1057.4 2669
-244.738 1064.14 2686
-238.315 1064.14 2686
-232.669 1067.7 2695
-226.56 1069.29 2699
-220.106 1069.29 2699
-213.652 1069.29 2699
-206.891 1067.7 2695
-199.777 1064.14 2686
-192.13 1057.4 2669
-185.748 1057.4 2669
-179.365 1057.4 2669
-172.983 1057.4 2669
-166.351 1055.82 2665
-159.978 1055.82 2665
-153.375 1054.23 2661
-146.293 1049.08 2648
-139.961 1049.08 2648
-133.629 1049.08 2648
-78.6802 924.286 2333
-73.1013 924.286 2333
-67.5224 924.286 2333
-61.9435 924.286 2333
-55.978 917.947 2317
-50.1544 912.796 2304
-44.6448 912.796 2304
-38.9824 909.231 2295
-33.3922 906.458 2288
-27.8843 905.269 2285
-22.4201 905.269 2285
-16.956 905.269 2285
-11.4919 905.269 2285
-6.01984 904.08 2282
-0.562882 904.08 2282
4.89407 904.08 2282
10.351 904.08 2282
15.808 904.08 2282
21.2929 905.269 2285
26.757 905.269 2285
32.2211 905.269 2285
37.6853 905.269 2285
43.1494 905.269 2285
48.6774 906.458 2288
54.1487 906.458 2288
59.62 906.458 2288
65.2051 908.042 2292
70.7784 909.231 2295
76.2665 909.231 2295
81.8614 910.419 2298
87.3566 910.419 2298
92.8518 910.419 2298
98.2186 909.231 2295
103.39 906.458 2288
108.862 906.458 2288
114.533 908.042 2292
120.014 908.042 2292
125.495 908.042 2292
130.747 906.458 2288
136.218 906.458 2288
141.689 906.458 2288
146.775 904.08 2282
152.232 904.08 2282
157.896 905.269 2285
163.36 905.269 2285
168.824 905.269 2285
174.822 908.042 2292
180.775 910.419 2298
186.27 910.419 2298
191.766 910.419 2298
197.261 910.419 2298
252.634 1049.08 2648
259.748 1052.25 2656
266.1 1052.25 2656
272.451 1052.25 2656
281.951 1064.14 2686
292.669 1079.98 2726
299.187 1079.98 2726
306.155 1081.57 2730
312.683 1081.57 2730
319.211 1081.57 2730
325.739 1081.57 2730
330.686 1076.42 2717
337.679 1078 2721
345.957 1083.55 2735
352.497 1083.55 2735
360.219 1087.12 2744
366.78 1087.12 2744
373.342 1087.12 2744
378.658 1083.55 2735
383.93 1079.98 2726
390.449 1079.98 2726
396.968 1079.98 2726
403.487 1079.98 2726
410.005 1079.98 2726
418.51 1085.13 2739
425.06 1085.13 2739
431.61 1085.13 2739
438.16 1085.13 2739
442.599 1079.98 2726
448.294 1078 2721
455.636 1079.98 2726
462.155 1079.98 2726
470.221 1083.55 2735
476.761 1083.55 2735
484.008 1085.13 2739
490.558 1085.13 2739
497.108 1085.13 2739
504.577 1087.12 2744
511.139 1087.12 2744
517.7 1087.12 2744
524.262 1087.12 2744
527.342 1079.98 2726
533.86 1079.98 2726
538.595 1076.42 2717
544.29 1074.83 2713
547.935 1069.29 2699
550.897 1062.55 2682
557.311 1062.55 2682
562.883 1060.97 2678
569.287 1060.97 2678
572.897 1055.82 2665
579.27 1055.82 2665
585.642 1055.82 2665
588.239 1049.08 2648
593.673 1047.5 2644
599.995 1047.5 2644
605.401 1045.91 2640
610.555 1043.93 2635
614.047 1039.18 2623
620.319 1039.18 2623
629.458 1043.93 2635
635.76 1043.93 2635
642.061 1043.93 2635
650.576 1047.5 2644
659.88 1052.25 2656
666.231 1052.25 2656
679.167 1062.55 2682
695.55 1078 2721
705.669 1083.55 2735
712.209 1083.55 2735
718.749 1083.55 2735
725.289 1083.55 2735
732.9 1085.13 2739
739.449 1085.13 2739
748.451 1088.7 2748
755.022 1088.7 2748
761.593 1088.7 2748
768.164 1088.7 2748
774.736 1088.7 2748
781.307 1088.7 2748
787.878 1088.7 2748
794.45 1088.7 2748
801.021 1088.7 2748
807.592 1088.7 2748
814.164 1088.7 2748
815.359 1081.57 2730
830.016 1092.27 2757
836.608 1092.27 2757
843.201 1092.27 2757
849.794 1092.27 2757
856.387 1092.27 2757
860.163 1088.7 2748
866.734 1088.7 2748
873.305 1088.7 2748
878.596 1087.12 2744
885.157 1087.12 2744
895.944 1092.27 2757
904.173 1094.25 2762
910.778 1094.25 2762
917.383 1094.25 2762
922.315 1092.27 2757
928.908 1092.27 2757
935.501 1092.27 2757
942.094 1092.27 2757
948.686 1092.27 2757
955.279 1092.27 2757
961.872 1092.27 2757
965.303 1088.7 2748
967.277 1083.55 2735
973.817 1083.55 2735
978.565 1081.57 2730
983.65 1079.98 2726
990.169 1079.98 2726
996.688 1079.98 2726
1009.83 1087.12 2744
1016.39 1087.12 2744
1024.45 1088.7 2748
1031.02 1088.7 2748
1037.59 1088.7 2748
1037.32 1081.57 2730
1035.44 1072.85 2708
1038.45 1069.29 2699
1048.39 1072.85 2708
1054.86 1072.85 2708
1061.34 1072.85 2708
1067.81 1072.85 2708
1074.29 1072.85 2708
1077.17 1069.29 2699
1080.42 1066.12 2691
1086.85 1066.12 2691
1093.29 1066.12 2691
1090.73 1057.4 2669
1095.47 1055.82 2665
1094.81 1049.08 2648
1101.14 1049.08 2648
1107.48 1049.08 2648
1113.81 1049.08 2648
1118.45 1047.5 2644
1119.24 1042.35 2631
1127.24 1043.93 2635
1133.55 1043.93 2635
1145.47 1049.08 2648
1155.28 1052.25 2656
1161.63 1052.25 2656
1167.98 1052.25 2656
1174.34 1052.25 2656
1175.35 1047.5 2644
1181.68 1047.5 2644
1188 1047.5 2644
1194.32 1047.5 2644
1204.28 1050.67 2652
1226.14 1064.14 2686
1234.86 1066.12 2691
1241.29 1066.12 2691
1255.61 1072.85 2708
1270.47 1079.98 2726
1285.42 1087.12 2744
1291.99 1087.12 2744
1300.44 1088.7 2748
1307.01 1088.7 2748
1313.58 1088.7 2748
1320.15 1088.7 2748
1326.72 1088.7 2748
1335.72 1090.68 2753
1349.13 1096.23 2767
1355.75 1096.23 2767
1362.36 1096.23 2767
1366.51 1094.25 2762
1377.59 1097.81 2771
1384.21 1097.81 2771
1390.84 1097.81 2771
1409.07 1106.92 2794
1418.28 1108.91 2799
1424.97 1108.91 2799
1434.22 1110.89 2804
1440.93 1110.89 2804
1447.63 1110.89 2804
1454.34 1110.89 2804
1453.75 1105.34 2790
1453.09 1099.79 2776
1461.84 1101.38 2780
1471.12 1103.36 2785
1477.78 1103.36 2785
1484.44 1103.36 2785
1491.1 1103.36 2785
1497.76 1103.36 2785
1504.42 1103.36 2785
1506.2 1099.79 2776
1512.84 1099.79 2776
1521.67 1101.38 2780
1528.31 1101.38 2780
1534.96 1101.38 2780
1536.62 1097.81 2771
1543.24 1097.81 2771
1549.87 1097.81 2771
1561.82 1092.27 2757
1568.41 1092.27 2757
1575 1092.27 2757
1594.79 1101.38 2780
1604.32 1103.36 2785
1610.98 1103.36 2785
1617.64 1103.36 2785
1624.3 1103.36 2785
1630.96 1103.36 2785
1642.91 1106.92 2794
1649.59 1106.92 2794
1662.2 1110.89 2804
1683.19 1120.39 2828
1689.95 1120.39 2828
1696.72 1120.39 2828
1708.9 1123.96 2837
1718.71 1125.94 2842
1725.5 1125.94 2842
1732.3 1125.94 2842
1739.1 1125.94 2842
1709.96 1094.25 2762
1716.56 1094.25 2762
1723.17 1094.25 2762
1729.77 1094.25 2762
1736.38 1094.25 2762
1731.62 1087.12 2744
1726.78 1079.98 2726
1725.03 1074.83 2713
1731.52 1074.83 2713
1732.24 1071.27 2704
1708.04 1040.76 2627
1714.33 1040.76 2627
1720.61 1040.76 2627
1705.2 1027.69 2594
1711.4 1027.69 2594
1702.37 1018.58 2571
1703.2 1015.41 2563
1701.33 1010.65 2551
1720.82 1018.58 2571
1731.67 1021.35 2578
1737.83 1021.35 2578
1744 1021.35 2578
1747.45 1019.76 2574
1753.6 1019.76 2574
1757.71 1018.58 2571
1763.85 1018.58 2571
1790.53 1019.76 2574
1796.69 1019.76 2574
1802.84 1019.76 2574
1806.89 1018.58 2571
2092.52 1087.12 2744
2099.08 1087.12 2744
-1957.91 1042.27 2615
-1966.59 1050.24 2635
-1972.93 1057.02 2652
-1966.59 1057.02 2652
-1969.86 1062.2 2665
-1976.01 1068.98 2682
-1982.08 1075.75 2699
-1975.63 1075.75 2699
-1985.23 1084.52 2721
-1985.26 1088.11 2730
-1978.74 1088.11 2730
-1972.21 1088.11 2730
-1784.34 1004.41 2520
-1778.32 1004.41 2520
-1772.29 1004.41 2520
-1766.26 1004.41 2520
-1739.28 992.451 2490
-1738.2 995.241 2497
-1745.41 1002.81 2516
-1739.39 1002.81 2516
-1733.38 1002.81 2516
-1727.36 1002.81 2516
-1721.34 1002.81 2516
-1715.33 1002.81 2516
-1658.58 994.045 2494
-1652.62 994.045 2494
-1679.01 1013.57 2543
-1678.19 1016.76 2551
-1672.09 1016.76 2551
-1665.99 1016.76 2551
-1665.09 1019.95 2559
-1687.5 1037.49 2603
-1686.44 1040.68 2611
-1680.2 1040.68 2611
-1673.95 1040.68 2611
-1667.71 1040.68 2611
-1661.47 1040.68 2611
-1655.22 1040.68 2611
-1643.93 1037.49 2603
-1637.7 1037.49 2603
-1636.49 1040.68 2611
-1630.25 1040.68 2611
-1655.1 1060.61 2661
-1648.74 1060.61 2661
-1642.38 1060.61 2661
-1643.39 1065.39 2673
-1637 1065.39 2673
-1630.61 1065.39 2673
-1613.89 1058.61 2656
-1607.53 1058.61 2656
-1616.86 1068.98 2682
-1615.85 1072.56 2691
-1609.41 1072.56 2691
-1613.1 1079.34 2708
-1614.34 1084.52 2721
-1607.83 1084.52 2721
-1601.33 1084.52 2721
-1603.03 1090.1 2735
-1604.08 1095.28 2748
-1600.41 1097.28 2753
-1593.83 1097.28 2753
-1587.24 1097.28 2753
-1572.62 1091.7 2739
-1393.79 1127.17 2828
-1387.03 1127.17 2828
-1394.42 1138.73 2857
-1387.59 1138.73 2857
-1380.76 1138.73 2857
-1366.71 1132.75 2842
-1359.92 1132.75 2842
-1346.46 1127.17 2828
-1339.69 1127.17 2828
-1328.22 1123.18 2818
-1301.78 1106.44 2776
-1288.61 1100.86 2762
-1282.01 1100.86 2762
-1260.63 1088.11 2730
-1252.26 1086.51 2726
-1245.74 1086.51 2726
-1239.22 1086.51 2726
-1228.64 1082.93 2717
-1216.29 1077.75 2704
-1198.19 1067.38 2678
-1187.78 1063.8 2669
-1181.4 1063.8 2669
-1173.26 1062.2 2665
-1161.19 1057.02 2652
-1145.71 1048.65 2631
-1139.41 1048.65 2631
-1126.23 1042.27 2615
-1116.55 1039.08 2607
-1113.72 1042.27 2615
-1107.47 1042.27 2615
-1101.22 1042.27 2615
-1094.97 1042.27 2615
-1083.72 1037.49 2603
-1077.49 1037.49 2603
-1067.56 1033.9 2594
-1061.36 1033.9 2594
-1062.07 1040.68 2611
-1055.83 1040.68 2611
-1049.58 1040.68 2611
-1043.34 1040.68 2611
-1037.1 1040.68 2611
-1030.85 1040.68 2611
-1019.9 1035.9 2599
-1007.06 1029.12 2582
-999.33 1027.53 2578
-996.247 1030.71 2586
-990.063 1030.71 2586
-986.923 1033.9 2594
-984.123 1037.49 2603
-980.904 1040.68 2611
-974.66 1040.68 2611
-968.416 1040.68 2611
-962.173 1040.68 2611
-955.929 1040.68 2611
-943.502 1033.9 2594
-937.299 1033.9 2594
-932.891 1035.9 2599
-926.676 1035.9 2599
-920.461 1035.9 2599
-914.246 1035.9 2599
-908.031 1035.9 2599
-900.081 1033.9 2594
-895.601 1035.9 2599
-889.386 1035.9 2599
-891.326 1045.46 2623
-889.103 1050.24 2635
-882.802 1050.24 2635
-876.501 1050.24 2635
-871.851 1052.24 2640
-872.423 1060.61 2661
-866.059 1060.61 2661
-859.696 1060.61 2661
-853.333 1060.61 2661
-842.832 1055.43 2648
-841.87 1062.2 2665
-835.497 1062.2 2665
-835.658 1070.57 2686
-833.248 1075.75 2699
-826.794 1075.75 2699
-820.34 1075.75 2699
-809.966 1070.57 2686
-801.149 1067.38 2678
-794.745 1067.38 2678
-783.337 1060.61 2661
-776.974 1060.61 2661
-770.611 1060.61 2661
-764.247 1060.61 2661
-757.884 1060.61 2661
-751.521 1060.61 2661
-741.517 1055.43 2648
-735.185 1055.43 2648
-724.174 1048.65 2631
-716.791 1047.06 2627
-709.427 1045.46 2623
-703.154 1045.46 2623
-696.882 1045.46 2623
-692.716 1048.65 2631
-686.424 1048.65 2631
-680.133 1048.65 2631
-673.841 1048.65 2631
-661.461 1039.08 2607
-655.226 1039.08 2607
-648.992 1039.08 2607
-643.744 1040.68 2611
-637.501 1040.68 2611
-631.257 1040.68 2611
-625.013 1040.68 2611
-618.77 1040.68 2611
-612.526 1040.68 2611
-602.335 1033.9 2594
-595.212 1032.31 2590
-591.975 1037.49 2603
-585.751 1037.49 2603
-582.198 1042.27 2615
-575.945 1042.27 2615
-569.691 1042.27 2615
-563.438 1042.27 2615
-555.48 1039.08 2607
-549.246 1039.08 2607
-543.845 1040.68 2611
-537.602 1040.68 2611
-532.172 1042.27 2615
-525.919 1042.27 2615
-519.665 1042.27 2615
-513.412 1042.27 2615
-507.935 1043.87 2619
-508.759 1058.61 2656
-502.408 1058.61 2656
-496.057 1058.61 2656
-489.705 1058.61 2656
-481.17 1053.83 2644
-474.848 1053.83 2644
-466.93 1050.24 2635
-461.503 1052.24 2640
-455.19 1052.24 2640
-448.877 1052.24 2640
-442.564 1052.24 2640
-432.781 1043.87 2619
-425.215 1040.68 2611
-419.613 1042.27 2615
-415.257 1047.06 2627
-408.975 1047.06 2627
-402.693 1047.06 2627
-396.411 1047.06 2627
-390.129 1047.06 2627
-383.847 1047.06 2627
-377.565 1047.06 2627
-371.283 1047.06 2627
-365.001 1047.06 2627
-358.173 1045.46 2623
-351.901 1045.46 2623
-345.628 1045.46 2623
-339.873 1047.06 2627
-333.591 1047.06 2627
-329.926 1055.43 2648
-323.594 1055.43 2648
-317.262 1055.43 2648
-310.93 1055.43 2648
-303.677 1052.24 2640
-297.815 1053.83 2644
-291.492 1053.83 2644
-285.169 1053.83 2644
-278.847 1053.83 2644
-272.524 1053.83 2644
-266.202 1053.83 2644
-258.994 1050.24 2635
-253.94 1055.43 2648
-248.823 1060.61 2661
-244.009 1067.38 2678
-237.605 1067.38 2678
-231.892 1070.57 2686
-226.224 1074.16 2695
-219.78 1074.16 2695
-213.335 1074.16 2695
-206.2 1070.57 2686
-198.81 1065.39 2673
-191.842 1062.2 2665
-185.469 1062.2 2665
-179.096 1062.2 2665
-172.724 1062.2 2665
-165.789 1058.61 2656
-159.438 1058.61 2656
-152.625 1055.43 2648
-145.851 1052.24 2640
-78.6802 929.874 2333
-73.1013 929.874 2333
-67.5224 929.874 2333
-61.5187 923.497 2317
-55.6639 918.316 2304
-49.9585 914.728 2295
-44.3348 911.938 2288
-38.8635 911.938 2288
-33.1733 905.96 2273
-27.7378 905.96 2273
-22.273 904.764 2270
-16.8447 904.764 2270
-11.4164 904.764 2270
-5.99609 905.96 2273
-0.560662 905.96 2273
4.8812 907.156 2276
10.3238 907.156 2276
15.7872 908.351 2279
21.237 908.351 2279
26.7219 909.547 2282
32.1788 909.547 2282
37.6358 909.547 2282
43.0927 909.547 2282
48.6135 910.743 2285
54.0777 910.743 2285
59.5418 910.743 2285
65.0913 911.938 2288
70.6859 913.533 2292
76.1668 913.533 2292
81.6477 913.533 2292
87.1285 913.533 2292
92.6094 913.533 2292
98.0903 913.533 2292
103.255 910.743 2285
108.719 910.743 2285
114.333 911.938 2288
119.804 911.938 2288
125.276 911.938 2288
130.747 911.938 2288
136.04 910.743 2285
141.504 910.743 2285
146.582 908.351 2279
152.232 909.547 2282
157.689 909.547 2282
163.36 910.743 2285
168.824 910.743 2285
174.822 913.533 2292
180.775 915.924 2298
186.27 915.924 2298
191.766 915.924 2298
197.261 915.924 2298
255.347 1040.68 2611
261.591 1040.68 2611
268.245 1042.27 2615
274.498 1042.27 2615
282.469 1048.65 2631
288.761 1048.65 2631
296.959 1055.43 2648
305.238 1062.2 2665
312.546 1065.39 2673
318.938 1065.39 2673
327.521 1072.56 2691
333.956 1072.56 2691
341.403 1075.75 2699
347.857 1075.75 2699
356.149 1081.33 2713
362.637 1081.33 2713
369.124 1081.33 2713
373.674 1075.75 2699
380.128 1075.75 2699
386.582 1075.75 2699
392.454 1074.16 2695
399.49 1075.75 2699
405.944 1075.75 2699
414.538 1081.33 2713
421.025 1081.33 2713
428.143 1082.93 2717
434.64 1082.93 2717
441.137 1082.93 2717
446.152 1079.34 2708
452.627 1079.34 2708
456.221 1072.56 2691
465.579 1079.34 2708
472.054 1079.34 2708
478.53 1079.34 2708
485.006 1079.34 2708
493.841 1084.52 2721
501.267 1086.51 2726
507.786 1086.51 2726
514.304 1086.51 2726
519.868 1084.52 2721
523.86 1079.34 2708
527.789 1074.16 2695
534.234 1074.16 2695
540.678 1074.16 2695
543.672 1067.38 2678
547.405 1062.2 2665
554.609 1063.8 2669
560.992 1063.8 2669
567.374 1063.8 2669
570.962 1058.61 2656
577.313 1058.61 2656
581.907 1055.43 2648
586.462 1052.24 2640
592.775 1052.24 2640
599.088 1052.24 2640
603.337 1048.65 2631
606.848 1043.87 2619
612.174 1042.27 2615
618.427 1042.27 2615
626.592 1045.46 2623
632.864 1045.46 2623
640.111 1047.06 2627
647.377 1048.65 2631
654.663 1050.24 2635
660.964 1050.24 2635
674.862 1062.2 2665
685.58 1068.98 2682
691.994 1068.98 2682
698.407 1068.98 2682
704.821 1068.98 2682
719.455 1081.33 2713
725.943 1081.33 2713
732.43 1081.33 2713
738.918 1081.33 2713
745.405 1081.33 2713
751.893 1081.33 2713
758.381 1081.33 2713
765.996 1082.93 2717
772.493 1082.93 2717
778.99 1082.93 2717
785.487 1082.93 2717
793.151 1084.52 2721
801.127 1086.51 2726
808.831 1088.11 2730
815.359 1088.11 2730
830.016 1098.87 2757
836.608 1098.87 2757
843.201 1098.87 2757
849.794 1098.87 2757
856.387 1098.87 2757
860.163 1095.28 2748
866.734 1095.28 2748
873.305 1095.28 2748
878.596 1093.69 2744
885.157 1093.69 2744
895.944 1098.87 2757
904.173 1100.86 2762
910.778 1100.86 2762
917.383 1100.86 2762
922.315 1098.87 2757
928.908 1098.87 2757
935.501 1098.87 2757
942.094 1098.87 2757
948.686 1098.87 2757
955.279 1098.87 2757
961.872 1098.87 2757
965.303 1095.28 2748
967.277 1090.1 2735
973.817 1090.1 2735
978.565 1088.11 2730
983.65 1086.51 2726
990.169 1086.51 2726
996.688 1086.51 2726
1009.83 1093.69 2744
1016.39 1093.69 2744
1024.45 1095.28 2748
1031.02 1095.28 2748
1037.59 1095.28 2748
1037.32 1088.11 2730
1035.44 1079.34 2708
1038.45 1075.75 2699
1048.39 1079.34 2708
1054.86 1079.34 2708
1061.34 1079.34 2708
1067.81 1079.34 2708
1074.29 1079.34 2708
1077.17 1075.75 2699
1080.42 1072.56 2691
1086.85 1072.56 2691
1093.29 1072.56 2691
1090.73 1063.8 2669
1095.47 1062.2 2665
1094.81 1055.43 2648
1101.14 1055.43 2648
1107.48 1055.43 2648
1113.81 1055.43 2648
1118.45 1053.83 2644
1119.24 1048.65 2631
1127.24 1050.24 2635
1133.55 1050.24 2635
1145.47 1055.43 2648
1155.28 1058.61 2656
1161.63 1058.61 2656
1167.98 1058.61 2656
1174.34 1058.61 2656
1175.35 1053.83 2644
1181.68 1053.83 2644
1188 1053.83 2644
1194.32 1053.83 2644
1204.28 1057.02 2652
1226.14 1070.57 2686
1234.86 1072.56 2691
1241.29 1072.56 2691
1255.61 1079.34 2708
1270.47 1086.51 2726
1285.42 1093.69 2744
1291.99 1093.69 2744
1300.44 1095.28 2748
1307.01 1095.28 2748
1313.58 1095.28 2748
1320.15 1095.28 2748
1326.72 1095.28 2748
1337.66 1098.87 2757
1349.13 1102.86 2767
1355.75 1102.86 2767
1362.36 1102.86 2767
1366.51 1100.86 2762
1377.59 1104.45 2771
1384.21 1104.45 2771
1390.84 1104.45 2771
1409.07 1113.62 2794
1418.28 1115.61 2799
1424.97 1115.61 2799
1434.22 1117.6 2804
1440.93 1117.6 2804
1447.63 1117.6 2804
1454.34 1117.6 2804
1453.75 1112.02 2790
1453.09 1106.44 2776
1461.84 1108.04 2780
1471.12 1110.03 2785
1477.78 1110.03 2785
1484.44 1110.03 2785
1491.1 1110.03 2785
1497.76 1110.03 2785
1504.42 1110.03 2785
1506.2 1106.44 2776
1512.84 1106.44 2776
1521.67 1108.04 2780
1528.31 1108.04 2780
1534.96 1108.04 2780
1536.62 1104.45 2771
1543.24 1104.45 2771
1549.87 1104.45 2771
1561.82 1098.87 2757
1568.41 1098.87 2757
1575 1098.87 2757
1594.79 1108.04 2780
1604.32 1110.03 2785
1610.98 1110.03 2785
1617.64 1110.03 2785
1605.64 1097.28 2753
1634.68 1108.04 2780
1641.33 1108.04 2780
1650.94 1110.03 2785
1671.88 1119.6 2809
1689.95 1127.17 2828
1696.72 1127.17 2828
1703.48 1127.17 2828
1707.22 1125.18 2823
1713.97 1125.18 2823
1717.67 1123.18 2818
1709.72 1113.62 2794
1707.22 1086.51 2726
1713.74 1086.51 2726
1720.26 1086.51 2726
1701.44 1070.57 2686
1707.87 1070.57 2686
1711.74 1068.98 2682
1718.15 1068.98 2682
1683.62 1035.9 2599
1689.84 1035.9 2599
1696.05 1035.9 2599
1698.99 1033.9 2594
1692.05 1025.93 2574
1698.2 1025.93 2574
1697.08 1021.55 2563
1695.23 1016.76 2551
1701.33 1016.76 2551
1715.46 1021.55 2563
1724.28 1023.14 2567
1730.42 1023.14 2567
1736.56 1023.14 2567
1742.69 1023.14 2567
1751.56 1024.73 2571
1757.71 1024.73 2571
1763.85 1024.73 2571
1770 1024.73 2571
1776.15 1024.73 2571
1782.3 1024.73 2571
1790.53 1025.93 2574
1796.69 1025.93 2574
1802.84 1025.93 2574
1806.89 1024.73 2571
1813.04 1024.73 2571
2022.86 1060.61 2661
2088.7 1091.7 2739
2095.25 1091.7 2739
-1954.92 1046.93 2611
-1951.66 1048.54 2615
-1954.34 1053.35 2627
-1948.05 1053.35 2627
-1941.77 1053.35 2627
-1932.54 1051.74 2623
-1926.27 1051.74 2623
-1920 1051.74 2623
-1929.05 1060.16 2644
-1922.72 1060.16 2644
-1916.4 1060.16 2644
-1773.72 1004.43 2505
-1767.73 1004.43 2505
-1761.74 1004.43 2505
-1752.95 1002.83 2501
-1739.28 998.415 2490
-1736.11 1000.02 2494
-1732.23 1001.22 2497
-1726.26 1001.22 2497
-1733.38 1008.84 2516
-1727.36 1008.84 2516
-1721.34 1008.84 2516
-1715.33 1008.84 2516
-1658.58 1000.02 2494
-1652.62 1000.02 2494
-1666.46 1012.05 2524
-1660.43 1012.05 2524
-1654.39 1012.05 2524
-1648.35 1012.05 2524
-1647.52 1015.26 2532
-1643.41 1016.46 2535
-1652.85 1026.08 2559
-1646.73 1026.08 2559
-1666.26 1042.12 2599
-1667.71 1046.93 2611
-1661.47 1046.93 2611
-1655.22 1046.93 2611
-1643.93 1043.72 2603
-1637.7 1043.72 2603
-1631.48 1043.72 2603
-1619.63 1040.12 2594
-1613.43 1040.12 2594
-1612.8 1043.72 2603
-1623.86 1054.95 2631
-1617.57 1054.95 2631
-1621.69 1061.77 2648
-1620.24 1064.98 2656
-1613.89 1064.98 2656
-1607.53 1064.98 2656
-1616.86 1075.4 2682
-1615.85 1079.01 2691
-1609.41 1079.01 2691
-1613.1 1085.83 2708
-1614.34 1091.04 2721
-1607.83 1091.04 2721
-1601.33 1091.04 2721
-1603.03 1096.65 2735
-1604.08 1101.87 2748
-1600.41 1103.87 2753
-1593.83 1103.87 2753
-1587.24 1103.87 2753
-1572.62 1098.26 2739
-1393.79 1133.94 2828
-1387.03 1133.94 2828
-1394.42 1145.57 2857
-1387.59 1145.57 2857
-1380.76 1145.57 2857
-1366.71 1139.56 2842
-1359.92 1139.56 2842
-1346.46 1133.94 2828
-1339.69 1133.94 2828
-1328.22 1129.93 2818
-1301.78 1113.09 2776
-1288.61 1107.48 2762
-1282.01 1107.48 2762
-1260.63 1094.65 2730
-1252.26 1093.04 2726
-1245.74 1093.04 2726
-1239.22 1093.04 2726
-1228.64 1089.44 2717
-1216.29 1084.22 2704
-1198.19 1073.8 2678
-1187.78 1070.19 2669
-1181.4 1070.19 2669
-1173.26 1068.59 2665
-1161.19 1063.37 2652
-1145.71 1054.95 2631
-1139.41 1054.95 2631
-1126.23 1048.54 2615
-1116.55 1045.33 2607
