ply
format ascii 1.0
comment File generated
element vertex 2147
property float x
property float y
property float z
end_header
-1605.34 -65.4596 3588
-1596.76 -65.4596 3588
-1588.18 -65.4596 3588
-1572.56 -65.1677 3572
-1564.02 -65.1677 3572
-1552.43 -65.04 3565
-1540.44 -64.8941 3557
-1531.93 -64.8941 3557
-1523.43 -64.8941 3557
-1514.92 -64.8941 3557
-1500.06 -64.6204 3542
-1485.28 -64.3467 3527
-1476.84 -64.3467 3527
-1462.16 -64.0731 3512
-1438.86 -63.4163 3476
-1421.5 -63.0149 3454
-1413.24 -63.0149 3454
-1338.27 -60.0229 3290
-1330.4 -60.0229 3290
-1297.21 -58.8735 3227
-1267.51 -57.8701 3172
-1259.93 -57.8701 3172
-1231.02 -56.8849 3118
-1210.22 -56.2646 3084
-1193.88 -55.845 3061
-1186.56 -55.845 3061
-1172.69 -55.5349 3044
-1152.78 -54.9328 3011
-1135.3 -54.4402 2984
-1124.39 -54.2578 2974
-1117.28 -54.2578 2974
-1102.33 -53.8747 2953
-1095.26 -53.8747 2953
-1088.2 -53.8747 2953
-1081.14 -53.8747 2953
-1074.08 -53.8747 2953
-1067.02 -53.8747 2953
-1059.96 -53.8747 2953
-1052.89 -53.8747 2953
-1043.71 -53.7652 2947
-1036.66 -53.7652 2947
-1027.87 -53.674 2942
-1020.83 -53.674 2942
-1012.07 -53.5828 2937
-1003.34 -53.4915 2932
-996.328 -53.4915 2932
-989.317 -53.4915 2932
-978.955 -53.3091 2922
-971.968 -53.3091 2922
-964.98 -53.3091 2922
-957.993 -53.3091 2922
-951.005 -53.3091 2922
-944.018 -53.3091 2922
-937.031 -53.3091 2922
-930.043 -53.3091 2922
-923.056 -53.3091 2922
-916.069 -53.3091 2922
-905.659 -53.1084 2911
-898.698 -53.1084 2911
-891.737 -53.1084 2911
-884.776 -53.1084 2911
-877.815 -53.1084 2911
-870.853 -53.1084 2911
-862.409 -53.0172 2906
-855.459 -53.0172 2906
-848.51 -53.0172 2906
-841.561 -53.0172 2906
-834.612 -53.0172 2906
-827.663 -53.0172 2906
-820.714 -53.0172 2906
-813.765 -53.0172 2906
-806.815 -53.0172 2906
-798.49 -52.926 2901
-791.553 -52.926 2901
-784.616 -52.926 2901
-777.679 -52.926 2901
-770.741 -52.926 2901
-762.488 -52.8347 2896
-755.563 -52.8347 2896
-748.637 -52.8347 2896
-741.712 -52.8347 2896
-734.787 -52.8347 2896
-727.862 -52.8347 2896
-720.937 -52.8347 2896
-714.011 -52.8347 2896
-707.086 -52.8347 2896
-697.743 -52.6523 2886
-690.842 -52.6523 2886
-682.756 -52.5611 2881
-675.866 -52.5611 2881
-667.816 -52.4699 2876
-660.939 -52.4699 2876
-654.061 -52.4699 2876
-647.184 -52.4699 2876
-640.306 -52.4699 2876
-633.429 -52.4699 2876
-625.462 -52.3786 2871
-620.752 -52.5611 2881
-617.058 -52.8347 2896
-611.187 -52.926 2901
-604.249 -52.926 2901
-602.666 -53.4003 2927
-604.01 -54.1483 2968
-615.616 -55.845 3061
-608.297 -55.845 3061
-610.99 -56.7755 3112
-625.852 -58.8735 3227
-627.904 -59.804 3278
-620.065 -59.804 3278
-614.468 -60.0229 3290
-607.891 -60.1506 3297
-600.007 -60.1506 3297
-592.123 -60.1506 3297
-584.239 -60.1506 3297
-577.403 -60.2601 3303
-571.919 -60.5155 3317
-563.987 -60.5155 3317
-556.055 -60.5155 3317
-546.966 -60.3878 3310
-539.051 -60.3878 3310
-530.013 -60.2601 3303
-523.221 -60.3878 3310
-517.329 -60.625 3323
-511.529 -60.8804 3337
-503.549 -60.8804 3337
-495.569 -60.8804 3337
-490.512 -61.2453 3357
-482.484 -61.2453 3357
-474.457 -61.2453 3357
-466.429 -61.2453 3357
-455.67 -60.8804 3337
-452.118 -61.4824 3370
-444.059 -61.4824 3370
-437.812 -61.7378 3384
-430.609 -61.8655 3391
-422.5 -61.8655 3391
-414.391 -61.8655 3391
-275.328 -41.9248 2298
-269.832 -41.9248 2298
-264.337 -41.9248 2298
-258.842 -41.9248 2298
-253.347 -41.9248 2298
-247.851 -41.9248 2298
-242.04 -41.8701 2295
-236.552 -41.8701 2295
-231.064 -41.8701 2295
-225.576 -41.8701 2295
-220.088 -41.8701 2295
-213.945 -41.7424 2288
-207.927 -41.6329 2282
-202.47 -41.6329 2282
-197.013 -41.6329 2282
-189.458 -41.1768 2257
-183.571 -41.0673 2251
-177.713 -40.9579 2245
-172.345 -40.9579 2245
-164.596 -40.3741 2213
-158.009 -40.0457 2195
-152.133 -39.8815 2186
-146.906 -39.8815 2186
-141.16 -39.7355 2178
-135.265 -39.5348 2167
-129.723 -39.4254 2161
-124.21 -39.3159 2155
-119.056 -39.3159 2155
-113.639 -39.2247 2150
-108.346 -39.17 2147
-103.212 -39.17 2147
-98.078 -39.17 2147
-92.814 -39.1152 2144
-87.6053 -39.0787 2142
-82.252 -38.9693 2136
-77.1442 -38.9693 2136
-71.9352 -38.9145 2133
-66.6779 -38.8233 2128
-61.5892 -38.8233 2128
-56.5005 -38.8233 2128
-51.3393 -38.7686 2125
-46.1925 -38.7139 2122
-41.1182 -38.7139 2122
-36.0438 -38.7139 2122
-30.9403 -38.6774 2120
-25.8341 -38.6226 2117
-20.7423 -38.5679 2114
-15.6722 -38.5314 2112
-10.6218 -38.5314 2112
-5.57138 -38.5314 2112
-0.520209 -38.4767 2109
4.52305 -38.4767 2109
9.56631 -38.4767 2109
14.6096 -38.4767 2109
19.6528 -38.4767 2109
24.661 -38.422 2106
29.697 -38.422 2106
34.7001 -38.3855 2104
39.7692 -38.422 2106
44.8053 -38.422 2106
49.8414 -38.422 2106
54.8775 -38.422 2106
59.8566 -38.3855 2104
64.8879 -38.3855 2104
69.9193 -38.3855 2104
74.9505 -38.3855 2104
79.9818 -38.3855 2104
85.0132 -38.3855 2104
90.0445 -38.3855 2104
95.0758 -38.3855 2104
100.107 -38.3855 2104
105.138 -38.3855 2104
110.17 -38.3855 2104
115.201 -38.3855 2104
120.232 -38.3855 2104
125.264 -38.3855 2104
130.295 -38.3855 2104
135.648 -38.4767 2109
140.691 -38.4767 2109
145.734 -38.4767 2109
150.992 -38.5314 2112
156.042 -38.5314 2112
161.093 -38.5314 2112
166.537 -38.6226 2117
171.599 -38.6226 2117
176.912 -38.6774 2120
181.981 -38.6774 2120
187.227 -38.7139 2122
192.845 -38.8233 2128
198.213 -38.8781 2131
203.309 -38.8781 2131
208.6 -38.9145 2133
213.701 -38.9145 2133
218.802 -38.9145 2133
223.902 -38.9145 2133
229.647 -39.024 2139
235.311 -39.1152 2144
241.672 -39.3159 2155
246.825 -39.3159 2155
252.68 -39.4254 2161
257.847 -39.4254 2161
263.015 -39.4254 2161
268.182 -39.4254 2161
404.064 -56.1552 3078
412.227 -56.2646 3084
419.602 -56.2646 3084
426.976 -56.2646 3084
433.506 -56.1552 3078
440.007 -56.0457 3072
447.353 -56.0457 3072
453.071 -55.845 3061
459.489 -55.7355 3055
466.03 -55.6443 3050
473.324 -55.6443 3050
478.884 -55.4436 3039
485.191 -55.3342 3033
488.872 -54.9328 3011
496.072 -54.9328 3011
499.762 -54.5497 2990
506.912 -54.5497 2990
532.136 -53.4915 2932
539.147 -53.4915 2932
546.158 -53.4915 2932
552.226 -53.4003 2927
559.226 -53.4003 2927
567.192 -53.4915 2932
574.203 -53.4915 2932
581.215 -53.4915 2932
588.226 -53.4915 2932
595.237 -53.4915 2932
602.249 -53.4915 2932
606.143 -53.2179 2917
610.806 -53.0172 2906
617.755 -53.0172 2906
624.705 -53.0172 2906
630.567 -52.926 2901
636.405 -52.8347 2896
642.22 -52.7435 2891
648.01 -52.6523 2886
654.912 -52.6523 2886
661.813 -52.6523 2886
668.714 -52.6523 2886
675.616 -52.6523 2886
682.517 -52.6523 2886
688.224 -52.5611 2881
695.113 -52.5611 2881
702.003 -52.5611 2881
708.892 -52.5611 2881
715.781 -52.5611 2881
722.671 -52.5611 2881
729.56 -52.5611 2881
736.449 -52.5611 2881
743.339 -52.5611 2881
750.228 -52.5611 2881
755.803 -52.4699 2876
762.681 -52.4699 2876
769.558 -52.4699 2876
776.435 -52.4699 2876
781.951 -52.3786 2871
788.816 -52.3786 2871
795.682 -52.3786 2871
802.547 -52.3786 2871
809.413 -52.3786 2871
816.278 -52.3786 2871
823.144 -52.3786 2871
830.009 -52.3786 2871
836.874 -52.3786 2871
843.74 -52.3786 2871
852.087 -52.4699 2876
858.964 -52.4699 2876
865.841 -52.4699 2876
871.202 -52.3786 2871
878.067 -52.3786 2871
884.932 -52.3786 2871
893.351 -52.4699 2876
904.924 -52.7435 2891
916.568 -53.0172 2906
923.517 -53.0172 2906
937.19 -53.4003 2927
947.415 -53.5828 2937
959.638 -53.8747 2953
968.336 -53.9659 2958
975.41 -53.9659 2958
991.119 -54.4402 2984
1001.93 -54.6409 2995
1009.1 -54.6409 2995
1036.62 -55.7355 3055
1069.55 -57.1039 3130
1103.88 -58.5269 3208
1111.55 -58.5269 3208
1134.57 -59.3296 3252
1165.18 -60.5155 3317
1196.81 -61.7378 3384
1204.9 -61.7378 3384
1225.54 -62.3764 3419
1238.76 -62.6318 3433
1246.97 -62.6318 3433
1255.18 -62.6318 3433
1263.39 -62.6318 3433
1271.6 -62.6318 3433
1292.86 -63.2703 3468
1301.15 -63.2703 3468
1323.42 -63.9454 3505
1331.8 -63.9454 3505
1340.18 -63.9454 3505
1345.48 -63.7994 3497
1348.42 -63.544 3483
1350.91 -63.2703 3468
1356.46 -63.1426 3461
1364.74 -63.1426 3461
1361.9 -62.6318 3433
1358.94 -62.121 3405
1361.46 -61.8655 3391
1369.57 -61.8655 3391
1369.15 -61.4824 3370
1377.2 -61.4824 3370
1377.04 -61.1175 3350
1385.05 -61.1175 3350
1390.15 -60.9898 3343
1392.71 -60.7527 3330
1400.67 -60.7527 3330
1408.64 -60.7527 3330
1411.07 -60.5155 3317
1410.45 -60.1506 3297
1412.74 -59.9134 3284
1420.59 -59.9134 3284
1428.44 -59.9134 3284
1433.67 -59.804 3278
1438.43 -59.6763 3271
1446.25 -59.6763 3271
1454.08 -59.6763 3271
1461.9 -59.6763 3271
1469.72 -59.6763 3271
1480.7 -59.804 3278
1488.54 -59.804 3278
1496.38 -59.804 3278
1498.25 -59.5668 3265
1502.83 -59.4391 3258
1522.68 -59.9134 3284
1545.91 -60.5155 3317
1553.84 -60.5155 3317
1571.19 -60.8804 3337
1585.33 -61.1175 3350
1616.17 -61.9933 3398
1624.29 -61.9933 3398
1639.14 -62.2487 3412
1647.3 -62.2487 3412
1655.46 -62.2487 3412
1663.62 -62.2487 3412
1671.78 -62.2487 3412
1679.94 -62.2487 3412
1688.1 -62.2487 3412
1696.26 -62.2487 3412
1693.93 -61.8655 3391
1681.46 -61.1175 3350
1689.47 -61.1175 3350
1693.93 -60.9898 3343
1695.31 -60.7527 3330
1703.27 -60.7527 3330
1711.23 -60.7527 3330
1715.58 -60.625 3323
1720.42 -60.5155 3317
1717.93 -60.1506 3297
1709.06 -59.5668 3265
1716.87 -59.5668 3265
1724.68 -59.5668 3265
1728.77 -59.4391 3258
1730.16 -59.2202 3246
1737.93 -59.2202 3246
1741.92 -59.0925 3239
1743.19 -58.8735 3227
1740.59 -58.5269 3208
1748.27 -58.5269 3208
1732.95 -57.7606 3166
1724.03 -57.2133 3136
1715.51 -56.6842 3107
1706.86 -56.1552 3078
1714.22 -56.1552 3078
1696.41 -55.3342 3033
1688.5 -54.8416 3006
1671.43 -54.0571 2963
1678.52 -54.0571 2963
1650.33 -52.926 2901
1637.27 -52.2874 2866
1636.1 -52.032 2852
1637.16 -51.8496 2842
1643.95 -51.8496 2842
1639.71 -51.5029 2823
1640.63 -51.3205 2813
1642.09 -51.1563 2804
1648.79 -51.1563 2804
1655.5 -51.1563 2804
1656.27 -50.9739 2794
1657.6 -50.8097 2785
1664.26 -50.8097 2785
1665.52 -50.6455 2776
1666.73 -50.4813 2767
1673.35 -50.4813 2767
1679.97 -50.4813 2767
1686.59 -50.4813 2767
1690.14 -50.39 2762
1693.68 -50.2988 2757
1697.8 -50.2258 2753
1704.38 -50.2258 2753
1707.86 -50.1346 2748
1711.94 -50.0617 2744
1718.5 -50.0617 2744
1725.06 -50.0617 2744
1725.94 -49.8975 2735
1729.31 -49.8062 2730
1735.84 -49.8062 2730
1739.82 -49.7333 2726
1746.34 -49.7333 2726
1749.64 -49.642 2721
1753.57 -49.5691 2717
1754.23 -49.4049 2708
1760.71 -49.4049 2708
1764.57 -49.3319 2704
1765.15 -49.1677 2695
1765.67 -49.0035 2686
1772.1 -49.0035 2686
1767.26 -48.6933 2669
1770.99 -48.6204 2665
1777.36 -48.6204 2665
1783.73 -48.6204 2665
1784.06 -48.4562 2656
1790.41 -48.4562 2656
1794.06 -48.3832 2652
1800.4 -48.3832 2652
1806.74 -48.3832 2652
1813.08 -48.3832 2652
1819.42 -48.3832 2652
1823.01 -48.3102 2648
1829.34 -48.3102 2648
1830.13 -48.1643 2640
1836.44 -48.1643 2640
1842.76 -48.1643 2640
1849.07 -48.1643 2640
1855.38 -48.1643 2640
1861.7 -48.1643 2640
1870.84 -48.2372 2644
1877.16 -48.2372 2644
1883.48 -48.2372 2644
1889.81 -48.2372 2644
1889.68 -48.0731 2635
1895.98 -48.0731 2635
1902.28 -48.0731 2635
1908.58 -48.0731 2635
1914.88 -48.0731 2635
1921.18 -48.0731 2635
1927.48 -48.0731 2635
1933.78 -48.0731 2635
1940.08 -48.0731 2635
1946.38 -48.0731 2635
1952.69 -48.0731 2635
1958.99 -48.0731 2635
1965.29 -48.0731 2635
1968.6 -48.0001 2631
1974.89 -48.0001 2631
1981.18 -48.0001 2631
1984.45 -47.9271 2627
1987.7 -47.8541 2623
1987.89 -47.7082 2615
1994.14 -47.7082 2615
1991.22 -47.4892 2603
-2085.2 -44.1382 2785
-2078.54 -44.1382 2785
-2071.88 -44.1382 2785
-2065.22 -44.1382 2785
-2058.56 -44.1382 2785
-2051.9 -44.1382 2785
-2045.24 -44.1382 2785
-2034.92 -44.0589 2780
-2028.27 -44.0589 2780
-2015.08 -43.9163 2771
-2008.45 -43.9163 2771
-1991.71 -43.6944 2757
-1982.24 -43.631 2753
-1975.66 -43.631 2753
-1969.07 -43.631 2753
-1962.49 -43.631 2753
-1945.96 -43.4091 2739
-1945.78 -43.5518 2748
-2016.13 -45.2793 2857
-2009.3 -45.2793 2857
-2033.31 -45.9766 2901
-2062.69 -46.8007 2953
-2059.11 -46.88 2958
-2108.23 -48.1637 3039
-2139.68 -49.0512 3095
-2193.59 -50.4617 3184
-2185.98 -50.4617 3184
-2220.78 -51.4443 3246
-2217.11 -51.5394 3252
-2213.41 -51.6345 3258
-2205.62 -51.6345 3258
-2206.6 -51.8406 3271
-2229.7 -52.5696 3317
-2252.58 -53.2986 3363
-2244.53 -53.2986 3363
-2245.8 -53.5205 3377
-2265.56 -54.1861 3419
-2266.63 -54.408 3433
-2258.42 -54.408 3433
-2273.15 -54.9627 3468
-2283.79 -55.4223 3497
-2285.19 -55.66 3512
-2276.79 -55.66 3512
-2278.08 -55.8978 3527
-2279.3 -56.1355 3542
-2280.45 -56.3732 3557
-2271.94 -56.3732 3557
-2263.44 -56.3732 3557
-2260 -56.5 3565
-2260.95 -56.7378 3580
-2252.39 -56.7378 3580
-2248.84 -56.8645 3588
-2240.26 -56.8645 3588
-2231.68 -56.8645 3588
-2223.1 -56.8645 3588
-2214.52 -56.8645 3588
-2201.03 -56.7378 3580
-2197.36 -56.8645 3588
-2188.78 -56.8645 3588
-2189.32 -57.1023 3603
-2185.54 -57.2291 3611
-2186.56 -57.4826 3627
-2177.88 -57.4826 3627
-2169.21 -57.4826 3627
-2165.3 -57.6094 3635
-2160.76 -57.7204 3642
-2152.05 -57.7204 3642
-2152.76 -57.9739 3658
-2144.01 -57.9739 3658
-2135.26 -57.9739 3658
-2117.22 -57.7204 3642
-2108.51 -57.7204 3642
-2099.8 -57.7204 3642
-2091.09 -57.7204 3642
-2073.8 -57.4826 3627
-2060.57 -57.3558 3619
-2051.92 -57.3558 3619
-2052.3 -57.6094 3635
-2043.61 -57.6094 3635
-2034.92 -57.6094 3635
-2026.22 -57.6094 3635
-2017.53 -57.6094 3635
-2004.42 -57.4826 3627
-1982.54 -57.1023 3603
-1978.3 -57.2291 3611
-1974.03 -57.3558 3619
-1965.38 -57.3558 3619
-1956.73 -57.3558 3619
-1943.76 -57.2291 3611
-1935.13 -57.2291 3611
-1922.23 -57.1023 3603
-1909.36 -56.9755 3595
-1900.77 -56.9755 3595
-1892.17 -56.9755 3595
-1875.71 -56.7378 3580
-1867.15 -56.7378 3580
-1858.59 -56.7378 3580
-1850.03 -56.7378 3580
-1841.47 -56.7378 3580
-1832.91 -56.7378 3580
-1824.35 -56.7378 3580
-1815.79 -56.7378 3580
-1807.23 -56.7378 3580
-1794.65 -56.611 3572
-1778.6 -56.3732 3557
-1770.1 -56.3732 3557
-1761.59 -56.3732 3557
-1753.09 -56.3732 3557
-1744.58 -56.3732 3557
-1732.17 -56.2464 3549
-1723.68 -56.2464 3549
-1715.2 -56.2464 3549
-1706.71 -56.2464 3549
-1691.04 -56.0087 3534
-1686.4 -56.1355 3542
-1677.93 -56.1355 3542
-1676.53 -56.3732 3557
-1668.03 -56.3732 3557
-1659.52 -56.3732 3557
-1651.02 -56.3732 3557
-1642.51 -56.3732 3557
-1634 -56.3732 3557
-1629.15 -56.5 3565
-1620.63 -56.5 3565
-1618.89 -56.7378 3580
-1617.07 -56.9755 3595
-1612.06 -57.1023 3603
-1603.44 -57.1023 3603
-1594.82 -57.1023 3603
-1579.6 -56.8645 3588
-1571.02 -56.8645 3588
-1558.96 -56.7378 3580
-1550.4 -56.7378 3580
-1535.38 -56.5 3565
-1526.85 -56.5 3565
-1514.92 -56.3732 3557
-1503.03 -56.2464 3549
-1488.22 -56.0087 3534
-1479.77 -56.0087 3534
-1471.32 -56.0087 3534
-1444.66 -55.3114 3490
-1436.31 -55.3114 3490
-1427.97 -55.3114 3490
-1390.74 -54.1861 3419
-1354.66 -53.0926 3350
-1320.12 -52.0466 3284
-1279.5 -50.747 3202
-1271.84 -50.747 3202
-1242.87 -49.8912 3148
-1216.9 -49.1463 3101
-1200.51 -48.7818 3078
-1193.15 -48.7818 3078
-1179.24 -48.5124 3061
-1161.2 -48.0686 3033
-1141.39 -47.5456 3000
-1126.28 -47.2128 2979
-1119.15 -47.2128 2979
-1104.19 -46.88 2958
-1095.26 -46.8007 2953
-1090.04 -46.88 2958
-1086.63 -47.0384 2968
-1079.54 -47.0384 2968
-1072.44 -47.0384 2968
-1065.34 -47.0384 2968
-1058.24 -47.0384 2968
-1047.6 -46.88 2958
-1040.53 -46.88 2958
-1031.71 -46.8007 2953
-1024.65 -46.8007 2953
-1015.52 -46.7056 2947
-1005.05 -46.5471 2937
-998.027 -46.5471 2937
-991.004 -46.5471 2937
-982.305 -46.4679 2932
-975.294 -46.4679 2932
-968.283 -46.4679 2932
-961.271 -46.4679 2932
-952.633 -46.3887 2927
-945.633 -46.3887 2927
-938.634 -46.3887 2927
-931.635 -46.3887 2927
-924.635 -46.3887 2927
-917.636 -46.3887 2927
-909.081 -46.3094 2922
-902.094 -46.3094 2922
-891.737 -46.1351 2911
-884.776 -46.1351 2911
-877.815 -46.1351 2911
-870.853 -46.1351 2911
-863.892 -46.1351 2911
-856.931 -46.1351 2911
-849.97 -46.1351 2911
-843.009 -46.1351 2911
-836.048 -46.1351 2911
-827.663 -46.0558 2906
-820.714 -46.0558 2906
-813.765 -46.0558 2906
-806.815 -46.0558 2906
-799.866 -46.0558 2906
-792.917 -46.0558 2906
-785.968 -46.0558 2906
-779.019 -46.0558 2906
-770.741 -45.9766 2901
-763.804 -45.9766 2901
-756.867 -45.9766 2901
-749.93 -45.9766 2901
-742.993 -45.9766 2901
-736.056 -45.9766 2901
-729.118 -45.9766 2901
-722.181 -45.9766 2901
-714.011 -45.8974 2896
-707.086 -45.8974 2896
-698.952 -45.8181 2891
-692.039 -45.8181 2891
-683.941 -45.7389 2886
-675.866 -45.6596 2881
-667.816 -45.5804 2876
-660.939 -45.5804 2876
-654.061 -45.5804 2876
-647.184 -45.5804 2876
-640.306 -45.5804 2876
-633.429 -45.5804 2876
-625.462 -45.5011 2871
-622.906 -45.8181 2891
-618.124 -45.9766 2901
-611.187 -45.9766 2901
-604.249 -45.9766 2901
-602.666 -46.3887 2927
-606.249 -47.2128 2979
-617.829 -48.6867 3072
-610.483 -48.6867 3072
-610.99 -49.3206 3112
-625.852 -51.1432 3227
-627.904 -51.9515 3278
-620.065 -51.9515 3278
-616.896 -52.3477 3303
-608.997 -52.3477 3303
-601.099 -52.3477 3303
-593.2 -52.3477 3303
-587.783 -52.5696 3317
-580.9 -52.6647 3323
-572.953 -52.6647 3323
-565.007 -52.6647 3323
-558.234 -52.7756 3330
-550.271 -52.7756 3330
-542.308 -52.7756 3330
-534.345 -52.7756 3330
-528.437 -52.9816 3343
-520.443 -52.9816 3343
-516.588 -53.4096 3370
-508.529 -53.4096 3370
-500.47 -53.4096 3370
-494.457 -53.6314 3384
-486.365 -53.6314 3384
-478.273 -53.6314 3384
-470.181 -53.6314 3384
-461.133 -53.5205 3377
-453.996 -53.6314 3384
-445.904 -53.6314 3384
-440.529 -53.9643 3405
-435.942 -54.408 3433
-427.733 -54.408 3433
-419.523 -54.408 3433
-407.959 -53.9643 3405
-269.832 -36.4199 2298
-264.337 -36.4199 2298
-258.842 -36.4199 2298
-253.016 -36.3724 2295
-247.528 -36.3724 2295
-242.04 -36.3724 2295
-236.552 -36.3724 2295
-231.064 -36.3724 2295
-225.281 -36.3248 2292
-219.8 -36.3248 2292
-213.945 -36.2614 2288
-207.927 -36.1664 2282
-201.938 -36.0713 2276
-196.495 -36.0713 2276
-189.458 -35.7701 2257
-183.571 -35.675 2251
-177.713 -35.58 2245
-172.345 -35.58 2245
-164.596 -35.0728 2213
-158.009 -34.7875 2195
-152.133 -34.6449 2186
-146.906 -34.6449 2186
-140.966 -34.4706 2175
-135.078 -34.2962 2164
-129.543 -34.2011 2158
-124.21 -34.1536 2155
-119.056 -34.1536 2155
-113.639 -34.0743 2150
-108.346 -34.0268 2147
-103.212 -34.0268 2147
-98.078 -34.0268 2147
-92.7274 -33.9476 2142
-87.6053 -33.9476 2142
-82.252 -33.8525 2136
-77.1442 -33.8525 2136
-71.9352 -33.8049 2133
-66.7719 -33.7732 2131
-61.5892 -33.7257 2128
-56.5005 -33.7257 2128
-51.3393 -33.6781 2125
-46.1925 -33.6306 2122
-41.1182 -33.6306 2122
-36.0438 -33.6306 2122
-30.9403 -33.5989 2120
-25.8341 -33.5513 2117
-20.7717 -33.5513 2117
-15.6871 -33.5038 2114
-10.6319 -33.5038 2114
-5.57138 -33.4721 2112
-0.520949 -33.4721 2112
4.52948 -33.4721 2112
9.57992 -33.4721 2112
14.6303 -33.4721 2112
19.6808 -33.4721 2112
24.6961 -33.4246 2109
29.7393 -33.4246 2109
34.7331 -33.377 2106
39.7692 -33.377 2106
44.8053 -33.377 2106
49.8414 -33.377 2106
54.8775 -33.377 2106
59.8566 -33.3453 2104
64.8879 -33.3453 2104
69.9193 -33.3453 2104
74.9505 -33.3453 2104
79.9818 -33.3453 2104
85.0132 -33.3453 2104
90.0445 -33.3453 2104
94.9402 -33.2978 2101
99.9643 -33.2978 2101
105.138 -33.3453 2104
110.17 -33.3453 2104
115.201 -33.3453 2104
120.232 -33.3453 2104
125.264 -33.3453 2104
130.295 -33.3453 2104
135.455 -33.377 2106
140.491 -33.377 2106
145.734 -33.4246 2109
150.992 -33.4721 2112
156.042 -33.4721 2112
161.093 -33.4721 2112
166.537 -33.5513 2117
171.599 -33.5513 2117
177.079 -33.6306 2122
182.153 -33.6306 2122
187.227 -33.6306 2122
192.845 -33.7257 2128
198.399 -33.8049 2133
203.5 -33.8049 2133
208.6 -33.8049 2133
213.701 -33.8049 2133
219.11 -33.8525 2136
224.217 -33.8525 2136
229.647 -33.9 2139
235.64 -34.0268 2147
242.344 -34.2487 2161
247.512 -34.2487 2161
253.03 -34.2962 2164
258.205 -34.2962 2164
263.38 -34.2962 2164
268.555 -34.2962 2164
405.509 -48.9561 3089
412.895 -48.9561 3089
420.282 -48.9561 3089
426.976 -48.8769 3084
433.506 -48.7818 3078
440.867 -48.7818 3078
448.227 -48.7818 3078
453.071 -48.5124 3061
459.489 -48.4173 3055
466.03 -48.338 3050
473.324 -48.338 3050
478.884 -48.1637 3039
485.191 -48.0686 3033
492.444 -48.0686 3033
499.697 -48.0686 3033
501.434 -47.5456 3000
506.912 -47.3871 2990
545.227 -46.3887 2927
552.226 -46.3887 2927
559.226 -46.3887 2927
569.127 -46.6264 2942
576.162 -46.6264 2942
583.197 -46.6264 2942
590.232 -46.6264 2942
597.268 -46.6264 2942
604.303 -46.6264 2942
608.221 -46.3887 2927
613.118 -46.2302 2917
618.818 -46.1351 2911
625.779 -46.1351 2911
630.567 -45.9766 2901
637.504 -45.9766 2901
644.441 -45.9766 2901
649.133 -45.8181 2891
656.046 -45.8181 2891
662.96 -45.8181 2891
668.714 -45.7389 2886
675.616 -45.7389 2886
682.517 -45.7389 2886
689.418 -45.7389 2886
696.32 -45.7389 2886
702.003 -45.6596 2881
708.892 -45.6596 2881
715.781 -45.6596 2881
722.671 -45.6596 2881
729.56 -45.6596 2881
736.449 -45.6596 2881
743.339 -45.6596 2881
750.228 -45.6596 2881
755.803 -45.5804 2876
762.681 -45.5804 2876
769.558 -45.5804 2876
776.435 -45.5804 2876
783.313 -45.5804 2876
790.19 -45.5804 2876
797.068 -45.5804 2876
803.945 -45.5804 2876
810.822 -45.5804 2876
817.7 -45.5804 2876
824.577 -45.5804 2876
831.455 -45.5804 2876
838.332 -45.5804 2876
845.209 -45.5804 2876
852.087 -45.5804 2876
858.964 -45.5804 2876
865.841 -45.5804 2876
872.719 -45.5804 2876
879.596 -45.5804 2876
886.474 -45.5804 2876
894.904 -45.6596 2881
908.054 -45.9766 2901
923.191 -46.3887 2927
930.191 -46.3887 2927
940.392 -46.5471 2937
952.577 -46.8007 2953
969.712 -47.292 2984
976.848 -47.292 2984
992.887 -47.7199 3011
1003.74 -47.8943 3022
1014.65 -48.0686 3033
1021.9 -48.0686 3033
1050.19 -49.0512 3095
1081.85 -50.1765 3166
1103.88 -50.8421 3208
1111.55 -50.8421 3208
1134.57 -51.5394 3252
1165.18 -52.5696 3317
1184.78 -53.0926 3350
1192.79 -53.0926 3350
1212.99 -53.6314 3384
1223.61 -53.7424 3391
1231.72 -53.7424 3391
1239.83 -53.7424 3391
1247.94 -53.7424 3391
1248.27 -53.4096 3370
1279.81 -54.408 3433
1288.02 -54.408 3433
1304.16 -54.7408 3454
1315.08 -54.8518 3461
1323.35 -54.8518 3461
1331.63 -54.8518 3461
1337.2 -54.7408 3454
1337.28 -54.408 3433
1345.49 -54.408 3433
1353.69 -54.408 3433
1350.8 -53.9643 3405
1353.35 -53.7424 3391
1347.81 -53.2035 3357
1355.84 -53.2035 3357
1361.02 -53.0926 3350
1366.17 -52.9816 3343
1374.17 -52.9816 3343
1382.16 -52.9816 3343
1390.15 -52.9816 3343
1392.71 -52.7756 3330
1400.67 -52.7756 3330
1408.64 -52.7756 3330
1411.07 -52.5696 3317
1413.01 -52.3477 3303
1415.32 -52.1417 3290
1423.19 -52.1417 3290
1431.05 -52.1417 3290
1433.67 -51.9515 3278
1438.43 -51.8406 3271
1446.25 -51.8406 3271
1454.08 -51.8406 3271
1461.9 -51.8406 3271
1469.72 -51.8406 3271
1480.7 -51.9515 3278
1488.54 -51.9515 3278
1496.38 -51.9515 3278
1498.25 -51.7455 3265
1502.83 -51.6345 3258
1522.68 -52.0466 3284
1533.33 -52.1417 3290
1541.2 -52.1417 3290
1561.78 -52.5696 3317
1582.01 -52.9816 3343
1596.67 -53.2035 3357
1604.69 -53.2035 3357
1632.42 -53.8533 3398
1640.54 -53.8533 3398
1648.67 -53.8533 3398
1639.73 -53.2986 3363
1647.77 -53.2986 3363
1662.71 -53.5205 3377
1670.78 -53.5205 3377
1678.86 -53.5205 3377
1679.94 -53.2986 3363
1674.93 -52.8866 3337
1682.91 -52.8866 3337
1680.76 -52.5696 3317
1691.74 -52.6647 3323
1699.69 -52.6647 3323
1707.63 -52.6647 3323
1715.58 -52.6647 3323
1720.42 -52.5696 3317
1717.93 -52.2526 3297
1715.86 -51.9515 3278
1723.7 -51.9515 3278
1727.84 -51.8406 3271
1732.48 -51.7455 3265
1736.56 -51.6345 3258
1744.35 -51.6345 3258
1748.91 -51.5394 3252
1749.67 -51.3334 3239
1750.9 -51.1432 3227
1758.62 -51.1432 3227
1746.08 -50.5568 3190
1737.22 -50.0814 3160
1731.52 -49.701 3136
1719.62 -49.1463 3101
1727.03 -49.1463 3101
1715.43 -48.6075 3067
1703.67 -48.0686 3033
1695.69 -47.6407 3006
1702.88 -47.6407 3006
1665.12 -46.3887 2927
1648.7 -45.7389 2886
1644.13 -45.4219 2866
1642.92 -45.2 2852
1649.74 -45.2 2852
1647.84 -44.9623 2837
1646.46 -44.7404 2823
1647.36 -44.5819 2813
1654.08 -44.5819 2813
1655.5 -44.4393 2804
1659.24 -44.36 2799
1657.6 -44.1382 2785
1664.26 -44.1382 2785
1667.92 -44.0589 2780
1669.14 -43.9163 2771
1673.35 -43.8529 2767
1679.97 -43.8529 2767
1686.59 -43.8529 2767
1693.2 -43.8529 2767
1696.75 -43.7737 2762
1697.8 -43.631 2753
1704.38 -43.631 2753
1710.97 -43.631 2753
1714.43 -43.5518 2748
1718.5 -43.4884 2744
1725.06 -43.4884 2744
1728.47 -43.4091 2739
1732.48 -43.3457 2735
1735.84 -43.2665 2730
1742.37 -43.2665 2730
1748.9 -43.2665 2730
1752.86 -43.2031 2726
1756.15 -43.1239 2721
1757.47 -42.9971 2713
1763.96 -42.9971 2713
1767.18 -42.9178 2708
1767.77 -42.7752 2699
1768.96 -42.6484 2691
1775.4 -42.6484 2691
1769.91 -42.3631 2673
1776.3 -42.3631 2673
1780.03 -42.2997 2669
1786.41 -42.2997 2669
1787.42 -42.1729 2661
1790.41 -42.0937 2656
1794.06 -42.0303 2652
1800.4 -42.0303 2652
1806.74 -42.0303 2652
1813.08 -42.0303 2652
1819.42 -42.0303 2652
1823.01 -41.9669 2648
1829.34 -41.9669 2648
1835.68 -41.9669 2648
1842.01 -41.9669 2648
1845.55 -41.9035 2644
1851.87 -41.9035 2644
1855.38 -41.8401 2640
1864.52 -41.9035 2644
1870.84 -41.9035 2644
1877.16 -41.9035 2644
1883.48 -41.9035 2644
1889.81 -41.9035 2644
1896.13 -41.9035 2644
1895.98 -41.7609 2635
1905.89 -41.8401 2640
1912.2 -41.8401 2640
1918.51 -41.8401 2640
1924.83 -41.8401 2640
1931.14 -41.8401 2640
1933.78 -41.7609 2635
1940.08 -41.7609 2635
1943.43 -41.6975 2631
1952.69 -41.7609 2635
1958.99 -41.7609 2635
1965.29 -41.7609 2635
1968.6 -41.6975 2631
1974.89 -41.6975 2631
1981.18 -41.6975 2631
1984.45 -41.6341 2627
1987.7 -41.5707 2623
1987.89 -41.4439 2615
1994.14 -41.4439 2615
1994.28 -41.3171 2607
-2085.2 -37.4667 2785
-2078.54 -37.4667 2785
-2071.88 -37.4667 2785
-2065.22 -37.4667 2785
-2058.56 -37.4667 2785
-2051.9 -37.4667 2785
-2045.24 -37.4667 2785
-2034.92 -37.3994 2780
-2028.27 -37.3994 2780
-2015.08 -37.2783 2771
-2008.45 -37.2783 2771
-1991.71 -37.09 2757
-1982.24 -37.0362 2753
-1962.74 -36.794 2735
-1956.2 -36.794 2735
-1949.66 -36.794 2735
-1943.12 -36.794 2735
-1911.09 -36.3097 2699
-1995.67 -38.0452 2828
-1988.9 -38.0452 2828
-2015.78 -38.6909 2876
-2033.35 -39.1618 2911
-2059.11 -39.794 2958
-2052.04 -39.794 2958
-2104.42 -40.951 3044
-2189.46 -42.7537 3178
-2181.86 -42.7537 3178
-2215.99 -43.5743 3239
-2213.02 -43.6685 3246
-2213.41 -43.83 3258
-2205.62 -43.83 3258
-2206.6 -44.0048 3271
-2229.7 -44.6237 3317
-2257.26 -45.3367 3370
-2249.21 -45.3367 3370
-2273.73 -45.9959 3419
-2288.75 -46.4667 3454
-2289.73 -46.6551 3468
-2281.44 -46.6551 3468
-2292.16 -47.0452 3497
-2293.59 -47.247 3512
-2299.51 -47.543 3534
-2291.06 -47.543 3534
-2282.61 -47.543 3534
-2288.96 -47.8524 3557
-2285.58 -47.96 3565
-2277.05 -47.96 3565
-2268.53 -47.96 3565
-2264.44 -48.0542 3572
-2266 -48.2695 3588
-2257.42 -48.2695 3588
-2258.25 -48.4712 3603
-2254.62 -48.5789 3611
-2245.99 -48.5789 3611
-2237.35 -48.5789 3611
-2218.84 -48.3636 3595
-2210.25 -48.3636 3595
-2201.65 -48.3636 3595
-2193.05 -48.3636 3595
-2194.18 -48.5789 3611
-2195.23 -48.7941 3627
-2191.38 -48.9017 3635
-2182.69 -48.9017 3635
-2173.99 -48.9017 3635
-2169.47 -48.9959 3642
-2180.34 -49.4399 3675
-2171.55 -49.4399 3675
-2162.76 -49.4399 3675
-2153.98 -49.4399 3675
-2145.19 -49.4399 3675
-2131.75 -49.3322 3667
-2122.98 -49.3322 3667
-2109.02 -49.2112 3658
-2100.28 -49.2112 3658
-2082.38 -48.9959 3642
-2065.13 -48.7941 3627
-2056.46 -48.7941 3627
-2052.3 -48.9017 3635
-2043.61 -48.9017 3635
-2038.83 -48.9959 3642
-2030.12 -48.9959 3642
-2021.42 -48.9959 3642
-2008.84 -48.9017 3635
-1991.34 -48.6865 3619
-1987.07 -48.7941 3627
-1978.4 -48.7941 3627
-1969.72 -48.7941 3627
-1961.05 -48.7941 3627
-1943.76 -48.5789 3611
-1935.13 -48.5789 3611
-1926.49 -48.5789 3611
-1913.61 -48.4712 3603
-1904.99 -48.4712 3603
-1896.38 -48.4712 3603
-1883.57 -48.3636 3595
-1871.32 -48.2695 3588
-1862.74 -48.2695 3588
-1866.05 -48.5789 3611
-1857.41 -48.5789 3611
-1848.78 -48.5789 3611
-1840.14 -48.5789 3611
-1831.51 -48.5789 3611
-1814.8 -48.3636 3595
-1806.2 -48.3636 3595
-1797.6 -48.3636 3595
-1789.01 -48.3636 3595
-1780.41 -48.3636 3595
-1771.81 -48.3636 3595
-1755.86 -48.1618 3580
-1747.3 -48.1618 3580
-1738.74 -48.1618 3580
-1730.18 -48.1618 3580
-1721.62 -48.1618 3580
-1709.23 -48.0542 3572
-1700.69 -48.0542 3572
-1692.14 -48.0542 3572
-1683.6 -48.0542 3572
-1678.81 -48.1618 3580
-1670.25 -48.1618 3580
-1661.69 -48.1618 3580
-1653.13 -48.1618 3580
-1644.57 -48.1618 3580
-1636.01 -48.1618 3580
-1627.45 -48.1618 3580
-1625.67 -48.3636 3595
-1624.27 -48.5789 3611
-1615.63 -48.5789 3611
-1607 -48.5789 3611
-1598.36 -48.5789 3611
-1586.21 -48.4712 3603
-1577.59 -48.4712 3603
-1562.44 -48.2695 3588
-1550.4 -48.1618 3580
-1541.84 -48.1618 3580
-1533.28 -48.1618 3580
-1514.92 -47.8524 3557
-1503.03 -47.7448 3549
-1491.59 -47.6506 3542
-1483.12 -47.6506 3542
-1471.32 -47.543 3534
-1457.08 -47.3546 3520
-1436.31 -46.9511 3490
-1427.97 -46.9511 3490
-1410.67 -46.6551 3468
-1371.24 -45.6192 3391
-1327.76 -44.4353 3303
-1284.3 -43.238 3214
-1276.61 -43.238 3214
-1247.6 -42.5116 3160
-1225.92 -42.0272 3124
-1209.48 -41.7178 3101
-1202.06 -41.7178 3101
-1181.55 -41.2604 3067
-1167.71 -41.0317 3050
-1145.58 -40.5071 3011
-1138.38 -40.5071 3011
-1119.15 -40.0766 2979
-1107.92 -39.9286 2968
-1097.12 -39.794 2958
-1093.73 -39.9286 2968
-1088.83 -40.0093 2974
-1081.72 -40.0093 2974
-1074.61 -40.0093 2974
-1067.49 -40.0093 2974
-1060.38 -40.0093 2974
-1051.15 -39.9286 2968
-1044.05 -39.9286 2968
-1035.2 -39.8613 2963
-1028.12 -39.8613 2963
-1019.31 -39.794 2958
-1008.47 -39.6461 2947
-999.726 -39.5788 2942
-992.691 -39.5788 2942
-985.656 -39.5788 2942
-976.957 -39.5115 2937
-969.934 -39.5115 2937
-962.911 -39.5115 2937
-954.26 -39.4443 2932
-947.249 -39.4443 2932
-940.237 -39.4443 2932
-933.226 -39.4443 2932
-926.215 -39.4443 2932
-917.636 -39.377 2927
-910.637 -39.377 2927
-903.637 -39.377 2927
-893.575 -39.2425 2917
-886.599 -39.2425 2917
-879.624 -39.2425 2917
-872.648 -39.2425 2917
-863.892 -39.1618 2911
-856.931 -39.1618 2911
-849.97 -39.1618 2911
-843.009 -39.1618 2911
-836.048 -39.1618 2911
-829.087 -39.1618 2911
-820.714 -39.0945 2906
-813.765 -39.0945 2906
-806.815 -39.0945 2906
-799.866 -39.0945 2906
-792.917 -39.0945 2906
-785.968 -39.0945 2906
-779.019 -39.0945 2906
-772.07 -39.0945 2906
-763.804 -39.0272 2901
-758.172 -39.0945 2906
-751.222 -39.0945 2906
-744.273 -39.0945 2906
-737.324 -39.0945 2906
-730.375 -39.0945 2906
-723.426 -39.0945 2906
-715.244 -39.0272 2901
-708.307 -39.0272 2901
-700.161 -38.96 2896
-693.236 -38.96 2896
-683.941 -38.8254 2886
-677.039 -38.8254 2886
-670.138 -38.8254 2886
-663.237 -38.8254 2886
-656.335 -38.8254 2886
-648.309 -38.7582 2881
-641.42 -38.7582 2881
-634.53 -38.7582 2881
-626.552 -38.6909 2876
-625.061 -39.0272 2901
-618.124 -39.0272 2901
-611.187 -39.0272 2901
-604.249 -39.0272 2901
-603.695 -39.4443 2932
-607.266 -40.1438 2984
-617.829 -41.3277 3072
-610.483 -41.3277 3072
-612.168 -41.9465 3118
-624.688 -43.3322 3221
-627.904 -44.099 3278
-620.065 -44.099 3278
-616.896 -44.4353 3303
-610.288 -44.5295 3310
-604.738 -44.7044 3323
-596.792 -44.7044 3323
-590.086 -44.7986 3330
-583.347 -44.8927 3337
-575.367 -44.8927 3337
-567.387 -44.8927 3337
-561.587 -45.0676 3350
-554.733 -45.1618 3357
-546.705 -45.1618 3357
-538.678 -45.1618 3357
-533.811 -45.4309 3377
-530.095 -45.8075 3405
-525.172 -46.0901 3426
-516.979 -46.0901 3426
-508.787 -46.0901 3426
-502.64 -46.2784 3440
-495.42 -46.3726 3447
-487.177 -46.3726 3447
-478.934 -46.3726 3447
-472.603 -46.5609 3461
-464.327 -46.5609 3461
-456.05 -46.5609 3461
-448.68 -46.6551 3468
-441.402 -46.7627 3476
-433.09 -46.7627 3476
-424.778 -46.7627 3476
-416.466 -46.7627 3476
-258.504 -30.8747 2295
-253.016 -30.8747 2295
-247.528 -30.8747 2295
-242.04 -30.8747 2295
-236.243 -30.8343 2292
-230.762 -30.8343 2292
-224.888 -30.7805 2288
-219.416 -30.7805 2288
-213.384 -30.6998 2282
-207.38 -30.6191 2276
-201.139 -30.498 2267
-195.718 -30.498 2267
-188.954 -30.2828 2251
-183.082 -30.202 2245
-176.289 -29.9599 2227
-170.963 -29.9599 2227
-164.373 -29.7312 2210
-158.009 -29.5294 2195
-151.785 -29.341 2181
-146.57 -29.341 2181
-140.966 -29.2603 2175
-135.078 -29.1123 2164
-129.543 -29.0316 2158
-124.094 -28.9644 2153
-118.946 -28.9644 2153
-113.639 -28.924 2150
-108.346 -28.8836 2147
-103.212 -28.8836 2147
-98.078 -28.8836 2147
-92.7274 -28.8164 2142
-87.6053 -28.8164 2142
-82.252 -28.7357 2136
-77.1442 -28.7357 2136
-71.9352 -28.6953 2133
-66.7719 -28.6684 2131
-61.5892 -28.628 2128
-56.5005 -28.628 2128
-51.3393 -28.5877 2125
-46.2578 -28.5877 2125
-41.1182 -28.5473 2122
-36.0438 -28.5473 2122
-30.9403 -28.5204 2120
-25.8341 -28.4801 2117
-20.7717 -28.4801 2117
-15.7093 -28.4801 2117
-10.647 -28.4801 2117
-5.57666 -28.4397 2114
-0.521442 -28.4397 2114
4.53377 -28.4397 2114
9.58899 -28.4397 2114
14.6442 -28.4397 2114
19.6808 -28.4128 2112
24.6961 -28.3724 2109
29.7393 -28.3724 2109
34.7331 -28.3321 2106
39.7692 -28.3321 2106
44.8053 -28.3321 2106
49.8414 -28.3321 2106
54.8775 -28.3321 2106
59.8566 -28.3052 2104
64.8879 -28.3052 2104
69.9193 -28.3052 2104
74.9505 -28.3052 2104
79.9818 -28.3052 2104
85.0132 -28.3052 2104
90.0445 -28.3052 2104
94.9402 -28.2648 2101
99.9643 -28.2648 2101
104.988 -28.2648 2101
110.013 -28.2648 2101
115.201 -28.3052 2104
120.232 -28.3052 2104
125.264 -28.3052 2104
130.295 -28.3052 2104
135.326 -28.3052 2104
140.357 -28.3052 2104
145.527 -28.3321 2106
150.778 -28.3724 2109
156.042 -28.4128 2112
161.093 -28.4128 2112
166.537 -28.4801 2117
171.599 -28.4801 2117
177.079 -28.5473 2122
182.153 -28.5473 2122
187.227 -28.5473 2122
192.845 -28.628 2128
198.399 -28.6953 2133
203.5 -28.6953 2133
208.6 -28.6953 2133
214.002 -28.7357 2136
219.11 -28.7357 2136
224.217 -28.7357 2136
229.647 -28.776 2139
235.64 -28.8836 2147
242.681 -29.1123 2164
247.856 -29.1123 2164
253.381 -29.1527 2167
258.802 -29.1796 2169
263.989 -29.1796 2169
269.175 -29.1796 2169
405.509 -41.5564 3089
412.895 -41.5564 3089
420.282 -41.5564 3089
427.669 -41.5564 3089
434.351 -41.4891 3084
440.867 -41.4084 3078
448.227 -41.4084 3078
453.071 -41.1797 3061
459.489 -41.099 3055
466.03 -41.0317 3050
473.324 -41.0317 3050
478.884 -40.8837 3039
486.151 -40.8837 3039
492.444 -40.803 3033
499.697 -40.803 3033
502.437 -40.4398 3006
505.895 -40.1438 2984
569.127 -39.5788 2942
578.316 -39.7268 2953
585.378 -39.7268 2953
592.439 -39.7268 2953
599.501 -39.7268 2953
606.562 -39.7268 2953
609.26 -39.4443 2932
615.22 -39.377 2927
620.094 -39.2425 2917
627.069 -39.2425 2917
632.741 -39.1618 2911
637.504 -39.0272 2901
644.441 -39.0272 2901
650.256 -38.96 2896
657.181 -38.96 2896
662.96 -38.8927 2891
669.873 -38.8927 2891
675.616 -38.8254 2886
682.517 -38.8254 2886
689.418 -38.8254 2886
696.32 -38.8254 2886
703.221 -38.8254 2886
710.122 -38.8254 2886
715.781 -38.7582 2881
722.671 -38.7582 2881
729.56 -38.7582 2881
736.449 -38.7582 2881
743.339 -38.7582 2881
750.228 -38.7582 2881
757.117 -38.7582 2881
764.007 -38.7582 2881
769.558 -38.6909 2876
776.435 -38.6909 2876
783.313 -38.6909 2876
790.19 -38.6909 2876
797.068 -38.6909 2876
803.945 -38.6909 2876
810.822 -38.6909 2876
817.7 -38.6909 2876
824.577 -38.6909 2876
831.455 -38.6909 2876
839.789 -38.7582 2881
846.679 -38.7582 2881
853.568 -38.7582 2881
860.457 -38.7582 2881
867.347 -38.7582 2881
874.236 -38.7582 2881
881.125 -38.7582 2881
888.015 -38.7582 2881
898.01 -38.8927 2891
911.184 -39.1618 2911
926.346 -39.5115 2937
933.369 -39.5115 2937
947.116 -39.794 2958
962.576 -40.1438 2984
978.486 -40.5071 3011
985.687 -40.5071 3011
1000.14 -40.803 3033
1007.39 -40.803 3033
1022.01 -41.099 3055
1029.31 -41.099 3055
1052.23 -41.7178 3101
1081.85 -42.5923 3166
1103.88 -43.1573 3208
1111.55 -43.1573 3208
1134.57 -43.7492 3252
1160.26 -44.4353 3303
1180.18 -44.8927 3337
1188.16 -44.8927 3337
1203.31 -45.1618 3357
1211.34 -45.1618 3357
1219.37 -45.1618 3357
1227.4 -45.1618 3357
1232.85 -45.0676 3350
1240.86 -45.0676 3350
1264.15 -45.6192 3391
1285.39 -46.0901 3426
1293.59 -46.0901 3426
1304.44 -46.1842 3433
1312.65 -46.1842 3433
1320.86 -46.1842 3433
1329.07 -46.1842 3433
1337.28 -46.1842 3433
1337.26 -45.9017 3412
1345.41 -45.9017 3412
1345.24 -45.6192 3391
1339.78 -45.1618 3357
1342.19 -44.9735 3343
1350.18 -44.9735 3343
1358.18 -44.9735 3343
1366.17 -44.9735 3343
1374.17 -44.9735 3343
1382.16 -44.9735 3343
1384.75 -44.7986 3330
1392.71 -44.7986 3330
1400.67 -44.7986 3330
1408.64 -44.7986 3330
1413.62 -44.7044 3323
1413.01 -44.4353 3303
1415.32 -44.2605 3290
1423.19 -44.2605 3290
1431.05 -44.2605 3290
1433.67 -44.099 3278
1438.43 -44.0048 3271
1443.6 -43.9241 3265
1454.08 -44.0048 3271
1461.9 -44.0048 3271
1469.72 -44.0048 3271
1483.41 -44.1797 3284
1491.27 -44.1797 3284
1499.12 -44.1797 3284
1504.22 -44.099 3278
1512.06 -44.099 3278
1519.9 -44.099 3278
1530.53 -44.1797 3284
1538.39 -44.1797 3284
1549.06 -44.2605 3290
1569.71 -44.6237 3317
1590.01 -44.9735 3343
1598 -44.9735 3343
1612.72 -45.1618 3357
1620.75 -45.1618 3357
1628.78 -45.1618 3357
1636.8 -45.1618 3357
1647.77 -45.2425 3363
1655.81 -45.2425 3363
1663.85 -45.2425 3363
1671.9 -45.2425 3363
1673.44 -45.0676 3350
1667.9 -44.7044 3323
1675.85 -44.7044 3323
1677.21 -44.5295 3310
1691.74 -44.7044 3323
1699.69 -44.7044 3323
1707.63 -44.7044 3323
1715.58 -44.7044 3323
1720.42 -44.6237 3317
1717.93 -44.3546 3297
1722.15 -44.2605 3290
1730.01 -44.2605 3290
1734.71 -44.1797 3284
1739.38 -44.099 3278
1743.49 -44.0048 3271
1751.31 -44.0048 3271
1755.91 -43.9241 3265
1756.69 -43.7492 3252
1757.41 -43.5743 3239
1765.16 -43.5743 3239
1755.94 -43.1573 3208
1743.82 -42.673 3172
1744.78 -42.5116 3160
1739.02 -42.1887 3136
1746.52 -42.1887 3136
1737.8 -41.7985 3107
1725.57 -41.3277 3072
1708.1 -40.7358 3028
1715.34 -40.7358 3028
1676.5 -39.6461 2947
1657.27 -39.0272 2901
1655.6 -38.8254 2886
1650.98 -38.5564 2866
1657.83 -38.5564 2866
1656.56 -38.368 2852
1651.71 -38.099 2832
1653.21 -37.9779 2823
1659.96 -37.9779 2823
1660.81 -37.8434 2813
1662.2 -37.7223 2804
1660.57 -37.5339 2790
1667.25 -37.5339 2790
1667.92 -37.3994 2780
1669.14 -37.2783 2771
1675.77 -37.2783 2771
1679.97 -37.2245 2767
1686.59 -37.2245 2767
1693.2 -37.2245 2767
1699.82 -37.2245 2767
1700.27 -37.09 2757
1706.86 -37.09 2757
1710.97 -37.0362 2753
1714.43 -36.9689 2748
1718.5 -36.9151 2744
1725.06 -36.9151 2744
1731.62 -36.9151 2744
1735.02 -36.8478 2739
1739.02 -36.794 2735
1742.37 -36.7268 2730
1748.9 -36.7268 2730
1755.43 -36.7268 2730
1759.37 -36.6729 2726
1762.65 -36.6057 2721
1769.16 -36.6057 2721
1770.45 -36.4981 2713
1771.04 -36.377 2704
1774.22 -36.3097 2699
1780.67 -36.3097 2699
1775.87 -36.081 2682
1776.3 -35.9599 2673
1782.7 -35.9599 2673
1789.09 -35.9599 2673
1787.42 -35.7985 2661
1793.78 -35.7985 2661
1800.15 -35.7985 2661
1806.51 -35.7985 2661
1812.87 -35.7985 2661
1819.24 -35.7985 2661
1825.6 -35.7985 2661
1828.52 -35.7312 2656
1834.87 -35.7312 2656
1838.45 -35.6774 2652
1842.01 -35.6236 2648
1848.34 -35.6236 2648
1854.67 -35.6236 2648
1861.01 -35.6236 2648
1867.34 -35.6236 2648
1876.5 -35.6774 2652
1882.84 -35.6774 2652
1889.18 -35.6774 2652
1892.67 -35.6236 2648
1899 -35.6236 2648
1902.45 -35.5698 2644
1908.77 -35.5698 2644
1915.1 -35.5698 2644
1921.42 -35.5698 2644
1927.74 -35.5698 2644
1934.07 -35.5698 2644
1937.45 -35.516 2640
1940.08 -35.4487 2635
1946.38 -35.4487 2635
1952.69 -35.4487 2635
1958.99 -35.4487 2635
1965.29 -35.4487 2635
1971.59 -35.4487 2635
1977.89 -35.4487 2635
1984.19 -35.4487 2635
1990.49 -35.4487 2635
1993.76 -35.3949 2631
1993.97 -35.2873 2623
2000.24 -35.2873 2623
1997.34 -35.1258 2611
-2085.2 -30.7952 2785
-2078.54 -30.7952 2785
-2071.88 -30.7952 2785
-2065.22 -30.7952 2785
-2058.56 -30.7952 2785
-2051.9 -30.7952 2785
-2045.24 -30.7952 2785
-2038.58 -30.7952 2785
-2028.27 -30.7399 2780
-2015.08 -30.6404 2771
-2008.45 -30.6404 2771
-1991.71 -30.4856 2757
-1982.24 -30.4413 2753
-1962.74 -30.2423 2735
-1956.2 -30.2423 2735
-1949.66 -30.2423 2735
-1943.12 -30.2423 2735
-1911.09 -29.8442 2699
-1995.67 -31.2707 2828
-1988.9 -31.2707 2828
-2015.78 -31.8014 2876
-2033.35 -32.1884 2911
-2059.11 -32.7081 2958
-2052.04 -32.7081 2958
-2104.42 -33.6591 3044
-2193.59 -35.2071 3184
-2185.98 -35.2071 3184
-2215.99 -35.8153 3239
-2221.2 -36.0254 3258
-2213.41 -36.0254 3258
-2205.62 -36.0254 3258
-2232.91 -36.6004 3310
-2229.7 -36.6778 3317
-2266.64 -37.4186 3384
-2258.55 -37.4186 3384
-2287.7 -38.0379 3440
-2303.33 -38.4359 3476
-2308.88 -38.6681 3497
-2300.52 -38.6681 3497
-2301.99 -38.834 3512
-2307.96 -39.0773 3534
-2299.51 -39.0773 3534
-2291.06 -39.0773 3534
-2297.46 -39.3316 3557
-2294.1 -39.42 3565
-2285.58 -39.42 3565
-2277.05 -39.42 3565
-2268.53 -39.42 3565
-2264.44 -39.4974 3572
-2275.48 -39.8402 3603
-2266.86 -39.8402 3603
-2258.25 -39.8402 3603
-2254.62 -39.9287 3611
-2245.99 -39.9287 3611
-2237.35 -39.9287 3611
-2228.72 -39.9287 3611
-2210.25 -39.7518 3595
-2201.65 -39.7518 3595
-2193.05 -39.7518 3595
-2194.18 -39.9287 3611
-2195.23 -40.1056 3627
-2191.38 -40.1941 3635
-2182.69 -40.1941 3635
-2173.99 -40.1941 3635
-2179 -40.4484 3658
-2180.34 -40.6364 3675
-2171.55 -40.6364 3675
-2172.18 -40.8133 3691
-2163.35 -40.8133 3691
-2154.53 -40.8133 3691
-2141.05 -40.7248 3683
-2132.24 -40.7248 3683
-2118.82 -40.6364 3675
-2110.04 -40.6364 3675
-2091.53 -40.4484 3658
-2073.67 -40.2715 3642
-2060.99 -40.1941 3635
-2065.29 -40.4484 3658
-2056.54 -40.4484 3658
-2047.79 -40.4484 3658
-2039.04 -40.4484 3658
-2030.3 -40.4484 3658
-2012.71 -40.2715 3642
-2008.4 -40.3599 3650
-1999.67 -40.3599 3650
-1990.94 -40.3599 3650
-1982.21 -40.3599 3650
-1969.16 -40.2715 3642
-1948.07 -40.0172 3619
-1939.42 -40.0172 3619
-1930.76 -40.0172 3619
-1917.86 -39.9287 3611
-1909.22 -39.9287 3611
-1900.59 -39.9287 3611
-1887.76 -39.8402 3603
-1879.15 -39.8402 3603
-1874.68 -39.9287 3611
-1870.18 -40.0172 3619
-1861.53 -40.0172 3619
-1852.88 -40.0172 3619
-1844.22 -40.0172 3619
-1835.57 -40.0172 3619
-1826.91 -40.0172 3619
-1806.2 -39.7518 3595
-1801.6 -39.8402 3603
-1792.99 -39.8402 3603
-1784.37 -39.8402 3603
-1775.76 -39.8402 3603
-1763.22 -39.7518 3595
-1754.62 -39.7518 3595
-1746.02 -39.7518 3595
-1737.43 -39.7518 3595
-1728.83 -39.7518 3595
-1720.23 -39.7518 3595
-1711.64 -39.7518 3595
-1695.93 -39.5859 3580
-1691.14 -39.6744 3588
-1685.85 -39.7518 3595
-1677.25 -39.7518 3595
-1668.65 -39.7518 3595
-1660.06 -39.7518 3595
-1648.24 -39.6744 3588
-1642.86 -39.7518 3595
-1634.27 -39.7518 3595
-1632.9 -39.9287 3611
-1627.87 -40.0172 3619
-1622.79 -40.1056 3627
-1614.12 -40.1056 3627
-1605.45 -40.1056 3627
-1586.21 -39.8402 3603
-1577.59 -39.8402 3603
-1565.49 -39.7518 3595
-1553.86 -39.6744 3588
-1545.28 -39.6744 3588
-1536.7 -39.6744 3588
-1514.92 -39.3316 3557
-1503.03 -39.2431 3549
-1491.59 -39.1657 3542
-1483.12 -39.1657 3542
-1471.32 -39.0773 3534
-1457.08 -38.9225 3520
-1439.19 -38.6681 3497
-1430.83 -38.6681 3497
-1413.93 -38.4359 3476
-1382.56 -37.8056 3419
-1338.61 -36.8215 3330
-1291.89 -35.749 3233
-1284.16 -35.749 3233
-1252.34 -35.0744 3172
-1225.92 -34.5437 3124
-1209.48 -34.2894 3101
-1202.06 -34.2894 3101
-1183.48 -33.9687 3072
-1171.92 -33.8471 3061
-1149.76 -33.4158 3022
-1142.54 -33.4158 3022
-1119.15 -32.9403 2979
-1107.92 -32.8187 2968
-1100.83 -32.8187 2968
-1095.94 -32.8851 2974
-1088.83 -32.8851 2974
-1081.72 -32.8851 2974
-1074.61 -32.8851 2974
-1067.49 -32.8851 2974
-1060.38 -32.8851 2974
-1053.27 -32.8851 2974
-1046.16 -32.8851 2974
-1036.95 -32.8187 2968
-1029.85 -32.8187 2968
-1021.03 -32.7634 2963
-1012.24 -32.7081 2958
-1001.43 -32.5865 2947
-994.378 -32.5865 2947
-987.331 -32.5865 2947
-978.62 -32.5312 2942
-971.585 -32.5312 2942
-964.55 -32.5312 2942
-957.515 -32.5312 2942
-950.48 -32.5312 2942
-941.841 -32.4759 2937
-934.818 -32.4759 2937
-927.794 -32.4759 2937
-919.204 -32.4206 2932
-910.637 -32.3653 2927
-903.637 -32.3653 2927
-895.106 -32.3101 2922
-886.599 -32.2548 2917
-879.624 -32.2548 2917
-872.648 -32.2548 2917
-865.673 -32.2548 2917
-858.698 -32.2548 2917
-851.722 -32.2548 2917
-844.747 -32.2548 2917
-837.771 -32.2548 2917
-829.087 -32.1884 2911
-822.126 -32.1884 2911
-815.165 -32.1884 2911
-808.204 -32.1884 2911
-801.243 -32.1884 2911
-794.282 -32.1884 2911
-787.32 -32.1884 2911
-780.359 -32.1884 2911
-772.07 -32.1331 2906
-765.121 -32.1331 2906
-758.172 -32.1331 2906
-751.222 -32.1331 2906
-744.273 -32.1331 2906
-737.324 -32.1331 2906
-730.375 -32.1331 2906
-723.426 -32.1331 2906
-716.477 -32.1331 2906
-709.528 -32.1331 2906
-701.37 -32.0779 2901
-694.433 -32.0779 2901
-685.126 -31.9673 2891
-677.039 -31.912 2886
-670.138 -31.912 2886
-663.237 -31.912 2886
-656.335 -31.912 2886
-648.309 -31.8567 2881
-641.42 -31.8567 2881
-634.53 -31.8567 2881
-626.552 -31.8014 2876
-625.061 -32.0779 2901
-618.124 -32.0779 2901
-612.24 -32.1331 2906
-605.291 -32.1331 2906
-605.754 -32.5312 2942
-608.487 -33.062 2990
-617.829 -33.9687 3072
-610.483 -33.9687 3072
-612.168 -34.4773 3118
-624.688 -35.6163 3221
-627.904 -36.2465 3278
-620.065 -36.2465 3278
-618.203 -36.6004 3310
-612.685 -36.7441 3323
-608.378 -36.9653 3343
-600.384 -36.9653 3343
-593.63 -37.0427 3350
-587.892 -37.1864 3363
-579.85 -37.1864 3363
-571.808 -37.1864 3363
-564.94 -37.2638 3370
-559.194 -37.4186 3384
-552.242 -37.496 3391
-544.133 -37.496 3391
-541.557 -37.883 3426
-533.364 -37.883 3426
-527.318 -38.0379 3440
-519.092 -38.0379 3440
-511.905 -38.1153 3447
-504.685 -38.1927 3454
-497.432 -38.2701 3461
-489.155 -38.2701 3461
-480.879 -38.2701 3461
-474.651 -38.4359 3476
-466.339 -38.4359 3476
-458.027 -38.4359 3476
-450.62 -38.5133 3483
-442.291 -38.5133 3483
-433.962 -38.5133 3483
-425.633 -38.5133 3483
-417.305 -38.5133 3483
-408.976 -38.5133 3483
-400.647 -38.5133 3483
-258.504 -25.377 2295
-253.016 -25.377 2295
-247.528 -25.377 2295
-242.04 -25.377 2295
-236.552 -25.377 2295
-230.762 -25.3438 2292
-224.888 -25.2996 2288
-219.416 -25.2996 2288
-213.384 -25.2333 2282
-207.38 -25.1669 2276
-201.139 -25.0674 2267
-195.718 -25.0674 2267
-188.954 -24.8905 2251
-183.082 -24.8241 2245
-176.289 -24.6251 2227
-170.963 -24.6251 2227
-164.373 -24.4371 2210
-158.009 -24.2712 2195
-151.785 -24.1164 2181
-146.57 -24.1164 2181
-140.966 -24.0501 2175
-135.078 -23.9285 2164
-129.543 -23.8621 2158
-124.094 -23.8068 2153
-118.946 -23.8068 2153
-113.639 -23.7737 2150
-108.346 -23.7405 2147
-103.212 -23.7405 2147
-98.078 -23.7405 2147
-92.7274 -23.6852 2142
-87.6053 -23.6852 2142
-82.252 -23.6189 2136
-77.1442 -23.6189 2136
-71.9352 -23.5857 2133
-66.7719 -23.5636 2131
-61.5892 -23.5304 2128
-56.5005 -23.5304 2128
-51.3393 -23.4972 2125
-46.2578 -23.4972 2125
-41.1182 -23.464 2122
-36.0438 -23.464 2122
-30.9403 -23.4419 2120
-25.8707 -23.4419 2120
-20.7717 -23.4088 2117
-15.7093 -23.4088 2117
-10.647 -23.4088 2117
-5.58457 -23.4088 2117
-0.522182 -23.4088 2117
4.54021 -23.4088 2117
9.6026 -23.4088 2117
14.6442 -23.3756 2114
19.6808 -23.3535 2112
24.6961 -23.3203 2109
29.7393 -23.3203 2109
34.7826 -23.3203 2109
39.8259 -23.3203 2109
44.8691 -23.3203 2109
49.9124 -23.3203 2109
54.9556 -23.3203 2109
59.9135 -23.2871 2106
64.8879 -23.265 2104
69.9193 -23.265 2104
74.9505 -23.265 2104
79.9818 -23.265 2104
85.0132 -23.265 2104
90.0445 -23.265 2104
94.9402 -23.2318 2101
99.9643 -23.2318 2101
104.988 -23.2318 2101
110.013 -23.2318 2101
115.201 -23.265 2104
120.232 -23.265 2104
125.264 -23.265 2104
130.295 -23.265 2104
135.326 -23.265 2104
140.357 -23.265 2104
145.527 -23.2871 2106
150.778 -23.3203 2109
156.042 -23.3535 2112
161.093 -23.3535 2112
166.537 -23.4088 2117
171.599 -23.4088 2117
177.079 -23.464 2122
182.153 -23.464 2122
187.227 -23.464 2122
193.117 -23.5636 2131
198.399 -23.5857 2133
203.5 -23.5857 2133
208.6 -23.5857 2133
214.302 -23.652 2139
219.417 -23.652 2139
224.532 -23.652 2139
229.647 -23.652 2139
235.64 -23.7405 2147
243.017 -23.9616 2167
248.199 -23.9616 2167
253.615 -23.9838 2169
258.802 -23.9838 2169
263.989 -23.9838 2169
269.175 -23.9838 2169
405.509 -34.1567 3089
412.895 -34.1567 3089
420.282 -34.1567 3089
427.669 -34.1567 3089
434.351 -34.1014 3084
440.867 -34.035 3078
448.227 -34.035 3078
453.071 -33.8471 3061
459.489 -33.7807 3055
466.03 -33.7254 3050
473.324 -33.7254 3050
478.884 -33.6038 3039
486.151 -33.6038 3039
492.444 -33.5374 3033
499.697 -33.5374 3033
502.437 -33.2389 3006
505.895 -32.9956 2984
569.127 -32.5312 2942
578.316 -32.6528 2953
585.378 -32.6528 2953
592.439 -32.6528 2953
599.501 -32.6528 2953
606.562 -32.6528 2953
610.299 -32.4759 2937
615.22 -32.3653 2927
620.094 -32.2548 2917
627.069 -32.2548 2917
632.741 -32.1884 2911
637.504 -32.0779 2901
644.441 -32.0779 2901
650.256 -32.0226 2896
657.181 -32.0226 2896
