ply
format ascii 1.0
comment File generated
element vertex 2254
property float x
property float y
property float z
end_header
-1425.21 1029.72 2383
-1419.51 1029.72 2383
-1428.05 1040.09 2407
-1424.66 1041.82 2411
-1427.13 1047.87 2425
-1421.33 1047.87 2425
-1470.99 1088.92 2520
-1464.96 1088.92 2520
-1458.93 1088.92 2520
-1418.1 1104.05 2555
-1416.41 1107.5 2563
-1418.54 1113.98 2578
-1412.37 1113.98 2578
-1410.57 1117.44 2586
-1404.39 1117.44 2586
-1398.2 1117.44 2586
-1392.02 1117.44 2586
-1381.55 1113.98 2578
-1367.38 1107.5 2563
-1361.25 1107.5 2563
-1350.89 1104.05 2555
-1348.99 1107.5 2563
-1342.86 1107.5 2563
-1336.73 1107.5 2563
-1328.53 1105.77 2559
-1322.41 1105.77 2559
-1191.72 1044.85 2418
-1185.94 1044.85 2418
-1180.16 1044.85 2418
-1160.78 1032.75 2390
-1155.06 1032.75 2390
-1160.89 1043.12 2414
-1155.12 1043.12 2414
-1152.68 1046.14 2421
-1146.89 1046.14 2421
-1142.98 1047.87 2425
-1137.18 1047.87 2425
-1146.32 1061.7 2457
-1152.51 1072.93 2483
-1156.73 1082.44 2505
-1150.74 1082.44 2505
-1146.58 1084.17 2509
-1143.76 1087.19 2516
-1139.55 1088.92 2520
-1133.53 1088.92 2520
-1134.21 1095.4 2535
-1142.39 1109.23 2567
-1138.02 1110.96 2571
-1131.87 1110.96 2571
-1139.74 1124.79 2603
-1137 1128.24 2611
-1135.95 1133.43 2623
-1129.68 1133.43 2623
-1123.4 1133.43 2623
-1117.13 1133.43 2623
-1110.86 1133.43 2623
-1104.59 1133.43 2623
-1091.62 1126.52 2607
-1082.05 1123.06 2599
-1075.84 1123.06 2599
-1062.62 1115.71 2582
-1045.4 1104.05 2555
-1034.41 1098.86 2543
-1028.33 1098.86 2543
-1017.83 1094.11 2532
-988.996 1069.48 2475
-993.405 1080.71 2501
-993.346 1087.19 2516
-987.33 1087.19 2516
-981.313 1087.19 2516
-976.847 1088.92 2520
-970.821 1088.92 2520
-964.795 1088.92 2520
-957.247 1087.19 2516
-949.718 1085.46 2512
-942.584 1084.17 2509
-936.584 1084.17 2509
-930.585 1084.17 2509
-924.585 1084.17 2509
-924.077 1090.65 2524
-918.041 1090.65 2524
-912.006 1090.65 2524
-908.841 1094.11 2532
-902.787 1094.11 2532
-896.732 1094.11 2532
-890.677 1094.11 2532
-884.622 1094.11 2532
-878.568 1094.11 2532
-872.513 1094.11 2532
-865.089 1092.38 2528
-861.423 1095.4 2535
-855.361 1095.4 2535
-849.299 1095.4 2535
-843.237 1095.4 2535
-834.863 1092.38 2528
-824.884 1087.19 2516
-818.867 1087.19 2516
-811.558 1085.46 2512
-800.741 1078.98 2497
-797.316 1082.44 2505
-793.537 1085.46 2512
-787.531 1085.46 2512
-781.524 1085.46 2512
-775.517 1085.46 2512
-769.51 1085.46 2512
-763.503 1085.46 2512
-757.496 1085.46 2512
-750.591 1084.17 2509
-744.592 1084.17 2509
-738.592 1084.17 2509
-731.424 1082.44 2505
-725.434 1082.44 2505
-718.295 1080.71 2501
-712.314 1080.71 2501
-704.357 1077.69 2494
-691.112 1066.45 2468
-685.21 1066.45 2468
-679.308 1066.45 2468
-673.407 1066.45 2468
-668.316 1067.75 2471
-662.407 1067.75 2471
-656.499 1067.75 2471
-650.59 1067.75 2471
-644.681 1067.75 2471
-636.187 1063.43 2461
-630.302 1063.43 2461
-623.402 1061.7 2457
-617.526 1061.7 2457
-611.651 1061.7 2457
-607.501 1064.72 2464
-601.609 1064.72 2464
-596.684 1066.45 2468
-594.373 1072.93 2483
-588.435 1072.93 2483
-582.498 1072.93 2483
-579.114 1077.69 2494
-573.84 1078.98 2497
-570.598 1084.17 2509
-564.598 1084.17 2509
-558.598 1084.17 2509
-551.718 1082.44 2505
-546.599 1084.17 2509
-540.599 1084.17 2509
-536.091 1087.19 2516
-530.917 1088.92 2520
-524.891 1088.92 2520
-518.865 1088.92 2520
-513.653 1090.65 2524
-507.617 1090.65 2524
-501.581 1090.65 2524
-495.546 1090.65 2524
-489.51 1090.65 2524
-483.474 1090.65 2524
-476.682 1088.92 2520
-470.656 1088.92 2520
-463.155 1085.46 2512
-457.148 1085.46 2512
-451.141 1085.46 2512
-445.843 1087.19 2516
-439.826 1087.19 2516
-435.189 1090.65 2524
-430.514 1094.11 2532
-424.459 1094.11 2532
-418.404 1094.11 2532
-412.35 1094.11 2532
-405.653 1092.38 2528
-399.608 1092.38 2528
-390.605 1084.17 2509
-384.605 1084.17 2509
-379.058 1085.46 2512
-373.645 1087.19 2516
-367.628 1087.19 2516
-362.762 1090.65 2524
-356.726 1090.65 2524
-350.69 1090.65 2524
-342.06 1082.44 2505
-334.997 1078.98 2497
-329.026 1078.98 2497
-323.054 1078.98 2497
-317.083 1078.98 2497
-311.112 1078.98 2497
-304.775 1077.69 2494
-298.811 1077.69 2494
-292.377 1075.96 2490
-285.157 1071.2 2479
-278.328 1067.75 2471
-272.419 1067.75 2471
-267.373 1071.2 2479
-261.445 1071.2 2479
-256.239 1074.23 2486
-250.294 1074.23 2486
-244.349 1074.23 2486
-238.404 1074.23 2486
-232.46 1074.23 2486
-226.879 1075.96 2490
-222.877 1085.46 2512
-216.87 1085.46 2512
-211.87 1090.65 2524
-206.161 1092.38 2528
-200.116 1092.38 2528
-194.07 1092.38 2528
-188.323 1094.11 2532
-182.484 1095.4 2535
-176.422 1095.4 2535
-170.36 1095.4 2535
-164.298 1095.4 2535
-110.183 990.4 2292
-104.702 990.4 2292
-99.2209 990.4 2292
-93.5765 988.671 2288
-88.1052 988.671 2288
-82.6339 988.671 2288
-76.4544 979.597 2267
-71.0333 979.597 2267
-65.6122 979.597 2267
-59.9256 975.276 2257
-54.5284 975.276 2257
-49.0659 973.98 2254
-43.4434 968.794 2242
-38.0821 968.794 2242
-32.6333 966.202 2236
-27.2863 966.202 2236
-21.9394 966.202 2236
-16.5924 966.202 2236
-11.2153 963.609 2230
-5.85101 958.424 2218
-0.542162 949.781 2198
4.71392 949.781 2198
9.97001 949.781 2198
15.2261 949.781 2198
20.566 953.67 2207
25.8788 954.967 2210
31.1636 954.967 2210
36.5308 957.127 2215
42.0541 962.313 2227
47.5072 964.905 2233
52.847 964.905 2233
58.1868 964.905 2233
63.6973 967.498 2239
69.0514 967.498 2239
74.4055 967.498 2239
79.7596 967.498 2239
85.1138 967.498 2239
90.3467 966.202 2236
95.6936 966.202 2236
100.905 964.905 2233
106.388 966.202 2236
111.884 967.498 2239
117.239 967.498 2239
122.593 967.498 2239
127.604 964.905 2233
132.586 962.313 2227
137.912 962.313 2227
143.044 961.016 2224
147.762 957.127 2215
152.921 956.263 2213
158.57 958.424 2218
163.874 958.424 2218
169.178 958.424 2218
174.482 958.424 2218
181.002 964.905 2233
186.341 964.905 2233
192.196 967.498 2239
199.492 977.004 2261
206.529 984.782 2279
211.979 984.782 2279
219.528 994.289 2301
242.047 1069.48 2475
248.366 1071.2 2479
254.294 1071.2 2479
269.46 1109.23 2567
275.598 1109.23 2567
281.737 1109.23 2567
287.875 1109.23 2567
294.014 1109.23 2567
298.749 1104.05 2555
304.859 1104.05 2555
309.021 1097.13 2539
316.582 1102.32 2551
322.682 1102.32 2551
329.298 1104.05 2555
335.408 1104.05 2555
341.517 1104.05 2555
348.171 1105.77 2559
354.845 1107.5 2563
360.973 1107.5 2563
368.678 1112.26 2574
375.416 1113.98 2578
381.58 1113.98 2578
387.745 1113.98 2578
393.91 1113.98 2578
400.075 1113.98 2578
406.24 1113.98 2578
411.764 1112.26 2574
417.92 1112.26 2574
423.581 1110.96 2571
429.729 1110.96 2571
435.199 1109.23 2567
441.337 1109.23 2567
446.778 1107.5 2563
452.2 1105.77 2559
458.32 1105.77 2559
463.713 1104.05 2555
469.823 1104.05 2555
474.442 1100.59 2547
480.533 1100.59 2547
484.331 1095.4 2535
488.265 1090.65 2524
494.301 1090.65 2524
500.336 1090.65 2524
506.372 1090.65 2524
512.408 1090.65 2524
518.443 1090.65 2524
524.479 1090.65 2524
530.515 1090.65 2524
536.55 1090.65 2524
541.726 1088.92 2520
549.491 1092.38 2528
557.074 1095.4 2535
563.136 1095.4 2535
569.198 1095.4 2535
575.26 1095.4 2535
581.322 1095.4 2535
587.384 1095.4 2535
593.446 1095.4 2535
601.4 1098.86 2543
608.437 1100.59 2547
614.527 1100.59 2547
621.593 1102.32 2551
629.661 1105.77 2559
635.781 1105.77 2559
641.9 1105.77 2559
647.006 1104.05 2555
653.116 1104.05 2555
659.226 1104.05 2555
664.294 1102.32 2551
667.241 1097.13 2539
675.434 1100.59 2547
681.524 1100.59 2547
687.615 1100.59 2547
693.706 1100.59 2547
699.796 1100.59 2547
705.887 1100.59 2547
711.978 1100.59 2547
718.068 1100.59 2547
726.434 1104.05 2555
732.543 1104.05 2555
742.122 1109.23 2567
748.261 1109.23 2567
755.575 1110.96 2571
763.797 1113.98 2578
769.962 1113.98 2578
776.126 1113.98 2578
781.077 1112.26 2574
787.232 1112.26 2574
793.388 1112.26 2574
797.369 1109.23 2567
802.255 1107.5 2563
808.384 1107.5 2563
814.513 1107.5 2563
820.642 1107.5 2563
826.771 1107.5 2563
832.9 1107.5 2563
839.028 1107.5 2563
843.838 1105.77 2559
851.286 1107.5 2563
860.091 1110.96 2571
866.24 1110.96 2571
872.388 1110.96 2571
877.169 1109.23 2567
881.931 1107.5 2563
886.674 1105.77 2559
892.793 1105.77 2559
897.507 1104.05 2555
900.788 1100.59 2547
906.878 1100.59 2547
912.969 1100.59 2547
919.06 1100.59 2547
925.15 1100.59 2547
931.241 1100.59 2547
937.332 1100.59 2547
943.422 1100.59 2547
948.022 1098.86 2543
952.602 1097.13 2539
960.184 1098.86 2543
967.785 1100.59 2547
973.876 1100.59 2547
979.966 1100.59 2547
982.96 1097.13 2539
989.031 1097.13 2539
989.224 1090.65 2524
993.682 1088.92 2520
999.708 1088.92 2520
1005.73 1088.92 2520
1011.76 1088.92 2520
1017.79 1088.92 2520
1022.19 1087.19 2516
1028.2 1087.19 2516
1034.22 1087.19 2516
1038.58 1085.46 2512
1044.59 1085.46 2512
1050.6 1085.46 2512
1056.6 1085.46 2512
1062.61 1085.46 2512
1070.32 1087.19 2516
1076.34 1087.19 2516
1082.35 1087.19 2516
1086.64 1085.46 2512
1086.12 1078.98 2497
1090.78 1077.69 2494
1096.74 1077.69 2494
1102.71 1077.69 2494
1108.67 1077.69 2494
1111.06 1074.23 2486
1117.01 1074.23 2486
1119.79 1071.2 2479
1125.72 1071.2 2479
1131.64 1071.2 2479
1144.46 1077.69 2494
1150.42 1077.69 2494
1166.58 1087.19 2516
1176.33 1090.65 2524
1184.24 1092.38 2528
1190.28 1092.38 2528
1198.22 1094.11 2532
1209.51 1098.86 2543
1217.5 1100.59 2547
1223.59 1100.59 2547
1229.68 1100.59 2547
1235.77 1100.59 2547
1249.67 1107.5 2563
1259.71 1110.96 2571
1265.86 1110.96 2571
1273.49 1112.26 2574
1281.64 1113.98 2578
1287.8 1113.98 2578
1293.97 1113.98 2578
1300.13 1113.98 2578
1298.7 1107.5 2563
1304.83 1107.5 2563
1304.82 1102.32 2551
1308.86 1100.59 2547
1307.21 1094.11 2532
1313.26 1094.11 2532
1317.23 1092.38 2528
1317 1087.19 2516
1317.23 1082.44 2505
1323.22 1082.44 2505
1329.21 1082.44 2505
1335.2 1082.44 2505
1336.91 1078.98 2497
1342.88 1078.98 2497
1353.17 1082.44 2505
1359.16 1082.44 2505
1367.33 1084.17 2509
1374.97 1085.46 2512
1380.98 1085.46 2512
1386.99 1085.46 2512
1392.99 1085.46 2512
1390.65 1078.98 2497
1396.62 1078.98 2497
1400.9 1077.69 2494
1406.87 1077.69 2494
1419.06 1082.44 2505
1425.05 1082.44 2505
1431.04 1082.44 2505
1437.03 1082.44 2505
1443.02 1082.44 2505
1446.7 1080.71 2501
1459.07 1085.46 2512
1465.08 1085.46 2512
1484.55 1095.4 2535
1495.32 1098.86 2543
1508.49 1104.05 2555
1514.6 1104.05 2555
1525.47 1107.5 2563
1531.6 1107.5 2563
1537.72 1107.5 2563
1543.85 1107.5 2563
1552.4 1109.23 2567
1574.93 1120.9 2594
1593.94 1129.97 2615
1600.19 1129.97 2615
1621.8 1140.77 2640
1635.51 1145.96 2652
1641.86 1145.96 2652
1648.2 1145.96 2652
1647.05 1140.77 2640
1650.23 1138.61 2635
1656.54 1138.61 2635
1660.31 1136.89 2631
1666.6 1136.89 2631
1672.89 1136.89 2631
1674.08 1133.43 2623
1680.35 1133.43 2623
1684.05 1131.7 2619
1685.15 1128.24 2611
1680.38 1120.9 2594
1686.59 1120.9 2594
1692.79 1120.9 2594
1698.99 1120.9 2594
1705.2 1120.9 2594
1711.4 1120.9 2594
1717.6 1120.9 2594
1721.15 1119.17 2590
1722.01 1115.71 2582
1728.18 1115.71 2582
1734.35 1115.71 2582
1725.02 1105.77 2559
1725.73 1102.32 2551
1723.68 1097.13 2539
1729.76 1097.13 2539
1733.09 1095.4 2535
1821.86 1094.11 2532
1858.24 1112.26 2574
1864.4 1112.26 2574
1870.55 1112.26 2574
1912.43 1133.43 2623
1924.56 1136.89 2631
1930.85 1136.89 2631
1937.14 1136.89 2631
1943.43 1136.89 2631
1949.72 1136.89 2631
1956.01 1136.89 2631
1977.97 1145.96 2652
1991.04 1149.85 2661
1997.41 1149.85 2661
2003.77 1149.85 2661
2010.13 1149.85 2661
1950.57 1112.26 2574
1945.32 1105.77 2559
1951.44 1105.77 2559
-1782.69 1044.56 2404
-1776.94 1044.56 2404
-1783.72 1051.94 2421
-1786 1056.72 2432
-1780.19 1056.72 2432
-1774.37 1056.72 2432
-1768.56 1056.72 2432
-1749.69 1048.9 2414
-1743.92 1048.9 2414
-1720.87 1038.47 2390
-1713 1037.17 2387
-1702.29 1034.13 2380
-1718.69 1047.6 2411
-1712.93 1047.6 2411
-1722.03 1056.72 2432
-1716.22 1056.72 2432
-1723.06 1064.54 2450
-1717.2 1064.54 2450
-1726.01 1073.67 2471
-1757 1096.7 2524
-1750.96 1096.7 2524
-1758.06 1104.95 2543
-1757.49 1108.43 2551
-1751.39 1108.43 2551
-1745.29 1108.43 2551
-1739.19 1108.43 2551
-1733.09 1108.43 2551
-1726.99 1108.43 2551
-1720.89 1108.43 2551
-1714.79 1108.43 2551
-1708.69 1108.43 2551
-1687.24 1098.43 2528
-1681.19 1098.43 2528
-1659.91 1088.44 2505
-1624.87 1069.32 2461
-1618.98 1069.32 2461
-1613.1 1069.32 2461
-1600.03 1064.54 2450
-1582.46 1056.72 2432
-1558.49 1044.56 2404
-1552.74 1044.56 2404
-1539.91 1039.78 2393
-1534.19 1039.78 2393
-1522.08 1035.43 2383
-1516.38 1035.43 2383
-1502.44 1029.78 2370
-1494.25 1028.04 2366
-1482.3 1023.7 2356
-1476.67 1023.7 2356
-1467.29 1021.09 2350
-1467.89 1025.44 2360
-1464.1 1026.74 2363
-1462.77 1029.78 2370
-1457.1 1029.78 2370
-1451.44 1029.78 2370
-1445.77 1029.78 2370
-1440.1 1029.78 2370
-1434.43 1029.78 2370
-1424.55 1026.74 2363
-1418.9 1026.74 2363
-1415.04 1028.04 2366
-1409.38 1028.04 2366
-1403.72 1028.04 2366
-1398.07 1028.04 2366
-1418.89 1047.6 2411
-1413.13 1047.6 2411
-1415.53 1053.68 2425
-1409.73 1053.68 2425
-1403.93 1053.68 2425
-1367.08 1108.43 2551
-1360.98 1108.43 2551
-1354.88 1108.43 2551
-1342.43 1103.21 2539
-1342.68 1108.43 2551
-1336.58 1108.43 2551
-1330.48 1108.43 2551
-1324.38 1108.43 2551
-1312.07 1103.21 2539
-1167.3 1034.13 2380
-1161.61 1034.13 2380
-1159.32 1037.17 2387
-1159.9 1042.82 2400
-1160.89 1048.9 2414
-1155.12 1048.9 2414
-1152.68 1051.94 2421
-1148.78 1053.68 2425
-1156.18 1065.85 2453
-1150.31 1065.85 2453
-1148.18 1069.32 2461
-1150.65 1077.14 2479
-1146.57 1078.88 2483
-1140.63 1078.88 2483
-1141.09 1084.96 2497
-1138.76 1088.44 2505
-1137.74 1093.22 2516
-1131.73 1093.22 2516
-1134.21 1101.48 2535
-1137.05 1110.17 2555
-1136.25 1115.38 2567
-1130.11 1115.38 2567
-1123.97 1115.38 2567
-1126.11 1123.64 2586
-1119.93 1123.64 2586
-1113.74 1123.64 2586
-1107.56 1123.64 2586
-1101.37 1123.64 2586
-1095.19 1123.64 2586
-1087.32 1121.9 2582
-1081.15 1121.9 2582
-1067.06 1113.64 2563
-1060.93 1113.64 2563
-1049.87 1108.43 2551
-1040.49 1104.95 2543
-1020.58 1090.18 2509
-1014.58 1090.18 2509
-1002.55 1083.66 2494
-971.813 1056.72 2432
-965.998 1056.72 2432
-972.816 1070.63 2464
-969.671 1073.67 2471
-963.762 1073.67 2471
-960.954 1077.14 2479
-955.026 1077.14 2479
-949.098 1077.14 2479
-941.648 1075.41 2475
-935.73 1075.41 2475
-929.811 1075.41 2475
-929.492 1081.92 2490
-923.538 1081.92 2490
-923.111 1088.44 2505
-921.148 1093.22 2516
-918.041 1096.7 2524
-912.006 1096.7 2524
-907.406 1098.43 2528
-901.36 1098.43 2528
-896.732 1100.17 2532
-890.677 1100.17 2532
-884.622 1100.17 2532
-877.18 1098.43 2528
-871.134 1098.43 2528
-863.72 1096.7 2524
-859.044 1098.43 2528
-852.999 1098.43 2528
-846.954 1098.43 2528
-840.908 1098.43 2528
-833.542 1096.7 2524
-824.884 1093.22 2516
-818.867 1093.22 2516
-810.589 1090.18 2509
-800.741 1084.96 2497
-796.043 1086.7 2501
-791.326 1088.44 2505
-785.336 1088.44 2505
-779.346 1088.44 2505
-774.59 1090.18 2509
-768.591 1090.18 2509
-762.591 1090.18 2509
-756.591 1090.18 2509
-750.591 1090.18 2509
-744.592 1090.18 2509
-738.592 1090.18 2509
-731.424 1088.44 2505
-725.434 1088.44 2505
-718.295 1086.7 2501
-712.314 1086.7 2501
-703.227 1081.92 2490
-689.152 1069.32 2461
-683.267 1069.32 2461
-677.382 1069.32 2461
-671.497 1069.32 2461
-667.505 1072.36 2468
-661.603 1072.36 2468
-655.701 1072.36 2468
-647.957 1069.32 2461
-642.072 1069.32 2461
-635.153 1067.58 2457
-629.277 1067.58 2457
-622.387 1065.85 2453
-613.002 1059.76 2439
-606.174 1058.02 2435
-600.351 1058.02 2435
-594.529 1058.02 2435
-589.673 1059.76 2439
-587.192 1065.85 2453
-583.222 1069.32 2461
-577.337 1069.32 2461
-574.703 1075.41 2475
-570.623 1078.88 2483
-566.277 1081.92 2490
-560.323 1081.92 2490
-554.368 1081.92 2490
-546.872 1078.88 2483
-540.935 1078.88 2483
-534.997 1078.88 2483
-530.551 1081.92 2490
-526.071 1084.96 2497
-521.767 1088.44 2505
-515.776 1088.44 2505
-509.786 1088.44 2505
-505.204 1091.48 2512
-499.197 1091.48 2512
-493.19 1091.48 2512
-487.183 1091.48 2512
-480.601 1090.18 2509
-473.088 1086.7 2501
-467.108 1086.7 2501
-461.127 1086.7 2501
-455.146 1086.7 2501
-449.166 1086.7 2501
-443.185 1086.7 2501
-435.981 1083.66 2494
-433.12 1091.48 2512
-427.793 1093.22 2516
-421.777 1093.22 2516
-415.76 1093.22 2516
-409.744 1093.22 2516
-403.085 1091.48 2512
-397.079 1091.48 2512
-389.982 1088.44 2505
-382.765 1084.96 2497
-375.134 1080.18 2486
-371.417 1086.7 2501
-365.436 1086.7 2501
-360.031 1088.44 2505
-354.041 1088.44 2505
-348.05 1088.44 2505
-342.06 1088.44 2505
-334.997 1084.96 2497
-329.026 1084.96 2497
-323.054 1084.96 2497
-317.083 1084.96 2497
-311.112 1084.96 2497
-304.775 1083.66 2494
-298.811 1083.66 2494
-292.377 1081.92 2490
-285.157 1077.14 2479
-278.328 1073.67 2471
-272.419 1073.67 2471
-267.373 1077.14 2479
-261.445 1077.14 2479
-256.239 1080.18 2486
-250.294 1080.18 2486
-244.349 1080.18 2486
-238.404 1080.18 2486
-232.46 1080.18 2486
-226.879 1081.92 2490
-222.877 1091.48 2512
-216.87 1091.48 2512
-211.87 1096.7 2524
-206.161 1098.43 2528
-200.116 1098.43 2528
-194.07 1098.43 2528
-188.323 1100.17 2532
-182.484 1101.48 2535
-176.422 1101.48 2535
-170.36 1101.48 2535
-164.298 1101.48 2535
-110.183 995.89 2292
-104.702 995.89 2292
-99.2209 995.89 2292
-93.5765 994.152 2288
-88.1052 994.152 2288
-82.6339 994.152 2288
-76.7579 988.938 2276
-71.0333 985.028 2267
-65.6122 985.028 2267
-60.0318 982.421 2261
-54.5284 980.683 2257
-49.0659 979.379 2254
-43.5597 976.772 2248
-38.184 976.772 2248
-32.6333 971.558 2236
-27.2863 971.558 2236
-21.9394 971.558 2236
-16.5924 971.558 2236
-11.2153 968.951 2230
-5.85101 963.737 2218
-0.542162 955.047 2198
4.71392 955.047 2198
9.97001 955.047 2198
15.2261 955.047 2198
20.566 958.957 2207
25.8788 960.261 2210
31.1636 960.261 2210
36.5308 962.433 2215
42.0541 967.647 2227
47.5072 970.254 2233
52.847 970.254 2233
58.1868 970.254 2233
63.6973 972.861 2239
69.0514 972.861 2239
74.4055 972.861 2239
79.7596 972.861 2239
85.1138 972.861 2239
90.3467 971.558 2236
95.6936 971.558 2236
100.905 970.254 2233
106.53 972.861 2239
111.884 972.861 2239
117.239 972.861 2239
122.593 972.861 2239
127.604 970.254 2233
132.586 967.647 2227
137.912 967.647 2227
143.044 966.344 2224
147.962 963.737 2218
153.266 963.737 2218
158.57 963.737 2218
163.874 963.737 2218
169.178 963.737 2218
174.718 965.04 2221
181.488 972.861 2239
186.842 972.861 2239
193.226 978.076 2251
200.021 985.028 2267
206.529 990.242 2279
211.979 990.242 2279
219.528 999.801 2301
242.047 1075.41 2475
248.366 1077.14 2479
254.294 1077.14 2479
269.46 1115.38 2567
275.598 1115.38 2567
281.737 1115.38 2567
287.875 1115.38 2567
294.014 1115.38 2567
298.749 1110.17 2555
304.859 1110.17 2555
309.021 1103.21 2539
316.582 1108.43 2551
322.682 1108.43 2551
328.782 1108.43 2551
331.338 1096.7 2524
338.844 1101.48 2535
347.083 1108.43 2551
354.291 1111.9 2559
360.41 1111.9 2559
367.102 1113.64 2563
373.814 1115.38 2567
379.952 1115.38 2567
386.091 1115.38 2567
393.299 1118.42 2574
399.454 1118.42 2574
405.609 1118.42 2574
411.285 1117.12 2571
417.433 1117.12 2571
422.922 1115.38 2567
429.06 1115.38 2567
435.199 1115.38 2567
440.649 1113.64 2563
446.081 1111.9 2559
450.08 1106.69 2547
456.17 1106.69 2547
462.261 1106.69 2547
467.616 1104.95 2543
473.697 1104.95 2543
479.778 1104.95 2543
482.994 1098.43 2528
488.265 1096.7 2524
491.363 1090.18 2509
497.363 1090.18 2509
503.363 1090.18 2509
509.362 1090.18 2509
516.8 1093.22 2516
522.817 1093.22 2516
528.833 1093.22 2516
534.85 1093.22 2516
540.006 1091.48 2512
547.752 1094.96 2520
555.536 1098.43 2528
561.581 1098.43 2528
567.627 1098.43 2528
574.58 1100.17 2532
580.634 1100.17 2532
586.689 1100.17 2532
592.744 1100.17 2532
598.799 1100.17 2532
605.57 1101.48 2535
611.632 1101.48 2535
619.643 1104.95 2543
627.693 1108.43 2551
633.793 1108.43 2551
639.893 1108.43 2551
647.006 1110.17 2555
653.116 1110.17 2555
659.226 1110.17 2555
664.294 1108.43 2551
666.19 1101.48 2535
672.252 1101.48 2535
679.384 1103.21 2539
685.455 1103.21 2539
691.527 1103.21 2539
696.499 1101.48 2535
702.561 1101.48 2535
708.623 1101.48 2535
714.685 1101.48 2535
724.159 1106.69 2547
730.25 1106.69 2547
738.653 1110.17 2555
744.763 1110.17 2555
750.873 1110.17 2555
756.982 1110.17 2555
763.092 1110.17 2555
769.202 1110.17 2555
774.098 1108.43 2551
778.975 1106.69 2547
785.065 1106.69 2547
791.156 1106.69 2547
797.247 1106.69 2547
804.599 1108.43 2551
810.699 1108.43 2551
816.799 1108.43 2551
822.9 1108.43 2551
829 1108.43 2551
835.1 1108.43 2551
841.2 1108.43 2551
847.301 1108.43 2551
854.739 1110.17 2555
860.849 1110.17 2555
866.958 1110.17 2555
873.068 1110.17 2555
875.049 1104.95 2543
881.13 1104.95 2543
887.211 1104.95 2543
891.887 1103.21 2539
896.544 1101.48 2535
901.538 1100.17 2532
907.592 1100.17 2532
912.204 1098.43 2528
918.249 1098.43 2528
924.294 1098.43 2528
930.339 1098.43 2528
934.903 1096.7 2524
939.448 1094.96 2520
949.976 1100.17 2532
957.163 1101.48 2535
964.745 1103.21 2539
970.817 1103.21 2539
976.888 1103.21 2539
980.25 1100.17 2532
986.305 1100.17 2532
986.088 1093.22 2516
990.528 1091.48 2512
996.535 1091.48 2512
1002.54 1091.48 2512
1008.55 1091.48 2512
1014.56 1091.48 2512
1020.56 1091.48 2512
1026.57 1091.48 2512
1032.58 1091.48 2512
1038.58 1091.48 2512
1044.59 1091.48 2512
1050.6 1091.48 2512
1055.34 1090.18 2509
1059.65 1088.44 2505
1062.24 1084.96 2497
1068.21 1084.96 2497
1074.18 1084.96 2497
1080.15 1084.96 2497
1084.82 1083.66 2494
1089.03 1081.92 2490
1094.99 1081.92 2490
1100.94 1081.92 2490
1106.89 1081.92 2490
1107.93 1077.14 2479
1113.86 1077.14 2479
1119.79 1077.14 2479
1125.72 1077.14 2479
1136.67 1081.92 2490
1144.46 1083.66 2494
1150.42 1083.66 2494
1157.77 1084.96 2497
1167.47 1088.44 2505
1173.46 1088.44 2505
1179.45 1088.44 2505
1185.44 1088.44 2505
1194.76 1091.48 2512
1200.77 1091.48 2512
1208.7 1093.22 2516
1214.72 1093.22 2516
1226.55 1098.43 2528
1234.55 1100.17 2532
1249.91 1108.43 2551
1256.01 1108.43 2551
1264.09 1110.17 2555
1272.19 1111.9 2559
1278.31 1111.9 2559
1284.43 1111.9 2559
1288.53 1110.17 2555
1290.59 1106.69 2547
1296.68 1106.69 2547
1296.63 1101.48 2535
1299.1 1098.43 2528
1305.14 1098.43 2528
1311.19 1098.43 2528
1315.15 1096.7 2524
1311.24 1088.44 2505
1317.23 1088.44 2505
1323.22 1088.44 2505
1329.21 1088.44 2505
1329.34 1083.66 2494
1333.16 1081.92 2490
1336.96 1080.18 2486
1342.91 1080.18 2486
1348.85 1080.18 2486
1362.97 1086.7 2501
1371.14 1088.44 2505
1377.13 1088.44 2505
1383.12 1088.44 2505
1386.89 1086.7 2501
1388.98 1083.66 2494
1394.94 1083.66 2494
1398.66 1081.92 2490
1404.61 1081.92 2490
1412.83 1083.66 2494
1422.78 1086.7 2501
1431.04 1088.44 2505
1437.03 1088.44 2505
1443.02 1088.44 2505
1449.01 1088.44 2505
1455 1088.44 2505
1460.99 1088.44 2505
1484.55 1101.48 2535
1495.32 1104.95 2543
1508.49 1110.17 2555
1514.6 1110.17 2555
1523.09 1111.9 2559
1529.2 1111.9 2559
1540.12 1115.38 2567
1546.26 1115.38 2567
1552.4 1115.38 2567
1572.5 1125.37 2590
1586.62 1131.02 2603
1592.85 1131.02 2603
1608.9 1137.97 2619
1625.03 1144.93 2635
1631.33 1144.93 2635
1637.63 1144.93 2635
1638.94 1141.45 2627
1645.22 1141.45 2627
1651.51 1141.45 2627
1647.69 1134.5 2611
1651.4 1132.76 2607
1657.63 1132.76 2607
1663.87 1132.76 2607
1670.1 1132.76 2607
1673.77 1131.02 2603
1671.6 1125.37 2590
1672.61 1121.9 2582
1678.78 1121.9 2582
1682.35 1120.16 2578
1685.89 1118.42 2574
1692.05 1118.42 2574
1698.2 1118.42 2574
1702.37 1117.12 2571
1708.52 1117.12 2571
1714.67 1117.12 2571
1720.82 1117.12 2571
1726.97 1117.12 2571
1719.63 1108.43 2551
1697.32 1090.18 2509
1703.32 1090.18 2509
1709.32 1090.18 2509
1715.32 1090.18 2509
1821.86 1100.17 2532
1858.24 1118.42 2574
1864.4 1118.42 2574
1870.55 1118.42 2574
1906.6 1136.24 2615
1912.85 1136.24 2615
1919.11 1136.24 2615
1934.19 1141.45 2627
1940.48 1141.45 2627
1946.76 1141.45 2627
1941.14 1134.5 2611
1947.39 1134.5 2611
1959.62 1137.97 2619
1965.88 1137.97 2619
1972.14 1137.97 2619
1978.41 1137.97 2619
1950.57 1118.42 2574
1945.32 1111.9 2559
1951.44 1111.9 2559
-1782.69 1050.31 2404
-1776.94 1050.31 2404
-1783.72 1057.74 2421
-1796.29 1068.66 2446
-1790.44 1068.66 2446
-1784.59 1068.66 2446
-1778.74 1068.66 2446
-1772.89 1068.66 2446
-1767.04 1068.66 2446
-1720.87 1044.2 2390
-1713 1042.89 2387
-1711.58 1045.51 2393
-1718.69 1053.37 2411
-1712.93 1053.37 2411
-1742.57 1075.22 2461
-1736.68 1075.22 2461
-1730.8 1075.22 2461
-1704.59 1062.55 2432
-1726.01 1079.59 2471
-1738.2 1090.95 2497
-1732.23 1090.95 2497
-1726.26 1090.95 2497
-1720.29 1090.95 2497
-1714.32 1090.95 2497
-1716.56 1096.19 2509
-1710.56 1096.19 2509
-1733.09 1114.54 2551
-1726.99 1114.54 2551
-1720.89 1114.54 2551
-1714.79 1114.54 2551
-1708.69 1114.54 2551
-1687.24 1104.49 2528
-1681.19 1104.49 2528
-1642.68 1083.08 2479
-1617.6 1070.41 2450
-1611.74 1070.41 2450
-1605.89 1070.41 2450
-1597.42 1068.66 2446
-1582.46 1062.55 2432
-1544.87 1041.14 2383
-1539.18 1041.14 2383
-1531.55 1039.83 2380
-1525.86 1039.83 2380
-1513.78 1035.46 2370
-1508.11 1035.46 2370
-1502.44 1035.46 2370
-1490.46 1031.09 2360
-1480.41 1028.03 2353
-1474.79 1028.03 2353
-1462.91 1023.66 2343
-1463.53 1028.03 2353
-1462.24 1031.09 2360
-1458.45 1032.4 2363
-1452.8 1032.4 2363
-1447.15 1032.4 2363
-1441.5 1032.4 2363
-1435.85 1032.4 2363
-1428.38 1031.09 2360
-1420.33 1029.34 2356
-1414.69 1029.34 2356
-1411.45 1031.09 2360
-1405.81 1031.09 2360
-1400.16 1031.09 2360
-1394.52 1031.09 2360
-1388.88 1031.09 2360
-1383.23 1031.09 2360
-1377.59 1031.09 2360
-1371.95 1031.09 2360
-1336.44 1094.44 2505
-1336.29 1099.25 2516
-1330.27 1099.25 2516
-1336.36 1109.3 2539
-1332.38 1111.04 2543
-1326.3 1111.04 2543
-1320.22 1111.04 2543
-1172.21 1044.2 2390
-1166.49 1044.2 2390
-1162.24 1045.51 2393
-1165.21 1053.37 2411
-1164.26 1057.74 2421
-1158.47 1057.74 2421
-1167.91 1071.72 2453
-1163.94 1073.47 2457
-1163.25 1078.28 2468
-1157.35 1078.28 2468
-1152.85 1079.59 2471
-1150.65 1083.08 2479
-1147.96 1086.14 2486
-1142.01 1086.14 2486
-1141.09 1090.95 2497
-1138.76 1094.44 2505
-1132.77 1094.44 2505
-1126.78 1094.44 2505
-1129.29 1102.74 2524
-1128.15 1107.55 2535
-1129.17 1114.54 2551
-1123.07 1114.54 2551
-1120.47 1118.03 2559
-1117.84 1121.53 2567
-1111.7 1121.53 2567
-1105.56 1121.53 2567
-1101.13 1123.28 2571
-1094.99 1123.28 2571
-1088.84 1123.28 2571
-1081 1121.53 2567
-1071.52 1118.03 2559
-1062.07 1114.54 2551
-1055.97 1114.54 2551
-1037.11 1100.99 2520
-1023.31 1092.69 2501
-1014.48 1089.64 2494
-1008.52 1089.64 2494
-967.579 1051.62 2407
-955.03 1044.2 2390
-945.343 1039.83 2380
-957.418 1059.49 2425
-954.366 1062.55 2432
-948.551 1062.55 2432
-955.139 1076.53 2464
-950.788 1078.28 2468
-944.887 1078.28 2468
-938.985 1078.28 2468
-933.083 1078.28 2468
-927.181 1078.28 2468
-922.399 1079.59 2471
-916.491 1079.59 2471
-912.056 1081.33 2475
-911.629 1087.89 2490
-911.13 1094.44 2505
-905.14 1094.44 2505
-903.098 1099.25 2516
-897.082 1099.25 2516
-892.482 1100.99 2520
-886.456 1100.99 2520
-880.43 1100.99 2520
-873.016 1099.25 2516
-866.999 1099.25 2516
-859.614 1097.5 2512
-857.685 1102.74 2524
-851.649 1102.74 2524
-845.613 1102.74 2524
-839.578 1102.74 2524
-830.9 1099.25 2516
-822.589 1096.19 2509
-816.589 1096.19 2509
-808.005 1092.69 2501
-798.496 1087.89 2490
-792.542 1087.89 2490
-790.063 1092.69 2501
-784.082 1092.69 2501
-778.101 1092.69 2501
-773.356 1094.44 2505
-768.591 1096.19 2509
-762.591 1096.19 2509
-756.591 1096.19 2509
-750.591 1096.19 2509
-744.592 1096.19 2509
-738.592 1096.19 2509
-731.424 1094.44 2505
-724.275 1092.69 2501
-717.146 1090.95 2497
-711.175 1090.95 2497
-703.227 1087.89 2490
-689.152 1075.22 2461
-682.156 1073.47 2457
-676.281 1073.47 2457
-670.405 1073.47 2457
-666.423 1076.53 2464
-660.531 1076.53 2464
-654.639 1076.53 2464
-647.957 1075.22 2461
-641.028 1073.47 2457
-634.119 1071.72 2453
-628.253 1071.72 2453
-621.626 1070.41 2450
-610.238 1060.8 2428
-604.432 1060.8 2428
-599.612 1062.55 2432
-593.796 1062.55 2432
-588.706 1063.86 2435
-582.883 1063.86 2435
-578.956 1067.35 2443
-573.114 1067.35 2443
-571.452 1075.22 2461
-568.784 1081.33 2475
-562.866 1081.33 2475
-556.947 1081.33 2475
-551.029 1081.33 2475
-544.229 1079.59 2471
-538.32 1079.59 2471
-532.411 1079.59 2471
-528.207 1083.08 2479
-523.122 1084.83 2483
-517.809 1086.14 2486
-513.511 1089.64 2494
-507.548 1089.64 2494
-502.991 1092.69 2501
-497.011 1092.69 2501
-491.03 1092.69 2501
-485.049 1092.69 2501
-478.303 1090.95 2497
-471.007 1087.89 2490
-465.053 1087.89 2490
-459.099 1087.89 2490
-453.144 1087.89 2490
-447.19 1087.89 2490
-441.236 1087.89 2490
-435.281 1087.89 2490
-429.327 1087.89 2490
-425.923 1094.44 2505
-419.933 1094.44 2505
-413.943 1094.44 2505
-407.952 1094.44 2505
-401.32 1092.69 2501
-395.34 1092.69 2501
-387.647 1087.89 2490
-380.006 1083.08 2479
-373.474 1081.33 2475
-369.19 1086.14 2486
-363.245 1086.14 2486
-357.3 1086.14 2486
-351.355 1086.14 2486
-345.41 1086.14 2486
-339.056 1084.83 2483
-332.582 1083.08 2479
-326.654 1083.08 2479
-320.726 1083.08 2479
-314.798 1083.08 2479
-307.873 1079.59 2471
-301.597 1078.28 2468
-294.378 1073.47 2457
-288.502 1073.47 2457
-282.627 1073.47 2457
-276.751 1073.47 2457
-271.317 1075.22 2461
-266.51 1079.59 2471
-260.602 1079.59 2471
-255.105 1081.33 2475
-249.992 1084.83 2483
-244.054 1084.83 2483
-238.117 1084.83 2483
-231.431 1081.33 2475
-225.877 1083.08 2479
-220.925 1087.89 2490
-214.971 1087.89 2490
-210.863 1097.5 2512
-204.856 1097.5 2512
-199.166 1099.25 2516
-193.149 1099.25 2516
-187.133 1099.25 2516
-181.116 1099.25 2516
-175.1 1099.25 2516
-169.083 1099.25 2516
-110.183 1001.38 2292
-104.702 1001.38 2292
-99.2209 1001.38 2292
-93.5765 999.633 2288
-88.1052 999.633 2288
-82.6339 999.633 2288
-76.7579 994.39 2276
-71.0333 990.458 2267
-65.6122 990.458 2267
-60.0318 987.837 2261
-54.5284 986.089 2257
-49.0659 984.779 2254
-43.5597 982.157 2248
-38.184 982.157 2248
-32.6333 976.914 2236
-27.2863 976.914 2236
-21.9394 976.914 2236
-16.5924 976.914 2236
-11.2153 974.293 2230
-5.85101 969.05 2218
-0.541422 959.001 2195
4.70749 959.001 2195
9.9564 959.001 2195
15.2053 959.001 2195
20.4822 960.312 2198
25.8436 964.244 2207
31.1213 964.244 2207
36.3989 964.244 2207
41.8275 967.739 2215
47.3796 972.982 2227
52.705 972.982 2227
58.1086 974.293 2230
63.6973 978.225 2239
69.0514 978.225 2239
74.4055 978.225 2239
79.7596 978.225 2239
85.1138 978.225 2239
90.3467 976.914 2236
95.6936 976.914 2236
100.905 975.604 2233
106.53 978.225 2239
111.884 978.225 2239
117.239 978.225 2239
122.593 978.225 2239
127.604 975.604 2233
132.586 972.982 2227
137.912 972.982 2227
143.044 971.671 2224
147.962 969.05 2218
153.266 969.05 2218
158.57 969.05 2218
163.874 969.05 2218
169.178 969.05 2218
174.718 970.361 2221
181.488 978.225 2239
186.842 978.225 2239
193.226 983.468 2251
200.021 990.458 2267
206.801 997.012 2282
212.258 997.012 2282
219.528 1005.31 2301
241.656 1079.59 2471
247.565 1079.59 2471
253.474 1079.59 2471
260.222 1083.08 2479
272.592 1109.3 2539
278.664 1109.3 2539
284.735 1109.3 2539
289.547 1104.49 2528
294.657 1100.99 2520
300.683 1100.99 2520
305.37 1096.19 2509
313.231 1102.74 2524
319.267 1102.74 2524
325.302 1102.74 2524
331.338 1102.74 2524
338.844 1107.55 2535
347.083 1114.54 2551
354.291 1118.03 2559
360.41 1118.03 2559
367.102 1119.78 2563
373.814 1121.53 2567
379.952 1121.53 2567
386.091 1121.53 2567
393.299 1124.59 2574
399.454 1124.59 2574
405.609 1124.59 2574
411.285 1123.28 2571
417.433 1123.28 2571
422.922 1121.53 2567
429.06 1121.53 2567
435.199 1121.53 2567
440.649 1119.78 2563
446.081 1118.03 2559
450.08 1112.79 2547
456.17 1112.79 2547
462.261 1112.79 2547
467.616 1111.04 2543
473.697 1111.04 2543
479.778 1111.04 2543
482.994 1104.49 2528
488.265 1102.74 2524
491.363 1096.19 2509
497.363 1096.19 2509
503.363 1096.19 2509
509.362 1096.19 2509
516.8 1099.25 2516
522.817 1099.25 2516
528.833 1099.25 2516
534.85 1099.25 2516
540.006 1097.5 2512
547.752 1100.99 2520
555.536 1104.49 2528
561.581 1104.49 2528
567.627 1104.49 2528
574.58 1106.24 2532
580.634 1106.24 2532
586.689 1106.24 2532
592.744 1106.24 2532
598.799 1106.24 2532
605.57 1107.55 2535
611.632 1107.55 2535
619.643 1111.04 2543
627.693 1114.54 2551
633.793 1114.54 2551
639.893 1114.54 2551
647.006 1116.29 2555
653.116 1116.29 2555
659.226 1116.29 2555
664.294 1114.54 2551
666.19 1107.55 2535
672.252 1107.55 2535
679.384 1109.3 2539
685.455 1109.3 2539
691.527 1109.3 2539
696.499 1107.55 2535
702.561 1107.55 2535
708.623 1107.55 2535
714.685 1107.55 2535
724.159 1112.79 2547
730.25 1112.79 2547
738.653 1116.29 2555
744.763 1116.29 2555
750.873 1116.29 2555
756.982 1116.29 2555
763.092 1116.29 2555
769.202 1116.29 2555
774.098 1114.54 2551
778.975 1112.79 2547
785.065 1112.79 2547
791.156 1112.79 2547
797.247 1112.79 2547
804.599 1114.54 2551
810.699 1114.54 2551
816.799 1114.54 2551
822.9 1114.54 2551
829 1114.54 2551
835.1 1114.54 2551
841.2 1114.54 2551
847.301 1114.54 2551
854.739 1116.29 2555
860.849 1116.29 2555
866.958 1116.29 2555
873.068 1116.29 2555
875.049 1111.04 2543
881.13 1111.04 2543
887.211 1111.04 2543
891.887 1109.3 2539
896.544 1107.55 2535
901.538 1106.24 2532
907.592 1106.24 2532
912.204 1104.49 2528
918.249 1104.49 2528
924.294 1104.49 2528
930.339 1104.49 2528
934.903 1102.74 2524
939.448 1100.99 2520
949.976 1106.24 2532
957.163 1107.55 2535
964.745 1109.3 2539
970.817 1109.3 2539
976.888 1109.3 2539
980.25 1106.24 2532
986.305 1106.24 2532
986.088 1099.25 2516
989.345 1096.19 2509
995.345 1096.19 2509
1001.34 1096.19 2509
1007.34 1096.19 2509
1011.73 1094.44 2505
1017.72 1094.44 2505
1023.71 1094.44 2505
1028.05 1092.69 2501
1034.04 1092.69 2501
1040.02 1092.69 2501
1046 1092.69 2501
1051.98 1092.69 2501
1055 1089.64 2494
1059.26 1087.89 2490
1065.21 1087.89 2490
1071.17 1087.89 2490
1077.12 1087.89 2490
1074.81 1079.59 2471
1080.72 1079.59 2471
1090.15 1083.08 2479
1096.08 1083.08 2479
1102 1083.08 2479
1104.36 1079.59 2471
1110.27 1079.59 2471
1116.17 1079.59 2471
1128.89 1086.14 2486
1136.67 1087.89 2490
1142.62 1087.89 2490
1148.57 1087.89 2490
1156.38 1089.64 2494
1163.75 1090.95 2497
1169.72 1090.95 2497
1175.69 1090.95 2497
1181.66 1090.95 2497
1189.53 1092.69 2501
1197.42 1094.44 2505
1205.34 1096.19 2509
1211.34 1096.19 2509
1217.34 1096.19 2509
1230.65 1102.74 2524
1240.61 1106.24 2532
1246.66 1106.24 2532
1254.2 1107.55 2535
1260.26 1107.55 2535
1266.32 1107.55 2535
1272.38 1107.55 2535
1278.45 1107.55 2535
1282.99 1106.24 2532
1289.04 1106.24 2532
1293.05 1104.49 2528
1297.04 1102.74 2524
1303.08 1102.74 2524
1309.11 1102.74 2524
1307.33 1096.19 2509
1305.48 1089.64 2494
1311.45 1089.64 2494
1317.41 1089.64 2494
1323.37 1089.64 2494
1329.34 1089.64 2494
1327.27 1083.08 2479
1335.35 1084.83 2483
1341.29 1084.83 2483
1347.22 1084.83 2483
1356.98 1087.89 2490
1365.12 1089.64 2494
1374.93 1092.69 2501
1380.91 1092.69 2501
1386.89 1092.69 2501
1388.98 1089.64 2494
1394.94 1089.64 2494
1400.9 1089.64 2494
1404.61 1087.89 2490
1412.83 1089.64 2494
1422.78 1092.69 2501
1431.04 1094.44 2505
1437.03 1094.44 2505
1443.02 1094.44 2505
1449.01 1094.44 2505
1459.07 1097.5 2512
1465.08 1097.5 2512
1484.55 1107.55 2535
1497.67 1112.79 2547
1508.49 1116.29 2555
1514.6 1116.29 2555
1523.09 1118.03 2559
1529.2 1118.03 2559
1540.12 1121.53 2567
1546.26 1121.53 2567
1552.4 1121.53 2567
1567.65 1128.08 2582
1578.7 1131.58 2590
1584.89 1131.58 2590
1599.07 1137.26 2603
1615.16 1144.25 2619
1621.43 1144.25 2619
1627.69 1144.25 2619
1631.46 1142.5 2615
1635.2 1140.75 2611
1638.93 1139.01 2607
1645.17 1139.01 2607
1648.87 1137.26 2603
1655.09 1137.26 2603
1658.76 1135.51 2599
1664.98 1135.51 2599
1662.83 1129.83 2586
1663.85 1126.33 2578
1662.89 1121.53 2567
1669.03 1121.53 2567
1675.17 1121.53 2567
1681.31 1121.53 2567
1687.45 1121.53 2567
1693.59 1121.53 2567
1691.78 1116.29 2555
1695.23 1114.54 2551
1701.33 1114.54 2551
1707.43 1114.54 2551
1713.53 1114.54 2551
1685.93 1092.69 2501
1687.17 1089.64 2494
1693.14 1089.64 2494
1699.1 1089.64 2494
1705.06 1089.64 2494
1821.86 1106.24 2532
1847.41 1118.03 2559
1853.53 1118.03 2559
1868.37 1123.28 2571
1876.71 1124.59 2574
1885.79 1126.33 2578
1891.95 1126.33 2578
1909.9 1133.33 2594
1916.1 1133.33 2594
1922.3 1133.33 2594
1928.51 1133.33 2594
1922.78 1126.33 2578
1928.94 1126.33 2578
1935.1 1126.33 2578
1941.27 1126.33 2578
1944.41 1124.59 2574
1942.23 1119.78 2563
1945.32 1118.03 2559
1951.44 1118.03 2559
1945.32 1111.04 2543
-1778.56 1060.47 2414
-1796.29 1074.52 2446
-1790.44 1074.52 2446
-1784.59 1074.52 2446
-1778.74 1074.52 2446
-1772.89 1074.52 2446
-1767.04 1074.52 2446
-1715.83 1046.85 2383
-1695.78 1038.06 2363
-1729.47 1062.22 2418
-1754.34 1081.11 2461
-1748.45 1081.11 2461
-1749.65 1085.51 2471
-1743.74 1085.51 2471
-1743.46 1089.02 2479
-1737.53 1089.02 2479
-1736.49 1092.1 2486
-1738.2 1096.93 2497
-1732.23 1096.93 2497
-1726.26 1096.93 2497
-1720.29 1096.93 2497
-1714.32 1096.93 2497
-1716.56 1102.2 2509
-1710.56 1102.2 2509
-1733.09 1120.65 2551
-1726.99 1120.65 2551
-1720.89 1120.65 2551
-1714.79 1120.65 2551
-1708.69 1120.65 2551
-1687.24 1110.55 2528
-1681.19 1110.55 2528
-1642.68 1089.02 2479
-1617.6 1076.28 2450
-1611.74 1076.28 2450
-1605.89 1076.28 2450
-1597.42 1074.52 2446
-1582.46 1068.37 2432
-1563.03 1059.15 2411
-1557.26 1059.15 2411
-1531.55 1045.53 2380
-1525.86 1045.53 2380
-1513.78 1041.14 2370
-1508.11 1041.14 2370
-1502.44 1041.14 2370
-1490.46 1036.74 2360
-1480.41 1033.67 2353
-1474.79 1033.67 2353
-1462.91 1029.28 2343
-1463.53 1033.67 2353
-1462.24 1036.74 2360
-1458.45 1038.06 2363
-1452.8 1038.06 2363
-1447.15 1038.06 2363
-1441.5 1038.06 2363
-1435.85 1038.06 2363
-1428.38 1036.74 2360
-1420.33 1034.99 2356
-1414.69 1034.99 2356
-1411.45 1036.74 2360
-1405.81 1036.74 2360
-1400.16 1036.74 2360
-1394.52 1036.74 2360
-1388.88 1036.74 2360
-1383.23 1036.74 2360
-1377.59 1036.74 2360
-1371.95 1036.74 2360
-1336.44 1100.44 2505
-1336.29 1105.27 2516
-1330.27 1105.27 2516
-1336.36 1115.38 2539
-1332.38 1117.14 2543
-1326.3 1117.14 2543
-1320.22 1117.14 2543
-1164.62 1038.06 2363
-1172.21 1049.92 2390
-1166.49 1049.92 2390
-1162.24 1051.24 2393
-1165.21 1059.15 2411
-1172.91 1071.45 2439
-1167.08 1071.45 2439
-1167.91 1077.6 2453
-1163.94 1079.36 2457
-1163.25 1084.19 2468
-1157.35 1084.19 2468
-1152.85 1085.51 2471
-1150.65 1089.02 2479
-1147.96 1092.1 2486
-1142.01 1092.1 2486
-1141.09 1096.93 2497
-1138.76 1100.44 2505
-1132.77 1100.44 2505
-1126.78 1100.44 2505
-1129.29 1108.79 2524
-1128.15 1113.62 2535
-1125.63 1117.14 2543
-1119.55 1117.14 2543
-1116.97 1120.65 2551
-1110.87 1120.65 2551
-1104.77 1120.65 2551
-1098.67 1120.65 2551
-1090.85 1118.89 2547
-1083.06 1117.14 2543
-1076.98 1117.14 2543
-1070.9 1117.14 2543
-1060.21 1112.3 2532
-1042.92 1100.44 2505
-1036.92 1100.44 2505
-1026.41 1095.61 2494
-1014.31 1089.02 2479
-981.938 1060.47 2414
-966.461 1049.92 2390
-960.746 1049.92 2390
-945.44 1039.38 2366
-934.619 1033.67 2353
-936.888 1042.45 2373
-937.885 1049.92 2390
-932.169 1049.92 2390
-934.595 1059.15 2411
-936.919 1068.37 2432
-936.464 1074.52 2446
-930.615 1074.52 2446
-927.412 1077.6 2453
-921.546 1077.6 2453
-918.667 1081.11 2461
-912.782 1081.11 2461
-912.056 1087.26 2475
-911.629 1093.85 2490
-905.675 1093.85 2490
-899.72 1093.85 2490
-897.714 1098.68 2501
-893.16 1100.44 2505
-888.586 1102.2 2509
-882.586 1102.2 2509
-876.587 1102.2 2509
-870.587 1102.2 2509
-865.621 1103.52 2512
-859.614 1103.52 2512
-853.607 1103.52 2512
-847.6 1103.52 2512
-841.593 1103.52 2512
-835.586 1103.52 2512
-827.267 1100.44 2505
-817.671 1095.61 2494
-811.707 1095.61 2494
-805.743 1095.61 2494
-793.686 1087.26 2475
-789.041 1089.02 2479
-784.376 1090.78 2483
-778.439 1090.78 2483
-775.923 1095.61 2494
-773.356 1100.44 2505
-768.591 1102.2 2509
-762.591 1102.2 2509
-756.591 1102.2 2509
-750.591 1102.2 2509
-744.592 1102.2 2509
-737.414 1100.44 2505
-730.256 1098.68 2501
-724.275 1098.68 2501
-716.284 1095.61 2494
-710.32 1095.61 2494
-698.991 1087.26 2475
-688.032 1079.36 2457
-678.269 1073.21 2443
-672.427 1073.21 2443
-666.585 1073.21 2443
-664.53 1079.36 2457
-658.654 1079.36 2457
-652.779 1079.36 2457
-644.007 1074.52 2446
-638.158 1074.52 2446
-632.309 1074.52 2446
-626.46 1074.52 2446
-615.283 1065.3 2425
-607.724 1062.22 2418
-603.685 1065.3 2425
-597.886 1065.3 2425
-592.087 1065.3 2425
-586.288 1065.3 2425
-580.489 1065.3 2425
-577.06 1069.69 2435
-571.237 1069.69 2435
-567.272 1073.21 2443
-567.865 1085.51 2471
-561.956 1085.51 2471
-556.047 1085.51 2471
-550.138 1085.51 2471
-541.146 1079.36 2457
-536.795 1082.43 2464
-530.903 1082.43 2464
-527.355 1087.26 2475
-523.122 1090.78 2483
-517.184 1090.78 2483
-511.864 1092.1 2486
-505.919 1092.1 2486
-501.584 1095.61 2494
-495.62 1095.61 2494
-489.656 1095.61 2494
-483.692 1095.61 2494
-476.962 1093.85 2490
-470.251 1092.1 2486
-464.306 1092.1 2486
-457.808 1090.78 2483
-452.416 1092.1 2486
-446.472 1092.1 2486
-440.527 1092.1 2486
-434.058 1090.78 2483
-427.43 1089.02 2479
-424.053 1095.61 2494
-418.592 1096.93 2497
-412.621 1096.93 2497
-406.65 1096.93 2497
-399.555 1093.85 2490
-393.601 1093.85 2490
-385.311 1087.26 2475
-378.32 1084.19 2468
-371.362 1081.11 2461
-366.962 1085.51 2471
-361.053 1085.51 2471
-355.144 1085.51 2471
-349.235 1085.51 2471
-343.326 1085.51 2471
-336.462 1082.43 2464
-330.167 1081.11 2461
-324.282 1081.11 2461
-318.397 1081.11 2461
-312.512 1081.11 2461
-306.129 1079.36 2457
-300.253 1079.36 2457
-293.539 1076.28 2450
-287.68 1076.28 2450
-281.822 1076.28 2450
-276.301 1077.6 2453
-270.876 1079.36 2457
-265.432 1081.11 2461
-259.547 1081.11 2461
-254.693 1085.51 2471
-249.186 1087.26 2475
-243.268 1087.26 2475
-237.349 1087.26 2475
-231.431 1087.26 2475
-225.148 1085.51 2471
-220.304 1090.78 2483
-214.366 1090.78 2483
-210.863 1103.52 2512
-204.856 1103.52 2512
-198.849 1103.52 2512
-192.842 1103.52 2512
-186.835 1103.52 2512
-181.116 1105.27 2516
-175.1 1105.27 2516
-169.083 1105.27 2516
-110.183 1006.87 2292
-104.702 1006.87 2292
-99.2209 1006.87 2292
-93.5765 1005.11 2288
-88.1052 1005.11 2288
-82.6339 1005.11 2288
-76.7579 999.843 2276
-71.0333 995.889 2267
-65.6122 995.889 2267
-60.0318 993.253 2261
-54.6251 993.253 2261
-49.0659 990.178 2254
-43.5597 987.542 2248
-38.184 987.542 2248
-32.6333 982.271 2236
-27.2131 979.635 2230
-21.8805 979.635 2230
-16.5479 979.635 2230
-11.1549 974.363 2218
-5.82199 969.531 2207
-0.540682 962.942 2192
4.70105 962.942 2192
9.8929 958.109 2181
15.1083 958.109 2181
20.3704 960.306 2186
25.6329 961.624 2189
30.8674 961.624 2189
36.2504 965.577 2198
41.6765 969.531 2207
46.9541 969.531 2207
52.563 975.681 2221
57.8741 975.681 2221
63.4412 979.635 2230
68.8663 980.953 2233
74.3058 982.271 2236
79.6528 982.271 2236
84.9997 982.271 2236
90.2255 980.953 2233
95.5652 980.953 2233
100.905 980.953 2233
106.53 983.589 2239
111.884 983.589 2239
117.239 983.589 2239
122.593 983.589 2239
127.604 980.953 2233
132.586 978.317 2227
137.912 978.317 2227
143.044 976.999 2224
147.962 974.363 2218
153.266 974.363 2218
158.785 975.681 2221
164.096 975.681 2221
170.093 979.635 2230
175.898 982.271 2236
181.731 984.906 2242
187.093 984.906 2242
193.226 988.86 2251
200.021 995.889 2267
206.801 1002.48 2282
212.258 1002.48 2282
218.956 1008.19 2295
226.595 1017.85 2317
246.863 1082.43 2464
252.756 1082.43 2464
259.383 1085.51 2471
265.721 1087.26 2475
272.847 1092.1 2486
278.791 1092.1 2486
284.736 1092.1 2486
290.681 1092.1 2486
296.626 1092.1 2486
301.232 1087.26 2475
309.012 1093.85 2490
314.966 1093.85 2490
320.92 1093.85 2490
326.875 1093.85 2490
335.77 1103.52 2512
342.865 1107.03 2520
352.629 1118.89 2547
358.72 1118.89 2547
365.957 1122.41 2555
372.649 1124.16 2559
379.36 1125.92 2563
385.489 1125.92 2563
391.618 1125.92 2563
397.747 1125.92 2563
403.876 1125.92 2563
410.005 1125.92 2563
416.134 1125.92 2563
422.263 1125.92 2563
428.391 1125.92 2563
433.842 1124.16 2559
439.274 1122.41 2555
443.989 1118.89 2547
448.666 1115.38 2539
454.738 1115.38 2539
460.083 1113.62 2535
466.145 1113.62 2535
471.648 1112.3 2532
477.703 1112.3 2532
482.229 1108.79 2524
485.363 1102.2 2509
489.796 1098.68 2501
495.777 1098.68 2501
501.758 1098.68 2501
507.738 1098.68 2501
513.719 1098.68 2501
521.362 1102.2 2509
527.362 1102.2 2509
533.362 1102.2 2509
538.501 1100.44 2505
546.013 1103.52 2512
553.778 1107.03 2520
559.804 1107.03 2520
565.83 1107.03 2520
573.672 1110.55 2528
579.717 1110.55 2528
585.762 1110.55 2528
589.935 1107.03 2520
597.853 1110.55 2528
604.853 1112.3 2532
610.908 1112.3 2532
618.669 1115.38 2539
625.724 1117.14 2543
631.805 1117.14 2543
637.887 1117.14 2543
645.993 1120.65 2551
652.094 1120.65 2551
658.194 1120.65 2551
662.211 1117.14 2543
666.19 1113.62 2535
670.395 1110.55 2528
676.44 1110.55 2528
682.486 1110.55 2528
688.531 1110.55 2528
690.18 1103.52 2512
696.187 1103.52 2512
702.194 1103.52 2512
708.201 1103.52 2512
715.345 1105.27 2516
722.508 1107.03 2520
730.847 1110.55 2528
736.893 1110.55 2528
744.113 1112.3 2532
750.168 1112.3 2532
756.223 1112.3 2532
762.278 1112.3 2532
765.905 1108.79 2524
770.717 1107.03 2520
776.743 1107.03 2520
782.769 1107.03 2520
788.795 1107.03 2520
797.345 1110.55 2528
804.661 1112.3 2532
810.716 1112.3 2532
817.738 1113.62 2535
823.8 1113.62 2535
829.862 1113.62 2535
835.924 1113.62 2535
840.99 1112.3 2532
850.724 1117.14 2543
856.806 1117.14 2543
862.887 1117.14 2543
868.968 1117.14 2543
871.264 1112.3 2532
875.932 1110.55 2528
881.978 1110.55 2528
888.023 1110.55 2528
894.068 1110.55 2528
900.113 1110.55 2528
906.159 1110.55 2528
912.204 1110.55 2528
916.796 1108.79 2524
922.832 1108.79 2524
928.867 1108.79 2524
931.94 1105.27 2516
937.956 1105.27 2516
945.474 1107.03 2520
951.5 1107.03 2520
962.085 1112.3 2532
968.14 1112.3 2532
974.195 1112.3 2532
974.055 1105.27 2516
980.072 1105.27 2516
983.345 1102.2 2509
989.345 1102.2 2509
995.345 1102.2 2509
1001.34 1102.2 2509
1007.34 1102.2 2509
1011.73 1100.44 2505
1017.72 1100.44 2505
1023.71 1100.44 2505
1028.05 1098.68 2501
1034.04 1098.68 2501
1040.02 1098.68 2501
1046 1098.68 2501
1051.98 1098.68 2501
1055 1095.61 2494
1059.26 1093.85 2490
1065.21 1093.85 2490
1071.17 1093.85 2490
1077.12 1093.85 2490
1074.81 1085.51 2471
1080.72 1085.51 2471
1090.15 1089.02 2479
1096.08 1089.02 2479
1102 1089.02 2479
1104.36 1085.51 2471
1110.27 1085.51 2471
1116.17 1085.51 2471
1128.89 1092.1 2486
1136.67 1093.85 2490
1142.62 1093.85 2490
1148.57 1093.85 2490
1156.38 1095.61 2494
1163.75 1096.93 2497
1169.72 1096.93 2497
1175.69 1096.93 2497
1181.66 1096.93 2497
1189.53 1098.68 2501
1197.42 1100.44 2505
1205.34 1102.2 2509
1211.34 1102.2 2509
1217.34 1102.2 2509
1230.65 1108.79 2524
1240.61 1112.3 2532
1246.66 1112.3 2532
1254.2 1113.62 2535
1260.26 1113.62 2535
1266.32 1113.62 2535
1272.38 1113.62 2535
1278.45 1113.62 2535
1282.99 1112.3 2532
1289.04 1112.3 2532
1293.05 1110.55 2528
1297.04 1108.79 2524
1303.08 1108.79 2524
1309.11 1108.79 2524
1307.33 1102.2 2509
1305.48 1095.61 2494
1311.45 1095.61 2494
1317.41 1095.61 2494
1323.37 1095.61 2494
1329.34 1095.61 2494
1333.16 1093.85 2490
1335.35 1090.78 2483
1341.29 1090.78 2483
1347.22 1090.78 2483
1359.16 1095.61 2494
1365.12 1095.61 2494
1374.93 1098.68 2501
1380.91 1098.68 2501
1386.89 1098.68 2501
1390.65 1096.93 2497
1396.62 1096.93 2497
1400.9 1095.61 2494
1404.61 1093.85 2490
1412.83 1095.61 2494
1422.78 1098.68 2501
1431.04 1100.44 2505
1437.03 1100.44 2505
1443.02 1100.44 2505
1451.33 1102.2 2509
1459.07 1103.52 2512
1465.08 1103.52 2512
1484.55 1113.62 2535
1497.67 1118.89 2547
1508.49 1122.41 2555
1514.6 1122.41 2555
1523.09 1124.16 2559
1529.2 1124.16 2559
1540.12 1127.68 2567
1546.26 1127.68 2567
1552.4 1127.68 2567
1567.65 1134.27 2582
1578.7 1137.78 2590
1584.89 1137.78 2590
1599.07 1143.49 2603
1615.16 1150.52 2619
1621.43 1150.52 2619
1627.69 1150.52 2619
1631.46 1148.76 2615
1635.2 1147.01 2611
1638.93 1145.25 2607
1645.17 1145.25 2607
1648.87 1143.49 2603
1655.09 1143.49 2603
1658.76 1141.74 2599
1664.98 1141.74 2599
1662.83 1136.03 2586
1663.85 1132.51 2578
1662.89 1127.68 2567
1669.03 1127.68 2567
1675.17 1127.68 2567
1660.35 1113.62 2535
1666.41 1113.62 2535
1672.47 1113.62 2535
1678.54 1113.62 2535
1682.6 1112.3 2532
1688.66 1112.3 2532
1684 1105.27 2516
1690.02 1105.27 2516
1681.21 1095.61 2494
1674.32 1087.26 2475
1655.8 1071.45 2439
1661.63 1071.45 2439
1764.89 1081.11 2461
