ply
format ascii 1.0
comment File generated
element vertex 2159
property float x
property float y
property float z
end_header
-2149.66 -442.654 3580
-2154.85 -445.498 3603
-2155.77 -447.476 3619
-2147.12 -447.476 3619
-2138.46 -447.476 3619
-1470.28 -460.459 3724
-1461.37 -460.459 3724
-1452.47 -460.459 3724
-1436.97 -458.357 3707
-1428.11 -458.357 3707
-1435.32 -463.55 3749
-1429.4 -464.54 3757
-1420.42 -464.54 3757
-1411.43 -464.54 3757
-1399.46 -463.55 3749
-1390.5 -463.55 3749
-1375.27 -461.448 3732
-1378.79 -465.652 3766
-1372.7 -466.642 3774
-1363.67 -466.642 3774
-1354.65 -466.642 3774
-1345.62 -466.642 3774
-1348.99 -470.969 3809
-1345.87 -473.071 3826
-1336.72 -473.071 3826
-1333.81 -475.297 3844
-1324.62 -475.297 3844
-1321.59 -477.523 3862
-1312.35 -477.523 3862
-1321.34 -484.199 3916
-1314.99 -485.312 3925
-1305.6 -485.312 3925
-1296.22 -485.312 3925
-1283.88 -484.199 3916
-1259.87 -478.635 3871
-1253.52 -479.748 3880
-1267.65 -488.774 3953
-1258.2 -488.774 3953
-1254.75 -491.124 3972
-1245.25 -491.124 3972
-1235.75 -491.124 3972
-1226.25 -491.124 3972
-204.935 -257.803 2085
-199.949 -257.803 2085
-194.963 -257.803 2085
-189.977 -257.803 2085
-184.814 -257.556 2083
-179.574 -257.185 2080
-174.6 -257.185 2080
-169.463 -256.937 2078
-164.89 -257.556 2083
-160.062 -257.803 2085
-155.076 -257.803 2085
-150.09 -257.803 2085
-145.522 -258.545 2091
-140.858 -259.163 2096
-135.975 -259.41 2098
-130.958 -259.41 2098
-126.121 -259.781 2101
-121.558 -260.77 2109
-116.681 -261.141 2112
-111.63 -261.141 2112
-106.984 -262.13 2120
-102.155 -262.749 2125
-97.2101 -263.12 2128
-92.1214 -263.12 2128
-87.2372 -263.738 2133
-82.3676 -264.48 2139
-77.3609 -264.851 2142
-72.2387 -264.851 2142
-67.1166 -264.851 2142
-61.9944 -264.851 2142
-56.8722 -264.851 2142
-51.7501 -264.851 2142
-46.5626 -264.48 2139
-41.4476 -264.48 2139
-36.3326 -264.48 2139
-31.1738 -264.109 2136
-26.066 -264.109 2136
-20.9287 -263.738 2133
-15.8281 -263.738 2133
-10.7274 -263.738 2133
-5.6215 -263.491 2131
-0.525636 -263.491 2131
4.57023 -263.491 2131
9.6661 -263.491 2131
14.762 -263.491 2131
19.8578 -263.491 2131
24.9537 -263.491 2131
30.0496 -263.491 2131
35.096 -263.12 2128
40.1846 -263.12 2128
45.2733 -263.12 2128
50.362 -263.12 2128
55.4507 -263.12 2128
60.5394 -263.12 2128
65.7206 -263.491 2131
70.8165 -263.491 2131
75.9124 -263.491 2131
81.0843 -263.738 2133
86.3061 -264.109 2136
91.414 -264.109 2136
96.5218 -264.109 2136
101.63 -264.109 2136
106.737 -264.109 2136
111.845 -264.109 2136
116.953 -264.109 2136
122.061 -264.109 2136
127.169 -264.109 2136
132.462 -264.48 2139
137.77 -264.851 2142
142.892 -264.851 2142
148.153 -265.098 2144
153.494 -265.469 2147
158.85 -265.84 2150
163.991 -265.84 2150
169.369 -266.211 2153
174.679 -266.458 2155
180.083 -266.829 2158
185.243 -266.829 2158
191.198 -267.942 2167
196.833 -268.56 2172
203.887 -271.033 2192
209.129 -271.033 2192
215.544 -272.517 2204
223.119 -275.361 2227
231.214 -278.699 2254
236.604 -278.699 2254
243.068 -279.936 2264
249.14 -280.677 2270
255.577 -281.79 2279
261.027 -281.79 2279
266.828 -282.161 2282
273.836 -283.769 2295
280.054 -284.51 2301
285.557 -284.51 2301
293.462 -286.86 2320
299.912 -287.725 2327
305.871 -288.096 2330
311.443 -288.096 2330
317.422 -288.467 2333
323.555 -288.962 2337
329.144 -288.962 2337
334.732 -288.962 2337
340.321 -288.962 2337
345.909 -288.962 2337
351.497 -288.962 2337
552.971 -447.476 3619
561.625 -447.476 3619
571.54 -448.466 3627
582.613 -450.32 3642
591.322 -450.32 3642
600.031 -450.32 3642
608.74 -450.32 3642
616.263 -449.455 3635
624.955 -449.455 3635
636.262 -451.309 3650
644.991 -451.309 3650
655.152 -452.299 3658
663.899 -452.299 3658
672.646 -452.299 3658
681.394 -452.299 3658
691.839 -453.411 3667
700.608 -453.411 3667
710.925 -454.401 3675
719.713 -454.401 3675
734.844 -458.357 3707
747.119 -460.459 3724
757.649 -461.448 3732
766.573 -461.448 3732
777.16 -462.438 3740
789.676 -464.54 3757
798.66 -464.54 3757
807.645 -464.54 3757
816.629 -464.54 3757
825.613 -464.54 3757
838.373 -466.642 3774
847.398 -466.642 3774
856.423 -466.642 3774
861.549 -464.54 3757
870.534 -464.54 3757
877.645 -463.55 3749
886.61 -463.55 3749
891.514 -461.448 3732
900.438 -461.448 3732
905.464 -459.47 3716
912.135 -458.357 3707
919.012 -457.368 3699
923.844 -455.39 3683
932.651 -455.39 3683
939.414 -454.401 3675
946.138 -453.411 3667
952.563 -452.299 3658
961.31 -452.299 3658
967.936 -451.309 3650
976.664 -451.309 3650
985.393 -451.309 3650
994.121 -451.309 3650
1002.85 -451.309 3650
1009.36 -450.32 3642
1018.07 -450.32 3642
1026.78 -450.32 3642
1035.49 -450.32 3642
1044.2 -450.32 3642
1052.91 -450.32 3642
1063.95 -451.309 3650
1072.68 -451.309 3650
1081.4 -451.309 3650
1090.13 -451.309 3650
1098.86 -451.309 3650
1107.59 -451.309 3650
1116.32 -451.309 3650
1125.04 -451.309 3650
1133.77 -451.309 3650
1142.5 -451.309 3650
1151.23 -451.309 3650
1157.42 -450.32 3642
1163.88 -449.455 3635
1172.58 -449.455 3635
1181.27 -449.455 3635
1184.72 -447.476 3619
1193.38 -447.476 3619
1202.03 -447.476 3619
1210.68 -447.476 3619
1216.64 -446.487 3611
1225.28 -446.487 3611
1233.91 -446.487 3611
1242.55 -446.487 3611
1248.41 -445.498 3603
1257.03 -445.498 3603
1265.64 -445.498 3603
1274.26 -445.498 3603
1282.88 -445.498 3603
1291.49 -445.498 3603
1300.11 -445.498 3603
1308.72 -445.498 3603
1317.34 -445.498 3603
1325.95 -445.498 3603
1334.57 -445.498 3603
1343.19 -445.498 3603
1351.8 -445.498 3603
1357.4 -444.509 3595
1365.99 -444.509 3595
1374.59 -444.509 3595
1383.19 -444.509 3595
1391.78 -444.509 3595
1400.38 -444.509 3595
1408.98 -444.509 3595
1414.81 -443.643 3588
1423.39 -443.643 3588
1437.96 -445.498 3603
1446.58 -445.498 3603
1458.42 -446.487 3611
1467.06 -446.487 3611
1475.69 -446.487 3611
1484.33 -446.487 3611
1492.96 -446.487 3611
1501.6 -446.487 3611
1506.89 -445.498 3603
1512.14 -444.509 3595
1520.74 -444.509 3595
1522.95 -442.654 3580
-2654.75 -434.078 3580
-2646.19 -434.078 3580
-2637.63 -434.078 3580
-2629.07 -434.078 3580
-2609.53 -432.26 3565
-2601 -432.26 3565
-2341.95 -403.766 3330
-2333.99 -403.766 3330
-2326.03 -403.766 3330
-2276.99 -396.612 3271
-2251.83 -393.581 3246
-2235.08 -392.004 3233
-2227.35 -392.004 3233
-2372.66 -420.498 3468
-2364.37 -420.498 3468
-2361.51 -421.468 3476
-2353.2 -421.468 3476
-2349.61 -422.317 3483
-2366.15 -426.803 3520
-2357.74 -426.803 3520
-2349.32 -426.803 3520
-2335.58 -425.833 3512
-2317.24 -424.014 3497
-2308.88 -424.014 3497
-2300.52 -424.014 3497
-2236.44 -413.708 3412
-2205.43 -409.464 3377
-2197.35 -409.464 3377
-2141.3 -400.492 3303
-2172.16 -407.767 3363
-2191.14 -412.859 3405
-2187.49 -413.708 3412
-2179.33 -413.708 3412
-2171.17 -413.708 3412
-2149.7 -411.162 3391
-2141.59 -411.162 3391
-2133.48 -411.162 3391
-2129.76 -412.011 3398
-2121.63 -412.011 3398
-2113.51 -412.011 3398
-1470.28 -451.538 3724
-1461.37 -451.538 3724
-1452.47 -451.538 3724
-1443.56 -451.538 3724
-1440.82 -453.478 3740
-1438.39 -455.54 3757
-1435.87 -457.601 3774
-1426.85 -457.601 3774
-1417.82 -457.601 3774
-1408.8 -457.601 3774
-1399.77 -457.601 3774
-1390.75 -457.601 3774
-1388.31 -459.784 3792
-1379.24 -459.784 3792
-1370.18 -459.784 3792
-1361.11 -459.784 3792
-1361.31 -462.936 3818
-1355.01 -463.906 3826
-1352.2 -466.089 3844
-1343 -466.089 3844
-1340.06 -468.271 3862
-1330.82 -468.271 3862
-1330.83 -471.545 3889
-1321.53 -471.545 3889
-1327.75 -477.122 3935
-1318.34 -477.122 3935
-1308.93 -477.122 3935
-1299.52 -477.122 3935
-1283.88 -474.819 3916
-1259.87 -469.362 3871
-1253.52 -470.454 3880
-1267.65 -479.305 3953
-1258.2 -479.305 3953
-1254.75 -481.609 3972
-1245.25 -481.609 3972
-1235.75 -481.609 3972
-1226.25 -481.609 3972
-1196.84 -473.727 3907
-214.185 -251.959 2078
-209.216 -251.959 2078
-204.935 -252.808 2085
-199.949 -252.808 2085
-194.963 -252.808 2085
-189.977 -252.808 2085
-184.814 -252.566 2083
-179.574 -252.202 2080
-174.6 -252.202 2080
-169.463 -251.959 2078
-164.89 -252.566 2083
-160.062 -252.808 2085
-155.076 -252.808 2085
-150.09 -252.808 2085
-145.522 -253.536 2091
-140.858 -254.142 2096
-136.17 -254.748 2101
-131.146 -254.748 2101
-126.121 -254.748 2101
-121.558 -255.718 2109
-116.791 -256.324 2114
-111.736 -256.324 2114
-107.085 -257.294 2122
-102.155 -257.658 2125
-97.3471 -258.386 2131
-92.2512 -258.386 2131
-87.2372 -258.628 2133
-82.3676 -259.356 2139
-77.3609 -259.719 2142
-72.2387 -259.719 2142
-67.1166 -259.719 2142
-61.9944 -259.719 2142
-56.8722 -259.719 2142
-51.7501 -259.719 2142
-46.5626 -259.356 2139
-41.4476 -259.356 2139
-36.3326 -259.356 2139
-31.1738 -258.992 2136
-26.066 -258.992 2136
-20.9287 -258.628 2133
-15.8281 -258.628 2133
-10.7274 -258.628 2133
-5.6215 -258.386 2131
-0.525636 -258.386 2131
4.57023 -258.386 2131
9.6661 -258.386 2131
14.762 -258.386 2131
19.8578 -258.386 2131
24.9537 -258.386 2131
30.0496 -258.386 2131
35.1454 -258.386 2131
40.1846 -258.022 2128
45.3372 -258.386 2131
50.433 -258.386 2131
55.5289 -258.386 2131
60.6248 -258.386 2131
65.7206 -258.386 2131
70.883 -258.628 2133
75.9836 -258.628 2133
81.1983 -258.992 2136
86.3061 -258.992 2136
91.414 -258.992 2136
96.5218 -258.992 2136
101.63 -258.992 2136
106.737 -258.992 2136
111.845 -258.992 2136
116.953 -258.992 2136
122.061 -258.992 2136
127.169 -258.992 2136
132.462 -259.356 2139
137.77 -259.719 2142
142.892 -259.719 2142
148.153 -259.962 2144
153.494 -260.326 2147
158.85 -260.689 2150
163.991 -260.689 2150
169.369 -261.053 2153
174.679 -261.296 2155
180.083 -261.659 2158
185.243 -261.659 2158
191.198 -262.751 2167
196.833 -263.357 2172
203.887 -265.782 2192
209.129 -265.782 2192
215.837 -267.601 2207
223.119 -270.026 2227
231.214 -273.3 2254
236.604 -273.3 2254
243.068 -274.512 2264
249.14 -275.24 2270
255.914 -276.695 2282
261.371 -276.695 2282
267.529 -277.422 2288
274.194 -278.635 2298
280.784 -279.726 2307
286.301 -279.726 2307
293.462 -281.302 2320
299.912 -282.151 2327
305.871 -282.515 2330
311.443 -282.515 2330
317.422 -282.878 2333
323.555 -283.363 2337
329.566 -283.727 2340
335.162 -283.727 2340
340.757 -283.727 2340
346.353 -283.727 2340
351.949 -283.727 2340
552.971 -438.807 3619
561.625 -438.807 3619
571.54 -439.777 3627
582.613 -441.596 3642
591.322 -441.596 3642
600.031 -441.596 3642
608.74 -441.596 3642
616.263 -440.747 3635
624.955 -440.747 3635
636.262 -442.566 3650
644.991 -442.566 3650
655.152 -443.536 3658
663.899 -443.536 3658
672.646 -443.536 3658
681.394 -443.536 3658
691.839 -444.627 3667
700.608 -444.627 3667
710.925 -445.597 3675
719.713 -445.597 3675
734.844 -449.477 3707
747.119 -451.538 3724
757.649 -452.508 3732
766.573 -452.508 3732
777.16 -453.478 3740
789.676 -455.54 3757
798.66 -455.54 3757
807.645 -455.54 3757
816.629 -455.54 3757
827.591 -456.631 3766
838.373 -457.601 3774
847.398 -457.601 3774
856.423 -457.601 3774
861.549 -455.54 3757
870.534 -455.54 3757
877.645 -454.57 3749
886.61 -454.57 3749
891.514 -452.508 3732
900.438 -452.508 3732
905.464 -450.568 3716
912.135 -449.477 3707
919.012 -448.507 3699
923.844 -446.567 3683
932.651 -446.567 3683
939.414 -445.597 3675
946.138 -444.627 3667
952.563 -443.536 3658
961.31 -443.536 3658
967.936 -442.566 3650
976.664 -442.566 3650
987.552 -443.536 3658
996.3 -443.536 3658
1005.05 -443.536 3658
1013.79 -443.536 3658
1020.31 -442.566 3650
1029.03 -442.566 3650
1037.76 -442.566 3650
1044.2 -441.596 3642
1055.22 -442.566 3650
1063.95 -442.566 3650
1072.68 -442.566 3650
1081.4 -442.566 3650
1090.13 -442.566 3650
1098.86 -442.566 3650
1107.59 -442.566 3650
1116.32 -442.566 3650
1125.04 -442.566 3650
1133.77 -442.566 3650
1142.5 -442.566 3650
1151.23 -442.566 3650
1159.96 -442.566 3650
1163.88 -440.747 3635
1172.58 -440.747 3635
1181.27 -440.747 3635
1184.72 -438.807 3619
1193.38 -438.807 3619
1202.03 -438.807 3619
1210.68 -438.807 3619
1216.64 -437.837 3611
1225.28 -437.837 3611
1233.91 -437.837 3611
1242.55 -437.837 3611
1248.41 -436.867 3603
1257.03 -436.867 3603
1265.64 -436.867 3603
1274.26 -436.867 3603
1282.88 -436.867 3603
1291.49 -436.867 3603
1300.11 -436.867 3603
1308.72 -436.867 3603
1317.34 -436.867 3603
1325.95 -436.867 3603
1334.57 -436.867 3603
1343.19 -436.867 3603
1351.8 -436.867 3603
1357.4 -435.897 3595
1365.99 -435.897 3595
1374.59 -435.897 3595
1383.19 -435.897 3595
1391.78 -435.897 3595
1400.38 -435.897 3595
1408.98 -435.897 3595
1414.81 -435.048 3588
1423.39 -435.048 3588
1437.96 -436.867 3603
1446.58 -436.867 3603
1458.42 -437.837 3611
1467.06 -437.837 3611
1475.69 -437.837 3611
1484.33 -437.837 3611
1492.96 -437.837 3611
1501.6 -437.837 3611
1510.23 -437.837 3611
1512.14 -435.897 3595
1520.74 -435.897 3595
1529.33 -435.897 3595
-2680.43 -425.502 3580
-2671.87 -425.502 3580
-2686.37 -429.187 3611
-2677.74 -429.187 3611
-2669.1 -429.187 3611
-2648.68 -427.285 3595
-2640.08 -427.285 3595
-2631.49 -427.285 3595
-2622.89 -427.285 3595
-2341.95 -395.789 3330
-2333.99 -395.789 3330
-2326.03 -395.789 3330
-2276.99 -388.776 3271
-2251.83 -385.805 3246
-2235.08 -384.26 3233
-2236.31 -385.805 3246
-2228.54 -385.805 3246
-2372.66 -412.191 3468
-2364.37 -412.191 3468
-2361.51 -413.141 3476
-2353.2 -413.141 3476
-2349.61 -413.973 3483
-2366.15 -418.371 3520
-2357.74 -418.371 3520
-2349.32 -418.371 3520
-2335.58 -417.42 3512
-2317.24 -415.637 3497
-2308.88 -415.637 3497
-2300.52 -415.637 3497
-2236.44 -405.535 3412
-2205.43 -401.375 3377
-2197.35 -401.375 3377
-2141.3 -392.579 3303
-2172.16 -399.711 3363
-2191.14 -404.703 3405
-2187.49 -405.535 3412
-2179.33 -405.535 3412
-2171.17 -405.535 3412
-2149.7 -403.039 3391
-2141.59 -403.039 3391
-2133.48 -403.039 3391
-2129.76 -403.871 3398
-2121.63 -403.871 3398
-2113.51 -403.871 3398
-1470.28 -442.618 3724
-1471.18 -445.589 3749
-1462.22 -445.589 3749
-1453.25 -445.589 3749
-1444.29 -445.589 3749
-1444.9 -448.56 3774
-1459.08 -455.811 3835
-1449.91 -455.811 3835
-1440.74 -455.811 3835
-1431.57 -455.811 3835
-1425.73 -456.88 3844
-1416.54 -456.88 3844
-1417.24 -460.089 3871
-1411.25 -461.159 3880
-1401.97 -461.159 3880
-1392.7 -461.159 3880
-1389.84 -463.298 3898
-1380.51 -463.298 3898
-1371.19 -463.298 3898
-1361.87 -463.298 3898
-1349.43 -462.229 3889
-1340.13 -462.229 3889
-1346.57 -467.696 3935
-1337.16 -467.696 3935
-1330.79 -468.766 3944
-1321.35 -468.766 3944
-1311.92 -468.766 3944
-1302.49 -468.766 3944
-1290.11 -467.696 3935
-1274.52 -465.438 3916
-1265.15 -465.438 3916
-1258.67 -466.508 3925
-1249.29 -466.508 3925
-1239.9 -466.508 3925
-1230.52 -466.508 3925
-1221.13 -466.508 3925
-1211.74 -466.508 3925
-1196.84 -464.368 3907
-1187.5 -464.368 3907
-1178.16 -464.368 3907
-214.185 -246.982 2078
-209.216 -246.982 2078
-204.738 -247.576 2083
-199.757 -247.576 2083
-194.776 -247.576 2083
-189.795 -247.576 2083
-184.548 -247.219 2080
-179.142 -246.625 2075
-174.18 -246.625 2075
-168.974 -246.268 2072
-164.89 -247.576 2083
-160.062 -247.814 2085
-155.076 -247.814 2085
-150.09 -247.814 2085
-145.522 -248.527 2091
-140.858 -249.121 2096
-136.17 -249.715 2101
-131.146 -249.715 2101
-126.121 -249.715 2101
-121.558 -250.666 2109
-116.791 -251.26 2114
-111.736 -251.26 2114
-107.085 -252.211 2122
-102.155 -252.568 2125
-97.3471 -253.281 2131
-92.2512 -253.281 2131
-87.2372 -253.519 2133
-82.3676 -254.232 2139
-77.3609 -254.588 2142
-72.2387 -254.588 2142
-67.1166 -254.588 2142
-61.9944 -254.588 2142
-56.8722 -254.588 2142
-51.6776 -254.232 2139
-46.5626 -254.232 2139
-41.4476 -254.232 2139
-36.3326 -254.232 2139
-31.1738 -253.875 2136
-26.0294 -253.519 2133
-20.9287 -253.519 2133
-15.8281 -253.519 2133
-10.7274 -253.519 2133
-5.6215 -253.281 2131
-0.525636 -253.281 2131
4.57023 -253.281 2131
9.6661 -253.281 2131
14.762 -253.281 2131
19.8578 -253.281 2131
24.9537 -253.281 2131
30.0496 -253.281 2131
35.1454 -253.281 2131
40.1846 -252.924 2128
45.3372 -253.281 2131
50.433 -253.281 2131
55.5289 -253.281 2131
60.6248 -253.281 2131
65.7206 -253.281 2131
70.883 -253.519 2133
75.9836 -253.519 2133
81.1983 -253.875 2136
86.3061 -253.875 2136
91.414 -253.875 2136
96.5218 -253.875 2136
101.63 -253.875 2136
106.737 -253.875 2136
111.845 -253.875 2136
116.953 -253.875 2136
122.061 -253.875 2136
127.169 -253.875 2136
132.462 -254.232 2139
137.77 -254.588 2142
142.892 -254.588 2142
148.153 -254.826 2144
153.494 -255.183 2147
158.85 -255.539 2150
163.991 -255.539 2150
169.369 -255.896 2153
174.679 -256.133 2155
180.083 -256.49 2158
185.243 -256.49 2158
191.198 -257.56 2167
196.833 -258.154 2172
203.887 -260.531 2192
209.129 -260.531 2192
215.837 -262.314 2207
223.119 -264.691 2227
230.906 -267.544 2251
236.289 -267.544 2251
243.068 -269.089 2264
249.14 -269.802 2270
255.914 -271.228 2282
261.371 -271.228 2282
267.529 -271.941 2288
274.194 -273.13 2298
280.784 -274.199 2307
286.301 -274.199 2307
293.462 -275.745 2320
299.912 -276.577 2327
305.871 -276.933 2330
311.443 -276.933 2330
317.422 -277.29 2333
323.555 -277.765 2337
329.566 -278.122 2340
335.162 -278.122 2340
340.757 -278.122 2340
346.353 -278.122 2340
351.949 -278.122 2340
570.28 -430.138 3619
578.934 -430.138 3619
588.887 -431.089 3627
597.56 -431.089 3627
607.57 -432.039 3635
616.263 -432.039 3635
624.955 -432.039 3635
634.868 -432.871 3642
643.577 -432.871 3642
653.719 -433.822 3650
663.899 -434.773 3658
672.646 -434.773 3658
681.394 -434.773 3658
691.839 -435.843 3667
700.608 -435.843 3667
710.925 -436.794 3675
719.713 -436.794 3675
734.844 -440.597 3707
747.119 -442.618 3724
757.649 -443.568 3732
766.573 -443.568 3732
777.16 -444.519 3740
787.995 -445.589 3749
796.96 -445.589 3749
805.925 -445.589 3749
814.89 -445.589 3749
827.591 -447.609 3766
836.596 -447.609 3766
845.602 -447.609 3766
854.608 -447.609 3766
859.715 -445.589 3749
868.68 -445.589 3749
875.538 -444.519 3740
882.589 -443.568 3732
887.692 -441.667 3716
896.578 -441.667 3716
903.271 -440.597 3707
910.167 -439.646 3699
917.025 -438.695 3691
921.838 -436.794 3675
930.626 -436.794 3675
937.369 -435.843 3667
943.815 -434.773 3658
950.48 -433.822 3650
959.208 -433.822 3650
965.815 -432.871 3642
976.664 -433.822 3650
987.552 -434.773 3658
996.3 -434.773 3658
1005.05 -434.773 3658
1013.79 -434.773 3658
1020.31 -433.822 3650
1029.03 -433.822 3650
1037.76 -433.822 3650
1044.2 -432.871 3642
1055.22 -433.822 3650
1063.95 -433.822 3650
1072.68 -433.822 3650
1081.4 -433.822 3650
1090.13 -433.822 3650
1098.86 -433.822 3650
1107.59 -433.822 3650
1116.32 -433.822 3650
1125.04 -433.822 3650
1133.77 -433.822 3650
1142.5 -433.822 3650
1151.23 -433.822 3650
1159.96 -433.822 3650
1163.88 -432.039 3635
1172.58 -432.039 3635
1181.27 -432.039 3635
1184.72 -430.138 3619
1193.38 -430.138 3619
1202.03 -430.138 3619
1210.68 -430.138 3619
1216.64 -429.187 3611
1225.28 -429.187 3611
1233.91 -429.187 3611
1242.55 -429.187 3611
1248.41 -428.236 3603
1257.03 -428.236 3603
1265.64 -428.236 3603
1274.26 -428.236 3603
1282.88 -428.236 3603
1291.49 -428.236 3603
1300.11 -428.236 3603
1308.72 -428.236 3603
1317.34 -428.236 3603
1325.95 -428.236 3603
1331.61 -427.285 3595
1340.2 -427.285 3595
1348.8 -427.285 3595
1357.4 -427.285 3595
1365.99 -427.285 3595
1374.59 -427.285 3595
1383.19 -427.285 3595
1391.78 -427.285 3595
1397.65 -426.453 3588
1406.23 -426.453 3588
1414.81 -426.453 3588
1423.39 -426.453 3588
1434.77 -427.285 3595
1446.58 -428.236 3603
1458.42 -429.187 3611
1467.06 -429.187 3611
1475.69 -429.187 3611
1484.33 -429.187 3611
1492.96 -429.187 3611
1501.6 -429.187 3611
1510.23 -429.187 3611
1512.14 -427.285 3595
1520.74 -427.285 3595
1529.33 -427.285 3595
-2680.43 -416.926 3580
-2671.87 -416.926 3580
-2686.37 -420.537 3611
-2677.74 -420.537 3611
-2669.1 -420.537 3611
-2648.68 -418.673 3595
-2640.08 -418.673 3595
-2631.49 -418.673 3595
-2622.89 -418.673 3595
-2341.95 -387.811 3330
-2333.99 -387.811 3330
-2326.03 -387.811 3330
-2276.99 -380.94 3271
-2251.83 -378.029 3246
-2235.08 -376.515 3233
-2236.31 -378.029 3246
-2228.54 -378.029 3246
-2246.78 -382.454 3284
-2238.93 -382.454 3284
-2239.91 -383.968 3297
-2232.02 -383.968 3297
-2237.63 -386.298 3317
-2260.62 -391.655 3363
-2252.58 -391.655 3363
-2244.53 -391.655 3363
-2245.8 -393.285 3377
-2237.73 -393.285 3377
-2229.65 -393.285 3377
-2221.58 -393.285 3377
-2204.32 -391.655 3363
-2157.1 -384.667 3303
-2149.2 -384.667 3303
-2137.41 -383.968 3297
-2142.45 -386.298 3317
-2164.11 -391.655 3363
-2156.07 -391.655 3363
-2148.03 -391.655 3363
-2139.99 -391.655 3363
-2131.95 -391.655 3363
-2141.59 -394.916 3391
-2133.48 -394.916 3391
-2125.37 -394.916 3391
-1470.28 -433.697 3724
-1471.18 -436.608 3749
-1462.22 -436.608 3749
-1453.25 -436.608 3749
-1444.29 -436.608 3749
-1444.9 -439.52 3774
-1459.08 -446.624 3835
-1449.91 -446.624 3835
-1440.74 -446.624 3835
-1431.57 -446.624 3835
-1425.73 -447.672 3844
-1416.54 -447.672 3844
-1417.24 -450.816 3871
-1411.25 -451.864 3880
-1401.97 -451.864 3880
-1392.7 -451.864 3880
-1389.84 -453.961 3898
-1380.51 -453.961 3898
-1371.19 -453.961 3898
-1361.87 -453.961 3898
-1349.43 -452.913 3889
-1340.13 -452.913 3889
-1346.57 -458.27 3935
-1337.16 -458.27 3935
-1330.79 -459.318 3944
-1321.35 -459.318 3944
-1311.92 -459.318 3944
-1302.49 -459.318 3944
-1290.11 -458.27 3935
-1274.52 -456.057 3916
-1265.15 -456.057 3916
-1258.67 -457.105 3925
-1249.29 -457.105 3925
-1239.9 -457.105 3925
-1230.52 -457.105 3925
-1221.13 -457.105 3925
-1211.74 -457.105 3925
-1196.84 -455.009 3907
-1187.5 -455.009 3907
-1178.16 -455.009 3907
-214.185 -242.004 2078
-209.216 -242.004 2078
-204.247 -242.004 2078
-199.278 -242.004 2078
-194.309 -242.004 2078
-189.066 -241.654 2075
-184.104 -241.654 2075
-178.883 -241.305 2072
-173.928 -241.305 2072
-168.811 -241.072 2070
-164.89 -242.586 2083
-159.908 -242.586 2083
-155.076 -242.819 2085
-150.09 -242.819 2085
-145.522 -243.518 2091
-140.858 -244.1 2096
-136.17 -244.682 2101
-131.146 -244.682 2101
-126.302 -245.032 2104
-121.558 -245.614 2109
-116.957 -246.546 2117
-111.895 -246.546 2117
-107.085 -247.128 2122
-102.299 -247.827 2128
-97.4385 -248.409 2133
-92.3378 -248.409 2133
-87.3599 -248.758 2136
-82.3676 -249.108 2139
-77.3609 -249.457 2142
-72.2387 -249.457 2142
-67.1166 -249.457 2142
-61.9944 -249.457 2142
-56.8722 -249.457 2142
-51.6776 -249.108 2139
-46.5626 -249.108 2139
-41.3895 -248.758 2136
-36.2816 -248.758 2136
-31.1738 -248.758 2136
-26.0294 -248.409 2133
-20.9287 -248.409 2133
-15.8132 -248.176 2131
-10.7174 -248.176 2131
-5.6215 -248.176 2131
-0.525636 -248.176 2131
4.57023 -248.176 2131
9.6661 -248.176 2131
14.762 -248.176 2131
19.8578 -248.176 2131
24.9537 -248.176 2131
30.0496 -248.176 2131
35.1454 -248.176 2131
40.2413 -248.176 2131
45.3372 -248.176 2131
50.433 -248.176 2131
55.5289 -248.176 2131
60.6248 -248.176 2131
65.7206 -248.176 2131
70.883 -248.409 2133
75.9836 -248.409 2133
81.1983 -248.758 2136
86.3061 -248.758 2136
91.414 -248.758 2136
96.5218 -248.758 2136
101.63 -248.758 2136
106.737 -248.758 2136
111.845 -248.758 2136
116.953 -248.758 2136
122.061 -248.758 2136
127.169 -248.758 2136
132.462 -249.108 2139
137.577 -249.108 2139
142.692 -249.108 2139
148.153 -249.69 2144
153.494 -250.039 2147
158.85 -250.389 2150
163.991 -250.389 2150
169.133 -250.389 2150
174.679 -250.971 2155
180.083 -251.32 2158
185.243 -251.32 2158
191.198 -252.369 2167
196.833 -252.951 2172
203.887 -255.28 2192
209.129 -255.28 2192
215.837 -257.027 2207
223.119 -259.356 2227
230.906 -262.151 2251
236.289 -262.151 2251
243.068 -263.665 2264
249.14 -264.364 2270
255.914 -265.762 2282
261.371 -265.762 2282
267.529 -266.46 2288
274.194 -267.625 2298
280.784 -268.673 2307
286.301 -268.673 2307
293.462 -270.187 2320
299.912 -271.002 2327
306.265 -271.701 2333
311.844 -271.701 2333
317.422 -271.701 2333
323.555 -272.167 2337
329.566 -272.516 2340
335.162 -272.516 2340
341.194 -272.866 2343
346.797 -272.866 2343
352.4 -272.866 2343
569.019 -420.537 3611
577.654 -420.537 3611
586.289 -420.537 3611
594.924 -420.537 3611
606.233 -422.4 3627
614.907 -422.4 3627
623.58 -422.4 3627
633.648 -423.332 3635
642.34 -423.332 3635
652.286 -424.147 3642
662.447 -425.079 3650
672.646 -426.01 3658
681.394 -426.01 3658
690.141 -426.01 3658
698.889 -426.01 3658
710.925 -427.99 3675
719.713 -427.99 3675
734.844 -431.717 3707
747.119 -433.697 3724
757.649 -434.628 3732
766.573 -434.628 3732
777.16 -435.56 3740
787.995 -436.608 3749
796.96 -436.608 3749
805.925 -436.608 3749
814.89 -436.608 3749
827.591 -438.588 3766
836.596 -438.588 3766
845.602 -438.588 3766
854.608 -438.588 3766
859.715 -436.608 3749
868.68 -436.608 3749
873.665 -434.628 3732
882.589 -434.628 3732
887.692 -432.765 3716
896.578 -432.765 3716
903.271 -431.717 3707
908.198 -429.854 3691
917.025 -429.854 3691
921.838 -427.99 3675
930.626 -427.99 3675
937.369 -427.058 3667
943.815 -426.01 3658
950.48 -425.079 3650
959.208 -425.079 3650
965.815 -424.147 3642
978.805 -426.01 3658
987.552 -426.01 3658
996.3 -426.01 3658
1005.05 -426.01 3658
1013.79 -426.01 3658
1022.54 -426.01 3658
1031.29 -426.01 3658
1040.04 -426.01 3658
1048.78 -426.01 3658
1055.22 -425.079 3650
1066.28 -426.01 3658
1075.03 -426.01 3658
1083.77 -426.01 3658
1092.52 -426.01 3658
1098.86 -425.079 3650
1107.59 -425.079 3650
1116.32 -425.079 3650
1125.04 -425.079 3650
1133.77 -425.079 3650
1142.5 -425.079 3650
1151.23 -425.079 3650
1159.96 -425.079 3650
1163.88 -423.332 3635
1172.58 -423.332 3635
1181.27 -423.332 3635
1184.72 -421.468 3619
1193.38 -421.468 3619
1202.03 -421.468 3619
1210.68 -421.468 3619
1216.64 -420.537 3611
1225.28 -420.537 3611
1233.91 -420.537 3611
1242.55 -420.537 3611
1248.41 -419.605 3603
1257.03 -419.605 3603
1262.83 -418.673 3595
1271.43 -418.673 3595
1280.03 -418.673 3595
1288.62 -418.673 3595
1297.22 -418.673 3595
1305.82 -418.673 3595
1314.41 -418.673 3595
1323.01 -418.673 3595
1331.61 -418.673 3595
1340.2 -418.673 3595
1348.8 -418.673 3595
1354.75 -417.858 3588
1363.33 -417.858 3588
1371.91 -417.858 3588
1380.49 -417.858 3588
1389.07 -417.858 3588
1397.65 -417.858 3588
1406.23 -417.858 3588
1414.81 -417.858 3588
1423.39 -417.858 3588
1434.77 -418.673 3595
1446.58 -419.605 3603
1458.42 -420.537 3611
1467.06 -420.537 3611
1478.96 -421.468 3619
1487.62 -421.468 3619
1496.27 -421.468 3619
1504.93 -421.468 3619
1510.23 -420.537 3611
1515.5 -419.605 3603
1524.12 -419.605 3603
1529.33 -418.673 3595
-2703.64 -411.887 3611
-2695.01 -411.887 3611
-2692.33 -412.799 3619
-2683.67 -412.799 3619
-2675.02 -412.799 3619
-2648.68 -410.061 3595
-2640.08 -410.061 3595
-2631.49 -410.061 3595
-2622.89 -410.061 3595
-2614.29 -410.061 3595
-2309.6 -374.587 3284
-2301.75 -374.587 3284
-2293.9 -374.587 3284
-2276.99 -373.105 3271
-2242.81 -368.77 3233
-2235.08 -368.77 3233
-2236.31 -370.253 3246
-2228.54 -370.253 3246
-2246.78 -374.587 3284
-2238.93 -374.587 3284
-2239.91 -376.07 3297
-2232.02 -376.07 3297
-2237.63 -378.352 3317
-2260.62 -383.599 3363
-2252.58 -383.599 3363
-2244.53 -383.599 3363
-2236.49 -383.599 3363
-2197.97 -378.352 3317
-2190.04 -378.352 3317
-2168.95 -376.07 3297
-2161.06 -376.07 3297
-2144.69 -374.587 3284
-2136.84 -374.587 3284
-2125.09 -373.903 3278
-2125.01 -375.272 3290
-2121.64 -376.07 3297
-2113.76 -376.07 3297
-2105.88 -376.07 3297
-2093.54 -375.272 3290
-2093.91 -376.755 3303
-2086.01 -376.755 3303
-2078.11 -376.755 3303
-2070.21 -376.755 3303
-1598.17 -416.335 3650
-1589.44 -416.335 3650
-1580.71 -416.335 3650
-1562.08 -413.712 3627
-1553.41 -413.712 3627
-1474.32 -428.54 3757
-1465.34 -428.54 3757
-1456.36 -428.54 3757
-1450.84 -429.567 3766
-1464.8 -436.41 3826
-1462.5 -438.464 3844
-1453.31 -438.464 3844
-1444.12 -438.464 3844
-1441.65 -440.517 3862
-1445.76 -444.623 3898
-1436.44 -444.623 3898
-1427.12 -444.623 3898
-1441.44 -452.037 3963
-1431.96 -452.037 3963
-1422.49 -452.037 3963
-1413.01 -452.037 3963
-1406.72 -453.064 3972
-1397.22 -453.064 3972
-1387.73 -453.064 3972
-1378.23 -453.064 3972
-1368.73 -453.064 3972
-1365.73 -455.231 3991
-1356.19 -455.231 3991
-1350.02 -456.372 4001
-1340.45 -456.372 4001
-1330.88 -456.372 4001
-1318.01 -455.231 3991
-1302.24 -453.064 3972
-1283.63 -449.87 3944
-1274.2 -449.87 3944
-1264.77 -449.87 3944
-1255.34 -449.87 3944
-1245.9 -449.87 3944
-1236.47 -449.87 3944
-1227.04 -449.87 3944
-1217.61 -449.87 3944
-1205.42 -448.843 3935
-1190.24 -446.676 3916
-1180.87 -446.676 3916
-1168.82 -445.65 3907
-214.185 -237.026 2078
-209.216 -237.026 2078
-204.247 -237.026 2078
-199.278 -237.026 2078
-194.309 -237.026 2078
-189.066 -236.684 2075
-184.104 -236.684 2075
-178.883 -236.341 2072
-173.928 -236.341 2072
-168.811 -236.113 2070
-164.89 -237.596 2083
-160.062 -237.824 2085
-155.076 -237.824 2085
-150.09 -237.824 2085
-145.522 -238.509 2091
-140.992 -239.307 2098
-136.17 -239.649 2101
-131.146 -239.649 2101
-126.302 -239.991 2104
-121.731 -240.904 2112
-117.123 -241.817 2120
-112.053 -241.817 2120
-107.236 -242.387 2125
-102.443 -243.071 2131
-97.4385 -243.299 2133
-92.3378 -243.299 2133
-87.4826 -243.984 2139
-82.3676 -243.984 2139
-77.3609 -244.326 2142
-72.2387 -244.326 2142
-67.1166 -244.326 2142
-61.9944 -244.326 2142
-56.8722 -244.326 2142
-51.6776 -243.984 2139
-46.5626 -243.984 2139
-41.3895 -243.642 2136
-36.2816 -243.642 2136
-31.13 -243.299 2133
-26.0294 -243.299 2133
-20.9091 -243.071 2131
-15.8132 -243.071 2131
-10.7174 -243.071 2131
-5.6215 -243.071 2131
-0.525636 -243.071 2131
4.57023 -243.071 2131
9.6661 -243.071 2131
14.762 -243.071 2131
19.8578 -243.071 2131
24.9537 -243.071 2131
30.0496 -243.071 2131
35.1454 -243.071 2131
40.2413 -243.071 2131
45.3372 -243.071 2131
50.433 -243.071 2131
55.5289 -243.071 2131
60.6248 -243.071 2131
65.7206 -243.071 2131
70.883 -243.299 2133
75.9836 -243.299 2133
81.1983 -243.642 2136
86.3061 -243.642 2136
91.414 -243.642 2136
96.5218 -243.642 2136
101.63 -243.642 2136
106.737 -243.642 2136
111.845 -243.642 2136
116.953 -243.642 2136
122.061 -243.642 2136
127.169 -243.642 2136
132.462 -243.984 2139
137.577 -243.984 2139
142.692 -243.984 2139
148.153 -244.554 2144
153.494 -244.896 2147
158.85 -245.238 2150
163.991 -245.238 2150
169.133 -245.238 2150
174.679 -245.809 2155
180.083 -246.151 2158
185.243 -246.151 2158
191.198 -247.178 2167
197.105 -248.09 2175
203.887 -250.029 2192
209.129 -250.029 2192
215.837 -251.74 2207
222.518 -253.337 2221
230.291 -256.075 2245
235.659 -256.075 2245
242.316 -257.443 2257
248.811 -258.584 2267
255.914 -260.295 2282
261.371 -260.295 2282
267.529 -260.979 2288
274.194 -262.12 2298
280.784 -263.147 2307
286.301 -263.147 2307
293.462 -264.629 2320
299.912 -265.428 2327
306.265 -266.112 2333
311.844 -266.112 2333
317.422 -266.112 2333
323.555 -266.568 2337
329.989 -267.253 2343
335.591 -267.253 2343
341.631 -267.595 2346
347.241 -267.595 2346
352.851 -267.595 2346
358.461 -267.595 2346
562.873 -407.438 3572
576.374 -410.974 3603
584.99 -410.974 3603
593.606 -410.974 3603
602.222 -410.974 3603
610.838 -410.974 3603
620.829 -411.887 3611
632.253 -413.712 3627
640.926 -413.712 3627
649.6 -413.712 3627
659.725 -414.624 3635
669.704 -415.423 3642
678.413 -415.423 3642
687.123 -415.423 3642
697.36 -416.335 3650
707.636 -417.248 3658
716.383 -417.248 3658
730.087 -420.099 3683
743.709 -422.837 3707
757.649 -425.688 3732
766.573 -425.688 3732
775.497 -425.688 3732
786.103 -426.601 3740
795.047 -426.601 3740
803.99 -426.601 3740
812.934 -426.601 3740
825.613 -428.54 3757
834.597 -428.54 3757
843.581 -428.54 3757
852.565 -428.54 3757
853.982 -424.776 3724
862.887 -424.776 3724
867.813 -422.837 3707
876.677 -422.837 3707
881.72 -421.012 3691
890.546 -421.012 3691
897.423 -420.099 3683
906.23 -420.099 3683
913.05 -419.187 3675
921.838 -419.187 3675
930.626 -419.187 3675
937.369 -418.274 3667
946.138 -418.274 3667
954.906 -418.274 3667
963.675 -418.274 3667
970.058 -417.248 3658
983.354 -419.187 3675
996.461 -421.012 3691
1005.29 -421.012 3691
1014.11 -421.012 3691
1022.94 -421.012 3691
1031.77 -421.012 3691
1040.59 -421.012 3691
1047.14 -420.099 3683
1055.95 -420.099 3683
1062.45 -419.187 3675
1073.57 -420.099 3683
1082.37 -420.099 3683
1091.18 -420.099 3683
1097.6 -419.187 3675
1103.98 -418.274 3667
1112.75 -418.274 3667
1116.32 -416.335 3650
1125.04 -416.335 3650
1136.26 -417.248 3658
1145.01 -417.248 3658
1153.75 -417.248 3658
1159.96 -416.335 3650
1166.12 -415.423 3642
1174.83 -415.423 3642
1178.67 -413.712 3627
1184.72 -412.799 3619
1193.38 -412.799 3619
1202.03 -412.799 3619
1208.01 -411.887 3611
1216.64 -411.887 3611
1225.28 -411.887 3611
1233.91 -411.887 3611
1242.55 -411.887 3611
1248.41 -410.974 3603
1257.03 -410.974 3603
1262.83 -410.061 3595
1271.43 -410.061 3595
1280.03 -410.061 3595
1288.62 -410.061 3595
1297.22 -410.061 3595
1305.82 -410.061 3595
1314.41 -410.061 3595
1323.01 -410.061 3595
1331.61 -410.061 3595
1340.2 -410.061 3595
1346.17 -409.263 3588
1354.75 -409.263 3588
1363.33 -409.263 3588
1371.91 -409.263 3588
1380.49 -409.263 3588
1389.07 -409.263 3588
1397.65 -409.263 3588
1406.23 -409.263 3588
1414.81 -409.263 3588
1423.39 -409.263 3588
1437.96 -410.974 3603
1449.79 -411.887 3611
1461.65 -412.799 3619
1470.31 -412.799 3619
1482.23 -413.712 3627
1490.91 -413.712 3627
1499.58 -413.712 3627
1508.25 -413.712 3627
1516.93 -413.712 3627
1518.87 -411.887 3611
1527.5 -411.887 3611
1532.74 -410.974 3603
-2709.63 -404.13 3619
-2700.98 -404.13 3619
-2692.33 -404.13 3619
-2683.67 -404.13 3619
-2675.02 -404.13 3619
-2648.68 -401.45 3595
-2640.08 -401.45 3595
-2631.49 -401.45 3595
-2640.4 -404.13 3619
-2631.75 -404.13 3619
-2623.09 -404.13 3619
-2614.44 -404.13 3619
-2605.78 -404.13 3619
-2585.65 -402.343 3603
-2571.31 -401.45 3595
-2309.6 -366.721 3284
-2301.75 -366.721 3284
-2293.9 -366.721 3284
-2276.99 -365.269 3271
-2242.81 -361.026 3233
-2235.08 -361.026 3233
-2253.53 -365.269 3271
-2245.71 -365.269 3271
-2246.78 -366.721 3284
-2238.93 -366.721 3284
-2231.07 -366.721 3284
-2223.22 -366.721 3284
-2224.14 -368.172 3297
-2229.7 -370.406 3317
-2221.76 -370.406 3317
-2213.83 -370.406 3317
-2205.9 -370.406 3317
-2180.08 -367.391 3290
-2172.21 -367.391 3290
-2164.34 -367.391 3290
-2156.48 -367.391 3290
-2144.69 -366.721 3284
-2136.84 -366.721 3284
-2112.13 -363.817 3258
-2121.13 -366.721 3284
-2121.64 -368.172 3297
-2113.76 -368.172 3297
-2105.88 -368.172 3297
-2097.99 -368.172 3297
-2078.06 -366.051 3278
-2070.22 -366.051 3278
-2062.38 -366.051 3278
-2034.49 -362.477 3246
-1619.17 -408.485 3658
-1610.42 -408.485 3658
-1601.67 -408.485 3658
-1589.44 -407.591 3650
-1580.71 -407.591 3650
-1562.08 -405.023 3627
-1553.41 -405.023 3627
-1474.32 -419.54 3757
-1465.34 -419.54 3757
-1456.36 -419.54 3757
-1450.84 -420.545 3766
-1464.8 -427.245 3826
-1465.93 -430.26 3853
-1456.71 -430.26 3853
-1447.5 -430.26 3853
-1445.01 -432.27 3871
-1455.78 -438.3 3925
-1446.39 -438.3 3925
-1454.21 -443.549 3972
-1448.35 -444.665 3982
-1438.83 -444.665 3982
-1429.31 -444.665 3982
-1422.99 -445.671 3991
-1416.99 -446.787 4001
-1410.59 -447.792 4010
-1401 -447.792 4010
-1391.41 -447.792 4010
-1378.72 -446.787 4001
-1375.66 -448.909 4020
-1366.04 -448.909 4020
-1356.43 -448.909 4020
-1346.82 -448.909 4020
-1337.2 -448.909 4020
-1324.29 -447.792 4010
-1311.75 -446.787 4001
-1302.18 -446.787 4001
-1292.61 -446.787 4001
-1283.05 -446.787 4001
-1273.48 -446.787 4001
-1257.91 -444.665 3982
-1248.39 -444.665 3982
-1235.75 -443.549 3972
-1223.48 -442.544 3963
-1210.94 -441.427 3953
-1198.75 -440.422 3944
-1189.32 -440.422 3944
-1179.89 -440.422 3944
-675.6 -393.856 3527
-667.166 -393.856 3527
-661.533 -395.531 3542
-654.354 -396.313 3549
-645.867 -396.313 3549
-637.38 -396.313 3549
-628.894 -396.313 3549
-621.806 -397.206 3557
-613.3 -397.206 3557
-604.794 -397.206 3557
-596.288 -397.206 3557
-214.185 -232.048 2078
-209.216 -232.048 2078
-204.247 -232.048 2078
-199.278 -232.048 2078
-194.309 -232.048 2078
-189.066 -231.713 2075
-184.104 -231.713 2075
-178.883 -231.378 2072
-173.928 -231.378 2072
-168.811 -231.155 2070
-164.89 -232.606 2083
-160.062 -232.83 2085
-155.076 -232.83 2085
-150.09 -232.83 2085
-145.522 -233.5 2091
-140.992 -234.281 2098
-136.17 -234.616 2101
-131.146 -234.616 2101
-126.302 -234.951 2104
-121.731 -235.845 2112
-117.123 -236.738 2120
-112.053 -236.738 2120
-107.236 -237.296 2125
-102.443 -237.966 2131
-97.4385 -238.19 2133
-92.3378 -238.19 2133
-87.4826 -238.86 2139
-82.3676 -238.86 2139
-77.3609 -239.195 2142
-72.2387 -239.195 2142
-67.1166 -239.195 2142
-61.9944 -239.195 2142
-56.8722 -239.195 2142
-51.6776 -238.86 2139
-46.5626 -238.86 2139
-41.3895 -238.525 2136
-36.2816 -238.525 2136
-31.13 -238.19 2133
-26.0294 -238.19 2133
-20.9091 -237.966 2131
-15.8132 -237.966 2131
-10.7174 -237.966 2131
-5.6215 -237.966 2131
-0.525636 -237.966 2131
4.57023 -237.966 2131
9.6661 -237.966 2131
14.762 -237.966 2131
19.8578 -237.966 2131
24.9537 -237.966 2131
30.0496 -237.966 2131
35.1454 -237.966 2131
40.2413 -237.966 2131
45.3372 -237.966 2131
50.433 -237.966 2131
55.5289 -237.966 2131
60.6248 -237.966 2131
65.7206 -237.966 2131
70.883 -238.19 2133
75.9836 -238.19 2133
81.1983 -238.525 2136
86.3061 -238.525 2136
91.414 -238.525 2136
96.5218 -238.525 2136
101.63 -238.525 2136
106.737 -238.525 2136
111.845 -238.525 2136
116.953 -238.525 2136
122.061 -238.525 2136
127.347 -238.86 2139
132.462 -238.86 2139
137.77 -239.195 2142
142.892 -239.195 2142
148.153 -239.418 2144
153.494 -239.753 2147
158.85 -240.088 2150
163.991 -240.088 2150
169.369 -240.423 2153
174.679 -240.646 2155
180.083 -240.981 2158
185.243 -240.981 2158
191.198 -241.986 2167
197.105 -242.88 2175
204.166 -245.113 2195
209.415 -245.113 2195
215.837 -246.453 2207
222.818 -248.352 2224
230.291 -250.697 2245
235.659 -250.697 2245
242.316 -252.037 2257
248.811 -253.153 2267
255.914 -254.828 2282
261.371 -254.828 2282
267.529 -255.498 2288
274.194 -256.615 2298
280.784 -257.62 2307
286.301 -257.62 2307
293.462 -259.072 2320
299.912 -259.853 2327
306.265 -260.523 2333
311.844 -260.523 2333
317.422 -260.523 2333
323.555 -260.97 2337
329.989 -261.64 2343
335.591 -261.64 2343
341.631 -261.975 2346
347.241 -261.975 2346
352.851 -261.975 2346
358.461 -261.975 2346
562.873 -398.881 3572
576.374 -402.343 3603
584.99 -402.343 3603
593.606 -402.343 3603
602.222 -402.343 3603
610.838 -402.343 3603
620.829 -403.236 3611
632.253 -405.023 3627
640.926 -405.023 3627
649.6 -405.023 3627
659.725 -405.916 3635
669.704 -406.698 3642
678.413 -406.698 3642
687.123 -406.698 3642
697.36 -407.591 3650
707.636 -408.485 3658
716.383 -408.485 3658
730.087 -411.277 3683
743.709 -413.957 3707
757.649 -416.748 3732
766.573 -416.748 3732
775.497 -416.748 3732
786.103 -417.642 3740
795.047 -417.642 3740
803.99 -417.642 3740
812.934 -417.642 3740
825.613 -419.54 3757
834.597 -419.54 3757
843.581 -419.54 3757
852.565 -419.54 3757
853.982 -415.855 3724
862.887 -415.855 3724
867.813 -413.957 3707
876.677 -413.957 3707
881.72 -412.17 3691
890.546 -412.17 3691
897.423 -411.277 3683
906.23 -411.277 3683
913.05 -410.383 3675
921.838 -410.383 3675
930.626 -410.383 3675
937.369 -409.49 3667
946.138 -409.49 3667
954.906 -409.49 3667
963.675 -409.49 3667
972.444 -409.49 3667
987.635 -412.17 3691
1000.78 -413.957 3707
1009.65 -413.957 3707
1018.51 -413.957 3707
1025.16 -413.063 3699
1034 -413.063 3699
1042.85 -413.063 3699
1051.69 -413.063 3699
1058.25 -412.17 3691
1064.76 -411.277 3683
1078.23 -413.063 3699
1087.08 -413.063 3699
1095.92 -413.063 3699
1102.38 -412.17 3691
1106.39 -410.383 3675
1115.17 -410.383 3675
1118.76 -408.485 3658
1125.04 -407.591 3650
1136.26 -408.485 3658
1145.01 -408.485 3658
1153.75 -408.485 3658
1159.96 -407.591 3650
1166.12 -406.698 3642
1174.83 -406.698 3642
1178.67 -405.023 3627
1184.72 -404.13 3619
1193.38 -404.13 3619
1202.03 -404.13 3619
1208.01 -403.236 3611
1216.64 -403.236 3611
1225.28 -403.236 3611
1233.91 -403.236 3611
1242.55 -403.236 3611
1248.41 -402.343 3603
1257.03 -402.343 3603
1262.83 -401.45 3595
1271.43 -401.45 3595
1280.03 -401.45 3595
1288.62 -401.45 3595
1297.22 -401.45 3595
1305.82 -401.45 3595
1314.41 -401.45 3595
1323.01 -401.45 3595
1331.61 -401.45 3595
1340.2 -401.45 3595
1346.17 -400.668 3588
1354.75 -400.668 3588
1363.33 -400.668 3588
1371.91 -400.668 3588
1380.49 -400.668 3588
1389.07 -400.668 3588
1397.65 -400.668 3588
1406.23 -400.668 3588
1414.81 -400.668 3588
1423.39 -400.668 3588
1437.96 -402.343 3603
1449.79 -403.236 3611
1461.65 -404.13 3619
1470.31 -404.13 3619
1488.36 -406.698 3642
1500.36 -407.591 3650
1509.09 -407.591 3650
1517.82 -407.591 3650
1523.2 -406.698 3642
1525.6 -405.023 3627
1534.27 -405.023 3627
1536.14 -403.236 3611
-2715.62 -396.335 3627
-2706.95 -396.335 3627
-2698.28 -396.335 3627
-2689.6 -396.335 3627
-2680.93 -396.335 3627
-2648.68 -392.838 3595
-2640.08 -392.838 3595
-2631.49 -392.838 3595
-2640.4 -395.46 3619
-2631.75 -395.46 3619
-2623.09 -395.46 3619
-2614.44 -395.46 3619
-2605.78 -395.46 3619
-2585.65 -393.712 3603
-2571.31 -392.838 3595
-2552.02 -391.199 3580
-2543.46 -391.199 3580
-2309.6 -358.854 3284
-2301.75 -358.854 3284
-2293.9 -358.854 3284
-2276.99 -357.433 3271
-2242.81 -353.281 3233
-2235.08 -353.281 3233
-2253.53 -357.433 3271
-2245.71 -357.433 3271
-2246.78 -358.854 3284
-2238.93 -358.854 3284
-2231.07 -358.854 3284
-2223.22 -358.854 3284
-2224.14 -360.274 3297
-2229.7 -362.46 3317
-2221.76 -362.46 3317
-2213.83 -362.46 3317
-2205.9 -362.46 3317
-2193.33 -361.695 3310
-2185.42 -361.695 3310
-2168.95 -360.274 3297
-2161.06 -360.274 3297
-2153.18 -360.274 3297
-2145.3 -360.274 3297
-2125.09 -358.198 3278
-2137.92 -361.695 3310
-2142.88 -363.88 3330
-2134.92 -363.88 3330
-2126.95 -363.88 3330
-2118.99 -363.88 3330
-2106.59 -363.115 3323
-2098.64 -363.115 3323
-2074.34 -360.274 3297
-2050.16 -357.433 3271
-1698.16 -406.06 3716
-1689.27 -406.06 3716
-1680.39 -406.06 3716
-1671.5 -406.06 3716
-1662.61 -406.06 3716
-1642.6 -403.328 3691
-1633.78 -403.328 3691
-1610.42 -399.722 3658
-1601.67 -399.722 3658
-1592.93 -399.722 3658
-1584.18 -399.722 3658
-1571.99 -398.848 3650
-1563.26 -398.848 3650
-1474.32 -410.54 3757
-1465.34 -410.54 3757
-1456.36 -410.54 3757
-1457.39 -413.381 3783
-1464.8 -418.08 3826
-1465.93 -421.03 3853
-1456.71 -421.03 3853
-1447.5 -421.03 3853
-1445.01 -422.997 3871
-1455.78 -428.898 3925
-1446.39 -428.898 3925
-1457.87 -435.127 3982
-1451.63 -436.11 3991
-1442.08 -436.11 3991
-1432.54 -436.11 3991
-1426.56 -437.203 4001
-1420.18 -438.186 4010
-1410.59 -438.186 4010
-1401 -438.186 4010
-1394.88 -439.279 4020
-1385.27 -439.279 4020
-1382.16 -441.355 4039
-1372.5 -441.355 4039
-1362.84 -441.355 4039
-1350.17 -440.372 4030
-1340.53 -440.372 4030
-1327.59 -439.279 4020
-1317.98 -439.279 4020
-1308.36 -439.279 4020
-1298.75 -439.279 4020
-1285.93 -438.186 4010
-1276.34 -438.186 4010
-1263.91 -437.203 4001
-1254.34 -437.203 4001
-1241.66 -436.11 3991
-1226.25 -434.034 3972
-1214 -433.05 3963
-1201.48 -431.958 3953
-1192.03 -431.958 3953
-1182.58 -431.958 3953
-1170.45 -430.974 3944
-678.216 -382.129 3497
-675.6 -385.407 3527
-667.166 -385.407 3527
-661.533 -387.046 3542
-654.354 -387.811 3549
-645.867 -387.811 3549
-637.38 -387.811 3549
-628.894 -387.811 3549
-621.806 -388.685 3557
-613.3 -388.685 3557
-604.794 -388.685 3557
-596.288 -388.685 3557
-587.782 -388.685 3557
-579.276 -388.685 3557
-510.968 -382.129 3497
-502.606 -382.129 3497
-494.243 -382.129 3497
-485.881 -382.129 3497
-214.185 -227.07 2078
-209.216 -227.07 2078
-204.247 -227.07 2078
-199.278 -227.07 2078
-194.309 -227.07 2078
-189.066 -226.742 2075
-184.104 -226.742 2075
-178.883 -226.414 2072
-173.928 -226.414 2072
-168.811 -226.196 2070
-164.89 -227.616 2083
-160.062 -227.835 2085
-155.076 -227.835 2085
-150.09 -227.835 2085
-145.522 -228.491 2091
-140.992 -229.256 2098
-136.17 -229.583 2101
-131.146 -229.583 2101
-126.302 -229.911 2104
-121.731 -230.785 2112
-117.123 -231.66 2120
-112.053 -231.66 2120
-107.236 -232.206 2125
-102.443 -232.862 2131
-97.4385 -233.08 2133
-92.3378 -233.08 2133
-87.4826 -233.736 2139
-82.3676 -233.736 2139
-77.3609 -234.064 2142
-72.2387 -234.064 2142
-67.1166 -234.064 2142
-61.9944 -234.064 2142
-56.8722 -234.064 2142
-51.6776 -233.736 2139
-46.4973 -233.408 2136
-41.3895 -233.408 2136
-36.2816 -233.408 2136
-31.13 -233.08 2133
-26.005 -232.862 2131
-20.9091 -232.862 2131
-15.8132 -232.862 2131
-10.7174 -232.862 2131
-5.6215 -232.862 2131
-0.524896 -232.534 2128
4.57023 -232.862 2131
9.6661 -232.862 2131
14.762 -232.862 2131
19.8578 -232.862 2131
24.9537 -232.862 2131
30.0496 -232.862 2131
35.096 -232.534 2128
40.2413 -232.862 2131
45.3372 -232.862 2131
50.433 -232.862 2131
55.5289 -232.862 2131
60.6248 -232.862 2131
65.7206 -232.862 2131
70.8165 -232.862 2131
75.9124 -232.862 2131
81.0843 -233.08 2133
86.3061 -233.408 2136
91.414 -233.408 2136
96.5218 -233.408 2136
101.63 -233.408 2136
106.737 -233.408 2136
111.845 -233.408 2136
116.953 -233.408 2136
122.061 -233.408 2136
127.347 -233.736 2139
132.462 -233.736 2139
137.77 -234.064 2142
142.892 -234.064 2142
148.153 -234.282 2144
153.494 -234.61 2147
158.85 -234.938 2150
163.991 -234.938 2150
169.369 -235.266 2153
174.922 -235.812 2158
180.083 -235.812 2158
185.243 -235.812 2158
191.198 -236.795 2167
197.105 -237.67 2175
204.166 -239.855 2195
209.415 -239.855 2195
215.837 -241.166 2207
222.818 -243.024 2224
230.291 -245.319 2245
235.659 -245.319 2245
242.316 -246.63 2257
248.811 -247.723 2267
256.25 -249.69 2285
261.715 -249.69 2285
267.529 -250.017 2288
274.194 -251.11 2298
280.784 -252.094 2307
286.301 -252.094 2307
293.462 -253.514 2320
299.912 -254.279 2327
306.265 -254.935 2333
311.844 -254.935 2333
317.967 -255.372 2337
323.97 -255.7 2340
330.411 -256.355 2346
336.021 -256.355 2346
342.651 -257.12 2353
348.277 -257.12 2353
353.904 -257.12 2353
359.072 -256.792 2350
571.415 -390.324 3572
579.957 -390.324 3572
588.499 -390.324 3572
597.04 -390.324 3572
605.582 -390.324 3572
616.875 -392.073 3588
626.675 -392.838 3595
635.272 -392.838 3595
648.167 -395.46 3619
658.273 -396.335 3627
666.946 -396.335 3627
675.619 -396.335 3627
685.802 -397.209 3635
694.494 -397.209 3635
704.541 -397.974 3642
713.25 -397.974 3642
725.131 -399.722 3658
738.894 -402.454 3683
754.4 -406.06 3716
763.286 -406.06 3716
772.173 -406.06 3716
827.266 -406.934 3724
836.171 -406.934 3724
845.077 -406.934 3724
850.083 -405.076 3707
858.948 -405.076 3707
862.194 -402.454 3683
867.217 -400.705 3667
875.986 -400.705 3667
884.755 -400.705 3667
893.524 -400.705 3667
902.293 -400.705 3667
913.05 -401.58 3675
921.838 -401.58 3675
930.626 -401.58 3675
937.369 -400.705 3667
946.138 -400.705 3667
954.906 -400.705 3667
965.778 -401.58 3675
974.566 -401.58 3675
987.635 -403.328 3691
1000.78 -405.076 3707
1009.65 -405.076 3707
1018.51 -405.076 3707
1025.16 -404.202 3699
1034 -404.202 3699
1042.85 -404.202 3699
1051.69 -404.202 3699
1058.25 -403.328 3691
1064.76 -402.454 3683
1078.23 -404.202 3699
1087.08 -404.202 3699
1095.92 -404.202 3699
1102.38 -403.328 3691
1106.39 -401.58 3675
1115.17 -401.58 3675
1118.76 -399.722 3658
1125.04 -398.848 3650
1136.26 -399.722 3658
1145.01 -399.722 3658
1153.75 -399.722 3658
1159.96 -398.848 3650
1166.12 -397.974 3642
1174.83 -397.974 3642
1178.67 -396.335 3627
1184.72 -395.46 3619
1193.38 -395.46 3619
1202.03 -395.46 3619
1208.01 -394.586 3611
1216.64 -394.586 3611
1225.28 -394.586 3611
1233.91 -394.586 3611
1242.55 -394.586 3611
1248.41 -393.712 3603
1254.24 -392.838 3595
1262.83 -392.838 3595
1271.43 -392.838 3595
1280.03 -392.838 3595
1288.62 -392.838 3595
1297.22 -392.838 3595
1305.82 -392.838 3595
1314.41 -392.838 3595
1320.43 -392.073 3588
1329.01 -392.073 3588
1337.59 -392.073 3588
1346.17 -392.073 3588
1354.75 -392.073 3588
1363.33 -392.073 3588
1371.91 -392.073 3588
1380.49 -392.073 3588
1389.07 -392.073 3588
1397.65 -392.073 3588
1406.23 -392.073 3588
1414.81 -392.073 3588
1423.39 -392.073 3588
1437.96 -393.712 3603
1449.79 -394.586 3611
1461.65 -395.46 3619
1470.31 -395.46 3619
1491.63 -398.848 3650
1500.36 -398.848 3650
1509.09 -398.848 3650
1517.82 -398.848 3650
1526.54 -398.848 3650
1531.91 -397.974 3642
1540.62 -397.974 3642
1536.14 -394.586 3611
-2715.62 -387.646 3627
-2706.95 -387.646 3627
-2698.28 -387.646 3627
-2689.6 -387.646 3627
-2680.93 -387.646 3627
-2648.68 -384.226 3595
-2640.08 -384.226 3595
-2626.36 -383.478 3588
-2640.4 -386.791 3619
-2631.75 -386.791 3619
-2623.09 -386.791 3619
-2614.44 -386.791 3619
-2605.78 -386.791 3619
-2585.65 -385.081 3603
-2571.31 -384.226 3595
-2552.02 -382.623 3580
-2543.46 -382.623 3580
-2261.8 -344.895 3227
