ply
format ascii 1.0
comment File generated
element vertex 2252
property float x
property float y
property float z
end_header
216.692 902.782 3792
225.76 902.782 3792
234.828 902.782 3792
292.953 886.593 3724
302.507 888.497 3732
311.431 888.497 3732
320.356 888.497 3732
550.582 915.162 3844
559.774 915.162 3844
568.966 915.162 3844
578.159 915.162 3844
592.851 923.733 3880
602.13 923.733 3880
611.408 923.733 3880
620.686 923.733 3880
629.964 923.733 3880
631.829 913.019 3835
636.654 906.829 3809
645.762 906.829 3809
656.418 908.972 3818
665.548 908.972 3818
677.682 913.019 3835
686.853 913.019 3835
697.657 915.162 3844
706.849 915.162 3844
739.884 945.635 3972
749.382 945.635 3972
758.881 945.635 3972
768.379 945.635 3972
872.893 878.736 3691
881.72 878.736 3691
890.546 878.736 3691
895.474 874.927 3675
904.262 874.927 3675
913.05 874.927 3675
919.831 873.023 3667
928.6 873.023 3667
937.369 873.023 3667
941.751 868.975 3650
948.396 867.071 3642
957.106 867.071 3642
961.837 863.5 3627
964.088 857.786 3603
972.704 857.786 3603
981.32 857.786 3603
987.738 855.881 3595
994.394 854.215 3588
1000.74 852.31 3580
1009.3 852.31 3580
1013.6 848.739 3565
1022.12 848.739 3565
1026.02 844.93 3549
1034.51 844.93 3549
1042.99 844.93 3549
1047.04 841.358 3534
1055.49 841.358 3534
1063.94 841.358 3534
1072.39 841.358 3534
1078.7 839.692 3527
1082.51 836.121 3512
1088.73 834.454 3505
1097.11 834.454 3505
1105.5 834.454 3505
1113.88 834.454 3505
1122.26 834.454 3505
1130.64 834.454 3505
1136.42 832.55 3497
1144.78 832.55 3497
1150.84 830.883 3490
1161.51 832.55 3497
1169.87 832.55 3497
1178.23 832.55 3497
1184.22 830.883 3490
1192.57 830.883 3490
1200.91 830.883 3490
1209.26 830.883 3490
1217.6 830.883 3490
1225.95 830.883 3490
1236.77 832.55 3497
1245.13 832.55 3497
1264.25 839.692 3527
1278.1 843.263 3542
1294.92 848.739 3565
1303.44 848.739 3565
1325.95 857.786 3603
1337.53 859.69 3611
1346.17 859.69 3611
1354.8 859.69 3611
1369.48 863.5 3627
1381.19 865.404 3635
1389.89 865.404 3635
1398.58 865.404 3635
1404.17 863.5 3627
1400.38 855.881 3595
1408.98 855.881 3595
1402.59 846.834 3557
1405.15 843.263 3542
1401.64 836.121 3512
1398.4 829.217 3483
1406.73 829.217 3483
1391.9 815.646 3426
1385.79 807.314 3391
1382.39 800.648 3363
1390.43 800.648 3363
1384.75 792.791 3330
1387.27 789.696 3317
1386.79 784.935 3297
1394.68 784.935 3297
1397.03 781.84 3284
1396.76 777.316 3265
1401.55 775.65 3258
1406.75 774.221 3252
1414.52 774.221 3252
1416.61 771.126 3239
1424.36 771.126 3239
1429.45 769.698 3233
1437.18 769.698 3233
1444.92 769.698 3233
1452.65 769.698 3233
1460.38 769.698 3233
1474.01 772.793 3246
1481.77 772.793 3246
1489.54 772.793 3246
1497.3 772.793 3246
1505.06 772.793 3246
1512.82 772.793 3246
1520.58 772.793 3246
1528.35 772.793 3246
1536.11 772.793 3246
1543.87 772.793 3246
1548.29 771.126 3239
1547.39 766.841 3221
1551.71 765.174 3214
1559.39 765.174 3214
1555.38 759.461 3190
1560.07 758.032 3184
1561.77 755.175 3172
1569.36 755.175 3172
1565.01 749.461 3148
1560.55 743.748 3124
1556.48 738.272 3101
1546.74 730.177 3067
1554.08 730.177 3067
1547.16 723.511 3039
1515.55 705.417 2963
1495.91 693.037 2911
1502.88 693.037 2911
1494.28 685.895 2881
1491.27 681.372 2862
1487.64 676.61 2842
1491.81 675.42 2837
1498.59 675.42 2837
1497.95 672.087 2823
1504.7 672.087 2823
1508.77 670.896 2818
1515.51 670.896 2818
1517.39 668.754 2809
1518.68 666.373 2799
1522.65 665.183 2794
1529.33 665.183 2794
1533.81 664.23 2790
1534.96 661.85 2780
1541.61 661.85 2780
1548.26 661.85 2780
1554.9 661.85 2780
1561.55 661.85 2780
1573.84 664.23 2790
1585.61 666.373 2799
1595.15 667.563 2804
1601.85 667.563 2804
1608.56 667.563 2804
1615.26 667.563 2804
1621.97 667.563 2804
2014.48 822.312 3454
2039.72 829.217 3483
2048.05 829.217 3483
2073.5 836.121 3512
2081.9 836.121 3512
2099.23 839.692 3527
2107.66 839.692 3527
2120.3 841.358 3534
2128.75 841.358 3534
2137.2 841.358 3534
2145.65 841.358 3534
2149.83 839.692 3527
2158.27 839.692 3527
2166.7 839.692 3527
2165.88 836.121 3512
2169.95 834.454 3505
2173.36 832.55 3497
2163.63 825.646 3468
2171.92 825.646 3468
2158.21 817.313 3433
2144.33 808.98 3398
2143.59 805.647 3384
2151.68 805.647 3384
2155.31 803.981 3377
2167.87 805.647 3384
2175.96 805.647 3384
2184.05 805.647 3384
2192.14 805.647 3384
2169.68 794.458 3337
2155.47 786.363 3303
2159.44 784.935 3297
2167.32 784.935 3297
2170.59 783.268 3290
2174.48 781.84 3284
2186.32 783.268 3290
2202.86 786.363 3303
2210.76 786.363 3303
2232.09 791.125 3323
2244.76 792.791 3330
2266.25 797.553 3350
2274.26 797.553 3350
2295.9 802.314 3370
2303.95 802.314 3370
2312.01 802.314 3370
2315.25 800.648 3363
2323.29 800.648 3363
2322.32 797.553 3350
2330.34 797.553 3350
2315.31 789.696 3317
2318.34 788.03 3310
2317.12 784.935 3297
2315.84 781.84 3284
2323.69 781.84 3284
2313.08 775.65 3258
2307.34 771.126 3239
2315.08 771.126 3239
2322.83 771.126 3239
2330.58 771.126 3239
2333.99 769.698 3233
2319.27 762.317 3202
2322.56 760.889 3196
2330.21 760.889 3196
2329.07 758.032 3184
2323.47 753.747 3166
2313.38 748.033 3142
2320.89 748.033 3142
2310.62 742.319 3118
2309.89 739.7 3107
2312.85 738.272 3101
2324.75 739.7 3107
2332.18 739.7 3107
2339.61 739.7 3107
2355.35 742.319 3118
2399.18 753.747 3166
2429.56 760.889 3196
2469.99 771.126 3239
2477.74 771.126 3239
-2602.57 835.877 3476
-2594.25 835.877 3476
-2596.36 839.243 3490
-2593.2 840.927 3497
-2612.19 849.824 3534
-2603.74 849.824 3534
-2623.19 858.962 3572
-2626.36 862.81 3588
-2628.73 866.417 3603
-2620.11 866.417 3603
-2623.09 870.264 3619
-2614.44 870.264 3619
-2605.78 870.264 3619
-2585.65 866.417 3603
-2566.3 862.81 3588
-2541.33 857.279 3565
-2532.8 857.279 3565
-2502.33 849.824 3534
-2504.46 853.431 3549
-2495.98 853.431 3549
-2487.49 853.431 3549
-2479 853.431 3549
-2439.89 842.851 3505
-2405.84 833.953 3468
-2397.54 833.953 3468
-2389.25 833.953 3468
-2366.54 828.903 3447
-2343.93 823.853 3426
-2340.51 825.537 3433
-2351.32 832.27 3461
-2343.05 832.27 3461
-2334.77 832.27 3461
-2336.58 835.877 3476
-2328.26 835.877 3476
-2343.98 844.534 3512
-2360.19 853.431 3549
-2362.3 857.279 3565
-2353.78 857.279 3565
-2355.12 860.886 3580
-2346.56 860.886 3580
-2338 860.886 3580
-2329.44 860.886 3580
-2315.69 858.962 3572
-2307.15 858.962 3572
-2303.76 860.886 3580
-2295.19 860.886 3580
-2291.74 862.81 3588
-2283.16 862.81 3588
-2274.58 862.81 3588
-2266 862.81 3588
-2247.36 858.962 3572
-2238.82 858.962 3572
-2225.9 857.279 3565
-2217.38 857.279 3565
-2208.85 857.279 3565
-2200.33 857.279 3565
-2186.88 855.355 3557
-2178.38 855.355 3557
-2164.99 853.431 3549
-2138.88 846.458 3520
-2121.39 842.851 3505
-2113.01 842.851 3505
-2104.63 842.851 3505
-2091.46 840.927 3497
-2078.93 839.243 3490
-2070.58 839.243 3490
-2062.24 839.243 3490
-2053.89 839.243 3490
-2045.54 839.243 3490
-2037.2 839.243 3490
-2020.71 835.877 3476
-2007.77 833.953 3468
-2004.09 835.877 3476
-1995.78 835.877 3476
-1987.47 835.877 3476
-1983.14 837.56 3483
-1974.81 837.56 3483
-1966.48 837.56 3483
-1954.22 835.877 3476
-1945.91 835.877 3476
-1941.49 837.56 3483
-1933.17 837.56 3483
-1924.84 837.56 3483
-1916.51 837.56 3483
-1908.18 837.56 3483
-1907.49 840.927 3497
-1899.12 840.927 3497
-1890.76 840.927 3497
-1882.4 840.927 3497
-1874.04 840.927 3497
-1858.21 837.56 3483
-1861.56 842.851 3505
-1853.18 842.851 3505
-1844.8 842.851 3505
-1836.42 842.851 3505
-1828.04 842.851 3505
-1823.29 844.534 3512
-1819.02 846.458 3520
-1810.61 846.458 3520
-1802.19 846.458 3520
-1797.34 848.141 3527
-1796.51 851.748 3542
-1788.04 851.748 3542
-1783.09 853.431 3549
-1778.6 855.355 3557
-1774.08 857.279 3565
-1765.55 857.279 3565
-1757.03 857.279 3565
-1748.5 857.279 3565
-1739.98 857.279 3565
-1723.68 853.431 3549
-1734.04 862.81 3588
-1725.46 862.81 3588
-1716.88 862.81 3588
-1708.3 862.81 3588
-1695.93 860.886 3580
-1691.14 862.81 3588
-1689.6 866.417 3603
-1680.98 866.417 3603
-1672.37 866.417 3603
-1674.83 872.188 3627
-1676.73 877.719 3650
-1671.65 879.643 3658
-1662.91 879.643 3658
-1654.16 879.643 3658
-1638.21 875.795 3642
-1629.5 875.795 3642
-1614.12 872.188 3627
-1615.63 877.719 3650
-1621.43 885.654 3683
-1612.62 885.654 3683
-1603.81 885.654 3683
-1588.08 881.807 3667
-1538.39 858.962 3572
-1529.85 858.962 3572
-1521.31 858.962 3572
-1506.42 855.355 3557
-1494.54 853.431 3549
-1486.05 853.431 3549
-1465.49 846.458 3520
-1447.56 840.927 3497
-1436.31 839.243 3490
-1427.97 839.243 3490
-1407.82 832.27 3461
-1396.72 830.587 3454
-1380.02 825.537 3433
-1371.81 825.537 3433
-1360.82 823.853 3426
-1355.39 825.537 3433
-1347.18 825.537 3433
-1338.97 825.537 3433
-1330.76 825.537 3433
-1327.94 828.903 3447
-1325.06 832.27 3461
-1327.82 839.243 3490
-1319.47 839.243 3490
-1311.13 839.243 3490
-1313.98 846.458 3520
-1316.32 853.431 3549
-1307.83 853.431 3549
-1310.7 860.886 3580
-1310.5 866.417 3603
-1310.56 872.188 3627
-1301.88 872.188 3627
-1298.56 875.795 3642
-1289.85 875.795 3642
-1281.14 875.795 3642
-1272.43 875.795 3642
-1263.72 875.795 3642
-1252.6 874.112 3635
-1241.17 872.188 3627
-1232.5 872.188 3627
-1221.12 870.264 3619
-1212.47 870.264 3619
-1203.82 870.264 3619
-1195.16 870.264 3619
-1186.51 870.264 3619
-1180.46 872.188 3627
-1171.78 872.188 3627
-1163.11 872.188 3627
-1154.44 872.188 3627
-1145.76 872.188 3627
-1134.58 870.264 3619
-1125.93 870.264 3619
-1114.81 868.34 3611
-1108.62 870.264 3619
-1099.97 870.264 3619
-1091.31 870.264 3619
-1082.66 870.264 3619
-1074 870.264 3619
-1067.71 872.188 3627
-1063.41 875.795 3642
-1054.7 875.795 3642
-1053.17 881.807 3667
-1048.96 885.654 3683
-1040.15 885.654 3683
-1031.35 885.654 3683
-1022.54 885.654 3683
-1013.73 885.654 3683
-1004.93 885.654 3683
-996.119 885.654 3683
-987.311 885.654 3683
-974.253 881.807 3667
-967.591 883.731 3675
-958.803 883.731 3675
-954.151 887.578 3691
-945.325 887.578 3691
-936.498 887.578 3691
-927.672 887.578 3691
-916.854 885.654 3683
-906.074 883.731 3675
-897.286 883.731 3675
-892.367 887.578 3691
-883.54 887.578 3691
-874.714 887.578 3691
-862.134 883.731 3675
-853.346 883.731 3675
-844.558 883.731 3675
-835.77 883.731 3675
-826.982 883.731 3675
-818.194 883.731 3675
-809.406 883.731 3675
-802.361 885.654 3683
-798.725 891.426 3707
-802.432 905.613 3766
-793.426 905.613 3766
-784.42 905.613 3766
-651.389 872.188 3627
-642.716 872.188 3627
-634.042 872.188 3627
-619.852 864.493 3595
-611.255 864.493 3595
-600.144 860.886 3580
-591.583 860.886 3580
-583.022 860.886 3580
-572.054 857.279 3565
-558.629 849.824 3534
-551.423 851.748 3542
-542.953 851.748 3542
-534.483 851.748 3542
-526.013 851.748 3542
-517.543 851.748 3542
-509.073 851.748 3542
-500.603 851.748 3542
-492.133 851.748 3542
-484.619 853.431 3549
-476.133 853.431 3549
-467.646 853.431 3549
-459.159 853.431 3549
-449.783 851.748 3542
-442.186 853.431 3549
-433.699 853.431 3549
-425.212 853.431 3549
-416.725 853.431 3549
-408.239 853.431 3549
-399.752 853.431 3549
-391.265 853.431 3549
-385.259 858.962 3572
-376.717 858.962 3572
-368.176 858.962 3572
-359.634 858.962 3572
-350.404 857.279 3565
-341.879 857.279 3565
-332.606 855.355 3557
-324.1 855.355 3557
-315.594 855.355 3557
-306.398 853.431 3549
-297.911 853.431 3549
-288.854 851.748 3542
-279.75 849.824 3534
-270.762 848.141 3527
-262.328 848.141 3527
-253.39 846.458 3520
-244.416 844.534 3512
-236.555 846.458 3520
-228.138 846.458 3520
-219.72 846.458 3520
-211.723 848.141 3527
-203.289 848.141 3527
-194.855 848.141 3527
-116.81 531.441 2210
-111.525 531.441 2210
-106.241 531.441 2210
-100.956 531.441 2210
-95.4114 529.998 2204
-89.5275 526.391 2189
-84.1774 525.669 2186
-78.95 525.669 2186
-73.7226 525.669 2186
-68.1506 523.024 2175
-62.7758 521.581 2169
-57.5891 521.581 2169
-52.3541 521.1 2167
-47.1721 521.1 2167
-41.9901 521.1 2167
-36.8082 521.1 2167
-31.6262 521.1 2167
-26.4443 521.1 2167
-21.2329 520.379 2164
-16.0581 520.379 2164
-10.8682 519.658 2161
-5.69273 518.936 2158
-0.532296 518.936 2158
4.62814 518.936 2158
9.78857 518.936 2158
14.949 518.936 2158
20.1374 519.658 2161
25.3753 521.1 2167
30.6277 522.303 2172
35.8216 522.303 2172
41.1288 523.746 2178
46.4647 525.188 2184
51.6874 525.188 2184
56.91 525.188 2184
124.02 897.437 3732
132.945 897.437 3732
141.869 897.437 3732
150.793 897.437 3732
159.718 897.437 3732
168.28 895.514 3724
177.186 895.514 3724
187.74 903.449 3757
196.724 903.449 3757
205.708 903.449 3757
215.664 907.537 3774
224.689 907.537 3774
233.713 907.537 3774
292.953 895.514 3724
301.859 895.514 3724
310.764 895.514 3724
319.669 895.514 3724
550.582 924.37 3844
559.774 924.37 3844
568.966 924.37 3844
578.159 924.37 3844
592.851 933.027 3880
602.13 933.027 3880
611.408 933.027 3880
620.686 933.027 3880
629.964 933.027 3880
631.829 922.206 3835
633.812 911.866 3792
638.472 905.613 3766
650.4 909.701 3783
659.447 909.701 3783
673.088 915.954 3809
682.196 915.954 3809
696.023 922.206 3835
705.194 922.206 3835
714.365 922.206 3835
873.836 879.643 3658
882.584 879.643 3658
893.524 881.807 3667
902.293 881.807 3667
911.062 881.807 3667
915.567 877.719 3650
924.295 877.719 3650
933.023 877.719 3650
939.687 875.795 3642
940.324 868.34 3611
948.959 868.34 3611
955.472 866.417 3603
961.948 864.493 3595
968.654 862.81 3588
977.234 862.81 3588
983.616 860.886 3580
992.177 860.886 3580
996.545 857.279 3565
1005.07 857.279 3565
1009.05 853.431 3549
1015.53 851.748 3542
1024 851.748 3542
1028.09 848.141 3527
1036.53 848.141 3527
1044.96 848.141 3527
1048.92 844.534 3512
1057.31 844.534 3512
1065.71 844.534 3512
1074.11 844.534 3512
1080.35 842.851 3505
1088.73 842.851 3505
1097.11 842.851 3505
1105.5 842.851 3505
1113.88 842.851 3505
1122.26 842.851 3505
1130.64 842.851 3505
1136.42 840.927 3497
1142.49 839.243 3490
1150.84 839.243 3490
1161.51 840.927 3497
1169.87 840.927 3497
1178.23 840.927 3497
1184.22 839.243 3490
1192.57 839.243 3490
1200.91 839.243 3490
1209.26 839.243 3490
1215.16 837.56 3483
1225.95 839.243 3490
1234.3 839.243 3490
1242.64 839.243 3490
1258.87 844.534 3512
1275.21 849.824 3534
1292.01 855.355 3557
1300.52 855.355 3557
1317.49 860.886 3580
1334.57 866.417 3603
1343.19 866.417 3603
1351.8 866.417 3603
1363.44 868.34 3611
1378.15 872.188 3627
1386.83 872.188 3627
1395.5 872.188 3627
1391.78 864.493 3595
1397.65 862.81 3588
1406.23 862.81 3588
1399.44 853.431 3549
1396.42 846.458 3520
1398.85 842.851 3505
1398.4 837.56 3483
1406.73 837.56 3483
1389.05 822.17 3419
1385.79 815.437 3391
1379.92 807.261 3357
1387.95 807.261 3357
1384.75 800.768 3330
1387.27 797.642 3317
1386.79 792.833 3297
1394.68 792.833 3297
1397.03 789.706 3284
1396.76 785.138 3265
1401.55 783.454 3258
1406.75 782.011 3252
1414.52 782.011 3252
1416.61 778.885 3239
1424.36 778.885 3239
1429.45 777.442 3233
1437.18 777.442 3233
1444.92 777.442 3233
1452.65 777.442 3233
1460.38 777.442 3233
1470.83 778.885 3239
1478.58 778.885 3239
1489.54 780.569 3246
1497.3 780.569 3246
1505.06 780.569 3246
1509.56 778.885 3239
1517.31 778.885 3239
1525.05 778.885 3239
1532.8 778.885 3239
1540.54 778.885 3239
1548.29 778.885 3239
1547.39 774.557 3221
1551.71 772.874 3214
1559.39 772.874 3214
1561.23 769.988 3202
1563.01 767.102 3190
1564.73 764.217 3178
1572.33 764.217 3178
1573.96 761.331 3166
1572.54 757.002 3148
1565.01 749.788 3118
1552.29 740.169 3078
1559.65 740.169 3078
1555.3 734.639 3055
1518.11 713.718 2968
1495.91 700.011 2911
1502.88 700.011 2911
1494.28 692.797 2881
1491.27 688.228 2862
1487.64 683.418 2842
1491.81 682.216 2837
1498.59 682.216 2837
1497.95 678.849 2823
1502.03 677.647 2818
1508.77 677.647 2818
1515.51 677.647 2818
1514.69 674.28 2804
1518.68 673.078 2799
1522.65 671.876 2794
1529.33 671.876 2794
1533.81 670.914 2790
1534.96 668.509 2780
1541.61 668.509 2780
1548.26 668.509 2780
1554.9 668.509 2780
1561.55 668.509 2780
1573.84 670.914 2790
1585.61 673.078 2799
1595.15 674.28 2804
1601.85 674.28 2804
1608.56 674.28 2804
1615.26 674.28 2804
1621.97 674.28 2804
2031.39 837.56 3483
2047.92 840.927 3497
2056.28 840.927 3497
2073.5 844.534 3512
2090.79 848.141 3527
2103.39 849.824 3534
2111.84 849.824 3534
2120.3 849.824 3534
2128.75 849.824 3534
2137.2 849.824 3534
2145.65 849.824 3534
2149.83 848.141 3527
2158.27 848.141 3527
2166.7 848.141 3527
2165.88 844.534 3512
2169.95 842.851 3505
2173.36 840.927 3497
2168.62 835.877 3476
2176.93 835.877 3476
2158.21 825.537 3433
2144.33 817.12 3398
2148.02 815.437 3391
2156.13 815.437 3391
2155.31 812.07 3377
2167.87 813.754 3384
2175.96 813.754 3384
2184.05 813.754 3384
2192.14 813.754 3384
2169.68 802.451 3337
2155.47 794.275 3303
2159.44 792.833 3297
2167.32 792.833 3297
2175.21 792.833 3297
2178.45 791.149 3290
2190.97 792.833 3297
2202.86 794.275 3303
2210.76 794.275 3303
2232.09 799.085 3323
2258.24 805.578 3350
2279.78 810.387 3370
2287.84 810.387 3370
2295.9 810.387 3370
2303.95 810.387 3370
2312.01 810.387 3370
2320.07 810.387 3370
2323.29 808.704 3363
2322.32 805.578 3350
2330.34 805.578 3350
2315.31 797.642 3317
2318.34 795.959 3310
2317.12 792.833 3297
2315.84 789.706 3284
2323.69 789.706 3284
2313.08 783.454 3258
2307.34 778.885 3239
2315.08 778.885 3239
2322.83 778.885 3239
2330.58 778.885 3239
2333.99 777.442 3233
2319.27 769.988 3202
2322.56 768.545 3196
2330.21 768.545 3196
2329.07 765.659 3184
2323.47 761.331 3166
2313.38 755.56 3142
2320.89 755.56 3142
2310.62 749.788 3118
2309.89 747.143 3107
2312.85 745.7 3101
2324.75 747.143 3107
2332.18 747.143 3107
2339.61 747.143 3107
2355.35 749.788 3118
2399.18 761.331 3166
2429.56 768.545 3196
2469.99 778.885 3239
2477.74 778.885 3239
-2602.57 844.204 3476
-2594.25 844.204 3476
-2596.36 847.604 3490
-2593.2 849.304 3497
-2612.19 858.29 3534
-2603.74 858.29 3534
-2623.19 867.519 3572
-2626.36 871.405 3588
-2628.73 875.048 3603
-2620.11 875.048 3603
-2623.09 878.934 3619
-2614.44 878.934 3619
-2605.78 878.934 3619
-2585.65 875.048 3603
-2566.3 871.405 3588
-2541.33 865.819 3565
-2532.8 865.819 3565
-2502.33 858.29 3534
-2504.46 861.933 3549
-2495.98 861.933 3549
-2487.49 861.933 3549
-2479 861.933 3549
-2439.89 851.247 3505
-2405.84 842.261 3468
-2397.54 842.261 3468
-2389.25 842.261 3468
-2366.54 837.161 3447
-2343.93 832.06 3426
-2340.51 833.76 3433
-2351.32 840.561 3461
-2343.05 840.561 3461
-2334.77 840.561 3461
-2336.58 844.204 3476
-2328.26 844.204 3476
-2343.98 852.947 3512
-2360.19 861.933 3549
-2362.3 865.819 3565
-2353.78 865.819 3565
-2355.12 869.462 3580
-2346.56 869.462 3580
-2338 869.462 3580
-2329.44 869.462 3580
-2315.69 867.519 3572
-2307.15 867.519 3572
-2303.76 869.462 3580
-2295.19 869.462 3580
-2291.74 871.405 3588
-2283.16 871.405 3588
-2274.58 871.405 3588
-2266 871.405 3588
-2247.36 867.519 3572
-2238.82 867.519 3572
-2225.9 865.819 3565
-2217.38 865.819 3565
-2208.85 865.819 3565
-2200.33 865.819 3565
-2186.88 863.876 3557
-2178.38 863.876 3557
-2164.99 861.933 3549
-2138.88 854.89 3520
-2125.63 852.947 3512
-2117.23 852.947 3512
-2104.63 851.247 3505
-2091.46 849.304 3497
-2078.93 847.604 3490
-2070.58 847.604 3490
-2062.24 847.604 3490
-2053.89 847.604 3490
-2045.54 847.604 3490
-2037.2 847.604 3490
-2020.71 844.204 3476
-2012.4 844.204 3476
-2004.09 844.204 3476
-1999.8 845.904 3483
-1991.47 845.904 3483
-1983.14 845.904 3483
-1974.81 845.904 3483
-1966.48 845.904 3483
-1958.15 845.904 3483
-1945.91 844.204 3476
-1941.49 845.904 3483
-1933.17 845.904 3483
-1924.84 845.904 3483
-1916.51 845.904 3483
-1908.18 845.904 3483
-1907.49 849.304 3497
-1899.12 849.304 3497
-1890.76 849.304 3497
-1882.4 849.304 3497
-1874.04 849.304 3497
-1858.21 845.904 3483
-1861.56 851.247 3505
-1853.18 851.247 3505
-1844.8 851.247 3505
-1836.42 851.247 3505
-1828.04 851.247 3505
-1823.29 852.947 3512
-1819.02 854.89 3520
-1810.61 854.89 3520
-1802.19 854.89 3520
-1797.34 856.59 3527
-1796.51 860.233 3542
-1788.04 860.233 3542
-1783.09 861.933 3549
-1778.6 863.876 3557
-1774.08 865.819 3565
-1765.55 865.819 3565
-1757.03 865.819 3565
-1748.5 865.819 3565
-1739.98 865.819 3565
-1723.68 861.933 3549
-1734.04 871.405 3588
-1725.46 871.405 3588
-1716.88 871.405 3588
-1708.3 871.405 3588
-1695.93 869.462 3580
-1691.14 871.405 3588
-1689.6 875.048 3603
-1680.98 875.048 3603
-1672.37 875.048 3603
-1674.83 880.877 3627
-1676.73 886.462 3650
-1671.65 888.405 3658
-1662.91 888.405 3658
-1654.16 888.405 3658
-1638.21 884.52 3642
-1629.5 884.52 3642
-1614.12 880.877 3627
-1615.63 886.462 3650
-1621.43 894.477 3683
-1612.62 894.477 3683
-1603.81 894.477 3683
-1588.08 890.591 3667
-1538.39 867.519 3572
-1529.85 867.519 3572
-1521.31 867.519 3572
-1506.42 863.876 3557
-1494.54 861.933 3549
-1486.05 861.933 3549
-1465.49 854.89 3520
-1447.56 849.304 3497
-1436.31 847.604 3490
-1427.97 847.604 3490
-1407.82 840.561 3461
-1396.72 838.861 3454
-1380.02 833.76 3433
-1371.81 833.76 3433
-1355.26 828.66 3412
-1349.86 830.36 3419
-1341.69 830.36 3419
-1333.51 830.36 3419
-1330.76 833.76 3433
-1322.55 833.76 3433
-1322.38 838.861 3454
-1316.79 840.561 3461
-1319.47 847.604 3490
-1311.13 847.604 3490
-1313.98 854.89 3520
-1316.32 861.933 3549
-1307.83 861.933 3549
-1307.77 867.519 3572
-1307.59 873.105 3595
-1310.56 880.877 3627
-1301.88 880.877 3627
-1298.56 884.52 3642
-1289.85 884.52 3642
-1281.14 884.52 3642
-1272.43 884.52 3642
-1263.72 884.52 3642
-1252.6 882.819 3635
-1238.43 878.934 3619
-1229.78 878.934 3619
-1221.12 878.934 3619
-1212.47 878.934 3619
-1203.82 878.934 3619
-1195.16 878.934 3619
-1186.51 878.934 3619
-1177.85 878.934 3619
-1169.2 878.934 3619
-1160.55 878.934 3619
-1151.89 878.934 3619
-1143.24 878.934 3619
-1132.08 876.991 3611
-1123.44 876.991 3611
-1114.81 876.991 3611
-1106.17 876.991 3611
-1097.54 876.991 3611
-1088.9 876.991 3611
-1080.27 876.991 3611
-1071.63 876.991 3611
-1067.71 880.877 3627
-1061.37 882.819 3635
-1052.68 882.819 3635
-1050.59 888.405 3658
-1048.96 894.477 3683
-1040.15 894.477 3683
-1031.35 894.477 3683
-1024.76 896.42 3691
-1015.93 896.42 3691
-1007.11 896.42 3691
-996.119 894.477 3683
-987.311 894.477 3683
-976.379 892.534 3675
-969.697 894.477 3683
-960.89 894.477 3683
-954.151 896.42 3691
-945.325 896.42 3691
-936.498 896.42 3691
-927.672 896.42 3691
-916.854 894.477 3683
-906.074 892.534 3675
-897.286 892.534 3675
-888.498 892.534 3675
-879.71 892.534 3675
-870.922 892.534 3675
-864.011 894.477 3683
-855.204 894.477 3683
-846.397 894.477 3683
-837.59 894.477 3683
-828.782 894.477 3683
-819.975 894.477 3683
-809.406 892.534 3675
-800.618 892.534 3675
-791.83 892.534 3675
-783.042 892.534 3675
-631.729 865.819 3565
-624.428 867.519 3572
-615.886 867.519 3572
-607.344 867.519 3572
-598.802 867.519 3572
-590.261 867.519 3572
-581.719 867.519 3572
-570.77 863.876 3557
-557.522 856.59 3527
-550.178 858.29 3534
-542.953 860.233 3542
-534.483 860.233 3542
-526.013 860.233 3542
-515.352 856.59 3527
-507.924 858.29 3534
-499.473 858.29 3534
-492.133 860.233 3542
-484.619 861.933 3549
-476.133 861.933 3549
-467.646 861.933 3549
-459.159 861.933 3549
-449.783 860.233 3542
-442.186 861.933 3549
-433.699 861.933 3549
-425.212 861.933 3549
-416.725 861.933 3549
-408.239 861.933 3549
-399.752 861.933 3549
-392.147 863.876 3557
-385.259 867.519 3572
-376.717 867.519 3572
-368.176 867.519 3572
-359.634 867.519 3572
-350.404 865.819 3565
-341.879 865.819 3565
-332.606 863.876 3557
-324.1 863.876 3557
-315.594 863.876 3557
-307.089 863.876 3557
-298.583 863.876 3557
-289.424 861.933 3549
-279.75 858.29 3534
-270.762 856.59 3527
-262.328 856.59 3527
-253.39 854.89 3520
-244.972 854.89 3520
-236.017 852.947 3512
-227.619 852.947 3512
-219.221 852.947 3512
-211.303 854.89 3520
-202.886 854.89 3520
-194.468 854.89 3520
-116.81 536.735 2210
-111.525 536.735 2210
-106.241 536.735 2210
-100.956 536.735 2210
-95.1517 533.82 2198
-89.4048 530.906 2186
-84.1774 530.906 2186
-78.95 530.906 2186
-73.554 529.692 2181
-68.1506 528.234 2175
-62.7758 526.777 2169
-57.5891 526.777 2169
-52.4024 526.777 2169
-47.1721 526.292 2167
-41.9901 526.292 2167
-36.8082 526.292 2167
-31.6262 526.292 2167
-26.4443 526.292 2167
-21.2329 525.563 2164
-16.0581 525.563 2164
-10.8682 524.834 2161
-5.69273 524.106 2158
-0.532296 524.106 2158
4.62814 524.106 2158
9.78857 524.106 2158
14.949 524.106 2158
20.2119 526.777 2169
25.4338 527.506 2172
30.7123 528.963 2178
35.9206 528.963 2178
41.2799 530.906 2186
46.8902 535.278 2204
52.1607 535.278 2204
57.4311 535.278 2204
62.5308 533.82 2198
140.614 898.363 3699
149.46 898.363 3699
158.305 898.363 3699
164.937 886.462 3650
174.474 890.591 3667
185.241 900.306 3707
194.577 902.492 3716
203.463 902.492 3716
212.349 902.492 3716
221.235 902.492 3716
230.122 902.492 3716
550.582 933.578 3844
559.774 933.578 3844
568.966 933.578 3844
578.159 933.578 3844
588.726 935.764 3853
597.94 935.764 3853
607.153 935.764 3853
616.367 935.764 3853
625.581 935.764 3853
631.829 931.393 3835
629.466 914.635 3766
636.946 912.449 3757
645.93 912.449 3757
654.914 912.449 3757
668.493 918.764 3783
677.539 918.764 3783
686.586 918.764 3783
913.56 884.52 3642
922.269 884.52 3642
930.978 884.52 3642
923.69 869.462 3580
932.251 869.462 3580
940.812 869.462 3580
949.373 869.462 3580
957.934 869.462 3580
966.495 869.462 3580
975.056 869.462 3580
981.418 867.519 3572
988.02 865.819 3565
992.073 861.933 3549
1000.56 861.933 3549
1004.78 858.29 3534
1011.23 856.59 3527
1017.64 854.89 3520
1026.05 854.89 3520
1034.47 854.89 3520
1040.52 852.947 3512
1048.92 852.947 3512
1055.21 851.247 3505
1063.59 851.247 3505
1071.97 851.247 3505
1080.35 851.247 3505
1086.25 849.304 3497
1094.61 849.304 3497
1102.97 849.304 3497
1113.88 851.247 3505
1122.26 851.247 3505
1130.64 851.247 3505
1136.42 849.304 3497
1142.49 847.604 3490
1153.15 849.304 3497
1161.51 849.304 3497
1169.87 849.304 3497
1178.23 849.304 3497
1186.6 849.304 3497
1192.57 847.604 3490
1200.91 847.604 3490
1209.26 847.604 3490
1215.16 845.904 3483
1225.95 847.604 3490
1234.3 847.604 3490
1242.64 847.604 3490
1256.36 851.247 3505
1270.16 854.89 3520
1283.66 858.29 3534
1292.11 858.29 3534
1314.55 867.519 3572
1326.05 869.462 3580
1337.59 871.405 3588
1346.17 871.405 3588
1354.75 871.405 3588
1363.33 871.405 3588
1371.91 871.405 3588
1380.49 871.405 3588
1389.07 871.405 3588
1385.58 863.876 3557
1394.08 863.876 3557
1393.52 858.29 3534
1390.47 851.247 3505
1392.86 847.604 3490
1386.75 838.861 3454
1395.01 838.861 3454
1383.37 826.96 3405
1382.93 821.86 3384
1379.92 815.303 3357
1387.95 815.303 3357
1390.15 811.902 3343
1389.78 807.045 3323
1392.26 803.888 3310
1400.18 803.888 3310
1397.03 797.573 3284
1402.32 796.116 3278
1404.56 792.959 3265
1409.34 791.259 3258
1417.13 791.259 3258
1419.68 788.344 3246
1424.36 786.644 3239
1432.11 786.644 3239
1439.85 786.644 3239
1447.6 786.644 3239
1452.65 785.187 3233
1460.38 785.187 3233
1470.83 786.644 3239
1478.58 786.644 3239
1486.32 786.644 3239
1494.07 786.644 3239
1501.81 786.644 3239
1509.56 786.644 3239
1517.31 786.644 3239
1525.05 786.644 3239
1532.8 786.644 3239
1540.54 786.644 3239
1548.29 786.644 3239
1547.39 782.273 3221
1551.71 780.573 3214
1559.39 780.573 3214
1561.23 777.658 3202
1563.01 774.744 3190
1564.73 771.829 3178
1572.33 771.829 3178
1573.96 768.915 3166
1572.54 764.544 3148
1565.01 757.258 3118
1552.29 747.543 3078
1559.65 747.543 3078
1555.3 741.957 3055
1518.11 720.828 2968
1495.91 706.984 2911
1502.88 706.984 2911
1494.28 699.698 2881
1491.27 695.084 2862
1487.64 690.226 2842
1491.81 689.012 2837
1498.59 689.012 2837
1497.95 685.612 2823
1502.03 684.398 2818
1508.77 684.398 2818
1515.51 684.398 2818
1514.69 680.997 2804
1518.68 679.783 2799
1522.65 678.569 2794
1529.33 678.569 2794
1533.81 677.597 2790
1534.96 675.169 2780
1539.39 674.197 2776
1546.03 674.197 2776
1554.9 675.169 2780
1561.55 675.169 2780
1568.2 675.169 2780
1585.61 679.783 2799
1595.15 680.997 2804
1601.85 680.997 2804
1608.56 680.997 2804
1615.26 680.997 2804
1621.97 680.997 2804
2031.39 845.904 3483
2047.92 849.304 3497
2056.28 849.304 3497
2073.5 852.947 3512
2090.79 856.59 3527
2103.39 858.29 3534
2111.84 858.29 3534
2120.3 858.29 3534
2128.75 858.29 3534
2137.2 858.29 3534
2145.65 858.29 3534
2149.83 856.59 3527
2158.27 856.59 3527
2166.7 856.59 3527
2165.88 852.947 3512
2169.95 851.247 3505
2173.36 849.304 3497
2168.62 844.204 3476
2176.93 844.204 3476
2158.21 833.76 3433
2144.33 825.26 3398
2148.02 823.56 3391
2156.13 823.56 3391
2155.31 820.16 3377
2167.87 821.86 3384
2175.96 821.86 3384
2184.05 821.86 3384
2192.14 821.86 3384
2169.68 810.445 3337
2155.47 802.188 3303
2159.44 800.731 3297
2167.32 800.731 3297
2175.21 800.731 3297
2178.45 799.031 3290
2190.97 800.731 3297
2202.86 802.188 3303
2210.76 802.188 3303
2232.09 807.045 3323
2258.24 813.602 3350
2279.78 818.46 3370
2287.84 818.46 3370
2295.9 818.46 3370
2303.95 818.46 3370
2312.01 818.46 3370
2320.07 818.46 3370
2323.29 816.76 3363
2322.32 813.602 3350
2330.34 813.602 3350
2315.31 805.588 3317
2309.24 800.731 3297
2307.98 797.573 3284
2311.61 796.116 3278
2319.44 796.116 3278
2313.08 791.259 3258
2307.34 786.644 3239
2315.08 786.644 3239
2322.83 786.644 3239
2330.58 786.644 3239
2329.66 783.73 3227
2319.27 777.658 3202
2318.2 774.744 3190
2325.83 774.744 3190
2329.07 773.287 3184
2319.07 767.458 3160
2313.38 763.086 3142
2320.89 763.086 3142
2310.62 757.258 3118
2309.89 754.586 3107
2308.37 751.672 3095
2320.26 753.129 3101
2327.68 753.129 3101
2335.1 753.129 3101
2350.82 755.8 3112
2376.45 761.629 3136
2429.56 776.201 3196
2437.2 776.201 3196
2444.85 776.201 3196
-2602.57 852.53 3476
-2594.25 852.53 3476
-2596.36 855.964 3490
-2588.01 855.964 3490
-2612.19 866.756 3534
-2603.74 866.756 3534
-2618.05 874.359 3565
-2626.36 880 3588
-2628.73 883.679 3603
-2620.11 883.679 3603
-2623.09 887.603 3619
-2614.44 887.603 3619
-2605.78 887.603 3619
-2585.65 883.679 3603
-2566.3 880 3588
-2535.63 872.397 3557
-2527.12 872.397 3557
-2502.33 866.756 3534
-2493.88 866.756 3534
-2485.43 866.756 3534
-2476.98 866.756 3534
-2463.63 865.039 3527
-2434.32 857.681 3497
-2405.84 850.568 3468
-2397.54 850.568 3468
-2389.25 850.568 3468
-2361.73 843.701 3440
-2343.93 840.267 3426
-2340.51 841.984 3433
-2332.3 841.984 3433
-2324.09 841.984 3433
-2315.88 841.984 3433
-2326.49 848.852 3461
-2318.22 848.852 3461
-2333.97 857.681 3497
-2335.58 861.36 3512
-2351.7 870.435 3549
-2343.21 870.435 3549
-2345.25 874.359 3565
-2341.32 876.076 3572
-2332.77 876.076 3572
-2324.23 876.076 3572
-2311.15 874.359 3565
-2302.63 874.359 3565
-2294.1 874.359 3565
-2295.19 878.038 3580
-2286.63 878.038 3580
-2278.07 878.038 3580
-2264.44 876.076 3572
-2255.9 876.076 3572
-2247.36 876.076 3572
-2234.43 874.359 3565
-2225.9 874.359 3565
-2217.38 874.359 3565
-2208.85 874.359 3565
-2200.33 874.359 3565
-2186.88 872.397 3557
-2178.38 872.397 3557
-2164.99 870.435 3549
-2138.88 863.322 3520
-2125.63 861.36 3512
-2117.23 861.36 3512
-2104.63 859.643 3505
-2087.27 855.964 3490
-2078.93 855.964 3490
-2070.58 855.964 3490
-2062.24 855.964 3490
-2053.89 855.964 3490
-2041.44 854.247 3483
-2033.11 854.247 3483
-2020.71 852.53 3476
-2012.4 852.53 3476
-2004.09 852.53 3476
-1999.8 854.247 3483
-1991.47 854.247 3483
-1983.14 854.247 3483
-1974.81 854.247 3483
-1966.48 854.247 3483
-1958.15 854.247 3483
-1945.91 852.53 3476
-1941.49 854.247 3483
-1933.17 854.247 3483
-1924.84 854.247 3483
-1916.51 854.247 3483
-1908.18 854.247 3483
-1907.49 857.681 3497
-1899.12 857.681 3497
-1890.76 857.681 3497
-1882.4 857.681 3497
-1874.04 857.681 3497
-1854.47 852.53 3476
-1853.59 855.964 3490
-1848.95 857.681 3497
-1840.59 857.681 3497
-1832.23 857.681 3497
-1823.86 857.681 3497
-1819.65 859.643 3505
-1814.89 861.36 3512
-1806.49 861.36 3512
-1798.09 861.36 3512
-1793.77 863.322 3520
-1796.51 868.718 3542
-1788.04 868.718 3542
-1783.09 870.435 3549
-1778.6 872.397 3557
-1774.08 874.359 3565
-1765.55 874.359 3565
-1757.03 874.359 3565
-1748.5 874.359 3565
-1739.98 874.359 3565
-1723.68 870.435 3549
-1734.04 880 3588
-1725.46 880 3588
-1716.88 880 3588
-1708.3 880 3588
-1695.93 878.038 3580
-1691.14 880 3588
-1685.85 881.717 3595
-1680.98 883.679 3603
-1672.37 883.679 3603
-1667.44 885.641 3611
-1666.16 889.565 3627
-1664.34 893.244 3642
-1655.63 893.244 3642
-1646.92 893.244 3642
-1631.47 889.565 3627
-1622.79 889.565 3627
-1599.88 881.717 3595
-1591.28 881.717 3595
-1582.69 881.717 3595
-1574.09 881.717 3595
-1513.58 866.756 3534
-1505.13 866.756 3534
-1496.67 866.756 3534
-1485.28 865.039 3527
-1476.84 865.039 3527
-1462.16 861.36 3512
-1447.56 857.681 3497
-1424.38 848.852 3461
-1416.1 848.852 3461
-1404.98 847.135 3454
-1388.23 841.984 3433
-1365.95 833.4 3398
-1363.42 836.834 3412
-1355.26 836.834 3412
-1349.86 838.551 3419
-1341.69 838.551 3419
-1333.51 838.551 3419
-1330.76 841.984 3433
-1322.55 841.984 3433
-1322.38 847.135 3454
-1316.79 848.852 3461
-1319.47 855.964 3490
-1311.13 855.964 3490
-1313.98 863.322 3520
-1316.32 870.435 3549
-1307.83 870.435 3549
-1307.77 876.076 3572
-1307.59 881.717 3595
-1310.56 889.565 3627
-1301.88 889.565 3627
-1298.56 893.244 3642
-1289.85 893.244 3642
-1281.14 893.244 3642
-1272.43 893.244 3642
-1263.72 893.244 3642
-1252.6 891.527 3635
-1238.43 887.603 3619
-1229.78 887.603 3619
-1221.12 887.603 3619
-1212.47 887.603 3619
-1203.82 887.603 3619
-1195.16 887.603 3619
-1186.51 887.603 3619
-1177.85 887.603 3619
-1169.2 887.603 3619
-1160.55 887.603 3619
-1151.89 887.603 3619
-1143.24 887.603 3619
-1132.08 885.641 3611
-1123.44 885.641 3611
-1114.81 885.641 3611
-1106.17 885.641 3611
-1097.54 885.641 3611
-1088.9 885.641 3611
-1080.27 885.641 3611
-1071.63 885.641 3611
-1067.71 889.565 3627
-1061.37 891.527 3635
-1052.68 891.527 3635
-1050.59 897.168 3658
-1048.96 903.3 3683
-1040.15 903.3 3683
-1031.35 903.3 3683
-1024.76 905.262 3691
-1015.93 905.262 3691
-1007.11 905.262 3691
-996.119 903.3 3683
-987.311 903.3 3683
-976.379 901.338 3675
-969.697 903.3 3683
-960.89 903.3 3683
-954.151 905.262 3691
-945.325 905.262 3691
-936.498 905.262 3691
-927.672 905.262 3691
-916.854 903.3 3683
-906.074 901.338 3675
-897.286 901.338 3675
-888.498 901.338 3675
-879.71 901.338 3675
-870.922 901.338 3675
-864.011 903.3 3683
-855.204 903.3 3683
-846.397 903.3 3683
-837.59 903.3 3683
-828.782 903.3 3683
-819.975 903.3 3683
-809.406 901.338 3675
-800.618 901.338 3675
-791.83 901.338 3675
-783.042 901.338 3675
-631.729 874.359 3565
-624.428 876.076 3572
-615.886 876.076 3572
-607.344 876.076 3572
-598.802 876.076 3572
-590.261 876.076 3572
-581.719 876.076 3572
-570.77 872.397 3557
-557.522 865.039 3527
-550.178 866.756 3534
-542.953 868.718 3542
-534.483 868.718 3542
-526.013 868.718 3542
-515.352 865.039 3527
-507.924 866.756 3534
-499.473 866.756 3534
-492.133 868.718 3542
-484.619 870.435 3549
-476.133 870.435 3549
-467.646 870.435 3549
-459.159 870.435 3549
-449.783 868.718 3542
-442.186 870.435 3549
-433.699 870.435 3549
-425.212 870.435 3549
-416.725 870.435 3549
-409.159 872.397 3557
-400.653 872.397 3557
-393.029 874.359 3565
-385.259 876.076 3572
-376.717 876.076 3572
-368.176 876.076 3572
-359.634 876.076 3572
-350.404 874.359 3565
-341.879 874.359 3565
-333.354 874.359 3565
-324.829 874.359 3565
-316.304 874.359 3565
-307.779 874.359 3565
-299.254 874.359 3565
-289.424 870.435 3549
-279.75 866.756 3534
-270.762 865.039 3527
-262.328 865.039 3527
-253.39 863.322 3520
-244.972 863.322 3520
-236.017 861.36 3512
-227.619 861.36 3512
-219.221 861.36 3512
-211.303 863.322 3520
-202.886 863.322 3520
-194.468 863.322 3520
-116.81 542.029 2210
-111.525 542.029 2210
-106.241 542.029 2210
-100.956 542.029 2210
-95.1517 539.086 2198
-89.4048 536.143 2186
-84.1774 536.143 2186
-78.95 536.143 2186
-73.554 534.916 2181
-68.1506 533.445 2175
-62.7758 531.973 2169
-57.5891 531.973 2169
-52.4024 531.973 2169
-47.1721 531.483 2167
-41.9901 531.483 2167
-36.8082 531.483 2167
-31.6262 531.483 2167
-26.4443 531.483 2167
-21.2329 530.747 2164
-16.0581 530.747 2164
-10.8682 530.011 2161
-5.69273 529.275 2158
-0.532296 529.275 2158
4.62814 529.275 2158
9.78857 529.275 2158
14.949 529.275 2158
20.2119 531.973 2169
25.4338 532.709 2172
30.7123 534.18 2178
35.9206 534.18 2178
41.5065 539.086 2198
46.8902 540.557 2204
52.1607 540.557 2204
57.4311 540.557 2204
62.7015 540.557 2204
144.328 876.076 3572
153.213 878.038 3580
161.773 878.038 3580
172.19 887.603 3619
181.993 893.244 3642
190.702 893.244 3642
199.412 893.244 3642
208.121 893.244 3642
568.966 942.787 3844
578.159 942.787 3844
588.726 944.994 3853
597.94 944.994 3853
607.153 944.994 3853
616.367 944.994 3853
625.581 944.994 3853
904.339 859.643 3505
932.251 878.038 3580
940.812 878.038 3580
949.373 878.038 3580
937.865 859.643 3505
946.247 859.643 3505
954.628 859.643 3505
963.01 859.643 3505
971.391 859.643 3505
975.58 855.964 3490
983.926 855.964 3490
994.261 857.681 3497
1002.62 857.681 3497
1010.99 857.681 3497
1019.35 857.681 3497
1027.71 857.681 3497
1036.07 857.681 3497
1044.44 857.681 3497
1052.8 857.681 3497
1061.16 857.681 3497
1069.52 857.681 3497
1077.89 857.681 3497
1086.25 857.681 3497
1094.61 857.681 3497
1102.97 857.681 3497
1113.88 859.643 3505
1122.26 859.643 3505
1130.64 859.643 3505
1136.42 857.681 3497
1144.78 857.681 3497
1153.15 857.681 3497
1164.17 859.643 3505
1172.55 859.643 3505
1180.93 859.643 3505
1186.6 857.681 3497
1194.96 857.681 3497
1203.32 857.681 3497
1209.26 855.964 3490
1217.6 855.964 3490
1225.95 855.964 3490
1236.77 857.681 3497
1245.13 857.681 3497
1256.36 859.643 3505
1267.27 861.36 3512
1281.12 865.039 3527
1289.55 865.039 3527
1311.97 874.359 3565
1323.09 876.076 3572
1331.63 876.076 3572
1340.17 876.076 3572
1351.73 878.038 3580
1363.33 880 3588
1371.91 880 3588
1380.49 880 3588
1382.88 876.076 3572
1379.74 868.718 3542
1388.21 868.718 3542
1382.09 859.643 3505
1387.29 857.681 3497
1390.07 854.247 3483
1383.94 845.418 3447
1392.19 845.418 3447
1380.52 833.4 3398
1380.07 828.25 3377
1379.92 823.344 3357
1387.95 823.344 3357
1390.15 819.911 3343
1389.78 815.005 3323
1392.26 811.817 3310
1400.18 811.817 3310
1399.58 806.912 3290
1404.88 805.44 3284
1410.16 803.969 3278
1409.34 799.063 3258
1417.13 799.063 3258
1422.3 797.592 3252
1427.44 796.12 3246
1432.11 794.403 3239
1439.85 794.403 3239
1447.6 794.403 3239
1455.34 794.403 3239
1463.09 794.403 3239
1474.01 796.12 3246
1481.77 796.12 3246
1489.54 796.12 3246
1497.3 796.12 3246
1505.06 796.12 3246
1509.56 794.403 3239
1517.31 794.403 3239
1525.05 794.403 3239
1532.8 794.403 3239
1540.54 794.403 3239
1548.29 794.403 3239
1550.27 791.46 3227
1551.71 788.272 3214
1559.39 788.272 3214
1564.15 786.8 3208
1563.01 782.386 3190
1567.68 780.914 3184
1575.29 780.914 3184
1576.94 777.971 3172
1572.54 772.085 3148
1565.01 764.727 3118
1555.32 756.388 3084
1562.69 756.388 3084
1555.3 749.275 3055
1518.11 727.937 2968
1495.91 713.957 2911
1502.88 713.957 2911
1494.28 706.6 2881
1491.27 701.94 2862
1487.64 697.034 2842
1489.18 694.582 2832
1495.95 694.582 2832
1495.29 691.148 2818
1502.03 691.148 2818
1506.09 689.922 2813
1512.82 689.922 2813
1511.99 686.488 2799
1515.97 685.262 2794
1520.47 684.281 2790
1527.14 684.281 2790
1533.81 684.281 2790
1532.75 680.847 2776
1539.39 680.847 2776
1546.03 680.847 2776
1552.67 680.847 2776
1559.31 680.847 2776
1568.2 681.828 2780
1577.68 683.054 2785
1592.3 686.488 2799
1599 686.488 2799
1605.69 686.488 2799
1612.38 686.488 2799
1619.08 686.488 2799
2031.39 854.247 3483
2056.71 861.36 3512
2065.1 861.36 3512
2082.36 865.039 3527
2094.94 866.756 3534
2108.16 868.718 3542
2116.63 868.718 3542
2125.1 868.718 3542
2133.57 868.718 3542
2142.04 868.718 3542
2145.65 866.756 3534
2149.83 865.039 3527
2158.27 865.039 3527
2166.7 865.039 3527
2165.88 861.36 3512
2169.95 859.643 3505
2173.36 857.681 3497
2168.62 852.53 3476
2176.93 852.53 3476
2158.21 841.984 3433
2144.33 833.4 3398
2148.02 831.683 3391
2156.13 831.683 3391
2159.77 829.966 3384
2158.9 826.533 3370
2166.96 826.533 3370
2175.02 826.533 3370
2178.54 824.816 3363
2169.68 818.439 3337
2155.47 810.1 3303
2163.37 810.1 3303
2171.27 810.1 3303
2175.21 808.629 3297
2183.09 808.629 3297
2190.97 808.629 3297
2212.2 813.534 3317
2220.13 813.534 3317
2232.09 815.005 3323
2258.24 821.627 3350
2279.78 826.533 3370
2287.84 826.533 3370
2295.9 826.533 3370
2303.95 826.533 3370
2312.01 826.533 3370
2320.07 826.533 3370
2319.15 823.344 3357
2322.32 821.627 3350
2330.34 821.627 3350
2310.43 811.817 3310
2300.13 805.44 3284
2303.77 803.969 3278
2306.67 802.252 3271
2314.49 802.252 3271
2308.82 797.592 3252
2307.34 794.403 3239
2310.8 792.932 3233
2318.53 792.932 3233
2326.26 792.932 3233
2315.94 786.8 3208
2314.92 783.857 3196
2313.84 780.914 3184
2321.46 780.914 3184
2320.29 777.971 3172
2310.26 772.085 3148
2304.54 767.67 3130
2312.02 767.67 3130
2310.62 764.727 3118
2313.61 763.255 3112
2317.32 762.029 3107
2324.75 762.029 3107
2332.18 762.029 3107
2339.61 762.029 3107
2350.82 763.255 3112
2371.9 767.67 3130
2411.32 777.971 3172
2418.9 777.971 3172
2426.49 777.971 3172
-2570.37 850.208 3433
-2562.16 850.208 3433
-2553.95 850.208 3433
-2577.63 860.857 3476
-2574.49 862.591 3483
-2566.16 862.591 3483
-2579.13 869.773 3512
-2603.67 880.917 3557
-2601 882.899 3565
-2592.48 882.899 3565
-2600.62 888.595 3588
-2592.04 888.595 3588
-2583.46 888.595 3588
-2574.88 888.595 3588
-2544.13 880.917 3557
-2519.23 875.221 3534
-2510.78 875.221 3534
-2476.13 866.058 3497
-2478.35 869.773 3512
-2469.95 869.773 3512
-2461.56 869.773 3512
-2442.68 866.058 3497
-2424.57 862.591 3483
-2405.84 858.876 3468
-2397.54 858.876 3468
-2379.61 855.409 3454
-2356.93 850.208 3433
-2334.35 845.007 3412
-2335.74 848.474 3426
-2332.3 850.208 3433
-2324.09 850.208 3433
-2315.88 850.208 3433
-2317.08 853.675 3447
-2313.53 855.409 3454
-2305.27 855.409 3454
-2330.93 868.039 3505
-2341.76 875.221 3534
-2333.31 875.221 3534
-2334.73 878.936 3549
-2336.73 882.899 3565
-2328.2 882.899 3565
-2319.68 882.899 3565
-2311.15 882.899 3565
-2273.56 871.754 3520
-2274.15 875.221 3534
-2285.58 882.899 3565
-2277.05 882.899 3565
-2268.53 882.899 3565
-2260 882.899 3565
-2251.48 882.899 3565
-2242.95 882.899 3565
-2224.4 878.936 3549
-2215.91 878.936 3549
-2212.4 880.917 3557
-2203.9 880.917 3557
-2195.39 880.917 3557
-2186.88 880.917 3557
-2178.38 880.917 3557
-2155.84 875.221 3534
-2138.88 871.754 3520
-2130.47 871.754 3520
-2122.05 871.754 3520
-2104.63 868.039 3505
-2091.46 866.058 3497
-2078.93 864.324 3490
-2074.73 866.058 3497
-2066.37 866.058 3497
-2058.01 866.058 3497
-2045.54 864.324 3490
-2037.2 864.324 3490
-2024.78 862.591 3483
-2012.4 860.857 3476
-2008.13 862.591 3483
-2007.84 866.058 3497
-1999.47 866.058 3497
-1991.11 866.058 3497
-1982.75 866.058 3497
-1974.39 866.058 3497
-1958.15 862.591 3483
-1945.91 860.857 3476
-1933.13 858.876 3468
-1933.17 862.591 3483
-1924.84 862.591 3483
-1916.51 862.591 3483
-1904.34 860.857 3476
-1907.49 866.058 3497
-1899.12 866.058 3497
-1890.76 866.058 3497
-1882.4 866.058 3497
-1874.04 866.058 3497
-1850.2 858.876 3468
-1846.16 860.857 3476
-1845.25 864.324 3490
-1836.9 864.324 3490
-1828.56 864.324 3490
-1820.21 864.324 3490
-1815.5 866.058 3497
-1807.14 866.058 3497
-1798.78 866.058 3497
-1794.51 868.039 3505
-1793.77 871.754 3520
-1796.51 877.203 3542
-1788.04 877.203 3542
-1783.09 878.936 3549
-1778.6 880.917 3557
-1774.08 882.899 3565
-1765.55 882.899 3565
-1757.03 882.899 3565
-1748.5 882.899 3565
-1739.98 882.899 3565
-1731.45 882.899 3565
-1730.18 886.614 3580
-1721.62 886.614 3580
-1713.06 886.614 3580
-1704.5 886.614 3580
-1688.83 882.899 3565
-1687.37 886.614 3580
-1678.81 886.614 3580
-1670.25 886.614 3580
-1513.58 875.221 3534
-1505.13 875.221 3534
-1496.67 875.221 3534
-1485.28 873.488 3527
-1476.84 873.488 3527
-1455.92 866.058 3497
-1444.66 864.324 3490
-1421.5 855.409 3454
-1413.24 855.409 3454
-1396.44 850.208 3433
-1382.56 846.741 3419
-1365.95 841.54 3398
-1363.42 845.007 3412
-1355.26 845.007 3412
-1347.1 845.007 3412
-1338.94 845.007 3412
-1333.51 846.741 3419
-1325.33 846.741 3419
-1317.16 846.741 3419
-1322.38 855.409 3454
-1316.79 857.142 3461
-1319.47 864.324 3490
-1311.13 864.324 3490
-1310.99 869.773 3512
-1310.76 875.221 3534
-1302.3 875.221 3534
-1307.77 884.632 3572
-1302.13 886.614 3580
-1307.67 896.272 3619
-1299.01 896.272 3619
-1298.56 901.968 3642
-1289.85 901.968 3642
-1281.14 901.968 3642
-1272.43 901.968 3642
-1263.72 901.968 3642
-1252.6 900.235 3635
-1238.43 896.272 3619
-1229.78 896.272 3619
-1218.43 894.291 3611
-1209.79 894.291 3611
-1201.16 894.291 3611
-1192.52 894.291 3611
-1183.89 894.291 3611
-1175.25 894.291 3611
-1166.62 894.291 3611
-1157.98 894.291 3611
-1149.35 894.291 3611
-1140.71 894.291 3611
-1129.57 892.31 3603
-1120.95 892.31 3603
-1109.87 890.328 3595
-1103.72 892.31 3603
-1095.1 892.31 3603
-1086.49 892.31 3603
-1077.87 892.31 3603
-1069.26 892.31 3603
-1063 894.291 3611
-1061.37 900.235 3635
-1052.68 900.235 3635
-1048.29 903.95 3650
-1048.96 912.122 3683
-1040.15 912.122 3683
-1031.35 912.122 3683
-1024.76 914.104 3691
-1015.93 914.104 3691
-1007.11 914.104 3691
-996.119 912.122 3683
-987.311 912.122 3683
-976.379 910.141 3675
-969.697 912.122 3683
-960.89 912.122 3683
-954.151 914.104 3691
-945.325 914.104 3691
-936.498 914.104 3691
-927.672 914.104 3691
-916.854 912.122 3683
-906.074 910.141 3675
-897.286 910.141 3675
-888.498 910.141 3675
-879.71 910.141 3675
-870.922 910.141 3675
-864.011 912.122 3683
-855.204 912.122 3683
-846.397 912.122 3683
-837.59 912.122 3683
-828.782 912.122 3683
-819.975 912.122 3683
-807.644 908.16 3667
-798.875 908.16 3667
-790.106 908.16 3667
-781.337 908.16 3667
-628.894 878.936 3549
-620.407 878.936 3549
-611.92 878.936 3549
-603.434 878.936 3549
-596.288 880.917 3557
-587.782 880.917 3557
-579.276 880.917 3557
-569.487 878.936 3549
-557.522 873.488 3527
-549.088 873.488 3527
-540.654 873.488 3527
-532.22 873.488 3527
-523.786 873.488 3527
-515.352 873.488 3527
-506.918 873.488 3527
-498.483 873.488 3527
-491.022 875.221 3534
-484.619 878.936 3549
-476.133 878.936 3549
-467.646 878.936 3549
-459.159 878.936 3549
-449.783 877.203 3542
-442.186 878.936 3549
-433.699 878.936 3549
-425.212 878.936 3549
-416.725 878.936 3549
-409.159 880.917 3557
-400.653 880.917 3557
-393.029 882.899 3565
-385.259 884.632 3572
-376.717 884.632 3572
-368.176 884.632 3572
-359.634 884.632 3572
-350.404 882.899 3565
-341.879 882.899 3565
-333.354 882.899 3565
-324.829 882.899 3565
-316.304 882.899 3565
-307.779 882.899 3565
-299.254 882.899 3565
-289.424 878.936 3549
-279.75 875.221 3534
-270.762 873.488 3527
-262.328 873.488 3527
-253.39 871.754 3520
-244.972 871.754 3520
-236.017 869.773 3512
-227.619 869.773 3512
-219.221 869.773 3512
-210.823 869.773 3512
-127.034 545.837 2204
-121.929 546.58 2207
-116.652 546.58 2207
-111.374 546.58 2207
-105.952 545.837 2204
-100.682 545.837 2204
-94.8919 542.865 2192
-89.4048 541.379 2186
-83.9849 540.141 2181
-78.7694 540.141 2181
-73.554 540.141 2181
-68.1506 538.655 2175
-62.7758 537.169 2169
-57.5891 537.169 2169
-52.4024 537.169 2169
-47.1721 536.674 2167
-41.9901 536.674 2167
-36.8082 536.674 2167
-31.6262 536.674 2167
-26.4443 536.674 2167
-21.2329 535.931 2164
-16.0581 535.931 2164
-10.8682 535.188 2161
-5.69273 534.445 2158
-0.532296 534.445 2158
4.62814 534.445 2158
9.78857 534.445 2158
14.949 534.445 2158
20.2119 537.169 2169
25.4338 537.912 2172
30.7123 539.398 2178
35.9206 539.398 2178
41.5065 544.351 2198
46.8902 545.837 2204
52.492 549.304 2218
57.7959 549.304 2218
63.2705 550.79 2224
68.5888 550.79 2224
73.907 550.79 2224
144.328 884.632 3572
153.213 886.614 3580
161.773 886.614 3580
172.19 896.272 3619
181.993 901.968 3642
190.702 901.968 3642
199.412 901.968 3642
208.121 901.968 3642
260.936 821.48 3317
268.868 821.48 3317
276.8 821.48 3317
284.732 821.48 3317
568.966 951.995 3844
578.159 951.995 3844
588.726 954.224 3853
597.94 954.224 3853
607.153 954.224 3853
616.367 954.224 3853
625.581 954.224 3853
904.339 868.039 3505
932.251 886.614 3580
940.812 886.614 3580
949.373 886.614 3580
937.865 868.039 3505
946.247 868.039 3505
954.628 868.039 3505
963.01 868.039 3505
971.391 868.039 3505
975.58 864.324 3490
983.926 864.324 3490
994.261 866.058 3497
1002.62 866.058 3497
1010.99 866.058 3497
1019.35 866.058 3497
1027.71 866.058 3497
1036.07 866.058 3497
1044.44 866.058 3497
1052.8 866.058 3497
1061.16 866.058 3497
1069.52 866.058 3497
1077.89 866.058 3497
1086.25 866.058 3497
