ply
format ascii 1.0
comment File generated
element vertex 2255
property float x
property float y
property float z
end_header
-410.608 1117.02 2227
-404.736 1115.52 2224
-396.365 1106.99 2207
-392.15 1110 2213
-386.858 1110 2213
-381.567 1110 2213
-376.275 1110 2213
-369.474 1105.49 2204
-364.203 1105.49 2204
-358.933 1105.49 2204
-352.7 1102.48 2198
-347.444 1102.48 2198
-342.188 1102.48 2198
-336.932 1102.48 2198
-331.223 1100.97 2195
-325.974 1100.97 2195
-320.725 1100.97 2195
-315.476 1100.97 2195
-311.499 1105.49 2204
-307.062 1108.49 2210
-304.099 1117.02 2227
-298.773 1117.02 2227
-293.843 1118.53 2230
-288.511 1118.53 2230
-283.178 1118.53 2230
-277.846 1118.53 2230
-272.513 1118.53 2230
-267.54 1120.03 2233
-262.2 1120.03 2233
-256.86 1120.03 2233
-251.52 1120.03 2233
-246.842 1123.04 2239
-241.488 1123.04 2239
-236.134 1123.04 2239
-230.78 1123.04 2239
-225.728 1124.55 2242
-221.546 1130.56 2254
-216.156 1130.56 2254
-210.766 1130.56 2254
-205.376 1130.56 2254
-199.986 1130.56 2254
-194.596 1130.56 2254
-188.954 1129.06 2251
-182.593 1123.04 2239
-177.001 1121.54 2236
-171.654 1121.54 2236
-163.927 1105.49 2204
-158.225 1102.48 2198
-152.551 1099.47 2192
-147.309 1099.47 2192
-141.549 1095.45 2184
-136.326 1095.45 2184
-131.224 1096.46 2186
-125.997 1096.46 2186
-120.769 1096.46 2186
-115.859 1099.47 2192
-110.769 1100.97 2195
-105.52 1100.97 2195
-100.271 1100.97 2195
-95.0218 1100.97 2195
-89.2003 1093.95 2181
-83.9849 1093.95 2181
-78.7694 1093.95 2181
-73.554 1093.95 2181
-68.4953 1096.46 2186
-63.2679 1096.46 2186
-58.0405 1096.46 2186
-52.8131 1096.46 2186
-48.1734 1110 2213
-42.8815 1110 2213
-37.5895 1110 2213
-32.2976 1110 2213
87.4375 1085.42 2164
92.6123 1085.42 2164
97.787 1085.42 2164
102.962 1085.42 2164
108.137 1085.42 2164
113.311 1085.42 2164
118.486 1085.42 2164
123.661 1085.42 2164
128.479 1082.41 2158
133.639 1082.41 2158
138.799 1082.41 2158
143.626 1079.9 2153
148.153 1075.39 2144
153.28 1075.39 2144
158.407 1075.39 2144
163.534 1075.39 2144
168.661 1075.39 2144
205.003 1105.49 2204
210.274 1105.49 2204
215.837 1106.99 2207
222.818 1115.52 2224
228.444 1117.02 2227
233.77 1117.02 2227
239.739 1120.03 2233
245.079 1120.03 2233
250.755 1121.54 2236
256.102 1121.54 2236
261.449 1121.54 2236
267.154 1123.04 2239
273.238 1126.05 2245
278.607 1126.05 2245
283.975 1126.05 2245
290.504 1130.56 2254
297.6 1137.08 2267
303.022 1137.08 2267
308.851 1138.59 2270
315.11 1141.6 2276
320.552 1141.6 2276
325.995 1141.6 2276
332.311 1144.61 2282
337.768 1144.61 2282
343.225 1144.61 2282
348.682 1144.61 2282
354.139 1144.61 2282
359.596 1144.61 2282
365.053 1144.61 2282
370.51 1144.61 2282
375.967 1144.61 2282
381.424 1144.61 2282
386.881 1144.61 2282
392.338 1144.61 2282
397.795 1144.61 2282
402.722 1143.1 2279
408.171 1143.1 2279
413.621 1143.1 2279
418.519 1141.6 2276
423.403 1140.09 2273
428.272 1138.59 2270
433.701 1138.59 2270
439.129 1138.59 2270
444.557 1138.59 2270
449.986 1138.59 2270
455.414 1138.59 2270
460.233 1137.08 2267
465.038 1135.58 2264
470.452 1135.58 2264
475.866 1135.58 2264
481.28 1135.58 2264
487.983 1138.59 2270
493.412 1138.59 2270
499.499 1140.09 2273
504.935 1140.09 2273
510.37 1140.09 2273
515.805 1140.09 2273
521.241 1140.09 2273
526.676 1140.09 2273
532.112 1140.09 2273
537.547 1140.09 2273
542.266 1138.59 2270
547.694 1138.59 2270
552.391 1137.08 2267
556.336 1134.08 2261
561.743 1134.08 2261
567.15 1134.08 2261
570.784 1130.56 2254
576.174 1130.56 2254
582.338 1132.07 2257
587.735 1132.07 2257
593.132 1132.07 2257
598.529 1132.07 2257
603.926 1132.07 2257
609.324 1132.07 2257
612.27 1127.55 2248
616.821 1126.05 2245
618.864 1120.03 2233
625.881 1123.04 2239
633.772 1127.55 2248
639.148 1127.55 2248
644.523 1127.55 2248
649.899 1127.55 2248
655.275 1127.55 2248
660.65 1127.55 2248
665.137 1126.05 2245
670.506 1126.05 2245
675.874 1126.05 2245
679.422 1123.04 2239
683.859 1121.54 2236
689.206 1121.54 2236
694.552 1121.54 2236
698.96 1120.03 2233
704.3 1120.03 2233
708.687 1118.53 2230
714.019 1118.53 2230
719.352 1118.53 2230
724.684 1118.53 2230
730.017 1118.53 2230
735.35 1118.53 2230
740.682 1118.53 2230
746.015 1118.53 2230
748.315 1114.01 2221
752.608 1112.51 2218
757.912 1112.51 2218
763.216 1112.51 2218
770.599 1115.52 2224
778.01 1118.53 2230
785.451 1121.54 2236
790.798 1121.54 2236
797.213 1123.04 2239
805.793 1127.55 2248
811.169 1127.55 2248
816.544 1127.55 2248
824.114 1130.56 2254
832.08 1134.08 2261
839.709 1137.08 2267
845.13 1137.08 2267
852.802 1140.09 2273
861.636 1144.61 2282
870.892 1149.62 2292
876.373 1149.62 2292
884.163 1152.63 2298
889.658 1152.63 2298
895.153 1152.63 2298
900.648 1152.63 2298
906.144 1152.63 2298
910.449 1151.13 2295
915.937 1151.13 2295
921.425 1151.13 2295
925.701 1149.62 2292
932.401 1151.13 2295
939.115 1152.63 2298
944.61 1152.63 2298
950.105 1152.63 2298
956.848 1154.14 2301
963.605 1155.64 2304
969.115 1155.64 2304
974.624 1155.64 2304
980.134 1155.64 2304
984.36 1154.14 2301
989.862 1154.14 2301
995.365 1154.14 2301
1000.87 1154.14 2301
1006.37 1154.14 2301
1011.87 1154.14 2301
1010.3 1146.11 2285
1009.1 1138.59 2270
1014.52 1138.59 2270
1021.3 1140.09 2273
1028.09 1141.6 2276
1033.53 1141.6 2276
1038.98 1141.6 2276
1044.42 1141.6 2276
1049.86 1141.6 2276
1055.3 1141.6 2276
1057.95 1138.59 2270
1063.38 1138.59 2270
1068.81 1138.59 2270
1072.82 1137.08 2267
1078.24 1137.08 2267
1082.22 1135.58 2264
1087.64 1135.58 2264
1089.67 1132.07 2257
1095.07 1132.07 2257
1100.47 1132.07 2257
1105.86 1132.07 2257
1113.23 1134.08 2261
1118.64 1134.08 2261
1124.04 1134.08 2261
1129.45 1134.08 2261
1136.36 1135.58 2264
1141.78 1135.58 2264
1147.19 1135.58 2264
1152.6 1135.58 2264
1158.02 1135.58 2264
1158.29 1130.56 2254
1160.59 1127.55 2248
1164.41 1126.05 2245
1169.77 1126.05 2245
1172 1123.04 2239
1174.2 1120.03 2233
1181.13 1121.54 2236
1188.06 1123.04 2239
1193.42 1123.04 2239
1198.77 1123.04 2239
1208.97 1127.55 2248
1217.58 1130.56 2254
1226.77 1134.08 2261
1232.18 1134.08 2261
1237.58 1134.08 2261
1244.64 1135.58 2264
1250.05 1135.58 2264
1255.47 1135.58 2264
1256.98 1132.07 2257
1260.7 1130.56 2254
1266.09 1130.56 2254
1263.02 1123.04 2239
1266.68 1121.54 2236
1278.85 1127.55 2248
1285.94 1129.06 2251
1294.76 1132.07 2257
1300.16 1132.07 2257
1307.87 1134.08 2261
1313.28 1134.08 2261
1323.94 1138.59 2270
1329.36 1138.59 2270
1340.08 1143.1 2279
1349.08 1146.11 2285
1354.54 1146.11 2285
1360 1146.11 2285
1365.47 1146.11 2285
1369.13 1144.61 2282
1386.03 1154.14 2301
1391.54 1154.14 2301
1397.04 1154.14 2301
1402.54 1154.14 2301
1408.04 1154.14 2301
1413.55 1154.14 2301
1419.05 1154.14 2301
1424.55 1154.14 2301
1430.05 1154.14 2301
1435.56 1154.14 2301
1441.06 1154.14 2301
1436.5 1146.11 2285
1440.07 1144.61 2282
1445.53 1144.61 2282
1447.17 1141.6 2276
1446.87 1137.08 2267
1434.35 1123.04 2239
1439.71 1123.04 2239
1431.51 1112.51 2218
1436.81 1112.51 2218
1434.96 1106.99 2207
1430.45 1099.47 2192
1435.7 1099.47 2192
1431.73 1092.44 2178
1431 1087.93 2169
1432.88 1085.42 2164
1441.38 1087.93 2169
1446.56 1087.93 2169
1455.77 1090.94 2175
1465 1093.95 2181
1472.24 1095.45 2184
1477.46 1095.45 2184
1484.04 1096.46 2186
1497.44 1102.48 2198
1514.32 1111 2215
1519.62 1111 2215
1539.37 1121.54 2236
1557.15 1130.56 2254
1562.54 1130.56 2254
1567.93 1130.56 2254
1573.32 1130.56 2254
1592.02 1140.09 2273
1597.46 1140.09 2273
1618.41 1151.13 2295
1623.89 1151.13 2295
1635.77 1155.64 2304
1641.28 1155.64 2304
1648.94 1157.15 2307
1654.45 1157.15 2307
1659.97 1157.15 2307
1665.49 1157.15 2307
1680.42 1163.67 2320
1685.97 1163.67 2320
1698.8 1168.68 2330
1704.38 1168.68 2330
1709.95 1168.68 2330
1715.52 1168.68 2330
1721.09 1168.68 2330
1717.03 1162.16 2317
1722.57 1162.16 2317
1728.11 1162.16 2317
1696.24 1137.08 2267
1685.15 1126.05 2245
1679.22 1118.53 2230
1684.55 1118.53 2230
1683.07 1114.01 2221
1682.3 1110 2213
1709.7 1124.55 2242
1715.06 1124.55 2242
-1622.49 1092.12 2167
-1617.3 1092.12 2167
-1612.12 1092.12 2167
-1606.94 1092.12 2167
-1603.24 1093.13 2169
-1598.05 1093.13 2169
-1592.86 1093.13 2169
-1575.96 1085.06 2153
-1578.84 1090.61 2164
-1573.67 1090.61 2164
-1574.29 1094.64 2172
-1577.77 1100.69 2184
-1572.54 1100.69 2184
-1567.32 1100.69 2184
-1551.37 1093.13 2169
-1540.48 1089.09 2161
-1535.31 1089.09 2161
-1530.14 1089.09 2161
-1532.74 1094.64 2172
-1541.61 1104.72 2192
-1542.68 1109.25 2201
-1537.41 1109.25 2201
-1538.42 1113.79 2210
-1536.6 1116.31 2215
-1547.9 1128.4 2239
-1542.54 1128.4 2239
-1537.19 1128.4 2239
-1531.83 1128.4 2239
-1530.57 1131.43 2245
-1525.2 1131.43 2245
-1519.83 1131.43 2245
-1514.46 1131.43 2245
-1509.1 1131.43 2245
-1503.73 1131.43 2245
-1496.36 1129.92 2242
-1487 1126.89 2236
-1481.66 1126.89 2236
-1474.33 1125.38 2233
-1463.07 1120.84 2224
-1453.82 1117.82 2218
-1448.51 1117.82 2218
-1443.21 1117.82 2218
-1434.67 1115.3 2213
-1425.5 1112.28 2207
-1425.37 1116.31 2215
-1420.07 1116.31 2215
-1414.77 1116.31 2215
-1411.39 1117.82 2218
-1411.79 1122.36 2227
-1406.46 1122.36 2227
-1401.14 1122.36 2227
-1395.81 1122.36 2227
-1390.49 1122.36 2227
-1379.56 1117.82 2218
-1363.73 1109.25 2201
-1356.61 1107.74 2198
-1360.58 1115.3 2213
-1355.29 1115.3 2213
-1360.36 1123.87 2230
-1373.87 1139.49 2261
-1375.72 1145.54 2273
-1370.29 1145.54 2273
-1364.85 1145.54 2273
-1359.42 1145.54 2273
-1353.98 1145.54 2273
-1344.99 1142.52 2267
-1323.02 1128.4 2239
-1312.37 1123.87 2230
-1307.04 1123.87 2230
-1273.1 1099.17 2181
-1254.52 1087.58 2158
-1241.25 1080.53 2144
-1236.12 1080.53 2144
-1231 1080.53 2144
-1225.87 1080.53 2144
-1220.74 1080.53 2144
-1215.62 1080.53 2144
-1210.49 1080.53 2144
-1199.18 1074.98 2133
-1194.08 1074.98 2133
-1188.98 1074.98 2133
-1183.88 1074.98 2133
-1174.36 1070.95 2125
-1164.87 1066.92 2117
-1153.78 1061.38 2106
-1153.11 1065.41 2114
-1148.06 1065.41 2114
-1159.22 1080.53 2144
-1158.94 1085.06 2153
-1153.79 1085.06 2153
-1148.64 1085.06 2153
-1149.33 1090.61 2164
-1148.39 1094.64 2172
-1147.93 1099.17 2181
-1142.72 1099.17 2181
-1140.11 1101.69 2186
-1134.88 1101.69 2186
-1129.66 1101.69 2186
-1123.4 1100.69 2184
-1118.18 1100.69 2184
-1111.43 1099.17 2181
-1106.21 1099.17 2181
-1100.99 1099.17 2181
-1104.32 1107.74 2198
-1100.56 1109.25 2201
-1095.3 1109.25 2201
-1090.04 1109.25 2201
-1084.77 1109.25 2201
-1079.51 1109.25 2201
-1074.25 1109.25 2201
-1068.98 1109.25 2201
-1063.72 1109.25 2201
-1050.28 1100.69 2184
-1045.06 1100.69 2184
-1039.84 1100.69 2184
-1031.77 1097.66 2178
-1025.15 1096.15 2175
-1021.36 1097.66 2178
-1016.15 1097.66 2178
-1016.05 1103.21 2189
-1013.58 1106.23 2195
-1013.84 1112.28 2207
-1008.57 1112.28 2207
-1003.29 1112.28 2207
-998.012 1112.28 2207
-992.734 1112.28 2207
-987.457 1112.28 2207
-980.844 1110.77 2204
-974.246 1109.25 2201
-968.982 1109.25 2201
-956.276 1100.69 2184
-949.747 1099.17 2181
-944.531 1099.17 2181
-941.469 1101.69 2186
-936.242 1101.69 2186
-931.014 1101.69 2186
-928.328 1104.72 2192
-925.613 1107.74 2198
-920.357 1107.74 2198
-915.101 1107.74 2198
-911.087 1109.25 2201
-905.823 1109.25 2201
-900.56 1109.25 2201
-894.076 1107.74 2198
-888.82 1107.74 2198
-879.946 1103.21 2189
-874.712 1103.21 2189
-869.477 1103.21 2189
-862.269 1100.69 2184
-857.831 1101.69 2186
-856.114 1106.23 2195
-850.865 1106.23 2195
-849.083 1110.77 2204
-843.813 1110.77 2204
-838.542 1110.77 2204
-833.272 1110.77 2204
-830.256 1113.79 2210
-831.317 1122.36 2227
-825.991 1122.36 2227
-820.666 1122.36 2227
-817.537 1125.38 2233
-812.197 1125.38 2233
-806.858 1125.38 2233
-799.364 1122.36 2227
-794.039 1122.36 2227
-788.713 1122.36 2227
-783.388 1122.36 2227
-778.062 1122.36 2227
-772.737 1122.36 2227
-767.411 1122.36 2227
-762.086 1122.36 2227
-756.761 1122.36 2227
-752.448 1123.87 2230
-748.12 1125.38 2233
-742.78 1125.38 2233
-737.44 1125.38 2233
-733.084 1126.89 2236
-727.737 1126.89 2236
-722.39 1126.89 2236
-717.043 1126.89 2236
-708.832 1122.36 2227
-703.506 1122.36 2227
-699.121 1123.87 2230
-693.789 1123.87 2230
-689.382 1125.38 2233
-684.043 1125.38 2233
-678.703 1125.38 2233
-672.458 1123.87 2230
-667.126 1123.87 2230
-663.574 1126.89 2236
-659.993 1129.92 2242
-654.632 1129.92 2242
-650.139 1131.43 2245
-644.771 1131.43 2245
-639.402 1131.43 2245
-634.034 1131.43 2245
-628.665 1131.43 2245
-622.464 1129.92 2242
-617.103 1129.92 2242
-611.741 1129.92 2242
-602.323 1122.36 2227
-596.998 1122.36 2227
-591.672 1122.36 2227
-586.347 1122.36 2227
-579.456 1119.33 2221
-572.077 1115.3 2213
-564.48 1110.77 2204
-559.971 1112.28 2207
-554.693 1112.28 2207
-549.415 1112.28 2207
-544.138 1112.28 2207
-538.86 1112.28 2207
-531.407 1107.74 2198
-526.151 1107.74 2198
-524.449 1115.3 2213
-519.157 1115.3 2213
-513.865 1115.3 2213
-508.573 1115.3 2213
-501.917 1112.28 2207
-497.99 1115.3 2213
-492.698 1115.3 2213
-487.406 1115.3 2213
-482.114 1115.3 2213
-476.822 1115.3 2213
-471.53 1115.3 2213
-469.187 1122.36 2227
-464.487 1123.87 2230
-459.154 1123.87 2230
-453.822 1123.87 2230
-448.489 1123.87 2230
-443.156 1123.87 2230
-437.824 1123.87 2230
-430.746 1119.33 2221
-425.435 1119.33 2221
-420.123 1119.33 2221
-414.252 1117.82 2218
-408.948 1117.82 2218
-401.642 1112.28 2207
-395.287 1109.25 2201
-389.492 1107.74 2198
-384.236 1107.74 2198
-378.98 1107.74 2198
-373.724 1107.74 2198
-367.965 1106.23 2195
-362.716 1106.23 2195
-356.002 1101.69 2186
-350.774 1101.69 2186
-345.547 1101.69 2186
-340.319 1101.69 2186
-335.092 1101.69 2186
-329.563 1100.69 2184
-323.004 1096.15 2175
-317.803 1096.15 2175
-312.602 1096.15 2175
-308.672 1100.69 2184
-304.145 1103.21 2189
-300.958 1110.77 2204
-295.688 1110.77 2204
-291.603 1115.3 2213
-287.734 1120.84 2224
-282.416 1120.84 2224
-277.098 1120.84 2224
-271.78 1120.84 2224
-266.821 1122.36 2227
-261.495 1122.36 2227
-256.86 1125.38 2233
-251.52 1125.38 2233
-246.842 1128.4 2239
-241.488 1128.4 2239
-236.134 1128.4 2239
-230.78 1128.4 2239
-225.728 1129.92 2242
-221.546 1135.96 2254
-216.156 1135.96 2254
-210.766 1135.96 2254
-205.376 1135.96 2254
-199.986 1135.96 2254
-194.596 1135.96 2254
-188.954 1134.45 2251
-182.593 1128.4 2239
-177.001 1126.89 2236
-171.654 1126.89 2236
-163.927 1110.77 2204
-158.225 1107.74 2198
-152.551 1104.72 2192
-147.309 1104.72 2192
-141.679 1101.69 2186
-136.451 1101.69 2186
-131.224 1101.69 2186
-125.997 1101.69 2186
-120.769 1101.69 2186
-116.176 1107.74 2198
-110.92 1107.74 2198
-105.664 1107.74 2198
-100.408 1107.74 2198
-95.1517 1107.74 2198
-89.5275 1103.21 2189
-84.2929 1103.21 2189
-79.0584 1103.21 2189
-73.8238 1103.21 2189
-68.5893 1103.21 2189
-63.2679 1101.69 2186
-58.6777 1113.79 2210
-53.3929 1113.79 2210
-48.217 1116.31 2215
-42.9202 1116.31 2215
-37.6235 1116.31 2215
-32.3268 1116.31 2215
-27.03 1116.31 2215
87.7607 1094.64 2172
92.9546 1094.64 2172
98.1485 1094.64 2172
103.2 1093.13 2169
108.287 1092.12 2167
113.468 1092.12 2167
118.486 1090.61 2164
123.661 1090.61 2164
128.479 1087.58 2158
133.639 1087.58 2158
138.799 1087.58 2158
143.626 1085.06 2153
148.775 1085.06 2153
153.923 1085.06 2153
159.219 1086.07 2155
164.373 1086.07 2155
170.234 1090.61 2164
175.652 1092.12 2167
180.834 1092.12 2167
186.016 1092.12 2167
198.917 1106.23 2195
205.003 1110.77 2204
210.274 1110.77 2204
215.837 1112.28 2207
222.818 1120.84 2224
228.444 1122.36 2227
233.77 1122.36 2227
239.739 1125.38 2233
245.079 1125.38 2233
250.755 1126.89 2236
256.102 1126.89 2236
261.449 1126.89 2236
266.796 1126.89 2236
272.508 1128.4 2239
277.862 1128.4 2239
283.975 1131.43 2245
290.504 1135.96 2254
295.894 1135.96 2254
301.284 1135.96 2254
308.443 1142.52 2267
313.864 1142.52 2267
320.13 1145.54 2273
325.565 1145.54 2273
331.438 1147.05 2276
336.88 1147.05 2276
342.323 1147.05 2276
347.307 1145.54 2273
352.742 1145.54 2273
358.178 1145.54 2273
363.613 1145.54 2273
368.562 1144.03 2270
373.99 1144.03 2270
379.418 1144.03 2270
384.846 1144.03 2270
390.275 1144.03 2270
395.703 1144.03 2270
400.601 1142.52 2267
405.485 1141 2264
410.899 1141 2264
416.313 1141 2264
420.423 1137.48 2257
425.82 1137.48 2257
433.128 1142.52 2267
438.549 1142.52 2267
443.97 1142.52 2267
447.408 1137.48 2257
452.806 1137.48 2257
457.594 1135.96 2254
462.984 1135.96 2254
467.75 1134.45 2251
473.133 1134.45 2251
478.516 1134.45 2251
486.693 1141 2264
492.107 1141 2264
498.181 1142.52 2267
503.602 1142.52 2267
509.023 1142.52 2267
514.444 1142.52 2267
519.865 1142.52 2267
525.286 1142.52 2267
530.707 1142.52 2267
536.128 1142.52 2267
540.116 1139.49 2261
545.523 1139.49 2261
550.929 1139.49 2261
553.876 1134.45 2251
559.258 1134.45 2251
564.641 1134.45 2251
570.024 1134.45 2251
574.64 1132.94 2248
580.016 1132.94 2248
585.391 1132.94 2248
590.767 1132.94 2248
596.143 1132.94 2248
601.518 1132.94 2248
606.894 1132.94 2248
610.635 1129.92 2242
613.524 1125.38 2233
617.201 1122.36 2227
624.203 1125.38 2233
629.543 1125.38 2233
634.883 1125.38 2233
640.223 1125.38 2233
647.297 1128.4 2239
652.651 1128.4 2239
658.005 1128.4 2239
663.36 1128.4 2239
668.714 1128.4 2239
674.068 1128.4 2239
676.691 1123.87 2230
682.941 1125.38 2233
688.281 1125.38 2233
693.621 1125.38 2233
698.96 1125.38 2233
703.354 1123.87 2230
706.78 1120.84 2224
712.098 1120.84 2224
714.513 1116.31 2215
719.81 1116.31 2215
725.107 1116.31 2215
730.403 1116.31 2215
735.7 1116.31 2215
740.997 1116.31 2215
745.62 1115.3 2213
748.876 1112.28 2207
754.153 1112.28 2207
759.431 1112.28 2207
766.787 1115.3 2213
772.777 1116.31 2215
779.128 1117.82 2218
784.432 1117.82 2218
795.076 1125.38 2233
802.567 1128.4 2239
807.921 1128.4 2239
813.275 1128.4 2239
819.726 1129.92 2242
829.504 1135.96 2254
837.486 1139.49 2261
842.893 1139.49 2261
850.551 1142.52 2267
858.238 1145.54 2273
868.233 1151.59 2285
873.697 1151.59 2285
881.854 1155.11 2292
887.335 1155.11 2292
892.816 1155.11 2292
898.297 1155.11 2292
903.778 1155.11 2292
909.259 1155.11 2292
913.143 1153.1 2288
918.614 1153.1 2288
922.874 1151.59 2285
928.338 1151.59 2285
936.663 1155.11 2292
942.144 1155.11 2292
947.625 1155.11 2292
954.353 1156.63 2295
961.096 1158.14 2298
966.591 1158.14 2298
972.086 1158.14 2298
977.581 1158.14 2298
983.077 1158.14 2298
988.572 1158.14 2298
994.067 1158.14 2298
999.562 1158.14 2298
1002.43 1155.11 2292
1007.91 1155.11 2292
1002.34 1142.52 2267
1007.76 1142.52 2267
1011.84 1141 2264
1018.6 1142.52 2267
1026.74 1145.54 2273
1032.17 1145.54 2273
1037.61 1145.54 2273
1043.04 1145.54 2273
1048.48 1145.54 2273
1052.52 1144.03 2270
1057.95 1144.03 2270
1061.97 1142.52 2267
1067.39 1142.52 2267
1072.82 1142.52 2267
1076.81 1141 2264
1078.88 1137.48 2257
1084.27 1137.48 2257
1089.67 1137.48 2257
1095.07 1137.48 2257
1097.54 1134.45 2251
1102.92 1134.45 2251
1109.78 1135.96 2254
1115.17 1135.96 2254
1120.56 1135.96 2254
1129.45 1139.49 2261
1134.86 1139.49 2261
1140.26 1139.49 2261
1145.67 1139.49 2261
1147.51 1135.96 2254
1152.9 1135.96 2254
1158.29 1135.96 2254
1159.04 1131.43 2245
1161.29 1128.4 2239
1166.65 1128.4 2239
1170.43 1126.89 2236
1172.62 1123.87 2230
1179.54 1125.38 2233
1186.47 1126.89 2236
1193.42 1128.4 2239
1198.77 1128.4 2239
1204.13 1128.4 2239
1214.34 1132.94 2248
1226.77 1139.49 2261
1232.18 1139.49 2261
1237.58 1139.49 2261
1242.99 1139.49 2261
1248.4 1139.49 2261
1253.81 1139.49 2261
1255.31 1135.96 2254
1255.67 1131.43 2245
1261.04 1131.43 2245
1261.33 1126.89 2236
1266.68 1126.89 2236
1278.85 1132.94 2248
1285.94 1134.45 2251
1294.76 1137.48 2257
1300.16 1137.48 2257
1307.87 1139.49 2261
1313.28 1139.49 2261
1323.94 1144.03 2270
1329.36 1144.03 2270
1340.08 1148.56 2279
1349.08 1151.59 2285
1354.54 1151.59 2285
1360 1151.59 2285
1365.47 1151.59 2285
1369.13 1150.08 2282
1380.61 1155.11 2292
1386.09 1155.11 2292
1397.04 1159.65 2301
1402.54 1159.65 2301
1408.04 1159.65 2301
1411.7 1158.14 2298
1417.2 1158.14 2298
1418.98 1155.11 2292
1424.46 1155.11 2292
1427.45 1153.1 2288
1431.04 1151.59 2285
1432.73 1148.56 2279
1438.18 1148.56 2279
1443.63 1148.56 2279
1447.17 1147.05 2276
1446.87 1142.52 2267
1420.9 1117.82 2218
1426.2 1117.82 2218
1422.47 1110.77 2204
1427.74 1110.77 2204
1425.21 1104.72 2192
1426.54 1101.69 2186
1431.77 1101.69 2186
1429.76 1096.15 2175
1431 1093.13 2169
1432.88 1090.61 2164
1438.06 1090.61 2164
1443.23 1090.61 2164
1450.41 1092.12 2167
1460.97 1096.15 2175
1466.17 1096.15 2175
1471.37 1096.15 2175
1482.68 1100.69 2184
1493.35 1104.72 2192
1512.95 1115.3 2213
1518.24 1115.3 2213
1537.31 1125.38 2233
1544.72 1126.89 2236
1556.3 1131.43 2245
1563.76 1132.94 2248
1569.14 1132.94 2248
1574.51 1132.94 2248
1597.46 1145.54 2273
1611.35 1151.59 2285
1616.82 1151.59 2285
1631.51 1158.14 2298
1639.14 1159.65 2301
1644.65 1159.65 2301
1650.15 1159.65 2301
1655.65 1159.65 2301
1663.32 1161.16 2304
1673.9 1164.69 2311
1679.43 1164.69 2311
1698.8 1174.27 2330
1704.38 1174.27 2330
1709.95 1174.27 2330
1715.52 1174.27 2330
1721.09 1174.27 2330
1717.03 1167.71 2317
1722.57 1167.71 2317
1728.11 1167.71 2317
1696.24 1142.52 2267
1685.15 1131.43 2245
1679.22 1123.87 2230
1684.55 1123.87 2230
1683.07 1119.33 2221
1682.3 1115.3 2213
1709.7 1129.92 2242
1715.06 1129.92 2242
-1622.49 1097.31 2167
-1617.3 1097.31 2167
-1612.12 1097.31 2167
-1606.94 1097.31 2167
-1603.24 1098.32 2169
-1598.05 1098.32 2169
-1592.86 1098.32 2169
-1575.96 1090.22 2153
-1578.84 1095.79 2164
-1573.67 1095.79 2164
-1574.29 1099.84 2172
-1577.77 1105.92 2184
-1572.54 1105.92 2184
-1567.32 1105.92 2184
-1551.37 1098.32 2169
-1540.48 1094.27 2161
-1535.31 1094.27 2161
-1530.14 1094.27 2161
-1532.74 1099.84 2172
-1541.61 1109.97 2192
-1542.68 1114.53 2201
-1537.41 1114.53 2201
-1538.42 1119.08 2210
-1536.6 1121.61 2215
-1547.9 1133.77 2239
-1542.54 1133.77 2239
-1537.19 1133.77 2239
-1531.83 1133.77 2239
-1530.57 1136.81 2245
-1525.2 1136.81 2245
-1519.83 1136.81 2245
-1514.46 1136.81 2245
-1509.1 1136.81 2245
-1503.73 1136.81 2245
-1496.36 1135.29 2242
-1487 1132.25 2236
-1481.66 1132.25 2236
-1474.33 1130.73 2233
-1463.07 1126.17 2224
-1453.82 1123.13 2218
-1448.51 1123.13 2218
-1443.21 1123.13 2218
-1434.67 1120.6 2213
-1425.5 1117.56 2207
-1425.37 1121.61 2215
-1420.07 1121.61 2215
-1414.77 1121.61 2215
-1411.39 1123.13 2218
-1411.79 1127.69 2227
-1406.46 1127.69 2227
-1401.14 1127.69 2227
-1395.81 1127.69 2227
-1390.49 1127.69 2227
-1379.56 1123.13 2218
-1363.73 1114.53 2201
-1356.61 1113.01 2198
-1360.58 1120.6 2213
-1355.29 1120.6 2213
-1360.36 1129.21 2230
-1373.87 1144.91 2261
-1375.72 1150.98 2273
-1370.29 1150.98 2273
-1364.85 1150.98 2273
-1359.42 1150.98 2273
-1353.98 1150.98 2273
-1344.99 1147.95 2267
-1323.02 1133.77 2239
-1312.37 1129.21 2230
-1307.04 1129.21 2230
-1273.1 1104.4 2181
-1254.52 1092.75 2158
-1241.25 1085.66 2144
-1236.12 1085.66 2144
-1231 1085.66 2144
-1225.87 1085.66 2144
-1220.74 1085.66 2144
-1215.62 1085.66 2144
-1210.49 1085.66 2144
-1199.18 1080.09 2133
-1194.08 1080.09 2133
-1188.98 1080.09 2133
-1183.88 1080.09 2133
-1177.67 1079.08 2131
-1167.62 1074.52 2122
-1153.78 1066.42 2106
-1156.38 1073.51 2120
-1151.31 1073.51 2120
-1159.22 1085.66 2144
-1158.94 1090.22 2153
-1154.86 1091.23 2155
-1149.71 1091.23 2155
-1149.33 1095.79 2164
-1149.98 1101.36 2175
-1146.35 1102.88 2178
-1141.15 1102.88 2178
-1137.5 1104.4 2181
-1132.29 1104.4 2181
-1128.62 1105.92 2184
-1123.4 1105.92 2184
-1118.18 1105.92 2184
-1105.31 1098.32 2169
-1104.69 1102.88 2178
-1099.48 1102.88 2178
-1098.29 1106.93 2186
-1097.56 1111.49 2195
-1093.81 1113.01 2198
-1088.55 1113.01 2198
-1084.77 1114.53 2201
-1079.51 1114.53 2201
-1074.25 1114.53 2201
-1066.07 1111.49 2195
-1055.51 1105.92 2184
-1048.84 1104.4 2181
-1043.62 1104.4 2181
-1036.98 1102.88 2178
-1030.35 1101.36 2175
-1025.15 1101.36 2175
-1021.36 1102.88 2178
-1016.15 1102.88 2178
-1014.65 1106.93 2186
-1013.58 1111.49 2195
-1011.09 1114.53 2201
-1005.83 1114.53 2201
-1003.29 1117.56 2207
-998.012 1117.56 2207
-992.734 1117.56 2207
-987.457 1117.56 2207
-980.844 1116.04 2204
-974.246 1114.53 2201
-968.982 1114.53 2201
-956.276 1105.92 2184
-948.44 1102.88 2178
-943.232 1102.88 2178
-938.024 1102.88 2178
-932.815 1102.88 2178
-930.163 1105.92 2184
-925.787 1106.93 2186
-921.823 1108.45 2189
-916.588 1108.45 2189
-911.354 1108.45 2189
-907.361 1109.97 2192
-902.119 1109.97 2192
-896.878 1109.97 2192
-890.416 1108.45 2189
-883.968 1106.93 2186
-874.319 1101.36 2175
-869.118 1101.36 2175
-863.916 1101.36 2175
-857.531 1099.84 2172
-851.16 1098.32 2169
-848.313 1101.36 2175
-843.112 1101.36 2175
-839.067 1102.88 2178
-833.859 1102.88 2178
-829.792 1104.4 2181
-824.576 1104.4 2181
-821.239 1106.93 2186
-819.371 1111.49 2195
-814.122 1111.49 2195
-808.874 1111.49 2195
-803.625 1111.49 2195
-798.376 1111.49 2195
-793.127 1111.49 2195
-787.878 1111.49 2195
-782.629 1111.49 2195
-778.443 1113.01 2198
-775.297 1116.04 2204
-770.027 1116.04 2204
-766.838 1119.08 2210
-762.587 1120.6 2213
-760.033 1124.65 2221
-754.722 1124.65 2221
-751.435 1127.69 2227
-747.115 1129.21 2230
-741.782 1129.21 2230
-736.45 1129.21 2230
-732.101 1130.73 2233
-726.761 1130.73 2233
-721.421 1130.73 2233
-714.157 1127.69 2227
-707.877 1126.17 2224
-700.663 1123.13 2218
-695.359 1123.13 2218
-690.055 1123.13 2218
-686.604 1126.17 2224
-681.286 1126.17 2224
-675.967 1126.17 2224
-670.649 1126.17 2224
-666.228 1127.69 2227
-660.903 1127.69 2227
-657.344 1130.73 2233
-652.004 1130.73 2233
-648.402 1133.77 2239
-643.048 1133.77 2239
-637.693 1133.77 2239
-632.339 1133.77 2239
-626.985 1133.77 2239
-618.299 1127.69 2227
-611.323 1124.65 2221
-606.011 1124.65 2221
-599.889 1123.13 2218
-594.585 1123.13 2218
-587.953 1120.6 2213
-582.661 1120.6 2213
-576.586 1119.08 2210
-568.975 1114.53 2201
-560.638 1108.45 2189
-555.404 1108.45 2189
-550.169 1108.45 2189
-544.934 1108.45 2189
-538.96 1106.93 2186
-533.733 1106.93 2186
-527.297 1104.4 2181
-522.799 1105.92 2184
-519.473 1109.97 2192
-514.231 1109.97 2192
-508.989 1109.97 2192
-503.747 1109.97 2192
-498.506 1109.97 2192
-494.614 1113.01 2198
-489.358 1113.01 2198
-484.102 1113.01 2198
-478.846 1113.01 2198
-473.59 1113.01 2198
-468.334 1113.01 2198
-464.974 1117.56 2207
-460.946 1120.6 2213
-457.919 1126.17 2224
-452.601 1126.17 2224
-447.282 1126.17 2224
-440.772 1123.13 2218
-435.468 1123.13 2218
-430.164 1123.13 2218
-424.86 1123.13 2218
-418.989 1121.61 2215
-412.198 1117.56 2207
-406.92 1117.56 2207
-400.005 1113.01 2198
-393.671 1109.97 2192
-388.429 1109.97 2192
-383.187 1109.97 2192
-377.946 1109.97 2192
-372.194 1108.45 2189
-366.456 1106.93 2186
-361.229 1106.93 2186
-355.187 1104.4 2181
-350.453 1105.92 2184
-345.231 1105.92 2184
-340.008 1105.92 2184
-332.946 1099.84 2172
-327.752 1099.84 2172
-321.816 1097.31 2167
-316.926 1098.32 2169
-311.739 1098.32 2169
-307.4 1101.36 2175
-302.616 1102.88 2178
-298.5 1106.93 2186
-293.273 1106.93 2186
-289.627 1113.01 2198
-285.147 1116.04 2204
-279.877 1116.04 2204
-274.606 1116.04 2204
-269.336 1116.04 2204
-264.065 1116.04 2204
-259.147 1117.56 2207
-254.79 1121.61 2215
-249.493 1121.61 2215
-244.858 1124.65 2221
-239.547 1124.65 2221
-234.868 1127.69 2227
-229.543 1127.69 2227
-225.426 1133.77 2239
-220.072 1133.77 2239
-215.005 1135.29 2242
-209.644 1135.29 2242
-204.282 1135.29 2242
-198.921 1135.29 2242
-193.56 1135.29 2242
-187.947 1133.77 2239
-182.348 1132.25 2236
-176.764 1130.73 2233
-171.424 1130.73 2233
-163.481 1113.01 2198
-157.793 1109.97 2192
-152.551 1109.97 2192
-147.309 1109.97 2192
-141.679 1106.93 2186
-136.451 1106.93 2186
-131.224 1106.93 2186
-125.997 1106.93 2186
-120.769 1106.93 2186
-116.176 1113.01 2198
-110.92 1113.01 2198
-105.664 1113.01 2198
-100.408 1113.01 2198
-95.1517 1113.01 2198
-89.5275 1108.45 2189
-84.2929 1108.45 2189
-79.0584 1108.45 2189
-73.8238 1108.45 2189
-68.5893 1108.45 2189
-63.2679 1106.93 2186
-58.6777 1119.08 2210
-53.3929 1119.08 2210
-48.217 1121.61 2215
-42.9202 1121.61 2215
-37.6235 1121.61 2215
-32.3268 1121.61 2215
-27.03 1121.61 2215
87.7607 1099.84 2172
92.9546 1099.84 2172
98.1485 1099.84 2172
103.2 1098.32 2169
108.287 1097.31 2167
113.468 1097.31 2167
118.486 1095.79 2164
123.661 1095.79 2164
128.479 1092.75 2158
133.639 1092.75 2158
138.799 1092.75 2158
143.626 1090.22 2153
148.775 1090.22 2153
153.923 1090.22 2153
159.219 1091.23 2155
164.373 1091.23 2155
170.234 1095.79 2164
175.652 1097.31 2167
182.002 1104.4 2181
187.218 1104.4 2181
192.698 1105.92 2184
198.917 1111.49 2195
205.003 1116.04 2204
210.274 1116.04 2204
215.837 1117.56 2207
222.217 1123.13 2218
228.444 1127.69 2227
233.77 1127.69 2227
239.095 1127.69 2227
244.75 1129.21 2230
250.419 1130.73 2233
255.759 1130.73 2233
261.098 1130.73 2233
266.796 1132.25 2236
272.508 1133.77 2239
277.862 1133.77 2239
283.975 1136.81 2245
290.504 1141.36 2254
295.894 1141.36 2254
301.284 1141.36 2254
308.443 1147.95 2267
313.864 1147.95 2267
320.13 1150.98 2273
325.565 1150.98 2273
331.438 1152.5 2276
336.88 1152.5 2276
342.323 1152.5 2276
347.307 1150.98 2273
352.742 1150.98 2273
358.178 1150.98 2273
363.613 1150.98 2273
368.562 1149.47 2270
373.99 1149.47 2270
379.418 1149.47 2270
384.846 1149.47 2270
390.275 1149.47 2270
395.703 1149.47 2270
400.601 1147.95 2267
405.485 1146.43 2264
410.899 1146.43 2264
416.313 1146.43 2264
420.423 1142.88 2257
425.82 1142.88 2257
433.128 1147.95 2267
438.549 1147.95 2267
443.97 1147.95 2267
447.408 1142.88 2257
452.806 1142.88 2257
457.594 1141.36 2254
462.984 1141.36 2254
467.75 1139.84 2251
473.133 1139.84 2251
478.516 1139.84 2251
486.693 1146.43 2264
492.107 1146.43 2264
498.181 1147.95 2267
503.602 1147.95 2267
509.023 1147.95 2267
514.444 1147.95 2267
519.865 1147.95 2267
525.286 1147.95 2267
530.707 1147.95 2267
536.128 1147.95 2267
540.116 1144.91 2261
545.523 1144.91 2261
550.929 1144.91 2261
553.876 1139.84 2251
559.258 1139.84 2251
564.641 1139.84 2251
570.024 1139.84 2251
574.64 1138.33 2248
580.016 1138.33 2248
585.391 1138.33 2248
590.767 1138.33 2248
596.143 1138.33 2248
601.518 1138.33 2248
606.894 1138.33 2248
610.635 1135.29 2242
613.524 1130.73 2233
617.201 1127.69 2227
624.203 1130.73 2233
629.543 1130.73 2233
634.883 1130.73 2233
640.223 1130.73 2233
647.297 1133.77 2239
652.651 1133.77 2239
658.005 1133.77 2239
663.36 1133.77 2239
668.714 1133.77 2239
674.068 1133.77 2239
676.691 1129.21 2230
682.941 1130.73 2233
688.281 1130.73 2233
693.621 1130.73 2233
698.96 1130.73 2233
703.354 1129.21 2230
706.78 1126.17 2224
712.098 1126.17 2224
714.513 1121.61 2215
719.81 1121.61 2215
725.107 1121.61 2215
730.403 1121.61 2215
735.7 1121.61 2215
740.997 1121.61 2215
745.62 1120.6 2213
748.876 1117.56 2207
754.153 1117.56 2207
759.431 1117.56 2207
766.787 1120.6 2213
772.777 1121.61 2215
778.074 1121.61 2215
783.371 1121.61 2215
788.667 1121.61 2215
793.964 1121.61 2215
799.261 1121.61 2215
804.558 1121.61 2215
812.048 1124.65 2221
822.879 1132.25 2236
829.338 1133.77 2239
834.692 1133.77 2239
848.3 1144.91 2261
854.839 1146.43 2264
863.673 1150.98 2273
869.108 1150.98 2273
879.161 1157.06 2285
885.786 1158.58 2288
891.258 1158.58 2288
896.729 1158.58 2288
901.017 1157.06 2285
905.291 1155.54 2282
910.748 1155.54 2282
916.205 1155.54 2282
915.604 1147.95 2267
921.025 1147.95 2267
928.898 1150.98 2273
934.334 1150.98 2273
939.769 1150.98 2273
945.204 1150.98 2273
954.404 1155.54 2282
961.123 1157.06 2285
966.587 1157.06 2285
972.051 1157.06 2285
977.515 1157.06 2285
985.991 1160.61 2292
991.471 1160.61 2292
996.952 1160.61 2292
995.435 1152.5 2276
1000.88 1152.5 2276
999.689 1144.91 2261
1001.98 1141.36 2254
1007.37 1141.36 2254
1015.91 1144.91 2261
1025.38 1149.47 2270
1030.81 1149.47 2270
1036.24 1149.47 2270
1041.67 1149.47 2270
1047.09 1149.47 2270
1052.52 1149.47 2270
1056.55 1147.95 2267
1061.97 1147.95 2267
1067.39 1147.95 2267
1072.82 1147.95 2267
1076.81 1146.43 2264
1078.88 1142.88 2257
1084.27 1142.88 2257
1089.67 1142.88 2257
1093.61 1141.36 2254
1097.54 1139.84 2251
1102.92 1139.84 2251
1109.78 1141.36 2254
1115.17 1141.36 2254
1120.56 1141.36 2254
1129.45 1144.91 2261
1134.86 1144.91 2261
1140.26 1144.91 2261
1145.67 1144.91 2261
1147.51 1141.36 2254
1152.9 1141.36 2254
1155.21 1138.33 2248
1157.49 1135.29 2242
1159.74 1132.25 2236
1165.08 1132.25 2236
1165.72 1127.69 2227
1169.47 1126.17 2224
1174.79 1126.17 2224
1180.1 1126.17 2224
1185.42 1126.17 2224
1189.14 1124.65 2221
1197.67 1127.69 2227
1209.48 1133.77 2239
1219.72 1138.33 2248
1225.09 1138.33 2248
1232.11 1139.84 2251
1237.49 1139.84 2251
1242.88 1139.84 2251
1244.93 1136.81 2245
1243.62 1130.73 2233
1248.96 1130.73 2233
1254.3 1130.73 2233
1254.56 1126.17 2224
1259.88 1126.17 2224
1275.44 1135.29 2242
1285.94 1139.84 2251
1294.76 1142.88 2257
1300.16 1142.88 2257
1307.87 1144.91 2261
1313.28 1144.91 2261
1322.19 1147.95 2267
1327.61 1147.95 2267
1338.32 1152.5 2276
1347.3 1155.54 2282
1352.76 1155.54 2282
1358.22 1155.54 2282
1363.68 1155.54 2282
1360.13 1147.95 2267
1367.36 1149.47 2270
1372.79 1149.47 2270
1389.15 1158.58 2288
1394.62 1158.58 2288
1400.09 1158.58 2288
1403.72 1157.06 2285
1409.18 1157.06 2285
1414.65 1157.06 2285
1420.11 1157.06 2285
1425.57 1157.06 2285
1421.64 1149.47 2270
1425.19 1147.95 2267
1430.61 1147.95 2267
1436.03 1147.95 2267
1441.45 1147.95 2267
1404.75 1114.53 2201
1408.09 1113.01 2198
1413.34 1113.01 2198
1414.73 1109.97 2192
1419.97 1109.97 2192
1421.31 1106.93 2186
1423.28 1104.4 2181
1428.49 1104.4 2181
1429.76 1101.36 2175
1431 1098.32 2169
1432.88 1095.79 2164
1438.06 1095.79 2164
1443.23 1095.79 2164
1448.4 1095.79 2164
1455.59 1097.31 2167
1460.78 1097.31 2167
1465.96 1097.31 2167
1474.53 1099.84 2172
1487.9 1105.92 2184
1502.7 1113.01 2198
1510.01 1114.53 2201
1523.54 1120.6 2213
1532.28 1123.13 2218
1537.59 1123.13 2218
1551.24 1129.21 2230
1556.57 1129.21 2230
1570.31 1135.29 2242
1584.1 1141.36 2254
1605.01 1152.5 2276
1610.45 1152.5 2276
1622.28 1157.06 2285
1627.75 1157.06 2285
1642.5 1163.64 2298
1648 1163.64 2298
1653.49 1163.64 2298
1661.15 1165.16 2301
1673.9 1170.23 2311
1679.43 1170.23 2311
1691.51 1174.78 2320
1704.38 1179.85 2330
1709.95 1179.85 2330
1715.52 1179.85 2330
1721.09 1179.85 2330
1717.03 1173.26 2317
1722.57 1173.26 2317
1713.94 1163.64 2298
1696.24 1147.95 2267
1697.16 1144.91 2261
1692.78 1138.33 2248
1698.15 1138.33 2248
1696.71 1133.77 2239
1702.06 1133.77 2239
1721.14 1142.88 2257
1726.54 1142.88 2257
-1612 1095.38 2153
-1606.86 1095.38 2153
-1599.48 1093.85 2150
-1592.11 1092.32 2147
-1589.19 1093.85 2150
-1584.05 1093.85 2150
-1578.91 1093.85 2150
-1573.77 1093.85 2150
-1568.63 1093.85 2150
-1563.49 1093.85 2150
-1572.12 1103.52 2169
-1577.77 1111.15 2184
-1572.54 1111.15 2184
-1567.32 1111.15 2184
-1549.94 1102.5 2167
-1538.34 1097.92 2158
-1533.18 1097.92 2158
-1528.02 1097.92 2158
-1527.09 1100.97 2164
-1535.98 1111.15 2184
-1536.37 1115.22 2192
-1531.13 1115.22 2192
-1536.33 1122.85 2207
-1535.21 1125.9 2213
-1547.9 1139.13 2239
-1542.54 1139.13 2239
-1537.19 1139.13 2239
-1531.83 1139.13 2239
-1530.57 1142.18 2245
-1525.2 1142.18 2245
-1519.83 1142.18 2245
-1514.46 1142.18 2245
-1509.1 1142.18 2245
-1503.73 1142.18 2245
-1494.35 1139.13 2239
-1487 1137.6 2236
-1481.66 1137.6 2236
-1470.37 1133.03 2227
-1463.07 1131.5 2224
-1453.82 1128.45 2218
-1448.51 1128.45 2218
-1443.21 1128.45 2218
-1432.72 1124.38 2210
-1425.5 1122.85 2207
-1424.08 1125.9 2213
-1418.79 1125.9 2213
-1413.5 1125.9 2213
-1411.39 1128.45 2218
-1411.79 1133.03 2227
-1406.46 1133.03 2227
-1401.14 1133.03 2227
-1395.81 1133.03 2227
-1390.49 1133.03 2227
-1376.45 1125.9 2213
-1361.87 1118.27 2198
-1356.61 1118.27 2198
-1360.58 1125.9 2213
-1355.29 1125.9 2213
-1360.36 1134.55 2230
-1373.87 1150.32 2261
-1375.72 1156.43 2273
-1370.29 1156.43 2273
-1364.85 1156.43 2273
-1359.42 1156.43 2273
-1353.98 1156.43 2273
-1344.99 1153.38 2267
-1323.02 1139.13 2239
-1312.37 1134.55 2230
-1307.04 1134.55 2230
-1273.1 1109.62 2181
-1254.52 1097.92 2158
-1241.25 1090.8 2144
-1236.12 1090.8 2144
-1231 1090.8 2144
-1225.87 1090.8 2144
-1220.74 1090.8 2144
-1215.62 1090.8 2144
-1210.49 1090.8 2144
-1199.18 1085.2 2133
-1194.08 1085.2 2133
-1188.98 1085.2 2133
-1183.88 1085.2 2133
-1177.67 1084.18 2131
-1167.62 1079.61 2122
-1153.78 1071.47 2106
-1156.38 1078.59 2120
-1151.31 1078.59 2120
-1159.22 1090.8 2144
-1158.94 1095.38 2153
-1154.86 1096.39 2155
-1149.71 1096.39 2155
-1149.33 1100.97 2164
-1149.98 1106.57 2175
-1146.35 1108.1 2178
-1141.15 1108.1 2178
-1137.5 1109.62 2181
-1132.29 1109.62 2181
-1128.62 1111.15 2184
-1123.4 1111.15 2184
-1118.18 1111.15 2184
-1105.31 1103.52 2169
-1104.69 1108.1 2178
-1099.48 1108.1 2178
-1098.29 1112.17 2186
-1097.56 1116.75 2195
-1093.81 1118.27 2198
-1088.55 1118.27 2198
-1084.77 1119.8 2201
-1079.51 1119.8 2201
-1074.25 1119.8 2201
-1066.07 1116.75 2195
-1055.51 1111.15 2184
-1048.84 1109.62 2181
-1043.62 1109.62 2181
-1036.98 1108.1 2178
-1030.35 1106.57 2175
-1025.15 1106.57 2175
-1021.36 1108.1 2178
-1016.15 1108.1 2178
-1014.65 1112.17 2186
-1013.58 1116.75 2195
-1011.09 1119.8 2201
-1005.83 1119.8 2201
-1003.29 1122.85 2207
-998.012 1122.85 2207
-992.734 1122.85 2207
-987.457 1122.85 2207
-980.844 1121.32 2204
-974.246 1119.8 2201
-968.982 1119.8 2201
-956.276 1111.15 2184
-948.44 1108.1 2178
-943.232 1108.1 2178
-938.024 1108.1 2178
-932.815 1108.1 2178
-930.163 1111.15 2184
-925.787 1112.17 2186
-921.823 1113.69 2189
-916.588 1113.69 2189
-911.354 1113.69 2189
-907.361 1115.22 2192
-902.119 1115.22 2192
-896.878 1115.22 2192
-890.416 1113.69 2189
-883.968 1112.17 2186
-874.319 1106.57 2175
-869.118 1106.57 2175
-863.916 1106.57 2175
-857.531 1105.04 2172
-851.16 1103.52 2169
-848.313 1106.57 2175
-843.112 1106.57 2175
-839.067 1108.1 2178
-833.859 1108.1 2178
-828.65 1108.1 2178
-823.442 1108.1 2178
-818.234 1108.1 2178
-815.265 1111.15 2184
-810.043 1111.15 2184
-804.82 1111.15 2184
-799.597 1111.15 2184
-794.375 1111.15 2184
-789.152 1111.15 2184
-783.93 1111.15 2184
-780.49 1113.69 2189
-775.255 1113.69 2189
-772.131 1116.75 2195
-766.882 1116.75 2195
-762.674 1118.27 2198
-758.452 1119.8 2201
-755.242 1122.85 2207
-749.964 1122.85 2207
-747.386 1126.92 2215
-743.095 1128.45 2218
-739.786 1131.5 2224
-734.468 1131.5 2224
-729.15 1131.5 2224
-723.832 1131.5 2224
-718.513 1131.5 2224
-713.195 1131.5 2224
-705.012 1126.92 2215
-698.136 1124.38 2210
-693.792 1125.9 2213
-688.5 1125.9 2213
-683.208 1125.9 2213
-677.916 1125.9 2213
-672.624 1125.9 2213
-667.332 1125.9 2213
-663.536 1128.45 2218
-659.122 1129.97 2221
-655.577 1133.03 2227
-650.252 1133.03 2227
-644.927 1133.03 2227
-639.601 1133.03 2227
-631.712 1128.45 2218
-626.409 1128.45 2218
-621.105 1128.45 2218
-614.412 1125.9 2213
-603.34 1115.22 2192
-598.099 1115.22 2192
-592.045 1113.69 2189
-584.666 1109.62 2181
-579.451 1109.62 2181
-574.235 1109.62 2181
-568.237 1108.1 2178
-560.703 1103.52 2169
-555.004 1102.5 2167
-550.329 1103.52 2169
-545.142 1103.52 2169
-539.956 1103.52 2169
-534.769 1103.52 2169
-529.582 1103.52 2169
-523.187 1100.97 2164
-518.73 1102.5 2167
-515.444 1106.57 2175
-510.243 1106.57 2175
-505.042 1106.57 2175
-499.841 1106.57 2175
-493.957 1105.04 2172
-490.789 1109.62 2181
-485.573 1109.62 2181
-481.459 1112.17 2186
-476.885 1113.69 2189
-471.651 1113.69 2189
-467.055 1115.22 2192
-461.813 1115.22 2192
-457.197 1116.75 2195
-455.036 1124.38 2210
-449.751 1124.38 2210
-444.467 1124.38 2210
-437.99 1121.32 2204
-432.13 1119.8 2201
-426.867 1119.8 2201
-421.604 1119.8 2201
-416.34 1119.8 2201
-410.517 1118.27 2198
-405.261 1118.27 2198
-397.821 1112.17 2186
-391.695 1109.62 2181
-386.48 1109.62 2181
-381.264 1109.62 2181
-376.049 1109.62 2181
-370.834 1109.62 2181
-364.612 1106.57 2175
-359.411 1106.57 2175
-353.722 1105.04 2172
-348.528 1105.04 2172
-343.334 1105.04 2172
-338.14 1105.04 2172
-332.18 1102.5 2167
-326.092 1099.45 2161
-320.925 1099.45 2161
-316.195 1100.97 2164
-311.021 1100.97 2164
-306.552 1103.52 2169
-301.366 1103.52 2169
-296.998 1106.57 2175
-291.797 1106.57 2175
-288.046 1112.17 2186
-283.206 1113.69 2189
-277.972 1113.69 2189
-272.737 1113.69 2189
-267.503 1113.69 2189
-262.628 1115.22 2192
-258.09 1118.27 2198
-253.179 1119.8 2201
-247.916 1119.8 2201
-243.314 1122.85 2207
-238.36 1124.38 2210
-234.236 1129.97 2221
-228.924 1129.97 2221
-224.217 1133.03 2227
-220.072 1139.13 2239
-214.717 1139.13 2239
-209.363 1139.13 2239
-204.282 1140.66 2242
-198.921 1140.66 2242
-193.56 1140.66 2242
-187.947 1139.13 2239
-182.348 1137.6 2236
-176.764 1136.08 2233
-171.424 1136.08 2233
-163.481 1118.27 2198
-157.793 1115.22 2192
-152.551 1115.22 2192
-147.309 1115.22 2192
-141.679 1112.17 2186
-136.451 1112.17 2186
-131.224 1112.17 2186
-125.997 1112.17 2186
-120.769 1112.17 2186
-116.176 1118.27 2198
-110.92 1118.27 2198
-105.664 1118.27 2198
-100.408 1118.27 2198
-95.1517 1118.27 2198
-89.5275 1113.69 2189
-84.2929 1113.69 2189
-79.0584 1113.69 2189
-73.8238 1113.69 2189
-68.5893 1113.69 2189
-63.2679 1112.17 2186
-58.6777 1124.38 2210
-53.3929 1124.38 2210
-48.217 1126.92 2215
-42.9202 1126.92 2215
-37.6235 1126.92 2215
-32.3268 1126.92 2215
-27.03 1126.92 2215
82.0346 1097.92 2158
87.7607 1105.04 2172
92.9546 1105.04 2172
98.1485 1105.04 2172
103.2 1103.52 2169
108.287 1102.5 2167
113.468 1102.5 2167
118.322 1099.45 2161
123.49 1099.45 2161
128.3 1096.39 2155
133.453 1096.39 2155
138.478 1095.38 2153
143.626 1095.38 2153
148.775 1095.38 2153
153.923 1095.38 2153
159.219 1096.39 2155
164.373 1096.39 2155
170.234 1100.97 2164
176.544 1108.1 2178
182.002 1109.62 2181
187.218 1109.62 2181
192.698 1111.15 2184
198.917 1116.75 2195
205.003 1121.32 2204
210.274 1121.32 2204
215.837 1122.85 2207
222.217 1128.45 2218
228.444 1133.03 2227
233.77 1133.03 2227
239.095 1133.03 2227
244.75 1134.55 2230
250.082 1134.55 2230
255.415 1134.55 2230
260.748 1134.55 2230
266.438 1136.08 2233
272.143 1137.6 2236
277.49 1137.6 2236
283.216 1139.13 2239
289.344 1142.18 2245
295.894 1146.76 2254
301.284 1146.76 2254
306.674 1146.76 2254
312.479 1148.29 2257
318.862 1151.85 2264
324.276 1151.85 2264
330.127 1153.38 2267
335.548 1153.38 2267
340.969 1153.38 2267
345.932 1151.85 2264
351.346 1151.85 2264
356.76 1151.85 2264
362.174 1151.85 2264
367.587 1151.85 2264
372.507 1150.32 2261
377.914 1150.32 2261
382.642 1148.29 2257
388.04 1148.29 2257
393.437 1148.29 2257
398.304 1146.76 2254
403.157 1145.24 2251
408.539 1145.24 2251
413.371 1143.71 2248
418.746 1143.71 2248
424.688 1145.24 2251
430.644 1146.76 2254
436.034 1146.76 2254
441.424 1146.76 2254
446.814 1146.76 2254
452.204 1146.76 2254
455.767 1142.18 2245
461.135 1142.18 2245
466.504 1142.18 2245
471.872 1142.18 2245
476.603 1140.66 2242
481.964 1140.66 2242
487.978 1142.18 2245
494.005 1143.71 2248
499.381 1143.71 2248
504.757 1143.71 2248
511.494 1146.76 2254
516.884 1146.76 2254
523.896 1150.32 2261
529.302 1150.32 2261
534.709 1150.32 2261
539.16 1148.29 2257
544.558 1148.29 2257
549.224 1146.76 2254
553.137 1143.71 2248
557.768 1142.18 2245
563.136 1142.18 2245
567.745 1140.66 2242
572.339 1139.13 2239
578.468 1140.66 2242
583.829 1140.66 2242
589.19 1140.66 2242
594.551 1140.66 2242
599.913 1140.66 2242
605.274 1140.66 2242
608.184 1136.08 2233
610.227 1129.97 2221
614.706 1128.45 2218
620.849 1129.97 2221
627.852 1133.03 2227
633.177 1133.03 2227
638.503 1133.03 2227
643.828 1133.03 2227
649.153 1133.03 2227
654.479 1133.03 2227
659.804 1133.03 2227
665.13 1133.03 2227
670.455 1133.03 2227
675.781 1133.03 2227
681.106 1133.03 2227
686.431 1133.03 2227
691.757 1133.03 2227
697.082 1133.03 2227
698.623 1126.92 2215
703.92 1126.92 2215
709.216 1126.92 2215
713.868 1125.9 2213
717.21 1122.85 2207
721.506 1121.32 2204
726.776 1121.32 2204
732.046 1121.32 2204
737.317 1121.32 2204
742.587 1121.32 2204
746.84 1119.8 2201
752.103 1119.8 2201
757.366 1119.8 2201
762.63 1119.8 2201
769.986 1122.85 2207
775.264 1122.85 2207
780.541 1122.85 2207
788.667 1126.92 2215
793.964 1126.92 2215
799.261 1126.92 2215
804.558 1126.92 2215
812.048 1129.97 2221
822.879 1137.6 2236
829.338 1139.13 2239
834.692 1139.13 2239
848.3 1150.32 2261
854.839 1151.85 2264
863.673 1156.43 2273
869.108 1156.43 2273
879.161 1162.53 2285
885.786 1164.06 2288
891.258 1164.06 2288
896.729 1164.06 2288
901.017 1162.53 2285
905.291 1161.01 2282
910.748 1161.01 2282
916.205 1161.01 2282
915.604 1153.38 2267
921.025 1153.38 2267
928.898 1156.43 2273
934.334 1156.43 2273
939.769 1156.43 2273
945.204 1156.43 2273
954.404 1161.01 2282
961.123 1162.53 2285
966.587 1162.53 2285
972.051 1162.53 2285
977.515 1162.53 2285
985.991 1166.1 2292
991.471 1166.1 2292
996.952 1166.1 2292
995.435 1157.96 2276
1000.88 1157.96 2276
999.689 1150.32 2261
1001.98 1146.76 2254
1007.37 1146.76 2254
1015.91 1150.32 2261
1025.38 1154.9 2270
1030.81 1154.9 2270
1036.24 1154.9 2270
1041.67 1154.9 2270
1047.09 1154.9 2270
1052.52 1154.9 2270
1056.55 1153.38 2267
1061.97 1153.38 2267
1067.39 1153.38 2267
1072.82 1153.38 2267
1076.81 1151.85 2264
1078.88 1148.29 2257
1084.27 1148.29 2257
1089.67 1148.29 2257
1093.61 1146.76 2254
1097.54 1145.24 2251
1102.92 1145.24 2251
1109.78 1146.76 2254
1115.17 1146.76 2254
1120.56 1146.76 2254
1129.45 1150.32 2261
1134.86 1150.32 2261
1140.26 1150.32 2261
1145.67 1150.32 2261
1147.51 1146.76 2254
1152.9 1146.76 2254
1155.21 1143.71 2248
1157.49 1140.66 2242
1159.74 1137.6 2236
1165.08 1137.6 2236
1165.72 1133.03 2227
1169.47 1131.5 2224
1174.79 1131.5 2224
1180.1 1131.5 2224
1185.42 1131.5 2224
1189.14 1129.97 2221
1197.67 1133.03 2227
1209.48 1139.13 2239
1219.72 1143.71 2248
1225.09 1143.71 2248
1232.11 1145.24 2251
1237.49 1145.24 2251
1242.88 1145.24 2251
1244.93 1142.18 2245
1243.62 1136.08 2233
1248.96 1136.08 2233
1254.3 1136.08 2233
1254.56 1131.5 2224
1259.88 1131.5 2224
1275.44 1140.66 2242
1285.94 1145.24 2251
1294.76 1148.29 2257
1300.16 1148.29 2257
1307.87 1150.32 2261
1313.28 1150.32 2261
1318.69 1150.32 2261
1319.99 1146.76 2254
1325.38 1146.76 2254
1330.77 1146.76 2254
1336.16 1146.76 2254
1341.55 1146.76 2254
1337.98 1139.13 2239
1348.73 1143.71 2248
1359.53 1148.29 2257
1364.93 1148.29 2257
1372.75 1150.32 2261
1378.16 1150.32 2261
1383.57 1150.32 2261
1388.97 1150.32 2261
1391.91 1148.29 2257
1395.45 1146.76 2254
1398.98 1145.24 2251
1404.36 1145.24 2251
1389.08 1128.45 2218
1392.5 1126.92 2215
1388.96 1119.8 2201
1394.22 1119.8 2201
1388.67 1111.15 2184
1393.9 1111.15 2184
1404.24 1115.22 2192
1409.49 1115.22 2192
1414.73 1115.22 2192
1416.08 1112.17 2186
1418.06 1109.62 2181
1421.32 1108.1 2178
1426.53 1108.1 2178
1425.82 1103.52 2169
1427.71 1100.97 2164
1432.88 1100.97 2164
1438.06 1100.97 2164
1437.23 1096.39 2155
1442.38 1096.39 2155
1451.56 1099.45 2161
1458.75 1100.97 2164
1463.93 1100.97 2164
1472.5 1103.52 2169
1479.73 1105.04 2172
1494.49 1112.17 2186
1510.01 1119.8 2201
1515.28 1119.8 2201
1526.76 1124.38 2210
1532.04 1124.38 2210
1537.33 1124.38 2210
1538.42 1121.32 2204
1557.7 1131.5 2224
1573.56 1139.13 2239
1587.38 1145.24 2251
1592.76 1145.24 2251
1615.89 1157.96 2276
1623.47 1159.48 2279
1631.07 1161.01 2282
1636.52 1161.01 2282
1641.98 1161.01 2282
1658.99 1169.15 2298
1666.66 1170.67 2301
1672.16 1170.67 2301
1682.04 1173.73 2307
1697.06 1180.34 2320
1702.61 1180.34 2320
1708.16 1180.34 2320
1704.1 1173.73 2307
1709.62 1173.73 2307
1715.14 1173.73 2307
1709.47 1166.1 2292
1696.24 1153.38 2267
1697.16 1150.32 2261
1692.78 1143.71 2248
1698.15 1143.71 2248
1696.71 1139.13 2239
1702.06 1139.13 2239
1721.14 1148.29 2257
1726.54 1148.29 2257
-1605.27 1095.93 2144
-1600.14 1095.93 2144
-1593.52 1094.91 2142
-1581.73 1090.31 2133
-1576.63 1090.31 2133
-1571.53 1090.31 2133
-1566.43 1090.31 2133
-1561.32 1090.31 2133
-1558.41 1091.85 2136
-1553.31 1091.85 2136
-1548.2 1091.85 2136
-1543.09 1091.85 2136
-1537.98 1091.85 2136
-1527.77 1091.85 2136
-1522.66 1091.85 2136
-1527.5 1099 2150
-1522.36 1099 2150
-1522.86 1103.09 2158
-1535.98 1116.38 2184
-1530.76 1116.38 2184
-1525.54 1116.38 2184
-1532.15 1125.07 2201
-1533.13 1129.67 2210
-1545.82 1142.96 2236
-1540.47 1142.96 2236
-1535.13 1142.96 2236
-1529.78 1142.96 2236
-1524.43 1142.96 2236
-1519.09 1142.96 2236
-1513.74 1142.96 2236
-1508.39 1142.96 2236
-1503.05 1142.96 2236
-1497.7 1142.96 2236
-1492.35 1142.96 2236
-1481.02 1138.36 2227
-1475.69 1138.36 2227
-1464.43 1133.76 2218
-1457.15 1132.23 2215
-1451.85 1132.23 2215
-1446.56 1132.23 2215
-1441.26 1132.23 2215
-1432.72 1129.67 2210
-1423.56 1126.6 2204
-1418.29 1126.6 2204
-1413.02 1126.6 2204
