ply
format ascii 1.0
comment File generated
element vertex 2254
property float x
property float y
property float z
end_header
-2050.95 283.572 3084
-2054.84 285.135 3101
-2062.61 287.25 3124
-2055.14 287.25 3124
-2047.67 287.25 3124
-2036.28 286.698 3118
-2028.82 286.698 3118
-2017.48 286.146 3112
-2006.81 285.687 3107
-1999.38 285.687 3107
-1991.95 285.687 3107
-2154.85 331.294 3603
-2146.24 331.294 3603
-2137.62 331.294 3603
-2129.01 331.294 3603
-2120.39 331.294 3603
-2111.78 331.294 3603
-2103.16 331.294 3603
-2089.89 330.558 3595
-2077.24 329.914 3588
-2059.44 328.443 3572
-2050.9 328.443 3572
-2038.35 327.799 3565
-2025.27 327.064 3557
-2016.77 327.064 3557
-2008.26 327.064 3557
-1982.89 324.305 3527
-1974.46 324.305 3527
-1969.92 324.949 3534
-1961.47 324.949 3534
-1953.02 324.949 3534
-1944.57 324.949 3534
-1940.5 325.685 3542
-1935.85 326.328 3549
-1927.36 326.328 3549
-1927.53 327.799 3565
-1919 327.799 3565
-1910.48 327.799 3565
-1901.95 327.799 3565
-1893.43 327.799 3565
-1884.9 327.799 3565
-1880.06 328.443 3572
-1871.52 328.443 3572
-1871.32 329.914 3588
-1866.38 330.558 3595
-1866.05 332.029 3611
-1857.41 332.029 3611
-1856.97 333.5 3627
-1868.68 337.178 3667
-1859.91 337.178 3667
-1851.14 337.178 3667
-1854.43 339.385 3691
-1874.61 344.718 3749
-1882.56 347.844 3783
-1873.52 347.844 3783
-1881.72 351.063 3818
-1911.83 358.419 3898
-1902.51 358.419 3898
-1893.19 358.419 3898
-1805.52 375.061 4079
-1795.77 375.061 4079
-1786.01 375.061 4079
-1689.6 356.764 3880
-1609.3 341.684 3716
-1579.31 337.178 3667
-1570.54 337.178 3667
-1544.73 333.5 3627
-1525.9 331.294 3603
-1485.28 324.305 3527
-1476.84 324.305 3527
-1447.17 319.616 3476
-1423.96 316.306 3440
-1404.21 313.731 3412
-1396.05 313.731 3412
-1382.2 312.444 3398
-1374.07 312.444 3398
-1360.32 311.157 3384
-1352.23 311.157 3384
-1344.13 311.157 3384
-1333.28 310.513 3377
-1309.51 306.835 3337
-1280.86 301.962 3284
-1273 301.962 3284
-1250.51 298.468 3246
-1237.77 297.272 3233
-1213.68 293.318 3190
-1206.05 293.318 3190
-1187.15 290.56 3160
-1177.36 290.008 3154
-1158.69 287.25 3124
-1151.22 287.25 3124
-1118.48 280.905 3055
-1111.18 280.905 3055
-1106.04 281.457 3061
-1100.88 282.009 3067
-1095.32 282.468 3072
-1087.98 282.468 3072
-1080.63 282.468 3072
-1073.29 282.468 3072
-1065.94 282.468 3072
-1054.8 281.457 3061
-1047.48 281.457 3061
-1042.2 282.009 3067
-1034.87 282.009 3067
-1027.53 282.009 3067
-1018.2 281.457 3061
-907.97 276.86 3011
-900.769 276.86 3011
-893.569 276.86 3011
-884.897 276.4 3006
-877.709 276.4 3006
-870.521 276.4 3006
-855.578 273.917 2979
-843.897 272.446 2963
-835.4 271.986 2958
-828.326 271.986 2958
-819.865 271.526 2953
-807.023 269.596 2932
-800.011 269.596 2932
-795.705 270.515 2942
-791.618 271.526 2953
-784.557 271.526 2953
-778.812 271.986 2958
-771.738 271.986 2958
-764.665 271.986 2958
-756.311 271.526 2953
-746.458 270.515 2942
-738.166 270.055 2937
-731.143 270.055 2937
-721.654 269.136 2927
-712.214 268.216 2917
-700.161 266.285 2896
-693.236 266.285 2896
-685.126 265.826 2891
-679.385 266.285 2896
-673.621 266.745 2901
-666.684 266.745 2901
-659.747 266.745 2901
-652.81 266.745 2901
-650.548 268.676 2922
-647.965 270.515 2942
-640.93 270.515 2942
-638.42 272.446 2963
-635.809 274.377 2984
-630.991 275.388 2995
-623.829 275.388 2995
-621.196 277.411 3017
-613.982 277.411 3017
-606.767 277.411 3017
-599.553 277.411 3017
-670.403 352.626 3835
-661.233 352.626 3835
-652.062 352.626 3835
-627.937 349.408 3800
-618.85 349.408 3800
-616.823 353.453 3844
-609.054 354.281 3853
-599.84 354.281 3853
-590.627 354.281 3853
-581.413 354.281 3853
-572.199 354.281 3853
-562.986 354.281 3853
-552.478 353.453 3844
-549.646 357.591 3889
-541.597 358.419 3898
-532.276 358.419 3898
-522.954 358.419 3898
-512.447 357.591 3889
-499.654 355.108 3862
-488.133 353.453 3844
-482.305 355.936 3871
-473.048 355.936 3871
-463.792 355.936 3871
-455.592 356.764 3880
-446.313 356.764 3880
-437.035 356.764 3880
-425.772 355.108 3862
-415.566 354.281 3853
-406.353 354.281 3853
-394.356 351.798 3826
-384.402 351.063 3818
-374.387 350.235 3809
-365.278 350.235 3809
-355.328 349.408 3800
-343.872 347.017 3774
-334.138 346.281 3766
-325.132 346.281 3766
-316.127 346.281 3766
-309.894 349.408 3800
-302.865 351.798 3826
-296.479 355.108 3862
-287.244 355.108 3862
-279.305 356.764 3880
-270.026 356.764 3880
-260.748 356.764 3880
-231.833 355.108 3862
-222.598 355.108 3862
-213.363 355.108 3862
-204.127 355.108 3862
-107.236 195.392 2125
-101.914 194.933 2120
-96.8446 194.933 2120
-91.775 194.933 2120
-86.3783 194.197 2112
-81.3279 194.197 2112
-76.2774 194.197 2112
-71.0247 193.645 2106
-65.9886 193.645 2106
-60.8946 193.461 2104
-55.9164 193.645 2106
-50.8803 193.645 2106
-45.8442 193.645 2106
-40.8081 193.645 2106
-35.7721 193.645 2106
-30.7068 193.461 2104
-25.6389 193.186 2101
-20.6147 193.186 2101
-15.5535 192.726 2096
-10.5413 192.726 2096
-5.52917 192.726 2096
-0.516263 192.45 2093
4.48873 192.45 2093
9.49373 192.45 2093
14.4987 192.45 2093
19.5037 192.45 2093
24.5087 192.45 2093
29.5137 192.45 2093
34.5187 192.45 2093
39.486 192.266 2091
44.4862 192.266 2091
49.4864 192.266 2091
54.4866 192.266 2091
59.4868 192.266 2091
64.487 192.266 2091
69.4872 192.266 2091
74.4874 192.266 2091
79.5637 192.45 2093
84.7707 192.91 2098
89.7877 192.91 2098
94.8046 192.91 2098
100.107 193.461 2104
105.238 193.645 2106
110.431 193.921 2109
116.077 194.933 2120
121.147 194.933 2120
126.335 195.117 2122
131.781 195.668 2128
137.77 196.956 2142
142.892 196.956 2142
148.153 197.139 2144
154.281 198.427 2158
160.697 199.99 2175
165.898 199.99 2175
171.965 201.001 2186
177.922 201.829 2195
184.422 203.208 2210
189.707 203.208 2210
195.698 203.944 2218
202.089 205.047 2230
208.538 206.15 2242
213.899 206.15 2242
219.847 206.702 2248
225.824 207.254 2254
231.932 207.898 2261
237.339 207.898 2261
242.745 207.898 2261
248.152 207.898 2261
253.559 207.898 2261
258.966 207.898 2261
260.748 205.047 2230
265.364 204.495 2224
270.683 204.495 2224
276.001 204.495 2224
281.319 204.495 2224
435.281 279.434 3039
442.548 279.434 3039
449.815 279.434 3039
455.428 278.423 3028
461.752 277.871 3022
468.978 277.871 3022
474.471 276.86 3011
481.672 276.86 3011
488.872 276.86 3011
496.072 276.86 3011
500.598 275.388 2995
504.2 273.457 2974
510.28 272.906 2968
517.377 272.906 2968
524.475 272.906 2968
530.676 272.446 2963
538.669 272.906 2968
545.767 272.906 2968
552.864 272.906 2968
559.962 272.906 2968
564.193 271.526 2953
569.127 270.515 2942
576.162 270.515 2942
582.206 270.055 2937
588.226 269.596 2932
595.237 269.596 2932
602.249 269.596 2932
608.221 269.136 2927
615.22 269.136 2927
621.157 268.676 2922
628.144 268.676 2922
635.132 268.676 2922
642.119 268.676 2922
647.996 268.216 2917
654.971 268.216 2917
661.946 268.216 2917
668.922 268.216 2917
674.507 267.665 2911
681.468 267.665 2911
689.848 268.216 2917
696.824 268.216 2917
703.799 268.216 2917
710.774 268.216 2917
717.75 268.216 2917
724.725 268.216 2917
732.955 268.676 2922
739.942 268.676 2922
746.93 268.676 2922
753.917 268.676 2922
760.904 268.676 2922
767.892 268.676 2922
774.879 268.676 2922
780.529 268.216 2917
790.204 269.136 2927
797.203 269.136 2927
804.203 269.136 2927
811.202 269.136 2927
818.201 269.136 2927
825.201 269.136 2927
833.622 269.596 2932
840.633 269.596 2932
847.644 269.596 2932
853.198 269.136 2927
860.197 269.136 2927
867.197 269.136 2927
874.196 269.136 2927
882.701 269.596 2932
889.712 269.596 2932
896.723 269.596 2932
903.735 269.596 2932
915.405 270.975 2947
925.896 271.986 2958
934.546 272.446 2963
941.631 272.446 2963
953.84 273.917 2979
960.964 273.917 2979
968.087 273.917 2979
1233.42 334.236 3635
1242.11 334.236 3635
1250.81 334.236 3635
1256.73 333.5 3627
1262.61 332.765 3619
1276.88 334.236 3635
1288.05 334.88 3642
1296.76 334.88 3642
1308.34 335.615 3650
1319.95 336.351 3658
1337.78 338.65 3683
1346.59 338.65 3683
1358.34 339.385 3691
1367.17 339.385 3691
1375.99 339.385 3691
1381.82 338.65 3683
1381.18 336.351 3658
1383.85 334.88 3642
1392.56 334.88 3642
1398.58 334.236 3635
1404.17 333.5 3627
1409.73 332.765 3619
1418.38 332.765 3619
1427.04 332.765 3619
1432.52 332.029 3611
1428.78 329.179 3580
1416.06 324.305 3527
1424.5 324.305 3527
1415.06 320.26 3483
1402.95 315.662 3433
1399.65 313.088 3405
1407.79 313.088 3405
1407.2 311.157 3384
1389.78 305.548 3323
1370.39 299.571 3258
1367.6 297.272 3233
1397.03 301.962 3284
1404.88 301.962 3284
1441.13 308.03 3350
1466.88 311.8 3391
1493.25 315.662 3433
1501.46 315.662 3433
1515.83 316.949 3447
1533.36 318.88 3468
1541.65 318.88 3468
1549.94 318.88 3468
1558.24 318.88 3468
1566.53 318.88 3468
1574.82 318.88 3468
1391 275.848 3000
1400.97 276.4 3006
1408.16 276.4 3006
1415.35 276.4 3006
1407.39 273.457 2974
1414.5 273.457 2974
1413.97 271.986 2958
1410.95 270.055 2937
1405.42 267.665 2911
1407.53 266.745 2901
1414.47 266.745 2901
1418.95 266.285 2896
1425.88 266.285 2896
1432.8 266.285 2896
1439.73 266.285 2896
1444.16 265.826 2891
1446.05 264.906 2881
1447.9 263.987 2871
1454.76 263.987 2871
1461.63 263.987 2871
1468.49 263.987 2871
1472.79 263.527 2866
1479.64 263.527 2866
1481.83 262.699 2857
1486.06 262.24 2852
1492.88 262.24 2852
1499.7 262.24 2852
1506.52 262.24 2852
1513.34 262.24 2852
1517.49 261.78 2847
1524.3 261.78 2847
1531.11 261.78 2847
1535.21 261.32 2842
1542.01 261.32 2842
1546.08 260.86 2837
1552.87 260.86 2837
1559.65 260.86 2837
1563.67 260.401 2832
1570.44 260.401 2832
1577.22 260.401 2832
1583.99 260.401 2832
1590.76 260.401 2832
1597.53 260.401 2832
1604.31 260.401 2832
1611.08 260.401 2832
1617.85 260.401 2832
1622.33 260.033 2828
1629.09 260.033 2828
1638.17 260.401 2832
1644.94 260.401 2832
1651.71 260.401 2832
1656.14 260.033 2828
1662.9 260.033 2828
1669.67 260.033 2828
1673.46 259.573 2823
1680.22 259.573 2823
1686.97 259.573 2823
1693.72 259.573 2823
1700.47 259.573 2823
1707.22 259.573 2823
1713.97 259.573 2823
1720.72 259.573 2823
1724.41 259.113 2818
1728.08 258.654 2813
1734.8 258.654 2813
1741.53 258.654 2813
1742.66 257.826 2804
1749.37 257.826 2804
1752.94 257.366 2799
1759.64 257.366 2799
1763.17 256.907 2794
1767.32 256.539 2790
1773.99 256.539 2790
1780.67 256.539 2790
1787.34 256.539 2790
1794.01 256.539 2790
1797.45 256.079 2785
1804.11 256.079 2785
1810.77 256.079 2785
1817.43 256.079 2785
1820.82 255.619 2780
1824.84 255.251 2776
1831.47 255.251 2776
1838.11 255.251 2776
1844.75 255.251 2776
1848.05 254.792 2771
1854.68 254.792 2771
1861.31 254.792 2771
1871.3 255.251 2776
1877.94 255.251 2776
1884.58 255.251 2776
1891.22 255.251 2776
1897.86 255.251 2776
1901.06 254.792 2771
1907.69 254.792 2771
1914.32 254.792 2771
1918.17 254.424 2767
1921.31 253.964 2762
1927.91 253.964 2762
1934.52 253.964 2762
1941.12 253.964 2762
1947.73 253.964 2762
1954.33 253.964 2762
1964.49 254.424 2767
1971.1 254.424 2767
1977.72 254.424 2767
1980.75 253.964 2762
1987.36 253.964 2762
1990.35 253.504 2757
1994.05 253.137 2753
1997 252.677 2748
2003.57 252.677 2748
2020.38 253.964 2762
2026.99 253.964 2762
2037.27 254.424 2767
2043.89 254.424 2767
2050.51 254.424 2767
2057.12 254.424 2767
2049.57 252.677 2748
2053.15 252.309 2744
2059.71 252.309 2744
2062.5 251.849 2739
2062.26 251.022 2730
2065.75 250.654 2726
2072.27 250.654 2726
2078.79 250.654 2726
2078.42 249.826 2717
-2109.91 265.864 2818
-2103.17 265.864 2818
-2103.87 266.807 2828
-2097.11 266.807 2828
-2093.3 267.185 2832
-2090.21 267.656 2837
-2083.43 267.656 2837
-2076.64 267.656 2837
-2069.86 267.656 2837
-2056.53 266.807 2828
-2049.77 266.807 2828
-2039.39 266.336 2823
-2029.04 265.864 2818
-2022.3 265.864 2818
-2015.56 265.864 2818
-2008.83 265.864 2818
-2002.09 265.864 2818
-1995.35 265.864 2818
-1988.61 265.864 2818
-1978.35 265.392 2813
-1971.63 265.392 2813
-1995.64 269.543 2857
-1992.28 270.015 2862
-1985.44 270.015 2862
-1988.27 271.336 2876
-1991.73 272.751 2891
-1984.82 272.751 2891
-1977.9 272.751 2891
-1974.4 273.223 2896
-1967.48 273.223 2896
-2005.91 279.544 2963
-1998.82 279.544 2963
-2020.64 283.601 3006
-2028.19 285.676 3028
-2020.95 285.676 3028
-2035.65 288.79 3061
-2043.57 290.96 3084
-2047.42 292.563 3101
-2040.01 292.563 3101
-2032.59 292.563 3101
-2025.18 292.563 3101
-2017.76 292.563 3101
-2010.35 292.563 3101
-2006.81 293.13 3107
-1999.38 293.13 3107
-1991.95 293.13 3107
-1984.52 293.13 3107
-2154.85 339.925 3603
-2146.24 339.925 3603
-2137.62 339.925 3603
-2129.01 339.925 3603
-2120.39 339.925 3603
-2107.09 339.17 3595
-2098.49 339.17 3595
-2089.89 339.17 3595
-2072.61 337.755 3580
-2055.4 336.339 3565
-2046.88 336.339 3565
-2038.35 336.339 3565
-2025.27 335.585 3557
-2016.77 335.585 3557
-2008.26 335.585 3557
-1982.89 332.754 3527
-1974.46 332.754 3527
-1969.92 333.415 3534
-1961.47 333.415 3534
-1953.02 333.415 3534
-1944.57 333.415 3534
-1940.5 334.17 3542
-1935.85 334.83 3549
-1927.36 334.83 3549
-1927.53 336.339 3565
-1919 336.339 3565
-1910.48 336.339 3565
-1901.95 336.339 3565
-1893.43 336.339 3565
-1884.9 336.339 3565
-1880.06 337 3572
-1871.52 337 3572
-1871.32 338.509 3588
-1866.38 339.17 3595
-1866.05 340.679 3611
-1857.41 340.679 3611
-1861.07 342.944 3635
-1868.68 345.963 3667
-1859.91 345.963 3667
-1851.14 345.963 3667
-1858.45 348.982 3699
-1874.61 353.699 3749
-1882.56 356.907 3783
-1873.52 356.907 3783
-1903.41 364.36 3862
-1929.98 371.247 3935
-1920.57 371.247 3935
-1911.16 371.247 3935
-1783.83 380.21 4030
-1774.19 380.21 4030
-1764.56 380.21 4030
-1689.6 366.058 3880
-1609.3 350.586 3716
-1568.54 343.604 3642
-1559.83 343.604 3642
-1537.92 340.679 3611
-1522.51 339.17 3595
-1485.28 332.754 3527
-1476.84 332.754 3527
-1447.17 327.943 3476
-1426.86 325.207 3447
-1404.21 321.905 3412
-1396.05 321.905 3412
-1382.2 320.584 3398
-1374.07 320.584 3398
-1363.13 319.923 3391
-1355.02 319.923 3391
-1346.92 319.923 3391
-1336.04 319.263 3384
-1309.51 314.829 3337
-1280.86 309.829 3284
-1273 309.829 3284
-1250.51 306.243 3246
-1230.5 303.224 3214
-1211.4 300.394 3184
-1203.78 300.394 3184
-1187.15 298.13 3160
-1177.36 297.564 3154
-1156.46 294.167 3118
-1149.01 294.167 3118
-1118.48 288.224 3055
-1111.18 288.224 3055
-1106.04 288.79 3061
-1100.88 289.356 3067
-1095.32 289.827 3072
-1087.98 289.827 3072
-1080.63 289.827 3072
-1073.29 289.827 3072
-1065.94 289.827 3072
-1054.8 288.79 3061
-1045.43 288.224 3055
-1040.16 288.79 3061
-1032.84 288.79 3061
-1025.52 288.79 3061
-1018.2 288.79 3061
-906.462 283.601 3006
-899.274 283.601 3006
-892.085 283.601 3006
-884.897 283.601 3006
-875.957 283.035 3000
-868.783 283.035 3000
-855.578 281.053 2979
-842.473 279.072 2958
-835.4 279.072 2958
-828.326 279.072 2958
-819.865 278.6 2953
-808.399 277.091 2937
-801.376 277.091 2937
-795.705 277.563 2942
-791.618 278.6 2953
-784.557 278.6 2953
-778.812 279.072 2958
-771.738 279.072 2958
-764.665 279.072 2958
-756.311 278.6 2953
-746.458 277.563 2942
-738.166 277.091 2937
-731.143 277.091 2937
-721.654 276.147 2927
-713.434 275.676 2922
-700.161 273.223 2896
-693.236 273.223 2896
-685.126 272.751 2891
-679.385 273.223 2896
-673.621 273.694 2901
-666.684 273.694 2901
-659.747 273.694 2901
-652.81 273.694 2901
-650.548 275.676 2922
-647.965 277.563 2942
-640.93 277.563 2942
-638.42 279.544 2963
-635.809 281.525 2984
-630.991 282.563 2995
-623.829 282.563 2995
-621.196 284.638 3017
-613.982 284.638 3017
-606.767 284.638 3017
-599.553 284.638 3017
-609.763 358.511 3800
-604.786 360.963 3826
-598.439 362.662 3844
-589.247 362.662 3844
-580.055 362.662 3844
-570.863 362.662 3844
-561.67 362.662 3844
-548.741 360.209 3818
-539.611 360.209 3818
-537.845 365.209 3871
-528.589 365.209 3871
-519.332 365.209 3871
-508.889 364.36 3862
-497.325 362.662 3844
-488.133 362.662 3844
-482.305 365.209 3871
-473.048 365.209 3871
-463.792 365.209 3871
-454.535 365.209 3871
-445.278 365.209 3871
-436.021 365.209 3871
-424.78 363.511 3853
-413.625 361.813 3835
-404.454 361.813 3835
-393.532 360.209 3818
-382.589 358.511 3800
-373.502 358.511 3800
-364.415 358.511 3800
-354.58 357.756 3792
-343.872 356.058 3774
-334.138 355.303 3766
-325.132 355.303 3766
-315.371 354.454 3757
-309.894 358.511 3800
-302.865 360.963 3826
-296.479 364.36 3862
-287.244 364.36 3862
-279.305 366.058 3880
-270.026 366.058 3880
-260.748 366.058 3880
-249.72 363.511 3853
-231.833 364.36 3862
-222.598 364.36 3862
-213.363 364.36 3862
-204.127 364.36 3862
-107.387 200.766 2128
-102.155 200.483 2125
-97.073 200.483 2125
-91.8616 200.2 2122
-86.7055 200.011 2120
-81.6359 200.011 2120
-76.5664 200.011 2120
-71.227 199.256 2112
-66.0826 198.973 2109
-60.9525 198.69 2106
-56.0757 199.256 2112
-51.0253 199.256 2112
-45.9748 199.256 2112
-40.8663 198.973 2109
-35.823 198.973 2109
-30.7798 198.973 2109
-25.6755 198.502 2104
-20.6442 198.502 2104
-15.5906 198.219 2101
-10.5665 198.219 2101
-5.53445 197.936 2098
-0.517003 197.747 2096
4.49517 197.747 2096
9.50734 197.747 2096
14.5195 197.747 2096
19.5317 197.747 2096
24.5439 197.747 2096
29.556 197.747 2096
34.5682 197.747 2096
39.5237 197.464 2093
44.5287 197.464 2093
49.5337 197.464 2093
54.5387 197.464 2093
59.5437 197.464 2093
64.5487 197.464 2093
69.5537 197.464 2093
74.5587 197.464 2093
79.6777 197.747 2096
84.7707 197.936 2098
89.9161 198.219 2101
94.9402 198.219 2101
100.107 198.502 2104
105.388 198.973 2109
110.589 199.256 2112
116.077 200.011 2120
121.147 200.011 2120
126.514 200.483 2125
131.967 201.049 2131
137.899 202.275 2144
143.026 202.275 2144
148.36 202.558 2147
154.281 203.596 2158
160.919 205.483 2178
166.127 205.483 2178
171.965 206.238 2186
178.408 207.653 2201
185.09 209.257 2218
190.394 209.257 2218
196.227 209.823 2224
202.361 210.672 2233
209.096 212.087 2248
214.471 212.087 2248
220.434 212.653 2254
226.525 213.314 2261
232.24 213.597 2264
237.654 213.597 2264
243.068 213.597 2264
248.481 213.597 2264
253.895 213.597 2264
258.966 213.314 2261
260.748 210.389 2230
266.08 210.389 2230
271.413 210.389 2230
276.745 210.389 2230
281.319 209.823 2224
432.13 284.638 3017
439.344 284.638 3017
446.559 284.638 3017
452.119 283.601 3006
459.307 283.601 3006
466.495 283.601 3006
473.684 283.601 3006
480.872 283.601 3006
487.086 283.035 3000
494.26 283.035 3000
500.598 282.563 2995
503.182 280.016 2968
510.28 280.016 2968
516.506 279.544 2963
523.591 279.544 2963
530.676 279.544 2963
537.762 279.544 2963
544.847 279.544 2963
551.933 279.544 2963
559.018 279.544 2963
563.047 278.034 2947
568.159 277.091 2937
575.183 277.091 2937
582.206 277.091 2937
588.226 276.619 2932
594.222 276.147 2927
601.222 276.147 2927
608.221 276.147 2927
615.22 276.147 2927
622.22 276.147 2927
629.219 276.147 2927
635.132 275.676 2922
642.119 275.676 2922
649.106 275.676 2922
656.094 275.676 2922
663.081 275.676 2922
668.922 275.204 2917
674.507 274.638 2911
681.468 274.638 2911
689.848 275.204 2917
696.824 275.204 2917
703.799 275.204 2917
710.774 275.204 2917
717.75 275.204 2917
724.725 275.204 2917
732.955 275.676 2922
739.942 275.676 2922
746.93 275.676 2922
753.917 275.676 2922
760.904 275.676 2922
766.578 275.204 2917
773.553 275.204 2917
780.529 275.204 2917
788.854 275.676 2922
797.203 276.147 2927
804.203 276.147 2927
811.202 276.147 2927
818.201 276.147 2927
825.201 276.147 2927
832.2 276.147 2927
839.199 276.147 2927
846.199 276.147 2927
853.198 276.147 2927
860.197 276.147 2927
867.197 276.147 2927
874.196 276.147 2927
882.701 276.619 2932
889.712 276.619 2932
896.723 276.619 2932
903.735 276.619 2932
918.822 279.072 2958
925.896 279.072 2958
934.546 279.544 2963
941.631 279.544 2963
953.84 281.053 2979
960.964 281.053 2979
968.087 281.053 2979
1204.24 334.83 3549
1223.32 337.755 3580
1231.88 337.755 3580
1240.44 337.755 3580
1249 337.755 3580
1260.37 338.509 3588
1274.26 339.925 3603
1282.88 339.925 3603
1294.36 340.679 3611
1311.65 342.944 3635
1328.7 345.114 3658
1337.45 345.114 3658
1355.4 347.472 3683
1364.2 347.472 3683
1373.01 347.472 3683
1375.81 345.963 3667
1378.16 344.359 3650
1381.19 342.944 3635
1389.89 342.944 3635
1398.58 342.944 3635
1407.27 342.944 3635
1409.73 341.434 3619
1418.38 341.434 3619
1427.04 341.434 3619
1432.52 340.679 3611
1428.78 337.755 3580
1416.06 332.754 3527
1424.5 332.754 3527
1415.06 328.603 3483
1402.95 323.886 3433
1399.65 321.244 3405
1407.79 321.244 3405
1401.38 317.942 3370
1381.42 311.621 3303
1373.33 308.036 3265
1378.18 307.376 3258
1408.09 312.282 3310
1416.01 312.282 3310
1449.73 317.942 3370
1466.88 319.923 3391
1493.25 323.886 3433
1501.46 323.886 3433
1515.83 325.207 3447
1533.36 327.188 3468
1541.65 327.188 3468
1549.94 327.188 3468
1574.86 330.679 3505
1583.24 330.679 3505
1591.62 330.679 3505
1391 283.035 3000
1411.22 285.676 3028
1418.46 285.676 3028
1425.7 285.676 3028
1414.96 282.091 2990
1422.11 282.091 2990
1421.61 280.582 2974
1413.35 277.563 2942
1410.73 275.676 2922
1407.53 273.694 2901
1414.47 273.694 2901
1421.4 273.694 2901
1425.88 273.223 2896
1432.8 273.223 2896
1439.73 273.223 2896
1444.16 272.751 2891
1446.05 271.808 2881
1447.9 270.864 2871
1454.76 270.864 2871
1461.63 270.864 2871
1468.49 270.864 2871
1472.79 270.392 2866
1479.64 270.392 2866
1481.83 269.543 2857
1486.06 269.072 2852
1492.88 269.072 2852
1499.7 269.072 2852
1506.52 269.072 2852
1510.68 268.6 2847
1517.49 268.6 2847
1524.3 268.6 2847
1531.11 268.6 2847
1535.21 268.128 2842
1542.01 268.128 2842
1546.08 267.656 2837
1552.87 267.656 2837
1556.9 267.185 2832
1563.67 267.185 2832
1568.23 266.807 2828
1574.99 266.807 2828
1581.75 266.807 2828
1588.51 266.807 2828
1595.28 266.807 2828
1602.04 266.807 2828
1608.8 266.807 2828
1615.57 266.807 2828
1622.33 266.807 2828
1629.09 266.807 2828
1635.85 266.807 2828
1642.62 266.807 2828
1649.38 266.807 2828
1656.14 266.807 2828
1662.9 266.807 2828
1666.71 266.336 2823
1673.46 266.336 2823
1680.22 266.336 2823
1686.97 266.336 2823
1693.72 266.336 2823
1700.47 266.336 2823
1707.22 266.336 2823
1713.97 266.336 2823
1720.72 266.336 2823
1724.41 265.864 2818
1728.08 265.392 2813
1734.8 265.392 2813
1741.53 265.392 2813
1742.66 264.543 2804
1746.25 264.071 2799
1752.94 264.071 2799
1759.64 264.071 2799
1763.17 263.6 2794
1769.86 263.6 2794
1773.99 263.222 2790
1780.67 263.222 2790
1787.34 263.222 2790
1790.79 262.75 2785
1797.45 262.75 2785
1804.11 262.75 2785
1810.77 262.75 2785
1817.43 262.75 2785
1820.82 262.279 2780
1827.47 262.279 2780
1834.11 262.279 2780
1838.11 261.901 2776
1844.75 261.901 2776
1851.39 261.901 2776
1858.03 261.901 2776
1864.67 261.901 2776
1871.3 261.901 2776
1877.94 261.901 2776
1884.58 261.901 2776
1891.22 261.901 2776
1897.86 261.901 2776
1901.06 261.43 2771
1907.69 261.43 2771
1914.32 261.43 2771
1918.17 261.052 2767
1921.31 260.581 2762
1927.91 260.581 2762
1934.52 260.581 2762
1941.12 260.581 2762
1947.73 260.581 2762
1954.33 260.581 2762
1960.94 260.581 2762
1967.54 260.581 2762
1974.15 260.581 2762
1980.75 260.581 2762
1987.36 260.581 2762
1990.35 260.109 2757
1994.05 259.731 2753
1997 259.26 2748
2003.57 259.26 2748
2020.38 260.581 2762
2026.99 260.581 2762
2037.27 261.052 2767
2043.89 261.052 2767
2050.51 261.052 2767
2057.12 261.052 2767
2049.57 259.26 2748
2053.15 258.882 2744
2059.71 258.882 2744
2055.73 257.561 2730
2059.23 257.184 2726
2055.9 255.958 2713
2062.39 255.958 2713
2068.88 255.958 2713
2071.54 255.486 2708
-2124.13 274.452 2837
-2117.35 274.452 2837
-2110.56 274.452 2837
-2103.78 274.452 2837
-2108.08 275.904 2852
-2108.63 276.871 2862
-2101.79 276.871 2862
-2094.94 276.871 2862
-2077.15 275.42 2847
-2066.71 274.936 2842
-2059.91 274.936 2842
-2045.89 273.969 2832
-2039.12 273.969 2832
-2029.48 273.582 2828
-2022.72 273.582 2828
-2012.39 273.098 2823
-2005.64 273.098 2823
-1998.89 273.098 2823
-1992.14 273.098 2823
-1981.87 272.614 2818
-1978.64 273.098 2823
-1992.14 275.904 2852
-1992.28 276.871 2862
-1985.44 276.871 2862
-1988.27 278.225 2876
-1991.73 279.676 2891
-1984.82 279.676 2891
-1977.9 279.676 2891
-1974.4 280.16 2896
-1967.48 280.16 2896
-2005.91 286.642 2963
-1998.82 286.642 2963
-2020.64 290.802 3006
-2028.19 292.93 3028
-2020.95 292.93 3028
-2035.65 296.122 3061
-2043.57 298.347 3084
-2047.42 299.992 3101
-2040.01 299.992 3101
-2032.59 299.992 3101
-2025.18 299.992 3101
-2017.76 299.992 3101
-2010.35 299.992 3101
-2006.81 300.572 3107
-1999.38 300.572 3107
-1991.95 300.572 3107
-1984.52 300.572 3107
-1969.45 299.411 3095
-2154.85 348.556 3603
-2146.24 348.556 3603
-2137.62 348.556 3603
-2129.01 348.556 3603
-2120.39 348.556 3603
-2107.09 347.782 3595
-2098.49 347.782 3595
-2089.89 347.782 3595
-2072.61 346.331 3580
-2055.4 344.879 3565
-2046.88 344.879 3565
-2038.35 344.879 3565
-2025.27 344.106 3557
-2016.77 344.106 3557
-2008.26 344.106 3557
-1982.89 341.203 3527
-1974.46 341.203 3527
-1969.92 341.88 3534
-1961.47 341.88 3534
-1953.02 341.88 3534
-1944.57 341.88 3534
-1940.5 342.654 3542
-1935.85 343.332 3549
-1927.36 343.332 3549
-1927.53 344.879 3565
-1919 344.879 3565
-1910.48 344.879 3565
-1901.95 344.879 3565
-1893.43 344.879 3565
-1884.9 344.879 3565
-1880.06 345.557 3572
-1871.52 345.557 3572
-1871.32 347.104 3588
-1866.38 347.782 3595
-1866.05 349.33 3611
-1857.41 349.33 3611
-1861.07 351.651 3635
-1868.68 354.747 3667
-1859.91 354.747 3667
-1851.14 354.747 3667
-1858.45 357.843 3699
-1874.61 362.68 3749
-1882.56 365.969 3783
-1873.52 365.969 3783
-1903.41 373.611 3862
-1929.98 380.673 3935
-1920.57 380.673 3935
-1911.16 380.673 3935
-1819.72 395.571 4089
-1809.95 395.571 4089
-1800.17 395.571 4089
-1764.56 389.864 4030
-1689.6 375.353 3880
-1623.59 362.68 3749
-1571.99 353.102 3650
-1563.26 353.102 3650
-1537.92 349.33 3611
-1522.51 347.782 3595
-1491.59 342.654 3542
-1483.12 342.654 3542
-1447.17 336.27 3476
-1426.86 333.464 3447
-1404.21 330.078 3412
-1396.05 330.078 3412
-1382.2 328.724 3398
-1374.07 328.724 3398
-1363.13 328.047 3391
-1355.02 328.047 3391
-1346.92 328.047 3391
-1336.04 327.369 3384
-1309.51 322.823 3337
-1285.93 318.953 3297
-1278.04 318.953 3297
-1255.13 315.18 3258
-1233.18 311.601 3221
-1213.68 308.602 3190
-1206.05 308.602 3190
-1189.41 306.28 3166
-1177.36 305.119 3154
-1160.91 302.797 3130
-1153.43 302.797 3130
-1126.91 297.767 3078
-1111.18 295.542 3055
-1108.21 296.703 3067
-1102.67 297.186 3072
-1095.32 297.186 3072
-1087.98 297.186 3072
-1080.63 297.186 3072
-1073.29 297.186 3072
-1065.94 297.186 3072
-1056.87 296.703 3067
-1045.43 295.542 3055
-1040.16 296.122 3061
-1032.84 296.122 3061
-1025.52 296.122 3061
-1018.2 296.122 3061
-906.462 290.802 3006
-899.274 290.802 3006
-892.085 290.802 3006
-884.897 290.802 3006
-875.957 290.221 3000
-868.783 290.221 3000
-855.578 288.19 2979
-845.321 287.125 2968
-835.4 286.158 2958
-828.326 286.158 2958
-819.865 285.674 2953
-809.775 284.61 2942
-802.74 284.61 2942
-797.057 285.094 2947
-791.618 285.674 2953
-784.557 285.674 2953
-778.812 286.158 2958
-771.738 286.158 2958
-764.665 286.158 2958
-756.311 285.674 2953
-746.458 284.61 2942
-738.166 284.126 2937
-731.143 284.126 2937
-721.654 283.159 2927
-713.434 282.675 2922
-700.161 280.16 2896
-693.236 280.16 2896
-685.126 279.676 2891
-679.385 280.16 2896
-673.621 280.644 2901
-666.684 280.644 2901
-659.747 280.644 2901
-652.81 280.644 2901
-650.548 282.675 2922
-647.965 284.61 2942
-640.93 284.61 2942
-638.42 286.642 2963
-635.809 288.673 2984
-630.991 289.737 2995
-623.829 289.737 2995
-621.196 291.866 3017
-613.982 291.866 3017
-606.767 291.866 3017
-599.553 291.866 3017
-609.799 315.857 3265
-601.991 315.857 3265
-594.183 315.857 3265
-586.376 315.857 3265
-609.763 367.613 3800
-604.786 370.129 3826
-598.439 371.87 3844
-589.247 371.87 3844
-580.055 371.87 3844
-570.863 371.87 3844
-561.67 371.87 3844
-548.741 369.355 3818
-539.611 369.355 3818
-537.845 374.482 3871
-528.589 374.482 3871
-519.332 374.482 3871
-508.889 373.611 3862
-497.325 371.87 3844
-488.133 371.87 3844
-482.305 374.482 3871
-473.048 374.482 3871
-463.792 374.482 3871
-454.535 374.482 3871
-445.278 374.482 3871
-436.021 374.482 3871
-424.78 372.741 3853
-413.625 370.999 3835
-404.454 370.999 3835
-393.532 369.355 3818
-382.589 367.613 3800
-373.502 367.613 3800
-364.415 367.613 3800
-354.58 366.84 3792
-343.872 365.098 3774
-334.138 364.324 3766
-325.132 364.324 3766
-315.371 363.454 3757
-309.894 367.613 3800
-302.865 370.129 3826
-296.479 373.611 3862
-287.244 373.611 3862
-279.305 375.353 3880
-270.026 375.353 3880
-260.748 375.353 3880
-249.72 372.741 3853
-237.198 367.613 3800
-231.833 373.611 3862
-222.598 373.611 3862
-213.363 373.611 3862
-204.127 373.611 3862
-193.075 370.129 3826
-102.539 206.347 2133
-97.4385 206.347 2133
-92.1214 205.864 2128
-86.7873 205.283 2122
-81.6359 205.09 2120
-76.5664 205.09 2120
-71.3956 204.799 2117
-66.2392 204.509 2114
-61.1261 204.316 2112
-56.0757 204.316 2112
-51.0253 204.316 2112
-45.9748 204.316 2112
-40.9244 204.316 2112
-35.874 204.316 2112
-30.8235 204.316 2112
-25.6999 203.735 2106
-20.6638 203.735 2106
-15.6129 203.542 2104
-10.5816 203.542 2104
-5.55028 203.542 2104
-0.517496 202.961 2098
4.49946 202.961 2098
9.51641 202.961 2098
14.5334 202.961 2098
19.5503 202.961 2098
24.5673 202.961 2098
29.5842 202.961 2098
34.5682 202.768 2096
39.5804 202.768 2096
44.5925 202.768 2096
49.6047 202.768 2096
54.6169 202.768 2096
59.6291 202.768 2096
64.6412 202.768 2096
69.6534 202.768 2096
74.6656 202.768 2096
79.8678 203.252 2101
85.0132 203.542 2104
90.0445 203.542 2104
95.0758 203.542 2104
100.202 203.735 2106
105.538 204.316 2112
110.693 204.509 2114
116.187 205.283 2122
121.261 205.283 2122
126.692 205.864 2128
132.091 206.347 2133
137.899 207.411 2144
143.026 207.411 2144
148.567 207.992 2150
154.281 208.766 2158
160.919 210.701 2178
166.127 210.701 2178
171.965 211.474 2186
178.408 212.926 2201
185.34 214.86 2221
190.651 214.86 2221
196.492 215.441 2227
202.633 216.311 2236
209.096 217.472 2248
214.471 217.472 2248
220.727 218.343 2257
226.525 218.73 2261
232.24 219.02 2264
237.654 219.02 2264
243.068 219.02 2264
248.481 219.02 2264
253.895 219.02 2264
258.966 218.73 2261
260.748 215.731 2230
266.08 215.731 2230
271.413 215.731 2230
276.745 215.731 2230
281.319 215.151 2224
428.262 289.254 2990
435.412 289.254 2990
442.562 289.254 2990
448.81 288.673 2984
455.945 288.673 2984
464.788 289.737 2995
471.95 289.737 2995
479.112 289.737 2995
486.274 289.737 2995
493.436 289.737 2995
498.759 288.673 2984
503.182 287.125 2968
510.28 287.125 2968
516.506 286.642 2963
523.591 286.642 2963
530.676 286.642 2963
537.762 286.642 2963
544.847 286.642 2963
551.933 286.642 2963
559.018 286.642 2963
563.047 285.094 2947
568.159 284.126 2937
575.183 284.126 2937
582.206 284.126 2937
588.226 283.643 2932
595.237 283.643 2932
602.249 283.643 2932
608.221 283.159 2927
615.22 283.159 2927
622.22 283.159 2927
629.219 283.159 2927
636.218 283.159 2927
642.119 282.675 2922
649.106 282.675 2922
656.094 282.675 2922
663.081 282.675 2922
670.068 282.675 2922
674.507 281.611 2911
681.468 281.611 2911
689.848 282.192 2917
696.824 282.192 2917
703.799 282.192 2917
710.774 282.192 2917
717.75 282.192 2917
724.725 282.192 2917
732.955 282.675 2922
739.942 282.675 2922
746.93 282.675 2922
753.917 282.675 2922
760.904 282.675 2922
766.578 282.192 2917
773.553 282.192 2917
780.529 282.192 2917
788.854 282.675 2922
795.841 282.675 2922
802.829 282.675 2922
809.816 282.675 2922
816.804 282.675 2922
823.791 282.675 2922
830.778 282.675 2922
837.766 282.675 2922
844.753 282.675 2922
851.741 282.675 2922
857.259 282.192 2917
864.234 282.192 2917
871.209 282.192 2917
879.69 282.675 2922
886.677 282.675 2922
896.723 283.643 2932
903.735 283.643 2932
918.822 286.158 2958
925.896 286.158 2958
956.624 293.414 3033
963.877 293.414 3033
971.13 293.414 3033
978.383 293.414 3033
985.636 293.414 3033
1217.47 347.104 3588
1228.45 347.782 3595
1237.04 347.782 3595
1245.64 347.782 3595
1251.79 347.104 3588
1260.37 347.104 3588
1274.26 348.556 3603
1282.88 348.556 3603
1294.36 349.33 3611
1308.77 350.877 3627
1325.79 353.102 3650
1334.52 353.102 3650
1349.51 354.747 3667
1358.28 354.747 3667
1367.05 354.747 3667
1375.81 354.747 3667
1378.16 353.102 3650
1386.89 353.102 3650
1395.62 353.102 3650
1398.58 351.651 3635
1407.27 351.651 3635
1415.96 351.651 3635
1424.65 351.651 3635
1423.88 349.33 3611
1429.34 348.556 3603
1428.78 346.331 3580
1416.06 341.203 3527
1424.5 341.203 3527
1417.9 337.624 3490
1402.95 332.11 3433
1399.65 329.401 3405
1407.79 329.401 3405
1407.2 327.369 3384
1389.78 321.468 3323
1386.79 318.953 3297
1381.14 315.857 3265
1425.11 324.08 3350
1433.12 324.08 3350
1452.74 326.692 3377
1466.88 328.047 3391
1493.25 332.11 3433
1501.46 332.11 3433
1515.83 333.464 3447
1533.36 335.496 3468
1541.65 335.496 3468
1549.94 335.496 3468
1574.86 339.075 3505
1583.24 339.075 3505
1591.62 339.075 3505
1391 290.221 3000
1411.22 292.93 3028
1418.46 292.93 3028
1425.7 292.93 3028
1419.69 290.221 3000
1426.87 290.221 3000
1421.61 287.706 2974
1413.35 284.61 2942
1410.73 282.675 2922
1407.53 280.644 2901
1414.47 280.644 2901
1421.4 280.644 2901
1425.88 280.16 2896
1432.8 280.16 2896
1439.73 280.16 2896
1444.16 279.676 2891
1446.05 278.709 2881
1447.9 277.742 2871
1454.76 277.742 2871
1461.63 277.742 2871
1465.94 277.258 2866
1472.79 277.258 2866
1479.64 277.258 2866
1481.83 276.387 2857
1486.06 275.904 2852
1492.88 275.904 2852
1499.7 275.904 2852
1506.52 275.904 2852
1510.68 275.42 2847
1514.83 274.936 2842
1521.62 274.936 2842
1528.42 274.936 2842
1535.21 274.936 2842
1539.3 274.452 2837
1543.36 273.969 2832
1550.13 273.969 2832
1554.7 273.582 2828
1561.46 273.582 2828
1568.23 273.582 2828
1574.99 273.582 2828
1581.75 273.582 2828
1588.51 273.582 2828
1595.28 273.582 2828
1602.04 273.582 2828
1608.8 273.582 2828
1615.57 273.582 2828
1619.46 273.098 2823
1626.21 273.098 2823
1635.85 273.582 2828
1642.62 273.582 2828
1649.38 273.582 2828
1656.14 273.582 2828
1662.9 273.582 2828
1669.67 273.582 2828
1676.43 273.582 2828
1683.19 273.582 2828
1689.95 273.582 2828
1696.72 273.582 2828
1703.48 273.582 2828
1710.24 273.582 2828
1717 273.582 2828
1723.77 273.582 2828
1727.47 273.098 2823
1731.15 272.614 2818
1734.8 272.131 2813
1741.53 272.131 2813
1742.66 271.26 2804
1749.37 271.26 2804
1752.94 270.776 2799
1759.64 270.776 2799
1766.33 270.776 2799
1769.86 270.293 2794
1776.54 270.293 2794
1783.22 270.293 2794
1787.34 269.906 2790
1794.01 269.906 2790
1797.45 269.422 2785
1804.11 269.422 2785
1810.77 269.422 2785
1817.43 269.422 2785
1820.82 268.938 2780
1827.47 268.938 2780
1834.11 268.938 2780
1838.11 268.551 2776
1844.75 268.551 2776
1851.39 268.551 2776
1858.03 268.551 2776
1864.67 268.551 2776
1871.3 268.551 2776
1877.94 268.551 2776
1884.58 268.551 2776
1891.22 268.551 2776
1897.86 268.551 2776
1901.06 268.068 2771
1904.94 267.681 2767
1911.55 267.681 2767
1918.17 267.681 2767
1921.31 267.197 2762
1927.91 267.197 2762
1934.52 267.197 2762
1941.12 267.197 2762
1947.73 267.197 2762
1954.33 267.197 2762
1960.94 267.197 2762
1967.54 267.197 2762
1974.15 267.197 2762
1980.75 267.197 2762
1987.36 267.197 2762
1990.35 266.713 2757
1994.05 266.326 2753
2000.63 266.326 2753
2003.57 265.843 2748
2016.72 266.713 2757
2023.32 266.713 2757
2037.27 267.681 2767
2043.89 267.681 2767
2050.51 267.681 2767
2057.12 267.681 2767
2049.57 265.843 2748
2053.15 265.456 2744
2059.71 265.456 2744
2059.49 264.585 2735
2059.23 263.714 2726
2058.93 262.844 2717
2065.43 262.844 2717
2071.93 262.844 2717
2064.66 261.102 2699
-2124.13 281.249 2837
-2117.35 281.249 2837
-2110.56 281.249 2837
-2103.78 281.249 2837
-2108.08 282.736 2852
-2108.63 283.727 2862
-2101.79 283.727 2862
-2094.94 283.727 2862
-2077.15 282.24 2847
-2066.71 281.744 2842
-2059.91 281.744 2842
-2045.89 280.753 2832
-2039.12 280.753 2832
-2029.48 280.356 2828
-2022.72 280.356 2828
-2012.39 279.861 2823
-2005.64 279.861 2823
-1998.89 279.861 2823
-1992.14 279.861 2823
-1981.87 279.365 2818
-1978.64 279.861 2823
-1992.14 282.736 2852
-1992.28 283.727 2862
-1985.44 283.727 2862
-1984.82 284.619 2871
-1988.29 286.106 2886
-1981.39 286.106 2886
-1974.48 286.106 2886
-1967.58 286.106 2886
-1960.68 286.106 2886
-1995.08 292.153 2947
-1988.03 292.153 2947
-2002.49 295.326 2979
-2013.45 298.002 3006
-2013.61 299.093 3017
-2017.03 300.679 3033
-2028.33 303.455 3061
-2036.2 305.735 3084
-2028.82 305.735 3084
-2024.73 306.231 3089
-2017.34 306.231 3089
-2017.76 307.42 3101
-2010.35 307.42 3101
-2002.93 307.42 3101
-1999.38 308.015 3107
-1991.95 308.015 3107
-1984.52 308.015 3107
-1969.45 306.826 3095
-2141.1 354.906 3580
-2132.54 354.906 3580
-2123.98 354.906 3580
-2115.42 354.906 3580
-2106.86 354.906 3580
-2098.29 354.906 3580
-2089.73 354.906 3580
-2081.17 354.906 3580
-2067.98 354.113 3572
-2050.79 352.626 3557
-2042.29 352.626 3557
-2033.78 352.626 3557
-2025.27 352.626 3557
-2012.23 351.833 3549
-2003.74 351.833 3549
-1982.89 349.652 3527
-1974.46 349.652 3527
-1966.02 349.652 3527
-1957.59 349.652 3527
-1949.15 349.652 3527
-1944.57 350.346 3534
-1940.5 351.139 3542
-1932.03 351.139 3542
-1923.56 351.139 3542
-1918.88 351.833 3549
-1919 353.419 3565
-1910.48 353.419 3565
-1901.95 353.419 3565
-1893.43 353.419 3565
-1884.9 353.419 3565
-1880.06 354.113 3572
-1871.52 354.113 3572
-1871.32 355.7 3588
-1866.38 356.394 3595
-1866.05 357.98 3611
-1857.41 357.98 3611
-1861.07 360.359 3635
-1864.1 362.639 3658
-1859.91 363.531 3667
-1851.14 363.531 3667
-1858.45 366.704 3699
-1874.61 371.66 3749
-1882.56 375.031 3783
-1873.52 375.031 3783
-1903.41 382.863 3862
-1929.98 390.1 3935
-1920.57 390.1 3935
-1911.16 390.1 3935
-1819.72 405.367 4089
-1809.95 405.367 4089
-1800.17 405.367 4089
-1764.56 399.518 4030
-1689.6 384.647 3880
-1623.59 371.66 3749
-1571.99 361.846 3650
-1563.26 361.846 3650
-1537.92 357.98 3611
-1522.51 356.394 3595
-1491.59 351.139 3542
-1483.12 351.139 3542
-1447.17 344.596 3476
-1426.86 341.721 3447
-1401.33 337.558 3405
-1393.19 337.558 3405
-1382.2 336.864 3398
-1374.07 336.864 3398
-1363.13 336.17 3391
-1355.02 336.17 3391
-1346.92 336.17 3391
-1336.04 335.476 3384
-1309.51 330.816 3337
-1285.93 326.851 3297
-1278.04 326.851 3297
-1255.13 322.985 3258
-1233.18 319.317 3221
-1213.68 316.243 3190
-1206.05 316.243 3190
-1189.41 313.864 3166
-1177.36 312.675 3154
-1160.91 310.295 3130
-1153.43 310.295 3130
-1126.91 305.14 3078
-1111.18 302.86 3055
-1108.21 304.05 3067
-1102.67 304.545 3072
-1095.32 304.545 3072
-1087.98 304.545 3072
-1080.63 304.545 3072
-1073.29 304.545 3072
-1065.94 304.545 3072
-1056.87 304.05 3067
-1045.43 302.86 3055
-1038.12 302.86 3055
-1030.82 302.86 3055
-1023.51 302.86 3055
-1016.21 302.86 3055
-901.637 296.416 2990
-897.479 297.408 3000
-890.305 297.408 3000
-883.131 297.408 3000
-873.037 296.416 2990
-865.887 296.416 2990
-855.578 295.326 2979
-845.321 294.235 2968
-835.4 293.244 2958
-828.326 293.244 2958
-819.865 292.748 2953
-809.775 291.658 2942
-802.74 291.658 2942
-797.057 292.153 2947
-790.01 292.153 2947
-782.963 292.153 2947
-777.495 292.748 2953
-770.434 292.748 2953
-763.372 292.748 2953
-754.774 292.153 2947
-746.458 291.658 2942
-736.91 290.666 2932
-729.898 290.666 2932
-721.654 290.171 2927
-713.434 289.675 2922
-700.161 287.098 2896
-693.236 287.098 2896
-685.126 286.602 2891
-678.212 286.602 2891
-673.621 287.593 2901
-666.684 287.593 2901
-659.747 287.593 2901
-652.81 287.593 2901
-649.435 289.179 2917
-646.864 291.162 2937
-639.841 291.162 2937
-637.342 293.244 2958
-632.4 294.235 2968
-630.991 296.912 2995
-623.829 296.912 2995
-621.196 299.093 3017
-613.982 299.093 3017
-606.767 299.093 3017
-599.553 299.093 3017
-609.799 323.679 3265
-601.991 323.679 3265
-594.183 323.679 3265
-586.376 323.679 3265
-574.773 377.609 3809
-565.665 377.609 3809
-556.556 377.609 3809
-545.005 375.923 3792
-535.937 375.923 3792
-526.869 375.923 3792
-521.352 378.501 3818
-512.221 378.501 3818
-503.091 378.501 3818
-494.997 379.294 3826
-488.133 381.078 3844
-480.062 381.971 3853
-470.849 381.971 3853
-462.713 382.863 3862
-453.478 382.863 3862
-444.243 382.863 3862
-435.008 382.863 3862
-422.796 380.186 3835
-411.792 378.501 3818
-402.662 378.501 3818
-391.676 376.716 3800
-382.589 376.716 3800
-372.716 375.923 3792
-363.648 375.923 3792
-353.739 375.031 3783
-343.144 373.346 3766
-333.339 372.454 3757
-324.355 372.454 3757
-315.371 372.454 3757
-308.507 375.031 3783
-302.865 379.294 3826
-294.407 380.186 3835
-285.236 380.186 3835
-277.361 381.971 3853
-268.147 381.971 3853
-258.934 381.971 3853
-249.72 381.971 3853
-237.198 376.716 3800
-222.598 382.863 3862
-213.363 382.863 3862
-204.127 382.863 3862
-193.075 379.294 3826
-102.539 211.457 2133
-97.4385 211.457 2133
-92.1214 210.961 2128
-86.7873 210.366 2122
-81.6359 210.168 2120
-76.5664 210.168 2120
-71.3956 209.871 2117
-66.2392 209.573 2114
-61.1261 209.375 2112
-56.0757 209.375 2112
-51.0253 209.375 2112
-45.9748 209.375 2112
-40.9244 209.375 2112
-35.874 209.375 2112
-30.8235 209.375 2112
-25.6999 208.78 2106
-20.6638 208.78 2106
-15.6129 208.582 2104
-10.5816 208.582 2104
-5.55028 208.582 2104
-0.517496 207.987 2098
4.49946 207.987 2098
9.51641 207.987 2098
14.5334 207.987 2098
19.5503 207.987 2098
24.5673 207.987 2098
29.5842 207.987 2098
34.5682 207.789 2096
39.5804 207.789 2096
44.5925 207.789 2096
49.6047 207.789 2096
54.6169 207.789 2096
59.6291 207.789 2096
64.6412 207.789 2096
69.8196 208.285 2101
74.8437 208.285 2101
79.9818 208.582 2104
85.0132 208.582 2104
90.1301 208.78 2106
95.1661 208.78 2106
100.488 209.375 2112
105.638 209.573 2114
110.85 209.871 2117
116.187 210.366 2122
121.432 210.664 2125
126.871 211.259 2131
132.277 211.754 2136
138.092 212.845 2147
143.226 212.845 2147
148.913 213.638 2155
154.495 214.233 2161
161.14 216.215 2181
166.356 216.215 2181
172.201 217.008 2189
178.894 218.793 2207
185.34 220.181 2221
191.166 220.776 2227
196.492 220.776 2227
202.633 221.668 2236
209.096 222.857 2248
214.471 222.857 2248
220.727 223.75 2257
226.525 224.146 2261
232.24 224.444 2264
237.654 224.444 2264
243.068 224.444 2264
248.481 224.444 2264
253.895 224.444 2264
258.966 224.146 2261
260.748 221.073 2230
266.08 221.073 2230
271.413 221.073 2230
276.745 221.073 2230
428.978 296.912 2995
436.14 296.912 2995
443.302 296.912 2995
448.81 295.822 2984
455.945 295.822 2984
464.788 296.912 2995
471.95 296.912 2995
479.112 296.912 2995
486.274 296.912 2995
493.436 296.912 2995
498.759 295.822 2984
503.182 294.235 2968
510.28 294.235 2968
516.506 293.74 2963
523.591 293.74 2963
530.676 293.74 2963
537.762 293.74 2963
544.847 293.74 2963
551.933 293.74 2963
559.018 293.74 2963
564.193 292.748 2953
569.127 291.658 2942
576.162 291.658 2942
583.197 291.658 2942
588.226 290.666 2932
595.237 290.666 2932
602.249 290.666 2932
609.26 290.666 2932
616.271 290.666 2932
622.22 290.171 2927
629.219 290.171 2927
636.218 290.171 2927
643.218 290.171 2927
649.106 289.675 2922
656.094 289.675 2922
663.081 289.675 2922
670.068 289.675 2922
674.507 288.585 2911
681.468 288.585 2911
689.848 289.179 2917
696.824 289.179 2917
703.799 289.179 2917
710.774 289.179 2917
717.75 289.179 2917
724.725 289.179 2917
732.955 289.675 2922
739.942 289.675 2922
746.93 289.675 2922
753.917 289.675 2922
760.904 289.675 2922
766.578 289.179 2917
773.553 289.179 2917
780.529 289.179 2917
788.854 289.675 2922
795.841 289.675 2922
802.829 289.675 2922
809.816 289.675 2922
816.804 289.675 2922
823.791 289.675 2922
830.778 289.675 2922
837.766 289.675 2922
844.753 289.675 2922
851.741 289.675 2922
857.259 289.179 2917
864.234 289.179 2917
871.209 289.179 2917
879.69 289.675 2922
886.677 289.675 2922
896.723 290.666 2932
903.735 290.666 2932
918.822 293.244 2958
925.896 293.244 2958
956.624 300.679 3033
963.877 300.679 3033
971.13 300.679 3033
978.383 300.679 3033
985.636 300.679 3033
1217.47 355.7 3588
1228.45 356.394 3595
1237.04 356.394 3595
1245.64 356.394 3595
1251.79 355.7 3588
1260.37 355.7 3588
1274.26 357.187 3603
1282.88 357.187 3603
1294.36 357.98 3611
1308.77 359.566 3627
1325.79 361.846 3650
1334.52 361.846 3650
1352.45 364.324 3675
1361.24 364.324 3675
1370.03 364.324 3675
1378.82 364.324 3675
1378.16 361.846 3650
1386.89 361.846 3650
1395.62 361.846 3650
1404.35 361.846 3650
1407.27 360.359 3635
1415.96 360.359 3635
1424.65 360.359 3635
1433.35 360.359 3635
1429.34 357.187 3603
1428.78 354.906 3580
1418.87 350.346 3534
1427.32 350.346 3534
1420.74 346.678 3497
1408.67 341.721 3447
1405.41 338.946 3419
1413.58 338.946 3419
1410.11 336.17 3391
1392.71 330.123 3330
1389.32 327.446 3303
1381.14 323.679 3265
1425.11 332.105 3350
1433.12 332.105 3350
1452.74 334.782 3377
1466.88 336.17 3391
1493.25 340.333 3433
1501.46 340.333 3433
1515.83 341.721 3447
1533.36 343.803 3468
1541.65 343.803 3468
1549.94 343.803 3468
1574.86 347.471 3505
1583.24 347.471 3505
1591.62 347.471 3505
1391 297.408 3000
1411.22 300.183 3028
1418.46 300.183 3028
1425.7 300.183 3028
1419.69 297.408 3000
1426.87 297.408 3000
1424 295.326 2979
1413.35 291.658 2942
1410.73 289.675 2922
1407.53 287.593 2901
1414.47 287.593 2901
1421.4 287.593 2901
1425.88 287.098 2896
1432.8 287.098 2896
1439.73 287.098 2896
1444.16 286.602 2891
1446.05 285.611 2881
1447.9 284.619 2871
1454.76 284.619 2871
1461.63 284.619 2871
1465.94 284.123 2866
1472.79 284.123 2866
1479.64 284.123 2866
1481.83 283.231 2857
1486.06 282.736 2852
1492.88 282.736 2852
1499.7 282.736 2852
1506.52 282.736 2852
1510.68 282.24 2847
1514.83 281.744 2842
1521.62 281.744 2842
1528.42 281.744 2842
1535.21 281.744 2842
1539.3 281.249 2837
1543.36 280.753 2832
1550.13 280.753 2832
1554.7 280.356 2828
1561.46 280.356 2828
1568.23 280.356 2828
1574.99 280.356 2828
1581.75 280.356 2828
1588.51 280.356 2828
1595.28 280.356 2828
1602.04 280.356 2828
1608.8 280.356 2828
1615.57 280.356 2828
1619.46 279.861 2823
1626.21 279.861 2823
1635.85 280.356 2828
1642.62 280.356 2828
1649.38 280.356 2828
1656.14 280.356 2828
1662.9 280.356 2828
1669.67 280.356 2828
1676.43 280.356 2828
1685.57 280.753 2832
1692.34 280.753 2832
1699.12 280.753 2832
1705.89 280.753 2832
1712.66 280.753 2832
1719.43 280.753 2832
1726.2 280.753 2832
1730.53 280.356 2828
1731.15 279.365 2818
1734.8 278.869 2813
1741.53 278.869 2813
1745.77 278.473 2809
1749.37 277.977 2804
1756.07 277.977 2804
1762.78 277.977 2804
1766.33 277.481 2799
1769.86 276.986 2794
1776.54 276.986 2794
1783.22 276.986 2794
1787.34 276.589 2790
1794.01 276.589 2790
1797.45 276.093 2785
1804.11 276.093 2785
1810.77 276.093 2785
1817.43 276.093 2785
1820.82 275.598 2780
1827.47 275.598 2780
1834.11 275.598 2780
1838.11 275.201 2776
1844.75 275.201 2776
1851.39 275.201 2776
1858.03 275.201 2776
1864.67 275.201 2776
1871.3 275.201 2776
1877.94 275.201 2776
1884.58 275.201 2776
1891.22 275.201 2776
1897.86 275.201 2776
1901.06 274.706 2771
1904.94 274.309 2767
1911.55 274.309 2767
1918.17 274.309 2767
1921.31 273.813 2762
1927.91 273.813 2762
1934.52 273.813 2762
1941.12 273.813 2762
1947.73 273.813 2762
1957.87 274.309 2767
1964.49 274.309 2767
1971.1 274.309 2767
1977.72 274.309 2767
1984.34 274.309 2767
1990.95 274.309 2767
1993.96 273.813 2762
1996.95 273.318 2757
2000.63 272.921 2753
2007.21 272.921 2753
2016.72 273.318 2757
2023.32 273.318 2757
2037.27 274.309 2767
2043.89 274.309 2767
2050.51 274.309 2767
2057.12 274.309 2767
2056.28 273.318 2757
2056.14 272.425 2748
2062.71 272.425 2748
2066.27 272.029 2744
2066.03 271.137 2735
2072.57 271.137 2735
2079.11 271.137 2735
2085.65 271.137 2735
2078.42 269.352 2717
-2124.13 288.045 2837
-2121.08 288.552 2842
-2121.72 289.568 2852
-2114.9 289.568 2852
-2115.47 290.583 2862
-2111.58 290.989 2866
-2104.72 290.989 2866
-2097.87 290.989 2866
-2088.1 290.583 2862
-2073.98 289.568 2852
-2067.16 289.568 2852
-2053.12 288.552 2842
-2042.72 288.045 2837
-2032.35 287.537 2832
-2025.58 287.537 2832
-2015.95 287.131 2828
-2005.64 286.623 2823
-1998.89 286.623 2823
-1992.14 286.623 2823
-1985.39 286.623 2823
-1984.94 287.537 2832
-1992.14 289.568 2852
-1992.28 290.583 2862
-1985.44 290.583 2862
-1988.27 292.004 2876
-1991.73 293.527 2891
-1984.82 293.527 2891
-1977.9 293.527 2891
-1970.99 293.527 2891
-1960.68 293.02 2886
-1991.69 298.705 2942
-1984.66 298.705 2942
-1988.38 300.33 2958
-1998.72 302.97 2984
-2013.61 306.32 3017
-2006.39 306.32 3017
-2017.07 309.062 3044
-2028.28 311.904 3072
-2020.93 311.904 3072
-2021.45 313.123 3084
-2014.08 313.123 3084
-2006.7 313.123 3084
