ply
format ascii 1.0
comment File generated
element vertex 2257
property float x
property float y
property float z
end_header
-1346.58 266.306 3330
-1338.61 266.306 3330
-1330.65 266.306 3330
-1322.69 266.306 3330
-1309.59 265.267 3317
-1301.66 265.267 3317
-1275.79 261.588 3271
-1267.96 261.588 3271
-1255.13 260.548 3258
-1237.77 258.549 3233
-1220.53 256.55 3208
-1212.86 256.55 3208
-1193.92 254.15 3178
-1184.08 253.671 3172
-1160.91 250.312 3130
-1153.43 250.312 3130
-1135.33 247.993 3101
-1123.55 247.033 3089
-1112.18 246.153 3078
-1104.82 246.153 3078
-1089.26 244.314 3055
-1074.17 242.555 3033
-1059.17 240.795 3011
-1050.23 240.395 3006
-1043.04 240.395 3006
-1033.78 239.915 3000
-1023.19 239.116 2990
-1012.3 238.236 2979
-1005.18 238.236 2979
-998.052 238.236 2979
-990.928 238.236 2979
-983.804 238.236 2979
-976.681 238.236 2979
-955.887 234.877 2937
-948.864 234.877 2937
-941.841 234.877 2937
-934.818 234.877 2937
-927.794 234.877 2937
-919.204 234.477 2932
-912.192 234.477 2932
-913.208 236.557 2958
-906.134 236.557 2958
-905.444 238.236 2979
-901.637 239.116 2990
-894.487 239.116 2990
-887.337 239.116 2990
-878.421 238.636 2984
-869.825 238.236 2979
-862.702 238.236 2979
-854.142 237.836 2974
-843.897 236.956 2963
-835.4 236.557 2958
-828.326 236.557 2958
-815.422 234.877 2937
-805.647 234.078 2927
-798.647 234.078 2927
-791.648 234.078 2927
-784.648 234.078 2927
-777.649 234.078 2927
-770.65 234.078 2927
-763.651 234.078 2927
-756.651 234.078 2927
-748.371 233.678 2922
-740.115 233.278 2917
-731.632 232.798 2911
-724.671 232.798 2911
-716.477 232.398 2906
-709.528 232.398 2906
-700.161 231.598 2896
-693.236 231.598 2896
-686.31 231.598 2896
-679.385 231.598 2896
-672.46 231.598 2896
-666.684 231.998 2901
-659.747 231.998 2901
-655.06 232.798 2911
-649.435 233.278 2917
-643.56 233.678 2922
-636.573 233.678 2922
-630.663 234.078 2927
-624.729 234.477 2932
-617.718 234.477 2932
-610.706 234.477 2932
-603.695 234.477 2932
-595.666 234.078 2927
-588.667 234.078 2927
-581.668 234.078 2927
-570.545 232.398 2906
-706.704 314.689 3935
-708.99 319.967 4001
-699.422 319.967 4001
-689.854 319.967 4001
-680.287 319.967 4001
-657.979 313.889 3925
-648.593 313.889 3925
-639.207 313.889 3925
-629.821 313.889 3925
-623.439 315.409 3944
-618.366 317.648 3972
-608.868 317.648 3972
-599.37 317.648 3972
-589.872 317.648 3972
-580.373 317.648 3972
-569.582 316.928 3963
-565.476 319.967 4001
-562.577 323.806 4049
-556.991 326.205 4079
-547.237 326.205 4079
-538.801 327.005 4089
-529.023 327.005 4089
-519.245 327.005 4089
-509.467 327.005 4089
-497.245 325.405 4069
-482.842 322.286 4030
-473.205 322.286 4030
-463.568 322.286 4030
-453.931 322.286 4030
-443.191 321.487 4020
-436.706 323.806 4049
-427.024 323.806 4049
-417.341 323.806 4049
-407.659 323.806 4049
-396.109 322.286 4030
-386.472 322.286 4030
-376.835 322.286 4030
-365.376 320.687 4010
-355.787 320.687 4010
-346.198 320.687 4010
-183.33 174.658 2184
-177.373 173.939 2175
-172.172 173.939 2175
-166.971 173.939 2175
-161.175 173.299 2167
-155.777 173.059 2164
-149.837 172.179 2153
-144.487 171.939 2150
-139.345 171.939 2150
-133.83 171.46 2144
-128.222 170.82 2136
-122.942 170.58 2133
-117.841 170.58 2133
-112.635 170.42 2131
-107.236 169.94 2125
-102.01 169.7 2122
-96.936 169.7 2122
-91.6452 169.3 2117
-86.2556 168.661 2109
-81.0968 168.421 2106
-76.0607 168.421 2106
-70.9572 168.261 2104
-65.9259 168.261 2104
-60.7209 167.781 2098
-55.704 167.781 2098
-50.687 167.781 2098
-45.6701 167.781 2098
-40.6144 167.621 2096
-35.6022 167.621 2096
-30.59 167.621 2096
-25.5779 167.621 2096
-20.5657 167.621 2096
-15.5535 167.621 2096
-10.5413 167.621 2096
-5.52917 167.621 2096
-0.517496 167.781 2098
4.50589 168.021 2101
9.54363 168.261 2104
14.5749 168.261 2104
19.6249 168.421 2106
24.7312 168.9 2112
29.8098 169.06 2114
34.8651 169.06 2114
40.0713 169.7 2122
45.3372 170.42 2131
50.4804 170.58 2133
55.581 170.58 2133
60.8524 171.06 2139
66.1216 171.46 2144
71.5476 172.179 2153
76.6961 172.179 2153
82.0346 172.579 2158
87.4375 173.059 2164
92.9546 173.699 2172
98.1485 173.699 2172
103.628 174.179 2178
108.986 174.419 2181
114.359 174.658 2184
119.581 174.658 2184
125.09 175.058 2189
130.503 175.298 2192
136.116 175.778 2198
141.372 175.778 2198
146.828 176.018 2201
152.092 176.018 2201
157.355 176.018 2201
162.618 176.018 2201
167.881 176.018 2201
173.381 176.258 2204
178.651 176.258 2204
183.921 176.258 2204
189.192 176.258 2204
194.462 176.258 2204
199.733 176.258 2204
205.282 176.498 2207
210.56 176.498 2207
216.131 176.738 2210
221.416 176.738 2210
227.008 176.978 2213
232.3 176.978 2213
237.807 177.138 2215
243.104 177.138 2215
248.4 177.138 2215
253.697 177.138 2215
258.76 176.978 2213
264.052 176.978 2213
269.344 176.978 2213
274.636 176.978 2213
279.169 176.498 2207
284.446 176.498 2207
289.724 176.498 2207
294.601 176.258 2204
299.871 176.258 2204
304.726 176.018 2201
309.989 176.018 2201
442.548 243.034 3039
449.815 243.034 3039
457.082 243.034 3039
464.349 243.034 3039
471.616 243.034 3039
475.417 241.275 3017
481.672 240.795 3011
488.06 240.395 3006
495.248 240.395 3006
499.762 239.116 2990
505.895 238.636 2984
513.031 238.636 2984
520.166 238.636 2984
527.302 238.636 2984
533.542 238.236 2979
539.758 237.836 2974
546.87 237.836 2974
553.982 237.836 2974
559.962 237.356 2968
567.059 237.356 2968
571.255 236.157 2953
578.316 236.157 2953
585.378 236.157 2953
592.439 236.157 2953
598.283 235.677 2947
605.33 235.677 2947
610.299 234.877 2937
617.322 234.877 2937
624.345 234.877 2937
631.369 234.877 2937
638.392 234.877 2937
644.316 234.477 2932
650.217 234.078 2927
657.216 234.078 2927
664.216 234.078 2927
671.215 234.078 2927
677.056 233.678 2922
684.043 233.678 2922
691.031 233.678 2922
698.018 233.678 2922
705.005 233.678 2922
711.993 233.678 2922
718.98 233.678 2922
725.968 233.678 2922
732.955 233.678 2922
739.942 233.678 2922
746.93 233.678 2922
753.917 233.678 2922
760.904 233.678 2922
767.892 233.678 2922
776.205 234.078 2927
783.205 234.078 2927
790.204 234.078 2927
797.203 234.078 2927
804.203 234.078 2927
811.202 234.078 2927
818.201 234.078 2927
825.201 234.078 2927
832.2 234.078 2927
839.199 234.078 2927
846.199 234.078 2927
853.198 234.078 2927
858.728 233.678 2922
865.715 233.678 2922
871.209 233.278 2917
878.185 233.278 2917
885.16 233.278 2917
892.136 233.278 2917
899.111 233.278 2917
904.223 232.798 2911
911.184 232.798 2911
920.037 233.278 2917
927.013 233.278 2917
941.993 235.277 2942
952.577 236.157 2953
959.638 236.157 2953
966.7 236.157 2953
1363.09 312.45 3907
1372.43 312.45 3907
1381.77 312.45 3907
1375.09 308.851 3862
1368.56 305.332 3818
1377.69 305.332 3818
1386.82 305.332 3818
1389.37 303.893 3800
1398.45 303.893 3800
1404.58 303.253 3792
1413.64 303.253 3792
1419.34 302.533 3783
1415.54 299.814 3749
1415.01 297.815 3724
1423.92 297.815 3724
1429.74 297.175 3716
1425.85 294.536 3683
1434.66 294.536 3683
1443.47 294.536 3683
1449.12 293.896 3675
1457.91 293.896 3675
1456.72 291.897 3650
1465.45 291.897 3650
1455.19 288.138 3603
1435.78 282.62 3534
1414.39 276.782 3461
1411.16 274.543 3433
1419.37 274.543 3433
1410.11 271.184 3391
1387.27 265.267 3317
1373.33 261.108 3265
1359.57 257.029 3214
1372.78 258.069 3227
1380.5 258.069 3227
1420.91 264.147 3303
1446.11 267.346 3343
1487.16 273.424 3419
1495.34 273.424 3419
1515.83 275.663 3447
1536.89 277.982 3476
1545.21 277.982 3476
1553.52 277.982 3476
1561.83 277.982 3476
1418.68 243.434 3044
1425.96 243.434 3044
1433.24 243.434 3044
1435.31 242.555 3033
1442.56 242.555 3033
1431.65 239.516 2995
1425.84 237.356 2968
1428.11 236.557 2958
1425 234.877 2937
1432.02 234.877 2937
1439.04 234.877 2937
1441.14 234.078 2927
1445.67 233.678 2922
1452.66 233.678 2922
1457.15 233.278 2917
1461.11 232.798 2911
1455.46 230.799 2886
1462.36 230.799 2886
1466.72 230.399 2881
1473.61 230.399 2881
1475.36 229.599 2871
1482.22 229.599 2871
1486.5 229.199 2866
1493.35 229.199 2866
1498.11 228.879 2862
1504.95 228.879 2862
1511.8 228.879 2862
1515.99 228.479 2857
1522.82 228.479 2857
1526.98 228.08 2852
1533.8 228.08 2852
1540.62 228.08 2852
1547.44 228.08 2852
1551.53 227.68 2847
1558.34 227.68 2847
1562.4 227.28 2842
1571.95 227.68 2847
1584.31 228.479 2857
1591.14 228.479 2857
1600.77 228.879 2862
1607.61 228.879 2862
1614.46 228.879 2862
1621.3 228.879 2862
1628.14 228.879 2862
1632.13 228.479 2857
1636.1 228.08 2852
1642.92 228.08 2852
1649.74 228.08 2852
1656.56 228.08 2852
1660.46 227.68 2847
1667.27 227.68 2847
1674.08 227.68 2847
1680.88 227.68 2847
1687.69 227.68 2847
1691.52 227.28 2842
1698.32 227.28 2842
1702.12 226.88 2837
1708.9 226.88 2837
1712.66 226.48 2832
1717 226.16 2828
1723.77 226.16 2828
1721.35 224.961 2813
1728.08 224.961 2813
1732.34 224.641 2809
1739.05 224.641 2809
1742.66 224.241 2804
1749.37 224.241 2804
1756.07 224.241 2804
1762.78 224.241 2804
1760.65 223.121 2790
1767.32 223.121 2790
1770.81 222.722 2785
1777.47 222.722 2785
1780.93 222.322 2780
1787.58 222.322 2780
1794.23 222.322 2780
1800.87 222.322 2780
1807.52 222.322 2780
1814.17 222.322 2780
1818.2 222.002 2776
1821.55 221.602 2771
1828.18 221.602 2771
1834.8 221.602 2771
1841.43 221.602 2771
1848.05 221.602 2771
1854.68 221.602 2771
1861.31 221.602 2771
1867.93 221.602 2771
1874.56 221.602 2771
1881.19 221.602 2771
1885.09 221.282 2767
1891.7 221.282 2767
1898.32 221.282 2767
1904.94 221.282 2767
1911.55 221.282 2767
1918.17 221.282 2767
1924.79 221.282 2767
1927.91 220.882 2762
1934.52 220.882 2762
1941.12 220.882 2762
1947.73 220.882 2762
1950.8 220.482 2757
1957.39 220.482 2757
1963.98 220.482 2757
1970.57 220.482 2757
1977.17 220.482 2757
1983.76 220.482 2757
1987.46 220.162 2753
1990.43 219.763 2748
1990.46 219.043 2739
1997.01 219.043 2739
2003.56 219.043 2739
2010.11 219.043 2739
2023.28 219.763 2748
2029.85 219.763 2748
2036.43 219.763 2748
2043 219.763 2748
2039.87 218.723 2735
2039.68 218.003 2726
2046.2 218.003 2726
2039.16 216.564 2708
2038.84 215.844 2699
2045.29 215.844 2699
2051.75 215.844 2699
2058.2 215.844 2699
2058.54 215.204 2691
-2120.39 233.264 2832
-2113.62 233.264 2832
-2106.84 233.264 2832
-2100.07 233.264 2832
-2093.3 233.264 2832
-2090.21 233.676 2837
-2083.43 233.676 2837
-2076.64 233.676 2837
-2066.21 233.264 2832
-2056.53 232.935 2828
-2049.77 232.935 2828
-2032.17 231.699 2813
-2025.44 231.699 2813
-2005.08 230.134 2794
-1998.4 230.134 2794
-1988.87 229.805 2790
-1975.09 228.981 2780
-1968.44 228.981 2780
-1961.79 228.981 2780
-1952.33 228.652 2776
-1932.38 227.087 2757
-1922.99 226.757 2753
-1922.67 227.499 2762
-1916.07 227.499 2762
-1919.14 228.652 2776
-1922.15 229.805 2790
-1915.48 229.805 2790
-1908.8 229.805 2790
-1902.13 229.805 2790
-1879.84 227.91 2767
-1891.5 230.134 2794
-1884.82 230.134 2794
-1894.27 232.111 2818
-1900.26 233.676 2837
-1893.47 233.676 2837
-1886.69 233.676 2837
-1879.9 233.676 2837
-2074.76 286.885 3483
-2066.43 286.885 3483
-2058.1 286.885 3483
-2071.55 289.933 3520
-2063.13 289.933 3520
-2054.71 289.933 3520
-2046.29 289.933 3520
-2029.19 288.697 3505
-2016.2 288.039 3497
-2025.06 290.51 3527
-2016.63 290.51 3527
-2008.19 290.51 3527
-1999.76 290.51 3527
-1991.32 290.51 3527
-1966.02 288.039 3497
-1982.85 291.745 3542
-1982.74 292.981 3557
-1974.24 292.981 3557
-1965.73 292.981 3557
-1957.23 292.981 3557
-1953.1 293.64 3565
-1948.4 294.216 3572
-1939.85 294.216 3572
-1931.31 294.216 3572
-1922.77 294.216 3572
-1914.23 294.216 3572
-1901.95 293.64 3565
-1893.43 293.64 3565
-1884.9 293.64 3565
-1876.38 293.64 3565
-1867.85 293.64 3565
-1862.98 294.216 3572
-1858.59 294.875 3580
-1866.05 297.428 3611
-1857.41 297.428 3611
-1864.65 299.982 3642
-1855.94 299.982 3642
-1847.23 299.982 3642
-1838.52 299.982 3642
-1837.85 301.3 3658
-1853.61 305.336 3707
-1844.74 305.336 3707
-1835.88 305.336 3707
-1628.47 304.677 3699
-1619.63 304.677 3699
-1610.78 304.677 3699
-1601.94 304.677 3699
-1541.84 294.875 3580
-1533.28 294.875 3580
-1502.14 290.51 3527
-1481.01 288.039 3497
-1448.64 283.344 3440
-1440.41 283.344 3440
-1408.87 278.731 3384
-1394.98 277.578 3370
-1386.93 277.578 3370
-1378.87 277.578 3370
-1367.96 277.001 3363
-1357.49 276.507 3357
-1343.84 275.354 3343
-1335.84 275.354 3343
-1327.85 275.354 3343
-1317.49 274.86 3337
-1301.66 273.212 3317
-1275.79 269.424 3271
-1267.96 269.424 3271
-1255.13 268.353 3258
-1242.75 267.364 3246
-1220.53 264.234 3208
-1212.86 264.234 3208
-1193.92 261.763 3178
-1184.08 261.269 3172
-1160.91 257.81 3130
-1153.43 257.81 3130
-1133.13 254.927 3095
-1121.73 254.021 3084
-1112.18 253.527 3078
-1104.82 253.527 3078
-1089.26 251.632 3055
-1074.17 249.82 3033
-1063.04 248.914 3022
-1051.97 248.008 3011
-1044.77 248.008 3011
-1033.78 247.102 3000
-1023.19 246.278 2990
-1014 245.784 2984
-1006.86 245.784 2984
-999.727 245.784 2984
-992.591 245.784 2984
-985.456 245.784 2984
-978.32 245.784 2984
-954.26 241.501 2932
-948.864 241.913 2937
-941.841 241.913 2937
-934.818 241.913 2937
-927.794 241.913 2937
-919.204 241.501 2932
-912.192 241.501 2932
-913.208 243.643 2958
-906.134 243.643 2958
-906.963 245.784 2984
-904.653 247.102 3000
-897.479 247.102 3000
-890.305 247.102 3000
-880.187 246.278 2990
-871.285 245.784 2984
-864.149 245.784 2984
-855.578 245.372 2979
-845.321 244.466 2968
-835.4 243.643 2958
-828.326 243.643 2958
-815.422 241.913 2937
-805.647 241.089 2927
-798.647 241.089 2927
-791.648 241.089 2927
-784.648 241.089 2927
-777.649 241.089 2927
-770.65 241.089 2927
-763.651 241.089 2927
-756.651 241.089 2927
-749.652 241.089 2927
-741.384 240.677 2922
-733.14 240.266 2917
-726.164 240.266 2917
-717.71 239.771 2911
-709.528 239.359 2906
-700.161 238.536 2896
-693.236 238.536 2896
-686.31 238.536 2896
-679.385 238.536 2896
-672.46 238.536 2896
-666.684 238.948 2901
-659.747 238.948 2901
-655.06 239.771 2911
-649.435 240.266 2917
-643.56 240.677 2922
-636.573 240.677 2922
-630.663 241.089 2927
-625.794 241.913 2937
-619.824 242.325 2942
-612.789 242.325 2942
-605.754 242.325 2942
-596.684 241.501 2932
-589.672 241.501 2932
-581.668 241.089 2927
-570.545 239.359 2906
-706.704 324.115 3935
-697.294 324.115 3935
-687.884 324.115 3935
-678.475 324.115 3935
-667.365 323.292 3925
-654.961 321.809 3907
-647.106 322.55 3916
-637.741 322.55 3916
-628.377 322.55 3916
-620.435 323.292 3925
-616.965 326.422 3963
-607.489 326.422 3963
-598.012 326.422 3963
-587.05 325.598 3953
-579.058 326.422 3963
-569.582 326.422 3963
-565.476 329.552 4001
-562.577 333.505 4049
-556.991 335.976 4079
-547.237 335.976 4079
-538.801 336.8 4089
-529.023 336.8 4089
-519.245 336.8 4089
-508.221 335.976 4079
-498.467 335.976 4079
-473.205 331.94 4030
-463.568 331.94 4030
-453.931 331.94 4030
-443.191 331.117 4020
-436.706 333.505 4049
-427.024 333.505 4049
-417.341 333.505 4049
-407.659 333.505 4049
-396.109 331.94 4030
-386.472 331.94 4030
-376.835 331.94 4030
-365.376 330.293 4010
-357.561 331.94 4030
-347.924 331.94 4030
-338.287 331.94 4030
-177.373 179.149 2175
-172.172 179.149 2175
-166.971 179.149 2175
-161.175 178.49 2167
-155.561 177.996 2161
-149.837 177.337 2153
-144.487 177.09 2150
-139.345 177.09 2150
-133.83 176.596 2144
-128.222 175.937 2136
-122.826 175.525 2131
-117.731 175.525 2131
-112.635 175.525 2131
-107.236 175.031 2125
-101.914 174.619 2120
-96.8446 174.619 2120
-91.6452 174.372 2117
-86.1329 173.466 2106
-81.0198 173.301 2104
-75.9885 173.301 2104
-70.9572 173.301 2104
-65.8319 173.054 2101
-60.7209 172.807 2098
-55.704 172.807 2098
-50.687 172.807 2098
-45.6265 172.642 2096
-40.6144 172.642 2096
-35.6022 172.642 2096
-30.59 172.642 2096
-25.5779 172.642 2096
-20.5657 172.642 2096
-15.5535 172.642 2096
-10.5514 172.807 2098
-5.53445 172.807 2098
-0.518236 173.054 2101
4.51233 173.301 2104
9.5527 173.466 2106
14.5888 173.466 2106
19.6528 173.713 2109
24.7546 174.125 2114
29.8521 174.372 2117
34.9145 174.372 2117
40.128 175.031 2125
45.3372 175.525 2131
50.4804 175.69 2133
55.581 175.69 2133
60.8524 176.184 2139
66.1216 176.596 2144
71.5476 177.337 2153
76.6961 177.337 2153
82.1487 177.996 2161
87.5587 178.49 2167
93.083 179.149 2175
98.2841 179.149 2175
103.771 179.643 2181
109.136 179.89 2184
114.463 180.055 2186
119.691 180.055 2186
125.261 180.549 2192
130.681 180.796 2195
136.302 181.29 2201
141.565 181.29 2201
146.828 181.29 2201
152.299 181.538 2204
157.569 181.538 2204
162.84 181.538 2204
168.11 181.538 2204
173.617 181.785 2207
178.894 181.785 2207
184.172 181.785 2207
189.449 181.785 2207
194.727 181.785 2207
200.005 181.785 2207
205.282 181.785 2207
210.56 181.785 2207
216.131 182.032 2210
221.416 182.032 2210
226.7 182.032 2210
231.985 182.032 2210
237.592 182.279 2213
242.884 182.279 2213
248.176 182.279 2213
253.468 182.279 2213
258.76 182.279 2213
263.336 181.785 2207
268.614 181.785 2207
273.891 181.785 2207
279.169 181.785 2207
284.446 181.785 2207
289.724 181.785 2207
294.601 181.538 2204
298.646 180.796 2195
303.895 180.796 2195
309.144 180.796 2195
442.548 250.314 3039
449.815 250.314 3039
457.082 250.314 3039
462.669 249.408 3028
469.909 249.408 3028
475.417 248.502 3017
480.872 247.596 3006
488.06 247.596 3006
495.248 247.596 3006
499.762 246.278 2990
505.895 245.784 2984
513.031 245.784 2984
520.166 245.784 2984
527.302 245.784 2984
533.542 245.372 2979
539.758 244.96 2974
546.87 244.96 2974
553.982 244.96 2974
559.962 244.466 2968
567.059 244.466 2968
571.255 243.231 2953
578.316 243.231 2953
585.378 243.231 2953
592.439 243.231 2953
598.283 242.737 2947
605.33 242.737 2947
610.299 241.913 2937
617.322 241.913 2937
624.345 241.913 2937
631.369 241.913 2937
638.392 241.913 2937
644.316 241.501 2932
650.217 241.089 2927
657.216 241.089 2927
664.216 241.089 2927
671.215 241.089 2927
675.897 240.266 2917
682.873 240.266 2917
689.848 240.266 2917
696.824 240.266 2917
703.799 240.266 2917
710.774 240.266 2917
717.75 240.266 2917
724.725 240.266 2917
731.701 240.266 2917
739.942 240.677 2922
746.93 240.677 2922
753.917 240.677 2922
760.904 240.677 2922
767.892 240.677 2922
774.879 240.677 2922
781.867 240.677 2922
790.204 241.089 2927
797.203 241.089 2927
804.203 241.089 2927
811.202 241.089 2927
816.804 240.677 2922
825.201 241.089 2927
832.2 241.089 2927
839.199 241.089 2927
846.199 241.089 2927
851.741 240.677 2922
857.259 240.266 2917
864.234 240.266 2917
871.209 240.266 2917
878.185 240.266 2917
885.16 240.266 2917
892.136 240.266 2917
897.262 239.771 2911
902.67 239.359 2906
911.184 239.771 2911
920.037 240.266 2917
927.013 240.266 2917
941.993 242.325 2942
949.028 242.325 2942
956.063 242.325 2942
963.099 242.325 2942
1363.09 321.809 3907
1372.43 321.809 3907
1381.77 321.809 3907
1375.09 318.103 3862
1368.56 314.478 3818
1377.69 314.478 3818
1377.37 312.337 3792
1386.44 312.337 3792
1395.51 312.337 3792
1401.24 311.596 3783
1410.29 311.596 3783
1419.34 311.596 3783
1415.54 308.795 3749
1415.01 306.736 3724
1423.92 306.736 3724
1429.74 306.077 3716
1425.85 303.359 3683
1431.54 302.7 3675
1440.33 302.7 3675
1449.12 302.7 3675
1457.91 302.7 3675
1453.53 299.982 3642
1443.36 296.111 3595
1451.96 296.111 3595
1430.09 289.933 3520
1408.67 283.92 3447
1402.53 281.037 3412
1410.69 281.037 3412
1395.98 276.507 3357
1375.98 270.988 3290
1367.86 267.859 3252
1359.57 264.729 3214
1372.78 265.799 3227
1380.5 265.799 3227
1420.91 272.059 3303
1446.11 275.354 3343
1487.16 281.614 3419
1495.34 281.614 3419
1515.83 283.92 3447
1536.89 286.309 3476
1545.21 286.309 3476
1553.52 286.309 3476
1561.83 286.309 3476
1408.43 248.914 3022
1415.65 248.914 3022
1422.88 248.914 3022
1430.11 248.914 3022
1437.33 248.914 3022
1424 245.372 2979
1421.04 243.643 2958
1417.97 241.913 2937
1415.29 240.266 2917
1422.27 240.266 2917
1429.24 240.266 2917
1433.27 239.771 2911
1440.23 239.771 2911
1447.19 239.771 2911
1454.15 239.771 2911
1456.09 238.948 2901
1455.46 237.712 2886
1462.36 237.712 2886
1464.17 236.888 2876
1468.49 236.477 2871
1472.79 236.065 2866
1479.64 236.065 2866
1484.42 235.735 2862
1491.27 235.735 2862
1495.49 235.323 2857
1502.32 235.323 2857
1509.16 235.323 2857
1513.34 234.912 2852
1520.16 234.912 2852
1524.3 234.5 2847
1531.11 234.5 2847
1537.91 234.5 2847
1542.01 234.088 2842
1548.81 234.088 2842
1555.6 234.088 2842
1562.4 234.088 2842
1569.19 234.088 2842
1584.31 235.323 2857
1591.14 235.323 2857
1597.97 235.323 2857
1604.8 235.323 2857
1611.64 235.323 2857
1618.47 235.323 2857
1625.3 235.323 2857
1632.13 235.323 2857
1636.1 234.912 2852
1642.92 234.912 2852
1649.74 234.912 2852
1656.56 234.912 2852
1660.46 234.5 2847
1667.27 234.5 2847
1674.08 234.5 2847
1680.88 234.5 2847
1687.69 234.5 2847
1691.52 234.088 2842
1698.32 234.088 2842
1702.12 233.676 2837
1708.9 233.676 2837
1712.66 233.264 2832
1717 232.935 2828
1723.77 232.935 2828
1721.35 231.699 2813
1728.08 231.699 2813
1732.34 231.37 2809
1739.05 231.37 2809
1742.66 230.958 2804
1749.37 230.958 2804
1756.07 230.958 2804
1762.78 230.958 2804
1760.65 229.805 2790
1767.32 229.805 2790
1770.81 229.393 2785
1777.47 229.393 2785
1780.93 228.981 2780
1787.58 228.981 2780
1794.23 228.981 2780
1800.87 228.981 2780
1807.52 228.981 2780
1814.17 228.981 2780
1818.2 228.652 2776
1821.55 228.24 2771
1828.18 228.24 2771
1834.8 228.24 2771
1841.43 228.24 2771
1848.05 228.24 2771
1854.68 228.24 2771
1861.31 228.24 2771
1867.93 228.24 2771
1874.56 228.24 2771
1881.19 228.24 2771
1885.09 227.91 2767
1891.7 227.91 2767
1898.32 227.91 2767
1904.94 227.91 2767
1911.55 227.91 2767
1918.17 227.91 2767
1924.79 227.91 2767
1927.91 227.499 2762
1934.52 227.499 2762
1941.12 227.499 2762
1947.73 227.499 2762
1950.8 227.087 2757
1957.39 227.087 2757
1963.98 227.087 2757
1970.57 227.087 2757
1977.17 227.087 2757
1983.76 227.087 2757
1987.46 226.757 2753
1990.43 226.345 2748
1990.46 225.604 2739
1997.01 225.604 2739
2003.56 225.604 2739
2010.11 225.604 2739
2023.28 226.345 2748
2029.85 226.345 2748
2036.43 226.345 2748
2043 226.345 2748
2039.87 225.275 2735
2039.68 224.533 2726
2046.2 224.533 2726
2039.16 223.051 2708
2038.84 222.309 2699
2045.29 222.309 2699
2051.75 222.309 2699
2058.2 222.309 2699
2058.54 221.65 2691
-2124.13 240.472 2837
-2117.35 240.472 2837
-2110.56 240.472 2837
-2100.07 240.048 2832
-2100.69 240.896 2842
-2097.58 241.32 2847
-2090.77 241.32 2847
-2083.96 241.32 2847
-2073.51 240.896 2842
-2056.53 239.709 2828
-2049.77 239.709 2828
-2035.78 238.862 2818
-2025.44 238.438 2813
-2008.67 237.251 2799
-2001.97 237.251 2799
-1991.72 236.827 2794
-1985.04 236.827 2794
-1978.35 236.827 2794
-1971.67 236.827 2794
-1955.15 235.641 2780
-1935.88 234.115 2762
-1925.78 233.691 2757
-1928.94 234.878 2771
-1922.31 234.878 2771
-1925.36 236.064 2785
-1931.79 237.675 2804
-1928.52 238.099 2809
-1921.8 238.099 2809
-1915.09 238.099 2809
-1898.18 236.827 2794
-1904.36 238.438 2813
-1897.63 238.438 2813
-1907.04 240.472 2837
-1906.95 241.32 2847
-1903.48 241.744 2852
-1896.66 241.744 2852
-1912.37 244.626 2886
-1905.47 244.626 2886
-1898.57 244.626 2886
-2096.24 297.094 3505
-2092.03 297.687 3512
-2092.53 298.959 3527
-2084.1 298.959 3527
-2075.67 298.959 3527
-2067.23 298.959 3527
-2058.8 298.959 3527
-2050.36 298.959 3527
-2033.24 297.687 3512
-2024.85 297.687 3512
-2025.06 298.959 3527
-2016.63 298.959 3527
-2008.19 298.959 3527
-1999.76 298.959 3527
-1991.32 298.959 3527
-1970.52 297.094 3505
-1982.85 300.23 3542
-1978.28 300.823 3549
-1969.8 300.823 3549
-1961.31 300.823 3549
-1957.23 301.501 3557
-1948.72 301.501 3557
-1944.58 302.18 3565
-1936.05 302.18 3565
-1927.53 302.18 3565
-1919 302.18 3565
-1910.48 302.18 3565
-1901.95 302.18 3565
-1893.43 302.18 3565
-1884.9 302.18 3565
-1880.06 302.773 3572
-1871.52 302.773 3572
-1867.15 303.451 3580
-1866.38 304.722 3595
-1874.32 307.435 3627
-1865.64 307.435 3627
-1864.65 308.706 3642
-1860.02 309.384 3650
-1859.91 310.825 3667
-1851.14 310.825 3667
-1854.43 312.86 3691
-1878.61 318.454 3757
-1869.62 318.454 3757
-1860.64 318.454 3757
-1619.63 313.538 3699
-1610.78 313.538 3699
-1601.94 313.538 3699
-1551.74 305.401 3603
-1543.13 305.401 3603
-1505.13 299.552 3534
-1487.36 297.687 3512
-1451.59 292.177 3447
-1443.34 292.177 3447
-1414.7 288.024 3398
-1397.88 286.244 3377
-1389.81 286.244 3377
-1381.73 286.244 3377
-1367.96 285.057 3363
-1359.92 285.057 3363
-1351.88 285.057 3363
-1343.84 285.057 3363
-1335.79 285.057 3363
-1322.62 283.956 3350
-1301.66 281.158 3317
-1275.79 277.259 3271
-1267.96 277.259 3271
-1255.13 276.157 3258
-1242.75 275.14 3246
-1220.53 271.919 3208
-1212.86 271.919 3208
-1193.92 269.376 3178
-1184.08 268.868 3172
-1160.91 265.308 3130
-1153.43 265.308 3130
-1129.1 261.409 3084
-1119.54 260.9 3078
-1112.18 260.9 3078
-1104.82 260.9 3078
-1089.26 258.95 3055
-1074.17 257.086 3033
-1063.04 256.153 3022
-1051.97 255.221 3011
-1044.77 255.221 3011
-1033.78 254.289 3000
-1024.9 253.865 2995
-1016.04 253.441 2990
-1008.89 253.441 2990
-1001.74 253.441 2990
-994.587 253.441 2990
-985.456 252.932 2984
-978.32 252.932 2984
-952.633 248.101 2927
-947.249 248.525 2932
-941.841 248.948 2937
-934.818 248.948 2937
-927.794 248.948 2937
-917.636 248.101 2927
-910.637 248.101 2927
-909.812 249.796 2947
-902.765 249.796 2947
-906.963 252.932 2984
-906.462 254.797 3006
-899.274 254.797 3006
-892.085 254.797 3006
-884.897 254.797 3006
-877.709 254.797 3006
-870.521 254.797 3006
-855.578 252.508 2979
-847.03 252.085 2974
-835.4 250.728 2958
-828.326 250.728 2958
-815.422 248.948 2937
-805.647 248.101 2927
-798.647 248.101 2927
-791.648 248.101 2927
-784.648 248.101 2927
-777.649 248.101 2927
-770.65 248.101 2927
-763.651 248.101 2927
-756.651 248.101 2927
-749.652 248.101 2927
-741.384 247.677 2922
-733.14 247.253 2917
-726.164 247.253 2917
-717.71 246.745 2911
-709.528 246.321 2906
-698.952 245.049 2891
-693.236 245.473 2896
-686.31 245.473 2896
-679.385 245.473 2896
-672.46 245.473 2896
-665.535 245.473 2896
-658.61 245.473 2896
-653.935 246.321 2906
-648.099 246.745 2911
-643.56 247.677 2922
-636.573 247.677 2922
-632.818 248.948 2937
-626.86 249.372 2942
-623.195 250.728 2958
-616.122 250.728 2958
-609.048 250.728 2958
-602.992 251.152 2963
-595.907 251.152 2963
-588.822 251.152 2963
-703.292 331.931 3916
-693.927 331.931 3916
-684.563 331.931 3916
-668.991 328.88 3880
-659.713 328.88 3880
-647.417 327.354 3862
-638.182 327.354 3862
-628.947 327.354 3862
-619.712 327.354 3862
-616.167 330.406 3898
-611.049 332.694 3925
-601.664 332.694 3925
-592.278 332.694 3925
-582.892 332.694 3925
-573.506 332.694 3925
-564.12 332.694 3925
-560.105 335.915 3963
-555.908 339.136 4001
-551.529 342.357 4039
-541.871 342.357 4039
-536.165 344.9 4069
-527.729 345.748 4079
-517.975 345.748 4079
-508.221 345.748 4079
-498.467 345.748 4079
-473.205 341.594 4030
-463.568 341.594 4030
-453.931 341.594 4030
-436.706 343.205 4049
-427.024 343.205 4049
-417.341 343.205 4049
-407.659 343.205 4049
-396.109 341.594 4030
-386.472 341.594 4030
-376.835 341.594 4030
-365.376 339.899 4010
-357.561 341.594 4030
-347.924 341.594 4030
-338.287 341.594 4030
-177.373 184.359 2175
-171.935 184.105 2172
-166.741 184.105 2172
-160.729 183.172 2161
-155.129 182.664 2155
-149.628 182.24 2150
-144.084 181.732 2144
-138.957 181.732 2144
-133.705 181.562 2142
-128.042 180.799 2133
-122.826 180.63 2131
-117.731 180.63 2131
-112.476 180.375 2128
-107.085 179.867 2122
-101.77 179.443 2117
-96.7076 179.443 2117
-91.4287 179.019 2112
-86.0511 178.341 2104
-81.0198 178.341 2104
-75.9885 178.341 2104
-70.9572 178.341 2104
-65.8319 178.087 2101
-60.7209 177.832 2098
-55.704 177.832 2098
-50.687 177.832 2098
-45.6701 177.832 2098
-40.6144 177.663 2096
-35.6022 177.663 2096
-30.6192 177.832 2098
-25.6023 177.832 2098
-20.5853 177.832 2098
-15.5684 177.832 2098
-10.5665 178.087 2101
-5.54236 178.087 2101
-0.518236 178.087 2101
4.51662 178.511 2106
9.56631 178.765 2109
14.6096 178.765 2109
19.6808 179.019 2112
24.7898 179.443 2117
29.8945 179.697 2120
34.964 179.697 2120
40.1846 180.375 2128
45.3797 180.799 2133
50.5514 181.053 2136
55.6592 181.053 2136
60.9377 181.562 2142
66.2141 181.986 2147
71.6141 182.664 2155
76.7673 182.664 2155
82.2627 183.427 2164
87.6395 183.851 2169
93.2114 184.613 2178
98.4197 184.613 2178
103.771 184.868 2181
109.236 185.292 2186
114.62 185.546 2189
119.855 185.546 2189
125.432 186.054 2195
130.86 186.309 2198
136.302 186.563 2201
141.565 186.563 2201
147.028 186.817 2204
152.299 186.817 2204
157.569 186.817 2204
162.84 186.817 2204
168.11 186.817 2204
173.617 187.072 2207
178.894 187.072 2207
184.172 187.072 2207
189.449 187.072 2207
194.727 187.072 2207
200.005 187.072 2207
205.282 187.072 2207
210.56 187.072 2207
216.131 187.326 2210
221.416 187.326 2210
226.7 187.326 2210
231.985 187.326 2210
237.27 187.326 2210
242.555 187.326 2210
247.84 187.326 2210
253.124 187.326 2210
258.058 187.072 2207
262.62 186.563 2201
267.883 186.563 2201
273.147 186.563 2201
278.03 186.309 2198
283.286 186.309 2198
288.542 186.309 2198
293.398 186.054 2195
297.83 185.546 2189
303.065 185.546 2189
308.299 185.546 2189
442.548 257.594 3039
449.815 257.594 3039
457.082 257.594 3039
461.752 256.153 3022
468.978 256.153 3022
474.471 255.221 3011
479.112 253.865 2995
486.274 253.865 2995
493.436 253.865 2995
499.762 253.441 2990
505.895 252.932 2984
513.031 252.932 2984
520.166 252.932 2984
527.302 252.932 2984
533.542 252.508 2979
539.758 252.085 2974
546.87 252.085 2974
553.982 252.085 2974
559.962 251.576 2968
567.059 251.576 2968
571.255 250.305 2953
578.316 250.305 2953
585.378 250.305 2953
591.235 249.796 2947
598.283 249.796 2947
605.33 249.796 2947
610.299 248.948 2937
617.322 248.948 2937
624.345 248.948 2937
631.369 248.948 2937
637.305 248.525 2932
644.316 248.525 2932
650.217 248.101 2927
657.216 248.101 2927
664.216 248.101 2927
670.068 247.677 2922
675.897 247.253 2917
682.873 247.253 2917
689.848 247.253 2917
696.824 247.253 2917
703.799 247.253 2917
710.774 247.253 2917
717.75 247.253 2917
724.725 247.253 2917
731.701 247.253 2917
738.676 247.253 2917
745.652 247.253 2917
752.627 247.253 2917
760.904 247.677 2922
767.892 247.677 2922
774.879 247.677 2922
781.867 247.677 2922
788.854 247.677 2922
795.841 247.677 2922
802.829 247.677 2922
809.816 247.677 2922
816.804 247.677 2922
823.791 247.677 2922
832.2 248.101 2927
839.199 248.101 2927
846.199 248.101 2927
851.741 247.677 2922
857.259 247.253 2917
864.234 247.253 2917
871.209 247.253 2917
876.378 246.745 2911
883.34 246.745 2911
890.301 246.745 2911
895.721 246.321 2906
902.67 246.321 2906
911.184 246.745 2911
920.037 247.253 2917
927.013 247.253 2917
937.19 248.101 2927
944.189 248.101 2927
951.189 248.101 2927
1353.67 328.88 3880
1362.95 328.88 3880
1372.22 328.88 3880
1362.28 324.303 3826
1349.92 319.217 3766
1352.79 317.776 3749
1374.1 320.658 3783
1383.15 320.658 3783
1392.2 320.658 3783
1401.24 320.658 3783
1410.29 320.658 3783
1412.96 319.217 3766
1415.54 317.776 3749
1415.01 315.657 3724
1423.92 315.657 3724
1426.28 314.216 3707
1425.85 312.182 3683
1431.54 311.503 3675
1440.33 311.503 3675
1449.12 311.503 3675
1444.82 308.706 3642
1447.54 307.435 3627
1431.32 302.18 3565
1439.84 302.18 3565
1417.9 295.822 3490
1400.09 290.397 3426
1393.9 287.431 3391
1402 287.431 3391
1390.15 283.362 3343
1375.98 278.87 3290
1365.34 275.14 3246
1357.03 271.919 3208
1372.78 273.53 3227
1380.5 273.53 3227
1418.33 279.463 3297
1431.84 280.565 3310
1465.85 285.651 3370
1473.91 285.651 3370
1503.52 289.804 3419
1524.07 292.177 3447
1532.31 292.177 3447
1540.56 292.177 3447
1352.51 247.253 2917
1368.81 248.948 2937
1375.83 248.948 2937
1382.86 248.948 2937
1389.88 248.948 2937
1396.9 248.948 2937
1403.93 248.948 2937
1406.15 248.101 2927
1408.32 247.253 2917
1409.96 246.321 2906
1416.91 246.321 2906
1423.85 246.321 2906
1430.8 246.321 2906
1437.75 246.321 2906
1444.7 246.321 2906
1449.15 245.897 2901
1451.07 245.049 2891
1450.42 243.778 2876
1457.3 243.778 2876
1461.63 243.354 2871
1465.94 242.93 2866
1470.73 242.591 2862
1477.58 242.591 2862
1481.83 242.167 2857
1488.66 242.167 2857
1492.88 241.744 2852
1499.7 241.744 2852
1506.52 241.744 2852
1510.68 241.32 2847
1517.49 241.32 2847
1524.3 241.32 2847
1531.11 241.32 2847
1535.21 240.896 2842
1542.01 240.896 2842
1546.08 240.472 2837
1552.87 240.472 2837
1559.65 240.472 2837
1569.19 240.896 2842
1578.76 241.32 2847
1591.14 242.167 2857
1597.97 242.167 2857
1604.8 242.167 2857
1611.64 242.167 2857
1618.47 242.167 2857
1625.3 242.167 2857
1626.42 241.32 2847
1633.23 241.32 2847
1640.04 241.32 2847
1646.84 241.32 2847
1653.65 241.32 2847
1660.46 241.32 2847
1667.27 241.32 2847
1674.08 241.32 2847
1680.88 241.32 2847
1684.73 240.896 2842
1688.55 240.472 2837
1695.33 240.472 2837
1702.12 240.472 2837
1705.89 240.048 2832
1712.66 240.048 2832
1717 239.709 2828
1723.77 239.709 2828
1721.35 238.438 2813
1728.08 238.438 2813
1732.34 238.099 2809
1739.05 238.099 2809
1745.77 238.099 2809
1749.37 237.675 2804
1756.07 237.675 2804
1762.78 237.675 2804
1763.17 236.827 2794
1767.32 236.488 2790
1770.81 236.064 2785
1777.47 236.064 2785
1780.93 235.641 2780
1787.58 235.641 2780
1794.23 235.641 2780
1800.87 235.641 2780
1807.52 235.641 2780
1814.17 235.641 2780
1820.82 235.641 2780
1821.55 234.878 2771
1828.18 234.878 2771
1834.8 234.878 2771
1841.43 234.878 2771
1848.05 234.878 2771
1854.68 234.878 2771
1861.31 234.878 2771
1867.93 234.878 2771
1874.56 234.878 2771
1881.19 234.878 2771
1885.09 234.539 2767
1891.7 234.539 2767
1898.32 234.539 2767
1904.94 234.539 2767
1911.55 234.539 2767
1918.17 234.539 2767
1924.79 234.539 2767
1927.91 234.115 2762
1934.52 234.115 2762
1941.12 234.115 2762
1947.73 234.115 2762
1954.33 234.115 2762
1964.49 234.539 2767
1971.1 234.539 2767
1977.72 234.539 2767
1980.75 234.115 2762
1987.36 234.115 2762
1990.35 233.691 2757
1990.43 232.928 2748
1997 232.928 2748
1997.01 232.165 2739
2010.14 232.928 2748
2016.71 232.928 2748
2023.28 232.928 2748
2029.85 232.928 2748
2036.43 232.928 2748
2043 232.928 2748
2042.86 232.165 2739
2042.67 231.403 2730
2049.2 231.403 2730
2048.95 230.64 2721
2049.41 229.962 2713
2055.9 229.962 2713
2058.59 229.538 2708
2065.06 229.538 2708
2061.59 228.436 2695
-2124.13 247.268 2837
-2117.35 247.268 2837
-2110.56 247.268 2837
-2100.07 246.832 2832
-2100.69 247.704 2842
-2097.58 248.14 2847
-2090.77 248.14 2847
-2083.96 248.14 2847
-2073.51 247.704 2842
-2056.53 246.484 2828
-2049.77 246.484 2828
-2035.78 245.612 2818
-2025.44 245.176 2813
-2008.67 243.956 2799
-2001.97 243.956 2799
-1991.72 243.52 2794
-1985.04 243.52 2794
-1978.35 243.52 2794
-1971.67 243.52 2794
-1955.15 242.3 2780
-1935.88 240.731 2762
-1925.78 240.296 2757
-1938.68 242.736 2785
-1932.02 242.736 2785
-1935.04 243.956 2799
-1937.99 245.176 2813
-1941.57 246.484 2828
-1934.8 246.484 2828
-1928.04 246.484 2828
-1914.48 245.612 2818
-1920.61 247.268 2837
-1913.82 247.268 2837
-1923.84 249.447 2862
-1929.73 251.103 2881
-1926.17 251.539 2886
-1919.27 251.539 2886
-1939.54 255.112 2927
-1942.44 256.42 2942
-1963.04 260.081 2984
-1955.9 260.081 2984
-1948.77 260.081 2984
-2096.24 305.49 3505
-2096.8 306.797 3520
-2092.53 307.408 3527
-2084.1 307.408 3527
-2079.78 308.018 3534
-2071.33 308.018 3534
-2062.88 308.018 3534
-2054.43 308.018 3534
-2041.93 307.408 3527
-2024.85 306.1 3512
-2029.08 308.018 3534
-2020.63 308.018 3534
-2012.18 308.018 3534
-2003.73 308.018 3534
-1995.28 308.018 3534
-1974.46 306.1 3512
-1982.85 308.715 3542
-1978.28 309.325 3549
-1969.8 309.325 3549
-1961.31 309.325 3549
-1957.23 310.022 3557
-1948.72 310.022 3557
-1944.58 310.72 3565
-1936.05 310.72 3565
-1927.53 310.72 3565
-1919 310.72 3565
-1910.48 310.72 3565
-1901.95 310.72 3565
-1893.43 310.72 3565
-1884.9 310.72 3565
-1880.06 311.33 3572
-1871.52 311.33 3572
-1871.32 312.724 3588
-1870.53 314.032 3603
-1874.32 316.123 3627
-1865.64 316.123 3627
-1872.84 318.825 3658
-1864.1 318.825 3658
-1863.97 320.307 3675
-1855.18 320.307 3675
-1862.47 323.096 3707
-1904.61 331.986 3809
-1895.5 331.986 3809
-1886.39 331.986 3809
-1619.63 322.399 3699
-1610.78 322.399 3699
-1601.94 322.399 3699
-1551.74 314.032 3603
-1543.13 314.032 3603
-1508.53 308.715 3542
-1496.67 308.018 3534
-1454.53 301.045 3454
-1446.28 301.045 3454
-1426.36 298.604 3426
-1403.68 295.554 3391
-1395.57 295.554 3391
-1387.46 295.554 3391
-1370.81 293.724 3370
-1362.75 293.724 3370
-1354.69 293.724 3370
-1346.63 293.724 3370
-1338.57 293.724 3370
-1327.75 293.114 3363
-1306.76 290.237 3330
-1278.52 285.705 3278
-1270.68 285.705 3278
-1255.13 283.962 3258
-1242.75 282.916 3246
-1220.53 279.604 3208
-1212.86 279.604 3208
-1193.92 276.989 3178
-1184.08 276.466 3172
-1160.91 272.806 3130
-1153.43 272.806 3130
-1129.1 268.796 3084
-1119.54 268.273 3078
-1112.18 268.273 3078
-1104.82 268.273 3078
-1089.26 266.269 3055
-1074.17 264.351 3033
-1063.04 263.393 3022
-1051.97 262.434 3011
-1044.77 262.434 3011
-1033.78 261.475 3000
-1024.9 261.039 2995
-1017.74 261.039 2995
-1010.57 261.039 2995
-1003.41 261.039 2995
-994.587 260.603 2990
-985.456 260.081 2984
-978.32 260.081 2984
-952.633 255.112 2927
-947.249 255.548 2932
-941.841 255.984 2937
-934.818 255.984 2937
-927.794 255.984 2937
-917.636 255.112 2927
-910.637 255.112 2927
-909.812 256.856 2947
-902.765 256.856 2947
-906.963 260.081 2984
-906.462 261.998 3006
-899.274 261.998 3006
-892.085 261.998 3006
-884.897 261.998 3006
-877.709 261.998 3006
-870.521 261.998 3006
-855.578 259.645 2979
-847.03 259.209 2974
-835.4 257.814 2958
-828.326 257.814 2958
-815.422 255.984 2937
-805.647 255.112 2927
-798.647 255.112 2927
-791.648 255.112 2927
-784.648 255.112 2927
-777.649 255.112 2927
-770.65 255.112 2927
-763.651 255.112 2927
-756.651 255.112 2927
-749.652 255.112 2927
-741.384 254.677 2922
-733.14 254.241 2917
-726.164 254.241 2917
-719.189 254.241 2917
-710.749 253.718 2911
-698.952 251.975 2891
-693.236 252.411 2896
-686.31 252.411 2896
-679.385 252.411 2896
-672.46 252.411 2896
-665.535 252.411 2896
-658.61 252.411 2896
-653.935 253.282 2906
-649.435 254.241 2917
-644.662 255.112 2927
-637.662 255.112 2927
-633.895 256.42 2942
-629.203 257.379 2953
-623.195 257.814 2958
-616.122 257.814 2958
-613.372 259.645 2979
-606.249 259.645 2979
-599.125 259.645 2979
-592.001 259.645 2979
-703.292 341.312 3916
-693.927 341.312 3916
-684.563 341.312 3916
-668.991 338.174 3880
-659.713 338.174 3880
-647.417 336.606 3862
-638.182 336.606 3862
-628.947 336.606 3862
-619.712 336.606 3862
-616.167 339.743 3898
-611.049 342.096 3925
-601.664 342.096 3925
-592.278 342.096 3925
-582.892 342.096 3925
-573.506 342.096 3925
-564.12 342.096 3925
-560.105 345.409 3963
-555.908 348.721 4001
-551.529 352.033 4039
-541.871 352.033 4039
-536.165 354.647 4069
-527.729 355.519 4079
-517.975 355.519 4079
-508.221 355.519 4079
-498.467 355.519 4079
-473.205 351.248 4030
-463.568 351.248 4030
-453.931 351.248 4030
-436.706 352.904 4049
-427.024 352.904 4049
-417.341 352.904 4049
-407.659 352.904 4049
-396.109 351.248 4030
-386.472 351.248 4030
-376.835 351.248 4030
-365.376 349.505 4010
-357.561 351.248 4030
-348.701 352.033 4039
-339.043 352.033 4039
-329.384 352.033 4039
-171.935 189.308 2172
-166.741 189.308 2172
-160.729 188.349 2161
-155.561 188.349 2161
-149.837 187.652 2153
-144.285 187.129 2147
-139.151 187.129 2147
-133.705 186.693 2142
-128.042 185.909 2133
-122.826 185.734 2131
-117.731 185.734 2131
-112.476 185.473 2128
-107.085 184.95 2122
-101.77 184.514 2117
-96.7076 184.514 2117
-91.4287 184.078 2112
-86.0511 183.381 2104
-81.0198 183.381 2104
-75.9885 183.381 2104
-70.9572 183.381 2104
-65.9259 183.381 2104
-60.8078 183.12 2101
-55.7836 183.12 2101
-50.7595 183.12 2101
-45.7354 183.12 2101
-40.7113 183.12 2101
-35.6871 183.12 2101
-30.663 183.12 2101
-25.6389 183.12 2101
-20.6147 183.12 2101
-15.5906 183.12 2101
-10.5816 183.381 2104
-5.55028 183.381 2104
-0.518976 183.381 2104
4.51662 183.555 2106
9.57992 184.078 2112
14.6303 184.078 2112
19.6994 184.253 2114
24.8249 184.776 2120
29.9227 184.95 2122
34.997 184.95 2122
40.2413 185.734 2131
45.4435 186.17 2136
50.6224 186.432 2139
55.7374 186.432 2139
60.9946 186.867 2144
66.3066 187.39 2150
71.7138 188.088 2158
76.8742 188.088 2158
82.3767 188.872 2167
87.7607 189.308 2172
93.3398 190.092 2181
98.5552 190.092 2181
104.009 190.528 2186
109.386 190.79 2189
114.935 191.313 2195
120.184 191.313 2195
125.604 191.574 2198
131.039 191.836 2201
136.488 192.097 2204
141.758 192.097 2204
147.028 192.097 2204
152.299 192.097 2204
157.569 192.097 2204
162.84 192.097 2204
168.11 192.097 2204
173.617 192.358 2207
178.894 192.358 2207
184.172 192.358 2207
189.449 192.358 2207
194.727 192.358 2207
200.005 192.358 2207
205.282 192.358 2207
210.56 192.358 2207
216.131 192.62 2210
221.416 192.62 2210
226.7 192.62 2210
231.985 192.62 2210
237.27 192.62 2210
242.555 192.62 2210
247.84 192.62 2210
253.124 192.62 2210
258.058 192.358 2207
262.62 191.836 2201
267.883 191.836 2201
273.147 191.836 2201
278.03 191.574 2198
283.286 191.574 2198
288.542 191.574 2198
293.398 191.313 2195
297.83 190.79 2189
303.065 190.79 2189
308.299 190.79 2189
437.572 266.269 3055
444.878 266.269 3055
452.183 266.269 3055
457.834 265.31 3044
461.752 263.393 3022
468.978 263.393 3022
474.471 262.434 3011
479.112 261.039 2995
486.274 261.039 2995
493.436 261.039 2995
499.762 260.603 2990
505.895 260.081 2984
513.031 260.081 2984
520.166 260.081 2984
527.302 260.081 2984
533.542 259.645 2979
539.758 259.209 2974
546.87 259.209 2974
553.982 259.209 2974
559.962 258.686 2968
567.059 258.686 2968
571.255 257.379 2953
578.316 257.379 2953
585.378 257.379 2953
591.235 256.856 2947
598.283 256.856 2947
605.33 256.856 2947
610.299 255.984 2937
617.322 255.984 2937
624.345 255.984 2937
631.369 255.984 2937
637.305 255.548 2932
644.316 255.548 2932
650.217 255.112 2927
657.216 255.112 2927
664.216 255.112 2927
670.068 254.677 2922
675.897 254.241 2917
682.873 254.241 2917
689.848 254.241 2917
696.824 254.241 2917
703.799 254.241 2917
710.774 254.241 2917
717.75 254.241 2917
724.725 254.241 2917
731.701 254.241 2917
738.676 254.241 2917
746.93 254.677 2922
753.917 254.677 2922
760.904 254.677 2922
766.578 254.241 2917
773.553 254.241 2917
780.529 254.241 2917
788.854 254.677 2922
795.841 254.677 2922
802.829 254.677 2922
809.816 254.677 2922
816.804 254.677 2922
823.791 254.677 2922
830.778 254.677 2922
837.766 254.677 2922
844.753 254.677 2922
851.741 254.677 2922
857.259 254.241 2917
864.234 254.241 2917
869.417 253.718 2911
874.873 253.282 2906
881.822 253.282 2906
888.771 253.282 2906
894.179 252.846 2901
901.117 252.846 2901
909.619 253.282 2906
920.037 254.241 2917
927.013 254.241 2917
937.19 255.112 2927
944.189 255.112 2927
951.189 255.112 2927
1308.21 322.399 3699
1317.06 322.399 3699
1325.9 322.399 3699
1343.77 324.578 3724
1358.49 325.972 3740
1367.43 325.972 3740
1382.63 327.454 3757
1391.61 327.454 3757
1400.6 327.454 3757
1409.58 327.454 3757
1409.13 325.275 3732
1408.55 323.096 3707
1417.42 323.096 3707
1423.2 322.399 3699
1422.76 320.307 3675
1421.81 318.128 3650
1430.53 318.128 3650
1439.26 318.128 3650
1442.04 316.821 3635
1444.35 315.426 3619
1428.11 310.022 3557
1436.61 310.022 3557
1417.9 304.183 3490
1402.95 299.215 3433
1393.9 295.554 3391
1402 295.554 3391
1390.15 291.37 3343
1375.98 286.751 3290
1365.34 282.916 3246
1357.03 279.604 3208
1375.34 281.783 3233
1383.07 281.783 3233
1415.32 286.751 3290
1434.87 289.104 3317
1442.8 289.104 3317
1450.73 289.104 3317
1518.91 301.045 3454
1536.89 302.962 3476
1545.21 302.962 3476
1553.52 302.962 3476
1551.95 301.045 3454
1361.79 255.984 2937
1368.81 255.984 2937
1375.83 255.984 2937
1382.86 255.984 2937
1385.15 255.112 2927
1392.15 255.112 2927
1399.15 255.112 2927
1401.34 254.241 2917
1403.01 253.282 2906
1407.53 252.846 2901
1414.47 252.846 2901
1421.4 252.846 2901
1428.34 252.846 2901
1435.28 252.846 2901
1442.22 252.846 2901
1446.66 252.411 2896
1451.07 251.975 2891
1450.42 250.667 2876
1457.3 250.667 2876
1461.63 250.232 2871
1465.94 249.796 2866
1470.73 249.447 2862
1477.58 249.447 2862
1481.83 249.011 2857
1488.66 249.011 2857
1492.88 248.576 2852
1499.7 248.576 2852
1506.52 248.576 2852
1510.68 248.14 2847
1517.49 248.14 2847
1521.62 247.704 2842
1528.42 247.704 2842
1532.51 247.268 2837
1539.3 247.268 2837
1546.08 247.268 2837
1552.87 247.268 2837
1559.65 247.268 2837
1566.43 247.268 2837
1575.99 247.704 2842
1585.57 248.14 2847
1592.38 248.14 2847
1599.19 248.14 2847
1606 248.14 2847
1612.8 248.14 2847
1619.61 248.14 2847
1623.56 247.704 2842
1630.36 247.704 2842
1637.16 247.704 2842
1643.95 247.704 2842
1650.75 247.704 2842
1654.63 247.268 2837
1661.41 247.268 2837
1668.2 247.268 2837
1674.98 247.268 2837
1681.76 247.268 2837
1688.55 247.268 2837
1695.33 247.268 2837
1699.12 246.832 2832
1705.89 246.832 2832
1710.24 246.484 2828
1713.97 246.048 2823
1720.72 246.048 2823
1721.35 245.176 2813
1728.08 245.176 2813
1734.8 245.176 2813
1741.53 245.176 2813
1745.77 244.828 2809
1752.49 244.828 2809
1756.07 244.392 2804
1762.78 244.392 2804
1763.17 243.52 2794
1767.32 243.172 2790
1770.81 242.736 2785
1777.47 242.736 2785
1780.93 242.3 2780
1787.58 242.3 2780
1794.23 242.3 2780
1800.87 242.3 2780
1807.52 242.3 2780
1814.17 242.3 2780
1820.82 242.3 2780
1821.55 241.516 2771
1828.18 241.516 2771
1834.8 241.516 2771
1841.43 241.516 2771
1848.05 241.516 2771
1854.68 241.516 2771
1861.31 241.516 2771
1867.93 241.516 2771
1874.56 241.516 2771
1881.19 241.516 2771
1885.09 241.167 2767
1891.7 241.167 2767
1898.32 241.167 2767
1904.94 241.167 2767
1911.55 241.167 2767
1918.17 241.167 2767
1924.79 241.167 2767
1927.91 240.731 2762
1934.52 240.731 2762
1941.12 240.731 2762
1947.73 240.731 2762
1957.87 241.167 2767
1964.49 241.167 2767
1971.1 241.167 2767
1977.72 241.167 2767
1984.34 241.167 2767
1990.95 241.167 2767
1993.96 240.731 2762
1994.05 239.947 2753
2000.63 239.947 2753
2003.57 239.511 2748
2010.14 239.511 2748
2016.71 239.511 2748
2029.91 240.296 2757
2036.5 240.296 2757
2043.09 240.296 2757
2049.69 240.296 2757
2046.58 239.163 2744
2046.41 238.378 2735
2052.95 238.378 2735
2052.72 237.594 2726
2049.41 236.461 2713
2055.9 236.461 2713
2058.59 236.025 2708
2065.06 236.025 2708
2061.59 234.892 2695
-2124.13 254.064 2837
-2117.35 254.064 2837
-2110.56 254.064 2837
-2103.78 254.064 2837
-2104.39 254.96 2847
-2097.58 254.96 2847
-2090.77 254.96 2847
-2083.96 254.96 2847
-2077.15 254.96 2847
-2059.44 253.617 2832
-2052.67 253.617 2832
-2043 253.258 2828
-2025.44 251.915 2813
-2018.71 251.915 2813
-2011.99 251.915 2813
-1995.28 250.661 2799
-1985.04 250.213 2794
-1978.35 250.213 2794
-1971.67 250.213 2794
-1964.99 250.213 2794
-1945.69 248.602 2776
-1932.77 247.796 2767
-1938.68 249.407 2785
-1932.02 249.407 2785
-1935.04 250.661 2799
-1937.99 251.915 2813
-1941.57 253.258 2828
-1934.8 253.258 2828
-1928.04 253.258 2828
-1914.48 252.363 2818
-1920.61 254.064 2837
-1913.82 254.064 2837
-1923.84 256.303 2862
-1929.73 258.005 2881
-1926.17 258.452 2886
-1919.27 258.452 2886
-1939.54 262.124 2927
-1942.44 263.467 2942
-1963.04 267.229 2984
-1955.9 267.229 2984
-1948.77 267.229 2984
-2096.24 313.886 3505
-2096.8 315.23 3520
-2092.53 315.856 3527
-2084.1 315.856 3527
-2079.78 316.483 3534
-2071.33 316.483 3534
-2062.88 316.483 3534
-2054.43 316.483 3534
-2041.93 315.856 3527
-2024.85 314.513 3512
-2029.08 316.483 3534
-2020.63 316.483 3534
-2012.18 316.483 3534
-2003.73 316.483 3534
-1995.28 316.483 3534
-1974.46 314.513 3512
-1982.85 317.2 3542
-1974.38 317.2 3542
-1969.8 317.827 3549
-1961.31 317.827 3549
-1952.82 317.827 3549
-1948.72 318.543 3557
-1944.58 319.259 3565
-1936.05 319.259 3565
-1927.53 319.259 3565
-1919 319.259 3565
-1910.48 319.259 3565
-1901.95 319.259 3565
-1893.43 319.259 3565
-1884.9 319.259 3565
-1880.06 319.886 3572
-1871.52 319.886 3572
-1871.32 321.319 3588
-1870.53 322.663 3603
-1874.32 324.812 3627
-1865.64 324.812 3627
-1872.84 327.588 3658
-1864.1 327.588 3658
-1863.97 329.11 3675
-1855.18 329.11 3675
-1862.47 331.976 3707
-1904.61 341.111 3809
-1895.5 341.111 3809
-1886.39 341.111 3809
-1619.63 331.26 3699
-1610.78 331.26 3699
-1601.94 331.26 3699
-1551.74 322.663 3603
-1543.13 322.663 3603
-1508.53 317.2 3542
-1496.67 316.483 3534
-1454.53 309.319 3454
-1446.28 309.319 3454
-1426.36 306.811 3426
-1403.68 303.677 3391
-1395.57 303.677 3391
-1387.46 303.677 3391
-1370.81 301.796 3370
