ply
format ascii 1.0
comment File generated
element vertex 2256
property float x
property float y
property float z
end_header
1629.09 1077.39 2350
1627.76 1072.8 2340
1633.35 1072.8 2340
1634.05 1069.59 2333
1648.76 1075.55 2346
1654.37 1075.55 2346
1662.81 1077.39 2350
1668.43 1077.39 2350
1676.19 1078.76 2353
1683.96 1080.14 2356
1689.59 1080.14 2356
1726.89 1100.31 2400
1745.62 1108.56 2418
1756.47 1111.77 2425
1762.27 1111.77 2425
1768.07 1111.77 2425
1773.87 1111.77 2425
1781.87 1113.15 2428
1787.67 1113.15 2428
1796.44 1114.98 2432
1810.4 1120.02 2443
1823.68 1124.61 2453
1829.55 1124.61 2453
1846.63 1131.48 2468
1854.79 1132.86 2471
1875 1141.57 2490
1880.96 1141.57 2490
1886.91 1141.57 2490
1892.87 1141.57 2490
1898.82 1141.57 2490
1896.36 1136.53 2479
-1501.23 1051.68 2282
-1514.78 1065.04 2311
-1509.25 1065.04 2311
-1503.72 1065.04 2311
-1500.14 1066.42 2314
-1494.61 1066.42 2314
-1489.08 1066.42 2314
-1477.13 1061.82 2304
-1471.62 1061.82 2304
-1462.29 1059.05 2298
-1458.7 1060.43 2301
-1453.2 1060.43 2301
-1453.99 1065.04 2311
-1448.46 1065.04 2311
-1446.68 1067.81 2317
-1441.14 1067.81 2317
-1437.46 1069.19 2320
-1438.08 1073.8 2330
-1432.51 1073.8 2330
-1426.94 1073.8 2330
-1421.37 1073.8 2330
-1457.7 1114.35 2418
-1451.92 1114.35 2418
-1446.14 1114.35 2418
-1440.36 1114.35 2418
-1390.08 1079.79 2343
-1380.93 1077.02 2337
-1375.34 1077.02 2337
-1373.27 1079.79 2343
-1367.67 1079.79 2343
-1362.06 1079.79 2343
-1356.46 1079.79 2343
-1350.86 1079.79 2343
-1345.26 1079.79 2343
-1339.65 1079.79 2343
-1334.05 1079.79 2343
-1328.45 1079.79 2343
-1321.15 1078.41 2340
-1315.55 1078.41 2340
-1306.04 1075.18 2333
-1300.46 1075.18 2333
-1294.88 1075.18 2333
-1285.99 1072.42 2327
-1276.57 1069.19 2320
-1271.02 1069.19 2320
-1262.2 1066.42 2314
-1256.67 1066.42 2314
-1258.17 1072.42 2327
-1254.22 1073.8 2330
-1248.64 1073.8 2330
-1243.07 1073.8 2330
-1241.22 1077.02 2337
-1235.63 1077.02 2337
-1230.04 1077.02 2337
-1222.36 1075.18 2333
-1216.78 1075.18 2333
-1211.2 1075.18 2333
-1205.62 1075.18 2333
-1194.9 1070.57 2323
-1189.34 1070.57 2323
-1183.79 1070.57 2323
-1176.71 1069.19 2320
-1174.7 1072.42 2327
-1169.13 1072.42 2327
-1163.57 1072.42 2327
-1158 1072.42 2327
-1153.92 1073.8 2330
-1153.28 1078.41 2340
-1149.16 1079.79 2343
-1143.55 1079.79 2343
-1137.95 1079.79 2343
-1130.9 1078.41 2340
-1125.3 1078.41 2340
-1119.71 1078.41 2340
-1121.73 1085.78 2356
-1119.41 1089.01 2363
-1119.89 1095 2376
-1114.21 1095 2376
-1108.52 1095 2376
-1102.84 1095 2376
-1100.39 1098.22 2383
-1094.7 1098.22 2383
-1095.39 1104.68 2397
-1091.03 1106.06 2400
-1090.26 1111.13 2411
-1084.5 1111.13 2411
-1078.73 1111.13 2411
-1064.95 1102.83 2393
-1059.23 1102.83 2393
-1056.59 1106.06 2400
-1050.85 1106.06 2400
-1045.11 1106.06 2400
-1033.74 1100.07 2387
-1028.04 1100.07 2387
-1013.33 1090.39 2366
-1003.42 1085.78 2356
-986.772 1073.8 2330
-981.2 1073.8 2330
-970.185 1067.81 2317
-963.396 1066.42 2314
-959.104 1067.81 2317
-956.032 1070.57 2323
-950.477 1070.57 2323
-947.77 1073.8 2330
-942.198 1073.8 2330
-936.626 1073.8 2330
-931.055 1073.8 2330
-920.319 1067.81 2317
-918.727 1072.42 2327
-917.086 1077.02 2337
-911.498 1077.02 2337
-909.398 1081.17 2346
-909.182 1087.62 2360
-905.835 1090.39 2366
-900.177 1090.39 2366
-896.032 1092.23 2370
-890.365 1092.23 2370
-888.43 1096.84 2380
-882.739 1096.84 2380
-877.047 1096.84 2380
-867.695 1092.23 2370
-862.028 1092.23 2370
-852.747 1087.62 2360
-844.591 1084.4 2353
-836.468 1081.17 2346
-830.858 1081.17 2346
-824.193 1079.79 2343
-817.542 1078.41 2340
-816.457 1084.4 2353
-811.864 1085.78 2356
-808.626 1089.01 2363
-802.975 1089.01 2363
-797.324 1089.01 2363
-791.674 1089.01 2363
-786.023 1089.01 2363
-780.372 1089.01 2363
-774.722 1089.01 2363
-769.071 1089.01 2363
-763.421 1089.01 2363
-757.77 1089.01 2363
-749.891 1085.78 2356
-745.521 1087.62 2360
-743.012 1092.23 2370
-737.345 1092.23 2370
-735.691 1098.22 2383
-732.137 1101.45 2390
-728.549 1104.68 2397
-722.817 1104.68 2397
-717.085 1104.68 2397
-711.353 1104.68 2397
-705.622 1104.68 2397
-692.882 1093.62 2373
-687.207 1093.62 2373
-679.522 1090.39 2366
-673.865 1090.39 2366
-663.688 1083.02 2350
-655.268 1078.41 2340
-652.449 1083.02 2350
-646.829 1083.02 2350
-641.21 1083.02 2350
-635.59 1083.02 2350
-630.775 1084.4 2353
-625.148 1084.4 2353
-619.521 1084.4 2353
-613.895 1084.4 2353
-608.268 1084.4 2353
-603.409 1085.78 2356
-597.776 1085.78 2356
-593.901 1089.01 2363
-588.997 1090.39 2366
-585.065 1093.62 2373
-579.391 1093.62 2373
-574.441 1095 2376
-568.76 1095 2376
-563.078 1095 2376
-555.989 1092.23 2370
-550.321 1092.23 2370
-544.654 1092.23 2370
-538.986 1092.23 2370
-533.319 1092.23 2370
-526.761 1090.39 2366
-520.443 1089.01 2363
-516.317 1092.23 2370
-511.942 1095 2376
-506.261 1095 2376
-501.422 1096.84 2380
-497.813 1101.45 2390
-492.098 1101.45 2390
-486.383 1101.45 2390
-480.668 1101.45 2390
-474.356 1100.07 2387
-468.648 1100.07 2387
-460.807 1095 2376
-454.55 1093.62 2373
-448.876 1093.62 2373
-443.761 1095 2376
-438.08 1095 2376
-434.4 1100.07 2387
-429.231 1101.45 2390
-426.528 1109.28 2407
-420.772 1109.28 2407
-415.016 1109.28 2407
-409.26 1109.28 2407
-403.504 1109.28 2407
-397.253 1107.9 2404
-390.853 1106.06 2400
-385.114 1106.06 2400
-379.374 1106.06 2400
-373.168 1104.68 2397
-367.896 1106.06 2400
-362.761 1107.9 2404
-358.051 1111.13 2411
-352.286 1111.13 2411
-347.527 1114.35 2418
-341.745 1114.35 2418
-335.962 1114.35 2418
-330.18 1114.35 2418
-324.398 1114.35 2418
-317.693 1111.13 2411
-310.505 1106.06 2400
-304.766 1106.06 2400
-297.781 1101.45 2390
-291.21 1098.22 2383
-284.313 1093.62 2373
-278.639 1093.62 2373
-271.469 1087.62 2360
-265.375 1085.78 2356
-259.741 1085.78 2356
-254.539 1087.62 2360
-248.895 1087.62 2360
-243.252 1087.62 2360
-237.205 1085.78 2356
-231.571 1085.78 2356
-225.65 1084.4 2353
-218.808 1078.41 2340
-212.939 1077.02 2337
-207.35 1077.02 2337
-200.898 1072.42 2327
-194.242 1066.42 2314
-188.709 1066.42 2314
-182.621 1063.2 2307
-177.105 1063.2 2307
-69.9679 1029.1 2233
-64.6282 1029.1 2233
-59.2884 1029.1 2233
-53.8761 1027.71 2230
-48.4129 1024.95 2224
-43.0946 1024.95 2224
-37.7764 1024.95 2224
-32.2538 1018.5 2210
-27.0056 1019.88 2213
-21.8216 1024.95 2224
-16.5033 1024.95 2224
-11.1851 1024.95 2224
-5.85892 1023.57 2221
-0.546355 1020.8 2215
4.75038 1020.8 2215
10.0244 1018.5 2210
15.3092 1018.5 2210
20.594 1018.5 2210
25.8788 1018.5 2210
31.079 1015.73 2204
36.0525 1007.43 2186
41.2799 1007.43 2186
46.5073 1007.43 2186
51.7347 1007.43 2186
56.91 1006.51 2184
62.1326 1006.51 2184
67.1701 1003.75 2178
72.3784 1003.75 2178
77.4798 1002.37 2175
82.6809 1002.37 2175
87.8819 1002.37 2175
93.083 1002.37 2175
98.2841 1002.37 2175
102.676 994.531 2158
108.287 998.679 2167
113.573 999.6 2169
118.76 999.6 2169
123.947 999.6 2169
129.133 999.6 2169
134.32 999.6 2169
139.378 998.679 2167
144.16 995.914 2161
149.88 999.6 2169
155.067 999.6 2169
160.254 999.6 2169
165.669 1000.98 2172
171.571 1005.13 2181
178.408 1014.35 2201
183.671 1014.35 2201
192.711 1034.63 2245
199.492 1042 2261
209.701 1066.42 2314
215.235 1066.42 2314
221.341 1069.19 2320
227.866 1073.8 2330
233.438 1073.8 2330
239.01 1073.8 2330
244.582 1073.8 2330
249.831 1072.42 2327
255.725 1073.8 2330
261.297 1073.8 2330
267.67 1077.02 2337
273.96 1079.79 2343
279.921 1081.17 2346
286.018 1083.02 2350
291.638 1083.02 2350
297.637 1084.4 2353
304.552 1089.01 2363
310.203 1089.01 2363
315.853 1089.01 2363
321.912 1090.39 2366
327.57 1090.39 2366
333.228 1090.39 2366
338.886 1090.39 2366
344.544 1090.39 2366
350.793 1092.23 2370
356.912 1093.62 2373
362.587 1093.62 2373
368.727 1095 2376
375.512 1098.22 2383
382.81 1102.83 2393
388.532 1102.83 2393
395.408 1106.06 2400
402.317 1109.28 2407
408.073 1109.28 2407
413.829 1109.28 2407
419.585 1109.28 2407
426.047 1111.13 2411
433.066 1114.35 2418
438.849 1114.35 2418
444.631 1114.35 2418
450.972 1115.74 2421
456.761 1115.74 2421
462.55 1115.74 2421
469.114 1117.58 2425
474.912 1117.58 2425
480.711 1117.58 2425
490.121 1125.88 2443
495.963 1125.88 2443
501.805 1125.88 2443
507.647 1125.88 2443
514.12 1127.26 2446
519.969 1127.26 2446
525.818 1127.26 2446
527.103 1117.58 2425
532.902 1117.58 2425
538.701 1117.58 2425
544.499 1117.58 2425
550.298 1117.58 2425
556.097 1117.58 2425
560.274 1114.35 2418
562.779 1107.9 2404
568.528 1107.9 2404
579.293 1117.58 2425
585.092 1117.58 2425
590.891 1117.58 2425
596.69 1117.58 2425
602.488 1117.58 2425
608.287 1117.58 2425
609.528 1109.28 2407
615.284 1109.28 2407
618.46 1104.68 2397
624.192 1104.68 2397
629.924 1104.68 2397
633.004 1100.07 2387
638.712 1100.07 2387
644.42 1100.07 2387
650.128 1100.07 2387
655.836 1100.07 2387
661.544 1100.07 2387
667.252 1100.07 2387
672.96 1100.07 2387
684.354 1109.28 2407
694.124 1115.74 2421
699.914 1115.74 2421
705.703 1115.74 2421
711.492 1115.74 2421
717.282 1115.74 2421
726.356 1120.81 2432
732.172 1120.81 2432
738.898 1122.19 2435
744.721 1122.19 2435
750.544 1122.19 2435
756.366 1122.19 2435
764.693 1125.88 2443
773.689 1130.48 2453
783.051 1135.55 2464
788.943 1135.55 2464
794.835 1135.55 2464
800.727 1135.55 2464
806.62 1135.55 2464
812.512 1135.55 2464
814.75 1130.48 2453
820.616 1130.48 2453
826.482 1130.48 2453
832.348 1130.48 2453
834.797 1125.88 2443
835.477 1118.96 2428
841.283 1118.96 2428
847.089 1118.96 2428
851.842 1117.58 2425
856.226 1115.74 2421
860.947 1114.35 2418
866.729 1114.35 2418
871.068 1112.51 2414
876.841 1112.51 2414
881.516 1111.13 2411
887.282 1111.13 2411
893.047 1111.13 2411
893.594 1104.68 2397
895.574 1100.07 2387
898.639 1096.84 2380
909.269 1102.83 2393
914.992 1102.83 2393
920.714 1102.83 2393
926.437 1102.83 2393
934.886 1106.06 2400
940.625 1106.06 2400
946.364 1106.06 2400
953.69 1107.9 2404
959.439 1107.9 2404
965.187 1107.9 2404
974.975 1112.51 2414
983.591 1115.74 2421
998.371 1125.88 2443
1004.21 1125.88 2443
1010.06 1125.88 2443
1015.9 1125.88 2443
1036.8 1142.47 2479
1047.35 1147.54 2490
1053.3 1147.54 2490
1063.94 1152.61 2501
1076.34 1159.52 2516
1084.07 1161.36 2520
1090.1 1161.36 2520
1096.13 1161.36 2520
1100.4 1159.52 2516
1106.42 1159.52 2516
1104.03 1150.76 2497
1108.67 1149.38 2494
1111.06 1145.69 2486
1117.01 1145.69 2486
1117.98 1140.62 2475
1123.9 1140.62 2475
1129.82 1140.62 2475
1135.74 1140.62 2475
1141.66 1140.62 2475
1142.47 1135.55 2464
1130.19 1117.58 2425
1135.99 1117.58 2425
1141.79 1117.58 2425
1147.59 1117.58 2425
1151.48 1115.74 2421
1150.58 1109.28 2407
1156.34 1109.28 2407
1157.26 1104.68 2397
1164.45 1106.06 2400
1173.6 1109.28 2407
1188.18 1117.58 2425
1193.98 1117.58 2425
1215.61 1132.33 2457
1223.47 1134.17 2461
1229.36 1134.17 2461
1235.24 1134.17 2461
1239.11 1132.33 2457
1235.86 1124.03 2439
1241.7 1124.03 2439
1238.32 1115.74 2421
1240.51 1112.51 2414
1242.67 1109.28 2407
1246.87 1107.9 2404
1252.62 1107.9 2404
1251.04 1101.45 2390
1249.4 1095 2376
1248.21 1089.01 2363
1253.86 1089.01 2363
1255.78 1085.78 2356
1258.2 1083.02 2350
1260.06 1079.79 2343
1265.66 1079.79 2343
1265.84 1075.18 2333
1265.97 1070.57 2323
1269.88 1069.19 2320
1279.28 1072.42 2327
1284.84 1072.42 2327
1290.4 1072.42 2327
1293.74 1070.57 2323
1299.3 1070.57 2323
1308.78 1073.8 2330
1314.35 1073.8 2330
1319.93 1073.8 2330
1325.5 1073.8 2330
1332.78 1075.18 2333
1338.36 1075.18 2333
1349.7 1079.79 2343
1361.09 1084.4 2353
1372.52 1089.01 2363
1378.18 1089.01 2363
1383.83 1089.01 2363
1389.48 1089.01 2363
1395.13 1089.01 2363
1400.78 1089.01 2363
1406.43 1089.01 2363
1412.08 1089.01 2363
1419.53 1090.39 2366
1425.19 1090.39 2366
1430.85 1090.39 2366
1436.5 1090.39 2366
1446.43 1093.62 2373
1452.1 1093.62 2373
1457.78 1093.62 2373
1459.13 1090.39 2366
1462.94 1089.01 2363
1468.59 1089.01 2363
1472.36 1087.62 2360
1478.01 1087.62 2360
1481.14 1085.78 2356
1486.77 1085.78 2356
1492.41 1085.78 2356
1498.04 1085.78 2356
1516.44 1095 2376
1529.17 1100.07 2387
1556.74 1115.74 2421
1562.53 1115.74 2421
1568.32 1115.74 2421
1590.36 1127.26 2446
1596.21 1127.26 2446
1602.06 1127.26 2446
1596.07 1118.96 2428
1601.88 1118.96 2428
1607.69 1118.96 2428
1611.5 1117.58 2425
1603.29 1107.9 2404
1601.68 1102.83 2393
1607.4 1102.83 2393
1604.36 1096.84 2380
1610.05 1096.84 2380
1615.74 1096.84 2380
1618.71 1095 2376
1624.39 1095 2376
1628.01 1093.62 2373
1626.8 1089.01 2363
1623.47 1083.02 2350
1629.09 1083.02 2350
1627.76 1078.41 2340
1633.35 1078.41 2340
1634.05 1075.18 2333
1648.76 1081.17 2346
1654.37 1081.17 2346
1662.81 1083.02 2350
1668.43 1083.02 2350
1676.19 1084.4 2353
1683.96 1085.78 2356
1689.59 1085.78 2356
1726.89 1106.06 2400
1745.62 1114.35 2418
1756.47 1117.58 2425
1762.27 1117.58 2425
1768.07 1117.58 2425
1773.87 1117.58 2425
1781.87 1118.96 2428
1787.67 1118.96 2428
1796.44 1120.81 2432
1810.4 1125.88 2443
1823.68 1130.48 2453
1829.55 1130.48 2453
1848.88 1138.78 2471
1857.79 1140.62 2475
1875 1147.54 2490
1880.96 1147.54 2490
1886.91 1147.54 2490
1892.87 1147.54 2490
1898.82 1147.54 2490
1896.36 1142.47 2479
-1508.66 1058.53 2285
-1503.2 1058.53 2285
-1497.73 1058.53 2285
-1492.27 1058.53 2285
-1486.81 1058.53 2285
-1481.34 1058.53 2285
-1477.82 1059.92 2288
-1472.34 1059.92 2288
-1466.87 1059.92 2288
-1461.4 1059.92 2288
-1455.93 1059.92 2288
-1452.99 1061.78 2292
-1447.51 1061.78 2292
-1447.7 1065.95 2301
-1448.46 1070.58 2311
-1442.93 1070.58 2311
-1437.41 1070.58 2311
-1439.32 1076.14 2323
-1436.23 1077.99 2327
-1432.51 1079.38 2330
-1426.94 1079.38 2330
-1425.64 1082.62 2337
-1423.7 1085.4 2343
-1428.38 1093.28 2360
-1449.26 1113.66 2404
-1443.51 1113.66 2404
-1437.77 1113.66 2404
-1432.02 1113.66 2404
-1390.08 1085.4 2343
-1382.7 1084.01 2340
-1377.11 1084.01 2340
-1373.27 1085.4 2343
-1367.67 1085.4 2343
-1362.06 1085.4 2343
-1356.46 1085.4 2343
-1350.86 1085.4 2343
-1345.26 1085.4 2343
-1339.65 1085.4 2343
-1332.34 1084.01 2340
-1326.75 1084.01 2340
-1317.2 1080.77 2333
-1311.62 1080.77 2333
-1302.68 1077.99 2327
-1297.12 1077.99 2327
-1287.67 1074.75 2320
-1278.8 1071.97 2314
-1267.77 1067.34 2304
-1262.26 1067.34 2304
-1256.75 1067.34 2304
-1252.87 1068.73 2307
-1247.35 1068.73 2307
-1243.99 1070.58 2311
-1238.46 1070.58 2311
-1232.94 1070.58 2311
-1230.6 1073.36 2317
-1225.06 1073.36 2317
-1219.51 1073.36 2317
-1213.97 1073.36 2317
-1208.43 1073.36 2317
-1202.89 1073.36 2317
-1197.35 1073.36 2317
-1191.81 1073.36 2317
-1186.27 1073.36 2317
-1180.73 1073.36 2317
-1172.15 1070.58 2311
-1168.13 1071.97 2314
-1165.62 1074.75 2320
-1163.57 1077.99 2327
-1158 1077.99 2327
-1153.92 1079.38 2330
-1151.8 1082.62 2337
-1147.69 1084.01 2340
-1142.09 1084.01 2340
-1136.49 1084.01 2340
-1127.52 1080.77 2333
-1123.86 1082.62 2337
-1118.27 1082.62 2337
-1114.11 1084.01 2340
-1109.94 1085.4 2343
-1109.05 1090.03 2353
-1103.42 1090.03 2353
-1102.46 1094.67 2363
-1098.2 1096.06 2366
-1092.54 1096.06 2366
-1086.89 1096.06 2366
-1085.8 1100.69 2376
-1087.84 1108.56 2393
-1082.12 1108.56 2393
-1076.4 1108.56 2393
-1070.68 1108.56 2393
-1059.17 1102.54 2380
-1050.38 1099.3 2373
-1044.7 1099.3 2373
-1039.03 1099.3 2373
-1033.36 1099.3 2373
-1024.65 1096.06 2366
-1018.99 1096.06 2366
-1009.05 1091.42 2356
-992.344 1079.38 2330
-981.266 1073.36 2317
-975.726 1073.36 2317
-968.929 1071.97 2314
-963.396 1071.97 2314
-959.104 1073.36 2317
-956.032 1076.14 2323
-950.477 1076.14 2323
-947.77 1079.38 2330
-942.198 1079.38 2330
-936.626 1079.38 2330
-931.055 1079.38 2330
-920.319 1073.36 2317
-915.963 1074.75 2320
-914.339 1079.38 2330
-908.768 1079.38 2330
-904.359 1080.77 2333
-903.788 1086.79 2346
-900.858 1090.03 2353
-895.231 1090.03 2353
-889.605 1090.03 2353
-883.978 1090.03 2353
-878.351 1090.03 2353
-870.128 1086.79 2346
-863.413 1085.4 2343
-853.05 1079.38 2330
-847.479 1079.38 2330
-839.378 1076.14 2323
-832.746 1074.75 2320
-826.128 1073.36 2317
-821.65 1074.75 2320
-817.158 1076.14 2323
-811.603 1076.14 2323
-809.517 1080.77 2333
-807.384 1085.4 2343
-802.808 1086.79 2346
-797.198 1086.79 2346
-794.962 1091.42 2356
-789.329 1091.42 2356
-783.695 1091.42 2356
-778.061 1091.42 2356
-772.427 1091.42 2356
-766.793 1091.42 2356
-761.159 1091.42 2356
-754.563 1090.03 2353
-747.981 1088.65 2350
-744.257 1091.42 2356
-739.877 1093.28 2360
-734.234 1093.28 2360
-731.678 1097.91 2370
-729.993 1103.93 2383
-724.294 1103.93 2383
-718.596 1103.93 2383
-712.897 1103.93 2383
-704.231 1099.3 2373
-698.556 1099.3 2373
-690.838 1096.06 2366
-685.18 1096.06 2366
-674.927 1088.65 2350
-669.308 1088.65 2350
-660.017 1082.62 2337
-654.428 1082.62 2337
-650.505 1085.4 2343
-646.829 1088.65 2350
-641.21 1088.65 2350
-635.59 1088.65 2350
-629.971 1088.65 2350
-624.351 1088.65 2350
-618.732 1088.65 2350
-613.895 1090.03 2353
-608.268 1090.03 2353
-602.641 1090.03 2353
-597.014 1090.03 2353
-591.388 1090.03 2353
-588.997 1096.06 2366
-584.326 1097.91 2370
-578.658 1097.91 2370
-573.716 1099.3 2373
-568.042 1099.3 2373
-562.367 1099.3 2373
-555.989 1097.91 2370
-550.321 1097.91 2370
-544.654 1097.91 2370
-538.986 1097.91 2370
-533.319 1097.91 2370
-526.761 1096.06 2366
-520.443 1094.67 2363
-516.317 1097.91 2370
-511.942 1100.69 2376
-506.261 1100.69 2376
-501.422 1102.54 2380
-497.813 1107.18 2390
-492.098 1107.18 2390
-486.383 1107.18 2390
-480.668 1107.18 2390
-474.356 1105.79 2387
-468.648 1105.79 2387
-460.807 1100.69 2376
-454.55 1099.3 2373
-448.876 1099.3 2373
-443.761 1100.69 2376
-438.08 1100.69 2376
-434.4 1105.79 2387
-429.231 1107.18 2390
-426.528 1115.05 2407
-420.772 1115.05 2407
-415.016 1115.05 2407
-409.26 1115.05 2407
-403.504 1115.05 2407
-397.253 1113.66 2404
-390.853 1111.81 2400
-385.114 1111.81 2400
-379.374 1111.81 2400
-373.168 1110.42 2397
-367.896 1111.81 2400
-362.761 1113.66 2404
-358.051 1116.9 2411
-352.286 1116.9 2411
-347.527 1120.15 2418
-341.745 1120.15 2418
-335.962 1120.15 2418
-330.18 1120.15 2418
-324.398 1120.15 2418
-317.693 1116.9 2411
-310.505 1111.81 2400
-304.766 1111.81 2400
-297.781 1107.18 2390
-291.21 1103.93 2383
-284.313 1099.3 2373
-278.639 1099.3 2373
-271.469 1093.28 2360
-265.375 1091.42 2356
-259.741 1091.42 2356
-254.539 1093.28 2360
-248.895 1093.28 2360
-243.252 1093.28 2360
-237.205 1091.42 2356
-231.571 1091.42 2356
-225.65 1090.03 2353
-218.808 1084.01 2340
-212.939 1082.62 2337
-207.35 1082.62 2337
-200.898 1077.99 2327
-194.242 1071.97 2314
-188.709 1071.97 2314
-182.621 1068.73 2307
-177.105 1068.73 2307
-171.142 1065.95 2301
-69.9679 1034.44 2233
-64.6282 1034.44 2233
-59.2884 1034.44 2233
-53.8761 1033.05 2230
-48.4129 1030.28 2224
-43.0946 1030.28 2224
-37.7764 1030.28 2224
-32.2538 1023.79 2210
-27.0056 1025.18 2213
-21.8216 1030.28 2224
-16.5033 1030.28 2224
-11.1851 1030.28 2224
-5.85892 1028.89 2221
-0.546355 1026.11 2215
4.75038 1026.11 2215
10.0244 1023.79 2210
15.3092 1023.79 2210
20.594 1023.79 2210
25.8788 1023.79 2210
31.079 1021.01 2204
36.0525 1012.67 2186
41.2421 1011.75 2184
46.4009 1010.36 2181
51.6164 1010.36 2181
56.8318 1010.36 2181
61.8765 1007.58 2175
66.8309 1003.87 2167
72.179 1006.19 2172
77.3729 1006.19 2172
82.6809 1007.58 2175
87.8819 1007.58 2175
93.083 1007.58 2175
98.1485 1006.19 2172
102.534 998.311 2155
107.587 997.384 2153
113.468 1003.87 2167
118.65 1003.87 2167
123.947 1004.8 2169
129.133 1004.8 2169
134.32 1004.8 2169
138.992 1001.09 2161
144.16 1001.09 2161
149.12 999.701 2158
154.281 999.701 2158
159.219 998.311 2155
165.669 1006.19 2172
171.571 1010.36 2181
178.408 1019.62 2201
183.671 1019.62 2201
193.741 1045.56 2257
200.021 1050.2 2267
209.701 1071.97 2314
215.235 1071.97 2314
221.054 1073.36 2317
227.866 1079.38 2330
233.438 1079.38 2330
239.01 1079.38 2330
244.582 1079.38 2330
249.831 1077.99 2327
255.396 1077.99 2327
260.175 1074.75 2320
266.869 1079.38 2330
273.259 1082.62 2337
279.205 1084.01 2340
285.531 1086.79 2346
291.141 1086.79 2346
296.751 1086.79 2346
303.263 1090.03 2353
309.284 1091.42 2356
314.918 1091.42 2356
320.552 1091.42 2356
326.739 1093.28 2360
332.805 1094.67 2363
338.456 1094.67 2363
344.107 1094.67 2363
349.757 1094.67 2363
355.859 1096.06 2366
361.517 1096.06 2366
368.261 1099.3 2373
373.936 1099.3 2373
380.73 1102.54 2380
386.421 1102.54 2380
394.255 1108.56 2393
401.147 1111.81 2400
406.886 1111.81 2400
412.625 1111.81 2400
419.585 1115.05 2407
425.34 1115.05 2407
431.813 1116.9 2411
437.578 1116.9 2411
443.344 1116.9 2411
449.109 1116.9 2411
454.874 1116.9 2411
460.64 1116.9 2411
465.631 1115.05 2407
471.387 1115.05 2407
479.324 1120.15 2418
485.106 1120.15 2418
490.888 1120.15 2418
496.67 1120.15 2418
502.452 1120.15 2418
508.235 1120.15 2418
513.166 1118.29 2414
518.939 1118.29 2414
524.712 1118.29 2414
530.484 1118.29 2414
534.035 1113.66 2404
539.784 1113.66 2404
545.533 1113.66 2404
551.281 1113.66 2404
553.091 1105.79 2387
557.16 1102.54 2380
565.217 1107.18 2390
570.932 1107.18 2390
576.647 1107.18 2390
582.362 1107.18 2390
588.078 1107.18 2390
593.793 1107.18 2390
599.508 1107.18 2390
605.223 1107.18 2390
609.149 1103.93 2383
614.073 1102.54 2380
619.765 1102.54 2380
625.456 1102.54 2380
631.147 1102.54 2380
633.093 1096.06 2366
638.75 1096.06 2366
644.408 1096.06 2366
651.989 1099.3 2373
657.664 1099.3 2373
664.177 1100.69 2376
669.859 1100.69 2376
678.668 1105.79 2387
690.11 1115.05 2407
697.023 1116.9 2411
702.788 1116.9 2411
708.553 1116.9 2411
715.208 1118.29 2414
723.071 1121.54 2421
728.86 1121.54 2421
735.863 1123.39 2425
741.662 1123.39 2425
749.619 1126.63 2432
756.366 1128.02 2435
764.693 1131.73 2443
771.482 1133.12 2446
779.555 1136.36 2453
785.421 1136.36 2453
791.287 1136.36 2453
797.153 1136.36 2453
802.037 1134.97 2450
807.895 1134.97 2450
813.754 1134.97 2450
819.613 1134.97 2450
819.407 1126.63 2432
825.222 1126.63 2432
826.254 1120.15 2418
828.251 1115.05 2407
834.007 1115.05 2407
839.763 1115.05 2407
844.465 1113.66 2404
850.214 1113.66 2404
855.962 1113.66 2404
861.711 1113.66 2404
862.408 1107.18 2390
868.123 1107.18 2390
873.838 1107.18 2390
879.553 1107.18 2390
885.269 1107.18 2390
888.374 1103.93 2383
890.321 1099.3 2373
897.128 1100.69 2376
904.33 1102.54 2380
910.021 1102.54 2380
915.712 1102.54 2380
921.404 1102.54 2380
927.095 1102.54 2380
932.786 1102.54 2380
939.661 1103.93 2383
946.946 1105.79 2387
953.851 1107.18 2390
959.566 1107.18 2390
966.493 1108.56 2393
975.06 1111.81 2400
988.155 1120.15 2418
995.17 1121.54 2421
1000.96 1121.54 2421
1006.75 1121.54 2421
1018.39 1128.02 2435
1030.53 1134.97 2450
1036.38 1134.97 2450
1059.26 1153.5 2490
1066.92 1155.35 2494
1082.35 1165.55 2516
1088.37 1165.55 2516
1094.39 1165.55 2516
1092.09 1156.74 2497
1098.06 1156.74 2497
1102.71 1155.35 2494
1105.12 1151.65 2486
1104.36 1144.7 2471
1110.27 1144.7 2471
1114.82 1143.31 2468
1122.08 1144.7 2471
1127.99 1144.7 2471
1133.9 1144.7 2471
1136.58 1141.46 2464
1124.39 1123.39 2425
1130.19 1123.39 2425
1135.99 1123.39 2425
1141.79 1123.39 2425
1145.69 1121.54 2421
1150.06 1120.15 2418
1145.8 1110.42 2397
1151.53 1110.42 2397
1157.26 1110.42 2397
1163 1110.42 2397
1172.14 1113.66 2404
1188.18 1123.39 2425
1193.98 1123.39 2425
1215.61 1138.21 2457
1223.47 1140.07 2461
1229.36 1140.07 2461
1235.24 1140.07 2461
1239.11 1138.21 2457
1235.86 1129.87 2439
1241.7 1129.87 2439
1238.32 1121.54 2421
1236.92 1115.05 2407
1237.51 1110.42 2397
1241.17 1108.56 2393
1246.89 1108.56 2393
1251.04 1107.18 2390
1242.56 1094.67 2363
1244.51 1091.42 2356
1250.15 1091.42 2356
1252.58 1088.65 2350
1252.85 1084.01 2340
1254.68 1080.77 2333
1260.26 1080.77 2333
1260.41 1076.14 2323
1259.43 1070.58 2311
1264.95 1070.58 2311
1275.43 1074.75 2320
1280.97 1074.75 2320
1286.52 1074.75 2320
1288.73 1071.97 2314
1295.94 1073.36 2317
1307.1 1077.99 2327
1312.66 1077.99 2327
1319.93 1079.38 2330
1325.5 1079.38 2330
1331.07 1079.38 2330
1336.64 1079.38 2330
1346.25 1082.62 2337
1359.35 1088.65 2350
1372.52 1094.67 2363
1378.18 1094.67 2363
1383.83 1094.67 2363
1389.48 1094.67 2363
1395.13 1094.67 2363
1400.78 1094.67 2363
1406.43 1094.67 2363
1412.08 1094.67 2363
1419.53 1096.06 2366
1425.19 1096.06 2366
1430.85 1096.06 2366
1436.5 1096.06 2366
1446.43 1099.3 2373
1452.1 1099.3 2373
1457.78 1099.3 2373
1459.13 1096.06 2366
1462.94 1094.67 2363
1468.59 1094.67 2363
1472.36 1093.28 2360
1478.01 1093.28 2360
1481.14 1091.42 2356
1486.77 1091.42 2356
1492.41 1091.42 2356
1498.04 1091.42 2356
1506.23 1093.28 2360
1520.2 1099.3 2373
1538.73 1108.56 2393
1544.45 1108.56 2393
1552.77 1110.42 2397
1565 1115.05 2407
1570.76 1115.05 2407
1576.51 1115.05 2407
1582.27 1115.05 2407
1588.03 1115.05 2407
1593.78 1115.05 2407
1592.89 1110.42 2397
1587.29 1102.54 2380
1586.28 1097.91 2370
1595.98 1100.69 2376
1601.66 1100.69 2376
1607.35 1100.69 2376
1613.03 1100.69 2376
1616.66 1099.3 2373
1622.34 1099.3 2373
1625.96 1097.91 2370
1626.8 1094.67 2363
1623.47 1088.65 2350
1629.09 1088.65 2350
1627.76 1084.01 2340
1633.35 1084.01 2340
1634.05 1080.77 2333
1646.65 1085.4 2343
1652.25 1085.4 2343
1662.81 1088.65 2350
1668.43 1088.65 2350
1676.19 1090.03 2353
1683.96 1091.42 2356
1689.59 1091.42 2356
1721.85 1108.56 2393
1745.62 1120.15 2418
1756.47 1123.39 2425
1762.27 1123.39 2425
1768.07 1123.39 2425
1773.87 1123.39 2425
1779.67 1123.39 2425
1785.47 1123.39 2425
1796.44 1126.63 2432
1810.4 1131.73 2443
1823.68 1136.36 2453
1829.55 1136.36 2453
1848.88 1144.7 2471
1857.79 1146.55 2475
1875 1153.5 2490
1880.96 1153.5 2490
1886.91 1153.5 2490
1892.87 1153.5 2490
1898.82 1153.5 2490
1896.36 1148.4 2479
-1519.59 1064.01 2285
-1514.13 1064.01 2285
-1513.28 1067.27 2292
-1507.8 1067.27 2292
-1502.32 1067.27 2292
-1490.31 1062.61 2282
-1480.95 1059.82 2276
-1471.62 1057.02 2270
-1470.06 1059.82 2276
-1470.41 1064.01 2285
-1464.95 1064.01 2285
-1459.49 1064.01 2285
-1454.02 1064.01 2285
-1448.56 1064.01 2285
-1443.09 1064.01 2285
-1442.03 1067.27 2292
-1448.46 1076.11 2311
-1442.93 1076.11 2311
-1437.41 1076.11 2311
-1439.32 1081.7 2323
-1436.23 1083.56 2327
-1432.51 1084.96 2330
-1426.94 1084.96 2330
-1425.64 1088.22 2337
-1423.7 1091.02 2343
-1428.38 1098.93 2360
-1422.74 1098.93 2360
-1417.09 1098.93 2360
-1411.45 1098.93 2360
-1405.81 1098.93 2360
-1390.08 1091.02 2343
-1382.7 1089.62 2340
-1377.11 1089.62 2340
-1373.27 1091.02 2343
-1367.67 1091.02 2343
-1362.06 1091.02 2343
-1356.46 1091.02 2343
-1350.86 1091.02 2343
-1345.26 1091.02 2343
-1339.65 1091.02 2343
-1330.63 1088.22 2337
-1325.05 1088.22 2337
-1317.2 1086.36 2333
-1311.62 1086.36 2333
-1302.68 1083.56 2327
-1297.12 1083.56 2327
-1282.67 1076.11 2311
-1273.28 1072.85 2304
-1262.82 1068.66 2295
-1257.33 1068.66 2295
-1246.38 1064.01 2285
-1242.55 1065.4 2288
-1242.49 1070.06 2298
-1240.22 1072.85 2304
-1234.71 1072.85 2304
-1229.2 1072.85 2304
-1225.28 1074.25 2307
-1219.77 1074.25 2307
-1214.25 1074.25 2307
-1208.73 1074.25 2307
-1203.22 1074.25 2307
-1197.7 1074.25 2307
-1192.18 1074.25 2307
-1186.67 1074.25 2307
-1181.15 1074.25 2307
-1175.63 1074.25 2307
-1170.12 1074.25 2307
-1166.62 1076.11 2311
-1165.62 1080.31 2320
-1163.57 1083.56 2327
-1158 1083.56 2327
-1155.41 1086.36 2333
-1149.83 1086.36 2333
-1144.25 1086.36 2333
-1138.67 1086.36 2333
-1133.09 1086.36 2333
-1124.62 1083.56 2327
-1119.05 1083.56 2327
-1113.49 1083.56 2327
-1110.78 1086.36 2333
-1107.09 1088.22 2337
-1102.92 1089.62 2340
-1097.32 1089.62 2340
-1093.13 1091.02 2343
-1087.53 1091.02 2343
-1089.77 1098.93 2360
-1084.13 1098.93 2360
-1078.49 1098.93 2360
-1072.84 1098.93 2360
-1067.2 1098.93 2360
-1061.56 1098.93 2360
-1054.12 1097.07 2356
-1048.49 1097.07 2356
-1037.1 1091.02 2343
-1031.5 1091.02 2343
-1025.89 1091.02 2343
-1020.29 1091.02 2343
-1012.09 1088.22 2337
-1006.5 1088.22 2337
-994.917 1081.7 2323
-988.085 1080.31 2320
-977.031 1074.25 2307
-973.199 1076.11 2311
-967.673 1076.11 2311
-963.396 1077.51 2314
-959.104 1078.91 2317
-956.032 1081.7 2323
-950.477 1081.7 2323
-947.77 1084.96 2330
-942.198 1084.96 2330
-936.626 1084.96 2330
-931.055 1084.96 2330
-920.319 1078.91 2317
-914.779 1078.91 2317
-913.162 1083.56 2327
-907.598 1083.56 2327
-903.196 1084.96 2330
-902.632 1091.02 2343
-898.178 1092.41 2346
-892.568 1092.41 2346
-886.958 1092.41 2346
-881.348 1092.41 2346
-875.738 1092.41 2346
-869.016 1091.02 2343
-861.202 1088.22 2337
-850.488 1081.7 2323
-844.933 1081.7 2323
-838.294 1080.31 2320
-829.515 1076.11 2311
-823.989 1076.11 2311
-817.046 1074.25 2307
-815.047 1078.91 2317
-809.506 1078.91 2317
-805.007 1080.31 2320
-803.939 1086.36 2333
-798.36 1086.36 2333
-792.781 1086.36 2333
-790.576 1091.02 2343
-785.978 1092.41 2346
-781.699 1094.27 2350
-776.079 1094.27 2350
-770.46 1094.27 2350
-764.84 1094.27 2350
-759.221 1094.27 2350
-752.318 1092.41 2346
-746.708 1092.41 2346
-741.098 1092.41 2346
-736.742 1094.27 2350
-731.123 1094.27 2350
-728.59 1098.93 2360
-726.929 1104.98 2373
-721.255 1104.98 2373
-715.58 1104.98 2373
-709.906 1104.98 2373
-703.341 1103.59 2370
-697.673 1103.59 2370
-687.042 1095.67 2353
-681.415 1095.67 2353
-673.778 1092.41 2346
-668.168 1092.41 2346
-658.887 1086.36 2333
-653.308 1086.36 2333
-649.672 1089.62 2340
-645.728 1092.41 2346
-640.118 1092.41 2346
-634.508 1092.41 2346
-628.898 1092.41 2346
-623.288 1092.41 2346
-617.678 1092.41 2346
-612.068 1092.41 2346
-606.458 1092.41 2346
-601.873 1094.27 2350
-596.253 1094.27 2350
-590.634 1094.27 2350
-588.25 1100.33 2363
-583.339 1101.72 2366
-577.682 1101.72 2366
-572.991 1103.59 2370
-567.323 1103.59 2370
-561.656 1103.59 2370
-555.05 1101.72 2366
-549.392 1101.72 2366
-543.735 1101.72 2366
-537.395 1100.33 2363
-531.744 1100.33 2363
-525.425 1098.93 2360
-518.24 1095.67 2353
-513.267 1097.07 2356
-509.788 1101.72 2366
-504.13 1101.72 2366
-499.947 1104.98 2373
-494.897 1106.38 2376
-489.215 1106.38 2376
-483.534 1106.38 2376
-477.852 1106.38 2376
-472.17 1106.38 2376
-466.488 1106.38 2376
-459.643 1103.59 2370
-452.635 1100.33 2363
-446.984 1100.33 2363
-441.894 1101.72 2366
-436.236 1101.72 2366
-432.398 1106.38 2376
-429.231 1112.9 2390
-423.515 1112.9 2390
-417.8 1112.9 2390
-412.602 1114.3 2393
-406.88 1114.3 2393
-401.157 1114.3 2393
-395.435 1114.3 2393
-389.713 1114.3 2393
-383.509 1112.9 2390
-377.794 1112.9 2390
-372.078 1112.9 2390
-366.823 1114.3 2393
-362.157 1117.56 2400
-357.012 1119.42 2404
-351.263 1119.42 2404
-345.946 1120.82 2407
-340.19 1120.82 2407
-334.434 1120.82 2407
-328.678 1120.82 2407
-321.983 1117.56 2400
-315.322 1114.3 2393
-309.211 1112.9 2390
-303.496 1112.9 2390
-295.663 1104.98 2373
-289.988 1104.98 2373
-282.756 1098.93 2360
-277.112 1098.93 2360
-270.664 1095.67 2353
-264.699 1094.27 2350
-258.639 1092.41 2346
-253.029 1092.41 2346
-247.419 1092.41 2346
-241.809 1092.41 2346
-235.896 1091.02 2343
-230.294 1091.02 2343
-224.403 1089.62 2340
-217.872 1084.96 2330
-212.027 1083.56 2327
-206.463 1083.56 2327
-200.035 1078.91 2317
-193.991 1076.11 2311
-188.138 1074.25 2307
-182.621 1074.25 2307
-177.105 1074.25 2307
-171.142 1071.46 2301
-69.9679 1039.79 2233
-64.6282 1039.79 2233
-59.2884 1039.79 2233
-53.8761 1038.4 2230
-48.4129 1035.6 2224
-43.0946 1035.6 2224
-37.7764 1035.6 2224
-21.8216 1035.6 2224
-16.5033 1035.6 2224
-11.1851 1035.6 2224
-5.85892 1034.21 2221
-0.546355 1031.41 2215
4.75038 1031.41 2215
10.0108 1027.69 2207
15.2884 1027.69 2207
20.566 1027.69 2207
25.8436 1027.69 2207
30.952 1022.1 2195
36.0525 1017.91 2186
41.1288 1014.18 2178
46.4009 1015.58 2181
51.6164 1015.58 2181
56.8318 1015.58 2181
61.8765 1012.79 2175
66.8309 1009.06 2167
72.179 1011.39 2172
77.3729 1011.39 2172
82.6809 1012.79 2175
87.8819 1012.79 2175
93.083 1012.79 2175
98.1485 1011.39 2172
102.534 1003.47 2155
107.587 1002.54 2153
113.468 1009.06 2167
118.65 1009.06 2167
123.947 1009.99 2169
129.133 1009.99 2169
134.32 1009.99 2169
138.992 1006.27 2161
144.16 1006.27 2161
149.12 1004.87 2158
154.281 1004.87 2158
159.219 1003.47 2155
165.669 1011.39 2172
171.571 1015.58 2181
178.408 1024.89 2201
183.671 1024.89 2201
193.741 1050.97 2257
200.021 1055.63 2267
209.701 1077.51 2314
215.235 1077.51 2314
221.054 1078.91 2317
227.866 1084.96 2330
233.438 1084.96 2330
239.01 1084.96 2330
244.582 1084.96 2330
249.831 1083.56 2327
255.396 1083.56 2327
260.175 1080.31 2320
266.869 1084.96 2330
273.259 1088.22 2337
279.205 1089.62 2340
285.531 1092.41 2346
291.141 1092.41 2346
296.751 1092.41 2346
303.263 1095.67 2353
309.284 1097.07 2356
314.918 1097.07 2356
320.552 1097.07 2356
326.739 1098.93 2360
332.805 1100.33 2363
338.456 1100.33 2363
344.107 1100.33 2363
349.757 1100.33 2363
355.859 1101.72 2366
361.517 1101.72 2366
368.261 1104.98 2373
373.936 1104.98 2373
380.73 1108.24 2380
386.421 1108.24 2380
394.255 1114.3 2393
401.147 1117.56 2400
406.886 1117.56 2400
412.625 1117.56 2400
419.585 1120.82 2407
425.34 1120.82 2407
431.813 1122.68 2411
437.578 1122.68 2411
443.344 1122.68 2411
449.109 1122.68 2411
454.874 1122.68 2411
460.64 1122.68 2411
465.631 1120.82 2407
471.387 1120.82 2407
479.324 1125.94 2418
485.106 1125.94 2418
490.888 1125.94 2418
496.67 1125.94 2418
502.452 1125.94 2418
508.235 1125.94 2418
513.166 1124.08 2414
518.939 1124.08 2414
524.712 1124.08 2414
530.484 1124.08 2414
534.035 1119.42 2404
539.784 1119.42 2404
545.533 1119.42 2404
551.281 1119.42 2404
553.091 1111.5 2387
557.16 1108.24 2380
565.217 1112.9 2390
570.932 1112.9 2390
576.647 1112.9 2390
582.362 1112.9 2390
588.078 1112.9 2390
593.793 1112.9 2390
599.508 1112.9 2390
605.223 1112.9 2390
609.149 1109.64 2383
614.073 1108.24 2380
619.765 1108.24 2380
625.456 1108.24 2380
631.147 1108.24 2380
630.417 1097.07 2356
637.94 1100.33 2363
643.591 1100.33 2363
649.242 1100.33 2363
654.892 1100.33 2363
662.5 1103.59 2370
668.167 1103.59 2370
675.541 1106.38 2376
683.229 1109.64 2383
690.084 1111.5 2387
695.792 1111.5 2387
705.321 1117.56 2400
712.245 1119.42 2404
723.071 1127.34 2421
728.86 1127.34 2421
735.863 1129.2 2425
741.662 1129.2 2425
749.619 1132.46 2432
756.366 1133.85 2435
762.189 1133.85 2435
770.535 1137.58 2443
778.602 1140.84 2450
784.461 1140.84 2450
790.319 1140.84 2450
796.178 1140.84 2450
798.436 1135.72 2439
804.268 1135.72 2439
807.775 1132.46 2432
812.253 1130.6 2428
812.331 1122.68 2411
818.097 1122.68 2411
821.47 1119.42 2404
827.219 1119.42 2404
831.581 1117.56 2400
837.321 1117.56 2400
843.06 1117.56 2400
847.738 1116.16 2397
850.977 1112.9 2390
856.693 1112.9 2390
859.882 1109.64 2383
865.58 1109.64 2383
871.279 1109.64 2383
874.401 1106.38 2376
880.083 1106.38 2376
882.037 1101.72 2366
886.569 1100.33 2363
893.352 1101.72 2366
899.01 1101.72 2366
904.668 1101.72 2366
914.173 1106.38 2376
919.855 1106.38 2376
925.537 1106.38 2376
931.219 1106.38 2376
938.478 1108.24 2380
945.359 1109.64 2383
951.058 1109.64 2383
956.756 1109.64 2383
962.455 1109.64 2383
969.778 1111.5 2387
975.486 1111.5 2387
981.194 1111.5 2387
986.902 1111.5 2387
992.61 1111.5 2387
1008.36 1122.68 2411
1018.33 1127.34 2421
1024.12 1127.34 2421
1039.27 1137.58 2443
1052.81 1145.96 2461
1064.72 1152.48 2475
1070.63 1152.48 2475
1076.55 1152.48 2475
1082.47 1152.48 2475
1088.39 1152.48 2475
1094.31 1152.48 2475
1090.45 1142.24 2453
1094.97 1140.84 2450
1100.83 1140.84 2450
1095.4 1129.2 2425
1099.38 1127.34 2421
1105.17 1127.34 2421
1110.96 1127.34 2421
1116.75 1127.34 2421
1116.04 1120.82 2407
1123.66 1122.68 2411
1132.71 1125.94 2418
1138.49 1125.94 2418
1144.27 1125.94 2418
1140.07 1116.16 2397
1145.8 1116.16 2397
1151.53 1116.16 2397
1155.33 1114.3 2393
1161.05 1114.3 2393
1168.73 1116.16 2397
1175.93 1117.56 2400
1181.67 1117.56 2400
1204.72 1133.85 2435
1223.47 1145.96 2461
1229.36 1145.96 2461
1235.24 1145.96 2461
1230.03 1135.72 2439
1230.29 1130.6 2428
1236.1 1130.6 2428
1231.16 1120.82 2407
1229.72 1114.3 2393
1235.45 1114.3 2393
1239.61 1112.9 2390
1245.33 1112.9 2390
1236.91 1100.33 2363
1238.88 1097.07 2356
1239.23 1092.41 2346
1244.84 1092.41 2346
1245.65 1088.22 2337
1247.49 1084.96 2330
1249.3 1081.7 2323
1254.86 1081.7 2323
1253.9 1076.11 2311
1255.61 1072.85 2304
1262.76 1074.25 2307
1270.48 1076.11 2311
1276.01 1076.11 2311
1281.53 1076.11 2311
1287.06 1076.11 2311
1294.26 1077.51 2314
1304.85 1081.7 2323
1310.41 1081.7 2323
1315.96 1081.7 2323
1323.79 1083.56 2327
1329.36 1083.56 2327
1334.92 1083.56 2327
1343.94 1086.36 2333
1357.04 1092.41 2346
1368.46 1097.07 2356
1374.09 1097.07 2356
1379.73 1097.07 2356
1385.36 1097.07 2356
1390.99 1097.07 2356
1396.63 1097.07 2356
1398.69 1094.27 2350
1404.31 1094.27 2350
1419.53 1101.72 2366
1425.19 1101.72 2366
1430.85 1101.72 2366
1436.5 1101.72 2366
1446.43 1104.98 2373
1452.1 1104.98 2373
1457.78 1104.98 2373
1459.13 1101.72 2366
1462.94 1100.33 2363
1468.59 1100.33 2363
1472.36 1098.93 2360
1478.01 1098.93 2360
1481.14 1097.07 2356
1486.77 1097.07 2356
1490.5 1095.67 2353
1496.13 1095.67 2353
1503.67 1097.07 2356
1513.79 1100.33 2363
1525.87 1104.98 2373
1531.55 1104.98 2373
1543.7 1109.64 2383
1553.95 1112.9 2390
1559.66 1112.9 2390
1565.38 1112.9 2390
1571.09 1112.9 2390
1572.19 1109.64 2383
1577.89 1109.64 2383
1576.94 1104.98 2373
1575.95 1100.33 2363
1574.91 1095.67 2353
1587.25 1100.33 2363
1594.92 1101.72 2366
1600.58 1101.72 2366
1608.95 1103.59 2370
1614.62 1103.59 2370
1620.29 1103.59 2370
1621.15 1100.33 2363
1606.15 1086.36 2333
1611.73 1086.36 2333
1617.31 1086.36 2333
1620.8 1084.96 2330
1626.37 1084.96 2330
1627.04 1081.7 2323
1635.41 1083.56 2327
1640.97 1083.56 2327
1655.73 1089.62 2340
1661.33 1089.62 2340
1669.06 1091.02 2343
1681.81 1095.67 2353
1687.44 1095.67 2353
1709.62 1106.38 2376
1732.62 1117.56 2400
1751.4 1125.94 2418
1757.18 1125.94 2418
1762.97 1125.94 2418
1768.75 1125.94 2418
1776.73 1127.34 2421
1782.52 1127.34 2421
1796.44 1132.46 2432
1810.4 1137.58 2443
1823.68 1142.24 2453
1829.55 1142.24 2453
1848.88 1150.62 2471
1857.79 1152.48 2475
1875 1159.47 2490
1880.96 1159.47 2490
1886.91 1159.47 2490
1892.87 1159.47 2490
1898.82 1159.47 2490
1896.36 1154.34 2479
-1524.25 1072.76 2292
-1518.77 1072.76 2292
-1513.28 1072.76 2292
-1507.8 1072.76 2292
-1502.32 1072.76 2292
-1494.23 1070.89 2288
-1480.95 1065.27 2276
-1471.62 1062.46 2270
-1470.06 1065.27 2276
-1470.41 1069.48 2285
-1464.95 1069.48 2285
-1459.49 1069.48 2285
-1454.02 1069.48 2285
-1448.56 1069.48 2285
-1443.09 1069.48 2285
-1442.03 1072.76 2292
-1448.46 1081.65 2311
-1442.93 1081.65 2311
-1437.41 1081.65 2311
-1439.32 1087.27 2323
-1436.23 1089.14 2327
-1432.51 1090.54 2330
-1426.94 1090.54 2330
-1425.64 1093.82 2337
-1423.7 1096.63 2343
-1428.38 1104.58 2360
-1422.74 1104.58 2360
-1417.09 1104.58 2360
-1411.45 1104.58 2360
-1405.81 1104.58 2360
-1390.08 1096.63 2343
-1382.7 1095.22 2340
-1378.87 1096.63 2343
-1373.27 1096.63 2343
-1367.67 1096.63 2343
-1362.06 1096.63 2343
-1358.2 1098.03 2346
-1352.59 1098.03 2346
-1346.98 1098.03 2346
-1339.65 1096.63 2343
-1330.63 1093.82 2337
-1325.05 1093.82 2337
-1317.2 1091.95 2333
-1311.62 1091.95 2333
-1302.68 1089.14 2327
-1297.12 1089.14 2327
-1282.67 1081.65 2311
-1273.28 1078.37 2304
-1262.82 1074.16 2295
-1257.33 1074.16 2295
-1246.38 1069.48 2285
-1242.55 1070.89 2288
-1242.49 1075.57 2298
-1240.22 1078.37 2304
-1234.71 1078.37 2304
-1229.2 1078.37 2304
-1225.28 1079.78 2307
-1219.77 1079.78 2307
-1214.25 1079.78 2307
-1208.73 1079.78 2307
-1203.22 1079.78 2307
-1197.7 1079.78 2307
-1192.18 1079.78 2307
-1186.67 1079.78 2307
-1181.15 1079.78 2307
-1175.63 1079.78 2307
-1170.12 1079.78 2307
-1166.62 1081.65 2311
-1165.62 1085.86 2320
-1163.57 1089.14 2327
-1158 1089.14 2327
-1155.41 1091.95 2333
-1149.83 1091.95 2333
-1144.25 1091.95 2333
-1138.67 1091.95 2333
-1133.09 1091.95 2333
-1124.62 1089.14 2327
-1119.05 1089.14 2327
-1113.49 1089.14 2327
-1109.35 1090.54 2330
-1105.2 1091.95 2333
-1101.51 1093.82 2337
-1095.92 1093.82 2337
-1090.33 1093.82 2337
-1086.13 1095.22 2340
-1081.92 1096.63 2343
-1079.54 1099.9 2350
-1073.92 1099.9 2350
-1071.02 1102.71 2356
-1065.39 1102.71 2356
-1059.76 1102.71 2356
-1051.44 1099.9 2350
-1040.03 1093.82 2337
-1032.67 1091.95 2333
-1027.09 1091.95 2333
-1021.52 1091.95 2333
-1015.94 1091.95 2333
-1006.03 1087.27 2323
-1000.47 1087.27 2323
-993.633 1085.86 2320
-985.529 1083.05 2314
-971.949 1074.16 2295
-967.725 1075.57 2298
-962.229 1075.57 2298
-962.146 1081.65 2311
-957.862 1083.05 2314
-956.032 1087.27 2323
-950.477 1087.27 2323
-944.922 1087.27 2323
-939.367 1087.27 2323
-933.812 1087.27 2323
-928.258 1087.27 2323
-917.936 1081.65 2311
-913.594 1083.05 2314
-908.061 1083.05 2314
-902.527 1083.05 2314
-899.32 1085.86 2320
-897.624 1090.54 2330
-897.03 1096.63 2343
-891.427 1096.63 2343
-885.824 1096.63 2343
-880.221 1096.63 2343
-874.618 1096.63 2343
-865.307 1091.95 2333
-856.043 1087.27 2323
-848.291 1084.46 2317
-842.75 1084.46 2317
-835.042 1081.65 2311
-828.079 1079.78 2307
-821.493 1078.37 2304
-815.984 1078.37 2304
-811.529 1079.78 2307
-806.013 1079.78 2307
-802.925 1083.05 2314
-800.493 1087.27 2323
-796.306 1089.14 2327
-790.742 1089.14 2327
-787.202 1091.95 2333
-781.623 1091.95 2333
-776.044 1091.95 2333
-770.465 1091.95 2333
-767.181 1095.22 2340
-761.586 1095.22 2340
-755.99 1095.22 2340
-750.394 1095.22 2340
-743.844 1093.82 2337
-738.255 1093.82 2337
-734.548 1096.63 2343
-728.945 1096.63 2343
-728.59 1104.58 2360
-726.01 1109.26 2370
-720.343 1109.26 2370
-714.676 1109.26 2370
-709.008 1109.26 2370
-702.154 1107.39 2366
-696.496 1107.39 2366
-687.042 1101.31 2353
-681.415 1101.31 2353
-672.055 1095.22 2340
-666.459 1095.22 2340
-658.887 1091.95 2333
-653.308 1091.95 2333
-649.672 1095.22 2340
-644.903 1096.63 2343
-639.3 1096.63 2343
-633.697 1096.63 2343
-627.29 1095.22 2340
-621.694 1095.22 2340
-616.099 1095.22 2340
-610.503 1095.22 2340
-605.683 1096.63 2343
-600.08 1096.63 2343
-594.477 1096.63 2343
-588.874 1096.63 2343
-585.761 1101.31 2353
-581.86 1104.58 2360
-576.949 1105.99 2363
-571.298 1105.99 2363
-565.648 1105.99 2363
-559.286 1104.58 2360
-553.643 1104.58 2360
-547.999 1104.58 2360
-542.356 1104.58 2360
-536.712 1104.58 2360
-531.069 1104.58 2360
-523.199 1099.9 2350
-515.377 1095.22 2340
-510.435 1096.63 2343
-505.478 1098.03 2346
-499.868 1098.03 2346
-494.258 1098.03 2346
-488.648 1098.03 2346
-483.038 1098.03 2346
-477.428 1098.03 2346
-471.818 1098.03 2346
-466.208 1098.03 2346
-460.598 1098.03 2346
-453.825 1095.22 2340
-447.654 1093.82 2337
-442.066 1093.82 2337
-436.478 1093.82 2337
-430.889 1093.82 2337
-427.666 1099.9 2350
-423.843 1104.58 2360
-418.731 1105.99 2363
-413.08 1105.99 2363
-407.947 1107.39 2366
-402.969 1109.26 2370
-397.302 1109.26 2370
-391.634 1109.26 2370
-386.456 1110.67 2373
-381.262 1112.07 2376
-375.581 1112.07 2376
-369.899 1112.07 2376
-365.29 1115.35 2383
-359.592 1115.35 2383
-354.487 1117.22 2387
-348.779 1117.22 2387
-343.071 1117.22 2387
-337.363 1117.22 2387
-331.655 1117.22 2387
-325.947 1117.22 2387
-319.3 1113.95 2380
-312.686 1110.67 2373
-307.012 1110.67 2373
-301.337 1110.67 2373
-294.043 1104.58 2360
-287.544 1101.31 2353
-281.917 1101.31 2353
-276.29 1101.31 2353
-269.513 1096.63 2343
-262.784 1091.95 2333
-256.875 1090.54 2330
-251.303 1090.54 2330
-245.731 1090.54 2330
-240.159 1090.54 2330
-234.588 1090.54 2330
-229.016 1090.54 2330
-222.773 1087.27 2323
-216.657 1084.46 2317
-211.116 1084.46 2317
-205.576 1084.46 2317
-199.776 1083.05 2314
-193.991 1081.65 2311
-188.138 1079.78 2307
-182.384 1078.37 2304
-176.874 1078.37 2304
-171.142 1076.97 2301
-164.991 1072.76 2292
-159.232 1070.89 2288
-153.761 1070.89 2288
-147.317 1063.86 2273
-64.3677 1040.93 2224
-59.0494 1040.93 2224
-53.7312 1040.93 2224
-48.4129 1040.93 2224
-5.8299 1034.38 2210
-0.545122 1034.38 2210
4.73966 1034.38 2210
30.6277 1016.59 2172
35.8216 1016.59 2172
41.0155 1016.59 2172
46.1456 1015.19 2169
51.3324 1015.19 2169
56.467 1014.25 2167
61.6489 1014.25 2167
66.4608 1008.64 2155
71.9131 1012.85 2164
77.0879 1012.85 2164
82.5668 1016.59 2172
87.7607 1016.59 2172
92.9546 1016.59 2172
193.741 1056.38 2257
200.021 1061.06 2267
208.795 1078.37 2304
214.305 1078.37 2304
220.768 1083.05 2314
226.888 1085.86 2320
232.737 1087.27 2323
238.292 1087.27 2323
243.847 1087.27 2323
249.08 1085.86 2320
254.628 1085.86 2320
259.839 1084.46 2317
265.723 1085.86 2320
272.791 1091.95 2333
278.847 1093.82 2337
284.436 1093.82 2337
290.024 1093.82 2337
296.372 1096.63 2343
301.975 1096.63 2343
307.971 1098.03 2346
313.581 1098.03 2346
319.191 1098.03 2346
325.355 1099.9 2350
330.975 1099.9 2350
336.594 1099.9 2350
342.214 1099.9 2350
348.277 1101.31 2353
353.904 1101.31 2353
359.531 1101.31 2353
365.623 1102.71 2356
371.257 1102.71 2356
378.491 1107.39 2366
384.148 1107.39 2366
389.806 1107.39 2366
396.634 1110.67 2373
402.309 1110.67 2373
407.983 1110.67 2373
413.658 1110.67 2373
419.332 1110.67 2373
425.007 1110.67 2373
430.681 1110.67 2373
436.356 1110.67 2373
442.031 1110.67 2373
447.705 1110.67 2373
453.38 1110.67 2373
459.054 1110.67 2373
464.729 1110.67 2373
471.791 1113.95 2380
477.482 1113.95 2380
483.174 1113.95 2380
488.865 1113.95 2380
493.102 1110.67 2373
499.407 1112.07 2376
505.088 1112.07 2376
510.77 1112.07 2376
516.452 1112.07 2376
522.134 1112.07 2376
527.815 1112.07 2376
532.824 1110.67 2373
538.498 1110.67 2373
544.173 1110.67 2373
548.225 1107.39 2366
553.883 1107.39 2366
558.831 1105.99 2363
564.482 1105.99 2363
570.133 1105.99 2363
575.783 1105.99 2363
579.712 1102.71 2356
582.861 1098.03 2346
588.471 1098.03 2346
594.081 1098.03 2346
598.924 1096.63 2343
605.301 1098.03 2346
611.953 1099.9 2350
617.572 1099.9 2350
623.192 1099.9 2350
630.417 1102.71 2356
637.94 1105.99 2363
643.591 1105.99 2363
649.242 1105.99 2363
654.892 1105.99 2363
662.5 1109.26 2370
668.167 1109.26 2370
675.541 1112.07 2376
683.229 1115.35 2383
690.084 1117.22 2387
695.792 1117.22 2387
705.321 1123.31 2400
712.245 1125.18 2404
723.071 1133.14 2421
728.86 1133.14 2421
735.863 1135.01 2425
741.662 1135.01 2425
749.619 1138.28 2432
756.366 1139.69 2435
762.189 1139.69 2435
770.535 1143.43 2443
778.602 1146.71 2450
784.461 1146.71 2450
790.319 1146.71 2450
796.178 1146.71 2450
798.436 1141.56 2439
804.268 1141.56 2439
807.775 1138.28 2432
812.253 1136.41 2428
812.331 1128.45 2411
818.097 1128.45 2411
821.47 1125.18 2404
827.219 1125.18 2404
831.581 1123.31 2400
837.321 1123.31 2400
843.06 1123.31 2400
847.738 1121.9 2397
850.977 1118.63 2390
856.693 1118.63 2390
859.882 1115.35 2383
865.58 1115.35 2383
871.279 1115.35 2383
874.401 1112.07 2376
880.083 1112.07 2376
882.037 1107.39 2366
886.569 1105.99 2363
893.352 1107.39 2366
899.01 1107.39 2366
904.668 1107.39 2366
914.173 1112.07 2376
919.855 1112.07 2376
925.537 1112.07 2376
931.219 1112.07 2376
938.478 1113.95 2380
945.359 1115.35 2383
951.058 1115.35 2383
956.756 1115.35 2383
962.455 1115.35 2383
969.778 1117.22 2387
975.486 1117.22 2387
981.194 1117.22 2387
986.902 1117.22 2387
992.61 1117.22 2387
1008.36 1128.45 2411
1018.33 1133.14 2421
1024.12 1133.14 2421
1039.27 1143.43 2443
1052.81 1151.86 2461
1064.72 1158.41 2475
1070.63 1158.41 2475
1076.55 1158.41 2475
1082.47 1158.41 2475
1088.39 1158.41 2475
1094.31 1158.41 2475
1090.45 1148.11 2453
1094.97 1146.71 2450
1100.83 1146.71 2450
1095.4 1135.01 2425
1099.38 1133.14 2421
1105.17 1133.14 2421
1110.96 1133.14 2421
1116.75 1133.14 2421
1116.04 1126.58 2407
1123.66 1128.45 2411
1132.71 1131.73 2418
1138.49 1131.73 2418
1144.27 1131.73 2418
1140.07 1121.9 2397
1145.8 1121.9 2397
1151.53 1121.9 2397
1155.33 1120.03 2393
1161.05 1120.03 2393
1168.73 1121.9 2397
1175.93 1123.31 2400
1181.67 1123.31 2400
1204.72 1139.69 2435
1223.47 1151.86 2461
1229.36 1151.86 2461
1235.24 1151.86 2461
1230.03 1141.56 2439
1230.29 1136.41 2428
1236.1 1136.41 2428
1231.16 1126.58 2407
1229.72 1120.03 2393
1206.53 1093.82 2337
1210.05 1091.95 2333
1215.63 1091.95 2333
1221.21 1091.95 2333
1226.78 1091.95 2333
1225.5 1085.86 2320
1231.04 1085.86 2320
1231.8 1081.65 2311
1237.32 1081.65 2311
1240.7 1079.78 2307
1242.97 1076.97 2301
1250.1 1078.37 2304
1255.61 1078.37 2304
1262.76 1079.78 2307
1272.13 1083.05 2314
1277.66 1083.05 2314
1283.2 1083.05 2314
1287.06 1081.65 2311
1292.58 1081.65 2311
1303.17 1085.86 2320
1308.71 1085.86 2320
1314.26 1085.86 2320
1319.81 1085.86 2320
1327.07 1087.27 2323
1332.63 1087.27 2323
1343.94 1091.95 2333
1353.57 1095.22 2340
1366.72 1101.31 2353
1372.34 1101.31 2353
1377.97 1101.31 2353
1383.6 1101.31 2353
1389.22 1101.31 2353
1394.85 1101.31 2353
1398.69 1099.9 2350
1404.31 1099.9 2350
1413.53 1102.71 2356
1419.16 1102.71 2356
