ply
format ascii 1.0
comment File generated
element vertex 2254
property float x
property float y
property float z
end_header
1690.66 897.085 2224
1671.57 884.177 2192
1676.81 884.177 2192
-1932.15 1067.56 2631
-1925.85 1067.56 2631
-1919.56 1067.56 2631
-1913.27 1067.56 2631
-1906.98 1067.56 2631
-1900.69 1067.56 2631
-1676.36 1115.03 2748
-1669.79 1115.03 2748
-1663.22 1115.03 2748
-1637.96 1102.45 2717
-1631.46 1102.45 2717
-1604.03 1088.25 2682
-1597.62 1088.25 2682
-1548.36 1067.56 2631
-1542.07 1067.56 2631
-1541.03 1071.21 2640
-1534.72 1071.21 2640
-1528.41 1071.21 2640
-1519.21 1069.18 2635
-1508.32 1065.93 2627
-1518.62 1077.7 2656
-1512.26 1077.7 2656
-1505.91 1077.7 2656
-1499.56 1077.7 2656
-1493.21 1077.7 2656
-1486.86 1077.7 2656
-1326.39 1071.21 2640
-1320.08 1071.21 2640
-1321.73 1077.7 2656
-1319.83 1081.35 2665
-1330.22 1095.15 2699
-1323.76 1095.15 2699
-1317.31 1095.15 2699
-1310.85 1095.15 2699
-1304.4 1095.15 2699
-1281.59 1081.35 2665
-1275.22 1081.35 2665
-1272.66 1084.6 2673
-1266.27 1084.6 2673
-1259.87 1084.6 2673
-1233.79 1067.56 2631
-1220.03 1061.07 2615
-1187.78 1038.34 2559
-1181.66 1038.34 2559
-1173.71 1036.72 2555
-1169.43 1038.34 2559
-1163.31 1038.34 2559
-1157.19 1038.34 2559
-1151.07 1038.34 2559
-1143.16 1036.72 2555
-1142.39 1041.59 2567
-1138.02 1043.21 2571
-1131.87 1043.21 2571
-1125.73 1043.21 2571
-1120.88 1044.43 2574
-1114.73 1044.43 2574
-1108.57 1044.43 2574
-1099.42 1041.59 2567
-1093.28 1041.59 2567
-1087.14 1041.59 2567
-1072.58 1033.47 2547
-1066.49 1033.47 2547
-1060.4 1033.47 2547
-1054.31 1033.47 2547
-1048.22 1033.47 2547
-1042.13 1033.47 2547
-1032.78 1030.23 2539
-1026.71 1030.23 2539
-926.676 1054.57 2599
-920.461 1054.57 2599
-914.246 1054.57 2599
-906.284 1052.54 2594
-900.081 1052.54 2594
-893.878 1052.54 2594
-887.675 1052.54 2594
-881.472 1052.54 2594
-869.87 1046.05 2578
-863.705 1046.05 2578
-856.21 1044.43 2574
-851.375 1046.05 2578
-846.522 1047.67 2582
-857.597 1069.18 2635
-851.296 1069.18 2635
-844.995 1069.18 2635
-821.825 1047.67 2582
-815.65 1047.67 2582
-808.222 1046.05 2578
-804.546 1049.3 2586
-803.611 1056.2 2603
-799.837 1059.44 2611
-793.593 1059.44 2611
-787.349 1059.44 2611
-781.106 1059.44 2611
-776.049 1061.07 2615
-769.796 1061.07 2615
-764.71 1062.69 2619
-763.081 1069.18 2635
-756.78 1069.18 2635
-750.479 1069.18 2635
-743.048 1067.56 2631
-736.757 1067.56 2631
-730.465 1067.56 2631
-720.871 1062.69 2619
-713.516 1061.07 2615
-706.181 1059.44 2611
-701.01 1061.07 2615
-694.757 1061.07 2615
-688.503 1061.07 2615
-680.163 1057.82 2607
-672.895 1056.2 2603
-666.67 1056.2 2603
-658.162 1052.54 2594
-649.948 1049.3 2586
-643.764 1049.3 2586
-637.581 1049.3 2586
-631.397 1049.3 2586
-625.213 1049.3 2586
-619.029 1049.3 2586
-612.845 1049.3 2586
-606.661 1049.3 2586
-600.477 1049.3 2586
-593.374 1047.67 2582
-588.109 1049.3 2586
-581.925 1049.3 2586
-578.636 1054.57 2599
-575.064 1059.44 2611
-568.82 1059.44 2611
-562.576 1059.44 2611
-556.333 1059.44 2611
-552.617 1064.31 2623
-546.345 1064.31 2623
-540.072 1064.31 2623
-534.614 1065.93 2627
-528.332 1065.93 2627
-522.845 1067.56 2631
-516.553 1067.56 2631
-511.038 1069.18 2635
-504.737 1069.18 2635
-498.436 1069.18 2635
-491.387 1067.56 2631
-485.096 1067.56 2631
-478.804 1067.56 2631
-474.848 1072.83 2644
-468.525 1072.83 2644
-463.601 1076.08 2652
-457.259 1076.08 2652
-450.917 1076.08 2652
-444.576 1076.08 2652
-438.234 1076.08 2652
-434.009 1081.35 2665
-428.92 1084.6 2673
-422.528 1084.6 2673
-416.136 1084.6 2673
-409.131 1082.98 2669
-403.352 1084.6 2673
-396.96 1084.6 2673
-390.568 1084.6 2673
-383.602 1082.98 2669
-374.817 1076.08 2652
-370.281 1081.35 2665
-363.908 1081.35 2665
-357.535 1081.35 2665
-351.163 1081.35 2665
-344.79 1081.35 2665
-338.417 1081.35 2665
-332.044 1081.35 2665
-325.671 1081.35 2665
-321.335 1088.25 2682
-314.922 1088.25 2682
-308.508 1088.25 2682
-301.081 1084.6 2673
-294.689 1084.6 2673
-286.032 1076.08 2652
-278.425 1071.21 2640
-272.112 1071.21 2640
-267.41 1077.7 2656
-261.058 1077.7 2656
-254.707 1077.7 2656
-248.356 1077.7 2656
-242.005 1077.7 2656
-234.943 1074.46 2648
-228.611 1074.46 2648
-222.279 1074.46 2648
-215.947 1074.46 2648
-209.615 1074.46 2648
-202.668 1071.21 2640
-195.984 1069.18 2635
-189.107 1065.93 2627
-182.825 1065.93 2627
-176.543 1065.93 2627
-170.261 1065.93 2627
-93.8628 931.222 2295
-88.3747 931.222 2295
-82.8867 931.222 2295
-77.3987 931.222 2295
-71.5973 927.164 2285
-66.1332 927.164 2285
-60.5894 925.947 2282
-55.0599 924.729 2279
-49.5449 923.512 2276
-43.986 921.078 2270
-38.5577 921.078 2270
-32.9981 917.426 2261
-27.506 914.585 2254
-22.0865 913.368 2251
-16.7037 913.368 2251
-11.3058 912.151 2248
-5.93014 912.151 2248
-0.554495 912.151 2248
4.82115 912.151 2248
10.156 908.499 2239
15.4685 906.064 2233
20.7804 904.847 2230
26.113 904.847 2230
31.4033 903.63 2227
36.6792 902.413 2224
41.7898 897.949 2213
47.0817 897.949 2213
52.3027 896.732 2210
57.5875 896.732 2210
62.8722 896.732 2210
68.157 896.732 2210
73.5415 897.949 2213
78.8334 897.949 2213
84.3155 899.978 2218
89.7406 901.195 2221
95.0517 901.195 2221
100.363 901.195 2221
106.245 906.064 2233
111.734 907.282 2236
117.081 907.282 2236
122.428 907.282 2236
127.947 908.499 2239
133.48 909.716 2242
139.398 913.368 2251
144.781 913.368 2251
150.564 915.803 2257
157.067 922.295 2273
162.502 922.295 2273
167.938 922.295 2273
173.831 924.729 2279
179.281 924.729 2279
185.46 928.381 2288
190.931 928.381 2288
197.003 931.222 2295
204.168 938.931 2314
211.786 948.263 2337
217.374 948.263 2337
229.641 976.667 2407
239.895 995.332 2453
255.58 1035.1 2551
261.68 1035.1 2551
271.874 1050.92 2590
280.752 1061.07 2615
287.005 1061.07 2615
296.062 1071.21 2640
303.291 1074.46 2648
309.623 1074.46 2648
315.955 1074.46 2648
322.288 1074.46 2648
329.116 1076.08 2652
336.596 1079.73 2661
342.96 1079.73 2661
349.323 1079.73 2661
355.686 1079.73 2661
361.369 1077.7 2656
369.52 1082.98 2669
375.903 1082.98 2669
383.574 1086.63 2678
389.978 1086.63 2678
396.382 1086.63 2678
402.786 1086.63 2678
405.828 1077.7 2656
411.559 1076.08 2652
417.9 1076.08 2652
423.602 1074.46 2648
427.824 1069.18 2635
431.489 1062.69 2619
437.752 1062.69 2619
443.336 1061.07 2615
449.59 1061.07 2615
456.54 1062.69 2619
463.51 1064.31 2623
471.215 1067.56 2631
477.506 1067.56 2631
485.453 1071.21 2640
491.766 1071.21 2640
498.079 1071.21 2640
504.392 1071.21 2640
508.964 1067.56 2631
515.256 1067.56 2631
521.547 1067.56 2631
527.036 1065.93 2627
534.942 1069.18 2635
541.243 1069.18 2635
547.544 1069.18 2635
553.845 1069.18 2635
560.146 1069.18 2635
569.242 1074.46 2648
576.444 1076.08 2652
582.786 1076.08 2652
590.016 1077.7 2656
596.367 1077.7 2656
602.718 1077.7 2656
609.07 1077.7 2656
612.641 1072.83 2644
618.027 1071.21 2640
624.34 1071.21 2640
634.475 1077.7 2656
640.826 1077.7 2656
647.178 1077.7 2656
657.712 1084.6 2673
664.104 1084.6 2673
670.496 1084.6 2673
668.531 1071.21 2640
681.235 1081.35 2665
687.607 1081.35 2665
693.98 1081.35 2665
717.068 1097.18 2704
735.308 1115.03 2748
741.879 1115.03 2748
748.451 1115.03 2748
750.076 1107.73 2730
756.604 1107.73 2730
756.983 1098.8 2708
763.459 1098.8 2708
766.238 1093.53 2695
772.683 1093.53 2695
776.525 1089.87 2686
774.204 1077.7 2656
779.379 1076.08 2652
785.721 1076.08 2652
792.063 1076.08 2652
795.996 1072.83 2644
798.374 1067.56 2631
803.442 1065.93 2627
810.957 1067.56 2631
817.248 1067.56 2631
824.792 1069.18 2635
831.093 1069.18 2635
837.394 1069.18 2635
842.414 1067.56 2631
848.706 1067.56 2631
856.297 1069.18 2635
864.235 1071.21 2640
870.548 1071.21 2640
885.165 1081.35 2665
891.538 1081.35 2665
897.911 1081.35 2665
904.283 1081.35 2665
910.656 1081.35 2665
915.653 1079.73 2661
922.016 1079.73 2661
928.379 1079.73 2661
927.366 1071.21 2640
927.666 1064.31 2623
929.666 1059.44 2611
935.91 1059.44 2611
942.154 1059.44 2611
945.491 1056.2 2603
956.103 1061.07 2615
969.717 1069.18 2635
976.018 1069.18 2635
984.183 1071.21 2640
990.496 1071.21 2640
996.809 1071.21 2640
993.623 1061.07 2615
996.817 1057.82 2607
996.511 1050.92 2590
1002.7 1050.92 2590
1007.34 1049.3 2586
1011.96 1047.67 2582
1018.13 1047.67 2582
1024.3 1047.67 2582
1030.48 1047.67 2582
1036.65 1047.67 2582
1047.67 1052.54 2594
1060.78 1059.44 2611
1073.57 1065.93 2627
1079.85 1065.93 2627
1091.5 1071.21 2640
1097.82 1071.21 2640
1104.13 1071.21 2640
1110.44 1071.21 2640
1116.76 1071.21 2640
1115.84 1064.31 2623
1122.11 1064.31 2623
1123.22 1059.44 2611
1126 1056.2 2603
1132.23 1056.2 2603
1138.45 1056.2 2603
1144.68 1056.2 2603
1150.9 1056.2 2603
1153.13 1052.54 2594
1166.93 1059.44 2611
1173.17 1059.44 2611
1179.41 1059.44 2611
1185.66 1059.44 2611
1191.9 1059.44 2611
1199.98 1061.07 2615
1206.23 1061.07 2615
1216.2 1064.31 2623
1222.47 1064.31 2623
1228.74 1064.31 2623
1235.01 1064.31 2623
1241.29 1064.31 2623
1245.66 1062.69 2619
1251.92 1062.69 2619
1256.26 1061.07 2615
1262.51 1061.07 2615
1284.78 1074.46 2648
1297.45 1079.73 2661
1303.81 1079.73 2661
1310.17 1079.73 2661
1310.11 1074.46 2648
1318.43 1076.08 2652
1324.77 1076.08 2652
1331.11 1076.08 2652
1335.43 1074.46 2648
1341.77 1074.46 2648
1348.1 1074.46 2648
1350.34 1071.21 2640
1354.08 1069.18 2635
1360.38 1069.18 2635
1366.69 1069.18 2635
1368.82 1065.93 2627
1375.1 1065.93 2627
1381.38 1065.93 2627
1391.89 1069.18 2635
1398.19 1069.18 2635
1407.16 1071.21 2640
1413.47 1071.21 2640
1419.78 1071.21 2640
1437.44 1079.73 2661
1443.8 1079.73 2661
1456.71 1084.6 2673
1470.21 1089.87 2686
1481.58 1093.53 2695
1488.03 1093.53 2695
1494.47 1093.53 2695
1500.92 1093.53 2695
1509.6 1095.15 2699
1516.05 1095.15 2699
1525.33 1097.18 2704
1536.89 1100.83 2713
1545.66 1102.45 2717
1552.15 1102.45 2717
1563.81 1106.1 2726
1572.64 1107.73 2730
1584.37 1111.38 2739
1590.92 1111.38 2739
1597.47 1111.38 2739
1598.75 1107.73 2730
1605.28 1107.73 2730
1606.49 1104.08 2721
1605.29 1098.8 2708
1604.03 1093.53 2695
1602.71 1088.25 2682
1609.12 1088.25 2682
1615.53 1088.25 2682
1624.37 1089.87 2686
1638.68 1095.15 2699
1645.14 1095.15 2699
1651.59 1095.15 2699
1658.04 1095.15 2699
1692.25 1113.41 2744
1698.81 1113.41 2744
1705.37 1113.41 2744
1700.71 1106.1 2726
1704.09 1104.08 2721
1710.6 1104.08 2721
1717.11 1104.08 2721
1715.38 1098.8 2708
1735.84 1107.73 2730
1745.56 1109.76 2735
1766.2 1118.68 2757
1772.79 1118.68 2757
1785.84 1122.74 2767
1800.87 1128.02 2780
1807.52 1128.02 2780
1814.17 1128.02 2780
1818.2 1126.39 2776
1824.84 1126.39 2776
1831.47 1126.39 2776
1828.84 1120.71 2762
1823.49 1113.41 2744
1830.05 1113.41 2744
1836.61 1113.41 2744
1843.17 1113.41 2744
1849.73 1113.41 2744
1838.03 1102.45 2717
1844.53 1102.45 2717
1792.04 1052.54 2594
1798.24 1052.54 2594
1804.44 1052.54 2594
1810.65 1052.54 2594
1825.96 1057.82 2607
1832.19 1057.82 2607
1838.42 1057.82 2607
1841.83 1056.2 2603
1833.14 1047.67 2582
1842.17 1049.3 2586
1848.35 1049.3 2586
1854.54 1049.3 2586
1860.72 1049.3 2586
1866.9 1049.3 2586
1873.09 1049.3 2586
1870.55 1044.43 2574
1648.31 896.732 2210
1653.59 896.732 2210
1658.88 896.732 2210
1699.55 915.803 2257
1704.95 915.803 2257
1710.35 915.803 2257
1723.35 919.86 2267
1728.77 919.86 2267
1734.19 919.86 2267
-1932.15 1073.86 2631
-1925.85 1073.86 2631
-1919.56 1073.86 2631
-1913.27 1073.86 2631
-1906.98 1073.86 2631
-1900.69 1073.86 2631
-1548.36 1073.86 2631
-1542.07 1073.86 2631
-1538.11 1075.49 2635
-1531.81 1075.49 2635
-1533.04 1080.8 2648
-1526.71 1080.8 2648
-1520.37 1080.8 2648
-1518.62 1084.06 2656
-1512.26 1084.06 2656
-1505.91 1084.06 2656
-1499.56 1084.06 2656
-1493.21 1084.06 2656
-1486.86 1084.06 2656
-1455.42 1065.7 2611
-1311.82 1065.7 2611
-1305.58 1065.7 2611
-1309.28 1073.86 2631
-1302.99 1073.86 2631
-1303.11 1079.17 2644
-1296.79 1079.17 2644
-1294.37 1082.43 2652
-1288.03 1082.43 2652
-1281.68 1082.43 2652
-1275.34 1082.43 2652
-1258.95 1073.86 2631
-1250.76 1072.23 2627
-1244.47 1072.23 2627
-1236.31 1070.59 2623
-1224.41 1065.7 2611
-1208.37 1057.13 2590
-1187.78 1044.47 2559
-1181.66 1044.47 2559
-1173.71 1042.84 2555
-1167.6 1042.84 2555
-1161.49 1042.84 2555
-1155.38 1042.84 2555
-1149.27 1042.84 2555
-1143.16 1042.84 2555
-1137.05 1042.84 2555
-1130.94 1042.84 2555
-1124.83 1042.84 2555
-1118.72 1042.84 2555
-1112.61 1042.84 2555
-1106.5 1042.84 2555
-1098.67 1041.21 2551
-1090.85 1039.57 2547
-1084.76 1039.57 2547
-1078.67 1039.57 2547
-1072.58 1039.57 2547
-1060.21 1033.45 2532
-1047.49 1026.92 2516
-1043.13 1028.55 2520
-1037.11 1028.55 2520
-1038.86 1036.31 2539
-1032.78 1036.31 2539
-1026.71 1036.31 2539
-1008.58 1024.06 2509
-976.6 1034.68 2535
-970.538 1034.68 2535
-964.476 1034.68 2535
-964.463 1041.21 2551
-959.866 1042.84 2555
-956.742 1046.11 2563
-950.613 1046.11 2563
-944.484 1046.11 2563
-931.096 1058.76 2594
-926.676 1060.8 2599
-920.461 1060.8 2599
-914.246 1060.8 2599
-906.284 1058.76 2594
-900.081 1058.76 2594
-893.878 1058.76 2594
-887.675 1058.76 2594
-878.753 1055.49 2586
-869.87 1052.23 2578
-863.705 1052.23 2578
-856.21 1050.59 2574
-850.054 1050.59 2574
-845.211 1052.23 2578
-839.046 1052.23 2578
-832.881 1052.23 2578
-825.434 1050.59 2574
-819.278 1050.59 2574
-813.123 1050.59 2574
-806.027 1049.37 2571
-802.057 1052.23 2578
-799.597 1057.13 2590
-797.386 1062.43 2603
-791.161 1062.43 2603
-784.937 1062.43 2603
-778.712 1062.43 2603
-773.675 1064.06 2607
-767.441 1064.06 2607
-761.207 1064.06 2607
-757.289 1067.33 2615
-751.036 1067.33 2615
-744.783 1067.33 2615
-736.27 1064.06 2607
-730.036 1064.06 2607
-723.802 1064.06 2607
-715.366 1060.8 2599
-707.786 1058.76 2594
-701.583 1058.76 2594
-698.865 1064.06 2607
-692.631 1064.06 2607
-686.397 1064.06 2607
-678.076 1060.8 2599
-669.534 1057.13 2590
-663.341 1057.13 2590
-656.132 1055.49 2586
-646.932 1050.59 2574
-640.777 1050.59 2574
-635.608 1052.23 2578
-629.443 1052.23 2578
-623.279 1052.23 2578
-617.114 1052.23 2578
-610.949 1052.23 2578
-603.846 1050.59 2574
-597.691 1050.59 2574
-591.535 1050.59 2574
-586.29 1052.23 2578
-580.125 1052.23 2578
-575.741 1055.49 2586
-572.421 1060.8 2599
-567.077 1062.43 2603
-560.853 1062.43 2603
-555.48 1064.06 2607
-549.246 1064.06 2607
-545.512 1068.96 2619
-539.249 1068.96 2619
-532.986 1068.96 2619
-526.723 1068.96 2619
-520.46 1068.96 2619
-513.412 1067.33 2615
-507.159 1067.33 2615
-501.672 1068.96 2619
-495.409 1068.96 2619
-489.146 1068.96 2619
-482.883 1068.96 2619
-477.348 1070.59 2623
-471.794 1072.23 2627
-465.513 1072.23 2627
-460.629 1075.49 2635
-454.328 1075.49 2635
-448.027 1075.49 2635
-443.235 1079.17 2644
-436.912 1079.17 2644
-430.589 1079.17 2644
-424.267 1079.17 2644
-417.944 1079.17 2644
-411.622 1079.17 2644
-405.299 1079.17 2644
-398.976 1079.17 2644
-392.654 1079.17 2644
-386.331 1079.17 2644
-380.008 1079.17 2644
-373.121 1077.53 2640
-366.808 1077.53 2640
-359.266 1073.86 2631
-352.437 1072.23 2627
-346.682 1073.86 2631
-341.555 1077.53 2640
-335.242 1077.53 2640
-328.929 1077.53 2640
-322.616 1077.53 2640
-316.782 1079.17 2644
-310.46 1079.17 2644
-304.137 1079.17 2644
-297.364 1077.53 2640
-291.051 1077.53 2640
-283.767 1073.86 2631
-275.788 1067.33 2615
-271.184 1073.86 2631
-265.799 1077.53 2640
-259.486 1077.53 2640
-253.173 1077.53 2640
-246.392 1075.49 2635
-240.091 1075.49 2635
-234.234 1077.53 2640
-227.921 1077.53 2640
-221.608 1077.53 2640
-215.295 1077.53 2640
-208.982 1077.53 2640
-202.668 1077.53 2640
-195.389 1072.23 2627
-189.107 1072.23 2627
-182.825 1072.23 2627
-176.543 1072.23 2627
-170.261 1072.23 2627
-93.4538 932.638 2285
-87.9897 932.638 2285
-82.5255 932.638 2285
-76.9602 931.413 2282
-71.4093 930.189 2279
-65.9595 930.189 2279
-60.3504 927.74 2273
-54.915 927.74 2273
-49.4142 926.515 2270
-43.9279 925.291 2267
-38.5068 925.291 2267
-32.896 919.985 2254
-27.4694 918.76 2251
-22.0571 917.536 2248
-16.6814 917.536 2248
-11.2907 916.311 2245
-5.92223 916.311 2245
-0.553015 915.087 2242
4.80829 915.087 2242
10.1288 911.414 2233
15.4685 911.414 2233
20.7524 908.965 2227
26.0778 908.965 2227
31.361 907.74 2224
36.6792 907.74 2224
41.7898 903.25 2213
47.0817 903.25 2213
52.3027 902.026 2210
57.5875 902.026 2210
62.8722 902.026 2210
68.157 902.026 2210
73.5415 903.25 2213
78.8334 903.25 2213
84.3155 905.291 2218
89.7406 906.516 2221
95.0517 906.516 2221
100.363 906.516 2221
106.245 911.414 2233
111.734 912.638 2236
117.081 912.638 2236
122.428 912.638 2236
127.947 913.862 2239
133.48 915.087 2242
139.212 917.536 2248
144.588 917.536 2248
150.564 921.209 2257
157.067 927.74 2273
162.502 927.74 2273
167.938 927.74 2273
173.831 930.189 2279
179.281 930.189 2279
185.46 933.862 2288
190.931 933.862 2288
197.003 936.719 2295
204.168 944.474 2314
211.786 953.862 2337
217.374 953.862 2337
226.683 969.78 2376
236.473 986.922 2418
242.255 986.922 2418
248.037 986.922 2418
267.78 1041.21 2551
277.638 1055.49 2586
283.822 1055.49 2586
292.361 1064.06 2607
299.053 1065.7 2611
306.232 1068.96 2619
312.495 1068.96 2619
318.758 1068.96 2619
326.51 1073.86 2631
334.446 1079.17 2644
340.769 1079.17 2644
347.091 1079.17 2644
353.414 1079.17 2644
360.281 1080.8 2648
367.167 1082.43 2652
373.508 1082.43 2652
382.285 1089.37 2669
388.667 1089.37 2669
395.05 1089.37 2669
401.432 1089.37 2669
405.828 1084.06 2656
411.559 1082.43 2652
417.9 1082.43 2652
422.323 1077.53 2640
427.824 1075.49 2635
431.489 1068.96 2619
437.752 1068.96 2619
443.336 1067.33 2615
449.59 1067.33 2615
456.54 1068.96 2619
463.51 1070.59 2623
471.215 1073.86 2631
477.506 1073.86 2631
485.453 1077.53 2640
491.766 1077.53 2640
498.079 1077.53 2640
504.392 1077.53 2640
508.964 1073.86 2631
514.472 1072.23 2627
520.754 1072.23 2627
526.234 1070.59 2623
531.694 1068.96 2619
537.957 1068.96 2619
544.22 1068.96 2619
550.482 1068.96 2619
555.895 1067.33 2615
563.008 1068.96 2619
570.14 1070.59 2623
576.413 1070.59 2623
582.685 1070.59 2623
588.957 1070.59 2623
595.23 1070.59 2623
601.502 1070.59 2623
607.775 1070.59 2623
610.301 1064.06 2607
616.536 1064.06 2607
622.77 1064.06 2607
625.867 1058.76 2594
632.07 1058.76 2594
647.377 1073.86 2631
655.905 1077.53 2640
662.218 1077.53 2640
668.531 1077.53 2640
681.235 1087.74 2665
687.607 1087.74 2665
693.98 1087.74 2665
717.068 1103.66 2704
735.308 1121.61 2748
741.879 1121.61 2748
748.451 1121.61 2748
750.076 1114.27 2730
756.604 1114.27 2730
756.983 1105.29 2708
763.459 1105.29 2708
766.238 1099.98 2695
772.683 1099.98 2695
776.525 1096.31 2686
774.204 1084.06 2656
779.379 1082.43 2652
785.721 1082.43 2652
792.063 1082.43 2652
795.996 1079.17 2644
798.374 1073.86 2631
803.442 1072.23 2627
810.957 1073.86 2631
817.248 1073.86 2631
824.792 1075.49 2635
831.093 1075.49 2635
837.394 1075.49 2635
842.414 1073.86 2631
848.706 1073.86 2631
856.297 1075.49 2635
864.235 1077.53 2640
870.548 1077.53 2640
885.165 1087.74 2665
891.538 1087.74 2665
897.911 1087.74 2665
904.283 1087.74 2665
910.656 1087.74 2665
915.653 1086.1 2661
922.016 1086.1 2661
928.379 1086.1 2661
927.366 1077.53 2640
927.666 1070.59 2623
929.666 1065.7 2611
935.91 1065.7 2611
942.154 1065.7 2611
945.491 1062.43 2603
956.103 1067.33 2615
969.717 1075.49 2635
976.018 1075.49 2635
984.183 1077.53 2640
990.496 1077.53 2640
996.809 1077.53 2640
993.623 1067.33 2615
996.817 1064.06 2607
996.511 1057.13 2590
1002.7 1057.13 2590
1007.34 1055.49 2586
1011.96 1053.86 2582
1018.13 1053.86 2582
1024.3 1053.86 2582
1030.48 1053.86 2582
1036.65 1053.86 2582
1047.67 1058.76 2594
1060.78 1065.7 2611
1073.57 1072.23 2627
1079.85 1072.23 2627
1091.5 1077.53 2640
1097.82 1077.53 2640
1104.13 1077.53 2640
1110.44 1077.53 2640
1116.76 1077.53 2640
1115.84 1070.59 2623
1122.11 1070.59 2623
1123.22 1065.7 2611
1126 1062.43 2603
1132.23 1062.43 2603
1138.45 1062.43 2603
1144.68 1062.43 2603
1150.9 1062.43 2603
1153.13 1058.76 2594
1166.93 1065.7 2611
1173.17 1065.7 2611
1179.41 1065.7 2611
1185.66 1065.7 2611
1191.9 1065.7 2611
1199.98 1067.33 2615
1206.23 1067.33 2615
1216.2 1070.59 2623
1222.47 1070.59 2623
1228.74 1070.59 2623
1235.01 1070.59 2623
1241.29 1070.59 2623
1245.66 1068.96 2619
1251.92 1068.96 2619
1256.26 1067.33 2615
1264.44 1068.96 2619
1284.78 1080.8 2648
1297.45 1086.1 2661
1303.81 1086.1 2661
1310.17 1086.1 2661
1310.11 1080.8 2648
1318.43 1082.43 2652
1324.77 1082.43 2652
1331.11 1082.43 2652
1335.43 1080.8 2648
1341.77 1080.8 2648
1348.1 1080.8 2648
1350.34 1077.53 2640
1354.08 1075.49 2635
1360.38 1075.49 2635
1366.69 1075.49 2635
1368.82 1072.23 2627
1375.1 1072.23 2627
1381.38 1072.23 2627
1387.66 1072.23 2627
1393.95 1072.23 2627
1402.36 1073.86 2631
1413.47 1077.53 2640
1419.78 1077.53 2640
1426.1 1077.53 2640
1432.41 1077.53 2640
1452.35 1087.74 2665
1463.1 1091 2673
1474.44 1094.68 2682
1480.85 1094.68 2682
1492.26 1098.35 2691
1498.69 1098.35 2691
1505.13 1098.35 2691
1508.75 1096.31 2686
1520.25 1099.98 2695
1528.96 1101.61 2699
1540.54 1105.29 2708
1547.01 1105.29 2708
1556.36 1107.33 2713
1562.84 1107.33 2713
1571.65 1108.96 2717
1578.14 1108.96 2717
1584.64 1108.96 2717
1591.14 1108.96 2717
1597.63 1108.96 2717
1585.83 1096.31 2686
1589.88 1094.68 2682
1588.56 1089.37 2669
1590.16 1086.1 2661
1596.52 1086.1 2661
1592.64 1079.17 2644
1598.97 1079.17 2644
1605.29 1079.17 2644
1611.61 1079.17 2644
1609.98 1073.86 2631
1662.9 1096.31 2686
1669.33 1096.31 2686
1697.59 1110.59 2721
1704.09 1110.59 2721
1710.6 1110.59 2721
1689.97 1093.04 2678
1691.97 1086.1 2661
1745.56 1116.31 2735
1757.87 1119.98 2744
1764.43 1119.98 2744
1779.38 1125.29 2757
1792.45 1129.37 2767
1799.07 1129.37 2767
1805.69 1129.37 2767
1812.3 1129.37 2767
1818.92 1129.37 2767
1825.54 1129.37 2767
1822.88 1123.65 2753
1820.16 1117.94 2739
1826.71 1117.94 2739
1836.61 1119.98 2744
1843.17 1119.98 2744
1849.73 1119.98 2744
1838.03 1108.96 2717
1844.53 1108.96 2717
1786.98 1070.59 2623
1785.05 1065.7 2611
1785.81 1062.43 2603
1797.54 1065.7 2611
1803.78 1065.7 2611
1810.03 1065.7 2611
1816.27 1065.7 2611
1822.51 1065.7 2611
1828.76 1065.7 2611
1832.19 1064.06 2607
1838.42 1064.06 2607
1844.66 1064.06 2607
1850.89 1064.06 2607
1857.13 1064.06 2607
1857.64 1060.8 2599
1872.46 1065.7 2611
1878.71 1065.7 2611
1884.95 1065.7 2611
1891.19 1065.7 2611
1897.44 1065.7 2611
1876.71 1050.59 2574
1882.86 1050.59 2574
1648.31 902.026 2210
1653.59 902.026 2210
1694.16 921.209 2257
1709.34 926.515 2270
1733.65 936.719 2295
1739.14 936.719 2295
1744.63 936.719 2295
1728.77 925.291 2267
1734.19 925.291 2267
-1548.36 1080.16 2631
-1542.07 1080.16 2631
-1538.11 1081.8 2635
-1531.81 1081.8 2635
-1533.04 1087.14 2648
-1526.71 1087.14 2648
-1520.37 1087.14 2648
-1518.62 1090.43 2656
-1512.26 1090.43 2656
-1505.91 1090.43 2656
-1499.56 1090.43 2656
-1493.21 1090.43 2656
-1486.86 1090.43 2656
-1455.42 1071.95 2611
-1413.66 1045.68 2547
-1392.65 1034.59 2520
-1386.62 1034.59 2520
-1376.21 1031.31 2512
-1368.57 1030.08 2509
-1253.74 964.797 2350
-1248.12 964.797 2350
-1242.5 964.797 2350
-1234.78 963.155 2346
-1229.17 963.155 2346
-1220.43 960.692 2340
-1214.83 960.692 2340
-1311.82 1071.95 2611
-1305.58 1071.95 2611
-1309.28 1080.16 2631
-1302.99 1080.16 2631
-1303.11 1085.5 2644
-1296.79 1085.5 2644
-1294.37 1088.78 2652
-1288.03 1088.78 2652
-1281.68 1088.78 2652
-1275.34 1088.78 2652
-1258.95 1080.16 2631
-1250.76 1078.52 2627
-1244.47 1078.52 2627
-1236.31 1076.88 2623
-1224.41 1071.95 2611
-1208.37 1063.33 2590
-1187.78 1050.6 2559
-1181.66 1050.6 2559
-1173.71 1048.96 2555
-1167.6 1048.96 2555
-1161.49 1048.96 2555
-1155.38 1048.96 2555
-1149.27 1048.96 2555
-1143.16 1048.96 2555
-1137.05 1048.96 2555
-1130.94 1048.96 2555
-1124.83 1048.96 2555
-1118.72 1048.96 2555
-1112.61 1048.96 2555
-1106.5 1048.96 2555
-1098.67 1047.32 2551
-1090.85 1045.68 2547
-1084.76 1045.68 2547
-1078.67 1045.68 2547
-1072.58 1045.68 2547
-1060.21 1039.52 2532
-1047.49 1032.95 2516
-1043.13 1034.59 2520
-1037.11 1034.59 2520
-1038.86 1042.39 2539
-1032.78 1042.39 2539
-1026.71 1042.39 2539
-1008.58 1030.08 2509
-976.6 1040.75 2535
-970.538 1040.75 2535
-964.476 1040.75 2535
-964.463 1047.32 2551
-959.866 1048.96 2555
-956.742 1052.24 2563
-950.613 1052.24 2563
-944.484 1052.24 2563
-941.284 1055.53 2571
-937.682 1058.4 2578
-931.518 1058.4 2578
-931.096 1064.97 2594
-926.676 1067.02 2599
-920.461 1067.02 2599
-914.246 1067.02 2599
-903.489 1061.69 2586
-897.305 1061.69 2586
-891.121 1061.69 2586
-882.199 1058.4 2578
-876.035 1058.4 2578
-869.87 1058.4 2578
-863.705 1058.4 2578
-856.21 1056.76 2574
-849.064 1055.53 2571
-842.916 1055.53 2571
-836.768 1055.53 2571
-830.62 1055.53 2571
-821.906 1052.24 2563
-814.504 1050.6 2559
-809.648 1052.24 2563
-803.519 1052.24 2563
-799.879 1055.53 2571
-795.892 1058.4 2578
-792.178 1061.69 2586
-785.994 1061.69 2586
-779.81 1061.69 2586
-773.627 1061.69 2586
-767.443 1061.69 2586
-761.259 1061.69 2586
-753.907 1060.05 2582
-747.733 1060.05 2582
-741.558 1060.05 2582
-734.245 1058.4 2578
-726.95 1056.76 2574
-720.795 1056.76 2574
-714.64 1056.76 2574
-706.558 1053.89 2567
-700.419 1053.89 2567
-695.363 1055.53 2571
-690.019 1056.76 2574
-683.864 1056.76 2574
-677.708 1056.76 2574
-671.553 1056.76 2574
-662.554 1052.24 2563
-656.426 1052.24 2563
-650.297 1052.24 2563
-642.157 1048.96 2555
-636.047 1048.96 2555
-630.924 1050.6 2559
-624.804 1050.6 2559
-619.652 1052.24 2563
-613.523 1052.24 2563
-607.394 1052.24 2563
-601.265 1052.24 2563
-595.136 1052.24 2563
-589.008 1052.24 2563
-584.698 1055.53 2571
-578.55 1055.53 2571
-574.851 1060.05 2582
-569.558 1061.69 2586
-566.206 1067.02 2599
-559.991 1067.02 2599
-553.776 1067.02 2599
-548.404 1068.67 2603
-543.012 1070.31 2607
-536.778 1070.31 2607
-530.544 1070.31 2607
-524.31 1070.31 2607
-518.076 1070.31 2607
-511.841 1070.31 2607
-505.607 1070.31 2607
-500.139 1071.95 2611
-493.896 1071.95 2611
-487.652 1071.95 2611
-482.883 1075.24 2619
-476.621 1075.24 2619
-470.358 1075.24 2619
-464.095 1075.24 2619
-459.231 1078.52 2627
-452.949 1078.52 2627
-446.667 1078.52 2627
-440.385 1078.52 2627
-434.103 1078.52 2627
-427.821 1078.52 2627
-423.625 1083.86 2640
-417.312 1083.86 2640
-410.999 1083.86 2640
-402.08 1076.88 2623
-395.807 1076.88 2623
-390.129 1078.52 2627
-383.847 1078.52 2627
-377.565 1078.52 2627
-371.283 1078.52 2627
-365.001 1078.52 2627
-358.719 1078.52 2627
-351.901 1076.88 2623
-344.574 1073.59 2615
-338.838 1075.24 2619
-332.576 1075.24 2619
-327.808 1080.16 2631
-321.516 1080.16 2631
-315.225 1080.16 2631
-308.464 1078.52 2627
-302.182 1078.52 2627
-294.999 1075.24 2619
-288.736 1075.24 2619
-280.316 1067.02 2599
-273.152 1063.33 2590
-268.711 1070.31 2607
-262.879 1071.95 2611
-256.635 1071.95 2611
-250.775 1073.59 2615
-244.522 1073.59 2615
-238.269 1073.59 2615
-232.016 1073.59 2615
-225.762 1073.59 2615
-219.845 1075.24 2619
-213.582 1075.24 2619
-207.319 1075.24 2619
-201.056 1075.24 2619
-194.794 1075.24 2619
-189.107 1078.52 2627
-182.825 1078.52 2627
-176.543 1078.52 2627
-170.261 1078.52 2627
-99.7404 945.912 2304
-94.2309 945.912 2304
-88.7213 945.912 2304
-82.8867 942.217 2295
-76.9602 936.88 2282
-71.4093 935.648 2279
-65.9595 935.648 2279
-60.3504 933.185 2273
-54.8425 931.953 2270
-49.3489 930.721 2267
-43.8697 929.49 2264
-38.4558 929.49 2264
-32.8522 924.153 2251
-27.4694 924.153 2251
-22.0277 921.689 2245
-16.6592 921.689 2245
-11.2907 921.689 2245
-5.91432 920.458 2242
-0.553015 920.458 2242
4.80829 920.458 2242
10.1288 916.763 2233
15.4478 915.531 2230
20.7524 914.299 2227
26.0778 914.299 2227
31.361 913.068 2224
36.6298 911.836 2221
41.7331 907.32 2210
47.0179 907.32 2210
52.3027 907.32 2210
57.5875 907.32 2210
62.8722 907.32 2210
68.157 907.32 2210
73.5415 908.552 2213
78.8334 908.552 2213
84.3155 910.604 2218
89.6194 910.604 2218
95.0517 911.836 2221
100.363 911.836 2221
106.102 915.531 2230
111.734 917.994 2236
117.081 917.994 2236
122.428 917.994 2236
127.947 919.226 2239
133.48 920.458 2242
139.027 921.689 2245
144.395 921.689 2245
150.564 926.616 2257
157.067 933.185 2273
162.502 933.185 2273
167.938 933.185 2273
173.831 935.648 2279
179.281 935.648 2279
185.784 940.985 2292
191.265 940.985 2292
197.261 943.449 2298
204.168 950.017 2314
212.057 960.692 2340
217.653 960.692 2340
226.397 974.24 2373
233.441 979.988 2387
242.255 992.715 2418
248.037 992.715 2418
266.94 1044.03 2543
274.31 1048.96 2555
283.822 1061.69 2586
290.006 1061.69 2586
297.106 1064.97 2594
303.309 1064.97 2594
309.512 1064.97 2594
315.715 1064.97 2594
323.035 1068.67 2603
330.272 1071.95 2611
337.546 1075.24 2619
343.809 1075.24 2619
350.072 1075.24 2619
357.423 1078.52 2627
366.613 1087.14 2648
372.945 1087.14 2648
379.85 1088.78 2652
387.502 1092.48 2661
393.866 1092.48 2661
400.229 1092.48 2661
404.606 1087.14 2648
409.696 1083.86 2640
416.009 1083.86 2640
421.523 1081.8 2635
426.525 1078.52 2627
431.489 1075.24 2619
437.752 1075.24 2619
443.336 1073.59 2615
449.59 1073.59 2615
456.54 1075.24 2619
463.51 1076.88 2623
471.215 1080.16 2631
477.506 1080.16 2631
485.453 1083.86 2640
491.766 1083.86 2640
498.079 1083.86 2640
503.437 1081.8 2635
508.964 1080.16 2631
513.689 1076.88 2623
519.961 1076.88 2623
523.826 1071.95 2611
530.07 1071.95 2611
536.314 1071.95 2611
542.557 1071.95 2611
548.801 1071.95 2611
555.045 1071.95 2611
562.148 1073.59 2615
568.401 1073.59 2615
574.655 1073.59 2615
581.797 1075.24 2619
588.059 1075.24 2619
594.322 1075.24 2619
600.585 1075.24 2619
604.994 1071.95 2611
609.365 1068.67 2603
613.461 1064.97 2594
619.664 1064.97 2594
622.972 1060.05 2582
630.121 1061.69 2586
639.504 1067.02 2599
655.905 1083.86 2640
662.218 1083.86 2640
668.531 1083.86 2640
674.844 1083.86 2640
681.157 1083.86 2640
702.218 1087.14 2648
723.534 1110.13 2704
730 1110.13 2704
736.467 1110.13 2704
742.933 1110.13 2704
749.399 1110.13 2704
749.715 1101.1 2682
750.208 1092.48 2661
755.15 1090.43 2656
761.501 1090.43 2656
764.383 1085.5 2644
762.252 1073.59 2615
769.681 1075.24 2619
775.944 1075.24 2619
782.207 1075.24 2619
788.47 1075.24 2619
792.305 1071.95 2611
794.879 1067.02 2599
802.326 1068.67 2603
808.551 1068.67 2603
814.776 1068.67 2603
822.262 1070.31 2607
829.767 1071.95 2611
836.011 1071.95 2611
842.254 1071.95 2611
848.498 1071.95 2611
861.289 1080.16 2631
867.581 1080.16 2631
876.861 1083.86 2640
887.189 1088.78 2652
893.531 1088.78 2652
899.872 1088.78 2652
903.48 1085.5 2644
909.803 1085.5 2644
916.126 1085.5 2644
917.913 1080.16 2631
917.179 1071.95 2611
922.008 1070.31 2607
926.818 1068.67 2603
933.042 1068.67 2603
936.019 1064.97 2594
940.769 1063.33 2590
951.716 1068.67 2603
962.357 1073.59 2615
968.61 1073.59 2615
974.863 1073.59 2615
981.116 1073.59 2615
987.37 1073.59 2615
989.063 1068.67 2603
990.317 1063.33 2590
993.433 1060.05 2582
999.607 1060.05 2582
1004.22 1058.4 2578
1008.82 1056.76 2574
1014.98 1056.76 2574
1021.13 1056.76 2574
1028.88 1058.4 2578
1035.05 1058.4 2578
1044.44 1061.69 2586
1055.91 1067.02 2599
1067.03 1071.95 2611
1073.27 1071.95 2611
1086.13 1078.52 2627
1092.41 1078.52 2627
1098.69 1078.52 2627
1104.98 1078.52 2627
1109.57 1076.88 2623
1110.73 1071.95 2611
1116.98 1071.95 2611
1118.06 1067.02 2599
1122.11 1064.97 2594
1128.31 1064.97 2594
1134.52 1064.97 2594
1140.72 1064.97 2594
1146.92 1064.97 2594
1153.13 1064.97 2594
1157.54 1063.33 2590
1171.37 1070.31 2607
1177.61 1070.31 2607
1185.66 1071.95 2611
1191.9 1071.95 2611
1198.14 1071.95 2611
1204.39 1071.95 2611
1210.63 1071.95 2611
1216.88 1071.95 2611
1223.12 1071.95 2611
1229.36 1071.95 2611
1235.61 1071.95 2611
1241.85 1071.95 2611
1248.09 1071.95 2611
1254.34 1071.95 2611
1264.44 1075.24 2619
1284.78 1087.14 2648
1291.11 1087.14 2648
1297.44 1087.14 2648
1303.77 1087.14 2648
1306.15 1083.86 2640
1312.46 1083.86 2640
1318.77 1083.86 2640
1325.09 1083.86 2640
1331.4 1083.86 2640
1337.71 1083.86 2640
1344.03 1083.86 2640
1347.78 1081.8 2635
1354.08 1081.8 2635
1356.25 1078.52 2627
1362.54 1078.52 2627
1364.65 1075.24 2619
1370.91 1075.24 2619
1377.18 1075.24 2619
1387.66 1078.52 2627
1393.95 1078.52 2627
1402.36 1080.16 2631
1413.47 1083.86 2640
1419.78 1083.86 2640
1426.1 1083.86 2640
1432.41 1083.86 2640
1452.35 1094.12 2665
1463.1 1097.41 2673
1474.44 1101.1 2682
1480.85 1101.1 2682
1492.26 1104.8 2691
1498.69 1104.8 2691
1505.13 1104.8 2691
1508.75 1102.74 2686
1520.25 1106.44 2695
1528.96 1108.08 2699
1540.54 1111.77 2708
1547.01 1111.77 2708
1556.36 1113.83 2713
1562.84 1113.83 2713
1571.65 1115.47 2717
1578.14 1115.47 2717
1584.64 1115.47 2717
1591.14 1115.47 2717
1597.63 1115.47 2717
1585.83 1102.74 2686
1589.88 1101.1 2682
1588.56 1095.76 2669
1590.16 1092.48 2661
1596.52 1092.48 2661
1592.64 1085.5 2644
1598.97 1085.5 2644
1605.29 1085.5 2644
1611.61 1085.5 2644
1609.98 1080.16 2631
1579.41 1055.53 2571
1589.88 1058.4 2578
1662.9 1102.74 2686
1669.33 1102.74 2686
1697.59 1117.11 2721
1704.09 1117.11 2721
1710.6 1117.11 2721
1689.97 1099.46 2678
1664.07 1078.52 2627
1691.97 1092.48 2661
1745.56 1122.86 2735
1757.87 1126.55 2744
1764.43 1126.55 2744
1779.38 1131.89 2757
1792.45 1136 2767
1799.07 1136 2767
1805.69 1136 2767
1812.3 1136 2767
1818.92 1136 2767
1825.54 1136 2767
1822.88 1130.25 2753
1820.16 1124.5 2739
1826.71 1124.5 2739
1836.61 1126.55 2744
1843.17 1126.55 2744
1849.73 1126.55 2744
1838.03 1115.47 2717
1844.53 1115.47 2717
1786.98 1076.88 2623
1785.05 1071.95 2611
1785.81 1068.67 2603
1797.54 1071.95 2611
1803.78 1071.95 2611
1810.03 1071.95 2611
1816.27 1071.95 2611
1822.51 1071.95 2611
1828.76 1071.95 2611
1832.19 1070.31 2607
1838.42 1070.31 2607
1844.66 1070.31 2607
1850.89 1070.31 2607
1857.13 1070.31 2607
1857.64 1067.02 2599
1872.46 1071.95 2611
1878.71 1071.95 2611
1884.95 1071.95 2611
1891.19 1071.95 2611
1897.44 1071.95 2611
1876.71 1056.76 2574
1882.86 1056.76 2574
1648.31 907.32 2210
1653.59 907.32 2210
1722.68 942.217 2295
1749.25 953.712 2323
1762.36 957.818 2333
1767.94 957.818 2333
1791 967.261 2356
1796.64 967.261 2356
1802.27 967.261 2356
-1534.24 1076.55 2607
-1528 1076.55 2607
-1535.78 1086.46 2631
-1529.49 1086.46 2631
-1533.04 1093.49 2648
-1526.71 1093.49 2648
-1520.37 1093.49 2648
-1514.04 1093.49 2648
-1507.71 1093.49 2648
-1501.38 1093.49 2648
-1495.05 1093.49 2648
-1486.46 1091.83 2644
-1480.14 1091.83 2644
-1455.42 1078.21 2611
-1413.66 1051.78 2547
-1392.65 1040.63 2520
-1386.62 1040.63 2520
-1376.21 1037.32 2512
-1368.57 1036.09 2509
-1253.74 970.427 2350
-1248.12 970.427 2350
-1242.5 970.427 2350
-1234.78 968.775 2346
-1229.17 968.775 2346
-1220.43 966.297 2340
-1214.83 966.297 2340
-1287.7 1058.38 2563
-1281.57 1058.38 2563
-1275.45 1058.38 2563
-1274.76 1062.93 2574
-1284.87 1076.55 2607
-1278.64 1076.55 2607
-1280.21 1083.16 2623
-1273.94 1083.16 2623
-1267.67 1083.16 2623
-1255.63 1078.21 2611
-1249.38 1078.21 2611
-1239.33 1074.9 2603
-1231.21 1073.25 2599
-1225 1073.25 2599
-1216.44 1071.19 2594
-1202.77 1064.58 2578
-1187.78 1056.73 2559
-1181.66 1056.73 2559
-1170.03 1051.78 2547
-1165.77 1053.43 2551
-1159.67 1053.43 2551
-1153.57 1053.43 2551
-1142.07 1048.47 2539
-1132.87 1045.58 2532
-1131.71 1050.13 2543
-1129.17 1053.43 2551
-1123.07 1053.43 2551
-1116.97 1053.43 2551
-1109.13 1051.78 2547
-1103.04 1051.78 2547
-1095.22 1050.13 2543
-1085.71 1046.82 2535
-1078.38 1045.58 2532
-1072.32 1045.58 2532
-1064.58 1043.93 2528
-1053.51 1038.98 2516
-1039.58 1031.13 2497
-1038.58 1036.09 2509
-1032.58 1036.09 2509
-1032.72 1042.28 2524
-1026.68 1042.28 2524
-1020.65 1042.28 2524
-1008.58 1036.09 2509
-976.6 1046.82 2535
-970.538 1046.82 2535
-964.476 1046.82 2535
-964.463 1053.43 2551
-959.866 1055.08 2555
-956.742 1058.38 2563
-950.613 1058.38 2563
-944.484 1058.38 2563
-941.284 1061.69 2571
-937.682 1064.58 2578
-931.518 1064.58 2578
-931.096 1071.19 2594
-924.893 1071.19 2594
-918.69 1071.19 2594
-909.673 1067.88 2586
-903.489 1067.88 2586
-897.305 1067.88 2586
-891.121 1067.88 2586
-882.199 1064.58 2578
-876.035 1064.58 2578
-869.87 1064.58 2578
-863.705 1064.58 2578
-856.21 1062.93 2574
-849.064 1061.69 2571
-842.916 1061.69 2571
-836.768 1061.69 2571
-830.62 1061.69 2571
-821.906 1058.38 2563
-814.504 1056.73 2559
-809.648 1058.38 2563
-803.519 1058.38 2563
-799.879 1061.69 2571
-795.892 1064.58 2578
-792.178 1067.88 2586
-785.994 1067.88 2586
-779.81 1067.88 2586
-773.627 1067.88 2586
-767.443 1067.88 2586
-761.259 1067.88 2586
-753.907 1066.23 2582
-747.733 1066.23 2582
-741.558 1066.23 2582
-734.245 1064.58 2578
-726.95 1062.93 2574
-720.795 1062.93 2574
-714.64 1062.93 2574
-706.558 1060.04 2567
-700.419 1060.04 2567
-695.363 1061.69 2571
-690.019 1062.93 2574
-683.864 1062.93 2574
-677.708 1062.93 2574
-671.553 1062.93 2574
-662.554 1058.38 2563
-656.426 1058.38 2563
-650.297 1058.38 2563
-642.157 1055.08 2555
-636.047 1055.08 2555
-630.924 1056.73 2559
-624.804 1056.73 2559
-619.652 1058.38 2563
-613.523 1058.38 2563
-607.394 1058.38 2563
-601.265 1058.38 2563
-595.136 1058.38 2563
-589.008 1058.38 2563
-584.698 1061.69 2571
-578.55 1061.69 2571
-574.851 1066.23 2582
-569.558 1067.88 2586
-566.206 1073.25 2599
-559.991 1073.25 2599
-553.776 1073.25 2599
-548.404 1074.9 2603
-543.012 1076.55 2607
-536.778 1076.55 2607
-530.544 1076.55 2607
-524.31 1076.55 2607
-518.076 1076.55 2607
-511.841 1076.55 2607
-505.607 1076.55 2607
-500.139 1078.21 2611
-493.896 1078.21 2611
-487.652 1078.21 2611
-482.883 1081.51 2619
-476.621 1081.51 2619
-470.358 1081.51 2619
-464.095 1081.51 2619
-459.231 1084.81 2627
-452.949 1084.81 2627
-446.667 1084.81 2627
-440.385 1084.81 2627
-434.103 1084.81 2627
-427.821 1084.81 2627
-423.625 1090.18 2640
-417.312 1090.18 2640
-410.999 1090.18 2640
-402.08 1083.16 2623
-395.807 1083.16 2623
-390.129 1084.81 2627
-383.847 1084.81 2627
-377.565 1084.81 2627
-371.283 1084.81 2627
-365.001 1084.81 2627
-358.719 1084.81 2627
-351.901 1083.16 2623
-344.574 1079.86 2615
-338.838 1081.51 2619
-332.576 1081.51 2619
-327.808 1086.46 2631
-321.516 1086.46 2631
-315.225 1086.46 2631
-308.464 1084.81 2627
-302.182 1084.81 2627
-294.999 1081.51 2619
-288.736 1081.51 2619
-280.316 1073.25 2599
-273.152 1069.53 2590
-268.711 1076.55 2607
-262.879 1078.21 2611
-256.635 1078.21 2611
-250.775 1079.86 2615
-244.522 1079.86 2615
-238.269 1079.86 2615
-232.016 1079.86 2615
-225.762 1079.86 2615
-219.845 1081.51 2619
-213.582 1081.51 2619
-207.319 1081.51 2619
-201.056 1081.51 2619
-194.794 1081.51 2619
-188.531 1081.51 2619
-182.268 1081.51 2619
-174.325 1071.19 2594
-168.122 1071.19 2594
-157.05 1038.98 2516
-151.034 1038.98 2516
-116.774 955.561 2314
-111.24 955.561 2314
-105.707 955.561 2314
-100.173 955.561 2314
-94.2309 951.431 2304
-88.7213 951.431 2304
-82.995 948.953 2298
-77.2975 946.476 2292
-71.4093 941.107 2279
-65.9595 941.107 2279
-60.4301 939.869 2276
-54.915 938.63 2273
-49.3489 936.152 2267
-43.8697 934.913 2264
-38.4558 934.913 2264
-32.8522 929.545 2251
-27.4694 929.545 2251
-22.0277 927.067 2245
-16.6592 927.067 2245
-11.2756 925.828 2242
-5.91432 925.828 2242
-0.552275 924.59 2239
4.80185 924.59 2239
10.1152 920.873 2230
15.4478 920.873 2230
20.7524 919.634 2227
26.0778 919.634 2227
31.3187 917.156 2221
36.6298 917.156 2221
41.7331 912.614 2210
47.0179 912.614 2210
52.3027 912.614 2210
57.5875 912.614 2210
62.8722 912.614 2210
68.157 912.614 2210
73.4418 912.614 2210
78.7266 912.614 2210
84.2014 914.679 2215
89.6194 915.918 2218
95.0517 917.156 2221
100.363 917.156 2221
106.102 920.873 2230
111.585 922.112 2233
117.081 923.351 2236
122.428 923.351 2236
127.775 923.351 2236
133.48 925.828 2242
139.027 927.067 2245
144.395 927.067 2245
150.564 932.023 2257
157.067 938.63 2273
162.502 938.63 2273
167.938 938.63 2273
173.831 941.107 2279
179.281 941.107 2279
185.784 946.476 2292
191.265 946.476 2292
197.261 948.953 2298
204.168 955.561 2314
212.601 968.775 2346
218.211 968.775 2346
226.397 979.924 2373
233.441 985.706 2387
242.255 998.507 2418
248.037 998.507 2418
266.521 1048.47 2539
273.451 1051.78 2547
283.822 1067.88 2586
290.006 1067.88 2586
296.19 1067.88 2586
302.374 1067.88 2586
308.558 1067.88 2586
314.742 1067.88 2586
321.918 1071.19 2594
329.26 1074.9 2603
340.769 1091.83 2644
347.091 1091.83 2644
353.414 1091.83 2644
356.335 1081.51 2619
363.705 1084.81 2627
369.987 1084.81 2627
379.277 1093.49 2648
385.609 1093.49 2648
391.941 1093.49 2648
398.274 1093.49 2648
402.619 1088.12 2635
407.679 1084.81 2627
413.961 1084.81 2627
420.243 1084.81 2627
425.226 1081.51 2619
430.171 1078.21 2611
436.414 1078.21 2611
441.98 1076.55 2607
448.214 1076.55 2607
455.843 1079.86 2615
463.51 1083.16 2623
469.782 1083.16 2623
476.055 1083.16 2623
484.533 1088.12 2635
490.835 1088.12 2635
497.136 1088.12 2635
503.437 1088.12 2635
508.19 1084.81 2627
511.339 1078.21 2611
517.582 1078.21 2611
522.221 1074.9 2603
530.07 1078.21 2611
536.314 1078.21 2611
542.557 1078.21 2611
548.801 1078.21 2611
555.045 1078.21 2611
561.288 1078.21 2611
568.401 1079.86 2615
574.655 1079.86 2615
581.797 1081.51 2619
588.059 1081.51 2619
594.322 1081.51 2619
600.585 1081.51 2619
604.994 1078.21 2611
610.301 1076.55 2607
615.59 1074.9 2603
621.814 1074.9 2603
623.937 1067.88 2586
630.121 1067.88 2586
641.472 1076.55 2607
655.905 1090.18 2640
662.218 1090.18 2640
668.531 1090.18 2640
674.844 1090.18 2640
681.157 1090.18 2640
702.218 1093.49 2648
717.648 1107.53 2682
724.061 1107.53 2682
730.475 1107.53 2682
736.888 1107.53 2682
743.302 1107.53 2682
746.081 1102.16 2669
750.208 1098.85 2661
751.738 1091.83 2644
758.06 1091.83 2644
761.781 1088.12 2635
762.252 1079.86 2615
768.506 1079.86 2615
774.759 1079.86 2615
781.012 1079.86 2615
786.061 1078.21 2611
788.664 1073.25 2599
790.903 1067.88 2586
798.319 1069.53 2590
804.513 1069.53 2590
810.706 1069.53 2590
816.9 1069.53 2590
825.953 1073.25 2599
832.169 1073.25 2599
838.383 1073.25 2599
844.599 1073.25 2599
853.432 1076.55 2607
859.667 1076.55 2607
867.229 1078.21 2611
877.487 1083.16 2623
883.76 1083.16 2623
890.032 1083.16 2623
896.305 1083.16 2623
897.071 1076.55 2607
903.305 1076.55 2607
909.539 1076.55 2607
908.397 1067.88 2586
913.166 1066.23 2582
917.916 1064.58 2578
924.081 1064.58 2578
930.246 1064.58 2578
933.868 1061.69 2571
946.963 1069.53 2590
957.94 1074.9 2603
964.165 1074.9 2603
970.39 1074.9 2603
976.614 1074.9 2603
982.839 1074.9 2603
981.084 1066.23 2582
987.258 1066.23 2582
990.355 1062.93 2574
996.51 1062.93 2574
1001.5 1061.69 2571
1002.94 1056.73 2559
1010.64 1058.38 2563
1018.35 1060.04 2567
1024.49 1060.04 2567
1030.63 1060.04 2567
1041.21 1064.58 2578
1050.63 1067.88 2586
1060.08 1071.19 2594
1066.28 1071.19 2594
1079.51 1078.21 2611
1090.75 1083.16 2623
1097.02 1083.16 2623
1103.29 1083.16 2623
1102.8 1076.55 2607
1103.5 1071.19 2594
1109.7 1071.19 2594
1114.19 1069.53 2590
1116.92 1066.23 2582
1124.83 1067.88 2586
1132.77 1069.53 2590
1138.96 1069.53 2590
1145.15 1069.53 2590
1147.79 1066.23 2582
1155.75 1067.88 2586
1169.58 1074.9 2603
1175.8 1074.9 2603
1183.84 1076.55 2607
1191.9 1078.21 2611
1198.14 1078.21 2611
1204.39 1078.21 2611
1210.63 1078.21 2611
1216.88 1078.21 2611
1223.12 1078.21 2611
1229.36 1078.21 2611
1233.71 1076.55 2607
1239.95 1076.55 2607
1248.09 1078.21 2611
1254.34 1078.21 2611
1264.44 1081.51 2619
1280.9 1090.18 2640
1287.21 1090.18 2640
1293.52 1090.18 2640
1299.84 1090.18 2640
1301.7 1086.46 2631
1309.98 1088.12 2635
1316.28 1088.12 2635
1322.58 1088.12 2635
1328.88 1088.12 2635
1335.18 1088.12 2635
1341.48 1088.12 2635
1343.69 1084.81 2627
1349.97 1084.81 2627
1350.06 1079.86 2615
1356.31 1079.86 2615
1360.48 1078.21 2611
1366.72 1078.21 2611
1372.97 1078.21 2611
1383.44 1081.51 2619
1389.7 1081.51 2619
1400.23 1084.81 2627
1406.51 1084.81 2627
1414.94 1086.46 2631
1423.39 1088.12 2635
1429.7 1088.12 2635
1440.9 1091.83 2644
1458.72 1100.51 2665
1469.49 1103.81 2673
1475.88 1103.81 2673
1485.05 1105.87 2678
1491.45 1105.87 2678
1497.85 1105.87 2678
1504.26 1105.87 2678
1512.92 1107.53 2682
1526.7 1112.89 2695
1533.14 1112.89 2695
1539.59 1112.89 2695
1546.03 1112.89 2695
1552.47 1112.89 2695
1558.92 1112.89 2695
1565.36 1112.89 2695
1564.23 1107.53 2682
1570.64 1107.53 2682
1577.05 1107.53 2682
1575.79 1102.16 2669
1567.35 1091.83 2644
1573.68 1091.83 2644
1569.84 1084.81 2627
1576.12 1084.81 2627
1570.36 1076.55 2607
1576.59 1076.55 2607
1582.83 1076.55 2607
1589.06 1076.55 2607
1595.29 1076.55 2607
1579.41 1061.69 2571
1589.88 1064.58 2578
1644.33 1096.79 2656
1650.68 1096.79 2656
1657.03 1096.79 2656
1663.39 1096.79 2656
1669.74 1096.79 2656
1676.09 1096.79 2656
1664.07 1084.81 2627
1691.97 1098.85 2661
1742.37 1127.35 2730
1752.1 1129.41 2735
1758.64 1129.41 2735
1765.18 1129.41 2735
1777.55 1133.13 2744
1784.12 1133.13 2744
1790.68 1133.13 2744
1793.96 1131.06 2739
1800.51 1131.06 2739
1807.06 1131.06 2739
1810.96 1129.41 2735
1796.9 1116.61 2704
1806.04 1118.26 2708
1812.51 1118.26 2708
1818.99 1118.26 2708
1796.48 1100.51 2665
1800.15 1098.85 2661
1780.71 1083.16 2623
1786.98 1083.16 2623
1785.05 1078.21 2611
1785.81 1074.9 2603
1797.54 1078.21 2611
1803.78 1078.21 2611
1810.03 1078.21 2611
1816.27 1078.21 2611
1822.51 1078.21 2611
1828.76 1078.21 2611
1832.19 1076.55 2607
1838.42 1076.55 2607
1844.66 1076.55 2607
1850.89 1076.55 2607
1857.13 1076.55 2607
1857.64 1073.25 2599
1872.46 1078.21 2611
1878.71 1078.21 2611
1884.95 1078.21 2611
1891.19 1078.21 2611
1897.44 1078.21 2611
1876.71 1062.93 2574
1882.86 1062.93 2574
1648.31 912.614 2210
1653.59 912.614 2210
1722.68 947.715 2295
1749.25 959.277 2323
1762.36 963.407 2333
1767.94 963.407 2333
1791 972.904 2356
1796.64 972.904 2356
1802.27 972.904 2356
-1575.09 1035.87 2494
-1569.12 1035.87 2494
-1563.16 1035.87 2494
-1557.2 1035.87 2494
-1510.59 1032.54 2486
-1504.64 1032.54 2486
-1498.7 1032.54 2486
-1506.56 1042.1 2509
-1500.56 1042.1 2509
-1494.56 1042.1 2509
-1490.1 1051.65 2532
-1484.05 1051.65 2532
-1519.44 1081.14 2603
-1513.21 1081.14 2603
-1516.25 1087.78 2619
-1509.99 1087.78 2619
-1503.72 1087.78 2619
-1511.75 1098.17 2644
-1505.43 1098.17 2644
-1499.11 1098.17 2644
-1487.71 1094.43 2635
-1467.91 1084.46 2611
-1461.67 1084.46 2611
-1439.26 1072.42 2582
-1413.66 1057.88 2547
-1392.65 1046.66 2520
-1386.62 1046.66 2520
-1376.21 1043.34 2512
-1368.57 1042.1 2509
-1362.57 1042.1 2509
-1356.57 1042.1 2509
-1262.83 974.395 2346
-1257.22 974.395 2346
-1253.74 976.056 2350
-1248.12 976.056 2350
-1242.5 976.056 2350
-1234.78 974.395 2346
-1229.17 974.395 2346
-1220.43 971.903 2340
-1214.83 971.903 2340
-1200.45 964.842 2323
-1193.35 963.596 2320
-1247.51 1031.3 2483
-1254.57 1042.1 2509
-1248.57 1042.1 2509
-1263.37 1059.54 2551
-1267.13 1067.85 2571
-1270.3 1075.74 2590
-1264.11 1075.74 2590
-1264.23 1081.14 2603
-1258 1081.14 2603
-1251.78 1081.14 2603
-1245.55 1081.14 2603
-1235.04 1077.4 2594
-1228.84 1077.4 2594
-1222.64 1077.4 2594
-1212.68 1074.08 2586
-1200.9 1069.09 2574
-1182.21 1057.88 2547
-1176.12 1057.88 2547
-1168.2 1056.22 2543
-1160.29 1054.56 2539
-1154.21 1054.56 2539
-1148.14 1054.56 2539
-1142.07 1054.56 2539
-1132.87 1051.65 2532
-1131.71 1056.22 2543
-1127.4 1057.88 2547
-1121.31 1057.88 2547
-1115.22 1057.88 2547
-1107.38 1056.22 2543
-1101.3 1056.22 2543
-1093.5 1054.56 2539
-1084.43 1051.65 2532
-1076.67 1049.99 2528
-1070.63 1049.99 2528
-1064.58 1049.99 2528
-1053.51 1045 2516
-1039.58 1037.11 2497
-1035.27 1038.77 2501
-1029.29 1038.77 2501
-1027.81 1043.34 2512
-1021.8 1043.34 2512
-1015.79 1043.34 2512
-973.903 1049.99 2528
-970.538 1052.89 2535
-964.476 1052.89 2535
-958.414 1052.89 2535
-955.357 1056.22 2543
-953.756 1061.2 2555
-947.646 1061.2 2555
-944.484 1064.52 2563
-941.284 1067.85 2571
-937.682 1070.75 2578
-931.518 1070.75 2578
-929.66 1075.74 2590
-923.467 1075.74 2590
-917.273 1075.74 2590
-909.673 1074.08 2586
-903.489 1074.08 2586
-892.1 1067.85 2571
-886.986 1069.09 2574
-880.831 1069.09 2574
-876.035 1070.75 2578
-869.87 1070.75 2578
-863.705 1070.75 2578
-856.21 1069.09 2574
-849.064 1067.85 2571
-840.293 1064.52 2563
-834.164 1064.52 2563
-826.743 1062.86 2559
-815.492 1056.22 2543
-809.411 1056.22 2543
-805.857 1059.54 2551
-799.757 1059.54 2551
-797.39 1064.52 2563
-792.496 1066.19 2567
-787.583 1067.85 2571
-781.435 1067.85 2571
-775.287 1067.85 2571
-769.139 1067.85 2571
-762.991 1067.85 2571
-756.843 1067.85 2571
-749.527 1066.19 2567
-743.389 1066.19 2567
-737.25 1066.19 2567
-731.112 1066.19 2567
-723.844 1064.52 2563
-717.715 1064.52 2563
-711.586 1064.52 2563
-705.457 1064.52 2563
-699.328 1064.52 2563
-693.199 1064.52 2563
