ply
format ascii 1.0
comment File generated
element vertex 2250
property float x
property float y
property float z
end_header
1263.89 1090.78 2567
1270.03 1090.78 2567
1279.65 1093.76 2574
1285.8 1093.76 2574
1291.96 1093.76 2574
1298.12 1093.76 2574
1304.27 1093.76 2574
1310.43 1093.76 2574
1313 1090.78 2567
1317.08 1089.08 2563
1319.08 1085.68 2555
1325.19 1085.68 2555
1325.05 1080.58 2543
1331.13 1080.58 2543
1339.31 1082.28 2547
1349.63 1085.68 2555
1355.74 1085.68 2555
1361.85 1085.68 2555
1367.96 1085.68 2555
1374.07 1085.68 2555
1380.18 1085.68 2555
1386.29 1085.68 2555
1392.4 1085.68 2555
1402.89 1089.08 2563
1413.42 1092.48 2571
1419.56 1092.48 2571
1427.37 1093.76 2574
1437.99 1097.16 2582
1444.16 1097.16 2582
1450.33 1097.16 2582
1463.28 1102.26 2594
1469.48 1102.26 2594
1475.68 1102.26 2594
1481.89 1102.26 2594
1488.09 1102.26 2594
1515.61 1117.98 2631
1527.1 1121.8 2640
1533.42 1121.8 2640
1544.4 1125.2 2648
1550.73 1125.2 2648
1559.41 1126.9 2652
1565.75 1126.9 2652
1572.1 1126.9 2652
1583.79 1130.73 2661
1590.16 1130.73 2661
1596.52 1130.73 2661
1602.88 1130.73 2661
1601.39 1125.2 2648
1628.36 1139.65 2682
1648.18 1149 2704
1654.65 1149 2704
1661.12 1149 2704
1667.58 1149 2704
1674.05 1149 2704
1664.36 1137.95 2678
1670.76 1137.95 2678
1685.31 1143.47 2691
1691.74 1143.47 2691
1703.22 1146.87 2699
1709.68 1146.87 2699
1716.13 1146.87 2699
1714.29 1141.35 2686
1720.71 1141.35 2686
1724.56 1139.65 2682
1728.4 1137.95 2678
1726.38 1132.43 2665
1732.75 1132.43 2665
1736.51 1130.73 2661
1756.63 1139.65 2682
1763.04 1139.65 2682
1769.46 1139.65 2682
1775.87 1139.65 2682
1779.63 1137.95 2678
1777.36 1132.43 2665
1783.73 1132.43 2665
1776 1123.5 2644
1773.56 1117.98 2631
1774.44 1114.58 2623
1778 1112.88 2619
1784.26 1112.88 2619
1779.58 1106.08 2603
1779.63 1102.26 2594
1789.28 1104.38 2599
1820.36 1119.68 2635
1826.66 1119.68 2635
1832.97 1119.68 2635
1839.27 1119.68 2635
1845.57 1119.68 2635
1849.06 1117.98 2631
1846.89 1112.88 2619
1850.32 1111.18 2615
1856.57 1111.18 2615
1865.68 1112.88 2619
1871.94 1112.88 2619
1878.2 1112.88 2619
1878.71 1109.48 2611
1884.95 1109.48 2611
1891.19 1109.48 2611
1897.44 1109.48 2611
1897.85 1106.08 2603
1904.07 1106.08 2603
1907.36 1104.38 2599
1913.58 1104.38 2599
-1754.57 1024.29 2397
-1748.84 1024.29 2397
-1763.47 1036.25 2425
-1775.79 1046.94 2450
-1785.1 1055.91 2471
-1779.19 1055.91 2471
-1773.28 1055.91 2471
-1767.37 1055.91 2471
-1772.16 1062.32 2486
-1766.21 1062.32 2486
-1763.1 1064.03 2490
-1757.15 1064.03 2490
-1756.11 1067.02 2497
-1750.14 1067.02 2497
-1760.24 1076.85 2520
-1757 1078.56 2524
-1750.96 1078.56 2524
-1750.46 1081.98 2532
-1744.4 1081.98 2532
-1738.35 1081.98 2532
-1732.29 1081.98 2532
-1726.24 1081.98 2532
-1724.94 1084.97 2539
-1718.87 1084.97 2539
-1712.79 1084.97 2539
-1704.03 1083.26 2535
-1697.97 1083.26 2535
-1691.91 1083.26 2535
-1699.15 1091.8 2555
-1693.04 1091.8 2555
-1689.57 1093.51 2559
-1686.08 1095.22 2563
-1679.95 1095.22 2563
-1673.82 1095.22 2563
-1665.09 1093.51 2559
-1653.79 1090.09 2551
-1647.69 1090.09 2551
-1614.56 1072.15 2509
-1586.76 1057.62 2475
-1578.29 1055.91 2471
-1572.38 1055.91 2471
-1566.47 1055.91 2471
-1560.56 1055.91 2471
-1554.65 1055.91 2471
-1548.74 1055.91 2471
-1542.83 1055.91 2471
-1536.93 1055.91 2471
-1533.5 1057.62 2475
-1527.58 1057.62 2475
-1521.66 1057.62 2475
-1515.74 1057.62 2475
-1498.84 1049.93 2457
-1492.97 1049.93 2457
-1476.2 1042.23 2439
-1463.73 1037.53 2428
-1460.33 1039.24 2432
-1456.31 1040.53 2435
-1450.48 1040.53 2435
-1447.03 1042.23 2439
-1441.2 1042.23 2439
-1435.37 1042.23 2439
-1429.54 1042.23 2439
-1423.7 1042.23 2439
-1417.87 1042.23 2439
-1412.04 1042.23 2439
-1406.21 1042.23 2439
-1400.37 1042.23 2439
-1389.47 1051.64 2461
-1385.27 1052.92 2464
-1379.38 1052.92 2464
-1373.48 1052.92 2464
-1365.93 1051.64 2461
-1355.62 1048.22 2453
-1349.75 1048.22 2453
-1246.04 1075.14 2516
-1240.02 1075.14 2516
-1234.01 1075.14 2516
-1213.35 1062.32 2486
-1181.18 1039.24 2432
-1200.01 1061.04 2483
-1204.65 1070.44 2505
-1198.66 1070.44 2505
-1199.81 1076.85 2520
-1202.79 1084.97 2539
-1204.26 1091.8 2555
-1198.15 1091.8 2555
-1193.9 1093.51 2559
-1187.78 1093.51 2559
-1181.66 1093.51 2559
-1175.55 1093.51 2559
-1167.6 1091.8 2555
-1157.85 1088.39 2547
-1151.76 1088.39 2547
-1145.67 1088.39 2547
-1136 1084.97 2539
-1135.27 1090.09 2551
-1130.94 1091.8 2555
-1124.83 1091.8 2555
-1118.72 1091.8 2555
-1112.61 1091.8 2555
-1106.5 1091.8 2555
-1098.67 1090.09 2551
-1089.14 1086.68 2543
-1074.97 1078.56 2524
-1068.93 1078.56 2524
-1061.21 1076.85 2520
-1050.58 1072.15 2509
-1044.58 1072.15 2509
-1038.58 1072.15 2509
-1026.41 1065.74 2494
-1020.44 1065.74 2494
-1014.48 1065.74 2494
-1012.96 1070.44 2505
-1006.97 1070.44 2505
-1005.38 1075.14 2516
-1005.72 1081.98 2532
-1000.85 1083.26 2535
-994.786 1083.26 2535
-988.724 1083.26 2535
-988.864 1090.09 2551
-988.928 1096.93 2567
-982.789 1096.93 2567
-976.651 1096.93 2567
-967.488 1093.51 2559
-962.871 1095.22 2563
-959.728 1098.64 2571
-953.58 1098.64 2571
-947.432 1098.64 2571
-938.355 1095.22 2563
-932.227 1095.22 2563
-926.098 1095.22 2563
-915.661 1090.09 2551
-908.135 1088.39 2547
-902.044 1088.39 2547
-894.547 1086.68 2543
-888.466 1086.68 2543
-879.609 1083.26 2535
-873.547 1083.26 2535
-866.458 1081.98 2532
-859.044 1080.27 2528
-851.649 1078.56 2524
-845.613 1078.56 2524
-838.247 1076.85 2520
-828.588 1072.15 2509
-821.277 1070.44 2505
-815.287 1070.44 2505
-809.297 1070.44 2505
-800.741 1067.02 2497
-794.77 1067.02 2497
-790.063 1068.73 2501
-784.082 1068.73 2501
-778.101 1068.73 2501
-773.356 1070.44 2505
-767.365 1070.44 2505
-761.375 1070.44 2505
-755.385 1070.44 2505
-750.591 1072.15 2509
-747.856 1076.85 2520
-741.83 1076.85 2520
-736.972 1078.56 2524
-732.094 1080.27 2528
-727.198 1081.98 2532
-721.143 1081.98 2532
-715.089 1081.98 2532
-707.914 1080.27 2528
-702.979 1081.98 2532
-698.851 1084.97 2539
-692.779 1084.97 2539
-686.708 1084.97 2539
-680.636 1084.97 2539
-674.565 1084.97 2539
-665.597 1080.27 2528
-658.508 1078.56 2524
-652.473 1078.56 2524
-646.437 1078.56 2524
-640.401 1078.56 2524
-635.371 1080.27 2528
-630.322 1081.98 2532
-625.006 1083.26 2535
-618.945 1083.26 2535
-612.883 1083.26 2535
-606.821 1083.26 2535
-600.759 1083.26 2535
-594.697 1083.26 2535
-588.635 1083.26 2535
-581.883 1081.98 2532
-575.829 1081.98 2532
-568.874 1080.27 2528
-562.828 1080.27 2528
-557.664 1081.98 2532
-551.609 1081.98 2532
-545.555 1081.98 2532
-538.648 1080.27 2528
-532.602 1080.27 2528
-526.557 1080.27 2528
-519.688 1078.56 2524
-512.839 1076.85 2520
-504.6 1072.15 2509
-498.601 1072.15 2509
-491.03 1068.73 2501
-483.692 1065.74 2494
-477.728 1065.74 2494
-470.251 1062.32 2486
-464.306 1062.32 2486
-457.071 1059.33 2479
-452.416 1062.32 2486
-447.19 1064.03 2490
-441.945 1065.74 2494
-435.981 1065.74 2494
-430.534 1067.02 2497
-424.563 1067.02 2497
-418.592 1067.02 2497
-412.125 1065.74 2494
-406.161 1065.74 2494
-400.197 1065.74 2494
-395.34 1068.73 2501
-389.359 1068.73 2501
-383.378 1068.73 2501
-378.001 1070.44 2505
-373.051 1073.43 2512
-367.044 1073.43 2512
-361.037 1073.43 2512
-355.03 1073.43 2512
-349.023 1073.43 2512
-343.016 1073.43 2512
-337.009 1073.43 2512
-331.002 1073.43 2512
-324.995 1073.43 2512
-318.099 1070.44 2505
-310.738 1065.74 2494
-304.775 1065.74 2494
-298.811 1065.74 2494
-293.669 1068.73 2501
-287.688 1068.73 2501
-281.707 1068.73 2501
-275.727 1068.73 2501
-269.746 1068.73 2501
-263.765 1068.73 2501
-258.609 1072.15 2509
-252.912 1073.43 2512
-246.905 1073.43 2512
-240.898 1073.43 2512
-235.265 1075.14 2516
-229.977 1078.56 2524
-224.296 1080.27 2528
-218.251 1080.27 2528
-212.794 1083.26 2535
-208.689 1093.51 2559
-202.57 1093.51 2559
-196.45 1093.51 2559
-190.628 1095.22 2563
-185.867 1103.34 2582
-179.971 1105.05 2586
-173.787 1105.05 2586
-167.603 1105.05 2586
-115.31 976.428 2285
-109.846 976.428 2285
-104.382 976.428 2285
-98.5283 972.582 2276
-93.0857 972.582 2276
-87.7586 973.864 2279
-82.3088 973.864 2279
-76.8591 973.864 2279
-71.4093 973.864 2279
-65.9595 973.864 2279
-60.4301 972.582 2276
-54.6975 967.454 2264
-49.1313 964.463 2257
-43.7341 964.463 2257
-38.3369 964.463 2257
-32.8084 960.617 2248
-27.4327 960.617 2248
-22.0571 960.617 2248
-16.6814 960.617 2248
-11.2756 958.053 2242
-5.88266 952.925 2230
-0.549315 951.643 2227
4.77612 951.643 2227
10.0879 950.361 2224
15.4062 950.361 2224
20.7245 950.361 2224
26.0427 950.361 2224
31.361 950.361 2224
36.6792 950.361 2224
41.8275 946.515 2215
47.1243 946.515 2215
52.3027 944.379 2210
57.5875 944.379 2210
63.0998 947.797 2218
68.4037 947.797 2218
74.0067 951.643 2227
79.3322 951.643 2227
84.7716 952.925 2230
90.1042 952.925 2230
95.6936 955.489 2236
101.041 955.489 2236
106.53 956.771 2239
112.184 959.335 2245
117.553 959.335 2245
122.921 959.335 2245
128.804 963.181 2254
134.373 964.463 2257
140.389 968.736 2267
145.81 968.736 2267
151.832 972.582 2276
157.896 976.428 2285
163.861 979.419 2292
169.342 979.419 2292
175.28 981.983 2298
181.247 984.547 2304
187.324 987.538 2311
192.851 987.538 2311
198.634 988.82 2314
205.844 996.939 2333
212.057 999.93 2340
217.653 999.93 2340
226.397 1014.03 2373
234.419 1024.29 2397
240.451 1025.57 2400
246.19 1025.57 2400
253.084 1030.27 2411
261.104 1039.24 2432
267.688 1042.23 2439
273.521 1042.23 2439
280.957 1048.22 2453
288.109 1052.92 2464
295.791 1059.33 2479
301.719 1059.33 2479
308.143 1061.04 2483
316.863 1070.44 2505
324.271 1075.14 2516
330.288 1075.14 2516
337.374 1078.56 2524
344.906 1083.26 2535
351.522 1084.97 2539
357.593 1084.97 2539
363.665 1084.97 2539
369.736 1084.97 2539
375.808 1084.97 2539
381.879 1084.97 2539
389.173 1088.39 2547
395.264 1088.39 2547
401.355 1088.39 2547
407.445 1088.39 2547
412.237 1084.97 2539
418.968 1086.68 2543
427.054 1091.8 2555
434.52 1095.22 2563
440.649 1095.22 2563
446.778 1095.22 2563
452.907 1095.22 2563
459.036 1095.22 2563
465.165 1095.22 2563
468.352 1088.39 2547
471.648 1081.98 2532
477.703 1081.98 2532
482.229 1078.56 2524
485.363 1072.15 2509
490.58 1070.44 2505
496.57 1070.44 2505
498.748 1062.32 2486
504.693 1062.32 2486
512.281 1065.74 2494
518.245 1065.74 2494
524.209 1065.74 2494
529.323 1064.03 2490
535.277 1064.03 2490
541.231 1064.03 2490
547.186 1064.03 2490
553.14 1064.03 2490
557.522 1061.04 2483
561.645 1057.62 2475
567.563 1057.62 2475
573.482 1057.62 2475
581.975 1062.32 2486
589.812 1065.74 2494
597.448 1068.73 2501
603.429 1068.73 2501
611.359 1072.15 2509
617.358 1072.15 2509
626.091 1076.85 2520
632.117 1076.85 2520
639.156 1078.56 2524
648.004 1083.26 2535
654.066 1083.26 2535
660.128 1083.26 2535
669.343 1088.39 2547
680.738 1096.93 2567
686.876 1096.93 2567
693.015 1096.93 2567
700.242 1098.64 2571
706.39 1098.64 2571
712.539 1098.64 2571
719.525 1099.92 2574
725.68 1099.92 2574
731.836 1099.92 2574
740.284 1103.34 2582
748.772 1106.76 2590
754.965 1106.76 2590
763.804 1110.61 2599
770.018 1110.61 2599
776.234 1110.61 2599
782.448 1110.61 2599
785.932 1106.76 2590
790.903 1105.05 2586
797.086 1105.05 2586
803.27 1105.05 2586
809.454 1105.05 2586
813.115 1101.63 2578
819.28 1101.63 2578
824.164 1099.92 2574
828.061 1096.93 2567
834.199 1096.93 2567
841.647 1098.64 2571
847.795 1098.64 2571
853.943 1098.64 2571
860.091 1098.64 2571
866.24 1098.64 2571
872.388 1098.64 2571
877.169 1096.93 2567
880.554 1093.51 2559
882.516 1088.39 2547
890.002 1090.09 2551
896.102 1090.09 2551
905.032 1093.51 2559
911.151 1093.51 2559
917.271 1093.51 2559
921.946 1091.8 2555
922.245 1084.97 2539
928.316 1084.97 2539
934.388 1084.97 2539
940.459 1084.97 2539
946.531 1084.97 2539
952.602 1084.97 2539
958.674 1084.97 2539
963.225 1083.26 2535
968.14 1081.98 2532
968.039 1075.14 2516
969.797 1070.44 2505
975.787 1070.44 2505
978.642 1067.02 2497
987.767 1070.44 2505
998.121 1075.14 2516
1005.73 1076.85 2520
1011.76 1076.85 2520
1017.79 1076.85 2520
1028.69 1081.98 2532
1037.6 1084.97 2539
1043.67 1084.97 2539
1053.05 1088.39 2547
1060.81 1090.09 2551
1068.58 1091.8 2555
1074.69 1091.8 2555
1084.18 1095.22 2563
1092.02 1096.93 2567
1098.15 1096.93 2567
1104.29 1096.93 2567
1110.43 1096.93 2567
1116.57 1096.93 2567
1122.71 1096.93 2567
1128.85 1096.93 2567
1133.22 1095.22 2563
1139.35 1095.22 2563
1145.47 1095.22 2563
1151.6 1095.22 2563
1152.31 1090.09 2551
1163.86 1095.22 2563
1169.99 1095.22 2563
1176.12 1095.22 2563
1182.25 1095.22 2563
1182.81 1090.09 2551
1190.78 1091.8 2555
1196.89 1091.8 2555
1203 1091.8 2555
1209.11 1091.8 2555
1211.41 1088.39 2547
1217.5 1088.39 2547
1227.44 1091.8 2555
1233.55 1091.8 2555
1239.66 1091.8 2555
1245.76 1091.8 2555
1255.79 1095.22 2563
1261.92 1095.22 2563
1270.03 1096.93 2567
1279.65 1099.92 2574
1285.8 1099.92 2574
1291.96 1099.92 2574
1298.12 1099.92 2574
1300.72 1096.93 2567
1306.86 1096.93 2567
1308.91 1093.51 2559
1312.97 1091.8 2555
1314.95 1088.39 2547
1321.04 1088.39 2547
1325.05 1086.68 2543
1331.13 1086.68 2543
1339.31 1088.39 2547
1345.41 1088.39 2547
1351.5 1088.39 2547
1357.59 1088.39 2547
1363.68 1088.39 2547
1367.62 1086.68 2543
1373.7 1086.68 2543
1379.78 1086.68 2543
1383.68 1084.97 2539
1389.75 1084.97 2539
1395.82 1084.97 2539
1398.03 1081.98 2532
1410.18 1086.68 2543
1420.72 1090.09 2551
1433.53 1095.22 2563
1439.66 1095.22 2563
1450.3 1098.64 2571
1462.68 1103.34 2582
1468.86 1103.34 2582
1475.03 1103.34 2582
1481.21 1103.34 2582
1485.08 1101.63 2578
1527.1 1128.13 2640
1533.42 1128.13 2640
1544.4 1131.54 2648
1550.73 1131.54 2648
1559.41 1133.25 2652
1565.75 1133.25 2652
1572.1 1133.25 2652
1583.79 1137.1 2661
1590.16 1137.1 2661
1596.52 1137.1 2661
1602.88 1137.1 2661
1601.39 1131.54 2648
1628.36 1146.07 2682
1648.18 1155.47 2704
1654.65 1155.47 2704
1661.12 1155.47 2704
1667.58 1155.47 2704
1674.05 1155.47 2704
1664.36 1144.36 2678
1670.76 1144.36 2678
1685.31 1149.92 2691
1691.74 1149.92 2691
1703.22 1153.34 2699
1709.68 1153.34 2699
1716.13 1153.34 2699
1714.29 1147.78 2686
1720.71 1147.78 2686
1724.56 1146.07 2682
1728.4 1144.36 2678
1726.38 1138.81 2665
1732.75 1138.81 2665
1730.64 1133.25 2652
1748.12 1140.52 2669
1763.04 1146.07 2682
1769.46 1146.07 2682
1775.87 1146.07 2682
1770.99 1138.81 2665
1760.69 1128.13 2640
1767 1128.13 2640
1756.52 1117.44 2615
1754.68 1112.32 2603
1760.91 1112.32 2603
1767.13 1112.32 2603
1773.36 1112.32 2603
1776.85 1110.61 2599
1776.89 1106.76 2590
1789.28 1110.61 2599
1820.36 1125.99 2635
1826.66 1125.99 2635
1832.97 1125.99 2635
1839.27 1125.99 2635
1845.57 1125.99 2635
1849.06 1124.28 2631
1846.89 1119.15 2619
1850.32 1117.44 2615
1856.57 1117.44 2615
1865.68 1119.15 2619
1871.94 1119.15 2619
1878.2 1119.15 2619
1878.71 1115.73 2611
1884.95 1115.73 2611
1891.19 1115.73 2611
1897.44 1115.73 2611
1897.85 1112.32 2603
1904.07 1112.32 2603
1907.36 1110.61 2599
1884.13 1093.51 2559
-1751.64 1028.31 2393
-1745.92 1028.31 2393
-1763.47 1042.06 2425
-1757.67 1042.06 2425
-1751.87 1042.06 2425
-1772.16 1068.27 2486
-1782.55 1078.16 2509
-1776.55 1078.16 2509
-1770.55 1078.16 2509
-1758.93 1074.72 2501
-1752.95 1074.72 2501
-1763.03 1084.6 2524
-1757 1084.6 2524
-1750.96 1084.6 2524
-1750.46 1088.04 2532
-1744.4 1088.04 2532
-1738.35 1088.04 2532
-1732.29 1088.04 2532
-1726.24 1088.04 2532
-1724.94 1091.05 2539
-1718.87 1091.05 2539
-1720.89 1096.21 2551
-1714.79 1096.21 2551
-1708.69 1096.21 2551
-1694.58 1091.05 2539
-1699.15 1097.92 2555
-1693.04 1097.92 2555
-1694.85 1103.08 2567
-1688.71 1103.08 2567
-1682.58 1103.08 2567
-1676.44 1103.08 2567
-1667.7 1101.36 2563
-1653.79 1096.21 2551
-1647.69 1096.21 2551
-1614.56 1078.16 2509
-1586.76 1063.55 2475
-1578.29 1061.83 2471
-1572.38 1061.83 2471
-1566.47 1061.83 2471
-1560.56 1061.83 2471
-1554.65 1061.83 2471
-1548.74 1061.83 2471
-1542.83 1061.83 2471
-1536.93 1061.83 2471
-1533.5 1063.55 2475
-1527.58 1063.55 2475
-1521.66 1063.55 2475
-1515.74 1063.55 2475
-1498.84 1055.81 2457
-1492.97 1055.81 2457
-1476.2 1048.08 2439
-1463.73 1043.35 2428
-1460.33 1045.07 2432
-1456.31 1046.36 2435
-1450.48 1046.36 2435
-1447.03 1048.08 2439
-1441.2 1048.08 2439
-1435.37 1048.08 2439
-1429.54 1048.08 2439
-1423.7 1048.08 2439
-1417.87 1048.08 2439
-1412.04 1048.08 2439
-1406.21 1048.08 2439
-1400.37 1048.08 2439
-1389.47 1057.53 2461
-1385.27 1058.82 2464
-1379.38 1058.82 2464
-1373.48 1058.82 2464
-1365.93 1057.53 2461
-1355.62 1054.09 2453
-1349.75 1054.09 2453
-1246.04 1081.17 2516
-1240.02 1081.17 2516
-1234.01 1081.17 2516
-1213.35 1068.27 2486
-1181.18 1045.07 2432
-1200.01 1066.99 2483
-1204.65 1076.44 2505
-1198.66 1076.44 2505
-1199.81 1082.88 2520
-1202.79 1091.05 2539
-1204.26 1097.92 2555
-1198.15 1097.92 2555
-1193.9 1099.64 2559
-1187.78 1099.64 2559
-1181.66 1099.64 2559
-1175.55 1099.64 2559
-1167.6 1097.92 2555
-1157.85 1094.49 2547
-1151.76 1094.49 2547
-1145.67 1094.49 2547
-1136 1091.05 2539
-1135.27 1096.21 2551
-1130.94 1097.92 2555
-1124.83 1097.92 2555
-1118.72 1097.92 2555
-1112.61 1097.92 2555
-1106.5 1097.92 2555
-1098.67 1096.21 2551
-1089.14 1092.77 2543
-1074.97 1084.6 2524
-1068.93 1084.6 2524
-1061.21 1082.88 2520
-1050.58 1078.16 2509
-1044.58 1078.16 2509
-1038.58 1078.16 2509
-1026.41 1071.71 2494
-996.303 1046.36 2435
-992.108 1048.08 2439
-987.893 1049.8 2443
-989.286 1057.53 2461
-983.401 1057.53 2461
-983.077 1063.55 2475
-980.317 1066.99 2483
-975.557 1068.27 2486
-969.612 1068.27 2486
-972.583 1078.16 2509
-966.583 1078.16 2509
-964.795 1082.88 2520
-958.769 1082.88 2520
-952.743 1082.88 2520
-952.352 1089.33 2535
-946.29 1089.33 2535
-940.228 1089.33 2535
-937.114 1092.77 2543
-932.498 1094.49 2547
-926.407 1094.49 2547
-920.316 1094.49 2547
-912.79 1092.77 2543
-905.283 1091.05 2539
-899.211 1091.05 2539
-890.677 1088.04 2532
-883.225 1086.32 2528
-874.404 1082.88 2520
-868.378 1082.88 2520
-860.983 1081.17 2516
-854.966 1081.17 2516
-848.95 1081.17 2516
-842.933 1081.17 2516
-834.588 1078.16 2509
-824.625 1073 2497
-816.359 1069.99 2490
-810.405 1069.99 2490
-804.451 1069.99 2490
-797.214 1068.27 2486
-791.269 1068.27 2486
-785.324 1068.27 2486
-777.185 1065.27 2479
-771.257 1065.27 2479
-765.329 1065.27 2479
-759.401 1065.27 2479
-753.473 1065.27 2479
-747.545 1065.27 2479
-744.907 1069.99 2490
-741.03 1073 2497
-736.237 1074.72 2501
-730.256 1074.72 2501
-724.275 1074.72 2501
-718.295 1074.72 2501
-712.314 1074.72 2501
-706.333 1074.72 2501
-700.353 1074.72 2501
-695.483 1076.44 2505
-690.594 1078.16 2509
-684.594 1078.16 2509
-678.594 1078.16 2509
-672.594 1078.16 2509
-666.594 1078.16 2509
-658.488 1074.72 2501
-651.464 1073 2497
-645.493 1073 2497
-639.522 1073 2497
-632.79 1071.71 2494
-628.585 1074.72 2501
-625.343 1079.45 2512
-621.308 1082.88 2520
-615.282 1082.88 2520
-609.256 1082.88 2520
-603.23 1082.88 2520
-597.204 1082.88 2520
-591.178 1082.88 2520
-585.152 1082.88 2520
-579.126 1082.88 2520
-573.1 1082.88 2520
-566.173 1081.17 2516
-560.157 1081.17 2516
-555.021 1082.88 2520
-548.995 1082.88 2520
-542.969 1082.88 2520
-536.943 1082.88 2520
-530.917 1082.88 2520
-524.891 1082.88 2520
-518.041 1081.17 2516
-510.6 1078.16 2509
-502.991 1074.72 2501
-497.011 1074.72 2501
-489.656 1071.71 2494
-482.14 1068.27 2486
-476.196 1068.27 2486
-468.927 1065.27 2479
-462.999 1065.27 2479
-455.596 1061.83 2471
-449.687 1061.83 2471
-443.778 1061.83 2471
-439.286 1065.27 2479
-433.358 1065.27 2479
-428.12 1066.99 2483
-422.182 1066.99 2483
-416.245 1066.99 2483
-410.307 1066.99 2483
-404.37 1066.99 2483
-398.432 1066.99 2483
-394.233 1071.71 2494
-388.269 1071.71 2494
-382.305 1071.71 2494
-376.794 1073 2497
-371.417 1074.72 2501
-365.436 1074.72 2501
-359.456 1074.72 2501
-353.475 1074.72 2501
-347.495 1074.72 2501
-341.514 1074.72 2501
-335.533 1074.72 2501
-329.553 1074.72 2501
-323.572 1074.72 2501
-316.702 1071.71 2494
-310.24 1069.99 2490
-304.286 1069.99 2490
-298.331 1069.99 2490
-292.377 1069.99 2490
-286.423 1069.99 2490
-280.468 1069.99 2490
-273.742 1066.99 2483
-267.805 1066.99 2483
-261.867 1066.99 2483
-256.651 1069.99 2490
-251.401 1073 2497
-245.43 1073 2497
-239.459 1073 2497
-233.488 1073 2497
-228.884 1079.45 2512
-223.587 1082.88 2520
-217.561 1082.88 2520
-211.535 1082.88 2520
-206.487 1088.04 2532
-200.67 1089.33 2535
-194.608 1089.33 2535
-190.033 1097.92 2555
-183.924 1097.92 2555
-177.814 1097.92 2555
-171.704 1097.92 2555
-115.31 981.901 2285
-109.846 981.901 2285
-104.382 981.901 2285
-98.5283 978.034 2276
-93.0857 978.034 2276
-87.6431 978.034 2276
-82.0921 976.745 2273
-76.7579 978.034 2276
-71.3153 978.034 2276
-65.8727 978.034 2276
-60.1911 974.166 2267
-54.6975 972.877 2264
-49.1313 969.869 2257
-43.5597 966.002 2248
-38.184 966.002 2248
-32.8084 966.002 2248
-27.4327 966.002 2248
-22.0277 964.713 2245
-16.6592 964.713 2245
-11.2756 963.424 2242
-5.88266 958.267 2230
-0.548575 955.689 2224
4.76968 955.689 2224
10.0743 954.399 2221
15.4062 955.689 2224
20.7245 955.689 2224
26.0427 955.689 2224
31.361 955.689 2224
36.6792 955.689 2224
41.7898 950.962 2213
47.0817 950.962 2213
52.3027 949.673 2210
57.5875 949.673 2210
62.9576 950.962 2213
68.4037 953.11 2218
73.8073 954.399 2221
79.1184 954.399 2221
84.6576 956.978 2227
89.983 956.978 2227
95.4369 958.267 2230
100.769 958.267 2230
106.388 960.845 2236
111.884 962.134 2239
117.239 962.134 2239
122.593 962.134 2239
128.29 964.713 2245
134.015 967.291 2251
139.77 969.869 2257
145.167 969.869 2257
151.631 976.745 2273
157.481 979.323 2279
163.36 981.901 2285
168.824 981.901 2285
174.822 984.909 2292
180.303 984.909 2292
186.757 990.066 2304
192.266 990.066 2304
198.377 993.074 2311
204.962 998.231 2323
211.423 1002.53 2333
217.002 1002.53 2333
223.821 1008.11 2346
229.431 1008.11 2346
236.744 1015.42 2363
242.395 1015.42 2363
250.565 1025.73 2387
258.098 1033.04 2404
264.615 1036.05 2411
270.381 1036.05 2411
278.895 1046.36 2435
284.718 1046.36 2435
290.541 1046.36 2435
296.363 1046.36 2435
302.186 1046.36 2435
310.792 1055.81 2457
318.085 1060.54 2468
323.987 1060.54 2468
332.294 1068.27 2486
340.824 1076.44 2505
347.368 1078.16 2509
353.368 1078.16 2509
359.368 1078.16 2509
366.387 1081.17 2516
372.996 1082.88 2520
379.022 1082.88 2520
385.659 1084.6 2524
391.695 1084.6 2524
397.73 1084.6 2524
403.766 1084.6 2524
409.152 1082.88 2520
415.178 1082.88 2520
422.541 1086.32 2528
429.265 1088.04 2532
435.32 1088.04 2532
441.374 1088.04 2532
447.429 1088.04 2532
453.484 1088.04 2532
459.539 1088.04 2532
465.593 1088.04 2532
470.158 1084.6 2524
476.194 1084.6 2524
479.937 1079.45 2512
483.816 1074.72 2501
487.642 1069.99 2490
493.596 1069.99 2490
498.146 1066.99 2483
503.272 1065.27 2479
510.022 1066.99 2483
515.959 1066.99 2483
521.897 1066.99 2483
527.834 1066.99 2483
532.912 1065.27 2479
538.84 1065.27 2479
544.768 1065.27 2479
550.696 1065.27 2479
554.828 1061.83 2471
560.737 1061.83 2471
567.563 1063.55 2475
573.482 1063.55 2475
579.4 1063.55 2475
587.211 1066.99 2483
594.82 1069.99 2490
600.775 1069.99 2490
609.409 1074.72 2501
617.358 1078.16 2509
625.097 1081.17 2516
631.114 1081.17 2516
638.143 1082.88 2520
645.192 1084.6 2524
652.26 1086.32 2528
658.305 1086.32 2528
666.19 1089.33 2535
673.312 1091.05 2539
680.454 1092.77 2543
686.535 1092.77 2543
692.616 1092.77 2543
698.697 1092.77 2543
705.887 1094.49 2547
713.096 1096.21 2551
719.196 1096.21 2551
726.434 1097.92 2555
737.991 1106.09 2574
747.615 1111.25 2586
753.799 1111.25 2586
759.983 1111.25 2586
766.167 1111.25 2586
772.351 1111.25 2586
778.535 1111.25 2586
783.505 1109.53 2582
786.315 1104.8 2571
792.463 1104.8 2571
798.611 1104.8 2571
803.507 1103.08 2567
809.646 1103.08 2567
815.784 1103.08 2567
819.361 1099.64 2559
822.9 1096.21 2551
829 1096.21 2551
836.41 1097.92 2555
842.519 1097.92 2555
848.629 1097.92 2555
854.739 1097.92 2555
860.849 1097.92 2555
866.958 1097.92 2555
871.701 1096.21 2551
873.672 1091.05 2539
875.932 1086.32 2528
885.815 1091.05 2539
891.887 1091.05 2539
897.958 1091.05 2539
904.03 1091.05 2539
910.102 1091.05 2539
913.647 1088.04 2532
919.702 1088.04 2532
924.294 1086.32 2528
930.339 1086.32 2528
936.385 1086.32 2528
942.43 1086.32 2528
948.475 1086.32 2528
954.52 1086.32 2528
960.565 1086.32 2528
962.022 1081.17 2516
966.5 1079.45 2512
965.538 1071.71 2494
971.502 1071.71 2494
977.466 1071.71 2494
987.767 1076.44 2505
998.121 1081.17 2516
1005.73 1082.88 2520
1011.76 1082.88 2520
1017.79 1082.88 2520
1029.91 1089.33 2535
1037.6 1091.05 2539
1043.67 1091.05 2539
1053.05 1094.49 2547
1060.81 1096.21 2551
1068.58 1097.92 2555
1074.69 1097.92 2555
1084.18 1101.36 2563
1090.31 1101.36 2563
1098.15 1103.08 2567
1104.29 1103.08 2567
1110.43 1103.08 2567
1116.57 1103.08 2567
1122.71 1103.08 2567
1128.85 1103.08 2567
1133.22 1101.36 2563
1139.35 1101.36 2563
1145.47 1101.36 2563
1151.6 1101.36 2563
1152.31 1096.21 2551
1163.86 1101.36 2563
1169.99 1101.36 2563
1176.12 1101.36 2563
1182.25 1101.36 2563
1182.81 1096.21 2551
1190.78 1097.92 2555
1196.89 1097.92 2555
1203 1097.92 2555
1209.11 1097.92 2555
1211.41 1094.49 2547
1217.5 1094.49 2547
1227.44 1097.92 2555
1233.55 1097.92 2555
1239.66 1097.92 2555
1245.76 1097.92 2555
1255.79 1101.36 2563
1261.92 1101.36 2563
1270.03 1103.08 2567
1279.65 1106.09 2574
1285.8 1106.09 2574
1291.96 1106.09 2574
1298.12 1106.09 2574
1300.72 1103.08 2567
1306.86 1103.08 2567
1308.91 1099.64 2559
1312.97 1097.92 2555
1314.95 1094.49 2547
1321.04 1094.49 2547
1325.05 1092.77 2543
1331.13 1092.77 2543
1339.31 1094.49 2547
1345.41 1094.49 2547
1351.5 1094.49 2547
1357.59 1094.49 2547
1363.68 1094.49 2547
1367.62 1092.77 2543
1373.7 1092.77 2543
1379.78 1092.77 2543
1383.68 1091.05 2539
1389.75 1091.05 2539
1395.82 1091.05 2539
1398.03 1088.04 2532
1410.18 1092.77 2543
1420.72 1096.21 2551
1433.53 1101.36 2563
1439.66 1101.36 2563
1450.3 1104.8 2571
1462.68 1109.53 2582
1468.86 1109.53 2582
1475.03 1109.53 2582
1481.21 1109.53 2582
1485.08 1107.81 2578
1527.1 1134.45 2640
1533.42 1134.45 2640
1544.4 1137.89 2648
1550.73 1137.89 2648
1559.41 1139.61 2652
1565.75 1139.61 2652
1572.1 1139.61 2652
1583.79 1143.47 2661
1590.16 1143.47 2661
1596.52 1143.47 2661
1602.88 1143.47 2661
1603.81 1139.61 2652
1628.36 1152.5 2682
1648.18 1161.95 2704
1654.65 1161.95 2704
1661.12 1161.95 2704
1667.58 1161.95 2704
1674.05 1161.95 2704
1664.36 1150.78 2678
1670.76 1150.78 2678
1685.31 1156.37 2691
1691.74 1156.37 2691
1703.22 1159.8 2699
1709.68 1159.8 2699
1716.13 1159.8 2699
1714.29 1154.22 2686
1720.71 1154.22 2686
1724.56 1152.5 2682
1728.4 1150.78 2678
1726.38 1145.19 2665
1732.75 1145.19 2665
1730.64 1139.61 2652
1748.12 1146.91 2669
1763.04 1152.5 2682
1769.46 1152.5 2682
1775.87 1152.5 2682
1770.99 1145.19 2665
1760.69 1134.45 2640
1767 1134.45 2640
1756.52 1123.71 2615
1754.68 1118.55 2603
1760.91 1118.55 2603
1767.13 1118.55 2603
1773.36 1118.55 2603
1776.85 1116.83 2599
1776.89 1112.96 2590
1789.28 1116.83 2599
1820.36 1132.3 2635
1826.66 1132.3 2635
1832.97 1132.3 2635
1839.27 1132.3 2635
1845.57 1132.3 2635
1849.06 1130.58 2631
1841.25 1121.99 2611
1850.32 1123.71 2615
1856.57 1123.71 2615
1862.83 1123.71 2615
1863.36 1120.27 2607
1872.46 1121.99 2611
1878.71 1121.99 2611
1884.95 1121.99 2611
1888.3 1120.27 2607
1894.53 1120.27 2607
1894.93 1116.83 2599
1901.15 1116.83 2599
1907.36 1116.83 2599
1884.13 1099.64 2559
1853.31 1078.16 2509
1823.74 1057.53 2461
1829.63 1057.53 2461
1829.55 1054.09 2453
1843.64 1058.82 2464
1854.79 1061.83 2471
1863.71 1063.55 2475
1869.63 1063.55 2475
1878.58 1065.27 2479
1884.51 1065.27 2479
1890.43 1065.27 2479
-1751.64 1034.04 2393
-1745.92 1034.04 2393
-1768.56 1050.9 2432
-1762.74 1050.9 2432
-1756.93 1050.9 2432
-1782.55 1084.17 2509
-1776.55 1084.17 2509
-1770.55 1084.17 2509
-1758.93 1080.71 2501
-1752.95 1080.71 2501
-1763.03 1090.65 2524
-1757 1090.65 2524
-1750.96 1090.65 2524
-1750.46 1094.11 2532
-1744.4 1094.11 2532
-1738.35 1094.11 2532
-1732.29 1094.11 2532
-1726.24 1094.11 2532
-1724.94 1097.13 2539
-1718.87 1097.13 2539
-1720.89 1102.32 2551
-1714.79 1102.32 2551
-1708.69 1102.32 2551
-1694.58 1097.13 2539
-1699.15 1104.05 2555
-1693.04 1104.05 2555
-1694.85 1109.23 2567
-1688.71 1109.23 2567
-1682.58 1109.23 2567
-1676.44 1109.23 2567
-1667.7 1107.5 2563
-1653.79 1102.32 2551
-1647.69 1102.32 2551
-1599.76 1074.23 2486
-1586.76 1069.48 2475
-1578.29 1067.75 2471
-1572.38 1067.75 2471
-1566.47 1067.75 2471
-1560.56 1067.75 2471
-1554.65 1067.75 2471
-1548.74 1067.75 2471
-1542.83 1067.75 2471
-1536.93 1067.75 2471
-1531.02 1067.75 2471
-1525.11 1067.75 2471
-1517.35 1066.45 2468
-1511.45 1066.45 2468
-1492.13 1056.95 2446
-1486.28 1056.95 2446
-1476.2 1053.92 2439
-1463.73 1049.17 2428
-1460.33 1050.9 2432
-1454.51 1050.9 2432
-1448.7 1050.9 2432
-1442.88 1050.9 2432
-1437.07 1050.9 2432
-1431.25 1050.9 2432
-1417.23 1044.85 2418
-1411.45 1044.85 2418
-1413.8 1050.9 2432
-1407.99 1050.9 2432
-1402.17 1050.9 2432
-1396.36 1050.9 2432
-1389.47 1063.43 2461
-1385.27 1064.72 2464
-1379.38 1064.72 2464
-1373.48 1064.72 2464
-1365.93 1063.43 2461
-1355.62 1059.97 2453
-1349.75 1059.97 2453
-1246.04 1087.19 2516
-1240.02 1087.19 2516
-1234.01 1087.19 2516
-1213.35 1074.23 2486
-1172.43 1043.12 2414
-1192.76 1066.45 2468
-1197.44 1075.96 2490
-1191.48 1075.96 2490
-1199.81 1088.92 2520
-1200.89 1095.4 2535
-1200.49 1100.59 2547
-1194.4 1100.59 2547
-1190.17 1102.32 2551
-1185.93 1104.05 2555
-1179.82 1104.05 2555
-1173.71 1104.05 2555
-1163.94 1100.59 2547
-1157.85 1100.59 2547
-1151.76 1100.59 2547
-1140.27 1095.4 2535
-1131.08 1092.38 2528
-1133.49 1100.59 2547
-1129.17 1102.32 2551
-1123.07 1102.32 2551
-1116.97 1102.32 2551
-1110.87 1102.32 2551
-1104.77 1102.32 2551
-1095.22 1098.86 2543
-1084.43 1094.11 2532
-1069.86 1085.46 2512
-1063.85 1085.46 2512
-1051.53 1078.98 2497
-1042.62 1075.96 2490
-1028.76 1067.75 2471
-1022.85 1067.75 2471
-1009.53 1059.97 2453
-996.303 1052.19 2435
-992.108 1053.92 2439
-987.893 1055.65 2443
-989.286 1063.43 2461
-983.401 1063.43 2461
-983.077 1069.48 2475
-980.317 1072.93 2483
-975.557 1074.23 2486
-969.612 1074.23 2486
-972.583 1084.17 2509
-966.583 1084.17 2509
-964.795 1088.92 2520
-958.769 1088.92 2520
-952.743 1088.92 2520
-952.352 1095.4 2535
-946.29 1095.4 2535
-940.228 1095.4 2535
-937.114 1098.86 2543
-932.498 1100.59 2547
-926.407 1100.59 2547
-920.316 1100.59 2547
-912.79 1098.86 2543
-905.283 1097.13 2539
-899.211 1097.13 2539
-890.677 1094.11 2532
-883.225 1092.38 2528
-874.404 1088.92 2520
-868.378 1088.92 2520
-860.983 1087.19 2516
-854.966 1087.19 2516
-848.95 1087.19 2516
-842.933 1087.19 2516
-834.588 1084.17 2509
-824.625 1078.98 2497
-816.359 1075.96 2490
-810.405 1075.96 2490
-804.451 1075.96 2490
-797.214 1074.23 2486
-791.269 1074.23 2486
-785.324 1074.23 2486
-777.185 1071.2 2479
-771.257 1071.2 2479
-765.329 1071.2 2479
-759.401 1071.2 2479
-753.473 1071.2 2479
-747.545 1071.2 2479
-744.907 1075.96 2490
-741.03 1078.98 2497
-736.237 1080.71 2501
-730.256 1080.71 2501
-724.275 1080.71 2501
-718.295 1080.71 2501
-712.314 1080.71 2501
-706.333 1080.71 2501
-700.353 1080.71 2501
-695.483 1082.44 2505
-690.594 1084.17 2509
-684.594 1084.17 2509
-678.594 1084.17 2509
-672.594 1084.17 2509
-666.594 1084.17 2509
-658.488 1080.71 2501
-651.464 1078.98 2497
-645.493 1078.98 2497
-639.522 1078.98 2497
-632.79 1077.69 2494
-628.585 1080.71 2501
-625.343 1085.46 2512
-621.308 1088.92 2520
-615.282 1088.92 2520
-609.256 1088.92 2520
-603.23 1088.92 2520
-597.204 1088.92 2520
-591.178 1088.92 2520
-585.152 1088.92 2520
-579.126 1088.92 2520
-573.1 1088.92 2520
-566.173 1087.19 2516
-560.157 1087.19 2516
-555.021 1088.92 2520
-548.995 1088.92 2520
-542.969 1088.92 2520
-536.943 1088.92 2520
-530.917 1088.92 2520
-524.891 1088.92 2520
-518.041 1087.19 2516
-510.6 1084.17 2509
-502.991 1080.71 2501
-497.011 1080.71 2501
-489.656 1077.69 2494
-482.14 1074.23 2486
-476.196 1074.23 2486
-468.927 1071.2 2479
-462.999 1071.2 2479
-455.596 1067.75 2471
-449.687 1067.75 2471
-443.778 1067.75 2471
-439.286 1071.2 2479
-433.358 1071.2 2479
-428.12 1072.93 2483
-422.182 1072.93 2483
-416.245 1072.93 2483
-410.307 1072.93 2483
-404.37 1072.93 2483
-398.432 1072.93 2483
-394.233 1077.69 2494
-388.269 1077.69 2494
-382.305 1077.69 2494
-376.794 1078.98 2497
-371.417 1080.71 2501
-365.436 1080.71 2501
-359.456 1080.71 2501
-353.475 1080.71 2501
-347.495 1080.71 2501
-340.012 1075.96 2490
-334.057 1075.96 2490
-327.576 1074.23 2486
-321.631 1074.23 2486
-315.687 1074.23 2486
-308.87 1071.2 2479
-302.942 1071.2 2479
-297.013 1071.2 2479
-290.616 1069.48 2475
-284.237 1067.75 2471
-277.99 1066.45 2468
-271.317 1063.43 2461
-266.51 1067.75 2471
-260.602 1067.75 2471
-254.693 1067.75 2471
-248.784 1067.75 2471
-242.875 1067.75 2471
-236.966 1067.75 2471
-231.057 1067.75 2471
-226.515 1074.23 2486
-221.28 1077.69 2494
-215.316 1077.69 2494
-209.94 1080.71 2501
-205.508 1088.92 2520
-200.432 1094.11 2532
-194.377 1094.11 2532
-188.323 1094.11 2532
-114.856 983.486 2276
-109.414 983.486 2276
-103.971 983.486 2276
-98.1387 979.597 2267
-92.7176 979.597 2267
-87.2965 979.597 2267
-81.8754 979.597 2267
-76.6567 982.19 2273
-71.2213 982.19 2273
-65.7858 982.19 2273
-60.1115 978.301 2264
-54.6975 978.301 2264
-49.1313 975.276 2257
-43.5597 971.387 2248
-38.184 971.387 2248
-32.7646 970.091 2245
-27.3961 970.091 2245
-21.9982 968.794 2242
-16.6369 968.794 2242
-11.2454 966.202 2236
-5.86683 961.016 2224
-0.547835 959.72 2221
4.76325 959.72 2221
10.0607 958.424 2218
15.3646 958.424 2218
20.6685 958.424 2218
25.9725 958.424 2218
31.2764 958.424 2218
36.5803 958.424 2218
41.7331 954.967 2210
47.0179 954.967 2210
52.2317 953.67 2207
57.5093 953.67 2207
62.8722 954.967 2210
68.2495 956.263 2213
73.7076 958.424 2218
79.0116 958.424 2218
84.4295 959.72 2221
89.7406 959.72 2221
95.3085 962.313 2227
100.634 962.313 2227
105.959 962.313 2227
111.734 966.202 2236
117.081 966.202 2236
122.428 966.202 2236
128.118 968.794 2242
133.837 971.387 2248
139.77 975.276 2257
145.167 975.276 2257
151.231 979.597 2267
157.274 983.486 2276
162.931 984.782 2279
168.381 984.782 2279
174.288 987.375 2285
179.989 988.671 2288
185.784 990.4 2292
191.265 990.4 2292
197.776 995.585 2304
203.903 998.61 2311
210.879 1005.52 2327
216.444 1005.52 2327
222.295 1006.82 2330
227.866 1006.82 2330
235.041 1013.73 2346
240.651 1013.73 2346
248.046 1021.08 2363
255.844 1029.72 2383
262.64 1034.04 2393
268.362 1034.04 2393
276.146 1041.82 2411
282.262 1043.12 2414
289.705 1049.17 2428
295.511 1049.17 2428
301.317 1049.17 2428
307.63 1050.9 2432
314.863 1055.65 2443
320.705 1055.65 2443
328.418 1061.7 2457
337.287 1071.2 2479
343.215 1071.2 2479
349.143 1071.2 2479
355.071 1071.2 2479
362.601 1075.96 2490
370.775 1082.44 2505
376.766 1082.44 2505
383.825 1085.46 2512
389.832 1085.46 2512
395.839 1085.46 2512
401.846 1085.46 2512
407.366 1084.17 2509
413.366 1084.17 2509
420.536 1087.19 2516
426.552 1087.19 2516
432.569 1087.19 2516
438.585 1087.19 2516
445.309 1088.92 2520
451.335 1088.92 2520
457.361 1088.92 2520
463.387 1088.92 2520
467.923 1085.46 2512
473.93 1085.46 2512
477.835 1080.71 2501
480.914 1074.23 2486
486.271 1072.93 2483
492.209 1072.93 2483
494.335 1064.72 2464
500.227 1064.72 2464
508.378 1069.48 2475
514.297 1069.48 2475
520.215 1069.48 2475
524.646 1066.45 2468
530.547 1066.45 2468
537.101 1067.75 2471
543.01 1067.75 2471
548.919 1067.75 2471
554.154 1066.45 2468
560.056 1066.45 2468
565.958 1066.45 2468
571.86 1066.45 2468
577.761 1066.45 2468
585.319 1069.48 2475
593.148 1072.93 2483
599.086 1072.93 2483
606.729 1075.96 2490
614.406 1078.98 2497
623.358 1084.17 2509
629.358 1084.17 2509
637.13 1087.19 2516
643.147 1087.19 2516
649.163 1087.19 2516
655.18 1087.19 2516
661.196 1087.19 2516
671.456 1094.11 2532
679.384 1097.13 2539
685.455 1097.13 2539
691.527 1097.13 2539
697.598 1097.13 2539
703.67 1097.13 2539
710.86 1098.86 2543
716.941 1098.86 2543
723.022 1098.86 2543
732.543 1104.05 2555
742.122 1109.23 2567
748.261 1109.23 2567
758.807 1115.71 2582
764.982 1115.71 2582
771.156 1115.71 2582
774.922 1112.26 2574
780.167 1110.96 2571
785.092 1109.23 2567
791.23 1109.23 2567
797.369 1109.23 2567
802.255 1107.5 2563
805.861 1104.05 2555
811.97 1104.05 2555
815.519 1100.59 2547
819.029 1097.13 2539
825.1 1097.13 2539
831.172 1097.13 2539
837.243 1097.13 2539
843.315 1097.13 2539
849.386 1097.13 2539
854.11 1095.4 2535
860.172 1095.4 2535
865.209 1094.11 2532
867.134 1088.92 2520
869.349 1084.17 2509
875.349 1084.17 2509
881.349 1084.17 2509
885.934 1082.44 2505
891.924 1082.44 2505
897.914 1082.44 2505
901.018 1078.98 2497
906.989 1078.98 2497
912.96 1078.98 2497
920.403 1080.71 2501
926.384 1080.71 2501
935.347 1084.17 2509
942.472 1085.46 2512
948.479 1085.46 2512
954.486 1085.46 2512
960.493 1085.46 2512
959.574 1077.69 2494
961.28 1072.93 2483
969.944 1075.96 2490
975.898 1075.96 2490
987.767 1082.44 2505
998.121 1087.19 2516
1005.73 1088.92 2520
1011.76 1088.92 2520
1017.79 1088.92 2520
1029.91 1095.4 2535
1037.6 1097.13 2539
1043.67 1097.13 2539
1053.05 1100.59 2547
1060.81 1102.32 2551
1068.58 1104.05 2555
1074.69 1104.05 2555
1084.18 1107.5 2563
1090.31 1107.5 2563
1098.15 1109.23 2567
1104.29 1109.23 2567
1110.43 1109.23 2567
1116.57 1109.23 2567
1122.71 1109.23 2567
1128.85 1109.23 2567
1133.22 1107.5 2563
1139.35 1107.5 2563
1140.11 1102.32 2551
1146.21 1102.32 2551
1148.7 1098.86 2543
1156.6 1100.59 2547
1162.69 1100.59 2547
1168.78 1100.59 2547
1174.87 1100.59 2547
1179.1 1098.86 2543
1183.32 1097.13 2539
1191.27 1098.86 2543
1197.35 1098.86 2543
1203.43 1098.86 2543
1205.7 1095.4 2535
1213.68 1097.13 2539
1221.67 1098.86 2543
1227.75 1098.86 2543
1235.77 1100.59 2547
1245.76 1104.05 2555
1251.87 1104.05 2555
1257.98 1104.05 2555
1268.05 1107.5 2563
1276.17 1109.23 2567
1282.31 1109.23 2567
1288.45 1109.23 2567
1294.59 1109.23 2567
1296.67 1105.77 2559
1302.79 1105.77 2559
1306.86 1104.05 2555
1310.92 1102.32 2551
1314.95 1100.59 2547
1321.04 1100.59 2547
1325.05 1098.86 2543
1331.13 1098.86 2543
1337.21 1098.86 2543
1345.41 1100.59 2547
1351.5 1100.59 2547
1357.59 1100.59 2547
1361.54 1098.86 2543
1365.47 1097.13 2539
1371.54 1097.13 2539
1377.61 1097.13 2539
1379.87 1094.11 2532
1383.73 1092.38 2528
1389.78 1092.38 2528
1395.82 1092.38 2528
1397.43 1088.92 2520
1405.68 1090.65 2524
1426.82 1102.32 2551
1432.92 1102.32 2551
1443.53 1105.77 2559
1454.19 1109.23 2567
1466.58 1113.98 2578
1472.75 1113.98 2578
1478.91 1113.98 2578
1485.08 1113.98 2578
1491.24 1113.98 2578
1497.41 1113.98 2578
1494.82 1107.5 2563
1550.99 1135.16 2627
1557.28 1135.16 2627
1576.06 1144.23 2648
1582.39 1144.23 2648
1588.72 1144.23 2648
1595.05 1144.23 2648
1603.81 1145.96 2652
1618.04 1151.58 2665
1642.7 1164.54 2695
1649.14 1164.54 2695
1655.59 1164.54 2695
1662.03 1164.54 2695
1668.48 1164.54 2695
1664.36 1157.19 2678
1670.76 1157.19 2678
1682.17 1160.65 2686
1691.74 1162.81 2691
1698.18 1162.81 2691
1704.61 1162.81 2691
1711.05 1162.81 2691
1714.29 1160.65 2686
1720.71 1160.65 2686
1718.78 1155.03 2673
1722.59 1153.31 2669
1710.18 1140.77 2640
1716.5 1140.77 2640
1709.1 1131.7 2619
1729.12 1140.77 2640
1735.43 1140.77 2640
1741.75 1140.77 2640
1748.06 1140.77 2640
1754.37 1140.77 2640
1736.01 1124.79 2603
1725.5 1113.98 2578
1731.67 1113.98 2578
1737.83 1113.98 2578
1746.7 1115.71 2582
1752.88 1115.71 2582
1759.05 1115.71 2582
1765.23 1115.71 2582
1774.14 1117.44 2586
1785.84 1120.9 2594
1806.55 1129.97 2615
1812.8 1129.97 2615
1821.84 1131.7 2619
1828.1 1131.7 2619
1834.36 1131.7 2619
1835 1128.24 2611
1841.25 1128.24 2611
1850.32 1129.97 2615
1856.57 1129.97 2615
1862.83 1129.97 2615
1863.36 1126.52 2607
1872.46 1128.24 2611
1878.71 1128.24 2611
1884.95 1128.24 2611
1888.3 1126.52 2607
1894.53 1126.52 2607
1894.93 1123.06 2599
1901.15 1123.06 2599
1907.36 1123.06 2599
1884.13 1105.77 2559
1853.31 1084.17 2509
1823.74 1063.43 2461
1829.63 1063.43 2461
1829.55 1059.97 2453
1843.64 1064.72 2464
1854.79 1067.75 2471
1863.71 1069.48 2475
1869.63 1069.48 2475
1878.58 1071.2 2479
1884.51 1071.2 2479
1890.43 1071.2 2479
1871.12 1056.95 2446
-1762.5 1042.82 2400
-1756.77 1042.82 2400
-1751.03 1042.82 2400
-1768.56 1056.72 2432
-1762.74 1056.72 2432
-1772.1 1065.85 2453
-1766.23 1065.85 2453
-1760.36 1065.85 2453
-1754.5 1065.85 2453
-1777.86 1083.66 2494
-1782.55 1090.18 2509
-1776.55 1090.18 2509
-1772.67 1091.48 2512
-1766.66 1091.48 2512
-1760.66 1091.48 2512
-1763.03 1096.7 2524
-1757 1096.7 2524
-1750.96 1096.7 2524
-1750.46 1100.17 2532
-1744.4 1100.17 2532
-1738.35 1100.17 2532
-1732.29 1100.17 2532
-1726.24 1100.17 2532
-1724.94 1103.21 2539
-1718.87 1103.21 2539
-1720.89 1108.43 2551
-1714.79 1108.43 2551
-1708.69 1108.43 2551
-1694.58 1103.21 2539
-1699.15 1110.17 2555
-1693.04 1110.17 2555
-1694.85 1115.38 2567
-1688.71 1115.38 2567
-1682.58 1115.38 2567
-1676.44 1115.38 2567
-1667.7 1113.64 2563
-1653.79 1108.43 2551
-1647.69 1108.43 2551
-1590.11 1073.67 2471
-1579.71 1070.63 2464
-1573.82 1070.63 2464
-1572.38 1073.67 2471
-1566.47 1073.67 2471
-1560.56 1073.67 2471
-1554.65 1073.67 2471
-1548.74 1073.67 2471
-1542.83 1073.67 2471
-1536.93 1073.67 2471
-1522.34 1067.58 2457
-1516.47 1067.58 2457
-1510.59 1067.58 2457
-1504.72 1067.58 2457
-1492.13 1062.8 2446
-1486.28 1062.8 2446
-1467.72 1053.68 2425
-1453.48 1047.6 2411
-1457.93 1054.98 2428
-1452.12 1054.98 2428
-1446.31 1054.98 2428
-1438.73 1053.68 2425
-1428.79 1050.64 2418
-1423.01 1050.64 2418
-1414.88 1048.9 2414
-1407.36 1047.6 2411
-1397.53 1044.56 2404
-1391.78 1044.56 2404
-1386.03 1044.56 2404
-1376.26 1041.51 2397
-1389.47 1069.32 2461
-1383.58 1069.32 2461
-1377.7 1069.32 2461
-1367.35 1065.85 2453
-1359.82 1064.54 2450
-1347.88 1059.76 2439
-1231.18 1080.18 2486
-1225.24 1080.18 2486
-1219.29 1080.18 2486
-1178.21 1048.9 2414
-1174.38 1050.64 2418
-1190.83 1070.63 2464
-1195.51 1080.18 2486
-1189.57 1080.18 2486
-1199.81 1094.96 2520
-1197.58 1098.43 2528
-1194.83 1101.48 2535
-1188.77 1101.48 2535
-1188.3 1106.69 2547
-1182.21 1106.69 2547
-1176.12 1106.69 2547
-1170.03 1106.69 2547
-1160.29 1103.21 2539
-1154.21 1103.21 2539
-1148.14 1103.21 2539
-1138.92 1100.17 2532
-1129.29 1096.7 2524
-1128.15 1101.48 2535
-1125.63 1104.95 2543
-1119.55 1104.95 2543
-1113.47 1104.95 2543
-1103.9 1101.48 2535
-1097.84 1101.48 2535
-1090.48 1100.17 2532
-1075.86 1091.48 2512
-1063.47 1084.96 2497
-1057.5 1084.96 2497
-1045.63 1078.88 2483
-1033.41 1072.36 2468
-1021.27 1065.85 2453
-1009.6 1059.76 2439
-1003.77 1059.76 2439
-990.575 1051.94 2421
-981.938 1048.9 2414
-980.614 1053.68 2425
-980.443 1059.76 2439
-974.61 1059.76 2439
-970.367 1061.5 2443
-970.052 1067.58 2457
-964.177 1067.58 2457
-958.301 1067.58 2457
-956.69 1072.36 2468
-955.026 1077.14 2479
-954.841 1083.66 2494
-948.877 1083.66 2494
-942.913 1083.66 2494
-939.579 1086.7 2501
-939.198 1093.22 2516
-933.181 1093.22 2516
-928.638 1094.96 2520
-925.541 1098.43 2528
-919.496 1098.43 2528
-913.451 1098.43 2528
-907.406 1098.43 2528
-899.934 1096.7 2524
-893.899 1096.7 2524
-887.863 1096.7 2524
-879.032 1093.22 2516
-870.587 1090.18 2509
-864.587 1090.18 2509
-855.85 1086.7 2501
-849.869 1086.7 2501
-843.888 1086.7 2501
-837.908 1086.7 2501
-828.268 1081.92 2490
-820.002 1078.88 2483
-812.753 1077.14 2479
-806.825 1077.14 2479
-800.897 1077.14 2479
-793.686 1075.41 2475
-784.266 1070.63 2464
-778.374 1070.63 2464
-772.482 1070.63 2464
-766.59 1070.63 2464
-761.933 1072.36 2468
-756.031 1072.36 2468
-750.129 1072.36 2468
-744.227 1072.36 2468
-738.326 1072.36 2468
-735.688 1077.14 2479
-732.999 1081.92 2490
-727.044 1081.92 2490
-722.248 1083.66 2494
-716.284 1083.66 2494
-710.32 1083.66 2494
-703.227 1081.92 2490
-697.273 1081.92 2490
-693.262 1084.96 2497
-688.392 1086.7 2501
-682.411 1086.7 2501
-676.43 1086.7 2501
-669.377 1084.96 2497
-663.406 1084.96 2497
-657.435 1084.96 2497
-649.638 1081.92 2490
-643.683 1081.92 2490
-637.729 1081.92 2490
-629.999 1078.88 2483
-624.061 1078.88 2483
-622.604 1086.7 2501
-618.596 1090.18 2509
-612.596 1090.18 2509
-606.597 1090.18 2509
-600.597 1090.18 2509
-594.597 1090.18 2509
-587.659 1088.44 2505
-580.74 1086.7 2501
-574.759 1086.7 2501
-568.779 1086.7 2501
-561.898 1084.96 2497
-555.927 1084.96 2497
-549.956 1084.96 2497
-543.985 1084.96 2497
-537.367 1083.66 2494
-531.403 1083.66 2494
-525.439 1083.66 2494
-519.475 1083.66 2494
-513.511 1083.66 2494
-506.733 1081.92 2490
-499.975 1080.18 2486
-493.434 1078.88 2483
-487.496 1078.88 2483
-479.231 1073.67 2471
-471.407 1069.32 2461
-464.009 1065.85 2453
-458.143 1065.85 2453
-450.986 1062.8 2446
-445.137 1062.8 2446
-440.545 1065.85 2453
-436.097 1069.32 2461
-430.212 1069.32 2461
-425.534 1072.36 2468
-420.142 1073.67 2471
-414.233 1073.67 2471
-408.324 1073.67 2471
-403.718 1077.14 2479
-397.79 1077.14 2479
-391.862 1077.14 2479
-385.934 1077.14 2479
-380.006 1077.14 2479
-374.682 1078.88 2483
-369.784 1081.92 2490
-363.829 1081.92 2490
-357.875 1081.92 2490
-351.921 1081.92 2490
-345.966 1081.92 2490
-340.012 1081.92 2490
-334.057 1081.92 2490
-327.576 1080.18 2486
-321.631 1080.18 2486
-315.687 1080.18 2486
-308.87 1077.14 2479
-302.942 1077.14 2479
-297.013 1077.14 2479
-290.616 1075.41 2475
-284.237 1073.67 2471
-277.99 1072.36 2468
-271.317 1069.32 2461
-266.51 1073.67 2471
-260.602 1073.67 2471
-254.693 1073.67 2471
-248.784 1073.67 2471
-242.875 1073.67 2471
-236.966 1073.67 2471
-231.057 1073.67 2471
-226.515 1080.18 2486
-221.28 1083.66 2494
-215.316 1083.66 2494
-209.94 1086.7 2501
-205.508 1094.96 2520
-200.432 1100.17 2532
-194.377 1100.17 2532
-188.323 1100.17 2532
-114.856 988.938 2276
-109.414 988.938 2276
-103.971 988.938 2276
-98.1387 985.028 2267
-92.7176 985.028 2267
-87.2965 985.028 2267
-81.8754 985.028 2267
-76.6567 987.635 2273
-71.2213 987.635 2273
-65.7858 987.635 2273
-60.1115 983.724 2264
-54.6975 983.724 2264
-49.1313 980.683 2257
-43.5597 976.772 2248
-38.184 976.772 2248
-32.7646 975.469 2245
-27.3961 975.469 2245
-21.9982 974.165 2242
-16.6369 974.165 2242
-11.2454 971.558 2236
-5.86683 966.344 2224
-0.547835 965.04 2221
4.76325 965.04 2221
10.0607 963.737 2218
15.3646 963.737 2218
20.6685 963.737 2218
25.9725 963.737 2218
31.2764 963.737 2218
36.5803 963.737 2218
41.7331 960.261 2210
47.0179 960.261 2210
52.2317 958.957 2207
57.5093 958.957 2207
62.8722 960.261 2210
68.2495 961.564 2213
73.7076 963.737 2218
79.0116 963.737 2218
84.4295 965.04 2221
89.7406 965.04 2221
95.3085 967.647 2227
100.634 967.647 2227
105.959 967.647 2227
111.734 971.558 2236
117.081 971.558 2236
122.428 971.558 2236
128.118 974.165 2242
133.837 976.772 2248
139.77 980.683 2257
145.167 980.683 2257
151.231 985.028 2267
157.274 988.938 2276
162.931 990.242 2279
168.381 990.242 2279
174.288 992.849 2285
179.989 994.152 2288
186.27 998.497 2298
191.766 998.497 2298
197.776 1001.1 2304
204.433 1006.75 2317
210.879 1011.1 2327
216.444 1011.1 2327
222.295 1012.4 2330
227.866 1012.4 2330
235.442 1021.09 2350
241.062 1021.09 2350
248.046 1026.74 2363
255.844 1035.43 2383
262.64 1039.78 2393
268.362 1039.78 2393
276.146 1047.6 2411
282.262 1048.9 2414
289.705 1054.98 2428
295.511 1054.98 2428
301.317 1054.98 2428
307.124 1054.98 2428
312.93 1054.98 2428
315.979 1045.86 2407
325.477 1058.02 2435
331.845 1059.76 2439
337.677 1059.76 2439
343.509 1059.76 2439
353.925 1073.67 2471
360.417 1075.41 2475
369.147 1083.66 2494
375.111 1083.66 2494
382.145 1086.7 2501
388.125 1086.7 2501
394.106 1086.7 2501
400.087 1086.7 2501
406.067 1086.7 2501
411.389 1084.96 2497
417.36 1084.96 2497
423.331 1084.96 2497
429.302 1084.96 2497
435.97 1086.7 2501
442.658 1088.44 2505
448.648 1088.44 2505
454.638 1088.44 2505
460.629 1088.44 2505
465.874 1086.7 2501
471.854 1086.7 2501
475.733 1081.92 2490
480.334 1078.88 2483
482.55 1070.63 2464
488.442 1070.63 2464
494.335 1070.63 2464
499.618 1069.32 2461
506.119 1070.63 2464
512.011 1070.63 2464
518.744 1072.36 2468
524.646 1072.36 2468
530.547 1072.36 2468
537.101 1073.67 2471
543.01 1073.67 2471
548.919 1073.67 2471
554.154 1072.36 2468
559.148 1070.63 2464
565.041 1070.63 2464
570.933 1070.63 2464
576.825 1070.63 2464
584.373 1073.67 2471
593.148 1078.88 2483
599.086 1078.88 2483
606.729 1081.92 2490
614.406 1084.96 2497
622.364 1088.44 2505
628.355 1088.44 2505
636.117 1091.48 2512
642.124 1091.48 2512
648.131 1091.48 2512
654.138 1091.48 2512
659.357 1090.18 2509
