948.425 1077.4 2594
957.94 1081.14 2603
964.165 1081.14 2603
974.863 1086.12 2615
982.617 1087.78 2619
988.88 1087.78 2619
995.143 1087.78 2619
1001.41 1087.78 2619
1007.67 1087.78 2619
1013.93 1087.78 2619
1020.19 1087.78 2619
1029.59 1091.11 2627
1035.87 1091.11 2627
1042.16 1091.11 2627
1035.27 1077.4 2594
1039.86 1075.74 2590
1052.92 1082.8 2607
1059.16 1082.8 2607
1065.39 1082.8 2607
1071.63 1082.8 2607
1081.17 1086.12 2615
1087.42 1086.12 2615
1093.68 1086.12 2615
1099.93 1086.12 2615
1097.3 1077.4 2594
1096.69 1070.75 2578
1102.86 1070.75 2578
1107.3 1069.09 2574
1112.16 1067.85 2571
1118.31 1067.85 2571
1124.46 1067.85 2571
1131.92 1069.09 2574
1138.08 1069.09 2574
1149.57 1074.08 2586
1159.33 1077.4 2594
1174.97 1086.12 2615
1181.22 1086.12 2615
1200.64 1098.17 2644
1208.79 1099.83 2648
1215.12 1099.83 2648
1221.46 1099.83 2648
1227.79 1099.83 2648
1228.06 1094.43 2635
1234.36 1094.43 2635
1240.66 1094.43 2635
1246.96 1094.43 2635
1249.46 1091.11 2627
1255.74 1091.11 2627
1260.1 1089.44 2623
1270.24 1092.77 2631
1282.84 1098.17 2644
1293.06 1101.49 2652
1299.4 1101.49 2652
1305.74 1101.49 2652
1308.13 1098.17 2644
1314.45 1098.17 2644
1316.28 1094.43 2635
1310.53 1084.46 2611
1302.15 1072.42 2582
1300.72 1066.19 2567
1306.86 1066.19 2567
1310.95 1064.52 2563
1310.92 1059.54 2551
1314.95 1057.88 2547
1321.04 1057.88 2547
1327.13 1057.88 2547
1343.69 1066.19 2567
1353.51 1069.09 2574
1387.66 1091.11 2627
1393.95 1091.11 2627
1420.48 1106.89 2665
1426.85 1106.89 2665
1433.23 1106.89 2665
1437.44 1105.23 2661
1434.58 1098.17 2644
1429.46 1089.44 2623
1445.04 1096.51 2640
1460.14 1103.15 2656
1466.5 1103.15 2656
1480.06 1108.55 2669
1486.44 1108.55 2669
1492.82 1108.55 2669
1499.2 1108.55 2669
1498.25 1103.15 2656
1507.44 1105.23 2661
1513.8 1105.23 2661
1520.16 1105.23 2661
1526.53 1105.23 2661
1530.01 1103.15 2656
1536.36 1103.15 2656
1542.71 1103.15 2656
1544.4 1099.83 2648
1540.77 1092.77 2631
1537.66 1086.12 2615
1543.91 1086.12 2615
1543.05 1081.14 2603
1549.27 1081.14 2603
1550.12 1077.4 2594
1556.32 1077.4 2594
1560.12 1075.74 2590
1563.89 1074.08 2586
1570.08 1074.08 2586
1586.62 1081.14 2603
1592.85 1081.14 2603
1601.53 1082.8 2607
1610.23 1084.46 2611
1621.43 1087.78 2619
1627.69 1087.78 2619
1633.95 1087.78 2619
1640.21 1087.78 2619
1646.48 1087.78 2619
1652.74 1087.78 2619
1648.87 1081.14 2603
1655.09 1081.14 2603
1658.76 1079.48 2599
1664.98 1079.48 2599
1660.26 1072.42 2582
1659.34 1067.85 2571
1675.2 1074.08 2586
1681.39 1074.08 2586
1687.57 1074.08 2586
1693.75 1074.08 2586
1699.94 1074.08 2586
1706.12 1074.08 2586
1709.66 1072.42 2582
1715.83 1072.42 2582
1712 1066.19 2567
1712.79 1062.86 2559
1718.9 1062.86 2559
1719.63 1059.54 2551
1723.03 1057.88 2547
1723.68 1054.56 2539
1729.76 1054.56 2539
1725.57 1048.33 2524
1731.61 1048.33 2524
1747.97 1054.56 2539
1780.99 1070.75 2578
1787.15 1070.75 2578
1793.31 1070.75 2578
1799.48 1070.75 2578
1805.64 1070.75 2578
1804.08 1066.19 2567
1807.4 1064.52 2563
1805.03 1059.54 2551
1794.81 1049.99 2528
1800.85 1049.99 2528
1806.9 1049.99 2528
1850.42 1037.11 2497
1856.39 1037.11 2497
1862.36 1037.11 2497
1871.33 1038.77 2501
1877.31 1038.77 2501
1883.29 1038.77 2501
1889.27 1038.77 2501
1956.63 1072.42 2582
1971.93 1077.4 2594
1991.09 1084.46 2611
1997.34 1084.46 2611
-1844.86 1029.31 2464
-1838.97 1029.31 2464
-1841.26 1033.9 2475
-1835.34 1033.9 2475
-1829.42 1033.9 2475
-1829.4 1037.24 2483
-1823.46 1037.24 2483
-1817.52 1037.24 2483
-1800.64 1030.98 2468
-1789.65 1028.05 2461
-1796.81 1035.57 2479
-1798.83 1040.17 2490
-1800.79 1044.76 2501
-1794.81 1044.76 2501
-1788.83 1044.76 2501
-1775.01 1040.17 2490
-1735.66 1020.54 2443
-1729.82 1020.54 2443
-1723.98 1020.54 2443
-1718.14 1020.54 2443
-1644.31 980.015 2346
-1648.48 985.863 2360
-1720.1 1032.23 2471
-1719.74 1035.57 2479
-1713.82 1035.57 2479
-1707.89 1035.57 2479
-1699.21 1033.9 2475
-1693.29 1033.9 2475
-1684.65 1032.23 2471
-1669.23 1026.38 2457
-1660.65 1024.71 2453
-1654.78 1024.71 2453
-1639.5 1018.86 2439
-1628.98 1015.94 2432
-1623.17 1015.94 2432
-1617.35 1015.94 2432
-1611.53 1015.94 2432
-1629.49 1030.98 2468
-1623.59 1030.98 2468
-1617.68 1030.98 2468
-1611.78 1030.98 2468
-1603.28 1029.31 2464
-1595.44 1028.05 2461
-1589.56 1028.05 2461
-1583.67 1028.05 2461
-1566.25 1020.54 2443
-1550.82 1014.27 2428
-1545.02 1014.27 2428
-1528.43 1007.17 2411
-1509.41 998.395 2390
-1501.8 997.142 2387
-1496.1 997.142 2387
-1487.89 995.471 2383
-1480.33 994.218 2380
-1476.49 995.471 2383
-1470.79 995.471 2383
-1465.1 995.471 2383
-1467.97 1001.32 2397
-1462.24 1001.32 2397
-1458.33 1002.57 2400
-1452.59 1002.57 2400
-1451.07 1005.5 2407
-1445.32 1005.5 2407
-1447.93 1011.35 2421
-1442.14 1011.35 2421
-1451.19 1021.79 2446
-1447.7 1023.46 2450
-1450.08 1029.31 2464
-1444.19 1029.31 2464
-1444.72 1033.9 2475
-1451.59 1043.09 2497
-1456.62 1051.03 2516
-1450.6 1051.03 2516
-1462.38 1063.98 2547
-1456.29 1063.98 2547
-1450.2 1063.98 2547
-1444.11 1063.98 2547
-1433.5 1060.64 2539
-1423.5 1057.71 2532
-1417.44 1057.71 2532
-1409.16 1056.04 2528
-1407 1058.97 2535
-1409.78 1065.65 2551
-1412.48 1072.33 2567
-1406.34 1072.33 2567
-1400.21 1072.33 2567
-1394.07 1072.33 2567
-1387.93 1072.33 2567
-1381.79 1072.33 2567
-1371.36 1068.99 2559
-1365.25 1068.99 2559
-1359.13 1068.99 2559
-1353.01 1068.99 2559
-1254.03 1078.6 2582
-1253.65 1083.61 2594
-1247.45 1083.61 2594
-1241.25 1083.61 2594
-1229.33 1078.6 2582
-1217.95 1074.01 2571
-1211.8 1074.01 2571
-1194.4 1063.98 2547
-1188.3 1063.98 2547
-1173.4 1056.04 2528
-1167.35 1056.04 2528
-1159.47 1054.37 2524
-1147.95 1049.36 2512
-1140.58 1048.11 2509
-1134.58 1048.11 2509
-1128.58 1048.11 2509
-1125.71 1051.03 2516
-1119.69 1051.03 2516
-1113.68 1051.03 2516
-1107.66 1051.03 2516
-1101.64 1051.03 2516
-1095.63 1051.03 2516
-1089.61 1051.03 2516
-1083.59 1051.03 2516
-1077.58 1051.03 2516
-1069.86 1049.36 2512
-1063.85 1049.36 2512
-1054.9 1046.44 2505
-1045.56 1043.09 2497
-1035 1038.5 2486
-1029.06 1038.5 2486
-1020.23 1035.57 2479
-1009.81 1030.98 2468
-996.582 1023.46 2450
-983.445 1015.94 2432
-977.629 1015.94 2432
-971.813 1015.94 2432
-965.998 1015.94 2432
-962.946 1018.86 2439
-971.24 1033.9 2475
-965.322 1033.9 2475
-966.769 1041.84 2494
-961.96 1043.09 2497
-955.989 1043.09 2497
-950.018 1043.09 2497
-945.559 1044.76 2501
-939.579 1044.76 2501
-939.198 1051.03 2516
-933.181 1051.03 2516
-931.587 1056.04 2528
-933.962 1065.65 2551
-927.862 1065.65 2551
-921.762 1065.65 2551
-915.661 1065.65 2551
-909.561 1065.65 2551
-907.711 1070.66 2563
-901.582 1070.66 2563
-896.851 1072.33 2567
-890.712 1072.33 2567
-886.986 1075.26 2574
-880.831 1075.26 2574
-874.675 1075.26 2574
-868.52 1075.26 2574
-862.365 1075.26 2574
-855.212 1074.01 2571
-847.743 1072.33 2567
-843.899 1075.26 2574
-837.744 1075.26 2574
-831.589 1075.26 2574
-823.189 1072.33 2567
-814.504 1068.99 2559
-808.385 1068.99 2559
-799.757 1065.65 2551
-792.413 1063.98 2547
-787.557 1065.65 2551
-781.457 1065.65 2551
-775.356 1065.65 2551
-769.256 1065.65 2551
-763.156 1065.65 2551
-757.056 1065.65 2551
-750.956 1065.65 2551
-742.519 1062.31 2543
-735.28 1060.64 2539
-729.208 1060.64 2539
-723.137 1060.64 2539
-715.936 1058.97 2535
-709.874 1058.97 2535
-703.812 1058.97 2535
-698.851 1060.64 2539
-692.779 1060.64 2539
-686.708 1060.64 2539
-681.709 1062.31 2543
-675.628 1062.31 2543
-669.546 1062.31 2543
-663.465 1062.31 2543
-657.384 1062.31 2543
-651.303 1062.31 2543
-644.207 1060.64 2539
-638.136 1060.64 2539
-632.064 1060.64 2539
-626.979 1062.31 2543
-620.898 1062.31 2543
-614.817 1062.31 2543
-610.651 1065.65 2551
-605.498 1067.32 2555
-599.389 1067.32 2555
-595.136 1070.66 2563
-589.008 1070.66 2563
-584.698 1074.01 2571
-578.55 1074.01 2571
-572.402 1074.01 2571
-566.254 1074.01 2571
-560.106 1074.01 2571
-553.958 1074.01 2571
-546.105 1070.66 2563
-539.976 1070.66 2563
-534.68 1072.33 2567
-528.542 1072.33 2567
-522.404 1072.33 2567
-516.265 1072.33 2567
-510.127 1072.33 2567
-503.203 1070.66 2563
-497.074 1070.66 2563
-492.477 1074.01 2571
-487.653 1076.93 2578
-481.489 1076.93 2578
-475.324 1076.93 2578
-469.159 1076.93 2578
-462.994 1076.93 2578
-456.83 1076.93 2578
-450.665 1076.93 2578
-444.5 1076.93 2578
-439.695 1080.27 2586
-433.512 1080.27 2586
-427.328 1080.27 2586
-423.261 1085.7 2599
-418.971 1090.72 2611
-412.728 1090.72 2611
-406.484 1090.72 2611
-400.24 1090.72 2611
-394.6 1092.39 2615
-390.129 1097.4 2627
-383.847 1097.4 2627
-377.565 1097.4 2627
-371.283 1097.4 2627
-365.001 1097.4 2627
-358.719 1097.4 2627
-352.437 1097.4 2627
-345.628 1095.73 2623
-339.873 1097.4 2627
-333.591 1097.4 2627
-327.808 1099.07 2631
-321.516 1099.07 2631
-315.225 1099.07 2631
-308.464 1097.4 2627
-300.341 1090.72 2611
-293.196 1087.37 2603
-287.854 1090.72 2611
-281.61 1090.72 2611
-275.788 1092.39 2615
-269.535 1092.39 2615
-263.282 1092.39 2615
-256.635 1090.72 2611
-250.392 1090.72 2611
-244.148 1090.72 2611
-237.904 1090.72 2611
-231.661 1090.72 2611
-225.417 1090.72 2611
-219.173 1090.72 2611
-212.93 1090.72 2611
-206.686 1090.72 2611
-200.442 1090.72 2611
-194.199 1090.72 2611
-187.955 1090.72 2611
-182.268 1094.06 2619
-176.005 1094.06 2619
-169.742 1094.06 2619
-162.73 1089.04 2607
-156.496 1089.04 2607
-149.282 1081.94 2590
-142.868 1080.27 2586
-117.077 969.153 2320
-111.529 969.153 2320
-105.981 969.153 2320
-93.7401 957.457 2292
-88.2592 957.457 2292
-82.7784 957.457 2292
-77.1626 955.786 2288
-71.3153 950.773 2276
-65.8727 950.773 2276
-60.0318 944.507 2261
-54.5284 942.836 2257
-49.0006 940.33 2251
-43.6178 940.33 2251
-38.235 940.33 2251
-32.7646 937.823 2245
-27.3961 937.823 2245
-21.9394 934.063 2236
-16.5924 934.063 2236
-11.2454 934.063 2236
-5.89057 932.81 2233
-0.549315 930.304 2227
4.78898 932.81 2233
10.1288 932.81 2233
15.4685 932.81 2233
20.8363 934.063 2236
26.1832 934.063 2236
31.5302 934.063 2236
36.8771 934.063 2236
42.1674 932.81 2233
47.571 934.063 2236
52.918 934.063 2236
58.265 934.063 2236
63.7826 936.57 2242
69.2364 937.823 2245
74.7046 939.076 2248
80.0802 939.076 2248
85.5699 940.33 2251
91.074 941.583 2254
96.5924 942.836 2257
101.99 942.836 2257
107.577 944.507 2261
113.284 947.013 2267
118.705 947.013 2267
124.126 947.013 2267
129.547 947.013 2267
134.968 947.013 2267
140.761 949.52 2273
146.196 949.52 2273
152.232 953.279 2282
157.896 954.533 2285
163.861 957.457 2292
169.342 957.457 2292
175.509 961.216 2301
181.247 962.47 2304
187.324 965.394 2311
192.851 965.394 2311
198.892 967.9 2317
204.962 970.407 2323
217.223 1001.32 2397
222.955 1001.32 2397
232.026 1015.94 2432
239.895 1024.71 2453
248.767 1037.24 2483
254.705 1037.24 2483
262.112 1043.09 2497
270.552 1052.7 2520
278.225 1058.97 2535
284.287 1058.97 2535
291.723 1063.98 2547
298.749 1067.32 2555
304.859 1067.32 2555
310.969 1067.32 2555
318.568 1072.33 2567
326.097 1076.93 2578
332.262 1076.93 2578
338.427 1076.93 2578
344.592 1076.93 2578
349.804 1074.01 2571
362.598 1094.06 2619
368.861 1094.06 2619
375.696 1095.73 2623
381.969 1095.73 2623
388.241 1095.73 2623
394.513 1095.73 2623
393.299 1075.26 2574
399.454 1075.26 2574
405.609 1075.26 2574
411.764 1075.26 2574
417.92 1075.26 2574
424.075 1075.26 2574
430.23 1075.26 2574
435.199 1072.33 2567
441.337 1072.33 2567
446.778 1070.66 2563
452.907 1070.66 2563
459.036 1070.66 2563
465.165 1070.66 2563
469.823 1067.32 2555
475.187 1065.65 2551
481.288 1065.65 2551
487.388 1065.65 2551
494.262 1067.32 2555
501.155 1068.99 2559
508.86 1072.33 2567
514.999 1072.33 2567
521.949 1074.01 2571
529.535 1076.93 2578
535.7 1076.93 2578
541.865 1076.93 2578
549.73 1080.27 2586
555.914 1080.27 2586
562.098 1080.27 2586
567.403 1078.6 2582
573.577 1078.6 2582
579.752 1078.6 2582
585.926 1078.6 2582
590.266 1075.26 2574
594.799 1072.33 2567
600.001 1070.66 2563
608.022 1074.01 2571
614.17 1074.01 2571
620.318 1074.01 2571
625.491 1072.33 2567
631.63 1072.33 2567
637.768 1072.33 2567
640.897 1067.32 2555
644.981 1063.98 2547
652.094 1065.65 2551
659.226 1067.32 2555
665.336 1067.32 2555
671.445 1067.32 2555
678.616 1068.99 2559
688.749 1075.26 2574
694.904 1075.26 2574
702.149 1076.93 2578
710.512 1080.27 2586
717.804 1081.94 2590
723.998 1081.94 2590
732.729 1085.7 2599
740.081 1087.37 2603
747.452 1089.04 2607
757.156 1094.06 2619
763.418 1094.06 2619
772.032 1097.4 2627
782.166 1102.83 2640
790.868 1106.17 2648
797.2 1106.17 2648
803.533 1106.17 2648
809.865 1106.17 2648
816.197 1106.17 2648
820.044 1102.83 2640
826.357 1102.83 2640
837.717 1109.51 2656
844.068 1109.51 2656
850.419 1109.51 2656
854.19 1106.17 2648
856.297 1100.74 2635
862.599 1100.74 2635
866.262 1097.4 2627
871.215 1095.73 2623
878.826 1097.4 2627
887.803 1100.74 2635
894.104 1100.74 2635
903.48 1104.5 2644
909.803 1104.5 2644
916.126 1104.5 2644
917.913 1099.07 2631
914.369 1087.37 2603
919.178 1085.7 2599
919.34 1078.6 2582
925.515 1078.6 2582
931.689 1078.6 2582
939.316 1080.27 2586
948.425 1083.61 2594
957.94 1087.37 2603
964.165 1087.37 2603
974.863 1092.39 2615
982.617 1094.06 2619
988.88 1094.06 2619
995.143 1094.06 2619
1001.41 1094.06 2619
1007.67 1094.06 2619
1025.16 1106.17 2648
1031.49 1106.17 2648
1037.82 1106.17 2648
1044.16 1106.17 2648
1050.49 1106.17 2648
1048.44 1097.4 2627
1039.86 1081.94 2590
1052.92 1089.04 2607
1059.16 1089.04 2607
1065.39 1089.04 2607
1071.63 1089.04 2607
1081.17 1092.39 2615
1087.42 1092.39 2615
1093.68 1092.39 2615
1099.93 1092.39 2615
1097.3 1083.61 2594
1096.69 1076.93 2578
1102.86 1076.93 2578
1107.3 1075.26 2574
1112.16 1074.01 2571
1118.31 1074.01 2571
1124.46 1074.01 2571
1131.92 1075.26 2574
1138.08 1075.26 2574
1149.57 1080.27 2586
1159.33 1083.61 2594
1174.97 1092.39 2615
1181.22 1092.39 2615
1200.64 1104.5 2644
1208.79 1106.17 2648
1215.12 1106.17 2648
1221.46 1106.17 2648
1227.79 1106.17 2648
1228.06 1100.74 2635
1234.36 1100.74 2635
1240.66 1100.74 2635
1246.96 1100.74 2635
1249.46 1097.4 2627
1255.74 1097.4 2627
1260.1 1095.73 2623
1266.38 1095.73 2623
1272.65 1095.73 2623
1289.16 1104.5 2644
1295.48 1104.5 2644
1301.8 1104.5 2644
1297.74 1095.73 2623
1300.03 1092.39 2615
1306.29 1092.39 2615
1299.99 1081.94 2590
1298.12 1075.26 2574
1298.7 1070.66 2563
1304.83 1070.66 2563
1304.82 1065.65 2551
1306.81 1062.31 2543
1307.21 1057.71 2532
1316.89 1060.64 2539
1322.96 1060.64 2539
1331.13 1062.31 2543
1349.83 1072.33 2567
1377.1 1089.04 2607
1383.33 1089.04 2607
1400.23 1097.4 2627
1406.51 1097.4 2627
1412.79 1097.4 2627
1410.43 1090.72 2611
1416.67 1090.72 2611
1425.1 1092.39 2615
1435.73 1095.73 2623
1446.4 1099.07 2631
1452.69 1099.07 2631
1463.97 1102.83 2640
1470.29 1102.83 2640
1476.6 1102.83 2640
1482.91 1102.83 2640
1489.23 1102.83 2640
1497.81 1104.5 2644
1504.13 1104.5 2644
1510.45 1104.5 2644
1519.07 1106.17 2648
1525.4 1106.17 2648
1531.73 1106.17 2648
1528.19 1099.07 2631
1527.48 1094.06 2619
1524.38 1087.37 2603
1530.6 1087.37 2603
1536.82 1087.37 2603
1540.68 1085.7 2599
1541.54 1081.94 2590
1538.17 1075.26 2574
1544.32 1075.26 2574
1550.48 1075.26 2574
1554.82 1074.01 2571
1567.65 1078.6 2582
1576.26 1080.27 2586
1582.44 1080.27 2586
1591.08 1081.94 2590
1605.29 1087.37 2603
1611.52 1087.37 2603
1617.74 1087.37 2603
1623.97 1087.37 2603
1630.19 1087.37 2603
1633.9 1085.7 2599
1640.12 1085.7 2599
1643.17 1083.61 2594
1649.37 1083.61 2594
1650.47 1080.27 2586
1656.65 1080.27 2586
1642.9 1067.32 2555
1654.17 1070.66 2563
1667.43 1075.26 2574
1673.58 1075.26 2574
1679.74 1075.26 2574
1685.89 1075.26 2574
1692.05 1075.26 2574
1698.2 1075.26 2574
1702.37 1074.01 2571
1703.2 1070.66 2563
1704 1067.32 2555
1707.43 1065.65 2551
1713.53 1065.65 2551
1716.93 1063.98 2547
1717.61 1060.64 2539
1716.22 1056.04 2528
1722.26 1056.04 2528
1725.57 1054.37 2524
1731.61 1054.37 2524
1747.97 1060.64 2539
1780.99 1076.93 2578
1787.15 1076.93 2578
1793.31 1076.93 2578
1799.48 1076.93 2578
1805.64 1076.93 2578
1804.08 1072.33 2567
1807.4 1070.66 2563
1805.03 1065.65 2551
1797.64 1057.71 2532
1803.7 1057.71 2532
1806.9 1056.04 2528
1812.94 1056.04 2528
1717.53 997.142 2387
1723.24 997.142 2387
1728.95 997.142 2387
1820.07 1029.31 2464
1850.42 1043.09 2497
1856.39 1043.09 2497
1862.36 1043.09 2497
1871.33 1044.76 2501
1877.31 1044.76 2501
1883.29 1044.76 2501
1889.27 1044.76 2501
1942.23 1070.66 2563
1948.36 1070.66 2563
1954.49 1070.66 2563
1960.62 1070.66 2563
-1831.38 1027.65 2446
-1825.53 1027.65 2446
-1822.66 1029.33 2450
-1816.8 1029.33 2450
-1810.94 1029.33 2450
-1818.34 1036.89 2468
-1812.44 1036.89 2468
-1806.54 1036.89 2468
-1792.61 1032.27 2457
-1781.65 1029.33 2450
-1783.76 1033.95 2461
-1798.83 1046.13 2490
-1792.87 1046.13 2490
-1786.92 1046.13 2490
-1767.37 1038.15 2471
-1761.46 1038.15 2471
-1735.66 1026.39 2443
-1729.82 1026.39 2443
-1723.98 1026.39 2443
-1718.14 1026.39 2443
-1644.31 985.635 2346
-1648.48 991.516 2360
-1720.1 1038.15 2471
-1719.74 1041.51 2479
-1713.82 1041.51 2479
-1707.89 1041.51 2479
-1699.21 1039.83 2475
-1693.29 1039.83 2475
-1684.65 1038.15 2471
-1669.23 1032.27 2457
-1658.61 1029.33 2450
-1652.76 1029.33 2450
-1634.8 1021.77 2432
-1628.98 1021.77 2432
-1623.17 1021.77 2432
-1617.35 1021.77 2432
-1611.53 1021.77 2432
-1629.49 1036.89 2468
-1623.59 1036.89 2468
-1617.68 1036.89 2468
-1611.78 1036.89 2468
-1605.88 1036.89 2468
-1599.98 1036.89 2468
-1594.08 1036.89 2468
-1583.67 1033.95 2461
-1566.25 1026.39 2443
-1555.29 1023.03 2435
-1549.47 1023.03 2435
-1532.87 1015.88 2418
-1515.72 1008.32 2400
-1501.8 1002.86 2387
-1496.1 1002.86 2387
-1487.89 1001.18 2383
-1482.19 1001.18 2383
-1485.17 1007.06 2397
-1479.44 1007.06 2397
-1473.7 1007.06 2397
-1476.55 1012.94 2411
-1470.78 1012.94 2411
-1466.84 1014.2 2414
-1461.06 1014.2 2414
-1455.29 1014.2 2414
-1449.52 1014.2 2414
-1452.12 1020.09 2428
-1446.31 1020.09 2428
-1451.19 1027.65 2446
-1447.7 1029.33 2450
-1450.08 1035.21 2464
-1444.19 1035.21 2464
-1444.72 1039.83 2475
-1451.59 1049.07 2497
-1456.62 1057.06 2516
-1450.6 1057.06 2516
-1462.38 1070.08 2547
-1456.29 1070.08 2547
-1450.2 1070.08 2547
-1444.11 1070.08 2547
-1433.5 1066.72 2539
-1423.5 1063.78 2532
-1417.44 1063.78 2532
-1409.16 1062.1 2528
-1407 1065.04 2535
-1409.78 1071.76 2551
-1412.48 1078.48 2567
-1406.34 1078.48 2567
-1400.21 1078.48 2567
-1394.07 1078.48 2567
-1387.93 1078.48 2567
-1381.79 1078.48 2567
-1371.36 1075.12 2559
-1365.25 1075.12 2559
-1359.13 1075.12 2559
-1353.01 1075.12 2559
-1254.03 1084.79 2582
-1253.65 1089.83 2594
-1247.45 1089.83 2594
-1241.25 1089.83 2594
-1229.33 1084.79 2582
-1217.95 1080.16 2571
-1211.8 1080.16 2571
-1194.4 1070.08 2547
-1188.3 1070.08 2547
-1173.4 1062.1 2528
-1167.35 1062.1 2528
-1159.47 1060.42 2524
-1147.95 1055.38 2512
-1140.58 1054.12 2509
-1134.58 1054.12 2509
-1128.58 1054.12 2509
-1125.71 1057.06 2516
-1119.69 1057.06 2516
-1113.68 1057.06 2516
-1107.66 1057.06 2516
-1101.64 1057.06 2516
-1095.63 1057.06 2516
-1089.61 1057.06 2516
-1083.59 1057.06 2516
-1077.58 1057.06 2516
-1069.86 1055.38 2512
-1063.85 1055.38 2512
-1054.9 1052.44 2505
-1045.56 1049.07 2497
-1035 1044.45 2486
-1029.06 1044.45 2486
-1020.23 1041.51 2479
-1009.81 1036.89 2468
-996.582 1029.33 2450
-983.445 1021.77 2432
-977.629 1021.77 2432
-971.813 1021.77 2432
-965.998 1021.77 2432
-962.946 1024.71 2439
-971.24 1039.83 2475
-965.322 1039.83 2475
-966.769 1047.81 2494
-961.96 1049.07 2497
-955.989 1049.07 2497
-950.018 1049.07 2497
-935.73 1039.83 2475
-929.811 1039.83 2475
-933.598 1050.76 2501
-927.617 1050.76 2501
-927.164 1057.06 2516
-925.541 1062.1 2528
-919.496 1062.1 2528
-913.451 1062.1 2528
-908.841 1063.78 2532
-908.135 1070.08 2547
-903.461 1071.76 2551
-897.361 1071.76 2551
-892.658 1073.44 2555
-889.324 1076.8 2563
-883.195 1076.8 2563
-877.066 1076.8 2563
-872.297 1078.48 2567
-866.158 1078.48 2567
-860.02 1078.48 2567
-851.22 1075.12 2559
-845.101 1075.12 2559
-840.293 1076.8 2563
-834.164 1076.8 2563
-828.035 1076.8 2563
-819.341 1073.44 2555
-811.958 1071.76 2551
-805.857 1071.76 2551
-797.249 1068.4 2543
-788.679 1065.04 2535
-781.691 1063.78 2532
-775.636 1063.78 2532
-769.582 1063.78 2532
-763.527 1063.78 2532
-757.472 1063.78 2532
-751.417 1063.78 2532
-745.362 1063.78 2532
-738.14 1062.1 2528
-729.778 1058.74 2520
-723.752 1058.74 2520
-717.726 1058.74 2520
-710.57 1057.06 2516
-704.553 1057.06 2516
-699.647 1058.74 2520
-695.823 1062.1 2528
-689.778 1062.1 2528
-683.733 1062.1 2528
-680.636 1066.72 2539
-674.565 1066.72 2539
-668.493 1066.72 2539
-662.422 1066.72 2539
-655.316 1065.04 2535
-649.254 1065.04 2535
-642.431 1063.78 2532
-635.371 1062.1 2528
-629.326 1062.1 2528
-623.281 1062.1 2528
-617.235 1062.1 2528
-613.85 1066.72 2539
-607.778 1066.72 2539
-601.707 1066.72 2539
-595.635 1066.72 2539
-589.564 1066.72 2539
-583.492 1066.72 2539
-577.421 1066.72 2539
-571.349 1066.72 2539
-564.387 1065.04 2535
-558.325 1065.04 2535
-552.263 1065.04 2535
-546.201 1065.04 2535
-539.5 1063.78 2532
-533.445 1063.78 2532
-528.015 1065.04 2535
-521.953 1065.04 2535
-515.891 1065.04 2535
-509.829 1065.04 2535
-504.562 1066.72 2539
-498.491 1066.72 2539
-492.419 1066.72 2539
-486.348 1066.72 2539
-480.276 1066.72 2539
-474.205 1066.72 2539
-468.133 1066.72 2539
-461.334 1065.04 2535
-455.272 1065.04 2535
-449.21 1065.04 2535
-443.148 1065.04 2535
-439.845 1071.76 2551
-434.425 1073.44 2555
-428.985 1075.12 2559
-422.866 1075.12 2559
-418.701 1080.16 2571
-414.96 1086.47 2586
-408.776 1086.47 2586
-402.592 1086.47 2586
-396.408 1086.47 2586
-390.828 1088.15 2590
-387.159 1095.29 2607
-380.925 1095.29 2607
-375.266 1096.97 2611
-369.587 1098.65 2615
-363.334 1098.65 2615
-357.081 1098.65 2615
-350.291 1096.97 2611
-344.047 1096.97 2611
-338.838 1100.33 2619
-332.576 1100.33 2619
-326.811 1102.01 2623
-320.539 1102.01 2623
-314.266 1102.01 2623
-306.115 1095.29 2607
-299.881 1095.29 2607
-292.746 1091.93 2599
-286.531 1091.93 2599
-280.316 1091.93 2599
-275.366 1096.97 2611
-269.123 1096.97 2611
-262.879 1096.97 2611
-256.242 1095.29 2607
-249.625 1093.61 2603
-243.4 1093.61 2603
-237.175 1093.61 2603
-230.951 1093.61 2603
-224.381 1091.93 2599
-218.166 1091.93 2599
-212.603 1095.29 2607
-206.369 1095.29 2607
-200.135 1095.29 2607
-193.901 1095.29 2607
-187.667 1095.29 2607
-182.268 1100.33 2619
-176.005 1100.33 2619
-169.742 1100.33 2619
-162.73 1095.29 2607
-156.496 1095.29 2607
-149.282 1088.15 2590
-142.039 1080.16 2571
-122.624 974.711 2320
-117.077 974.711 2320
-111.529 974.711 2320
-105.981 974.711 2320
-100.173 972.19 2314
-94.3536 969.249 2307
-88.8368 969.249 2307
-82.995 965.468 2298
-77.1626 961.267 2288
-71.3153 956.225 2276
-65.8727 956.225 2276
-60.0318 949.923 2261
-54.5284 948.243 2257
-49.0006 945.722 2251
-43.6178 945.722 2251
-38.235 945.722 2251
-32.7646 943.201 2245
-27.3961 943.201 2245
-21.9394 939.42 2236
-16.5924 939.42 2236
-11.2454 939.42 2236
-5.87475 935.639 2227
-0.549315 935.639 2227
4.77612 935.639 2227
10.1015 935.639 2227
15.4478 936.899 2230
20.8083 938.159 2233
26.1481 938.159 2233
31.4879 938.159 2233
36.7782 936.899 2230
42.0541 935.639 2227
47.3796 935.639 2227
52.705 935.639 2227
58.1868 938.159 2233
63.6119 939.42 2236
69.0514 940.68 2239
74.5052 941.941 2242
79.8665 941.941 2242
85.3419 943.201 2245
90.8315 944.461 2248
96.3356 945.722 2251
101.718 945.722 2251
107.244 946.982 2254
112.984 949.923 2261
118.548 951.184 2264
123.961 951.184 2264
129.375 951.184 2264
134.789 951.184 2264
140.203 951.184 2264
145.617 951.184 2264
151.631 954.965 2273
157.689 958.746 2282
163.36 960.006 2285
168.824 960.006 2285
175.051 964.208 2295
180.775 965.468 2298
186.757 967.989 2304
192.266 967.989 2304
198.634 972.19 2314
204.697 974.711 2320
215.682 999.919 2380
221.374 999.919 2380
230.309 1014.2 2414
239.895 1030.59 2453
248.767 1043.19 2483
254.705 1043.19 2483
261.797 1047.81 2494
268.942 1052.44 2505
277.017 1060.42 2524
283.053 1060.42 2524
290.005 1063.78 2532
296.41 1065.04 2535
302.472 1065.04 2535
308.534 1065.04 2535
316.086 1070.08 2547
323.694 1075.12 2559
329.813 1075.12 2559
335.933 1075.12 2559
342.052 1075.12 2559
349.804 1080.16 2571
360.936 1095.29 2607
367.17 1095.29 2607
375.123 1100.33 2619
381.386 1100.33 2619
387.649 1100.33 2619
392.709 1096.97 2611
391.618 1076.8 2563
395.264 1070.08 2547
401.355 1070.08 2547
407.445 1070.08 2547
413.536 1070.08 2547
419.627 1070.08 2547
425.717 1070.08 2547
433.164 1073.44 2555
439.274 1073.44 2555
445.384 1073.44 2555
450.08 1070.08 2547
456.17 1070.08 2547
461.535 1068.4 2543
466.145 1065.04 2535
471.648 1063.78 2532
477.703 1063.78 2532
483.758 1063.78 2532
491.941 1068.4 2543
498.022 1068.4 2543
506.481 1073.44 2555
512.591 1073.44 2555
519.513 1075.12 2559
528.097 1080.16 2571
534.245 1080.16 2571
540.393 1080.16 2571
548.029 1083.11 2578
554.194 1083.11 2578
560.359 1083.11 2578
566.524 1083.11 2578
571.8 1081.43 2574
577.955 1081.43 2574
584.11 1081.43 2574
588.66 1078.48 2567
593.872 1076.8 2563
600.001 1076.8 2563
608.022 1080.16 2571
614.17 1080.16 2571
620.318 1080.16 2571
625.491 1078.48 2567
631.63 1078.48 2567
637.768 1078.48 2567
640.897 1073.44 2555
644.981 1070.08 2547
652.094 1071.76 2551
659.226 1073.44 2555
665.336 1073.44 2555
671.445 1073.44 2555
678.616 1075.12 2559
686.876 1078.48 2567
693.015 1078.48 2567
701.06 1081.43 2574
709.413 1084.79 2582
717.804 1088.15 2590
723.998 1088.15 2590
730.191 1088.15 2590
738.944 1091.93 2599
747.452 1095.29 2607
754.843 1096.97 2611
761.086 1096.97 2611
772.032 1103.69 2627
778.314 1103.69 2627
789.674 1110.83 2644
795.996 1110.83 2644
802.319 1110.83 2644
807.418 1109.15 2640
813.731 1109.15 2640
818.491 1107.05 2635
823.54 1105.37 2631
831.093 1107.05 2635
837.394 1107.05 2635
843.695 1107.05 2635
849.996 1107.05 2635
848.498 1096.97 2611
854.742 1096.97 2611
857.029 1091.93 2599
861.583 1089.83 2594
869.458 1091.93 2599
877.021 1093.61 2603
883.246 1093.61 2603
889.47 1093.61 2603
895.695 1093.61 2603
898.801 1089.83 2594
905.004 1089.83 2594
903.128 1080.16 2571
907.861 1078.48 2567
912.575 1076.8 2563
918.704 1076.8 2563
924.833 1076.8 2563
930.962 1076.8 2563
941.113 1081.43 2574
947.268 1081.43 2574
953.423 1081.43 2574
962.561 1084.79 2582
971.737 1088.15 2590
977.93 1088.15 2590
984.124 1088.15 2590
990.317 1088.15 2590
1003.05 1095.29 2607
1025.16 1112.52 2648
1031.49 1112.52 2648
1037.82 1112.52 2648
1044.16 1112.52 2648
1050.49 1112.52 2648
1048.44 1103.69 2627
1036.65 1084.79 2582
1041.21 1083.11 2578
1049 1084.79 2582
1055.18 1084.79 2582
1061.35 1084.79 2582
1070.83 1088.15 2590
1077.03 1088.15 2590
1083.22 1088.15 2590
1089.41 1088.15 2590
1088.84 1081.43 2574
1092.02 1078.48 2567
1098.15 1078.48 2567
1100.85 1075.12 2559
1106.97 1075.12 2559
1114.83 1076.8 2563
1122.71 1078.48 2567
1130.61 1080.16 2571
1136.75 1080.16 2571
1146.01 1083.11 2578
1159.33 1089.83 2594
1173.17 1096.97 2611
1179.41 1096.97 2611
1200.64 1110.83 2644
1206.97 1110.83 2644
1213.29 1110.83 2644
1219.61 1110.83 2644
1224.08 1109.15 2640
1226.2 1105.37 2631
1232.49 1105.37 2631
1235.01 1102.01 2623
1241.29 1102.01 2623
1247.56 1102.01 2623
1253.83 1102.01 2623
1254.34 1096.97 2611
1262.51 1098.65 2615
1272.65 1102.01 2623
1289.16 1110.83 2644
1295.48 1110.83 2644
1301.8 1110.83 2644
1297.74 1102.01 2623
1300.03 1098.65 2615
1306.29 1098.65 2615
1299.99 1088.15 2590
1298.12 1081.43 2574
1298.7 1076.8 2563
1304.83 1076.8 2563
1304.82 1071.76 2551
1306.81 1068.4 2543
1307.21 1063.78 2532
1316.89 1066.72 2539
1322.96 1066.72 2539
1331.13 1068.4 2543
1349.83 1078.48 2567
1377.1 1095.29 2607
1383.33 1095.29 2607
1400.23 1103.69 2627
1406.51 1103.69 2627
1412.79 1103.69 2627
1410.43 1096.97 2611
1416.67 1096.97 2611
1425.1 1098.65 2615
1435.73 1102.01 2623
1446.4 1105.37 2631
1452.69 1105.37 2631
1463.97 1109.15 2640
1470.29 1109.15 2640
1476.6 1109.15 2640
1482.91 1109.15 2640
1489.23 1109.15 2640
1497.81 1110.83 2644
1504.13 1110.83 2644
1510.45 1110.83 2644
1519.07 1112.52 2648
1525.4 1112.52 2648
1531.73 1112.52 2648
1528.19 1105.37 2631
1527.48 1100.33 2619
1524.38 1093.61 2603
1530.6 1093.61 2603
1536.82 1093.61 2603
1540.68 1091.93 2599
1541.54 1088.15 2590
1538.17 1081.43 2574
1544.32 1081.43 2574
1550.48 1081.43 2574
1554.82 1080.16 2571
1567.65 1084.79 2582
1576.26 1086.47 2586
1582.44 1086.47 2586
1591.08 1088.15 2590
1605.29 1093.61 2603
1611.52 1093.61 2603
1617.74 1093.61 2603
1623.97 1093.61 2603
1630.19 1093.61 2603
1633.9 1091.93 2599
1640.12 1091.93 2599
1643.17 1089.83 2594
1649.37 1089.83 2594
1650.47 1086.47 2586
1656.65 1086.47 2586
1642.9 1073.44 2555
1654.17 1076.8 2563
1667.43 1081.43 2574
1673.58 1081.43 2574
1679.74 1081.43 2574
1685.89 1081.43 2574
1692.05 1081.43 2574
1698.2 1081.43 2574
1702.37 1080.16 2571
1703.2 1076.8 2563
1704 1073.44 2555
1707.43 1071.76 2551
1713.53 1071.76 2551
1716.93 1070.08 2547
1720.32 1068.4 2543
1716.22 1062.1 2528
1722.26 1062.1 2528
1725.57 1060.42 2524
1741.9 1066.72 2539
1758.99 1073.44 2555
1780.99 1083.11 2578
1787.15 1083.11 2578
1793.31 1083.11 2578
1799.48 1083.11 2578
1805.64 1083.11 2578
1809 1081.43 2574
1807.4 1076.8 2563
1805.03 1071.76 2551
1808.29 1070.08 2547
1814.39 1070.08 2547
1806.9 1062.1 2528
1812.94 1062.1 2528
1765.02 1030.59 2453
1770.89 1030.59 2453
1733.29 1005.38 2393
1734.66 1002.86 2387
1803.15 1032.27 2457
1809.03 1032.27 2457
1820.07 1035.21 2464
1850.42 1049.07 2497
1856.39 1049.07 2497
1862.36 1049.07 2497
1871.33 1050.76 2501
1877.31 1050.76 2501
1883.29 1050.76 2501
1889.27 1050.76 2501
1901.31 1054.12 2509
1948.36 1076.8 2563
1954.49 1076.8 2563
1960.62 1076.8 2563
-1826.14 1030.55 2439
-1820.31 1030.55 2439
-1822.66 1035.2 2450
-1816.8 1035.2 2450
-1810.94 1035.2 2450
-1815.4 1041.11 2464
-1809.5 1041.11 2464
-1803.61 1041.11 2464
-1784.59 1033.51 2446
-1778.74 1033.51 2446
-1762.74 1027.59 2432
-1764.87 1032.24 2443
-1759.03 1032.24 2443
-1753.19 1032.24 2443
-1739.48 1027.59 2432
-1733.66 1027.59 2432
-1727.85 1027.59 2432
-1709.29 1019.99 2414
-1703.51 1019.99 2414
-1697.74 1019.99 2414
-1647.11 992.945 2350
-1648.48 997.17 2360
-1713.14 1039.85 2461
-1707.26 1039.85 2461
-1701.37 1039.85 2461
-1702.38 1044.07 2471
-1696.47 1044.07 2471
-1690.56 1044.07 2471
-1682.6 1042.8 2468
-1657 1030.55 2439
-1646.43 1027.59 2432
-1640.61 1027.59 2432
-1627.4 1022.94 2421
-1621.61 1022.94 2421
-1615.82 1022.94 2421
-1617.35 1027.59 2432
-1611.53 1027.59 2432
-1626.85 1041.11 2464
-1623.59 1042.8 2468
-1617.68 1042.8 2468
-1611.78 1042.8 2468
-1605.88 1042.8 2468
-1599.98 1042.8 2468
-1594.08 1042.8 2468
-1583.67 1039.85 2461
-1566.25 1032.24 2443
-1555.29 1028.86 2435
-1549.47 1028.86 2435
-1532.87 1021.68 2418
-1515.72 1014.07 2400
-1501.8 1008.58 2387
-1496.1 1008.58 2387
-1487.89 1006.89 2383
-1482.19 1006.89 2383
-1485.17 1012.8 2397
-1479.44 1012.8 2397
-1473.7 1012.8 2397
-1476.55 1018.72 2411
-1470.78 1018.72 2411
-1466.84 1019.99 2414
-1461.06 1019.99 2414
-1455.29 1019.99 2414
-1449.52 1019.99 2414
-1452.12 1025.9 2428
-1446.31 1025.9 2428
-1442.88 1027.59 2432
-1443.57 1032.24 2443
-1437.72 1032.24 2443
-1431.88 1032.24 2443
-1438.3 1041.11 2464
-1438.8 1045.76 2475
-1445.62 1055.06 2497
-1439.65 1055.06 2497
-1455.49 1071.11 2535
-1449.43 1071.11 2535
-1443.37 1071.11 2535
-1437.31 1071.11 2535
-1429.55 1069.84 2532
-1414.5 1063.08 2516
-1408.49 1063.08 2516
-1400.24 1061.39 2512
-1405.33 1069.84 2532
-1403.15 1072.8 2539
-1412.48 1084.63 2567
-1406.34 1084.63 2567
-1400.21 1084.63 2567
-1389.72 1081.25 2559
-1383.6 1081.25 2559
-1373.18 1077.87 2551
-1367.08 1077.87 2551
-1365.25 1081.25 2559
-1359.13 1081.25 2559
-1353.01 1081.25 2559
-1246.74 1084.63 2567
-1247.85 1090.97 2582
-1241.68 1090.97 2582
-1235.51 1090.97 2582
-1212.67 1076.18 2547
-1188.58 1060.13 2509
-1182.58 1060.13 2509
-1176.58 1060.13 2509
-1163.58 1053.79 2494
-1148.79 1045.76 2475
-1142.88 1045.76 2475
-1135.12 1044.07 2471
-1124.64 1039.85 2461
-1116.94 1038.16 2457
-1111.06 1038.16 2457
-1105.19 1038.16 2457
-1101.1 1039.85 2461
-1101.45 1045.76 2475
-1099.07 1049.14 2483
-1093.13 1049.14 2483
-1087.19 1049.14 2483
-1086.05 1053.79 2494
-1080.08 1053.79 2494
-1074.12 1053.79 2494
-1069.44 1055.06 2497
-1063.47 1055.06 2497
-1057.5 1055.06 2497
-1051.53 1055.06 2497
-1039.69 1049.14 2483
-1030.43 1045.76 2475
-1024.51 1045.76 2475
-1012.83 1039.85 2461
-1002.44 1035.2 2450
-986.413 1024.63 2425
-976.166 1019.99 2414
-970.393 1019.99 2414
-963.422 1018.72 2411
-960.437 1021.68 2418
-960.182 1027.59 2432
-958.683 1032.24 2443
-952.841 1032.24 2443
-962.505 1049.14 2483
-959.264 1052.1 2490
-953.309 1052.1 2490
-947.355 1052.1 2490
-935.73 1045.76 2475
-929.811 1045.76 2475
-933.598 1056.75 2501
-927.617 1056.75 2501
-927.164 1063.08 2516
-925.541 1068.15 2528
-919.496 1068.15 2528
-913.451 1068.15 2528
-908.841 1069.84 2532
-908.135 1076.18 2547
-903.461 1077.87 2551
-897.361 1077.87 2551
-892.658 1079.56 2555
-889.324 1082.94 2563
-883.195 1082.94 2563
-877.066 1082.94 2563
-872.297 1084.63 2567
-866.158 1084.63 2567
-860.02 1084.63 2567
-851.22 1081.25 2559
-845.101 1081.25 2559
-840.293 1082.94 2563
-834.164 1082.94 2563
-828.035 1082.94 2563
-819.341 1079.56 2555
-811.958 1077.87 2551
-805.857 1077.87 2551
-797.249 1074.49 2543
-788.679 1071.11 2535
-781.691 1069.84 2532
-775.636 1069.84 2532
-769.582 1069.84 2532
-763.527 1069.84 2532
-757.472 1069.84 2532
-751.417 1069.84 2532
-745.362 1069.84 2532
-738.14 1068.15 2528
-729.778 1064.77 2520
-723.752 1064.77 2520
-717.726 1064.77 2520
-710.57 1063.08 2516
-704.553 1063.08 2516
-699.647 1064.77 2520
-695.823 1068.15 2528
-689.778 1068.15 2528
-683.733 1068.15 2528
-680.636 1072.8 2539
-674.565 1072.8 2539
-668.493 1072.8 2539
-662.422 1072.8 2539
-655.316 1071.11 2535
-649.254 1071.11 2535
-642.431 1069.84 2532
-635.371 1068.15 2528
-629.326 1068.15 2528
-623.281 1068.15 2528
-617.235 1068.15 2528
-613.85 1072.8 2539
-607.778 1072.8 2539
-601.707 1072.8 2539
-595.635 1072.8 2539
-589.564 1072.8 2539
-583.492 1072.8 2539
-577.421 1072.8 2539
-571.349 1072.8 2539
-564.387 1071.11 2535
-558.325 1071.11 2535
-552.263 1071.11 2535
-546.201 1071.11 2535
-539.5 1069.84 2532
-533.445 1069.84 2532
-528.015 1071.11 2535
-521.953 1071.11 2535
-515.891 1071.11 2535
-509.829 1071.11 2535
-504.562 1072.8 2539
-498.491 1072.8 2539
-492.419 1072.8 2539
-486.348 1072.8 2539
-480.276 1072.8 2539
-474.205 1072.8 2539
-468.133 1072.8 2539
-461.334 1071.11 2535
-455.272 1071.11 2535
-449.21 1071.11 2535
-443.148 1071.11 2535
-439.845 1077.87 2551
-434.425 1079.56 2555
-428.985 1081.25 2559
-422.866 1081.25 2559
-418.701 1086.32 2571
-414.96 1092.66 2586
-408.776 1092.66 2586
-402.592 1092.66 2586
-396.408 1092.66 2586
-390.828 1094.35 2590
-387.159 1101.53 2607
-380.925 1101.53 2607
-375.266 1103.22 2611
-369.587 1104.91 2615
-363.334 1104.91 2615
-357.081 1104.91 2615
-350.291 1103.22 2611
-344.047 1103.22 2611
-338.838 1106.6 2619
-332.576 1106.6 2619
-326.811 1108.3 2623
-320.539 1108.3 2623
-314.266 1108.3 2623
-306.115 1101.53 2607
-299.881 1101.53 2607
-292.746 1098.15 2599
-286.531 1098.15 2599
-280.316 1098.15 2599
-274.101 1098.15 2599
-267.371 1096.04 2594
-261.168 1096.04 2594
-254.964 1096.04 2594
-248.378 1094.35 2590
-242.184 1094.35 2590
-235.991 1094.35 2590
-229.797 1094.35 2590
-222.913 1090.97 2582
-217.41 1094.35 2590
-211.217 1094.35 2590
-205.34 1096.04 2594
-199.137 1096.04 2594
-192.934 1096.04 2594
-187.379 1099.84 2603
-181.433 1101.53 2607
-175.199 1101.53 2607
-168.964 1101.53 2607
-162.231 1098.15 2599
-156.016 1098.15 2599
-148.821 1090.97 2582
-141.376 1081.25 2559
-122.624 980.269 2320
-117.077 980.269 2320
-111.529 980.269 2320
-105.844 979.001 2317
-100.303 979.001 2317
-94.6399 977.733 2314
-89.1064 977.733 2314
-82.995 970.973 2298
-77.1626 966.748 2288
-71.3153 961.677 2276
-65.8727 961.677 2276
-60.0318 955.339 2261
-54.4559 952.382 2254
-48.87 948.579 2245
-43.5016 948.579 2245
-38.1331 948.579 2245
-32.7208 947.311 2242
-27.3595 947.311 2242
-21.9394 944.776 2236
-16.5924 944.776 2236
-11.2002 940.973 2227
-5.85892 938.438 2221
-0.546355 935.903 2215
4.75681 937.171 2218
10.0607 937.171 2218
15.3646 937.171 2218
20.7245 939.706 2224
26.0427 939.706 2224
31.361 939.706 2224
36.6792 939.706 2224
41.8275 935.903 2215
47.1243 935.903 2215
52.3737 935.058 2213
57.6656 935.058 2213
63.0145 935.903 2215
68.4037 937.171 2218
73.7076 937.171 2218
79.0116 937.171 2218
84.7716 942.241 2230
90.1042 942.241 2230
95.6936 944.776 2236
101.041 944.776 2236
106.388 944.776 2236
111.884 946.044 2239
117.553 948.579 2245
122.921 948.579 2245
128.29 948.579 2245
133.658 948.579 2245
139.027 948.579 2245
144.395 948.579 2245
150.831 955.339 2261
157.067 960.41 2273
162.502 960.41 2273
167.938 960.41 2273
174.288 965.48 2285
179.989 966.748 2288
186.027 969.705 2295
191.515 969.705 2295
197.776 973.508 2304
204.697 980.269 2320
214.142 998.437 2363
219.792 998.437 2363
228.973 1014.07 2400
236.473 1021.68 2418
245.761 1036.47 2453
251.627 1036.47 2453
259.802 1045.76 2475
266.902 1050.41 2486
274.493 1056.75 2501
280.474 1056.75 2501
286.912 1058.44 2505
293.721 1061.39 2512
300.683 1064.77 2520
306.709 1064.77 2520
314.596 1071.11 2535
321.164 1072.8 2539
327.236 1072.8 2539
333.307 1072.8 2539
339.379 1072.8 2539
345.45 1072.8 2539
359.829 1098.15 2599
366.044 1098.15 2599
373.978 1103.22 2611
380.221 1103.22 2611
386.465 1103.22 2611
392.107 1101.53 2607
385.048 1064.77 2520
391.695 1066.46 2524
398.361 1068.15 2528
404.406 1068.15 2528
410.451 1068.15 2528
418.309 1072.8 2539
425.049 1074.49 2543
431.13 1074.49 2543
437.211 1074.49 2543
443.292 1074.49 2543
447.959 1071.11 2535
454.021 1071.11 2535
459.539 1069.84 2532
464.122 1066.46 2524
468.668 1063.08 2516
475.439 1064.77 2520
481.465 1064.77 2520
487.491 1064.77 2520
495.084 1068.15 2528
504.103 1074.49 2543
510.184 1074.49 2543
517.889 1077.87 2551
525.632 1081.25 2559
531.752 1081.25 2559
537.871 1081.25 2559
544.841 1082.94 2563
551.83 1084.63 2567
557.968 1084.63 2567
564.107 1084.63 2567
570.245 1084.63 2567
576.383 1084.63 2567
582.522 1084.63 2567
587.743 1082.94 2563
592.945 1081.25 2559
600.001 1082.94 2563
607.076 1084.63 2567
613.214 1084.63 2567
619.353 1084.63 2567
625.491 1084.63 2567
629.661 1081.25 2559
635.781 1081.25 2559
640.897 1079.56 2555
644.981 1076.18 2547
651.071 1076.18 2547
658.194 1077.87 2551
664.294 1077.87 2551
671.445 1079.56 2555
677.555 1079.56 2555
685.806 1082.94 2563
691.935 1082.94 2563
699.153 1084.63 2567
707.215 1087.59 2574
714.479 1089.28 2578
720.643 1089.28 2578
726.808 1089.28 2578
735.247 1092.66 2586
742.578 1094.35 2590
752.53 1099.84 2603
758.755 1099.84 2603
767.33 1103.22 2611
777.129 1108.3 2623
784.596 1109.99 2627
790.878 1109.99 2627
797.16 1109.99 2627
803.442 1109.99 2627
809.724 1109.99 2627
816.006 1109.99 2627
821.036 1108.3 2623
824.785 1104.91 2615
831.038 1104.91 2615
834.73 1101.53 2607
839.674 1099.84 2603
840.374 1092.66 2586
846.558 1092.66 2586
848.785 1087.59 2574
856.268 1089.28 2578
863.771 1090.97 2582
869.946 1090.97 2582
876.12 1090.97 2582
882.294 1090.97 2582
888.469 1090.97 2582
889.446 1084.63 2567
895.584 1084.63 2567
896.102 1077.87 2551
895.483 1069.84 2532
901.538 1069.84 2532
907.592 1069.84 2532
913.647 1069.84 2532
925.15 1076.18 2547
934.166 1079.56 2555
944.692 1084.63 2567
950.83 1084.63 2567
958.46 1086.32 2571
964.608 1086.32 2571
976.42 1092.66 2586
982.604 1092.66 2586
988.788 1092.66 2586
994.972 1092.66 2586
1025.16 1118.86 2648
1031.49 1118.86 2648
1037.82 1118.86 2648
1044.16 1118.86 2648
1050.49 1118.86 2648
1048.44 1109.99 2627
1030.63 1084.63 2567
1038.38 1086.32 2571
1047.38 1089.28 2578
1053.54 1089.28 2578
1059.71 1089.28 2578
1067.52 1090.97 2582
1073.7 1090.97 2582
1079.87 1090.97 2582
1086.05 1090.97 2582
1085.88 1084.63 2567
1090.31 1082.94 2563
1096.44 1082.94 2563
1100.85 1081.25 2559
1106.97 1081.25 2559
1113.09 1081.25 2559
1120.96 1082.94 2563
1130.61 1086.32 2571
1136.75 1086.32 2571
1146.01 1089.28 2578
1157.54 1094.35 2590
1171.37 1101.53 2607
1177.61 1101.53 2607
1198.83 1115.48 2640
1205.14 1115.48 2640
1211.45 1115.48 2640
1217.77 1115.48 2640
1219.91 1111.68 2631
1224.33 1109.99 2627
1230.61 1109.99 2627
1233.13 1106.6 2619
1237.5 1104.91 2615
1243.75 1104.91 2615
1250.01 1104.91 2615
1252.42 1101.53 2607
1256.72 1099.84 2603
1266.83 1103.22 2611
1275.02 1104.91 2615
1281.27 1104.91 2615
1287.53 1104.91 2615
1291.8 1103.22 2611
1287.6 1094.35 2590
1293.8 1094.35 2590
1291.96 1087.59 2574
1292.57 1082.94 2563
1292.62 1077.87 2551
1298.72 1077.87 2551
1300.72 1074.49 2543
1304.75 1072.8 2539
1305.14 1068.15 2528
1311.19 1068.15 2528
1317.23 1068.15 2528
1329.04 1072.8 2539
1339.31 1076.18 2547
1355.97 1084.63 2567
1379.09 1098.15 2599
1385.3 1098.15 2599
1391.52 1098.15 2599
1397.73 1098.15 2599
1403.95 1098.15 2599
1398.77 1089.28 2578
1407.11 1090.97 2582
1413.29 1090.97 2582
1433.21 1101.53 2607
1439.44 1101.53 2607
1445.67 1101.53 2607
1451.91 1101.53 2607
1458.14 1101.53 2607
1459.88 1098.15 2599
1470.61 1101.53 2607
1476.85 1101.53 2607
1483.08 1101.53 2607
1489.31 1101.53 2607
1495.55 1101.53 2607
1501.78 1101.53 2607
1508.02 1101.53 2607
1509.6 1098.15 2599
1512.9 1096.04 2594
1516.76 1094.35 2590
1515.9 1089.28 2578
1522.06 1089.28 2578
1525.86 1087.59 2574
1532.01 1087.59 2574
1536.38 1086.32 2571
1542.52 1086.32 2571
1546.26 1084.63 2567
1552.4 1084.63 2567
1567.65 1090.97 2582
1573.82 1090.97 2582
1580 1090.97 2582
1586.17 1090.97 2582
1597.28 1094.35 2590
1603.47 1094.35 2590
1609.66 1094.35 2590
1615.86 1094.35 2590
1624.56 1096.04 2594
1630.76 1096.04 2594
1636.96 1096.04 2594
1640.63 1094.35 2590
1644.28 1092.66 2586
1647.91 1090.97 2582
1654.09 1090.97 2582
1642.9 1079.56 2555
1654.17 1082.94 2563
1665.48 1086.32 2571
1671.63 1086.32 2571
1677.78 1086.32 2571
1683.93 1086.32 2571
1687.45 1084.63 2567
1693.59 1084.63 2567
1697.08 1082.94 2563
1703.2 1082.94 2563
1704 1079.56 2555
1704.75 1076.18 2547
1710.84 1076.18 2547
1714.24 1074.49 2543
1720.32 1074.49 2543
1716.22 1068.15 2528
1722.26 1068.15 2528
1725.57 1066.46 2524
1741.9 1072.8 2539
1758.99 1079.56 2555
1780.99 1089.28 2578
1787.15 1089.28 2578
1793.31 1089.28 2578
1799.48 1089.28 2578
1805.64 1089.28 2578
1809 1087.59 2574
1810.22 1084.63 2567
1813.53 1082.94 2563
1811.13 1077.87 2551
1817.23 1077.87 2551
1809.75 1069.84 2532
1812.94 1068.15 2528
1765.02 1036.47 2453
1770.89 1036.47 2453
1733.29 1011.11 2393
1734.66 1008.58 2387
1803.15 1038.16 2457
1809.03 1038.16 2457
1820.07 1041.11 2464
1848.2 1053.79 2494
1854.16 1053.79 2494
1860.12 1053.79 2494
1871.33 1056.75 2501
1877.31 1056.75 2501
1883.29 1056.75 2501
1889.27 1056.75 2501
1901.31 1060.13 2509
1948.36 1082.94 2563
1954.49 1082.94 2563
1960.62 1082.94 2563
-1810.42 1027.47 2418
-1804.63 1027.47 2418
-1817.45 1038.09 2443
-1819.02 1042.34 2453
-1813.16 1042.34 2453
-1815.4 1047.02 2464
-1817.58 1051.69 2475
-1811.66 1051.69 2475
-1805.75 1051.69 2475
-1799.83 1051.69 2475
-1754.77 1028.74 2421
-1748.98 1028.74 2421
-1743.19 1028.74 2421
-1720.18 1018.55 2397
-1699.43 1009.62 2376
-1693.74 1009.62 2376
-1683.8 1007.07 2370
-1675.3 1005.37 2366
-1669.64 1005.37 2366
-1663.98 1005.37 2366
-1647.11 998.574 2350
-1643.59 999.849 2353
-1647.01 1005.37 2366
-1660.08 1016.85 2393
-1654.36 1016.85 2393
-1648.64 1016.85 2393
-1642.92 1016.85 2393
-1637.19 1016.85 2393
-1631.47 1016.85 2393
-1621.67 1014.3 2387
-1613.26 1012.6 2383
-1617 1018.55 2397
-1611.27 1018.55 2397
-1616.93 1025.77 2414
-1613.82 1027.47 2418
-1610.04 1028.74 2421
-1604.25 1028.74 2421
-1619.58 1042.34 2453
-1618.98 1045.74 2461
-1615.06 1047.02 2464
-1609.17 1047.02 2464
-1605.88 1048.72 2468
-1599.98 1048.72 2468
-1594.08 1048.72 2468
-1588.18 1048.72 2468
-1566.25 1038.09 2443
-1557.85 1036.39 2439
-1552.02 1036.39 2439
-1532.87 1027.47 2418
-1518.25 1021.52 2404
-1503.69 1015.57 2390
-1497.98 1015.57 2390
-1487.89 1012.6 2383
-1482.19 1012.6 2383
-1485.17 1018.55 2397
-1479.44 1018.55 2397
-1473.7 1018.55 2397
-1476.55 1024.49 2411
-1470.78 1024.49 2411
-1466.84 1025.77 2414
-1461.06 1025.77 2414
-1455.29 1025.77 2414
-1449.52 1025.77 2414
-1454.51 1033.42 2432
-1448.7 1033.42 2432
-1449.41 1038.09 2443
-1449.47 1042.34 2453
-1443.61 1042.34 2453
-1437.74 1042.34 2453
-1434.21 1044.04 2457
-1436.47 1049.99 2471
-1443.88 1059.76 2494
-1437.92 1059.76 2494
-1453.77 1075.91 2532
-1449.43 1077.19 2535
-1443.37 1077.19 2535
-1437.31 1077.19 2535
-1425.04 1072.51 2524
-1416.75 1070.81 2520
-1410.73 1070.81 2520
-1404.7 1070.81 2520
-1403.11 1074.21 2528
-1400.94 1077.19 2535
-1397.08 1078.88 2539
-1391 1078.88 2539
-1389.3 1082.28 2547
-1383.21 1082.28 2547
-1379.28 1083.98 2551
-1373.18 1083.98 2551
-1367.08 1083.98 2551
-1358.84 1082.28 2547
-1352.75 1082.28 2547
-1346.66 1082.28 2547
-1204 1053.39 2479
-1198.08 1053.39 2479
-1192.15 1053.39 2479
-1186.22 1053.39 2479
-1180.29 1053.39 2479
-1174.36 1053.39 2479
-1168.44 1053.39 2479
-1162.51 1053.39 2479
-1148.18 1045.74 2461
-1133.94 1038.09 2443
-1128.1 1038.09 2443
-1118.58 1034.69 2435
-1109.56 1031.72 2428
-1099.21 1027.47 2418
-1093.43 1027.47 2418
-1087.64 1027.47 2418
-1083.2 1028.74 2421
-1082.31 1033.42 2432
-1081.36 1038.09 2443
-1075.52 1038.09 2443
-1069.68 1038.09 2443
-1071.68 1045.74 2461
-1070.12 1049.99 2471
-1064.21 1049.99 2471
-1063.44 1055.09 2483
-1057.51 1055.09 2483
-1051.57 1055.09 2483
-1045.63 1055.09 2483
-1036.34 1051.69 2475
-1024.6 1045.74 2461
-1018.71 1045.74 2461
-1008.3 1041.07 2450
-993.439 1031.72 2428
-980.718 1024.49 2411
-973.335 1022.79 2407
-967.579 1022.79 2407
-960.625 1021.52 2404
-957.656 1024.49 2411
-955.839 1028.74 2421
-957.113 1036.39 2439
-951.281 1036.39 2439
-956.69 1048.72 2468
-956.567 1055.09 2483
-950.629 1055.09 2483
-944.692 1055.09 2483
-933.083 1048.72 2468
-928.308 1049.99 2471
-929.492 1058.06 2490
-923.538 1058.06 2490
-920.163 1061.04 2497
-918.585 1066.14 2509
-912.585 1066.14 2509
-906.586 1066.14 2509
-900.586 1066.14 2509
-898.508 1070.81 2520
-893.899 1072.51 2524
-887.863 1072.51 2524
-885.67 1077.19 2535
-880.996 1078.88 2539
-876.303 1080.58 2543
-870.222 1080.58 2543
-864.141 1080.58 2543
-856.71 1078.88 2539
-850.639 1078.88 2539
-844.567 1078.88 2539
-839.817 1080.58 2543
-835.047 1082.28 2547
-828.956 1082.28 2547
-822.866 1082.28 2547
-816.775 1082.28 2547
-808.138 1078.88 2539
-802.067 1078.88 2539
-792.547 1074.21 2528
-784.012 1070.81 2520
-779.221 1072.51 2524
-774.411 1074.21 2528
-768.366 1074.21 2528
-762.321 1074.21 2528
-756.275 1074.21 2528
-750.23 1074.21 2528
-744.185 1074.21 2528
-735.804 1070.81 2520
-727.461 1067.41 2512
-721.454 1067.41 2512
-715.447 1067.41 2512
-709.44 1067.41 2512
-703.433 1067.41 2512
-696.593 1066.14 2509
-692.52 1069.11 2516
-686.504 1069.11 2516
-681.569 1070.81 2520
-676.615 1072.51 2524
-670.58 1072.51 2524
-664.544 1072.51 2524
-658.508 1072.51 2524
-652.473 1072.51 2524
-646.437 1072.51 2524
-640.401 1072.51 2524
-634.366 1072.51 2524
-627.334 1070.81 2520
-621.308 1070.81 2520
-615.282 1070.81 2520
-611.19 1074.21 2528
-605.145 1074.21 2528
-600.048 1075.91 2532
-593.993 1075.91 2532
-588.635 1077.19 2535
-582.573 1077.19 2535
-576.511 1077.19 2535
-570.449 1077.19 2535
-564.387 1077.19 2535
-557.664 1075.91 2532
-551.609 1075.91 2532
-544.693 1074.21 2528
-537.795 1072.51 2524
-532.602 1074.21 2528
-527.39 1075.91 2532
-521.336 1075.91 2532
-515.281 1075.91 2532
-509.226 1075.91 2532
-503.171 1075.91 2532
-496.331 1074.21 2528
-491.643 1077.19 2535
-485.582 1077.19 2535
-479.52 1077.19 2535
-473.458 1077.19 2535
-467.396 1077.19 2535
-459.332 1072.51 2524
-453.296 1072.51 2524
-447.261 1072.51 2524
-441.225 1072.51 2524
-436.569 1075.91 2532
-431.704 1078.88 2539
-426.303 1080.58 2543
-420.222 1080.58 2543
-416.095 1085.68 2555
-411.269 1089.08 2563
-405.14 1089.08 2563
-399.011 1089.08 2563
-393.496 1090.78 2567
-387.961 1092.48 2571
-384.04 1098.86 2586
-377.856 1098.86 2586
-373.541 1104.38 2599
-367.326 1104.38 2599
-361.111 1104.38 2599
-354.896 1104.38 2599
-348.681 1104.38 2599
-342.466 1104.38 2599
-336.768 1106.08 2603
-330.544 1106.08 2603
-324.818 1107.78 2607
-318.584 1107.78 2607
-312.349 1107.78 2607
-305.646 1106.08 2603
-297.466 1098.86 2586
-290.831 1097.16 2582
-284.657 1097.16 2582
-278.482 1097.16 2582
-273.574 1102.26 2594
-267.371 1102.26 2594
-261.168 1102.26 2594
-254.964 1102.26 2594
