-1787.59 20.714 3627
-1778.91 20.714 3627
-1770.24 20.714 3627
-1761.57 20.714 3627
-1752.89 20.714 3627
-1744.22 20.714 3627
-1731.72 20.6683 3619
-1723.06 20.6683 3619
-1706.83 20.5769 3603
-1698.21 20.5769 3603
-1693.35 20.6226 3611
-1688.45 20.6683 3619
-1679.79 20.6683 3619
-1671.14 20.6683 3619
-1666.16 20.714 3627
-1657.49 20.714 3627
-1648.81 20.714 3627
-1640.14 20.714 3627
-1631.47 20.714 3627
-1622.79 20.714 3627
-1607 20.6226 3611
-1598.36 20.6226 3611
-1582.69 20.5312 3595
-1574.09 20.5312 3595
-1552.43 20.3599 3565
-1536.97 20.2685 3549
-1525.47 20.2285 3542
-1517 20.2285 3542
-1495.76 20.0572 3512
-1472.11 19.8516 3476
-1454.53 19.726 3454
-1446.28 19.726 3454
-1432.19 19.646 3440
-1418.17 19.566 3426
-1398.45 19.4061 3398
-1390.32 19.4061 3398
-1370.81 19.2462 3370
-1354.66 19.132 3350
-1327.76 18.8636 3303
-1289.49 18.4295 3227
-1281.77 18.4295 3227
-1266.56 18.321 3208
-1249.47 18.184 3184
-1232.49 18.0469 3160
-1224.94 18.0469 3160
-1203.51 17.8413 3124
-1189.53 17.7442 3107
-1171.07 17.5786 3078
-1163.71 17.5786 3078
-1149.96 17.4815 3061
-1122.11 17.1674 3006
-1114.92 17.1674 3006
-1107.73 17.1674 3006
-1100.54 17.1674 3006
-1093.36 17.1674 3006
-1086.17 17.1674 3006
-1073.24 17.076 2990
-1066.09 17.076 2990
-1058.94 17.076 2990
-1051.79 17.076 2990
-1040.79 17.0132 2979
-1033.67 17.0132 2979
-1024.82 16.9846 2974
-1017.71 16.9846 2974
-1008.56 16.9504 2968
-1001.46 16.9504 2968
-992.691 16.9218 2963
-983.943 16.8933 2958
-976.869 16.8933 2958
-969.796 16.8933 2958
-959.142 16.8305 2947
-950.48 16.8019 2942
-943.444 16.8019 2942
-936.409 16.8019 2942
-929.374 16.8019 2942
-920.771 16.7733 2937
-913.748 16.7733 2937
-906.725 16.7733 2937
-898.17 16.7448 2932
-891.158 16.7448 2932
-884.147 16.7448 2932
-878.632 16.7733 2937
-871.608 16.7733 2937
-864.585 16.7733 2937
-857.562 16.7733 2937
-850.539 16.7733 2937
-842.079 16.7448 2932
-835.068 16.7448 2932
-829.469 16.7733 2937
-822.446 16.7733 2937
-815.422 16.7733 2937
-807.023 16.7448 2932
-798.647 16.7162 2927
-791.648 16.7162 2927
-784.648 16.7162 2927
-777.649 16.7162 2927
-770.65 16.7162 2927
-763.651 16.7162 2927
-756.651 16.7162 2927
-749.652 16.7162 2927
-741.384 16.6877 2922
-733.14 16.6591 2917
-726.164 16.6591 2917
-719.189 16.6591 2917
-710.749 16.6249 2911
-703.787 16.6249 2911
-696.826 16.6249 2911
-685.126 16.5106 2891
-678.212 16.5106 2891
-670.138 16.4821 2886
-663.237 16.4821 2886
-656.335 16.4821 2886
-649.434 16.4821 2886
-640.306 16.425 2876
-633.429 16.425 2876
-625.462 16.3964 2871
-621.829 16.4821 2886
-614.928 16.4821 2886
-608.026 16.4821 2886
-604.249 16.5677 2901
-597.312 16.5677 2901
-600.957 16.8647 2953
-601.337 17.076 2990
-594.187 17.076 2990
-587.037 17.076 2990
-674.354 20.3599 3565
-665.829 20.3599 3565
-657.304 20.3599 3565
-647.323 20.3142 3557
-636.123 20.2285 3542
-627.653 20.2285 3542
-619.183 20.2285 3542
-610.713 20.2285 3542
-600.883 20.1828 3534
-592.432 20.1828 3534
-583.981 20.1828 3534
-575.531 20.1828 3534
-567.08 20.1828 3534
-558.629 20.1828 3534
-550.178 20.1828 3534
-541.727 20.1828 3534
-531.164 20.1029 3520
-522.746 20.1029 3520
-516.374 20.1828 3534
-509.073 20.2285 3542
-500.603 20.2285 3542
-492.133 20.2285 3542
-483.663 20.2285 3542
-475.193 20.2285 3542
-466.723 20.2285 3542
-456.313 20.1429 3527
-446.99 20.1029 3520
-438.572 20.1029 3520
-429.177 20.0572 3512
-419.94 20.0172 3505
-410.62 19.9715 3497
-402.257 19.9715 3497
-393.895 19.9715 3497
-385.532 19.9715 3497
-378.033 20.0172 3505
-369.651 20.0172 3505
-361.27 20.0172 3505
-352.888 20.0172 3505
-343.72 19.9715 3497
-334.687 19.9315 3490
-326.341 19.9315 3490
-317.995 19.9315 3490
-305.835 19.686 3447
-297.592 19.686 3447
-289.349 19.686 3447
-281.106 19.686 3447
-272.863 19.686 3447
-264.621 19.686 3447
-256.378 19.686 3447
-247.127 19.606 3433
-239.405 19.646 3440
-231.179 19.646 3440
-222.953 19.646 3440
-214.29 19.606 3433
-130.564 12.4215 2175
-125.363 12.4215 2175
-120.161 12.4215 2175
-114.22 12.3416 2161
-106.984 12.1074 2120
-101.77 12.0903 2117
-96.7076 12.0903 2117
-91.2989 12.0446 2109
-86.0511 12.016 2104
-80.7117 11.9704 2096
-75.6996 11.9704 2096
-70.3164 11.9075 2085
-64.7666 11.8047 2067
-59.5343 11.7476 2057
-54.2702 11.6734 2044
-49.3824 11.6734 2044
-44.2769 11.6163 2034
-39.1417 11.5363 2020
-34.2603 11.5192 2017
-29.4371 11.5192 2017
-24.5528 11.4906 2012
-19.7219 11.4792 2010
-14.9524 11.5078 2015
-10.144 11.5192 2017
-5.32077 11.5192 2017
-0.500723 11.5934 2030
4.3622 11.6163 2034
9.23972 11.6334 2037
14.1108 11.6334 2037
19.0471 11.6734 2044
23.9935 11.7019 2049
28.9779 11.7362 2055
33.892 11.7362 2055
39.0327 11.8047 2067
44.2096 11.8676 2078
49.226 11.879 2080
54.2 11.879 2080
59.4015 11.9247 2088
64.487 11.9418 2091
69.4872 11.9418 2091
74.4874 11.9418 2091
79.4877 11.9418 2091
84.4879 11.9418 2091
89.4881 11.9418 2091
94.5787 11.9532 2093
99.5837 11.9532 2093
104.589 11.9532 2093
109.594 11.9532 2093
114.872 11.9818 2098
119.889 11.9818 2098
125.085 11.9989 2101
130.109 11.9989 2101
135.326 12.016 2104
140.357 12.016 2104
145.734 12.0446 2109
151.349 12.0903 2117
156.412 12.0903 2117
161.474 12.0903 2117
167.166 12.136 2125
172.491 12.1531 2128
177.579 12.1531 2128
182.668 12.1531 2128
188.021 12.1702 2131
193.57 12.1988 2136
198.957 12.2159 2139
204.072 12.2159 2139
209.481 12.2331 2142
214.603 12.2331 2142
220.238 12.2616 2147
225.372 12.2616 2147
231.15 12.2959 2153
236.848 12.3244 2158
242.008 12.3244 2158
247.168 12.3244 2158
392.758 18.4295 3227
400.474 18.4295 3227
408.191 18.4295 3227
414.232 18.3553 3214
419.555 18.2525 3196
427.198 18.2525 3196
433.207 18.184 3184
437.499 18.0469 3160
440.83 17.8756 3130
443.302 17.6757 3095
450.703 17.6757 3095
453.071 17.4815 3061
456.18 17.3216 3033
458.39 17.1331 3000
465.564 17.1331 3000
470.217 17.0418 2984
475.753 16.9846 2974
480.267 16.8933 2958
487.34 16.8933 2958
491.739 16.8019 2942
497.079 16.7448 2932
503.231 16.7162 2927
508.487 16.6591 2917
515.462 16.6591 2917
521.363 16.6249 2911
528.324 16.6249 2911
534.366 16.5963 2906
541.315 16.5963 2906
548.264 16.5963 2906
555.213 16.5963 2906
561.195 16.5677 2901
568.132 16.5677 2901
575.07 16.5677 2901
582.007 16.5677 2901
588.944 16.5677 2901
595.881 16.5677 2901
602.818 16.5677 2901
609.755 16.5677 2901
616.693 16.5677 2901
623.63 16.5677 2901
629.48 16.5392 2896
636.405 16.5392 2896
643.331 16.5392 2896
650.256 16.5392 2896
657.181 16.5392 2896
664.106 16.5392 2896
671.031 16.5392 2896
677.957 16.5392 2896
684.882 16.5392 2896
691.807 16.5392 2896
698.732 16.5392 2896
705.657 16.5392 2896
712.583 16.5392 2896
719.508 16.5392 2896
727.687 16.5677 2901
734.625 16.5677 2901
741.562 16.5677 2901
748.499 16.5677 2901
755.436 16.5677 2901
761.059 16.5392 2896
767.984 16.5392 2896
774.91 16.5392 2896
781.835 16.5392 2896
788.76 16.5392 2896
797.059 16.5677 2901
803.996 16.5677 2901
810.933 16.5677 2901
817.871 16.5677 2901
826.229 16.5963 2906
833.178 16.5963 2906
840.128 16.5963 2906
847.077 16.5963 2906
855.495 16.6249 2911
862.456 16.6249 2911
869.417 16.6249 2911
876.378 16.6249 2911
881.822 16.5963 2906
888.771 16.5963 2906
895.721 16.5963 2906
907.64 16.6877 2922
922.452 16.8305 2947
931.392 16.8647 2953
938.453 16.8647 2953
950.318 16.9504 2968
969.673 17.1674 3006
985.636 17.3216 3033
992.889 17.3216 3033
1011.35 17.5158 3067
1022.34 17.5786 3078
1037.4 17.71 3101
1044.81 17.71 3101
1068.17 17.9784 3148
1088 18.184 3184
1103.88 18.321 3208
1111.55 18.321 3208
1136.66 18.6066 3258
1160.26 18.8636 3303
1187.26 19.172 3357
1195.29 19.172 3357
1228.05 19.566 3426
1246.34 19.726 3454
1254.6 19.726 3454
1262.86 19.726 3454
1271.12 19.726 3454
1284.57 19.8059 3468
1301.06 19.9315 3490
1309.41 19.9315 3490
1323.42 20.0172 3505
1331.8 20.0172 3505
1340.18 20.0172 3505
1342.79 19.9315 3490
1348.42 19.8916 3483
1348.18 19.7659 3461
1337.26 19.4861 3412
1345.41 19.4861 3412
1334.13 19.2062 3363
1336.99 19.132 3350
1339.78 19.0578 3337
1347.76 19.0578 3337
1350.05 18.9778 3323
1355.55 18.9435 3317
1363.48 18.9435 3317
1371.41 18.9435 3317
1371.02 18.8293 3297
1375.98 18.7893 3290
1381.32 18.7551 3284
1383.68 18.6808 3271
1391.5 18.6808 3271
1396.76 18.6466 3265
1401.55 18.6066 3258
1409.34 18.6066 3258
1417.13 18.6066 3258
1424.92 18.6066 3258
1432.72 18.6066 3258
1454.66 18.7893 3290
1480.3 19.0178 3330
1488.27 19.0178 3330
1520.49 19.3262 3384
1541.23 19.4861 3412
1549.39 19.4861 3412
1557.55 19.4861 3412
1565.71 19.4861 3412
1573.87 19.4861 3412
1582.03 19.4861 3412
1586.93 19.4461 3405
1595.07 19.4461 3405
1599.91 19.4061 3398
1611.35 19.4461 3405
1619.5 19.4461 3405
1627.64 19.4461 3405
1635.78 19.4461 3405
1643.92 19.4461 3405
1652.06 19.4461 3405
1653.38 19.3662 3391
1668.35 19.4461 3405
1676.49 19.4461 3405
1684.63 19.4461 3405
1692.78 19.4461 3405
1679.94 19.2062 3363
1677.94 19.092 3343
1685.94 19.092 3343
1690.89 19.0578 3337
1698.87 19.0578 3337
1720.15 19.2062 3363
1731.79 19.2462 3370
1739.85 19.2462 3370
1747.9 19.2462 3370
1752.32 19.2062 3363
1757.22 19.172 3357
1765.24 19.172 3357
1773.27 19.172 3357
1781.3 19.172 3357
1789.33 19.172 3357
1797.36 19.172 3357
1801.62 19.132 3350
1809.63 19.132 3350
1802.99 18.9778 3323
1810.94 18.9778 3323
1797.54 18.7551 3284
1787.8 18.5723 3252
1781.77 18.4295 3227
1789.49 18.4295 3227
1783.28 18.2868 3202
1770.8 18.0812 3166
1761.52 17.9098 3136
1755.48 17.7728 3112
1762.92 17.7728 3112
1741.35 17.4815 3061
1695.54 16.9504 2968
1673.38 16.6591 2917
1671.14 16.5677 2901
1678.08 16.5677 2901
1670.5 16.425 2876
1663.38 16.2879 2852
1658.48 16.1737 2832
1665.26 16.1737 2832
1669.67 16.1508 2828
1673.46 16.1223 2823
1671.88 16.0423 2809
1678.6 16.0423 2809
1679.32 15.9852 2799
1686.01 15.9852 2799
1692.7 15.9852 2799
1696.36 15.9567 2794
1703.04 15.9567 2794
1709.72 15.9567 2794
1713.95 15.9338 2790
1717.54 15.9053 2785
1724.2 15.9053 2785
1722.15 15.8253 2771
1726.29 15.8025 2767
1729.77 15.7739 2762
1736.38 15.7739 2762
1742.98 15.7739 2762
1746.42 15.7454 2757
1753.01 15.7454 2757
1759.6 15.7454 2757
1763.63 15.7225 2753
1767 15.694 2748
1770.99 15.6711 2744
1774.31 15.6426 2739
1780.86 15.6426 2739
1778.93 15.5683 2726
1782.17 15.5398 2721
1786.05 15.5169 2717
1792.55 15.5169 2717
1790.44 15.4427 2704
1793.58 15.4141 2699
1794.7 15.3684 2691
1801.14 15.3684 2691
1804.21 15.3399 2686
1807.94 15.317 2682
1811.65 15.2942 2678
1814.66 15.2656 2673
1821.05 15.2656 2673
1827.44 15.2656 2673
1833.83 15.2656 2673
1840.22 15.2656 2673
1846.62 15.2656 2673
1847.46 15.2199 2665
1853.83 15.2199 2665
1853.92 15.1685 2656
1860.28 15.1685 2656
1866.63 15.1685 2656
1872.98 15.1685 2656
1876.5 15.1457 2652
1882.84 15.1457 2652
1889.18 15.1457 2652
1892.67 15.1228 2648
1899 15.1228 2648
1902.45 15.1 2644
1908.77 15.1 2644
1915.1 15.1 2644
1921.42 15.1 2644
1924.83 15.0772 2640
1931.14 15.0772 2640
1937.45 15.0772 2640
1940.08 15.0486 2635
1946.38 15.0486 2635
1956.39 15.0772 2640
1962.7 15.0772 2640
1969.02 15.0772 2640
1975.33 15.0772 2640
1981.64 15.0772 2640
1987.96 15.0772 2640
1994.27 15.0772 2640
2012.71 15.1685 2656
2022.86 15.1971 2661
2048.29 15.3399 2686
2054.71 15.3399 2686
-2078.46 22.5038 2776
-2071.82 22.5038 2776
-2065.18 22.5038 2776
-2054.84 22.4633 2771
-2045.25 22.4308 2767
-2038.64 22.4308 2767
-2032.02 22.4308 2767
-2015.16 22.3173 2753
-2002.01 22.2444 2744
-1985.26 22.1309 2730
-1978.74 22.1309 2730
-1965.71 22.0579 2721
-1931.12 21.7418 2682
-1918.25 21.6688 2673
-1911.85 21.6688 2673
-1899.76 21.604 2665
-1881.31 21.4662 2648
-1884.18 21.5715 2661
-1880.64 21.604 2665
-1874.27 21.604 2665
-1867.89 21.604 2665
-2335.74 27.7731 3426
-2327.54 27.7731 3426
-2319.35 27.7731 3426
-2311.16 27.7731 3426
-2356.07 28.4135 3505
-2382.52 28.835 3557
-2374.01 28.835 3557
-2380.8 29.0215 3580
-2392.78 29.2728 3611
-2384.15 29.2728 3611
-2386.04 29.4025 3627
-2387.2 29.5241 3642
-2388.94 29.6538 3658
-2380.19 29.6538 3658
-2371.44 29.6538 3658
-2362.7 29.6538 3658
-2353.95 29.6538 3658
-2345.2 29.6538 3658
-2342.2 29.7267 3667
-2333.43 29.7267 3667
-2324.67 29.7267 3667
-2320.95 29.7916 3675
-2312.16 29.7916 3675
-2323.43 30.051 3707
-2330.17 30.2537 3732
-2321.25 30.2537 3732
-2312.33 30.2537 3732
-2287.97 30.051 3707
-2259.43 29.7916 3675
-2250.64 29.7916 3675
-2197.93 29.2079 3603
-2189.32 29.2079 3603
-2180.7 29.2079 3603
-2172.09 29.2079 3603
-2163.47 29.2079 3603
-2154.85 29.2079 3603
-2140.52 29.7267 3667
-2131.75 29.7267 3667
-2210.4 30.9508 3818
-2201.27 30.9508 3818
-2192.14 30.9508 3818
-2177.86 30.8779 3809
-2153.95 30.6671 3783
-2139.8 30.5941 3774
-2130.78 30.5941 3774
-2121.75 30.5941 3774
-2112.73 30.5941 3774
-2099.24 30.5293 3766
-2090.24 30.5293 3766
-2081.23 30.5293 3766
-2057.92 30.3185 3740
-2048.98 30.3185 3740
-2040.03 30.3185 3740
-2018.06 30.124 3716
-2004.31 30.051 3707
-1982.52 29.8564 3683
-1973.71 29.8564 3683
-1960.64 29.7916 3675
-1951.85 29.7916 3675
-1934.07 29.6538 3658
-1925.33 29.6538 3658
-1912.39 29.5889 3650
-1907.83 29.6538 3658
-1899.09 29.6538 3658
-1890.34 29.6538 3658
-1881.59 29.6538 3658
-1872.84 29.6538 3658
-1864.1 29.6538 3658
-1855.35 29.6538 3658
-1834.99 29.4673 3635
-1822.28 29.4025 3627
-1813.61 29.4025 3627
-1828.82 29.7916 3675
-1820.03 29.7916 3675
-1811.24 29.7916 3675
-1790.19 29.5889 3650
-1781.46 29.5889 3650
-1772.74 29.5889 3650
-1767.87 29.6538 3658
-1759.13 29.6538 3658
-1750.38 29.6538 3658
-1730.68 29.4673 3635
-1721.99 29.4673 3635
-1709.53 29.4025 3627
-1700.85 29.4025 3627
-1692.18 29.4025 3627
-1683.51 29.4025 3627
-1674.83 29.4025 3627
-1673.05 29.5241 3642
-1664.34 29.5241 3642
-1655.63 29.5241 3642
-1643.76 29.4673 3635
-1635.07 29.4673 3635
-1626.37 29.4673 3635
-1614.12 29.4025 3627
-1601.91 29.3376 3619
-1582.69 29.1431 3595
-1574.09 29.1431 3595
-1552.43 28.8999 3565
-1536.97 28.7702 3549
-1525.47 28.7134 3542
-1517 28.7134 3542
-1495.76 28.4702 3512
-1472.11 28.1784 3476
-1454.53 28 3454
-1446.28 28 3454
-1432.19 27.8865 3440
-1418.17 27.7731 3426
-1398.45 27.5461 3398
-1390.32 27.5461 3398
-1370.81 27.3191 3370
-1357.49 27.2137 3357
-1327.76 26.7759 3303
-1291.89 26.2085 3233
-1284.16 26.2085 3233
-1266.56 26.0058 3208
-1251.82 25.8599 3190
-1234.83 25.6654 3166
-1227.26 25.6654 3166
-1205.82 25.3735 3130
-1189.53 25.1871 3107
-1173.35 25.0006 3084
-1165.98 25.0006 3084
-1149.96 24.8142 3061
-1123.98 24.4088 3011
-1114.92 24.3683 3006
-1107.73 24.3683 3006
-1100.54 24.3683 3006
-1093.36 24.3683 3006
-1086.17 24.3683 3006
-1075.03 24.2791 2995
-1067.87 24.2791 2995
-1058.94 24.2386 2990
-1051.79 24.2386 2990
-1040.79 24.1494 2979
-1033.67 24.1494 2979
-1024.82 24.1089 2974
-1017.71 24.1089 2974
-1008.56 24.0603 2968
-1001.46 24.0603 2968
-992.691 24.0197 2963
-983.943 23.9792 2958
-976.869 23.9792 2958
-969.796 23.9792 2958
-959.142 23.89 2947
-952.095 23.89 2947
-943.444 23.8495 2942
-936.409 23.8495 2942
-929.374 23.8495 2942
-920.771 23.809 2937
-913.748 23.809 2937
-906.725 23.809 2937
-898.17 23.7684 2932
-891.158 23.7684 2932
-884.147 23.7684 2932
-878.632 23.809 2937
-871.608 23.809 2937
-864.585 23.809 2937
-857.562 23.809 2937
-850.539 23.809 2937
-843.515 23.809 2937
-835.068 23.7684 2932
-829.469 23.809 2937
-822.446 23.809 2937
-815.422 23.809 2937
-807.023 23.7684 2932
-798.647 23.7279 2927
-791.648 23.7279 2927
-784.648 23.7279 2927
-777.649 23.7279 2927
-770.65 23.7279 2927
-763.651 23.7279 2927
-756.651 23.7279 2927
-749.652 23.7279 2927
-741.384 23.6874 2922
-734.396 23.6874 2922
-727.409 23.6874 2922
-719.189 23.6468 2917
-712.214 23.6468 2917
-703.787 23.5982 2911
-696.826 23.5982 2911
-685.126 23.436 2891
-678.212 23.436 2891
-670.138 23.3955 2886
-663.237 23.3955 2886
-656.335 23.3955 2886
-649.434 23.3955 2886
-640.306 23.3145 2876
-633.429 23.3145 2876
-626.552 23.3145 2876
-621.829 23.3955 2886
-614.928 23.3955 2886
-608.026 23.3955 2886
-604.249 23.5171 2901
-597.312 23.5171 2901
-602.992 24.0197 2963
-601.337 24.2386 2990
-594.187 24.2386 2990
-587.037 24.2386 2990
-678.705 29.0863 3588
-670.125 29.0863 3588
-661.545 29.0863 3588
-650.053 28.9566 3572
-638.817 28.835 3557
-628.894 28.7702 3549
-619.183 28.7134 3542
-610.713 28.7134 3542
-602.243 28.7134 3542
-594.947 28.7702 3549
-586.46 28.7702 3549
-577.973 28.7702 3549
-569.487 28.7702 3549
-561 28.7702 3549
-552.513 28.7702 3549
-544.026 28.7702 3549
-533.276 28.6486 3534
-526.013 28.7134 3542
-518.566 28.7702 3549
-511.229 28.835 3557
-502.723 28.835 3557
-494.218 28.835 3557
-485.712 28.835 3557
-477.206 28.835 3557
-468.7 28.835 3557
-458.253 28.7134 3542
-449.783 28.7134 3542
-441.313 28.7134 3542
-431.01 28.5918 3527
-420.779 28.4702 3512
-412.381 28.4702 3512
-403.983 28.4702 3512
-394.796 28.4135 3505
-386.414 28.4135 3505
-378.033 28.4135 3505
-369.651 28.4135 3505
-361.27 28.4135 3505
-352.888 28.4135 3505
-344.507 28.4135 3505
-335.358 28.3486 3497
-326.996 28.3486 3497
-317.995 28.2919 3490
-305.835 27.9433 3447
-297.592 27.9433 3447
-289.349 27.9433 3447
-281.106 27.9433 3447
-272.863 27.9433 3447
-264.621 27.9433 3447
-256.378 27.9433 3447
-248.135 27.9433 3447
-239.892 27.9433 3447
-231.649 27.9433 3447
-223.406 27.9433 3447
-214.29 27.8298 3433
-130.564 17.6318 2175
-125.363 17.6318 2175
-120.161 17.6318 2175
-114.22 17.5183 2161
-106.984 17.1859 2120
-101.77 17.1616 2117
-96.7076 17.1616 2117
-91.2989 17.0967 2109
-86.0511 17.0562 2104
-80.7117 16.9913 2096
-75.6996 16.9913 2096
-70.3164 16.9022 2085
-64.7666 16.7562 2067
-59.5343 16.6752 2057
-54.2702 16.5698 2044
-49.3824 16.5698 2044
-44.2769 16.4887 2034
-39.1417 16.3752 2020
-34.2603 16.3509 2017
-29.4371 16.3509 2017
-24.5528 16.3104 2012
-19.7219 16.2942 2010
-14.9524 16.3347 2015
-10.144 16.3509 2017
-5.32077 16.3509 2017
-0.500723 16.4563 2030
4.3622 16.4887 2034
9.23972 16.5131 2037
14.1108 16.5131 2037
19.0471 16.5698 2044
23.9935 16.6103 2049
28.9779 16.659 2055
33.892 16.659 2055
39.0327 16.7562 2067
44.2096 16.8454 2078
49.226 16.8616 2080
54.2 16.8616 2080
59.4015 16.9265 2088
64.487 16.9508 2091
69.4872 16.9508 2091
74.4874 16.9508 2091
79.4877 16.9508 2091
84.4879 16.9508 2091
89.4881 16.9508 2091
94.5787 16.967 2093
99.5837 16.967 2093
104.589 16.967 2093
109.594 16.967 2093
114.872 17.0076 2098
119.889 17.0076 2098
125.085 17.0319 2101
130.109 17.0319 2101
135.326 17.0562 2104
140.357 17.0562 2104
145.734 17.0967 2109
151.349 17.1616 2117
156.412 17.1616 2117
161.474 17.1616 2117
167.166 17.2264 2125
172.491 17.2507 2128
177.579 17.2507 2128
182.668 17.2507 2128
188.021 17.2751 2131
193.57 17.3156 2136
198.957 17.3399 2139
204.072 17.3399 2139
209.676 17.3805 2144
214.803 17.3805 2144
220.853 17.4534 2153
226.002 17.4534 2153
232.331 17.5426 2164
238.384 17.6074 2172
243.578 17.6074 2172
248.772 17.6074 2172
398.113 26.5165 3271
405.935 26.5165 3271
413.757 26.5165 3271
415.908 26.1599 3227
421.918 26.0545 3214
429.604 26.0545 3214
433.207 25.8113 3184
437.499 25.6167 3160
440.83 25.3735 3130
444.161 25.1384 3101
451.576 25.1384 3101
454.699 24.9033 3072
456.18 24.5872 3033
460.071 24.4088 3011
467.271 24.4088 3011
470.217 24.19 2984
475.753 24.1089 2974
481.078 24.0197 2963
488.164 24.0197 2963
493.578 23.9387 2953
497.927 23.809 2937
503.231 23.7279 2927
508.487 23.6468 2917
515.462 23.6468 2917
521.363 23.5982 2911
528.324 23.5982 2911
535.285 23.5982 2911
542.246 23.5982 2911
548.264 23.5576 2906
555.213 23.5576 2906
562.162 23.5576 2906
569.112 23.5576 2906
576.061 23.5576 2906
582.007 23.5171 2901
588.944 23.5171 2901
595.881 23.5171 2901
602.818 23.5171 2901
609.755 23.5171 2901
616.693 23.5171 2901
623.63 23.5171 2901
630.567 23.5171 2901
637.504 23.5171 2901
643.331 23.4766 2896
650.256 23.4766 2896
657.181 23.4766 2896
664.106 23.4766 2896
671.031 23.4766 2896
677.957 23.4766 2896
684.882 23.4766 2896
691.807 23.4766 2896
698.732 23.4766 2896
705.657 23.4766 2896
712.583 23.4766 2896
719.508 23.4766 2896
727.687 23.5171 2901
734.625 23.5171 2901
741.562 23.5171 2901
748.499 23.5171 2901
755.436 23.5171 2901
761.059 23.4766 2896
767.984 23.4766 2896
776.247 23.5171 2901
783.185 23.5171 2901
790.122 23.5171 2901
797.059 23.5171 2901
805.382 23.5576 2906
812.331 23.5576 2906
819.28 23.5576 2906
826.229 23.5576 2906
834.612 23.5982 2911
841.573 23.5982 2911
848.534 23.5982 2911
855.495 23.5982 2911
864.234 23.6468 2917
871.209 23.6468 2917
878.185 23.6468 2917
883.34 23.5982 2911
890.301 23.5982 2911
895.721 23.5576 2906
907.64 23.6874 2922
922.452 23.89 2947
931.392 23.9387 2953
938.453 23.9387 2953
950.318 24.0603 2968
969.673 24.3683 3006
985.636 24.5872 3033
992.889 24.5872 3033
1011.35 24.8628 3067
1022.34 24.952 3078
1037.4 25.1384 3101
1044.81 25.1384 3101
1068.17 25.5194 3148
1088 25.8113 3184
1103.88 26.0058 3208
1111.55 26.0058 3208
1136.66 26.4112 3258
1160.26 26.7759 3303
1189.38 27.2623 3363
1197.42 27.2623 3363
1228.05 27.7731 3426
1248.87 28.0568 3461
1259.69 28.1135 3468
1267.98 28.1135 3468
1276.27 28.1135 3468
1290.12 28.2351 3483
1306.65 28.4135 3505
1315.03 28.4135 3505
1326.06 28.4702 3512
1334.46 28.4702 3512
1342.85 28.4702 3512
1345.48 28.3486 3497
1348.42 28.2351 3483
1348.18 28.0568 3461
1337.26 27.6596 3412
1345.41 27.6596 3412
1336.91 27.3191 3370
1336.99 27.157 3350
1339.78 27.0516 3337
1347.76 27.0516 3337
1350.05 26.9381 3323
1355.55 26.8894 3317
1363.48 26.8894 3317
1371.41 26.8894 3317
1371.02 26.7273 3297
1375.98 26.6706 3290
1381.32 26.6219 3284
1383.68 26.5165 3271
1391.5 26.5165 3271
1396.76 26.4679 3265
1401.55 26.4112 3258
1409.34 26.4112 3258
1417.13 26.4112 3258
1424.92 26.4112 3258
1435.79 26.4679 3265
1457.75 26.7273 3297
1480.3 26.9948 3330
1488.27 26.9948 3330
1520.49 27.4326 3384
1544.4 27.7163 3419
1552.57 27.7163 3419
1560.75 27.7163 3419
1568.92 27.7163 3419
1573.87 27.6596 3412
1582.03 27.6596 3412
1590.19 27.6596 3412
1598.35 27.6596 3412
1606.51 27.6596 3412
1614.67 27.6596 3412
1622.82 27.6596 3412
1630.98 27.6596 3412
1639.14 27.6596 3412
1643.92 27.6028 3405
1652.06 27.6028 3405
1653.38 27.4893 3391
1668.35 27.6028 3405
1676.49 27.6028 3405
1684.63 27.6028 3405
1692.78 27.6028 3405
1679.94 27.2623 3363
1677.94 27.1002 3343
1685.94 27.1002 3343
1690.89 27.0516 3337
1698.87 27.0516 3337
1720.15 27.2623 3363
1731.79 27.3191 3370
1739.85 27.3191 3370
1747.9 27.3191 3370
1752.32 27.2623 3363
1757.22 27.2137 3357
1765.24 27.2137 3357
1773.27 27.2137 3357
1781.3 27.2137 3357
1789.33 27.2137 3357
1797.36 27.2137 3357
1801.62 27.157 3350
1809.63 27.157 3350
1802.99 26.9381 3323
1810.94 26.9381 3323
1797.54 26.6219 3284
1787.8 26.3625 3252
1781.77 26.1599 3227
1789.49 26.1599 3227
1783.28 25.9572 3202
1770.8 25.6654 3166
1761.52 25.4222 3136
1755.48 25.2276 3112
1762.92 25.2276 3112
1741.35 24.8142 3061
1695.54 24.0603 2968
1673.38 23.6468 2917
1671.14 23.5171 2901
1678.08 23.5171 2901
1670.5 23.3145 2876
1663.38 23.1199 2852
1658.48 22.9578 2832
1665.26 22.9578 2832
1669.67 22.9253 2828
1673.46 22.8848 2823
1671.88 22.7713 2809
1678.6 22.7713 2809
1682.32 22.7308 2804
1686.01 22.6902 2799
1692.7 22.6902 2799
1696.36 22.6497 2794
1703.04 22.6497 2794
1709.72 22.6497 2794
1713.95 22.6173 2790
1717.54 22.5768 2785
1724.2 22.5768 2785
1722.15 22.4633 2771
1726.29 22.4308 2767
1732.9 22.4308 2767
1739.52 22.4308 2767
1742.98 22.3903 2762
1746.42 22.3498 2757
1753.01 22.3498 2757
1759.6 22.3498 2757
1763.63 22.3173 2753
1767 22.2768 2748
1770.99 22.2444 2744
1774.31 22.2039 2739
1780.86 22.2039 2739
1778.93 22.0985 2726
1782.17 22.0579 2721
1786.05 22.0255 2717
1792.55 22.0255 2717
1793.09 21.9525 2708
1793.58 21.8796 2699
1794.7 21.8147 2691
1801.14 21.8147 2691
1807.57 21.8147 2691
1810.63 21.7742 2686
1817.06 21.7742 2686
1820.77 21.7418 2682
1827.18 21.7418 2682
1830.86 21.7094 2678
1837.26 21.7094 2678
1840.22 21.6688 2673
1846.62 21.6688 2673
1853.01 21.6688 2673
1856.62 21.6364 2669
1860.21 21.604 2665
1866.58 21.604 2665
1872.95 21.604 2665
1876.5 21.5715 2661
1879.33 21.531 2656
1885.68 21.531 2656
1892.03 21.531 2656
1898.38 21.531 2656
1904.74 21.531 2656
1905.33 21.4662 2648
1911.66 21.4662 2648
1917.99 21.4662 2648
1924.33 21.4662 2648
1927.74 21.4337 2644
1934.07 21.4337 2644
1940.39 21.4337 2644
1946.71 21.4337 2644
1953.03 21.4337 2644
1959.36 21.4337 2644
1965.68 21.4337 2644
1972 21.4337 2644
1978.32 21.4337 2644
1984.65 21.4337 2644
2000 21.531 2656
2006.36 21.531 2656
2016.5 21.5715 2661
2028.94 21.6364 2669
2052.1 21.8147 2691
2058.54 21.8147 2691
-2078.46 29.1537 2776
-2071.82 29.1537 2776
-2065.18 29.1537 2776
-2054.84 29.1012 2771
-2045.25 29.0592 2767
-2038.64 29.0592 2767
-2032.02 29.0592 2767
-2015.16 28.9122 2753
-2002.01 28.8177 2744
-1985.26 28.6706 2730
-1978.74 28.6706 2730
-1965.71 28.5761 2721
-1928.24 28.1245 2678
-1918.25 28.072 2673
-1911.85 28.072 2673
-1893.34 27.8935 2656
-1875.62 27.7254 2640
-1860.11 27.5889 2627
-1877.82 27.946 2661
-1871.45 27.946 2661
-1865.09 27.946 2661
-2335.74 35.9801 3426
-2327.54 35.9801 3426
-2319.35 35.9801 3426
-2311.16 35.9801 3426
-2356.07 36.8097 3505
-2382.52 37.3558 3557
-2374.01 37.3558 3557
-2380.8 37.5974 3580
-2392.78 37.923 3611
-2384.15 37.923 3611
-2386.04 38.091 3627
-2387.2 38.2485 3642
-2388.94 38.4165 3658
-2380.19 38.4165 3658
-2371.44 38.4165 3658
-2362.7 38.4165 3658
-2353.95 38.4165 3658
-2345.2 38.4165 3658
-2342.2 38.5111 3667
-2333.43 38.5111 3667
-2324.67 38.5111 3667
-2320.95 38.5951 3675
-2312.16 38.5951 3675
-2323.43 38.9311 3707
-2330.17 39.1937 3732
-2321.25 39.1937 3732
-2312.33 39.1937 3732
-2287.97 38.9311 3707
-2259.43 38.5951 3675
-2250.64 38.5951 3675
-2197.93 37.8389 3603
-2189.32 37.8389 3603
-2210.4 40.0969 3818
-2201.27 40.0969 3818
-2192.14 40.0969 3818
-2177.86 40.0024 3809
-2153.95 39.7293 3783
-2139.8 39.6348 3774
-2130.78 39.6348 3774
-2121.75 39.6348 3774
-2112.73 39.6348 3774
-2099.24 39.5508 3766
-2090.24 39.5508 3766
-2081.23 39.5508 3766
-2057.92 39.2777 3740
-2048.98 39.2777 3740
-2040.03 39.2777 3740
-2018.06 39.0257 3716
-2004.31 38.9311 3707
-1982.52 38.6791 3683
-1973.71 38.6791 3683
-1960.64 38.5951 3675
-1951.85 38.5951 3675
-1934.07 38.4165 3658
-1925.33 38.4165 3658
-1912.39 38.3325 3650
-1907.83 38.4165 3658
-1899.09 38.4165 3658
-1890.34 38.4165 3658
-1881.59 38.4165 3658
-1872.84 38.4165 3658
-1864.1 38.4165 3658
-1855.35 38.4165 3658
-1834.99 38.175 3635
-1822.28 38.091 3627
-1813.61 38.091 3627
-1828.82 38.5951 3675
-1820.03 38.5951 3675
-1811.24 38.5951 3675
-1790.19 38.3325 3650
-1781.46 38.3325 3650
-1772.74 38.3325 3650
-1767.87 38.4165 3658
-1759.13 38.4165 3658
-1750.38 38.4165 3658
-1730.68 38.175 3635
-1721.99 38.175 3635
-1709.53 38.091 3627
-1700.85 38.091 3627
-1692.18 38.091 3627
-1683.51 38.091 3627
-1674.83 38.091 3627
-1673.05 38.2485 3642
-1664.34 38.2485 3642
-1655.63 38.2485 3642
-1643.76 38.175 3635
-1635.07 38.175 3635
-1626.37 38.175 3635
-1614.12 38.091 3627
-1601.91 38.007 3619
-1582.69 37.7549 3595
-1574.09 37.7549 3595
-1548.94 37.3558 3557
-1533.94 37.1983 3542
-1519.01 37.0408 3527
-1510.58 37.0408 3527
-1489.37 36.7257 3497
-1468.72 36.4212 3468
-1448.64 36.1271 3440
-1440.41 36.1271 3440
-1432.19 36.1271 3440
-1418.17 35.9801 3426
-1398.45 35.686 3398
-1390.32 35.686 3398
-1370.81 35.392 3370
-1357.49 35.2554 3357
-1327.76 34.6883 3303
-1291.89 33.9532 3233
-1284.16 33.9532 3233
-1266.56 33.6906 3208
-1251.82 33.5016 3190
-1234.83 33.2495 3166
-1227.26 33.2495 3166
-1205.82 32.8715 3130
-1189.53 32.6299 3107
-1173.35 32.3884 3084
-1165.98 32.3884 3084
-1149.96 32.1468 3061
-1123.98 31.6217 3011
-1114.92 31.5692 3006
-1107.73 31.5692 3006
-1100.54 31.5692 3006
-1093.36 31.5692 3006
-1086.17 31.5692 3006
-1075.03 31.4537 2995
-1067.87 31.4537 2995
-1058.94 31.4012 2990
-1051.79 31.4012 2990
-1040.79 31.2856 2979
-1033.67 31.2856 2979
-1024.82 31.2331 2974
-1017.71 31.2331 2974
-1008.56 31.1701 2968
-1001.46 31.1701 2968
-992.691 31.1176 2963
-983.943 31.0651 2958
-976.869 31.0651 2958
-969.796 31.0651 2958
-959.142 30.9496 2947
-952.095 30.9496 2947
-943.444 30.8971 2942
-936.409 30.8971 2942
-929.374 30.8971 2942
-920.771 30.8446 2937
-913.748 30.8446 2937
-906.725 30.8446 2937
-898.17 30.792 2932
-891.158 30.792 2932
-884.147 30.792 2932
-878.632 30.8446 2937
-871.608 30.8446 2937
-864.585 30.8446 2937
-857.562 30.8446 2937
-850.539 30.8446 2937
-843.515 30.8446 2937
-835.068 30.792 2932
-829.469 30.8446 2937
-822.446 30.8446 2937
-815.422 30.8446 2937
-807.023 30.792 2932
-798.647 30.7395 2927
-791.648 30.7395 2927
-784.648 30.7395 2927
-777.649 30.7395 2927
-770.65 30.7395 2927
-763.651 30.7395 2927
-756.651 30.7395 2927
-749.652 30.7395 2927
-741.384 30.687 2922
-734.396 30.687 2922
-727.409 30.687 2922
-719.189 30.6345 2917
-712.214 30.6345 2917
-703.787 30.5715 2911
-696.826 30.5715 2911
-685.126 30.3615 2891
-678.212 30.3615 2891
-670.138 30.309 2886
-663.237 30.309 2886
-656.335 30.309 2886
-649.434 30.309 2886
-640.306 30.2039 2876
-633.429 30.2039 2876
-626.552 30.2039 2876
-620.752 30.2564 2881
-614.928 30.309 2886
-608.026 30.309 2886
-604.249 30.4665 2901
-597.312 30.4665 2901
-602.992 31.1176 2963
-601.337 31.4012 2990
-594.187 31.4012 2990
-587.037 31.4012 2990
-678.705 37.6814 3588
-670.125 37.6814 3588
-661.545 37.6814 3588
-650.053 37.5134 3572
-638.817 37.3558 3557
-628.894 37.2718 3549
-619.183 37.1983 3542
-610.713 37.1983 3542
-602.243 37.1983 3542
-594.947 37.2718 3549
-586.46 37.2718 3549
-577.973 37.2718 3549
-569.487 37.2718 3549
-561 37.2718 3549
-552.513 37.2718 3549
-544.026 37.2718 3549
-533.276 37.1143 3534
-526.013 37.1983 3542
-518.566 37.2718 3549
-511.229 37.3558 3557
-502.723 37.3558 3557
-494.218 37.3558 3557
-485.712 37.3558 3557
-477.206 37.3558 3557
-468.7 37.3558 3557
-458.253 37.1983 3542
-449.783 37.1983 3542
-441.313 37.1983 3542
-431.01 37.0408 3527
-420.779 36.8832 3512
-412.381 36.8832 3512
-403.983 36.8832 3512
-394.796 36.8097 3505
-386.414 36.8097 3505
-378.033 36.8097 3505
-369.651 36.8097 3505
-361.27 36.8097 3505
-352.888 36.8097 3505
-344.507 36.8097 3505
-335.358 36.7257 3497
-326.996 36.7257 3497
-317.995 36.6522 3490
-305.835 36.2006 3447
-297.592 36.2006 3447
-289.349 36.2006 3447
-281.106 36.2006 3447
-272.863 36.2006 3447
-264.621 36.2006 3447
-256.378 36.2006 3447
-248.135 36.2006 3447
-239.892 36.2006 3447
-231.649 36.2006 3447
-223.406 36.2006 3447
-130.564 22.842 2175
-125.363 22.842 2175
-120.161 22.842 2175
-114.22 22.695 2161
-106.832 22.2329 2117
-101.385 22.1489 2109
-96.3421 22.1489 2109
-90.9525 22.0648 2101
-85.6012 21.9808 2093
-80.2882 21.8968 2085
-75.3023 21.8968 2085
-70.0804 21.8233 2078
-64.4532 21.6027 2057
-59.3028 21.5187 2049
-54.2171 21.4452 2042
-49.3341 21.4452 2042
-44.2334 21.3402 2032
-39.0836 21.1827 2017
-34.1754 21.1302 2012
-29.3641 21.1302 2012
-24.504 21.0881 2008
-19.7022 21.0881 2008
-14.9153 21.1091 2010
-10.134 21.1617 2015
-5.3155 21.1617 2015
-0.49949 21.2667 2025
4.35791 21.3402 2032
9.23972 21.3927 2037
14.1108 21.3927 2037
19.0005 21.4137 2039
23.9935 21.5187 2049
28.9779 21.5817 2055
33.892 21.5817 2055
39.0327 21.7078 2067
44.1458 21.7918 2075
49.1787 21.8233 2078
54.1478 21.8233 2078
59.3161 21.8968 2085
64.3945 21.9283 2088
69.3875 21.9283 2088
74.3806 21.9283 2088
79.3736 21.9283 2088
84.3667 21.9283 2088
89.4881 21.9598 2091
94.4883 21.9598 2091
99.4885 21.9598 2091
104.489 21.9598 2091
109.489 21.9598 2091
114.872 22.0333 2098
119.889 22.0333 2098
124.906 22.0333 2098
130.109 22.0648 2101
135.326 22.0963 2104
140.357 22.0963 2104
145.527 22.1173 2106
151.349 22.2329 2117
156.412 22.2329 2117
161.474 22.2329 2117
167.166 22.3169 2125
172.491 22.3484 2128
177.579 22.3484 2128
182.668 22.3484 2128
188.021 22.3799 2131
193.57 22.4324 2136
198.957 22.4639 2139
204.072 22.4639 2139
209.676 22.5164 2144
214.803 22.5164 2144
220.853 22.6109 2153
226.002 22.6109 2153
232.331 22.7265 2164
238.384 22.8105 2172
243.578 22.8105 2172
248.772 22.8105 2172
398.113 34.3522 3271
405.935 34.3522 3271
413.757 34.3522 3271
415.908 33.8902 3227
421.918 33.7536 3214
429.604 33.7536 3214
433.207 33.4386 3184
437.499 33.1865 3160
440.83 32.8715 3130
444.161 32.5669 3101
451.576 32.5669 3101
454.699 32.2623 3072
456.18 31.8528 3033
460.071 31.6217 3011
467.271 31.6217 3011
470.217 31.3382 2984
475.753 31.2331 2974
481.078 31.1176 2963
488.164 31.1176 2963
493.578 31.0126 2953
497.927 30.8446 2937
503.231 30.7395 2927
508.487 30.6345 2917
515.462 30.6345 2917
521.363 30.5715 2911
528.324 30.5715 2911
535.285 30.5715 2911
542.246 30.5715 2911
548.264 30.519 2906
555.213 30.519 2906
562.162 30.519 2906
569.112 30.519 2906
576.061 30.519 2906
582.007 30.4665 2901
588.944 30.4665 2901
595.881 30.4665 2901
602.818 30.4665 2901
609.755 30.4665 2901
616.693 30.4665 2901
623.63 30.4665 2901
630.567 30.4665 2901
637.504 30.4665 2901
643.331 30.414 2896
650.256 30.414 2896
657.181 30.414 2896
664.106 30.414 2896
671.031 30.414 2896
677.957 30.414 2896
684.882 30.414 2896
691.807 30.414 2896
698.732 30.414 2896
705.657 30.414 2896
712.583 30.414 2896
719.508 30.414 2896
727.687 30.4665 2901
734.625 30.4665 2901
741.562 30.4665 2901
748.499 30.4665 2901
755.436 30.4665 2901
761.059 30.414 2896
767.984 30.414 2896
776.247 30.4665 2901
783.185 30.4665 2901
790.122 30.4665 2901
797.059 30.4665 2901
805.382 30.519 2906
812.331 30.519 2906
819.28 30.519 2906
826.229 30.519 2906
834.612 30.5715 2911
841.573 30.5715 2911
848.534 30.5715 2911
855.495 30.5715 2911
864.234 30.6345 2917
871.209 30.6345 2917
878.185 30.6345 2917
883.34 30.5715 2911
890.301 30.5715 2911
895.721 30.519 2906
907.64 30.687 2922
919.322 30.8446 2937
929.5 30.9496 2947
936.547 30.9496 2947
947.116 31.0651 2958
962.576 31.3382 2984
980.436 31.6847 3017
987.651 31.6847 3017
1005.75 32.0313 3050
1020.35 32.2623 3072
1035.39 32.5039 3095
1042.79 32.5039 3095
1064.1 32.9345 3136
1081.85 33.2495 3166
1099.75 33.5646 3196
1107.39 33.5646 3196
1134.57 34.1527 3252
1160.26 34.6883 3303
1189.38 35.3184 3363
1197.42 35.3184 3363
1228.05 35.9801 3426
1248.87 36.3476 3461
1259.69 36.4212 3468
1267.98 36.4212 3468
1276.27 36.4212 3468
1290.12 36.5787 3483
1312.24 36.9673 3520
1320.66 36.9673 3520
1331.72 37.0408 3527
1340.16 37.0408 3527
1348.59 37.0408 3527
1351.25 36.8832 3512
1359.65 36.8832 3512
1356.75 36.5787 3483
1345.49 36.0536 3433
1353.69 36.0536 3433
1342.47 35.539 3384
1344.97 35.392 3370
1345 35.1819 3350
1353.01 35.1819 3350
1347.61 34.8353 3317
1355.55 34.8353 3317
1360.6 34.7618 3310
1368.52 34.7618 3310
1371.02 34.6253 3297
1370.96 34.4258 3278
1375.86 34.3522 3271
1381.14 34.2892 3265
1388.95 34.2892 3265
1396.76 34.2892 3265
1401.55 34.2157 3258
1409.34 34.2157 3258
1417.13 34.2157 3258
1424.92 34.2157 3258
1435.79 34.2892 3265
1466.59 34.8353 3317
1483.42 35.0454 3337
1491.4 35.0454 3337
1526.78 35.686 3398
1544.4 35.9066 3419
1552.57 35.9066 3419
1560.75 35.9066 3419
1572.14 35.9801 3426
1580.33 35.9801 3426
1588.52 35.9801 3426
1593.45 35.9066 3419
1601.63 35.9066 3419
1606.51 35.833 3412
1614.67 35.833 3412
1622.82 35.833 3412
1630.98 35.833 3412
1639.14 35.833 3412
1643.92 35.7595 3405
1652.06 35.7595 3405
1653.38 35.6125 3391
1664.92 35.686 3398
1673.05 35.686 3398
1681.17 35.686 3398
1689.3 35.686 3398
1679.94 35.3184 3363
1674.93 35.0454 3337
1682.91 35.0454 3337
1690.89 35.0454 3337
1695.31 34.9719 3330
1713.5 35.1819 3350
1728.19 35.3184 3363
1736.23 35.3184 3363
1744.27 35.3184 3363
1749.19 35.2554 3357
1753.55 35.1819 3350
1761.56 35.1819 3350
1769.57 35.1819 3350
1777.59 35.1819 3350
1785.6 35.1819 3350
1793.61 35.1819 3350
1797.85 35.1084 3343
1795.04 34.8984 3323
1792.14 34.6883 3303
1800.04 34.6883 3303
1794.25 34.4258 3278
1780.65 34.0162 3239
1778.46 33.8271 3221
1786.16 33.8271 3221
1779.94 33.5646 3196
1767.45 33.1865 3160
1758.15 32.8715 3130
1749.28 32.5669 3101
1756.69 32.5669 3101
1735.09 32.0313 3050
1695.54 31.1701 2968
1669.94 30.5715 2911
1668.26 30.414 2896
1675.19 30.414 2896
1670.5 30.2039 2876
1663.38 29.9519 2852
1661.41 29.7944 2837
1668.2 29.7944 2837
1672.03 29.7418 2832
1673.46 29.6473 2823
1677.24 29.5948 2818
1683.98 29.5948 2818
1685.32 29.5003 2809
1689.02 29.4478 2804
1692.7 29.3953 2799
1699.4 29.3953 2799
1706.09 29.3953 2799
1709.72 29.3428 2794
1713.95 29.3008 2790
1717.54 29.2482 2785
1724.2 29.2482 2785
1722.15 29.1012 2771
1726.29 29.0592 2767
1732.9 29.0592 2767
1739.52 29.0592 2767
1742.98 29.0067 2762
1746.42 28.9542 2757
1750.47 28.9122 2753
1757.05 28.9122 2753
1763.63 28.9122 2753
1767 28.8597 2748
1770.99 28.8177 2744
1774.31 28.7652 2739
1780.86 28.7652 2739
1778.93 28.6286 2726
1782.17 28.5761 2721
1786.05 28.5341 2717
1792.55 28.5341 2717
1796.4 28.4921 2713
1796.9 28.3976 2704
1800.04 28.3451 2699
1806.49 28.3451 2699
1812.94 28.3451 2699
1814.01 28.2611 2691
1820.44 28.2611 2691
1823.48 28.2085 2686
1829.9 28.2085 2686
1833.59 28.1665 2682
1837.26 28.1245 2678
1843.67 28.1245 2678
1850.07 28.1245 2678
1856.47 28.1245 2678
1856.62 28.03 2669
1860.21 27.988 2665
1866.58 27.988 2665
1872.95 27.988 2665
1879.33 27.988 2665
1882.87 27.946 2661
1889.23 27.946 2661
1892.03 27.8935 2656
1898.38 27.8935 2656
1904.74 27.8935 2656
1908.21 27.8515 2652
1914.55 27.8515 2652
1920.89 27.8515 2652
1927.23 27.8515 2652
1933.58 27.8515 2652
1939.92 27.8515 2652
1946.26 27.8515 2652
1949.66 27.8095 2648
1955.99 27.8095 2648
1962.32 27.8095 2648
1968.65 27.8095 2648
1974.98 27.8095 2648
1981.32 27.8095 2648
1987.65 27.8095 2648
2000 27.8935 2656
2006.36 27.8935 2656
2022.56 28.03 2669
2041.86 28.2085 2686
2065.06 28.4396 2708
2071.54 28.4396 2708
-2078.46 35.8037 2776
-2071.82 35.8037 2776
-2065.18 35.8037 2776
-2054.84 35.7392 2771
-2045.25 35.6876 2767
-2038.64 35.6876 2767
-2032.02 35.6876 2767
-2015.16 35.507 2753
-2002.01 35.3909 2744
-1988.9 35.2749 2735
-1982.36 35.2749 2735
-1969.32 35.1588 2726
-1928.24 34.5397 2678
-1900.3 34.1528 2648
-1893.97 34.1528 2648
-1881.94 34.0496 2640
-1866.39 33.8819 2627
-1851.61 33.7271 2615
-1853.82 33.8819 2627
-1847.54 33.8819 2627
-1841.26 33.8819 2627
-2326.19 44.0065 3412
-2318.03 44.0065 3412
-2309.87 44.0065 3412
-2301.72 44.0065 3412
-2385.65 45.7735 3549
-2382.52 45.8767 3557
-2389.36 46.1733 3580
-2412.06 46.7795 3627
-2403.39 46.7795 3627
-2394.71 46.7795 3627
-2401.17 47.0761 3650
-2403.59 47.2954 3667
-2400.04 47.3986 3675
-2391.25 47.3986 3675
-2382.47 47.3986 3675
-2373.68 47.3986 3675
-2380.33 47.7081 3699
-2371.49 47.7081 3699
-2362.64 47.7081 3699
-2343.62 47.5018 3683
-2334.81 47.5018 3683
-2326 47.5018 3683
-2312.16 47.3986 3675
-2339.1 48.1337 3732
-2330.17 48.1337 3732
-2321.25 48.1337 3732
-2312.33 48.1337 3732
-2287.97 47.8113 3707
-2259.43 47.3986 3675
-2250.64 47.3986 3675
-2099.24 48.5723 3766
-2090.24 48.5723 3766
-2081.23 48.5723 3766
-2086.53 48.9076 3792
-2077.47 48.9076 3792
-2068.4 48.9076 3792
-2040.32 48.4562 3757
-2031.34 48.4562 3757
-1995.44 47.8113 3707
-1986.58 47.8113 3707
-1977.71 47.8113 3707
-1968.85 47.8113 3707
-1951.52 47.6049 3691
-1942.7 47.6049 3691
-1925.49 47.3986 3675
-1925.04 47.6049 3691
-1916.22 47.6049 3691
-1907.39 47.6049 3691
-1890.33 47.3986 3675
-1881.55 47.3986 3675
-1872.76 47.3986 3675
-1863.97 47.3986 3675
-1851.14 47.2954 3667
-1826.3 46.8827 3635
-1825.11 47.0761 3650
-1828.82 47.3986 3675
-1820.03 47.3986 3675
-1811.24 47.3986 3675
-1802.45 47.3986 3675
-1793.67 47.3986 3675
-1784.88 47.3986 3675
-1776.09 47.3986 3675
-1767.3 47.3986 3675
-1758.51 47.3986 3675
-1737.82 47.0761 3650
-1725.31 46.973 3642
-1709.53 46.7795 3627
-1700.85 46.7795 3627
-1699.18 46.973 3642
-1690.47 46.973 3642
-1681.76 46.973 3642
-1676.73 47.0761 3650
-1668 47.0761 3650
-1659.27 47.0761 3650
-1650.54 47.0761 3650
-1641.81 47.0761 3650
-1633.08 47.0761 3650
-1620.8 46.973 3642
-1608.99 46.8827 3635
-1589.73 46.5731 3611
-1581.09 46.5731 3611
-1555.48 46.0701 3572
-1536.97 45.7735 3549
-1522.03 45.58 3534
-1513.58 45.58 3534
-1492.77 45.206 3505
-1468.72 44.7288 3468
-1451.59 44.4579 3447
-1443.34 44.4579 3447
-1432.19 44.3676 3440
-1421.06 44.2774 3433
-1398.45 43.826 3398
-1390.32 43.826 3398
-1370.81 43.4648 3370
-1357.49 43.2971 3357
-1327.76 42.6007 3303
-1291.89 41.6978 3233
-1284.16 41.6978 3233
-1266.56 41.3754 3208
-1251.82 41.1433 3190
-1234.83 40.8337 3166
-1227.26 40.8337 3166
-1205.82 40.3694 3130
-1191.45 40.1372 3112
-1175.25 39.8406 3089
-1167.87 39.8406 3089
-1154.09 39.6213 3072
-1128.08 38.9765 3022
-1116.78 38.8346 3011
-1109.58 38.8346 3011
-1102.38 38.8346 3011
-1095.18 38.8346 3011
-1087.97 38.8346 3011
-1075.03 38.6282 2995
-1067.87 38.6282 2995
-1058.94 38.5637 2990
-1049.68 38.4864 2984
-1040.79 38.4219 2979
-1033.67 38.4219 2979
-1026.55 38.4219 2979
-1017.71 38.3574 2974
-1008.56 38.28 2968
-1001.46 38.28 2968
-992.691 38.2155 2963
-983.943 38.151 2958
-976.869 38.151 2958
-969.796 38.151 2958
-961.095 38.0865 2953
-954.033 38.0865 2953
-943.444 37.9447 2942
-936.409 37.9447 2942
-929.374 37.9447 2942
-922.339 37.9447 2942
-915.303 37.9447 2942
-908.268 37.9447 2942
-899.701 37.8802 2937
-892.678 37.8802 2937
-885.655 37.8802 2937
-880.127 37.9447 2942
-873.092 37.9447 2942
-866.057 37.9447 2942
-859.022 37.9447 2942
-851.987 37.9447 2942
-844.951 37.9447 2942
-836.492 37.8802 2937
-829.469 37.8802 2937
-822.446 37.8802 2937
-815.422 37.8802 2937
-808.399 37.8802 2937
-798.647 37.7512 2927
-791.648 37.7512 2927
-784.648 37.7512 2927
-777.649 37.7512 2927
-770.65 37.7512 2927
-763.651 37.7512 2927
-756.651 37.7512 2927
-749.652 37.7512 2927
-742.652 37.7512 2927
-734.396 37.6867 2922
-727.409 37.6867 2922
-719.189 37.6222 2917
-712.214 37.6222 2917
-703.787 37.5448 2911
-696.826 37.5448 2911
-685.126 37.2869 2891
-677.039 37.2224 2886
-670.138 37.2224 2886
-663.237 37.2224 2886
-656.335 37.2224 2886
-648.309 37.1579 2881
-640.306 37.0934 2876
-633.429 37.0934 2876
-626.552 37.0934 2876
-620.752 37.1579 2881
-614.928 37.2224 2886
-608.026 37.2224 2886
-604.249 37.4159 2901
-597.312 37.4159 2901
-602.992 38.2155 2963
-601.337 38.5637 2990
-594.187 38.5637 2990
-587.037 38.5637 2990
-680.029 46.3668 3595
-671.432 46.3668 3595
-662.835 46.3668 3595
-652.965 46.2765 3588
-640.254 45.9798 3565
-630.311 45.8767 3557
-620.407 45.7735 3549
-611.92 45.7735 3549
-603.434 45.7735 3549
-596.288 45.8767 3557
-590.261 46.0701 3572
-581.719 46.0701 3572
-573.177 46.0701 3572
-563.529 45.9798 3565
-555.004 45.9798 3565
-546.479 45.9798 3565
-536.747 45.8767 3557
-528.241 45.8767 3557
-519.735 45.8767 3557
-513.385 46.0701 3572
-504.843 46.0701 3572
-496.302 46.0701 3572
-487.76 46.0701 3572
-479.218 46.0701 3572
-470.676 46.0701 3572
-460.194 45.8767 3557
-451.688 45.8767 3557
-443.182 45.8767 3557
-432.843 45.6832 3542
-422.576 45.4897 3527
-414.142 45.4897 3527
-405.708 45.4897 3527
-396.485 45.3995 3520
-388.068 45.3995 3520
-379.651 45.3995 3520
-371.233 45.3995 3520
-362.816 45.3995 3520
-354.398 45.3995 3520
-345.195 45.2963 3512
-336.125 45.206 3505
-327.744 45.206 3505
-318.633 45.1028 3497
-307.698 44.7288 3468
-298.196 44.5482 3454
-290.524 44.6385 3461
-282.248 44.6385 3461
-273.972 44.6385 3461
-265.695 44.6385 3461
-257.419 44.6385 3461
-249.143 44.6385 3461
-240.866 44.6385 3461
-232.12 44.5482 3454
-223.86 44.5482 3454
-130.564 28.0522 2175
-125.363 28.0522 2175
-120.161 28.0522 2175
-112.159 27.3686 2122
-106.832 27.3042 2117
-101.001 27.0978 2101
-95.9767 27.0978 2101
-90.5196 26.9688 2091
-85.1922 26.8656 2083
-80.0186 26.8012 2078
-75.0495 26.8012 2078
-69.7094 26.6593 2067
-64.2966 26.4658 2052
-59.1002 26.3368 2042
-54.0047 26.2337 2034
-49.1408 26.2337 2034
-44.2334 26.2079 2032
-39.0448 25.9886 2015
-34.1414 25.9241 2010
-29.3349 25.9241 2010
-24.504 25.8983 2008
-19.6728 25.8596 2005
-14.9005 25.8983 2008
-10.134 25.9886 2015
-5.3155 25.9886 2015
-0.49875 26.0789 2022
4.35791 26.2079 2032
9.23972 26.2724 2037
14.1108 26.2724 2037
19.0471 26.3626 2044
24.0286 26.4658 2052
29.0061 26.5303 2057
33.925 26.5303 2057
39.0327 26.6593 2067
44.1458 26.7625 2075
49.226 26.827 2080
54.2 26.827 2080
59.3161 26.8914 2085
64.3945 26.9301 2088
69.3875 26.9301 2088
74.3806 26.9301 2088
79.3736 26.9301 2088
84.3667 26.9301 2088
89.4881 26.9688 2091
94.4883 26.9688 2091
99.4885 26.9688 2091
104.489 26.9688 2091
109.489 26.9688 2091
114.763 27.0333 2096
119.775 27.0333 2096
124.906 27.0591 2098
129.923 27.0591 2098
135.133 27.0978 2101
140.157 27.0978 2101
145.389 27.1365 2104
151.135 27.2655 2114
156.412 27.3042 2117
161.474 27.3042 2117
166.93 27.3686 2122
172.491 27.446 2128
177.579 27.446 2128
182.668 27.446 2128
188.021 27.4847 2131
193.57 27.5492 2136
199.422 27.6524 2144
204.549 27.6524 2144
209.676 27.6524 2144
215.404 27.7298 2150
221.366 27.833 2158
226.527 27.833 2158
233.19 28.0135 2172
238.384 28.0135 2172
243.578 28.0135 2172
248.772 28.0135 2172
402.859 42.691 3310
410.775 42.691 3310
418.69 42.691 3310
421.579 42.188 3271
423.624 41.6205 3227
431.341 41.6205 3227
434.84 41.2206 3196
439.16 40.9111 3172
442.52 40.5242 3142
444.161 39.9954 3101
451.576 39.9954 3101
454.699 39.6213 3072
456.18 39.1183 3033
460.071 38.8346 3011
467.271 38.8346 3011
471.162 38.5637 2990
476.553 38.4219 2979
481.89 38.28 2968
488.988 38.28 2968
493.578 38.0865 2953
497.927 37.8802 2937
504.09 37.8157 2932
508.487 37.6222 2917
515.462 37.6222 2917
522.438 37.6222 2917
529.413 37.6222 2917
535.285 37.5448 2911
542.246 37.5448 2911
549.208 37.5448 2911
555.213 37.4803 2906
562.162 37.4803 2906
569.112 37.4803 2906
576.061 37.4803 2906
583.01 37.4803 2906
588.944 37.4159 2901
595.881 37.4159 2901
602.818 37.4159 2901
609.755 37.4159 2901
616.693 37.4159 2901
623.63 37.4159 2901
630.567 37.4159 2901
637.504 37.4159 2901
644.441 37.4159 2901
650.256 37.3514 2896
658.316 37.4159 2901
665.253 37.4159 2901
672.19 37.4159 2901
679.127 37.4159 2901
686.064 37.4159 2901
693.001 37.4159 2901
699.939 37.4159 2901
705.657 37.3514 2896
712.583 37.3514 2896
719.508 37.3514 2896
727.687 37.4159 2901
734.625 37.4159 2901
741.562 37.4159 2901
748.499 37.4159 2901
755.436 37.4159 2901
762.373 37.4159 2901
769.31 37.4159 2901
776.247 37.4159 2901
783.185 37.4159 2901
790.122 37.4159 2901
798.433 37.4803 2906
805.382 37.4803 2906
812.331 37.4803 2906
820.69 37.5448 2911
827.651 37.5448 2911
834.612 37.5448 2911
841.573 37.5448 2911
848.534 37.5448 2911
858.728 37.6867 2922
865.715 37.6867 2922
872.703 37.6867 2922
879.69 37.6867 2922
885.16 37.6222 2917
892.136 37.6222 2917
895.721 37.4803 2906
909.193 37.7512 2927
920.887 37.9447 2942
929.5 38.0091 2947
936.547 38.0091 2947
945.515 38.0865 2953
966.125 38.6282 2995
978.486 38.8346 3011
985.687 38.8346 3011
1007.4 39.4021 3055
1018.69 39.5569 3067
1035.39 39.918 3095
1042.79 39.918 3095
1064.1 40.4468 3136
1081.85 40.8337 3166
1095.62 41.0659 3184
1103.23 41.0659 3184
1134.57 41.9429 3252
1172.2 43.0392 3337
1194.33 43.5551 3377
1202.41 43.5551 3377
1233.06 44.3676 3440
1254.28 44.832 3476
1267.68 45.0125 3490
1276.02 45.0125 3490
1284.37 45.0125 3490
1300.86 45.2963 3512
1312.24 45.3995 3520
1320.66 45.3995 3520
1331.72 45.4897 3527
1340.16 45.4897 3527
1348.59 45.4897 3527
1351.25 45.2963 3512
1359.65 45.2963 3512
1356.75 44.9222 3483
1345.49 44.2774 3433
1353.69 44.2774 3433
1342.47 43.6454 3384
1344.97 43.4648 3370
1345 43.2069 3350
1353.01 43.2069 3350
1347.61 42.7812 3317
1355.55 42.7812 3317
1360.6 42.691 3310
1368.52 42.691 3310
1371.02 42.5233 3297
1370.96 42.2782 3278
1373.33 42.1106 3265
1381.14 42.1106 3265
1388.95 42.1106 3265
1396.76 42.1106 3265
1401.55 42.0203 3258
1409.34 42.0203 3258
1417.13 42.0203 3258
1424.92 42.0203 3258
1435.79 42.1106 3265
1466.59 42.7812 3317
1483.42 43.0392 3337
1491.4 43.0392 3337
1526.78 43.826 3398
1544.4 44.0968 3419
1552.57 44.0968 3419
1560.75 44.0968 3419
1572.14 44.1871 3426
1580.33 44.1871 3426
1588.52 44.1871 3426
1593.45 44.0968 3419
1601.63 44.0968 3419
1606.51 44.0065 3412
1614.67 44.0065 3412
1622.82 44.0065 3412
1630.98 44.0065 3412
1639.14 44.0065 3412
1643.92 43.9162 3405
1652.06 43.9162 3405
1649.97 43.6454 3384
1658.06 43.6454 3384
1666.15 43.6454 3384
1674.24 43.6454 3384
1682.34 43.6454 3384
1676.94 43.2971 3357
1671.42 42.9489 3330
1679.38 42.9489 3330
1687.34 42.9489 3330
1691.74 42.8586 3323
1699.69 42.8586 3323
1707.63 42.8586 3323
1715.58 42.8586 3323
1723.53 42.8586 3323
1731.47 42.8586 3323
1736.28 42.7812 3317
1744.21 42.7812 3317
1752.14 42.7812 3317
1763.26 42.8586 3323
1771.21 42.8586 3323
1779.15 42.8586 3323
1780.11 42.691 3310
1784.24 42.6007 3303
1778.57 42.2782 3278
1786.41 42.2782 3278
