186.757 432.621 2304
192.266 432.621 2304
197.776 432.621 2304
405.496 742.254 3953
414.949 742.254 3953
432.669 756.712 4030
442.306 756.712 4030
451.943 756.712 4030
461.58 756.712 4030
472.269 758.402 4039
481.927 758.402 4039
491.586 758.402 4039
500.127 756.712 4030
508.499 754.834 4020
518.112 754.834 4020
527.726 754.834 4020
525.977 738.874 3935
525.455 725.167 3862
638.158 716.905 3818
647.288 716.905 3818
657.793 718.407 3826
666.942 718.407 3826
676.092 718.407 3826
685.241 718.407 3826
694.39 718.407 3826
703.539 718.407 3826
707.845 713.525 3800
716.932 713.525 3800
726.019 713.525 3800
733.558 712.023 3792
739.101 708.643 3774
748.126 708.643 3774
755.545 707.141 3766
764.551 707.141 3766
773.557 707.141 3766
777.16 702.259 3740
779.167 696.062 3707
788.031 696.062 3707
864.646 647.242 3447
883.778 655.316 3490
892.123 655.316 3490
904.339 658.133 3505
920.273 663.578 3534
928.723 663.578 3534
937.174 663.578 3534
943.752 662.264 3527
952.186 662.264 3527
960.62 662.264 3527
969.055 662.264 3527
977.489 662.264 3527
985.923 662.264 3527
994.357 662.264 3527
1002.79 662.264 3527
1009.22 660.949 3520
1017.64 660.949 3520
1023.72 659.447 3512
1032.12 659.447 3512
1038.44 658.133 3505
1044.44 656.631 3497
1048.58 654.002 3483
1056.91 654.002 3483
1065.24 654.002 3483
1066.79 649.871 3461
1075.07 649.871 3461
1083.34 649.871 3461
1091.62 649.871 3461
1106.89 654.002 3483
1115.21 654.002 3483
1123.54 654.002 3483
1127 651.185 3468
1135.29 651.185 3468
1148.53 654.002 3483
1156.86 654.002 3483
1165.19 654.002 3483
1173.52 654.002 3483
1181.85 654.002 3483
1192.57 655.316 3490
1203.32 656.631 3497
1211.68 656.631 3497
1220.05 656.631 3497
1236.49 660.949 3520
1252.69 665.08 3542
1261.16 665.08 3542
1269.63 665.08 3542
1286.4 669.399 3565
1294.92 669.399 3565
1303.44 669.399 3565
1314.55 670.713 3572
1334.57 676.534 3603
1346.17 678.036 3611
1354.8 678.036 3611
1369.48 681.041 3627
1378.15 681.041 3627
1386.83 681.041 3627
1395.5 681.041 3627
1404.17 681.041 3627
1397.65 673.718 3588
1406.23 673.718 3588
1408.51 670.713 3572
1414.27 669.399 3565
1407.63 662.264 3527
1404.02 656.631 3497
1412.38 656.631 3497
1403.27 648.557 3454
1397.23 641.985 3419
1382.39 631.47 3363
1390.43 631.47 3363
1384.75 625.273 3330
1387.27 622.832 3317
1389.32 620.203 3303
1397.22 620.203 3303
1394.48 615.509 3278
1393.76 611.754 3258
1401.55 611.754 3258
1406.75 610.627 3252
1414.52 610.627 3252
1416.61 608.186 3239
1421.72 607.06 3233
1429.45 607.06 3233
1437.18 607.06 3233
1442.23 605.933 3227
1449.95 605.933 3227
1457.67 605.933 3227
1465.38 605.933 3227
1473.1 605.933 3227
1480.82 605.933 3227
1488.53 605.933 3227
1496.25 605.933 3227
1503.97 605.933 3227
1508.87 604.806 3221
1513.28 603.492 3214
1512.45 600.112 3196
1520.09 600.112 3196
1524.86 598.985 3190
1520.96 594.479 3166
1522.74 592.226 3154
1530.28 592.226 3154
1523.2 586.593 3124
1522.34 583.401 3107
1515.49 577.955 3078
1522.85 577.955 3078
1518.78 573.636 3055
1504.1 565.375 3011
1476.67 552.419 2942
1478.66 550.541 2932
1485.67 550.541 2932
1476.9 544.72 2901
1476.17 541.903 2886
1480.5 540.965 2881
1487.39 540.965 2881
1486.5 538.148 2866
1486.06 535.519 2852
1490.26 534.58 2847
1494.44 533.642 2842
1501.23 533.642 2842
1505.38 532.703 2837
1512.16 532.703 2837
1516.27 531.764 2832
1523.04 531.764 2832
1527.65 531.013 2828
1528.99 529.135 2818
1533 528.196 2813
1539.73 528.196 2813
1544.26 527.445 2809
1548.21 526.506 2804
1552.15 525.567 2799
1558.84 525.567 2799
1560.5 523.878 2790
1567.17 523.878 2790
1568.2 522 2780
1582.78 524.629 2794
1595.15 526.506 2804
1601.85 526.506 2804
1611.43 527.445 2809
1623.33 529.135 2818
1632.96 530.074 2823
1639.71 530.074 2823
1649.38 531.013 2828
1656.14 531.013 2828
1674.08 534.58 2847
1680.88 534.58 2847
1687.69 534.58 2847
1708.78 539.087 2871
1733.58 544.72 2901
1740.51 544.72 2901
1797.45 560.305 2984
1808.21 561.431 2990
1815.36 561.431 2990
1822.51 561.431 2990
1829.66 561.431 2990
1820.22 556.362 2963
1827.31 556.362 2963
1818.3 551.48 2937
1806.06 545.659 2906
1797.41 540.965 2881
1794.9 538.148 2866
1801.76 538.148 2866
1806.09 537.397 2862
1812.93 537.397 2862
1819.77 537.397 2862
1826.62 537.397 2862
1833.46 537.397 2862
1833.88 535.519 2852
1840.7 535.519 2852
1847.52 535.519 2852
1854.34 535.519 2852
1851.37 532.703 2837
1842.43 528.196 2813
1843.24 526.506 2804
1849.95 526.506 2804
1850.03 524.629 2794
1850.73 522.939 2785
1854.06 522 2780
1860.7 522 2780
1864.67 521.249 2776
1871.3 521.249 2776
1874.56 520.31 2771
1881.19 520.31 2771
1875.55 516.93 2753
1878.71 515.991 2748
1879.11 514.301 2739
1882.91 513.55 2735
1889.45 513.55 2735
1895.99 513.55 2735
1890.01 510.17 2717
1896.5 510.17 2717
1905.8 510.921 2721
1912.31 510.921 2721
1918.82 510.921 2721
1931.69 512.611 2730
1944.61 514.301 2739
1951.16 514.301 2739
1957.71 514.301 2739
1964.26 514.301 2739
1974.41 515.24 2744
1980.97 515.24 2744
1987.53 515.24 2744
2003.54 517.681 2757
2013.78 518.62 2762
2024.04 519.559 2767
2030.66 519.559 2767
2037.27 519.559 2767
2043.89 519.559 2767
2050.51 519.559 2767
2040.02 515.24 2744
2046.58 515.24 2744
2053.15 515.24 2744
2066.46 516.93 2753
2073.05 516.93 2753
2132.51 530.074 2823
2143.05 531.013 2828
2149.81 531.013 2828
2156.57 531.013 2828
2163.34 531.013 2828
-2211.33 582.096 3061
-2208.33 583.237 3067
-2237.59 592.935 3118
-2230.14 592.935 3118
-2239.79 597.499 3142
-2257.85 604.345 3178
-2250.25 604.345 3178
-2242.65 604.345 3178
-2226.62 602.063 3166
-2219.04 602.063 3166
-2219.86 604.345 3178
-2212.26 604.345 3178
-2204.66 604.345 3178
-2197.06 604.345 3178
-2189.46 604.345 3178
-2177.74 603.204 3172
-2170.15 603.204 3172
-2200.07 613.663 3227
-2213.41 619.558 3258
-2205.62 619.558 3258
-2197.83 619.558 3258
-2194.74 620.889 3265
-2186.93 620.889 3265
-2179.13 620.889 3265
-2192.6 626.975 3297
-2219.84 637.054 3350
-2225.03 640.857 3370
-2216.97 640.857 3370
-2213.5 642.188 3377
-2232.85 650.175 3419
-2229.23 651.506 3426
-2221.04 651.506 3426
-2212.85 651.506 3426
-2213.66 654.168 3440
-2205.44 654.168 3440
-2197.21 654.168 3440
-2188.99 654.168 3440
-2180.76 654.168 3440
-2172.53 654.168 3440
-2164.31 654.168 3440
-2156.08 654.168 3440
-2147.86 654.168 3440
-2139.63 654.168 3440
-2131.4 654.168 3440
-2123.18 654.168 3440
-2114.95 654.168 3440
-2106.73 654.168 3440
-2098.5 654.168 3440
-2090.27 654.168 3440
-2073.57 651.506 3426
-2065.38 651.506 3426
-2040.38 646.181 3398
-2036.44 647.513 3405
-2028.29 647.513 3405
-2020.15 647.513 3405
-2012.01 647.513 3405
-1999.75 646.181 3398
-1983.42 643.519 3384
-1979.41 644.85 3391
-1971.3 644.85 3391
-1975.35 648.844 3412
-1975.26 651.506 3426
-1975.11 654.168 3440
-1966.88 654.168 3440
-1962.64 655.5 3447
-1966.31 659.493 3468
-1962.53 661.014 3476
-1954.22 661.014 3476
-1945.91 661.014 3476
-1945.4 663.677 3490
-1940.94 665.008 3497
-1932.57 665.008 3497
-1928.61 666.529 3505
-1920.23 666.529 3505
-1911.85 666.529 3505
-1903.47 666.529 3505
-1903.2 669.382 3520
-1894.78 669.382 3520
-1890.11 670.713 3527
-1881.68 670.713 3527
-1873.25 670.713 3527
-1864.81 670.713 3527
-1864.27 673.565 3542
-1855.8 673.565 3542
-1850.98 674.896 3549
-1850.8 677.939 3565
-1845.9 679.27 3572
-1837.35 679.27 3572
-1828.81 679.27 3572
-1820.27 679.27 3572
-1811.73 679.27 3572
-1803.19 679.27 3572
-1794.65 679.27 3572
-1786.1 679.27 3572
-1781.54 680.792 3580
-1772.98 680.792 3580
-1768.36 682.313 3588
-1763.22 683.644 3595
-1762.43 686.687 3611
-1753.79 686.687 3611
-1749.03 688.208 3619
-1748.07 691.251 3635
-1758.51 698.857 3675
-1749.73 698.857 3675
-1744.73 700.379 3683
-1735.92 700.379 3683
-1730.87 701.9 3691
-1722.04 701.9 3691
-1716.93 703.421 3699
-1727.01 711.218 3740
-1733.69 717.684 3774
-1724.66 717.684 3774
-1727.46 722.628 3800
-1726.51 726.051 3818
-1720.98 727.572 3826
-1711.83 727.572 3826
-1702.68 727.572 3826
-1693.53 727.572 3826
-1684.38 727.572 3826
-1671.73 726.051 3818
-1647.36 719.395 3783
-1612.76 708.175 3724
-1586.2 700.379 3683
-1577.39 700.379 3683
-1561.77 697.336 3667
-1532.67 688.208 3619
-1504.23 679.27 3572
-1495.68 679.27 3572
-1477.57 674.896 3549
-1462.87 672.044 3534
-1448.66 669.382 3520
-1440.24 669.382 3520
-1419.62 663.677 3490
-1411.28 663.677 3490
-1400.12 662.345 3483
-1391.79 662.345 3483
-1380.68 661.014 3476
-1369.21 659.493 3468
-1360.91 659.493 3468
-1352.62 659.493 3468
-1341.61 658.162 3461
-1341.81 662.345 3483
-1344.59 667.86 3512
-1341.9 670.713 3527
-1333.46 670.713 3527
-1325.03 670.713 3527
-1322.19 673.565 3542
-1316.32 674.896 3549
-1310.78 676.418 3557
-1302.27 676.418 3557
-1293.77 676.418 3557
-1288.15 677.939 3565
-1279.63 677.939 3565
-1271.1 677.939 3565
-1259.75 676.418 3557
-1251.24 676.418 3557
-1242.73 676.418 3557
-1231.45 674.896 3549
-1222.97 674.896 3549
-1209.35 672.044 3534
-1200.89 672.044 3534
-1192.44 672.044 3534
-1183.99 672.044 3534
-1175.54 672.044 3534
-1167.09 672.044 3534
-1158.64 672.044 3534
-1160.28 677.939 3565
-1161.45 683.644 3595
-1157.98 686.687 3611
-1149.35 686.687 3611
-1155.56 695.624 3658
-1170.01 709.697 3732
-1163.57 711.218 3740
-1154.63 711.218 3740
-1145.69 711.218 3740
-1134.31 709.697 3732
-1127.8 711.218 3740
-1118.86 711.218 3740
-1125.35 721.107 3792
-1116.28 721.107 3792
-1107.21 721.107 3792
-1088.01 714.451 3757
-1089.07 721.107 3792
-1094.82 730.995 3844
-1085.62 730.995 3844
-1076.43 730.995 3844
-1067.24 730.995 3844
-1053.09 727.572 3826
-1043.94 727.572 3826
-1032.63 726.051 3818
-1023.5 726.051 3818
-1014.37 726.051 3818
-1005.24 726.051 3818
-980.26 721.107 3792
-977.851 726.051 3818
-973.035 729.284 3835
-963.864 729.284 3835
-954.693 729.284 3835
-945.523 729.284 3835
-936.352 729.284 3835
-920.895 724.339 3809
-911.787 724.339 3809
-902.678 724.339 3809
-893.57 724.339 3809
-884.461 724.339 3809
-875.353 724.339 3809
-862.378 721.107 3792
-853.311 721.107 3792
-844.243 721.107 3792
-835.175 721.107 3792
-826.107 721.107 3792
-813.161 717.684 3774
-804.136 717.684 3774
-793.426 716.162 3766
-782.546 714.451 3757
-773.562 714.451 3757
-764.577 714.451 3757
-753.984 712.929 3749
-741.641 709.697 3732
-726.238 703.421 3699
-717.392 703.421 3699
-705.482 700.379 3683
-691.946 695.624 3658
-680.21 692.582 3642
-671.501 692.582 3642
-662.792 692.582 3642
-654.083 692.582 3642
-645.374 692.582 3642
-636.665 692.582 3642
-626.748 691.251 3635
-615.336 688.208 3619
-602.658 683.644 3595
-594.061 683.644 3595
-585.465 683.644 3595
-576.868 683.644 3595
-568.271 683.644 3595
-559.674 683.644 3595
-551.078 683.644 3595
-542.481 683.644 3595
-535.072 685.165 3603
-526.456 685.165 3603
-517.841 685.165 3603
-509.225 685.165 3603
-501.72 686.687 3611
-493.085 686.687 3611
-484.45 686.687 3611
-475.815 686.687 3611
-467.18 686.687 3611
-457.53 685.165 3603
-448.914 685.165 3603
-440.298 685.165 3603
-434.557 689.729 3627
-426.824 691.251 3635
-418.936 692.582 3642
-410.227 692.582 3642
-401.518 692.582 3642
-392.809 692.582 3642
-384.944 694.103 3650
-376.215 694.103 3650
-367.487 694.103 3650
-360.43 697.336 3667
-351.661 697.336 3667
-342.892 697.336 3667
-334.852 698.857 3675
-326.064 698.857 3675
-318.657 701.9 3691
-309.831 701.9 3691
-303.043 706.654 3716
-294.157 706.654 3716
-285.271 706.654 3716
-276.385 706.654 3716
-267.499 706.654 3716
-260.283 711.218 3740
-251.34 711.218 3740
-242.396 711.218 3740
-141.133 429.964 2261
-135.726 429.964 2261
-130.319 429.964 2261
-124.692 429.203 2257
-119.294 429.203 2257
-113.443 427.491 2248
-108.067 427.491 2248
-102.555 426.921 2245
-96.9266 425.78 2239
-91.5724 425.78 2239
-85.9873 424.639 2233
-80.6475 424.639 2233
-75.2065 424.068 2230
-69.8739 424.068 2230
-64.4545 423.498 2227
-59.1291 423.498 2227
-53.8036 423.498 2227
-48.4782 423.498 2227
-43.0365 422.357 2221
-37.7254 422.357 2221
-32.3268 421.216 2215
-27.0056 420.836 2213
-21.7333 421.216 2215
-16.4366 421.216 2215
-11.1398 421.216 2215
-5.84309 421.216 2215
-0.546355 421.216 2215
4.79542 425.209 2236
10.1424 425.209 2236
15.5101 425.78 2239
21.0972 430.534 2264
26.5814 431.675 2270
32.0096 431.675 2270
37.5863 433.387 2279
43.0927 433.957 2282
48.6774 435.098 2288
54.1487 435.098 2288
59.8805 437 2298
65.4611 437.57 2301
71.056 438.141 2304
76.5656 438.141 2304
82.182 438.711 2307
87.6987 438.711 2307
93.2155 438.711 2307
98.6038 438.141 2304
104.113 438.141 2304
109.623 438.141 2304
115.132 438.141 2304
120.642 438.141 2304
126.152 438.141 2304
131.661 438.141 2304
137.171 438.141 2304
142.68 438.141 2304
147.997 437.57 2301
153.099 436.429 2295
158.38 435.859 2292
163.861 435.859 2292
169.342 435.859 2292
175.051 436.429 2295
181.011 437.57 2301
186.757 438.141 2304
192.266 438.141 2304
197.776 438.141 2304
405.496 751.723 3953
414.949 751.723 3953
432.669 766.366 4030
442.306 766.366 4030
451.943 766.366 4030
461.58 766.366 4030
465.604 757.238 3982
473.933 755.336 3972
483.431 755.336 3972
490.572 751.723 3953
497.748 748.3 3935
502.389 741.264 3898
511.71 741.264 3898
521.031 741.264 3898
525.455 734.418 3862
638.158 726.051 3818
647.288 726.051 3818
657.793 727.572 3826
666.942 727.572 3826
676.092 727.572 3826
685.241 727.572 3826
694.39 727.572 3826
703.539 727.572 3826
707.845 722.628 3800
716.932 722.628 3800
726.019 722.628 3800
733.558 721.107 3792
739.101 717.684 3774
748.126 717.684 3774
755.545 716.162 3766
764.551 716.162 3766
773.557 716.162 3766
777.16 711.218 3740
779.167 704.943 3707
788.031 704.943 3707
864.646 655.5 3447
883.778 663.677 3490
892.123 663.677 3490
904.339 666.529 3505
920.273 672.044 3534
928.723 672.044 3534
937.174 672.044 3534
943.752 670.713 3527
952.186 670.713 3527
960.62 670.713 3527
969.055 670.713 3527
977.489 670.713 3527
985.923 670.713 3527
994.357 670.713 3527
1002.79 670.713 3527
1009.22 669.382 3520
1017.64 669.382 3520
1023.72 667.86 3512
1032.12 667.86 3512
1038.44 666.529 3505
1044.44 665.008 3497
1048.58 662.345 3483
1056.91 662.345 3483
1065.24 662.345 3483
1066.79 658.162 3461
1075.07 658.162 3461
1083.34 658.162 3461
1091.62 658.162 3461
1106.89 662.345 3483
1115.21 662.345 3483
1123.54 662.345 3483
1127 659.493 3468
1135.29 659.493 3468
1148.53 662.345 3483
1156.86 662.345 3483
1165.19 662.345 3483
1173.52 662.345 3483
1181.85 662.345 3483
1192.57 663.677 3490
1203.32 665.008 3497
1211.68 665.008 3497
1220.05 665.008 3497
1236.49 669.382 3520
1252.69 673.565 3542
1261.16 673.565 3542
1269.63 673.565 3542
1286.4 677.939 3565
1294.92 677.939 3565
1303.44 677.939 3565
1314.55 679.27 3572
1334.57 685.165 3603
1346.17 686.687 3611
1354.8 686.687 3611
1369.48 689.729 3627
1378.15 689.729 3627
1386.83 689.729 3627
1395.5 689.729 3627
1401.08 688.208 3619
1397.65 682.313 3588
1406.23 682.313 3588
1408.51 679.27 3572
1414.27 677.939 3565
1407.63 670.713 3527
1404.02 665.008 3497
1412.38 665.008 3497
1403.27 656.831 3454
1394.37 648.844 3412
1379.92 638.385 3357
1387.95 638.385 3357
1384.75 633.25 3330
1384.35 629.447 3310
1389.32 628.116 3303
1397.22 628.116 3303
1394.48 623.362 3278
1396.76 620.889 3265
1401.55 619.558 3258
1406.75 618.417 3252
1414.52 618.417 3252
1419.68 617.276 3246
1421.72 614.804 3233
1429.45 614.804 3233
1437.18 614.804 3233
1444.92 614.804 3233
1449.95 613.663 3227
1457.67 613.663 3227
1465.38 613.663 3227
1473.1 613.663 3227
1480.82 613.663 3227
1488.53 613.663 3227
1496.25 613.663 3227
1503.97 613.663 3227
1511.68 613.663 3227
1516.58 612.522 3221
1515.29 608.909 3202
1522.94 608.909 3202
1527.73 607.768 3196
1523.85 603.204 3172
1525.64 600.922 3160
1533.19 600.922 3160
1526.12 595.217 3130
1522.34 590.843 3107
1518.44 586.47 3084
1525.82 586.47 3084
1518.78 580.955 3055
1504.1 572.588 3011
1476.67 559.466 2942
1478.66 557.564 2932
1485.67 557.564 2932
1476.9 551.669 2901
1476.17 548.817 2886
1480.5 547.866 2881
1487.39 547.866 2881
1486.5 545.014 2866
1486.06 542.351 2852
1490.26 541.4 2847
1494.44 540.45 2842
1501.23 540.45 2842
1505.38 539.499 2837
1512.16 539.499 2837
1518.94 539.499 2837
1525.73 539.499 2837
1529.81 538.548 2832
1528.99 535.886 2818
1535.73 535.886 2818
1542.47 535.886 2818
1544.26 534.174 2809
1548.21 533.223 2804
1552.15 532.272 2799
1558.84 532.272 2799
1560.5 530.561 2790
1567.17 530.561 2790
1568.2 528.659 2780
1582.78 531.322 2794
1595.15 533.223 2804
1601.85 533.223 2804
1613.72 534.935 2813
1623.33 535.886 2818
1632.96 536.836 2823
1639.71 536.836 2823
1649.38 537.787 2828
1667.27 541.4 2847
1677.02 542.351 2852
1683.84 542.351 2852
1701.92 545.964 2871
1818.3 580.955 3055
1853.09 589.702 3101
1860.51 589.702 3101
1881.78 594.076 3124
1889.25 594.076 3124
1896.72 594.076 3124
1904.19 594.076 3124
1911.66 594.076 3124
1915.44 592.935 3118
1922.9 592.935 3118
1919.83 589.702 3101
1898.66 580.955 3055
1878.51 572.588 3011
1878.82 570.496 3000
1886 570.496 3000
1886.86 568.594 2990
1894.01 568.594 2990
1890.99 565.551 2974
1898.1 565.551 2974
1905.21 565.551 2974
1885.32 557.564 2932
1889.1 556.614 2927
1896.1 556.614 2927
1892.7 553.571 2911
1870.29 545.014 2866
1858.15 539.499 2837
1855.73 536.836 2823
1862.48 536.836 2823
1862.61 534.935 2813
1856.71 531.322 2794
1860.73 530.561 2790
1867.4 530.561 2790
1867.35 528.659 2780
1874 528.659 2780
1877.94 527.899 2776
1884.58 527.899 2776
1878.27 524.286 2757
1884.87 524.286 2757
1879.11 520.863 2739
1882.91 520.102 2735
1889.45 520.102 2735
1895.99 520.102 2735
1890.01 516.679 2717
1899.3 517.44 2721
1905.8 517.44 2721
1912.31 517.44 2721
1925.16 519.151 2730
1944.43 522.574 2748
1951 522.574 2748
1957.57 522.574 2748
1964.14 522.574 2748
1970.71 522.574 2748
1977.28 522.574 2748
1983.86 522.574 2748
1990.43 522.574 2748
2003.54 524.286 2757
2017.42 526.187 2767
2024.04 526.187 2767
2030.66 526.187 2767
2037.27 526.187 2767
2043.89 526.187 2767
2050.51 526.187 2767
2043 522.574 2748
2053.3 523.525 2753
2059.88 523.525 2753
2083.73 527.899 2776
2090.37 527.899 2776
2266.22 570.496 3000
2286.27 573.729 3017
2297.29 574.679 3022
2304.51 574.679 3022
2311.74 574.679 3022
-2220.88 586.155 3044
-2230.33 590.584 3067
-2223 590.584 3067
-2235.89 595.975 3095
-2245.05 600.404 3118
-2254.82 605.026 3142
-2247.3 605.026 3142
-2265.45 611.958 3178
-2262.12 613.113 3184
-2254.5 613.113 3184
-2246.89 613.113 3184
-2239.27 613.113 3184
-2231.66 613.113 3184
-2232.43 615.424 3196
-2224.79 615.424 3196
-2225.47 617.735 3208
-2226.78 620.238 3221
-2219.08 620.238 3221
-2211.38 620.238 3221
-2207.78 621.393 3227
-2230.06 629.866 3271
-2235.15 633.525 3290
-2227.28 633.525 3290
-2219.41 633.525 3290
-2216.25 634.873 3297
-2221.76 638.724 3317
-2213.83 638.724 3317
-2232.5 646.426 3357
-2256.28 655.669 3405
-2266.63 661.061 3433
-2258.42 661.061 3433
-2254.8 662.409 3440
-2264.86 667.801 3468
-2266.32 670.689 3483
-2257.99 670.689 3483
-2249.66 670.689 3483
-2241.34 670.689 3483
-2233.01 670.689 3483
-2224.68 670.689 3483
-2216.35 670.689 3483
-2208.02 670.689 3483
-2199.69 670.689 3483
-2181.92 667.801 3468
-2173.63 667.801 3468
-2165.34 667.801 3468
-2157.05 667.801 3468
-2148.75 667.801 3468
-2140.46 667.801 3468
-2132.17 667.801 3468
-2123.87 667.801 3468
-2115.58 667.801 3468
-2098.78 665.105 3454
-2082.05 662.409 3440
-2073.82 662.409 3440
-2057.19 659.713 3426
-2040.62 657.017 3412
-2032.46 657.017 3412
-2024.3 657.017 3412
-2016.15 657.017 3412
-2003.87 655.669 3405
-1983.42 651.626 3384
-1975.32 651.626 3384
-1967.23 651.626 3384
-1967.24 654.321 3398
-1971.23 658.365 3419
-1963.05 658.365 3419
-1954.88 658.365 3419
-1950.68 659.713 3426
-1954.4 663.757 3447
-1958.01 667.801 3468
-1949.72 667.801 3468
-1941.43 667.801 3468
-1941.49 670.689 3483
-1937.05 672.037 3490
-1928.71 672.037 3490
-1924.21 673.385 3497
-1915.85 673.385 3497
-1907.49 673.385 3497
-1899.12 673.385 3497
-1890.76 673.385 3497
-1882.4 673.385 3497
-1882.08 676.273 3512
-1873.68 676.273 3512
-1869.53 677.814 3520
-1861.11 677.814 3520
-1860.06 680.51 3534
-1851.61 680.51 3534
-1847.33 682.05 3542
-1846.65 684.939 3557
-1838.14 684.939 3557
-1829.64 684.939 3557
-1821.13 684.939 3557
-1812.63 684.939 3557
-1804.12 684.939 3557
-1795.61 684.939 3557
-1791.13 686.479 3565
-1786.1 687.827 3572
-1777.56 687.827 3572
-1769.02 687.827 3572
-1764.42 689.367 3580
-1759.78 690.908 3588
-1758.53 693.796 3603
-1749.91 693.796 3603
-1745.16 695.337 3611
-1748.07 699.958 3635
-1758.51 707.661 3675
-1749.73 707.661 3675
-1744.73 709.201 3683
-1735.92 709.201 3683
-1730.87 710.742 3691
-1722.04 710.742 3691
-1716.93 712.282 3699
-1727.01 720.177 3740
-1730.01 725.184 3766
-1721.01 725.184 3766
-1727.46 731.731 3800
-1722.44 733.464 3809
-1720.98 736.737 3826
-1711.83 736.737 3826
-1702.68 736.737 3826
-1693.53 736.737 3826
-1684.38 736.737 3826
-1671.73 735.197 3818
-1651.28 730.19 3792
-1616.23 718.637 3732
-1586.2 709.201 3683
-1577.39 709.201 3683
-1561.77 706.12 3667
-1532.67 696.877 3619
-1507.6 689.367 3580
-1499.03 689.367 3580
-1477.57 683.398 3549
-1459.97 679.162 3527
-1445.37 676.273 3512
-1436.97 676.273 3512
-1428.57 676.273 3512
-1411.28 672.037 3490
-1402.93 672.037 3490
-1394.58 672.037 3490
-1383.46 670.689 3483
-1375.13 670.689 3483
-1366.8 670.689 3483
-1361.2 672.037 3490
-1352.86 672.037 3490
-1352.99 676.273 3512
-1350.33 679.162 3527
-1350.27 683.398 3549
-1341.78 683.398 3549
-1341.93 687.827 3572
-1336.38 689.367 3580
-1330.78 690.908 3588
-1322.2 690.908 3588
-1319.12 693.796 3603
-1310.5 693.796 3603
-1301.88 693.796 3603
-1293.27 693.796 3603
-1284.65 693.796 3603
-1276.04 693.796 3603
-1267.42 693.796 3603
-1258.81 693.796 3603
-1250.19 693.796 3603
-1241.57 693.796 3603
-1230.22 692.256 3595
-1221.62 692.256 3595
-1210.66 690.908 3588
-1202.08 690.908 3588
-1190.84 689.367 3580
-1182.28 689.367 3580
-1173.72 689.367 3580
-1167.76 690.908 3588
-1161.45 692.256 3595
-1157.98 695.337 3611
-1149.35 695.337 3611
-1155.56 704.387 3658
-1157.16 710.742 3691
-1161.09 718.637 3732
-1152.16 718.637 3732
-1143.24 718.637 3732
-1131.88 717.096 3724
-1122.98 717.096 3724
-1114.07 717.096 3724
-1114.96 723.451 3757
-1105.97 723.451 3757
-1096.99 723.451 3757
-1088.01 723.451 3757
-1089.07 730.19 3792
-1089.69 736.737 3826
-1080.54 736.737 3826
-1071.39 736.737 3826
-1062.24 736.737 3826
-1053.09 736.737 3826
-1043.94 736.737 3826
-1032.63 735.197 3818
-1023.5 735.197 3818
-1014.37 735.197 3818
-1005.24 735.197 3818
-991.415 731.731 3800
-982.328 731.731 3800
-975.546 733.464 3809
-977.602 741.937 3853
-968.388 741.937 3853
-959.174 741.937 3853
-949.961 741.937 3853
-940.747 741.937 3853
-925.005 736.737 3826
-911.787 733.464 3809
-902.678 733.464 3809
-893.57 733.464 3809
-884.461 733.464 3809
-875.353 733.464 3809
-864.198 731.731 3800
-855.111 731.731 3800
-846.024 731.731 3800
-836.937 731.731 3800
-827.85 731.731 3800
-813.161 726.724 3774
-804.136 726.724 3774
-793.426 725.184 3766
-784.42 725.184 3766
-773.562 723.451 3757
-764.577 723.451 3757
-755.593 723.451 3757
-743.231 720.177 3740
-727.808 713.823 3707
-718.944 713.823 3707
-707.014 710.742 3691
-693.648 706.12 3667
-680.21 701.306 3642
-671.501 701.306 3642
-662.792 701.306 3642
-654.083 701.306 3642
-645.374 701.306 3642
-636.665 701.306 3642
-626.748 699.958 3635
-615.336 696.877 3619
-603.999 693.796 3603
-595.383 693.796 3603
-585.465 692.256 3595
-576.868 692.256 3595
-568.271 692.256 3595
-559.674 692.256 3595
-551.078 692.256 3595
-542.481 692.256 3595
-533.884 692.256 3595
-525.288 692.256 3595
-517.841 693.796 3603
-509.225 693.796 3603
-500.609 693.796 3603
-493.085 695.337 3611
-484.45 695.337 3611
-475.815 695.337 3611
-466.145 693.796 3603
-457.53 693.796 3603
-448.914 693.796 3603
-440.298 693.796 3603
-433.599 696.877 3619
-425.884 698.418 3627
-417.211 698.418 3627
-408.538 698.418 3627
-399.864 698.418 3627
-391.191 698.418 3627
-383.362 699.958 3635
-374.669 699.958 3635
-365.977 699.958 3635
-358.759 702.847 3650
-350.031 702.847 3650
-341.302 702.847 3650
-332.574 702.847 3650
-324.556 704.387 3658
-317.276 707.661 3675
-308.488 707.661 3675
-299.7 707.661 3675
-290.912 707.661 3675
-282.124 707.661 3675
-273.336 707.661 3675
-263.324 704.387 3658
-254.577 704.387 3658
-245.829 704.387 3658
-237.082 704.387 3658
-141.507 436.535 2267
-136.086 436.535 2267
-130.665 436.535 2267
-124.913 435.38 2261
-119.294 434.61 2257
-113.292 432.299 2245
-107.923 432.299 2245
-102.555 432.299 2245
-97.0564 431.721 2242
-91.5724 431.143 2239
-86.1028 430.566 2236
-80.7558 430.566 2236
-75.3077 429.988 2233
-69.9679 429.988 2233
-64.6282 429.988 2233
-59.2884 429.988 2233
-53.9486 429.988 2233
-48.4782 428.833 2227
-43.0946 428.255 2224
-37.7764 428.255 2224
-32.3706 427.1 2218
-27.03 426.522 2215
-21.7627 427.1 2218
-16.4588 427.1 2218
-11.1549 427.1 2218
-5.85101 427.1 2218
-0.547095 427.1 2218
4.79542 430.566 2236
10.1424 430.566 2236
15.5517 432.299 2245
21.0972 435.957 2264
26.6516 438.268 2276
32.0942 438.268 2276
37.7347 440.579 2288
43.2061 440.579 2288
48.7625 441.349 2292
54.2433 441.349 2292
59.9587 443.082 2301
65.5464 443.66 2304
71.1485 444.238 2307
76.6653 444.238 2307
82.3245 445.008 2311
87.8508 445.008 2311
93.3771 445.008 2311
98.7322 444.238 2307
104.249 444.238 2307
109.766 444.238 2307
115.282 444.238 2307
120.799 444.238 2307
126.316 444.238 2307
131.833 444.238 2307
137.171 443.66 2304
142.68 443.66 2304
148.19 443.66 2304
153.299 442.505 2298
158.794 442.505 2298
164.29 442.505 2298
169.785 442.505 2298
175.509 443.082 2301
181.247 443.66 2304
186.757 443.66 2304
192.266 443.66 2304
197.776 443.66 2304
397.045 763.118 3963
406.522 763.118 3963
415.999 763.118 3963
424.402 761.193 3953
433.855 761.193 3953
443.308 761.193 3953
452.76 761.193 3953
461.161 759.46 3944
468.325 755.801 3925
477.711 755.801 3925
484.863 752.335 3907
494.206 752.335 3907
501.229 748.869 3889
510.529 748.869 3889
519.828 748.869 3889
525.455 743.67 3862
524.998 730.19 3792
531.531 726.724 3774
540.556 726.724 3774
549.581 726.724 3774
553.573 720.177 3740
558.907 715.556 3716
569.015 717.096 3724
577.92 717.096 3724
589.347 720.177 3740
601.01 723.451 3757
614.215 728.457 3783
623.262 728.457 3783
638.158 735.197 3818
648.644 736.737 3826
659.341 738.47 3835
668.511 738.47 3835
677.682 738.47 3835
686.853 738.47 3835
696.023 738.47 3835
705.194 738.47 3835
711.198 735.197 3818
716.932 731.731 3800
726.019 731.731 3800
735.106 731.731 3800
744.193 731.731 3800
751.694 730.19 3792
760.762 730.19 3792
769.829 730.19 3792
778.897 730.19 3792
780.692 723.451 3757
786.103 720.177 3740
795.047 720.177 3740
796.896 713.823 3707
856.403 663.757 3447
871.92 669.341 3476
887.576 674.925 3505
895.958 674.925 3505
908.21 677.814 3520
922.356 682.05 3542
930.826 682.05 3542
939.296 682.05 3542
945.625 680.51 3534
954.076 680.51 3534
962.527 680.51 3534
970.978 680.51 3534
979.429 680.51 3534
985.923 679.162 3527
994.357 679.162 3527
1002.79 679.162 3527
1011.23 679.162 3527
1017.64 677.814 3520
1026.05 677.814 3520
1034.47 677.814 3520
1042.89 677.814 3520
1046.83 674.925 3505
1048.58 670.689 3483
1056.91 670.689 3483
1065.24 670.689 3483
1071.41 669.341 3476
1079.72 669.341 3476
1088.04 669.341 3476
1096.35 669.341 3476
1109.11 672.037 3490
1117.46 672.037 3490
1125.8 672.037 3490
1131.87 670.689 3483
1140.2 670.689 3483
1148.53 670.689 3483
1156.86 670.689 3483
1165.19 670.689 3483
1173.52 670.689 3483
1184.22 672.037 3490
1192.57 672.037 3490
1203.32 673.385 3497
1211.68 673.385 3497
1220.05 673.385 3497
1236.49 677.814 3520
1252.69 682.05 3542
1261.16 682.05 3542
1269.63 682.05 3542
1286.4 686.479 3565
1294.92 686.479 3565
1303.44 686.479 3565
1314.55 687.827 3572
1334.57 693.796 3603
1346.17 695.337 3611
1354.8 695.337 3611
1369.48 698.418 3627
1381.19 699.958 3635
1389.89 699.958 3635
1398.58 699.958 3635
1401.08 696.877 3619
1394.54 689.367 3580
1403.1 689.367 3580
1405.74 686.479 3565
1407.92 683.398 3549
1404.84 677.814 3520
1401.21 672.037 3490
1409.55 672.037 3490
1400.43 663.757 3447
1391.51 655.669 3405
1377.04 645.078 3350
1385.05 645.078 3350
1384.75 641.227 3330
1384.35 637.376 3310
1389.32 636.028 3303
1397.22 636.028 3303
1394.48 631.214 3278
1396.76 628.711 3265
1401.55 627.363 3258
1406.75 626.208 3252
1414.52 626.208 3252
1419.68 625.052 3246
1421.72 622.549 3233
1429.45 622.549 3233
1437.18 622.549 3233
1444.92 622.549 3233
1449.95 621.393 3227
1457.67 621.393 3227
1465.38 621.393 3227
1473.1 621.393 3227
1480.82 621.393 3227
1488.53 621.393 3227
1496.25 621.393 3227
1503.97 621.393 3227
1511.68 621.393 3227
1516.58 620.238 3221
1515.29 616.579 3202
1522.94 616.579 3202
1527.73 615.424 3196
1523.85 610.803 3172
1525.64 608.492 3160
1533.19 608.492 3160
1526.12 602.715 3130
1522.34 598.286 3107
1518.44 593.857 3084
1525.82 593.857 3084
1516.29 587.31 3050
1496.11 576.719 2995
1471.65 564.588 2932
1476.14 563.625 2927
1483.14 563.625 2927
1476.9 558.619 2901
1476.17 555.73 2886
1477.93 553.805 2876
1484.81 553.805 2876
1486.5 551.879 2866
1486.06 549.183 2852
1490.26 548.22 2847
1494.44 547.258 2842
1501.23 547.258 2842
1505.38 546.295 2837
1512.16 546.295 2837
1518.94 546.295 2837
1525.73 546.295 2837
1529.81 545.332 2832
1528.99 542.636 2818
1535.73 542.636 2818
1542.47 542.636 2818
1544.26 540.903 2809
1548.21 539.94 2804
1552.15 538.977 2799
1558.84 538.977 2799
1560.5 537.244 2790
1567.17 537.244 2790
1568.2 535.319 2780
1582.78 538.015 2794
1595.15 539.94 2804
1601.85 539.94 2804
1613.72 541.673 2813
1623.33 542.636 2818
1632.96 543.599 2823
1639.71 543.599 2823
1649.38 544.562 2828
1667.27 548.22 2847
1677.02 549.183 2852
1683.84 549.183 2852
1701.92 552.842 2871
1818.3 588.273 3055
1853.09 597.131 3101
1860.51 597.131 3101
1881.78 601.56 3124
1889.25 601.56 3124
1896.72 601.56 3124
1904.19 601.56 3124
1911.66 601.56 3124
1915.44 600.404 3118
1922.9 600.404 3118
1919.83 597.131 3101
1898.66 588.273 3055
1878.51 579.8 3011
1878.82 577.682 3000
1886 577.682 3000
1886.86 575.757 2990
1894.01 575.757 2990
1890.99 572.676 2974
1898.1 572.676 2974
1905.21 572.676 2974
1885.32 564.588 2932
1889.1 563.625 2927
1896.1 563.625 2927
1892.7 560.544 2911
1870.29 551.879 2866
1858.15 546.295 2837
1855.73 543.599 2823
1862.48 543.599 2823
1862.61 541.673 2813
1856.71 538.015 2794
1860.73 537.244 2790
1867.4 537.244 2790
1867.35 535.319 2780
1874 535.319 2780
1877.94 534.549 2776
1884.58 534.549 2776
1878.27 530.89 2757
1884.87 530.89 2757
1879.11 527.424 2739
1882.91 526.654 2735
1889.45 526.654 2735
1895.99 526.654 2735
1890.01 523.188 2717
1899.3 523.958 2721
1905.8 523.958 2721
1912.31 523.958 2721
1925.16 525.691 2730
1944.43 529.157 2748
1951 529.157 2748
1957.57 529.157 2748
1964.14 529.157 2748
1970.71 529.157 2748
1977.28 529.157 2748
1983.86 529.157 2748
1990.43 529.157 2748
2003.54 530.89 2757
2017.42 532.816 2767
2024.04 532.816 2767
2030.66 532.816 2767
2037.27 532.816 2767
2043.89 532.816 2767
2050.51 532.816 2767
2043 529.157 2748
2053.3 530.12 2753
2059.88 530.12 2753
2083.73 534.549 2776
2090.37 534.549 2776
2266.22 577.682 3000
2286.27 580.956 3017
2297.29 581.919 3022
2304.51 581.919 3022
2311.74 581.919 3022
-2220.88 593.447 3044
-2230.33 597.931 3067
-2223 597.931 3067
-2235.89 603.39 3095
-2245.05 607.874 3118
-2254.82 612.552 3142
-2247.3 612.552 3142
-2265.45 619.571 3178
-2262.12 620.741 3184
-2254.5 620.741 3184
-2246.89 620.741 3184
-2239.27 620.741 3184
-2231.66 620.741 3184
-2232.43 623.08 3196
-2224.79 623.08 3196
-2225.47 625.42 3208
-2226.78 627.954 3221
-2219.08 627.954 3221
-2211.38 627.954 3221
-2207.78 629.124 3227
-2261.42 646.67 3317
-2267.08 650.569 3337
-2259.1 650.569 3337
-2251.12 650.569 3337
-2251.88 653.103 3350
-2280.71 663.826 3405
-2272.57 663.826 3405
-2273.73 666.555 3419
-2284.11 672.014 3447
-2289.73 676.108 3468
-2281.44 676.108 3468
-2273.15 676.108 3468
-2279.22 680.397 3490
-2280.64 683.322 3505
-2272.26 683.322 3505
-2263.87 683.322 3505
-2255.49 683.322 3505
-2247.11 683.322 3505
-2238.73 683.322 3505
-2234.8 684.686 3512
-2226.4 684.686 3512
-2218.01 684.686 3512
-2205.2 683.322 3505
-2196.82 683.322 3505
-2170.33 677.668 3476
-2170.73 680.397 3490
-2162.38 680.397 3490
-2154.04 680.397 3490
-2145.69 680.397 3490
-2137.35 680.397 3490
-2120.46 677.668 3476
-2107.29 676.108 3468
-2090.52 673.379 3454
-2082.26 673.379 3454
-2057.19 667.92 3426
-2049 667.92 3426
-2040.8 667.92 3426
-2032.61 667.92 3426
-2020.28 666.555 3419
-2007.99 665.191 3412
-1983.42 659.732 3384
-1975.32 659.732 3384
-1967.23 659.732 3384
-1967.24 662.461 3398
-1971.23 666.555 3419
-1963.05 666.555 3419
-1954.88 666.555 3419
-1950.68 667.92 3426
-1954.4 672.014 3447
-1958.01 676.108 3468
-1949.72 676.108 3468
-1941.43 676.108 3468
-1941.49 679.033 3483
-1937.05 680.397 3490
-1928.71 680.397 3490
-1924.21 681.762 3497
-1915.85 681.762 3497
-1907.49 681.762 3497
-1899.12 681.762 3497
-1890.76 681.762 3497
-1882.4 681.762 3497
-1882.08 684.686 3512
-1873.68 684.686 3512
-1869.53 686.246 3520
-1861.11 686.246 3520
-1860.06 688.975 3534
-1851.61 688.975 3534
-1847.33 690.535 3542
-1846.65 693.459 3557
-1838.14 693.459 3557
-1829.64 693.459 3557
-1821.13 693.459 3557
-1812.63 693.459 3557
-1804.12 693.459 3557
-1795.61 693.459 3557
-1791.13 695.019 3565
-1786.1 696.384 3572
-1781.54 697.943 3580
-1772.98 697.943 3580
-1764.42 697.943 3580
-1759.78 699.503 3588
-1758.53 702.427 3603
-1749.91 702.427 3603
-1745.16 703.987 3611
-1748.07 708.666 3635
-1758.51 716.464 3675
-1749.73 716.464 3675
-1744.73 718.024 3683
-1735.92 718.024 3683
-1730.87 719.583 3691
-1722.04 719.583 3691
-1716.93 721.143 3699
-1727.01 729.136 3740
-1730.01 734.205 3766
-1721.01 734.205 3766
-1727.46 740.834 3800
-1722.44 742.588 3809
-1720.98 745.903 3826
-1711.83 745.903 3826
-1706.69 747.657 3835
-1697.52 747.657 3835
-1688.35 747.657 3835
-1679.17 747.657 3835
-1651.28 739.274 3792
-1619.69 729.136 3740
-1589.64 719.583 3691
-1580.82 719.583 3691
-1565.18 716.464 3675
-1532.67 705.547 3619
-1507.6 697.943 3580
-1499.03 697.943 3580
-1484.23 695.019 3565
-1466.18 690.535 3542
-1448.66 686.246 3520
-1440.24 686.246 3520
-1428.57 684.686 3512
-1414.11 681.762 3497
-1402.93 680.397 3490
-1394.58 680.397 3490
-1386.24 680.397 3490
-1377.89 680.397 3490
-1369.55 680.397 3490
-1363.93 681.762 3497
-1355.57 681.762 3497
-1358.76 687.611 3527
-1358.75 691.9 3549
-1359.02 696.384 3572
-1350.48 696.384 3572
-1344.94 697.943 3580
-1339.36 699.503 3588
-1336.35 702.427 3603
-1327.73 702.427 3603
-1322.05 703.987 3611
-1313.41 703.987 3611
-1304.78 703.987 3611
-1296.14 703.987 3611
-1287.51 703.987 3611
-1281.7 705.547 3619
-1273.05 705.547 3619
-1264.4 705.547 3619
-1255.74 705.547 3619
-1247.09 705.547 3619
-1235.7 703.987 3611
-1227.06 703.987 3611
-1218.43 703.987 3611
-1209.79 703.987 3611
-1195.83 700.868 3595
-1187.24 700.868 3595
-1178.64 700.868 3595
-1170.04 700.868 3595
-1161.45 700.868 3595
-1157.98 703.987 3611
-1149.35 703.987 3611
-1155.56 713.15 3658
-1157.16 719.583 3691
-1161.09 727.577 3732
-1152.16 727.577 3732
-1143.24 727.577 3732
-1131.88 726.017 3724
-1122.98 726.017 3724
-1114.07 726.017 3724
-1114.96 732.451 3757
-1105.97 732.451 3757
-1096.99 732.451 3757
-1088.01 732.451 3757
-1089.07 739.274 3792
-1089.69 745.903 3826
-1080.54 745.903 3826
-1071.39 745.903 3826
-1062.24 745.903 3826
-1053.09 745.903 3826
-1043.94 745.903 3826
-1032.63 744.343 3818
-1023.5 744.343 3818
-1014.37 744.343 3818
-1005.24 744.343 3818
-991.415 740.834 3800
-982.328 740.834 3800
-975.546 742.588 3809
-977.602 751.166 3853
-968.388 751.166 3853
-959.174 751.166 3853
-949.961 751.166 3853
-940.747 751.166 3853
-925.005 745.903 3826
-911.787 742.588 3809
-902.678 742.588 3809
-893.57 742.588 3809
-884.461 742.588 3809
-875.353 742.588 3809
-864.198 740.834 3800
-855.111 740.834 3800
-846.024 740.834 3800
-836.937 740.834 3800
-827.85 740.834 3800
-813.161 735.765 3774
-804.136 735.765 3774
-793.426 734.205 3766
-784.42 734.205 3766
-773.562 732.451 3757
-764.577 732.451 3757
-755.593 732.451 3757
-743.231 729.136 3740
-727.808 722.703 3707
-718.944 722.703 3707
-708.547 721.143 3699
-693.648 714.905 3667
-681.704 711.59 3650
-672.976 711.59 3650
-664.248 711.59 3650
-655.52 711.59 3650
-646.791 711.59 3650
-638.063 711.59 3650
-626.748 708.666 3635
-616.696 707.106 3627
-603.999 702.427 3603
-595.383 702.427 3603
-586.768 702.427 3603
-578.152 702.427 3603
-569.536 702.427 3603
-560.92 702.427 3603
-552.304 702.427 3603
-543.688 702.427 3603
-533.884 700.868 3595
-525.288 700.868 3595
-517.841 702.427 3603
-509.225 702.427 3603
-500.609 702.427 3603
-493.085 703.987 3611
-484.45 703.987 3611
-475.815 703.987 3611
-466.145 702.427 3603
-457.53 702.427 3603
-448.914 702.427 3603
-440.298 702.427 3603
-432.64 703.987 3611
-424.945 705.547 3619
-417.211 707.106 3627
-408.538 707.106 3627
-399.864 707.106 3627
-391.191 707.106 3627
-382.518 707.106 3627
-373.02 705.547 3619
-364.366 705.547 3619
-357.284 708.666 3635
-348.592 708.666 3635
-339.9 708.666 3635
-331.207 708.666 3635
-322.515 708.666 3635
-315.118 711.59 3650
-307.816 714.905 3667
-299.047 714.905 3667
-290.278 714.905 3667
-280.819 713.15 3658
-272.071 713.15 3658
-262.748 711.59 3650
-254.02 711.59 3650
-245.291 711.59 3650
-236.563 711.59 3650
-141.695 442.551 2270
-136.266 442.551 2270
-130.838 442.551 2270
-125.244 441.966 2267
-119.506 440.796 2261
-113.443 438.262 2248
-108.067 438.262 2248
-102.555 437.677 2245
-97.0564 437.092 2242
-91.6951 437.092 2242
-86.2183 436.507 2239
-80.8642 436.507 2239
-75.4089 435.922 2236
-70.0619 435.922 2236
-64.715 435.922 2236
-59.368 435.922 2236
-54.0211 435.922 2236
-48.5435 434.752 2230
-43.1528 434.168 2227
-37.8273 434.168 2227
-32.4143 432.998 2221
-27.0666 432.413 2218
-21.7922 432.998 2221
-16.4811 432.998 2221
-11.17 432.998 2221
-5.85892 432.998 2221
-0.548575 433.583 2224
4.80185 436.507 2239
10.156 436.507 2239
15.5725 438.262 2248
21.1811 443.136 2273
26.7219 444.89 2282
32.1788 444.89 2282
37.7347 446.06 2288
43.2061 446.06 2288
48.7625 446.84 2292
54.2433 446.84 2292
59.9587 448.594 2301
65.5464 449.179 2304
71.1485 449.764 2307
76.6653 449.764 2307
82.3245 450.544 2311
87.8508 450.544 2311
93.3771 450.544 2311
98.9034 450.544 2311
104.43 450.544 2311
109.956 450.544 2311
115.482 450.544 2311
121.009 450.544 2311
126.316 449.764 2307
131.833 449.764 2307
137.349 449.764 2307
142.866 449.764 2307
148.383 449.764 2307
153.699 449.179 2304
158.794 448.009 2298
164.504 448.594 2301
170.006 448.594 2301
176.272 450.544 2311
182.034 451.129 2314
187.567 451.129 2314
193.101 451.129 2314
198.634 451.129 2314
204.168 451.129 2314
209.701 451.129 2314
388.449 774.366 3972
397.947 774.366 3972
407.445 774.366 3972
415.999 772.612 3963
424.402 770.662 3953
432.867 768.907 3944
442.298 768.907 3944
451.73 768.907 3944
458.939 765.203 3925
466.177 761.694 3907
475.52 761.694 3907
482.629 758.185 3889
491.929 758.185 3889
501.229 758.185 3889
510.529 758.185 3889
516.219 752.921 3862
520.556 745.903 3826
524.998 739.274 3792
531.531 735.765 3774
540.556 735.765 3774
549.581 735.765 3774
553.573 729.136 3740
560.11 726.017 3724
569.015 726.017 3724
577.92 726.017 3724
592.026 732.451 3757
602.449 734.205 3766
615.677 739.274 3792
624.744 739.274 3792
635.149 740.834 3800
650.17 747.657 3835
662.435 751.166 3853
671.649 751.166 3853
684.044 754.676 3871
693.3 754.676 3871
702.557 754.676 3871
710.159 752.921 3862
719.394 752.921 3862
733.723 758.185 3889
743.023 758.185 3889
752.323 758.185 3889
756.335 752.921 3862
765.57 752.921 3862
774.805 752.921 3862
782.213 751.166 3853
791.427 751.166 3853
789.628 740.834 3800
793.25 735.765 3774
802.274 735.765 3774
809.579 734.205 3766
816.629 732.451 3757
856.403 672.014 3447
879.195 683.322 3505
898.718 691.9 3549
907.205 691.9 3549
915.692 691.9 3549
924.179 691.9 3549
932.665 691.9 3549
941.152 691.9 3549
947.766 690.535 3542
956.236 690.535 3542
964.706 690.535 3542
970.978 688.975 3534
979.429 688.975 3534
987.88 688.975 3534
996.33 688.975 3534
1004.78 688.975 3534
1013.23 688.975 3534
1021.68 688.975 3534
1026.05 686.246 3520
1034.47 686.246 3520
1042.89 686.246 3520
1048.92 684.686 3512
1055.21 683.322 3505
1063.59 683.322 3505
1071.97 683.322 3505
1073.57 679.033 3483
1081.9 679.033 3483
1090.23 679.033 3483
1098.56 679.033 3483
1109.11 680.397 3490
1117.46 680.397 3490
1125.8 680.397 3490
1131.87 679.033 3483
1140.2 679.033 3483
1148.53 679.033 3483
1156.86 679.033 3483
1165.19 679.033 3483
1173.52 679.033 3483
1184.22 680.397 3490
1192.57 680.397 3490
1200.91 680.397 3490
1209.26 680.397 3490
1220.05 681.762 3497
1233.68 684.686 3512
1247.38 687.611 3527
1255.81 687.611 3527
1269.63 690.535 3542
1283.51 693.459 3557
1294.92 695.019 3565
1303.44 695.019 3565
1314.55 696.384 3572
1334.57 702.427 3603
1349.15 705.547 3619
1357.81 705.547 3619
1372.5 708.666 3635
1381.19 708.666 3635
1389.89 708.666 3635
1398.58 708.666 3635
1404.17 707.106 3627
1403.5 702.427 3603
1412.11 702.427 3603
1411.66 697.943 3580
1414.27 695.019 3565
1413.62 690.535 3542
1410.04 684.686 3512
1418.44 684.686 3512
1415.06 679.033 3483
1408.67 672.014 3447
1393.9 661.097 3391
1402 661.097 3391
1393.06 653.103 3350
1392.71 649.204 3330
1392.26 645.305 3310
1400.18 645.305 3310
1399.58 641.406 3290
1399.32 637.702 3271
1401.55 635.167 3258
1406.75 633.998 3252
1414.52 633.998 3252
1419.68 632.828 3246
1421.72 630.294 3233
1429.45 630.294 3233
1437.18 630.294 3233
1444.92 630.294 3233
1449.95 629.124 3227
1460.38 630.294 3233
1468.11 630.294 3233
1475.84 630.294 3233
1483.57 630.294 3233
1491.3 630.294 3233
1499.03 630.294 3233
1503.97 629.124 3227
1511.68 629.124 3227
1519.4 629.124 3227
1518.13 625.42 3208
1525.8 625.42 3208
1527.73 623.08 3196
1523.85 618.401 3172
1528.53 617.231 3166
1536.1 617.231 3166
1529.05 611.383 3136
1527.73 607.874 3118
1520.91 602.22 3089
1528.29 602.22 3089
1516.29 594.617 3050
1493.61 582.919 2990
1476.67 573.561 2942
1473.62 569.662 2922
1480.61 569.662 2922
1474.36 564.593 2896
1476.17 562.644 2886
1475.36 559.719 2871
1482.22 559.719 2871
1484.42 557.965 2862
1486.06 556.015 2852
1490.26 555.04 2847
1494.44 554.066 2842
1501.23 554.066 2842
1505.38 553.091 2837
1512.16 553.091 2837
1518.94 553.091 2837
1525.73 553.091 2837
1529.81 552.116 2832
1531.7 550.361 2823
1535.73 549.387 2818
1542.47 549.387 2818
1544.26 547.632 2809
1550.97 547.632 2809
1552.15 545.682 2799
1558.84 545.682 2799
1562.74 544.708 2794
1567.17 543.928 2790
1571.02 542.953 2785
1582.78 544.708 2794
1597.99 547.632 2809
1604.71 547.632 2809
1616.59 549.387 2818
1626.21 550.361 2823
1649.74 556.015 2852
1656.56 556.015 2852
1674.46 559.719 2871
1681.32 559.719 2871
1688.19 559.719 2871
1683.84 556.015 2852
1701.92 559.719 2871
1818.3 595.591 3055
1853.09 604.559 3101
1958.9 636.532 3265
1966.71 636.532 3265
1974.52 636.532 3265
1982.33 636.532 3265
1982.21 633.998 3252
1989.99 633.998 3252
1982.4 629.124 3227
1990.12 629.124 3227
1997.84 629.124 3227
1898.66 595.591 3055
1878.51 587.013 3011
1878.82 584.869 3000
1886 584.869 3000
1886.86 582.919 2990
1894.01 582.919 2990
1918.33 588.183 3017
1925.54 588.183 3017
1932.76 588.183 3017
1939.97 588.183 3017
1947.19 588.183 3017
1954.4 588.183 3017
1954.46 586.038 3006
1876.82 560.694 2876
1883.69 560.694 2876
1874.8 556.015 2852
1881.62 556.015 2852
1872.54 551.336 2828
1872.66 549.387 2818
1879.4 549.387 2818
1886.14 549.387 2818
1892.88 549.387 2818
1899.62 549.387 2818
1896.88 546.657 2804
1903.59 546.657 2804
1906.89 545.682 2799
1897.86 541.199 2776
1904.5 541.199 2776
1907.69 540.224 2771
1914.32 540.224 2771
1918.17 539.444 2767
1917.83 537.494 2757
1918.14 535.74 2748
1924.71 535.74 2748
1931.28 535.74 2748
1941.38 536.715 2753
1947.97 536.715 2753
1954.55 536.715 2753
1961.13 536.715 2753
1967.71 536.715 2753
1974.3 536.715 2753
1980.88 536.715 2753
1990.35 537.494 2757
1996.95 537.494 2757
2010.81 539.444 2767
2020.34 540.224 2771
2030.62 541.199 2776
2037.26 541.199 2776
2043.9 541.199 2776
2043.89 539.444 2767
2050.51 539.444 2767
2043 535.74 2748
2053.3 536.715 2753
2066.61 538.469 2762
2251.87 584.869 3000
2259.04 584.869 3000
2282.83 589.158 3022
2294.61 590.328 3028
2310.21 592.472 3039
2317.48 592.472 3039
2324.74 592.472 3039
-2258.09 610.804 3095
-2276.14 617.711 3130
-2268.66 617.711 3130
-2274.18 621.263 3148
-2275.29 623.632 3160
-2280.65 627.184 3178
-2273.05 627.184 3178
-2286.84 633.104 3208
-2279.17 633.104 3208
-2271.5 633.104 3208
-2263.82 633.104 3208
-2256.15 633.104 3208
-2244.28 631.92 3202
-2240.81 633.104 3208
-2233.14 633.104 3208
-2238.65 636.854 3227
-2244.07 640.604 3246
-2240.44 641.788 3252
-2232.66 641.788 3252
-2237.89 645.538 3271
-2261.42 654.616 3317
-2267.08 658.563 3337
-2259.1 658.563 3337
-2251.12 658.563 3337
-2251.88 661.128 3350
-2280.71 671.983 3405
-2272.57 671.983 3405
-2273.73 674.746 3419
-2284.11 680.271 3447
-2289.73 684.416 3468
-2281.44 684.416 3468
-2273.15 684.416 3468
-2279.22 688.758 3490
-2280.64 691.718 3505
-2272.26 691.718 3505
-2263.87 691.718 3505
-2255.49 691.718 3505
-2247.11 691.718 3505
-2238.73 691.718 3505
-2234.8 693.099 3512
-2226.4 693.099 3512
-2218.01 693.099 3512
-2205.2 691.718 3505
-2196.82 691.718 3505
-2170.33 685.995 3476
-2170.73 688.758 3490
-2162.38 688.758 3490
-2154.04 688.758 3490
-2145.69 688.758 3490
-2137.35 688.758 3490
-2120.46 685.995 3476
-2107.29 684.416 3468
-2090.52 681.653 3454
-2082.26 681.653 3454
-2057.19 676.127 3426
-2049 676.127 3426
-2040.8 676.127 3426
-2032.61 676.127 3426
-2020.28 674.746 3419
-2007.99 673.364 3412
-1975.21 665.075 3370
-1967.15 665.075 3370
-1955.02 663.694 3363
-1946.98 663.694 3363
-1942.98 665.075 3370
-1934.92 665.075 3370
-1926.86 665.075 3370
-1942.71 673.364 3412
-1938.52 674.746 3419
-1930.35 674.746 3419
-1922.17 674.746 3419
-1914 674.746 3419
-1917.53 678.89 3440
-1913.18 680.271 3447
-1904.94 680.271 3447
-1900.55 681.653 3454
-1892.29 681.653 3454
-1887.85 683.034 3461
-1879.57 683.034 3461
-1871.3 683.034 3461
-1871.1 685.995 3476
-1866.53 687.376 3483
-1858.21 687.376 3483
-1861.56 691.718 3505
-1856.88 693.099 3512
-1852.69 694.678 3520
-1844.28 694.678 3520
-1843.16 697.441 3534
-1842.5 700.401 3549
-1834.01 700.401 3549
-1825.52 700.401 3549
-1821.13 701.98 3557
-1812.63 701.98 3557
-1804.12 701.98 3557
-1795.61 701.98 3557
-1791.13 703.559 3565
-1782.6 703.559 3565
-1781.54 706.519 3580
-1772.98 706.519 3580
-1764.42 706.519 3580
-1755.86 706.519 3580
-1758.53 711.058 3603
-1749.91 711.058 3603
-1745.16 712.637 3611
-1748.07 717.374 3635
-1754.69 723.689 3667
-1745.92 723.689 3667
-1740.94 725.268 3675
-1732.15 725.268 3675
-1723.36 725.268 3675
-1714.57 725.268 3675
-1713.21 728.425 3691
-1727.01 738.096 3740
-1725.88 741.451 3757
-1716.89 741.451 3757
-1715.64 744.806 3774
-1718.37 749.937 3800
-1720.98 755.068 3826
-1711.83 755.068 3826
-1706.69 756.844 3835
-1697.52 756.844 3835
-1688.35 756.844 3835
-1679.17 756.844 3835
-1651.28 748.358 3792
-1619.69 738.096 3740
-1589.64 728.425 3691
-1580.82 728.425 3691
-1565.18 725.268 3675
-1532.67 714.216 3619
-1507.6 706.519 3580
-1499.03 706.519 3580
-1484.23 703.559 3565
-1466.18 699.02 3542
-1448.66 694.678 3520
-1440.24 694.678 3520
-1428.57 693.099 3512
-1414.11 690.139 3497
-1402.93 688.758 3490
-1394.58 688.758 3490
-1386.24 688.758 3490
-1377.89 688.758 3490
-1369.55 688.758 3490
-1363.93 690.139 3497
-1355.57 690.139 3497
-1358.76 696.06 3527
-1358.75 700.401 3549
-1359.02 704.94 3572
-1350.48 704.94 3572
-1344.94 706.519 3580
-1339.36 708.098 3588
-1336.35 711.058 3603
-1327.73 711.058 3603
-1322.05 712.637 3611
-1313.41 712.637 3611
-1304.78 712.637 3611
-1296.14 712.637 3611
-1287.51 712.637 3611
-1281.7 714.216 3619
-1273.05 714.216 3619
-1264.4 714.216 3619
-1255.74 714.216 3619
-1247.09 714.216 3619
-1235.7 712.637 3611
-1227.06 712.637 3611
-1218.43 712.637 3611
-1209.79 712.637 3611
-1195.83 709.48 3595
-1187.24 709.48 3595
-1178.64 709.48 3595
-1170.04 709.48 3595
-1161.45 709.48 3595
-1155.41 711.058 3603
-1146.8 711.058 3603
-1145.76 715.795 3627
-1146.81 721.913 3658
-1145.84 726.846 3683
-1137.03 726.846 3683
-1128.23 726.846 3683
-1121.85 728.425 3691
-1113.02 728.425 3691
-1104.2 728.425 3691
-1112.58 739.872 3749
-1105.97 741.451 3757
-1096.99 741.451 3757
-1088.01 741.451 3757
-1079.02 741.451 3757
-1082.28 749.937 3800
-1080.54 755.068 3826
-1071.39 755.068 3826
-1062.24 755.068 3826
-1050.89 753.489 3818
-1041.76 753.489 3818
-1032.63 753.489 3818
