1393.6 1156.02 2251
1398.98 1156.02 2251
1404.36 1156.02 2251
1405.99 1152.94 2245
1403.81 1146.78 2233
1394.64 1134.97 2210
1399.92 1134.97 2210
1403.3 1133.42 2207
1408.58 1133.42 2207
1413.85 1133.42 2207
1419.13 1133.42 2207
1422.47 1131.88 2204
1416.08 1122.64 2186
1420.01 1121.61 2184
1419.36 1116.99 2175
1424.56 1116.99 2175
1424.5 1112.88 2167
1429.68 1112.88 2167
1425.6 1105.69 2153
1432.07 1106.72 2155
1437.23 1106.72 2155
1442.38 1106.72 2155
1447.53 1106.72 2155
1452.69 1106.72 2155
1454.46 1104.15 2150
1461.64 1105.69 2153
1470.19 1108.26 2158
1482.87 1113.91 2169
1494.23 1118.53 2178
1499.44 1118.53 2178
1504.65 1118.53 2178
1519.56 1125.72 2192
1553.33 1146.78 2233
1558.66 1146.78 2233
1564 1146.78 2233
1581.99 1156.02 2251
1589.49 1157.56 2254
1594.88 1157.56 2254
1600.27 1157.56 2254
1605.66 1157.56 2254
1611.05 1157.56 2254
1605.69 1149.86 2239
1604.56 1145.24 2230
1599.07 1137.53 2215
1606.54 1139.07 2218
1611.84 1139.07 2218
1623.71 1143.7 2227
1629.03 1143.7 2227
1634.36 1143.7 2227
1637.47 1142.16 2224
1642.79 1142.16 2224
1645.89 1140.61 2221
1634.1 1128.8 2198
1639.36 1128.8 2198
1644.61 1128.8 2198
1649.87 1128.8 2198
1648.35 1124.18 2189
1653.58 1124.18 2189
1655.03 1121.61 2184
1660.25 1121.61 2184
1669.29 1124.18 2189
1674.52 1124.18 2189
-1620.24 1116.53 2164
-1615.07 1116.53 2164
-1609.89 1116.53 2164
-1606.94 1118.07 2167
-1609.89 1123.75 2178
-1604.68 1123.75 2178
-1599.47 1123.75 2178
-1594.26 1123.75 2178
-1589.06 1123.75 2178
-1581.67 1122.2 2175
-1580.81 1125.3 2181
-1579.21 1127.88 2186
-1573.98 1127.88 2186
-1568.76 1127.88 2186
-1562.1 1126.84 2184
-1556.88 1126.84 2184
-1551.65 1126.84 2184
-1544.31 1125.3 2181
-1536.97 1123.75 2178
-1531.77 1123.75 2178
-1526.56 1123.75 2178
-1521.35 1123.75 2178
-1509.88 1119.11 2169
-1493.59 1110.85 2153
-1503.65 1122.2 2175
-1498.45 1122.2 2175
-1495.31 1123.75 2178
-1495.57 1127.88 2186
-1498.53 1134.07 2198
-1493.27 1134.07 2198
-1488.01 1134.07 2198
-1482.76 1134.07 2198
-1477.5 1134.07 2198
-1464.21 1127.88 2186
-1458.98 1127.88 2186
-1453.75 1127.88 2186
-1448.53 1127.88 2186
-1443.3 1127.88 2186
-1438.07 1127.88 2186
-1425.63 1122.2 2175
-1420.43 1122.2 2175
-1415.23 1122.2 2175
-1410.03 1122.2 2175
-1408.7 1125.3 2181
-1403.49 1125.3 2181
-1398.27 1125.3 2181
-1391.14 1123.75 2178
-1384.02 1122.2 2175
-1378.82 1122.2 2175
-1364.78 1114.98 2161
-1355.84 1111.88 2155
-1349.43 1110.85 2153
-1344.28 1110.85 2153
-1332.29 1105.17 2142
-1325.31 1103.63 2139
-1318.35 1102.08 2136
-1313.24 1102.08 2136
-1308.13 1102.08 2136
-1301.19 1100.53 2133
-1297.91 1102.08 2136
-1306.12 1113.43 2158
-1300.96 1113.43 2158
-1309.61 1125.3 2181
-1304.4 1125.3 2181
-1299.18 1125.3 2181
-1293.97 1125.3 2181
-1276.93 1114.98 2161
-1271.76 1114.98 2161
-1266.6 1114.98 2161
-1257.93 1111.88 2155
-1254.52 1113.43 2158
-1259.2 1122.2 2175
-1254 1122.2 2175
-1248.8 1122.2 2175
-1245.31 1123.75 2178
-1240.1 1123.75 2178
-1234.89 1123.75 2178
-1229.69 1123.75 2178
-1218.29 1118.07 2167
-1209.75 1114.98 2161
-1201.24 1111.88 2155
-1196.09 1111.88 2155
-1186.51 1107.75 2147
-1175.33 1102.08 2136
-1165.84 1097.95 2128
-1162.38 1099.5 2131
-1157.29 1099.5 2131
-1152.19 1099.5 2131
-1148.17 1100.53 2133
-1143.07 1100.53 2133
-1137.97 1100.53 2133
-1132.87 1100.53 2133
-1126.71 1099.5 2131
-1124.25 1102.08 2136
-1119.14 1102.08 2136
-1115.6 1103.63 2139
-1110.48 1103.63 2139
-1105.37 1103.63 2139
-1100.25 1103.63 2139
-1097.7 1106.21 2144
-1095.63 1109.3 2150
-1092.01 1110.85 2153
-1086.86 1110.85 2153
-1087.24 1116.53 2164
-1083.56 1118.07 2167
-1078.38 1118.07 2167
-1073.2 1118.07 2167
-1068.02 1118.07 2167
-1062.84 1118.07 2167
-1057.65 1118.07 2167
-1052.47 1118.07 2167
-1048.26 1119.11 2169
-1043.07 1119.11 2169
-1037.88 1119.11 2169
-1032.7 1119.11 2169
-1027.51 1119.11 2169
-1019.97 1116.53 2164
-1014.79 1116.53 2164
-1009.62 1116.53 2164
-1003.05 1114.98 2161
-996.496 1113.43 2158
-991.335 1113.43 2158
-986.175 1113.43 2158
-981.014 1113.43 2158
-975.854 1113.43 2158
-970.694 1113.43 2158
-965.533 1113.43 2158
-960.373 1113.43 2158
-952.999 1110.85 2153
-947.851 1110.85 2153
-942.702 1110.85 2153
-937.554 1110.85 2153
-934.57 1113.43 2158
-930.702 1114.98 2161
-925.534 1114.98 2161
-923.774 1119.11 2169
-919.858 1120.65 2172
-914.664 1120.65 2172
-909.47 1120.65 2172
-904.276 1120.65 2172
-897.84 1119.11 2169
-893.888 1120.65 2172
-888.694 1120.65 2172
-883.5 1120.65 2172
-878.307 1120.65 2172
-871.907 1119.11 2169
-866.72 1119.11 2169
-861.533 1119.11 2169
-855.557 1118.07 2167
-852.337 1120.65 2172
-849.483 1123.75 2178
-844.275 1123.75 2178
-839.067 1123.75 2178
-833.859 1123.75 2178
-828.65 1123.75 2178
-823.442 1123.75 2178
-818.234 1123.75 2178
-813.026 1123.75 2178
-807.817 1123.75 2178
-801.503 1122.2 2175
-796.302 1122.2 2175
-788.919 1119.11 2169
-783.732 1119.11 2169
-778.545 1119.11 2169
-771.576 1116.53 2164
-764.276 1113.43 2158
-759.116 1113.43 2158
-751.16 1109.3 2150
-746.019 1109.3 2150
-740.878 1109.3 2150
-736.763 1110.85 2153
-731.615 1110.85 2153
-727.141 1111.88 2155
-721.988 1111.88 2155
-716.834 1111.88 2155
-711.021 1110.85 2153
-704.889 1109.3 2150
-699.747 1109.3 2150
-694.606 1109.3 2150
-690.427 1110.85 2153
-685.278 1110.85 2153
-680.13 1110.85 2153
-674.981 1110.85 2153
-669.833 1110.85 2153
-664.684 1110.85 2153
-659.536 1110.85 2153
-654.387 1110.85 2153
-651.651 1114.98 2161
-646.484 1114.98 2161
-643.097 1118.07 2167
-637.915 1118.07 2167
-632.733 1118.07 2167
-627.551 1118.07 2167
-622.369 1118.07 2167
-617.187 1118.07 2167
-613.417 1120.65 2172
-608.223 1120.65 2172
-603.862 1122.2 2175
-598.661 1122.2 2175
-593.46 1122.2 2175
-588.259 1122.2 2175
-583.058 1122.2 2175
-577.06 1120.65 2172
-571.866 1120.65 2172
-565.367 1118.07 2167
-559.41 1116.53 2164
-555.516 1119.11 2169
-554.642 1127.88 2186
-549.415 1127.88 2186
-544.934 1129.42 2189
-539.7 1129.42 2189
-534.465 1129.42 2189
-529.231 1129.42 2189
-522.799 1126.84 2184
-516.866 1125.3 2181
-512.354 1126.84 2184
-507.132 1126.84 2184
-501.909 1126.84 2184
-496.686 1126.84 2184
-491.464 1126.84 2184
-486.241 1126.84 2184
-481.459 1127.88 2186
-476.232 1127.88 2186
-471.651 1129.42 2189
-466.416 1129.42 2189
-461.181 1129.42 2189
-459.696 1138.71 2207
-454.418 1138.71 2207
-449.141 1138.71 2207
-443.863 1138.71 2207
-437.99 1137.16 2204
-430.952 1132.52 2195
-425.703 1132.52 2195
-419.305 1129.42 2189
-414.07 1129.42 2189
-409.956 1132.52 2195
-404.708 1132.52 2195
-399.459 1132.52 2195
-394.21 1132.52 2195
-387.012 1126.84 2184
-381.789 1126.84 2184
-376.049 1125.3 2181
-369.303 1120.65 2172
-364.109 1120.65 2172
-358.916 1120.65 2172
-353.233 1119.11 2169
-347.725 1118.07 2167
-342.543 1118.07 2167
-337.362 1118.07 2167
-331.26 1114.98 2161
-325.64 1113.43 2158
-320.479 1113.43 2158
-316.634 1118.07 2167
-311.452 1118.07 2167
-306.552 1119.11 2169
-302.199 1122.2 2175
-297.818 1125.3 2181
-292.602 1125.3 2181
-287.387 1125.3 2181
-282.171 1125.3 2181
-276.956 1125.3 2181
-271.74 1125.3 2181
-266.158 1123.75 2178
-261.31 1125.3 2181
-256.681 1127.88 2186
-251.454 1127.88 2186
-246.226 1127.88 2186
-240.999 1127.88 2186
-235.772 1127.88 2186
-230.861 1129.42 2189
-225.626 1129.42 2189
-220.392 1129.42 2189
-216.631 1137.16 2204
-211.361 1137.16 2204
-206.09 1137.16 2204
-200.547 1135.62 2201
-194.751 1132.52 2195
-189.502 1132.52 2195
-183.33 1126.84 2184
-177.618 1123.75 2178
-171.935 1120.65 2172
-166.741 1120.65 2172
-161.175 1118.07 2167
-155.777 1116.53 2164
-150.602 1116.53 2164
-145.428 1116.53 2164
-140.058 1114.98 2161
-134.891 1114.98 2161
-129.723 1114.98 2161
-124.556 1114.98 2161
-119.056 1111.88 2155
-113.903 1111.88 2155
-108.75 1111.88 2155
-103.597 1111.88 2155
-98.4435 1111.88 2155
-93.0738 1109.3 2150
-87.8098 1107.75 2147
-82.6756 1107.75 2147
-77.6498 1109.3 2150
-72.5085 1109.3 2150
-67.5239 1111.88 2155
-62.6311 1116.53 2164
-57.4564 1116.53 2164
-52.2816 1116.53 2164
49.8414 1086.6 2106
54.8775 1086.6 2106
60.767 1102.08 2136
65.8748 1102.08 2136
70.9827 1102.08 2136
75.5205 1093.82 2120
81.1983 1102.08 2136
86.6294 1106.21 2144
91.7563 1106.21 2144
96.8833 1106.21 2144
102.438 1110.85 2153
107.687 1111.88 2155
112.997 1113.43 2158
118.158 1113.43 2158
123.318 1113.43 2158
128.181 1110.85 2153
133.329 1110.85 2153
138.478 1110.85 2153
144.36 1116.53 2164
149.742 1118.07 2167
155.067 1119.11 2169
160.254 1119.11 2169
165.441 1119.11 2169
170.47 1118.07 2167
176.057 1120.65 2172
182.002 1125.3 2181
187.218 1125.3 2181
192.698 1126.84 2184
197.92 1126.84 2184
203.887 1130.97 2192
209.129 1130.97 2192
215.251 1135.62 2201
220.514 1135.62 2201
225.777 1135.62 2201
231.04 1135.62 2201
235.982 1134.07 2198
241.238 1134.07 2198
246.494 1134.07 2198
251.75 1134.07 2198
256.655 1132.52 2195
261.188 1129.42 2189
266.423 1129.42 2189
271.285 1127.88 2186
276.892 1129.42 2189
282.9 1132.52 2195
288.936 1135.62 2201
294.2 1135.62 2201
299.871 1137.16 2204
305.141 1137.16 2204
310.412 1137.16 2204
315.682 1137.16 2204
320.953 1137.16 2204
325.335 1134.07 2198
330.591 1134.07 2198
335.847 1134.07 2198
340.638 1132.52 2195
344.941 1129.42 2189
350.656 1130.97 2192
356.384 1132.52 2195
361.633 1132.52 2195
367.885 1135.62 2201
373.657 1137.16 2204
378.927 1137.16 2204
384.198 1137.16 2204
391.059 1141.81 2213
396.351 1141.81 2213
401.643 1141.81 2213
406.935 1141.81 2213
410.55 1137.16 2204
415.254 1135.62 2201
421.091 1137.16 2204
426.361 1137.16 2204
431.632 1137.16 2204
437.497 1138.71 2207
446.787 1149.03 2227
452.112 1149.03 2227
457.438 1149.03 2227
463.387 1150.58 2230
469.35 1152.13 2233
474.69 1152.13 2233
481.964 1156.77 2242
487.325 1156.77 2242
493.346 1158.32 2245
498.714 1158.32 2245
504.083 1158.32 2245
509.451 1158.32 2245
513.444 1155.22 2239
518.798 1155.22 2239
522.748 1152.13 2233
528.087 1152.13 2233
534.86 1155.22 2239
540.215 1155.22 2239
545.569 1155.22 2239
550.923 1155.22 2239
553.296 1149.03 2227
558.621 1149.03 2227
562.427 1145.93 2221
565.693 1141.81 2213
570.985 1141.81 2213
577.579 1144.39 2218
582.883 1144.39 2218
588.187 1144.39 2218
593.491 1144.39 2218
598.795 1144.39 2218
601.92 1140.26 2210
604.732 1135.62 2201
609.164 1134.07 2198
611.904 1129.42 2189
617.138 1129.42 2189
620.951 1126.84 2184
626.174 1126.84 2184
629.662 1123.75 2178
634.87 1123.75 2178
640.079 1123.75 2178
644.398 1122.2 2175
648.703 1120.65 2172
654.8 1122.2 2175
660.001 1122.2 2175
667.037 1125.3 2181
673.794 1127.88 2186
679.021 1127.88 2186
684.249 1127.88 2186
688.845 1126.84 2184
691.208 1122.2 2175
696.409 1122.2 2175
701.61 1122.2 2175
706.811 1122.2 2175
712.012 1122.2 2175
718.202 1123.75 2178
724.407 1125.3 2181
729.622 1125.3 2181
735.849 1126.84 2184
741.071 1126.84 2184
746.977 1127.88 2186
752.205 1127.88 2186
758.472 1129.42 2189
765.799 1132.52 2195
772.102 1134.07 2198
777.358 1134.07 2198
782.614 1134.07 2198
787.87 1134.07 2198
793.127 1134.07 2198
796.203 1130.97 2192
800.348 1129.42 2189
804.479 1127.88 2186
809.706 1127.88 2186
814.933 1127.88 2186
819.41 1126.84 2184
824.633 1126.84 2184
830.616 1127.88 2186
836.99 1129.42 2189
842.225 1129.42 2189
850.943 1134.07 2198
858.537 1137.16 2204
863.807 1137.16 2204
869.078 1137.16 2204
874.348 1137.16 2204
878.421 1135.62 2201
883.684 1135.62 2201
888.948 1135.62 2201
894.211 1135.62 2201
899.474 1135.62 2201
904.737 1135.62 2201
908.76 1134.07 2198
908.195 1126.84 2184
912.163 1125.3 2181
918.64 1126.84 2184
923.863 1126.84 2184
929.085 1126.84 2184
933.024 1125.3 2181
936.949 1123.75 2178
944.753 1126.84 2184
949.976 1126.84 2184
955.198 1126.84 2184
960.421 1126.84 2184
965.643 1126.84 2184
966.865 1122.2 2175
964.469 1113.43 2158
968.281 1111.88 2155
973.434 1111.88 2155
978.588 1111.88 2155
987.849 1116.53 2164
995.318 1119.11 2169
1001.89 1120.65 2172
1008.47 1122.2 2175
1013.67 1122.2 2175
1018.88 1122.2 2175
1024.08 1122.2 2175
1029.28 1122.2 2175
1030.67 1118.07 2167
1038.25 1120.65 2172
1047.76 1125.3 2181
1052.98 1125.3 2181
1058.19 1125.3 2181
1067.31 1129.42 2189
1072.55 1129.42 2189
1086.64 1138.71 2207
1091.92 1138.71 2207
1105.65 1147.48 2224
1119.96 1156.77 2242
1126.83 1158.32 2245
1132.19 1158.32 2245
1139.08 1159.87 2248
1144.46 1159.87 2248
1149.83 1159.87 2248
1155.21 1159.87 2248
1160.59 1159.87 2248
1165.96 1159.87 2248
1171.34 1159.87 2248
1175.14 1158.32 2245
1174.2 1152.13 2233
1176.37 1149.03 2227
1175.33 1142.84 2215
1180.63 1142.84 2215
1178.43 1135.62 2201
1180.46 1132.52 2195
1184.09 1130.97 2192
1189.33 1130.97 2192
1191.31 1127.88 2186
1193.8 1125.3 2181
1197.36 1123.75 2178
1202.57 1123.75 2178
1196.69 1113.43 2158
1199.06 1110.85 2153
1198.06 1105.17 2142
1204.31 1106.21 2144
1212.82 1109.3 2150
1217.96 1109.3 2150
1224.81 1110.85 2153
1231.1 1111.88 2155
1237.97 1113.43 2158
1243.13 1113.43 2158
1250.03 1114.98 2161
1255.2 1114.98 2161
1263.86 1118.07 2167
1269.04 1118.07 2167
1275.4 1119.11 2169
1282.36 1120.65 2172
1292.89 1125.3 2181
1298.1 1125.3 2181
1305.11 1126.84 2184
1311.54 1127.88 2186
1322.18 1132.52 2195
1332.88 1137.16 2204
1338.15 1137.16 2204
1353.78 1145.93 2221
1360.93 1147.48 2224
1369.93 1150.58 2230
1375.26 1150.58 2230
1380.59 1150.58 2230
1385.93 1150.58 2230
1391.26 1150.58 2230
1394.71 1149.03 2227
1389.35 1140.26 2210
1383.28 1130.97 2192
1388.52 1130.97 2192
1393.76 1130.97 2192
1406.66 1137.16 2204
1411.93 1137.16 2204
1417.2 1137.16 2204
1412.79 1129.42 2189
1414.79 1126.84 2184
1414.16 1122.2 2175
1414.14 1118.07 2167
1419.32 1118.07 2167
1424.5 1118.07 2167
1420.45 1110.85 2153
1423.61 1109.3 2150
1428.75 1109.3 2150
1431.89 1107.75 2147
1437.03 1107.75 2147
1440.15 1106.21 2144
1445.27 1106.21 2144
1450.4 1106.21 2144
1459.6 1109.3 2150
1468.15 1111.88 2155
1475.35 1113.43 2158
1480.51 1113.43 2158
1485.67 1113.43 2158
1490.83 1113.43 2158
1509.86 1123.75 2178
1522.72 1129.42 2189
1527.95 1129.42 2189
1533.19 1129.42 2189
1542.64 1132.52 2195
1554.23 1137.16 2204
1559.5 1137.16 2204
1564.77 1137.16 2204
1570.05 1137.16 2204
1575.32 1137.16 2204
1580.59 1137.16 2204
1579.38 1132.52 2195
1576.69 1126.84 2184
1581.91 1126.84 2184
1590.77 1129.42 2189
1596 1129.42 2189
1601.24 1129.42 2189
1606.47 1129.42 2189
1611.71 1129.42 2189
1616.94 1129.42 2189
1618.47 1126.84 2184
1623.69 1126.84 2184
1628.91 1126.84 2184
1634.14 1126.84 2184
1634.86 1123.75 2178
1633.29 1119.11 2169
1638.47 1119.11 2169
1643.66 1119.11 2169
1651.13 1120.65 2172
1658.61 1122.2 2175
1663.81 1122.2 2175
-1615.75 1118.6 2158
-1610.59 1118.6 2158
-1605.43 1118.6 2158
-1602.49 1120.15 2161
-1597.32 1120.15 2161
-1592.16 1120.15 2161
-1586.99 1120.15 2161
-1577.43 1117.04 2155
-1574.46 1118.6 2158
-1569.3 1118.6 2158
-1568.49 1121.71 2164
-1571.26 1127.41 2175
-1568.22 1128.97 2178
-1563.01 1128.97 2178
-1557.81 1128.97 2178
-1552.6 1128.97 2178
-1547.39 1128.97 2178
-1540.06 1127.41 2175
-1532.74 1125.86 2172
-1525.44 1124.3 2169
-1520.25 1124.3 2169
-1515.06 1124.3 2169
-1500.13 1117.04 2155
-1489.43 1112.9 2147
-1488.44 1116.01 2153
-1483.29 1116.01 2153
-1493.25 1127.41 2175
-1490.1 1128.97 2178
-1490.34 1133.11 2186
-1485.12 1133.11 2186
-1481.92 1134.67 2189
-1476.69 1134.67 2189
-1471.45 1134.67 2189
-1462.87 1132.08 2184
-1457.65 1132.08 2184
-1453.75 1133.11 2186
-1448.53 1133.11 2186
-1443.3 1133.11 2186
-1438.07 1133.11 2186
-1425.63 1127.41 2175
-1420.43 1127.41 2175
-1415.23 1127.41 2175
-1410.03 1127.41 2175
-1408.7 1130.52 2181
-1403.49 1130.52 2181
-1398.27 1130.52 2181
-1391.14 1128.97 2178
-1384.02 1127.41 2175
-1378.82 1127.41 2175
-1364.78 1120.15 2161
-1355.84 1117.04 2155
-1349.43 1116.01 2153
-1344.28 1116.01 2153
-1332.29 1110.31 2142
-1325.31 1108.75 2139
-1318.35 1107.2 2136
-1313.24 1107.2 2136
-1308.13 1107.2 2136
-1301.19 1105.64 2133
-1297.91 1107.2 2136
-1306.12 1118.6 2158
-1300.96 1118.6 2158
-1309.61 1130.52 2181
-1304.4 1130.52 2181
-1299.18 1130.52 2181
-1293.97 1130.52 2181
-1276.93 1120.15 2161
-1271.76 1120.15 2161
-1266.6 1120.15 2161
-1257.93 1117.04 2155
-1254.52 1118.6 2158
-1259.2 1127.41 2175
-1254 1127.41 2175
-1248.8 1127.41 2175
-1245.31 1128.97 2178
-1240.1 1128.97 2178
-1234.89 1128.97 2178
-1229.69 1128.97 2178
-1218.29 1123.26 2167
-1209.75 1120.15 2161
-1201.24 1117.04 2155
-1196.09 1117.04 2155
-1186.51 1112.9 2147
-1175.33 1107.2 2136
-1165.84 1103.05 2128
-1162.38 1104.6 2131
-1157.29 1104.6 2131
-1152.19 1104.6 2131
-1148.17 1105.64 2133
-1143.07 1105.64 2133
-1137.97 1105.64 2133
-1132.87 1105.64 2133
-1126.71 1104.6 2131
-1124.25 1107.2 2136
-1119.14 1107.2 2136
-1115.6 1108.75 2139
-1110.48 1108.75 2139
-1105.37 1108.75 2139
-1100.25 1108.75 2139
-1097.7 1111.34 2144
-1095.63 1114.45 2150
-1092.01 1116.01 2153
-1086.86 1116.01 2153
-1087.24 1121.71 2164
-1083.56 1123.26 2167
-1078.38 1123.26 2167
-1073.2 1123.26 2167
-1068.02 1123.26 2167
-1062.84 1123.26 2167
-1057.65 1123.26 2167
-1052.47 1123.26 2167
-1048.26 1124.3 2169
-1043.07 1124.3 2169
-1037.88 1124.3 2169
-1032.7 1124.3 2169
-1027.51 1124.3 2169
-1019.97 1121.71 2164
-1014.79 1121.71 2164
-1009.62 1121.71 2164
-1003.05 1120.15 2161
-996.496 1118.6 2158
-991.335 1118.6 2158
-986.175 1118.6 2158
-981.014 1118.6 2158
-975.854 1118.6 2158
-970.694 1118.6 2158
-965.533 1118.6 2158
-960.373 1118.6 2158
-952.999 1116.01 2153
-947.851 1116.01 2153
-942.702 1116.01 2153
-937.554 1116.01 2153
-934.57 1118.6 2158
-930.702 1120.15 2161
-925.534 1120.15 2161
-923.774 1124.3 2169
-919.858 1125.86 2172
-914.664 1125.86 2172
-909.47 1125.86 2172
-904.276 1125.86 2172
-897.84 1124.3 2169
-893.888 1125.86 2172
-888.694 1125.86 2172
-883.5 1125.86 2172
-878.307 1125.86 2172
-871.103 1123.26 2167
-865.921 1123.26 2167
-859.547 1121.71 2164
-853.188 1120.15 2161
-848.02 1120.15 2161
-844.023 1121.71 2164
-838.848 1121.71 2164
-833.673 1121.71 2164
-828.499 1121.71 2164
-823.324 1121.71 2164
-818.149 1121.71 2164
-812.974 1121.71 2164
-807.799 1121.71 2164
-802.625 1121.71 2164
-797.45 1121.71 2164
-792.275 1121.71 2164
-786.009 1120.15 2161
-780.842 1120.15 2161
-775.674 1120.15 2161
-767.654 1116.01 2153
-761.443 1114.45 2150
-756.302 1114.45 2150
-750.112 1112.9 2147
-743.937 1111.34 2144
-738.81 1111.34 2144
-733.683 1111.34 2144
-728.556 1111.34 2144
-724.442 1112.9 2147
-719.307 1112.9 2147
-714.173 1112.9 2147
-709.039 1112.9 2147
-703.905 1112.9 2147
-698.771 1112.9 2147
-693.637 1112.9 2147
-688.503 1112.9 2147
-683.369 1112.9 2147
-678.234 1112.9 2147
-673.1 1112.9 2147
-667.966 1112.9 2147
-662.832 1112.9 2147
-657.698 1112.9 2147
-652.564 1112.9 2147
-649.239 1116.01 2153
-644.091 1116.01 2153
-639.536 1117.04 2155
-637.032 1121.71 2164
-631.857 1121.71 2164
-626.682 1121.71 2164
-620.646 1120.15 2161
-615.478 1120.15 2161
-611.158 1121.71 2164
-605.983 1121.71 2164
-603.029 1125.86 2172
-597.835 1125.86 2172
-592.642 1125.86 2172
-586.636 1124.3 2169
-581.449 1124.3 2169
-575.731 1123.26 2167
-570.549 1123.26 2167
-563.019 1118.6 2158
-557.083 1117.04 2155
-555.516 1124.3 2169
-551.851 1127.41 2175
-546.65 1127.41 2175
-544.188 1133.11 2186
-538.96 1133.11 2186
-533.733 1133.11 2186
-528.022 1132.08 2184
-522.081 1130.52 2181
-516.155 1128.97 2178
-510.947 1128.97 2178
-505.738 1128.97 2178
-501.219 1130.52 2181
-496.004 1130.52 2181
-490.789 1130.52 2181
-485.573 1130.52 2181
-480.358 1130.52 2181
-475.796 1132.08 2184
-471.004 1133.11 2186
-465.777 1133.11 2186
-460.549 1133.11 2186
-455.947 1134.67 2189
-452.565 1139.33 2198
-447.309 1139.33 2198
-442.053 1139.33 2198
-436.201 1137.78 2195
-429.185 1133.11 2186
-423.958 1133.11 2186
-418.347 1132.08 2184
-412.557 1130.52 2181
-407.342 1130.52 2181
-402.126 1130.52 2181
-396.911 1130.52 2181
-391.157 1128.97 2178
-385.417 1127.41 2175
-380.216 1127.41 2175
-373.635 1123.26 2167
-367.433 1120.15 2161
-361.763 1118.6 2158
-356.602 1118.6 2158
-350.953 1117.04 2155
-344.998 1114.45 2150
-339.856 1114.45 2150
-334.715 1114.45 2150
-329.574 1114.45 2150
-323.98 1112.9 2147
-318.845 1112.9 2147
-313.711 1112.9 2147
-308.577 1112.9 2147
-303.443 1112.9 2147
-298.726 1114.45 2150
-293.994 1116.01 2153
-288.846 1116.01 2153
-283.697 1116.01 2153
-278.807 1117.04 2155
-273.654 1117.04 2155
-268.501 1117.04 2155
-263.348 1117.04 2155
-258.554 1118.6 2158
-253.393 1118.6 2158
-248.233 1118.6 2158
-243.073 1118.6 2158
-237.912 1118.6 2158
-232.752 1118.6 2158
-227.591 1118.6 2158
-222.431 1118.6 2158
-217.875 1121.71 2164
-212.995 1123.26 2167
-207.813 1123.26 2167
-202.631 1123.26 2167
-197.449 1123.26 2167
-192.267 1123.26 2167
-187.085 1123.26 2167
-181.147 1118.6 2158
-175.742 1117.04 2155
-170.589 1117.04 2155
-165.436 1117.04 2155
-160.134 1116.01 2153
-154.769 1114.45 2150
-149.628 1114.45 2150
-144.823 1117.04 2155
-139.67 1117.04 2155
-134.516 1117.04 2155
-129.363 1117.04 2155
-124.21 1117.04 2155
-119.056 1117.04 2155
-113.903 1117.04 2155
-108.75 1117.04 2155
-103.356 1114.45 2150
-98.2151 1114.45 2150
-92.9439 1112.9 2147
-87.6871 1111.34 2144
-82.5601 1111.34 2144
-77.4332 1111.34 2144
-72.3062 1111.34 2144
-67.1792 1111.34 2144
-62.0523 1111.34 2144
-56.9253 1111.34 2144
-51.6776 1108.75 2139
-35.7721 1091.65 2106
-30.736 1091.65 2106
-25.6999 1091.65 2106
-20.5657 1086.46 2096
-15.5535 1086.46 2096
-10.486 1080.76 2085
-5.47378 1075.58 2075
-0.510589 1072.98 2070
4.41796 1067.8 2060
9.34405 1067.8 2060
19.3639 1077.13 2078
24.415 1080.76 2085
29.4009 1080.76 2085
34.3868 1080.76 2085
39.3726 1080.76 2085
44.4862 1083.87 2091
49.8414 1091.65 2106
54.8775 1091.65 2106
60.0842 1094.76 2112
65.1347 1094.76 2112
70.1851 1094.76 2112
75.2355 1094.76 2112
80.8942 1103.05 2128
86.3061 1107.2 2136
91.7563 1111.34 2144
96.8833 1111.34 2144
102.153 1112.9 2147
107.687 1117.04 2155
112.84 1117.04 2155
117.993 1117.04 2155
123.147 1117.04 2155
128.181 1116.01 2153
133.329 1116.01 2153
138.285 1114.45 2150
144.16 1120.15 2161
149.328 1120.15 2161
154.495 1120.15 2161
159.663 1120.15 2161
164.83 1120.15 2161
169.133 1114.45 2150
174.517 1116.01 2153
179.666 1116.01 2153
184.814 1116.01 2153
190.404 1118.6 2158
196.108 1121.71 2164
201.748 1124.3 2169
206.934 1124.3 2169
212.708 1127.41 2175
217.909 1127.41 2175
223.726 1130.52 2181
228.941 1130.52 2181
234.156 1130.52 2181
239.701 1132.08 2184
244.924 1132.08 2184
250.146 1132.08 2184
255.369 1132.08 2184
260.234 1130.52 2181
265.449 1130.52 2181
269.92 1127.41 2175
275.5 1128.97 2178
282.126 1134.67 2189
287.361 1134.67 2189
292.596 1134.67 2189
297.83 1134.67 2189
303.065 1134.67 2189
308.299 1134.67 2189
313.534 1134.67 2189
318.768 1134.67 2189
324.003 1134.67 2189
329.237 1134.67 2189
333.708 1132.08 2184
338.931 1132.08 2184
343.208 1128.97 2178
348.416 1128.97 2178
353.624 1128.97 2178
358.833 1128.97 2178
364.041 1128.97 2178
369.249 1128.97 2178
374.457 1128.97 2178
379.666 1128.97 2178
386.288 1133.11 2186
391.515 1133.11 2186
396.742 1133.11 2186
401.97 1133.11 2186
405.707 1128.97 2178
409.783 1125.86 2172
414.977 1125.86 2172
420.171 1125.86 2172
425.952 1127.41 2175
431.154 1127.41 2175
439.163 1134.67 2189
444.398 1134.67 2189
449.632 1134.67 2189
456.114 1137.78 2195
461.993 1139.33 2198
467.887 1140.89 2201
473.15 1140.89 2201
480.37 1145.55 2210
487.413 1149.7 2218
493.383 1151.26 2221
498.694 1151.26 2221
504.005 1151.26 2221
509.316 1151.26 2221
514.627 1151.26 2221
517.363 1145.55 2210
524.54 1149.7 2218
531.994 1154.37 2227
537.319 1154.37 2227
542.645 1154.37 2227
546.494 1151.26 2221
551.805 1151.26 2221
557.116 1151.26 2221
560.401 1147.11 2213
564.926 1145.55 2210
570.211 1145.55 2210
575.496 1145.55 2210
580.781 1145.55 2210
586.065 1145.55 2210
591.35 1145.55 2210
596.635 1145.55 2210
599.469 1140.89 2201
603.908 1139.33 2198
607.501 1136.22 2192
610.506 1132.08 2184
615.729 1132.08 2184
619.245 1128.97 2178
624.454 1128.97 2178
627.927 1125.86 2172
633.121 1125.86 2172
637.434 1124.3 2169
641.139 1121.71 2164
646.314 1121.71 2164
652.994 1124.3 2169
658.181 1124.3 2169
663.367 1124.3 2169
669.479 1125.86 2172
674.673 1125.86 2172
679.867 1125.86 2172
685.06 1125.86 2172
691.208 1127.41 2175
696.409 1127.41 2175
701.61 1127.41 2175
706.811 1127.41 2175
712.012 1127.41 2175
718.202 1128.97 2178
724.407 1130.52 2181
729.622 1130.52 2181
735.849 1132.08 2184
741.071 1132.08 2184
746.977 1133.11 2186
752.205 1133.11 2186
758.472 1134.67 2189
765.799 1137.78 2195
772.102 1139.33 2198
777.358 1139.33 2198
782.614 1139.33 2198
787.87 1139.33 2198
793.127 1139.33 2198
796.203 1136.22 2192
800.348 1134.67 2189
804.479 1133.11 2186
809.706 1133.11 2186
814.933 1133.11 2186
819.41 1132.08 2184
824.633 1132.08 2184
830.616 1133.11 2186
836.99 1134.67 2189
842.225 1134.67 2189
850.943 1139.33 2198
858.537 1142.44 2204
863.807 1142.44 2204
869.078 1142.44 2204
874.348 1142.44 2204
878.421 1140.89 2201
883.684 1140.89 2201
888.948 1140.89 2201
894.211 1140.89 2201
899.474 1140.89 2201
904.737 1140.89 2201
908.76 1139.33 2198
908.195 1132.08 2184
912.163 1130.52 2181
918.64 1132.08 2184
923.863 1132.08 2184
929.085 1132.08 2184
933.024 1130.52 2181
936.949 1128.97 2178
944.753 1132.08 2184
949.976 1132.08 2184
955.198 1132.08 2184
960.421 1132.08 2184
965.643 1132.08 2184
966.865 1127.41 2175
964.469 1118.6 2158
968.281 1117.04 2155
973.434 1117.04 2155
978.588 1117.04 2155
987.849 1121.71 2164
995.318 1124.3 2169
1001.89 1125.86 2172
1008.47 1127.41 2175
1013.67 1127.41 2175
1018.88 1127.41 2175
1024.08 1127.41 2175
1029.28 1127.41 2175
1030.67 1123.26 2167
1038.25 1125.86 2172
1047.76 1130.52 2181
1052.98 1130.52 2181
1058.19 1130.52 2181
1067.31 1134.67 2189
1072.55 1134.67 2189
1086.64 1144 2207
1091.92 1144 2207
1105.65 1152.81 2224
1119.96 1162.14 2242
1126.83 1163.7 2245
1132.19 1163.7 2245
1139.08 1165.25 2248
1144.46 1165.25 2248
1149.83 1165.25 2248
1155.21 1165.25 2248
1160.59 1165.25 2248
1165.96 1165.25 2248
1171.34 1165.25 2248
1175.14 1163.7 2245
1174.2 1157.48 2233
1176.37 1154.37 2227
1175.33 1148.15 2215
1180.63 1148.15 2215
1178.43 1140.89 2201
1180.46 1137.78 2195
1184.09 1136.22 2192
1189.33 1136.22 2192
1190.22 1132.08 2184
1192.15 1128.97 2178
1194.06 1125.86 2172
1199.26 1125.86 2172
1196.69 1118.6 2158
1199.06 1116.01 2153
1198.06 1110.31 2142
1204.31 1111.34 2144
1212.82 1114.45 2150
1217.96 1114.45 2150
1224.81 1116.01 2153
1231.1 1117.04 2155
1237.97 1118.6 2158
1243.13 1118.6 2158
1250.03 1120.15 2161
1255.2 1120.15 2161
1263.86 1123.26 2167
1269.04 1123.26 2167
1275.4 1124.3 2169
1282.36 1125.86 2172
1292.89 1130.52 2181
1298.1 1130.52 2181
1305.11 1132.08 2184
1310.34 1132.08 2184
1320.38 1136.22 2192
1332.88 1142.44 2204
1338.15 1142.44 2204
1348.9 1147.11 2213
1359.09 1151.26 2221
1364.4 1151.26 2221
1369.71 1151.26 2221
1376.88 1152.81 2224
1382.2 1152.81 2224
1387.52 1152.81 2224
1387.2 1148.15 2215
1385.58 1142.44 2204
1374.44 1128.97 2178
1388.52 1136.22 2192
1393.76 1136.22 2192
1400.92 1137.78 2195
1406.17 1137.78 2195
1411.42 1137.78 2195
1412.79 1134.67 2189
1408.96 1127.41 2175
1412.21 1125.86 2172
1412.18 1121.71 2164
1417.36 1121.71 2164
1416.61 1117.04 2155
1418.47 1114.45 2150
1419.64 1111.34 2144
1424.76 1111.34 2144
1429.89 1111.34 2144
1435.02 1111.34 2144
1440.15 1111.34 2144
1445.27 1111.34 2144
1450.4 1111.34 2144
1459.6 1114.45 2150
1466.78 1116.01 2153
1473.3 1117.04 2155
1478.45 1117.04 2155
1483.61 1117.04 2155
1490.83 1118.6 2158
1498.07 1120.15 2161
1515.07 1128.97 2178
1520.27 1128.97 2178
1527.58 1130.52 2181
1538.42 1134.67 2189
1547.89 1137.78 2195
1553.14 1137.78 2195
1564.77 1142.44 2204
1570.05 1142.44 2204
1575.32 1142.44 2204
1576.28 1139.33 2198
1571.47 1132.08 2184
1576.69 1132.08 2184
1581.91 1132.08 2184
1584.95 1130.52 2181
1590.17 1130.52 2181
1595.38 1130.52 2181
1600.6 1130.52 2181
1605.82 1130.52 2181
1611.03 1130.52 2181
1611.8 1127.41 2175
1617 1127.41 2175
1622.2 1127.41 2175
1627.4 1127.41 2175
1630.35 1125.86 2172
1627.26 1120.15 2161
1632.43 1120.15 2161
1637.6 1120.15 2161
1642.77 1120.15 2161
1647.93 1120.15 2161
1653.1 1120.15 2161
-1622.49 1128.46 2167
-1617.3 1128.46 2167
-1612.12 1128.46 2167
-1602.49 1125.33 2161
-1597.32 1125.33 2161
-1592.16 1125.33 2161
-1581.11 1121.16 2153
-1573.77 1119.6 2150
-1568.63 1119.6 2150
-1561.3 1118.04 2147
-1556.17 1118.04 2147
-1553.2 1119.6 2150
-1548.06 1119.6 2150
-1542.92 1119.6 2150
-1539.93 1121.16 2153
-1538.34 1123.77 2158
-1533.18 1123.77 2158
-1528.02 1123.77 2158
-1522.86 1123.77 2158
-1517.7 1123.77 2158
-1512.54 1123.77 2158
-1499.69 1118.04 2147
-1491.08 1115.44 2142
-1483.88 1113.87 2139
-1478.76 1113.87 2139
-1471.58 1112.31 2136
-1470.59 1115.44 2142
-1473 1121.16 2153
-1473.3 1125.33 2161
-1468.13 1125.33 2161
-1462.97 1125.33 2161
-1457.8 1125.33 2161
-1452.63 1125.33 2161
-1447.46 1125.33 2161
-1444.3 1126.89 2164
-1439.12 1126.89 2164
-1433.95 1126.89 2164
-1428.77 1126.89 2164
-1419.65 1123.77 2158
-1414.49 1123.77 2158
-1409.33 1123.77 2158
-1404.17 1123.77 2158
-1400.95 1125.33 2161
-1399.66 1128.46 2167
-1397.7 1131.06 2172
-1392.5 1131.06 2172
-1387.31 1131.06 2172
-1373.21 1123.77 2158
-1368.05 1123.77 2158
-1360.99 1122.21 2155
-1352.69 1119.6 2150
-1342.54 1115.44 2142
-1337.42 1115.44 2142
-1330.43 1113.87 2139
-1321.59 1110.75 2133
-1316.49 1110.75 2133
-1311.39 1110.75 2133
-1306.29 1110.75 2133
-1298.14 1108.15 2128
-1294.88 1109.71 2131
-1304.31 1122.21 2155
-1299.15 1122.21 2155
-1294 1122.21 2155
-1290.64 1123.77 2158
-1285.48 1123.77 2158
-1280.32 1123.77 2158
-1272.2 1121.16 2153
-1265.29 1119.6 2150
-1260.15 1119.6 2150
-1255.01 1119.6 2150
-1252.77 1122.21 2155
-1249.36 1123.77 2158
-1244.2 1123.77 2158
-1239.04 1123.77 2158
-1235.59 1125.33 2161
-1230.42 1125.33 2161
-1225.26 1125.33 2161
-1220.09 1125.33 2161
-1211.55 1122.21 2155
-1201.92 1118.04 2147
-1195.11 1116.48 2144
-1189.98 1116.48 2144
-1182.09 1113.87 2139
-1170.92 1108.15 2128
-1158.17 1100.86 2114
-1153.11 1100.86 2114
-1146.97 1099.81 2112
-1147.33 1105.02 2122
-1143.87 1106.58 2125
-1140.39 1108.15 2128
-1135.3 1108.15 2128
-1130.21 1108.15 2128
-1126.71 1109.71 2131
-1121.62 1109.71 2131
-1116.52 1109.71 2131
-1114.03 1112.31 2136
-1110.48 1113.87 2139
-1105.37 1113.87 2139
-1100.25 1113.87 2139
-1096.67 1115.44 2142
-1092.57 1116.48 2144
-1090.49 1119.6 2150
-1085.34 1119.6 2150
-1087.24 1126.89 2164
-1083.56 1128.46 2167
-1078.38 1128.46 2167
-1073.2 1128.46 2167
-1068.02 1128.46 2167
-1061.36 1126.89 2164
-1057.65 1128.46 2167
-1052.47 1128.46 2167
-1047.29 1128.46 2167
-1042.11 1128.46 2167
-1036.93 1128.46 2167
-1031.74 1128.46 2167
-1025.14 1126.89 2164
-1017.14 1123.77 2158
-1011.98 1123.77 2158
-1006.82 1123.77 2158
-1000.26 1122.21 2155
-994.187 1121.16 2153
-989.038 1121.16 2153
-983.89 1121.16 2153
-979.651 1122.21 2155
-974.497 1122.21 2155
-969.344 1122.21 2155
-963.296 1121.16 2153
-956.812 1119.6 2150
-951.671 1119.6 2150
-946.53 1119.6 2150
-941.389 1119.6 2150
-937.554 1121.16 2153
-932.405 1121.16 2153
-927.257 1121.16 2153
-924.25 1123.77 2158
-919.089 1123.77 2158
-915.199 1125.33 2161
-911.295 1126.89 2164
-906.12 1126.89 2164
-900.945 1126.89 2164
-895.771 1126.89 2164
-891.831 1128.46 2167
-886.649 1128.46 2167
-881.467 1128.46 2167
-876.285 1128.46 2167
-871.103 1128.46 2167
-865.921 1128.46 2167
-859.547 1126.89 2164
-853.188 1125.33 2161
-848.02 1125.33 2161
-844.023 1126.89 2164
-838.848 1126.89 2164
-833.673 1126.89 2164
-828.499 1126.89 2164
-823.324 1126.89 2164
-818.149 1126.89 2164
-812.974 1126.89 2164
-807.799 1126.89 2164
-802.625 1126.89 2164
-797.45 1126.89 2164
-792.275 1126.89 2164
-786.009 1125.33 2161
-780.842 1125.33 2161
-775.674 1125.33 2161
-767.654 1121.16 2153
-761.443 1119.6 2150
-756.302 1119.6 2150
-750.112 1118.04 2147
-743.937 1116.48 2144
-738.81 1116.48 2144
-733.683 1116.48 2144
-728.556 1116.48 2144
-724.442 1118.04 2147
-719.307 1118.04 2147
-714.173 1118.04 2147
-709.039 1118.04 2147
-703.905 1118.04 2147
-698.771 1118.04 2147
-693.637 1118.04 2147
-688.503 1118.04 2147
-683.369 1118.04 2147
-678.234 1118.04 2147
-673.1 1118.04 2147
-667.966 1118.04 2147
-662.832 1118.04 2147
-657.698 1118.04 2147
-652.564 1118.04 2147
-649.239 1121.16 2153
-644.091 1121.16 2153
-639.536 1122.21 2155
-637.032 1126.89 2164
-631.857 1126.89 2164
-626.682 1126.89 2164
-620.646 1125.33 2161
-615.478 1125.33 2161
-611.158 1126.89 2164
-605.983 1126.89 2164
-603.029 1131.06 2172
-597.835 1131.06 2172
-592.642 1131.06 2172
-586.636 1129.5 2169
-581.449 1129.5 2169
-575.731 1128.46 2167
-570.549 1128.46 2167
-563.019 1123.77 2158
-557.083 1122.21 2155
-555.516 1129.5 2169
-551.851 1132.62 2175
-546.65 1132.62 2175
-544.188 1138.35 2186
-538.96 1138.35 2186
-533.733 1138.35 2186
-528.022 1137.31 2184
-522.081 1135.75 2181
-516.155 1134.18 2178
-510.947 1134.18 2178
-505.738 1134.18 2178
-501.219 1135.75 2181
-496.004 1135.75 2181
-490.789 1135.75 2181
-485.573 1135.75 2181
-480.358 1135.75 2181
-475.796 1137.31 2184
-471.004 1138.35 2186
-465.777 1138.35 2186
-460.549 1138.35 2186
-455.947 1139.91 2189
-452.565 1144.6 2198
-447.309 1144.6 2198
-442.053 1144.6 2198
-436.201 1143.04 2195
-429.185 1138.35 2186
-423.958 1138.35 2186
-418.347 1137.31 2184
-412.557 1135.75 2181
-407.342 1135.75 2181
-402.126 1135.75 2181
-396.911 1135.75 2181
-391.157 1134.18 2178
-385.417 1132.62 2175
-380.216 1132.62 2175
-373.635 1128.46 2167
-364.543 1116.48 2144
-359.416 1116.48 2144
-354.289 1116.48 2144
-349.162 1116.48 2144
-344.035 1116.48 2144
-338.592 1115.44 2142
-333.469 1115.44 2142
-328.347 1115.44 2142
-323.225 1115.44 2142
-318.103 1115.44 2142
-312.981 1115.44 2142
-308.146 1116.48 2144
-303.019 1116.48 2144
-298.309 1118.04 2147
-293.175 1118.04 2147
-288.041 1118.04 2147
-282.907 1118.04 2147
-277.384 1116.48 2144
-272.257 1116.48 2144
-267.13 1116.48 2144
-262.003 1116.48 2144
-256.877 1116.48 2144
-251.75 1116.48 2144
-246.623 1116.48 2144
-241.496 1116.48 2144
-236.148 1115.44 2142
-231.026 1115.44 2142
-226.115 1116.48 2144
-220.988 1116.48 2144
-216.465 1119.6 2150
-211.324 1119.6 2150
-206.182 1119.6 2150
-201.041 1119.6 2150
-195.9 1119.6 2150
-190.758 1119.6 2150
-185.617 1119.6 2150
-180.224 1118.04 2147
-175.09 1118.04 2147
-169.956 1118.04 2147
-164.822 1118.04 2147
-159.688 1118.04 2147
-154.553 1118.04 2147
-149.071 1115.44 2142
-144.084 1116.48 2144
-139.151 1118.04 2147
-134.017 1118.04 2147
-129.243 1121.16 2153
-124.094 1121.16 2153
-118.946 1121.16 2153
-113.798 1121.16 2153
-108.498 1119.6 2150
-103.356 1119.6 2150
-98.2151 1119.6 2150
-92.814 1116.48 2144
-87.4826 1113.87 2139
-82.4831 1115.44 2142
-77.3609 1115.44 2142
-72.2387 1115.44 2142
-67.1166 1115.44 2142
-61.9944 1115.44 2142
-56.8722 1115.44 2142
-51.6776 1113.87 2139
-46.4973 1112.31 2136
-41.3895 1112.31 2136
-36.2816 1112.31 2136
-31.1738 1112.31 2136
-26.0294 1110.75 2133
-20.5657 1091.48 2096
-15.5535 1091.48 2096
-10.5263 1089.92 2093
-5.49488 1084.71 2083
-0.511083 1078.98 2072
4.43941 1077.94 2070
9.38941 1077.94 2070
19.4292 1085.75 2085
24.415 1085.75 2085
29.4009 1085.75 2085
34.3868 1085.75 2085
39.3726 1085.75 2085
44.4862 1088.88 2091
49.794 1095.65 2104
54.8253 1095.65 2104
59.8566 1095.65 2104
64.8879 1095.65 2104
69.9857 1096.69 2106
75.0218 1096.69 2106
80.5901 1103.98 2120
85.9829 1108.15 2128
91.414 1112.31 2136
96.5218 1112.31 2136
102.153 1118.04 2147
107.587 1121.16 2153
112.735 1121.16 2153
117.884 1121.16 2153
123.032 1121.16 2153
128.002 1119.6 2150
133.144 1119.6 2150
138.285 1119.6 2150
143.76 1122.21 2155
148.913 1122.21 2155
154.066 1122.21 2155
159.072 1121.16 2153
163.381 1115.44 2142
168.503 1115.44 2142
174.274 1119.6 2150
179.415 1119.6 2150
184.557 1119.6 2150
189.963 1121.16 2153
195.292 1122.21 2155
201.283 1126.89 2164
206.457 1126.89 2164
211.632 1126.89 2164
216.807 1126.89 2164
222.29 1128.46 2167
227.471 1128.46 2167
232.653 1128.46 2167
238.055 1129.5 2169
243.242 1129.5 2169
248.428 1129.5 2169
253.615 1129.5 2169
258.802 1129.5 2169
263.989 1129.5 2169
269.175 1129.5 2169
274.741 1131.06 2172
280.709 1134.18 2178
285.917 1134.18 2178
291.125 1134.18 2178
297.15 1137.31 2184
302.372 1137.31 2184
307.595 1137.31 2184
312.818 1137.31 2184
318.04 1137.31 2184
323.263 1137.31 2184
328.485 1137.31 2184
332.791 1134.18 2178
338 1134.18 2178
342.262 1131.06 2172
347.936 1132.62 2175
353.137 1132.62 2175
358.338 1132.62 2175
363.539 1132.62 2175
368.74 1132.62 2175
373.942 1132.62 2175
378.62 1131.06 2172
383.814 1131.06 2172
389.545 1132.62 2175
394.746 1132.62 2175
399.947 1132.62 2175
403.099 1126.89 2164
407.708 1125.33 2161
412.875 1125.33 2161
418.043 1125.33 2161
423.211 1125.33 2161
428.378 1125.33 2161
434.148 1126.89 2164
439.323 1126.89 2164
444.497 1126.89 2164
449.672 1126.89 2164
456.528 1131.06 2172
461.722 1131.06 2172
466.916 1131.06 2172
474.066 1135.75 2181
479.941 1137.31 2184
486.274 1139.91 2189
491.509 1139.91 2189
496.743 1139.91 2189
501.978 1139.91 2189
507.213 1139.91 2189
512.447 1139.91 2189
519.81 1144.6 2198
527.933 1150.85 2210
533.218 1150.85 2210
538.502 1150.85 2210
543.787 1150.85 2210
547.581 1147.72 2204
552.852 1147.72 2204
558.122 1147.72 2204
562.626 1146.16 2201
567.889 1146.16 2201
573.152 1146.16 2201
578.415 1146.16 2201
583.679 1146.16 2201
588.942 1146.16 2201
594.205 1146.16 2201
598.651 1144.6 2198
602.259 1141.47 2192
605.838 1138.35 2186
608.829 1134.18 2178
614.037 1134.18 2178
617.54 1131.06 2172
622.733 1131.06 2172
626.482 1128.46 2167
631.664 1128.46 2167
635.964 1126.89 2164
639.361 1123.77 2158
643.626 1122.21 2155
649.682 1123.77 2158
654.843 1123.77 2158
661.838 1126.89 2164
667.938 1128.46 2167
673.12 1128.46 2167
678.301 1128.46 2167
683.483 1128.46 2167
688.665 1128.46 2167
694.488 1129.5 2169
699.674 1129.5 2169
704.861 1129.5 2169
710.048 1129.5 2169
714.575 1128.46 2167
719.757 1128.46 2167
724.939 1128.46 2167
731.806 1131.06 2172
737 1131.06 2172
744.244 1134.18 2178
749.452 1134.18 2178
754.66 1134.18 2178
761.962 1137.31 2184
768.941 1139.91 2189
774.175 1139.91 2189
779.41 1139.91 2189
784.644 1139.91 2189
789.879 1139.91 2189
794.024 1138.35 2186
798.52 1137.31 2184
803.743 1137.31 2184
808.965 1137.31 2184
813.069 1135.75 2181
818.285 1135.75 2181
823.5 1135.75 2181
828.716 1135.75 2181
833.931 1135.75 2181
839.147 1135.75 2181
847.459 1139.91 2189
853.862 1141.47 2192
861.456 1144.6 2198
866.712 1144.6 2198
871.968 1144.6 2198
873.632 1139.91 2189
878.867 1139.91 2189
884.101 1139.91 2189
892.992 1144.6 2198
898.248 1144.6 2198
903.504 1144.6 2198
902.972 1137.31 2184
905.7 1134.18 2178
910.908 1134.18 2178
917.378 1135.75 2181
922.594 1135.75 2181
927.809 1135.75 2181
931.741 1134.18 2178
935.659 1132.62 2175
943.455 1135.75 2181
948.671 1135.75 2181
953.886 1135.75 2181
959.102 1135.75 2181
964.317 1135.75 2181
966.865 1132.62 2175
963.128 1122.21 2155
966.034 1119.6 2150
971.176 1119.6 2150
974.955 1118.04 2147
977.806 1115.44 2142
985.223 1118.04 2147
991.741 1119.6 2150
998.273 1121.16 2153
1003.42 1121.16 2153
1008.57 1121.16 2153
1013.72 1121.16 2153
1018.87 1121.16 2153
1022.59 1119.6 2150
1030.12 1122.21 2155
1038.16 1125.33 2161
1043.32 1125.33 2161
1048.49 1125.33 2161
1059.02 1131.06 2172
1064.22 1131.06 2172
1076.3 1138.35 2186
1081.53 1138.35 2186
1092.72 1144.6 2198
1110.97 1158.14 2224
1117.79 1159.7 2227
1123.12 1159.7 2227
1137.56 1169.07 2245
1142.93 1169.07 2245
1149.83 1170.64 2248
1155.21 1170.64 2248
1160.59 1170.64 2248
1164.41 1169.07 2245
1169.77 1169.07 2245
1173.57 1167.51 2242
1172.62 1161.26 2230
1173.2 1156.58 2221
1175.33 1153.45 2215
1180.63 1153.45 2215
1175.21 1143.04 2195
1175.62 1138.35 2186
1180.85 1138.35 2186
1186.08 1138.35 2186
1190.22 1137.31 2184
1195.44 1137.31 2184
1194.06 1131.06 2172
1199.26 1131.06 2172
1196.69 1123.77 2158
1199.06 1121.16 2153
1198.06 1115.44 2142
1204.31 1116.48 2144
1212.82 1119.6 2150
1217.96 1119.6 2150
1224.81 1121.16 2153
1231.1 1122.21 2155
1237.97 1123.77 2158
1243.13 1123.77 2158
1250.03 1125.33 2161
1255.2 1125.33 2161
1263.86 1128.46 2167
1269.04 1128.46 2167
1275.4 1129.5 2169
1282.36 1131.06 2172
1292.89 1135.75 2181
1298.1 1135.75 2181
1305.11 1137.31 2184
1310.34 1137.31 2184
1320.38 1141.47 2192
1332.88 1147.72 2204
1338.15 1147.72 2204
1348.9 1152.41 2213
1359.09 1156.58 2221
1364.4 1156.58 2221
1369.71 1156.58 2221
1376.88 1158.14 2224
1382.2 1158.14 2224
1387.52 1158.14 2224
1387.2 1153.45 2215
1385.58 1147.72 2204
1374.44 1134.18 2178
1388.52 1141.47 2192
1393.76 1141.47 2192
1400.92 1143.04 2195
1406.17 1143.04 2195
1411.42 1143.04 2195
1412.79 1139.91 2189
1408.96 1132.62 2175
1412.21 1131.06 2172
1412.18 1126.89 2164
1417.36 1126.89 2164
1416.61 1122.21 2155
1418.47 1119.6 2150
1419.64 1116.48 2144
1424.76 1116.48 2144
1429.89 1116.48 2144
1435.02 1116.48 2144
1440.15 1116.48 2144
1445.27 1116.48 2144
1450.4 1116.48 2144
1459.6 1119.6 2150
1466.78 1121.16 2153
1473.3 1122.21 2155
1478.45 1122.21 2155
1483.61 1122.21 2155
1490.83 1123.77 2158
1498.07 1125.33 2161
1515.07 1134.18 2178
1520.27 1134.18 2178
1527.58 1135.75 2181
1538.42 1139.91 2189
1547.89 1143.04 2195
1553.14 1143.04 2195
1564.77 1147.72 2204
1570.05 1147.72 2204
1575.32 1147.72 2204
1576.28 1144.6 2198
1571.47 1137.31 2184
1576.69 1137.31 2184
1581.91 1137.31 2184
1584.95 1135.75 2181
1590.17 1135.75 2181
1595.38 1135.75 2181
1600.6 1135.75 2181
1605.82 1135.75 2181
1611.03 1135.75 2181
1611.8 1132.62 2175
1617 1132.62 2175
1622.2 1132.62 2175
1627.4 1132.62 2175
1630.35 1131.06 2172
1627.26 1125.33 2161
1632.43 1125.33 2161
1637.6 1125.33 2161
1642.77 1125.33 2161
1647.93 1125.33 2161
1653.1 1125.33 2161
-1622.49 1133.65 2167
-1617.3 1133.65 2167
-1612.12 1133.65 2167
-1602.49 1130.51 2161
-1597.32 1130.51 2161
-1592.16 1130.51 2161
-1581.11 1126.32 2153
-1573.77 1124.75 2150
-1568.63 1124.75 2150
-1559.12 1121.61 2144
-1554 1121.61 2144
-1548.87 1121.61 2144
-1543.74 1121.61 2144
-1538.61 1121.61 2144
-1537.78 1124.75 2150
-1534.78 1126.32 2153
-1529.63 1126.32 2153
-1524.48 1126.32 2153
-1519.33 1126.32 2153
-1509.96 1123.18 2147
-1504.83 1123.18 2147
-1496.2 1120.57 2142
-1486.9 1117.43 2136
-1478.33 1114.81 2131
-1473.23 1114.81 2131
-1466.07 1113.24 2128
-1464.41 1115.86 2133
-1461.36 1117.43 2136
-1460.35 1120.57 2142
-1455.22 1120.57 2142
-1450.1 1120.57 2142
-1444.98 1120.57 2142
-1443.22 1123.18 2147
-1438.09 1123.18 2147
-1432.95 1123.18 2147
-1427.82 1123.18 2147
-1422.68 1123.18 2147
-1417.55 1123.18 2147
-1412.41 1123.18 2147
-1407.28 1123.18 2147
-1402.15 1123.18 2147
-1395.06 1121.61 2144
-1389.93 1121.61 2144
-1391.91 1127.37 2155
-1388.69 1128.94 2158
-1383.53 1128.94 2158
-1378.37 1128.94 2158
-1370.03 1126.32 2153
-1364.88 1126.32 2153
-1355.94 1123.18 2147
-1348.92 1121.61 2144
-1342.54 1120.57 2142
-1337.42 1120.57 2142
-1328.56 1117.43 2136
-1321.59 1115.86 2133
-1315.26 1114.81 2131
-1310.16 1114.81 2131
-1305.07 1114.81 2131
-1298.14 1113.24 2128
-1293.05 1113.24 2128
-1299.46 1123.18 2147
-1294.33 1123.18 2147
-1294 1127.37 2155
-1288.85 1127.37 2155
-1283.69 1127.37 2155
-1278.54 1127.37 2155
-1272.2 1126.32 2153
-1260.58 1120.57 2142
-1255.46 1120.57 2142
-1246.84 1117.43 2136
-1248.12 1123.18 2147
-1247.62 1127.37 2155
-1242.47 1127.37 2155
-1237.31 1127.37 2155
-1231.02 1126.32 2153
-1225.87 1126.32 2153
-1220.72 1126.32 2153
-1212.18 1123.18 2147
-1205.36 1121.61 2144
-1199.12 1120.57 2142
-1190.65 1117.43 2136
-1185.54 1117.43 2136
-1177.67 1114.81 2131
-1163.22 1105.92 2114
-1151.04 1099.12 2101
-1146.02 1099.12 2101
-1141 1099.12 2101
-1141.92 1104.87 2112
-1136.87 1104.87 2112
-1134.5 1107.49 2117
-1129.43 1107.49 2117
-1125.97 1109.06 2120
-1121.95 1110.11 2122
-1118.46 1111.67 2125
-1113.38 1111.67 2125
-1109.86 1113.24 2128
-1106.33 1114.81 2131
-1101.23 1114.81 2131
-1096.14 1114.81 2131
-1093.6 1117.43 2136
-1091.55 1120.57 2142
-1088.96 1123.18 2147
-1083.83 1123.18 2147
-1082.72 1127.37 2155
-1082.06 1132.08 2164
-1076.89 1132.08 2164
-1071.71 1132.08 2164
-1063.58 1128.94 2158
-1059.89 1130.51 2161
-1056.19 1132.08 2164
-1051.01 1132.08 2164
-1045.84 1132.08 2164
-1040.66 1132.08 2164
-1035.49 1132.08 2164
-1026.03 1127.37 2155
-1020.88 1127.37 2155
-1015.72 1127.37 2155
-1010.57 1127.37 2155
-1005.42 1127.37 2155
-1000.26 1127.37 2155
-992.802 1124.75 2150
-987.66 1124.75 2150
-982.519 1124.75 2150
-977.378 1124.75 2150
-972.236 1124.75 2150
-967.095 1124.75 2150
-961.954 1124.75 2150
-955.477 1123.18 2147
-948.13 1120.57 2142
-943.008 1120.57 2142
-937.886 1120.57 2142
-932.763 1120.57 2142
-928.508 1121.61 2144
-924.673 1123.18 2147
-922.965 1127.37 2155
-917.812 1127.37 2155
-912.658 1127.37 2155
-907.505 1127.37 2155
-902.352 1127.37 2155
-897.198 1127.37 2155
-889.976 1124.75 2150
-884.834 1124.75 2150
-879.693 1124.75 2150
-874.552 1124.75 2150
-869.41 1124.75 2150
-864.269 1124.75 2150
-859.128 1124.75 2150
-853.986 1124.75 2150
-848.845 1124.75 2150
-843.704 1124.75 2150
-839.733 1126.32 2153
-834.584 1126.32 2153
-829.436 1126.32 2153
-826.201 1128.94 2158
-821.041 1128.94 2158
-815.881 1128.94 2158
-810.72 1128.94 2158
-805.56 1128.94 2158
-800.399 1128.94 2158
-795.239 1128.94 2158
-790.078 1128.94 2158
-784.918 1128.94 2158
-779.758 1128.94 2158
-772.802 1126.32 2153
-766.584 1124.75 2150
-760.38 1123.18 2147
-755.246 1123.18 2147
-749.064 1121.61 2144
-742.202 1119 2139
-737.087 1119 2139
-732.999 1120.57 2142
-727.877 1120.57 2142
-722.755 1120.57 2142
-717.632 1120.57 2142
-712.51 1120.57 2142
-707.388 1120.57 2142
-702.266 1120.57 2142
-697.144 1120.57 2142
-692.021 1120.57 2142
-685.937 1119 2139
-680.822 1119 2139
-675.707 1119 2139
-671.533 1120.57 2142
-666.411 1120.57 2142
-661.288 1120.57 2142
-656.166 1120.57 2142
-651.044 1120.57 2142
-645.922 1120.57 2142
-640.8 1120.57 2142
-638.052 1124.75 2150
-632.91 1124.75 2150
-627.769 1124.75 2150
-622.628 1124.75 2150
-617.487 1124.75 2150
-612.345 1124.75 2150
-610.311 1130.51 2161
-605.143 1130.51 2161
-600.808 1132.08 2164
-595.633 1132.08 2164
-590.459 1132.08 2164
-585.284 1132.08 2164
-578.501 1128.94 2158
-572.543 1127.37 2155
-567.39 1127.37 2155
-559.367 1121.61 2144
-555.015 1123.18 2147
-553.467 1130.51 2161
-550.329 1134.69 2169
-545.142 1134.69 2169
-541.449 1137.83 2175
-536.248 1137.83 2175
-531.047 1137.83 2175
-525.846 1137.83 2175
-519.927 1136.26 2172
-514.022 1134.69 2169
-510.243 1137.83 2175
-505.042 1137.83 2175
-499.841 1137.83 2175
-494.639 1137.83 2175
-489.438 1137.83 2175
-483.569 1136.26 2172
-477.715 1134.69 2169
-472.528 1134.69 2169
-467.341 1134.69 2169
-462.794 1136.26 2172
-457.6 1136.26 2172
-453.656 1139.4 2178
-448.447 1139.4 2178
-443.239 1139.4 2178
-438.031 1139.4 2178
-431.034 1134.69 2169
-424.866 1132.08 2164
-419.691 1132.08 2164
-413.367 1128.94 2158
-407.639 1127.37 2155
-402.486 1127.37 2155
-397.332 1127.37 2155
-392.179 1127.37 2155
-387.026 1127.37 2155
-381.518 1126.32 2153
-376.37 1126.32 2153
-370.704 1124.75 2150
-364.543 1121.61 2144
-359.416 1121.61 2144
-354.289 1121.61 2144
-349.162 1121.61 2144
-344.035 1121.61 2144
-338.592 1120.57 2142
-333.469 1120.57 2142
-328.347 1120.57 2142
-323.225 1120.57 2142
-318.103 1120.57 2142
-312.981 1120.57 2142
-308.146 1121.61 2144
-303.019 1121.61 2144
-298.309 1123.18 2147
-293.175 1123.18 2147
-288.041 1123.18 2147
-282.907 1123.18 2147
-277.384 1121.61 2144
-272.257 1121.61 2144
-267.13 1121.61 2144
-262.003 1121.61 2144
-256.877 1121.61 2144
-251.75 1121.61 2144
-246.623 1121.61 2144
-241.496 1121.61 2144
-236.148 1120.57 2142
-231.026 1120.57 2142
-226.115 1121.61 2144
-220.988 1121.61 2144
-216.465 1124.75 2150
-211.324 1124.75 2150
-206.182 1124.75 2150
-201.041 1124.75 2150
-195.9 1124.75 2150
-190.758 1124.75 2150
-185.617 1124.75 2150
-180.224 1123.18 2147
-175.09 1123.18 2147
-169.956 1123.18 2147
-164.822 1123.18 2147
-159.688 1123.18 2147
-154.553 1123.18 2147
-149.071 1120.57 2142
-144.084 1121.61 2144
-139.151 1123.18 2147
-134.017 1123.18 2147
-129.243 1126.32 2153
-124.094 1126.32 2153
-118.946 1126.32 2153
-113.798 1126.32 2153
-108.498 1124.75 2150
-103.356 1124.75 2150
-98.2151 1124.75 2150
-92.814 1121.61 2144
-87.4826 1119 2139
-82.4831 1120.57 2142
-77.3609 1120.57 2142
-72.2387 1120.57 2142
-67.1166 1120.57 2142
-61.9944 1120.57 2142
-56.8722 1120.57 2142
-51.6776 1119 2139
-46.4973 1117.43 2136
-41.4476 1119 2139
-36.3326 1119 2139
-31.2176 1119 2139
-26.066 1117.43 2136
-20.7227 1104.87 2112
-15.6722 1104.87 2112
-10.5665 1099.12 2101
-5.51598 1093.89 2091
