1301.97 1143.01 2136
1305.24 1141.41 2133
1310.34 1141.41 2133
1308.66 1135.52 2122
1310.64 1132.85 2117
1308.86 1126.96 2106
1313.9 1126.96 2106
1313.92 1122.68 2098
1318.94 1122.68 2098
1323.96 1122.68 2098
1328.98 1122.68 2098
1342.89 1130.17 2112
1347.94 1130.17 2112
1356.2 1132.85 2117
1364.48 1135.52 2122
1371.49 1137.13 2125
1376.57 1137.13 2125
1381.65 1137.13 2125
1386.73 1137.13 2125
1393.78 1138.73 2128
1398.87 1138.73 2128
1405.93 1140.34 2131
1412.35 1141.41 2133
1417.45 1141.41 2133
1422.56 1141.41 2133
1427.66 1141.41 2133
1436.79 1144.62 2139
1441.9 1144.62 2139
1447.02 1144.62 2139
1450.09 1143.01 2136
1451.8 1140.34 2131
1454.84 1138.73 2128
1459.93 1138.73 2128
1460.89 1135.52 2122
1462.51 1132.85 2117
1464.1 1130.17 2112
1469.15 1130.17 2112
1474.21 1130.17 2112
1486.26 1135.52 2122
1497.66 1140.34 2131
1502.76 1140.34 2131
1507.85 1140.34 2131
1518.63 1144.62 2139
1523.74 1144.62 2139
1528.86 1144.62 2139
1533.97 1144.62 2139
1539.09 1144.62 2139
1544.2 1144.62 2139
1549.32 1144.62 2139
1554.43 1144.62 2139
1559.55 1144.62 2139
1564.66 1144.62 2139
1563.91 1140.34 2131
1574.89 1144.62 2139
1580.01 1144.62 2139
1588.83 1147.29 2144
1606.59 1156.39 2161
1611.76 1156.39 2161
1616.93 1156.39 2161
1622.1 1156.39 2161
1625 1154.79 2158
1630.16 1154.79 2158
1635.32 1154.79 2158
1634.4 1150.5 2150
1634.97 1147.29 2144
1633.98 1143.01 2136
-1581.31 1135.23 2112
-1576.26 1135.23 2112
-1585.34 1145.44 2131
-1583.95 1148.13 2136
-1578.84 1148.13 2136
-1573.74 1148.13 2136
-1570.83 1149.74 2139
-1565.72 1149.74 2139
-1560.6 1149.74 2139
-1555.49 1149.74 2139
-1550.37 1149.74 2139
-1543.09 1148.13 2136
-1537.98 1148.13 2136
-1530.72 1146.52 2133
-1529.91 1149.74 2139
-1530.5 1154.04 2147
-1529.63 1157.27 2153
-1524.48 1157.27 2153
-1519.33 1157.27 2153
-1507.85 1152.43 2144
-1502.73 1152.43 2144
-1486.42 1143.83 2128
-1471.59 1136.3 2114
-1457.52 1129.32 2101
-1452.49 1129.32 2101
-1440.58 1123.94 2091
-1436.95 1125.02 2093
-1453.84 1142.22 2125
-1456.26 1148.13 2136
-1451.15 1148.13 2136
-1448.07 1149.74 2139
-1442.96 1149.74 2139
-1437.84 1149.74 2139
-1432.73 1149.74 2139
-1425.61 1148.13 2136
-1420.5 1148.13 2136
-1415.39 1148.13 2136
-1410.29 1148.13 2136
-1403.2 1146.52 2133
-1389.58 1139.53 2120
-1387.78 1142.22 2125
-1382.7 1142.22 2125
-1384.75 1148.13 2136
-1386.74 1154.04 2147
-1381.61 1154.04 2147
-1376.48 1154.04 2147
-1371.34 1154.04 2147
-1361.12 1149.74 2139
-1356 1149.74 2139
-1340.15 1140.6 2122
-1325.01 1132 2106
-1306.81 1120.72 2085
-1301.83 1120.72 2085
-1296.84 1120.72 2085
-1291.85 1120.72 2085
-1286.87 1120.72 2085
-1281.88 1120.72 2085
-1276.9 1120.72 2085
-1267.64 1116.95 2078
-1257.81 1112.65 2070
-1252.86 1112.65 2070
-1247.91 1112.65 2070
-1242.96 1112.65 2070
-1232.03 1107.28 2060
-1216.38 1097.6 2042
-1211.5 1097.6 2042
-1203.66 1094.92 2037
-1195.85 1092.23 2032
-1190.99 1092.23 2032
-1186.13 1092.23 2032
-1181.27 1092.23 2032
-1182.2 1097.6 2042
-1177.32 1097.6 2042
-1179.9 1104.59 2055
-1174.98 1104.59 2055
-1175.76 1109.97 2065
-1173.66 1112.65 2070
-1174.36 1118.03 2080
-1169.38 1118.03 2080
-1167.21 1120.72 2085
-1168.35 1126.63 2096
-1163.34 1126.63 2096
-1158.33 1126.63 2096
-1151.67 1125.02 2093
-1143.92 1122.33 2088
-1138.93 1122.33 2088
-1133.94 1122.33 2088
-1131.65 1125.02 2093
-1126.64 1125.02 2093
-1123.24 1126.63 2096
-1118.23 1126.63 2096
-1114.28 1127.7 2098
-1112.44 1130.93 2104
-1108.46 1132 2106
-1103.42 1132 2106
-1099.95 1133.62 2109
-1096.46 1135.23 2112
-1092.45 1136.3 2114
-1087.39 1136.3 2114
-1082.34 1136.3 2114
-1077.28 1136.3 2114
-1075.27 1139.53 2120
-1070.2 1139.53 2120
-1065.13 1139.53 2120
-1062.56 1142.22 2125
-1057.48 1142.22 2125
-1052.4 1142.22 2125
-1045.84 1140.6 2122
-1040.76 1140.6 2122
-1035.69 1140.6 2122
-1029.64 1139.53 2120
-1025.54 1140.6 2122
-1020.47 1140.6 2122
-1019.7 1145.44 2131
-1014.6 1145.44 2131
-1009.51 1145.44 2131
-1004.41 1145.44 2131
-999.316 1145.44 2131
-994.22 1145.44 2131
-986.339 1142.22 2125
-977.563 1137.92 2117
-972.501 1137.92 2117
-966.067 1136.3 2114
-961.012 1136.3 2114
-950.078 1129.32 2101
-942.805 1126.63 2096
-937.793 1126.63 2096
-929.221 1122.33 2088
-922.014 1119.64 2083
-915.713 1118.03 2080
-910.739 1118.03 2080
-905.765 1118.03 2080
-902.956 1120.72 2085
-897.97 1120.72 2085
-897.696 1126.63 2096
-892.683 1126.63 2096
-887.671 1126.63 2096
-881.396 1125.02 2093
-876.391 1125.02 2093
-870.553 1123.94 2091
-866.381 1125.02 2093
-863.434 1127.7 2098
-860.872 1130.93 2104
-855.84 1130.93 2104
-850.809 1130.93 2104
-845.778 1130.93 2104
-840.746 1130.93 2104
-835.715 1130.93 2104
-829.499 1129.32 2101
-824.475 1129.32 2101
-821.401 1132 2106
-816.365 1132 2106
-811.329 1132 2106
-806.293 1132 2106
-801.257 1132 2106
-796.221 1132 2106
-792.312 1133.62 2109
-787.268 1133.62 2109
-782.225 1133.62 2109
-777.182 1133.62 2109
-771.04 1132 2106
-763.094 1127.7 2098
-758.078 1127.7 2098
-753.061 1127.7 2098
-747.331 1126.63 2096
-741.256 1125.02 2093
-736.251 1125.02 2093
-731.246 1125.02 2093
-726.241 1125.02 2093
-721.236 1125.02 2093
-716.231 1125.02 2093
-712.245 1126.63 2096
-707.233 1126.63 2096
-702.221 1126.63 2096
-697.874 1127.7 2098
-693.848 1129.32 2101
-688.824 1129.32 2101
-684.776 1130.93 2104
-679.745 1130.93 2104
-674.713 1130.93 2104
-669.682 1130.93 2104
-661.176 1125.02 2093
-656.171 1125.02 2093
-651.166 1125.02 2093
-646.161 1125.02 2093
-642.688 1127.7 2098
-637.671 1127.7 2098
-634.463 1130.93 2104
-629.432 1130.93 2104
-624.4 1130.93 2104
-619.369 1130.93 2104
-614.338 1130.93 2104
-609.306 1130.93 2104
-603.414 1129.32 2101
-598.389 1129.32 2101
-593.365 1129.32 2101
-587.501 1127.7 2098
-580.541 1123.94 2091
-572.513 1118.03 2080
-567.539 1118.03 2080
-562.565 1118.03 2080
-557.055 1116.95 2078
-552.617 1118.03 2080
-548.96 1120.72 2085
-543.974 1120.72 2085
-539.763 1122.33 2088
-534.77 1122.33 2088
-530.539 1123.94 2091
-526.041 1125.02 2093
-521.036 1125.02 2093
-516.771 1126.63 2096
-512.979 1129.32 2101
-507.955 1129.32 2101
-502.931 1129.32 2101
-498.618 1130.93 2104
-494.76 1133.62 2109
-489.716 1133.62 2109
-484.673 1133.62 2109
-479.63 1133.62 2109
-474.586 1133.62 2109
-470.211 1135.23 2112
-465.161 1135.23 2112
-460.11 1135.23 2112
-454.413 1133.62 2109
-449.37 1133.62 2109
-443.695 1132 2106
-438.659 1132 2106
-432.593 1129.32 2101
-427.569 1129.32 2101
-422.545 1129.32 2101
-416.925 1127.7 2098
-411.515 1126.63 2096
-406.503 1126.63 2096
-401.491 1126.63 2096
-396.857 1127.7 2098
-391.84 1127.7 2098
-386.823 1127.7 2098
-381.806 1127.7 2098
-377.328 1129.32 2101
-372.304 1129.32 2101
-367.804 1130.93 2104
-362.773 1130.93 2104
-357.741 1130.93 2104
-352.71 1130.93 2104
-348.009 1132 2106
-342.973 1132 2106
-338.419 1133.62 2109
-333.375 1133.62 2109
-328.332 1133.62 2109
-323.749 1135.23 2112
-318.698 1135.23 2112
-313.648 1135.23 2112
-308.159 1133.62 2109
-303.116 1133.62 2109
-298.072 1133.62 2109
-292.612 1132 2106
-287.576 1132 2106
-282.54 1132 2106
-277.504 1132 2106
-272.468 1132 2106
-267.432 1132 2106
-262.396 1132 2106
-257.36 1132 2106
-252.324 1132 2106
-246.701 1129.32 2101
-241.676 1129.32 2101
-236.652 1129.32 2101
-231.297 1127.7 2098
-226.28 1127.7 2098
-221.263 1127.7 2098
-216.247 1127.7 2098
-211.532 1129.32 2101
-206.802 1130.93 2104
-201.963 1132 2106
-196.927 1132 2106
-191.891 1132 2106
-186.855 1132 2106
-181.819 1132 2106
-176.363 1129.32 2101
-171.339 1129.32 2101
-166.314 1129.32 2101
-161.521 1130.93 2104
-156.861 1133.62 2109
-151.818 1133.62 2109
-147.123 1136.3 2114
-142.269 1137.92 2117
-137.531 1140.6 2122
-132.456 1140.6 2122
-127.742 1143.83 2128
-122.654 1143.83 2128
-117.841 1146.52 2133
-112.74 1146.52 2133
-107.64 1146.52 2133
-102.683 1148.13 2136
-97.5755 1148.13 2136
-92.4677 1148.13 2136
-87.3599 1148.13 2136
-82.0595 1145.44 2131
-76.9636 1145.44 2131
-71.8678 1145.44 2131
-66.7719 1145.44 2131
-61.5892 1143.83 2128
-56.5005 1143.83 2128
-51.2185 1139.53 2120
-45.9748 1135.23 2112
-40.8663 1133.62 2109
-35.823 1133.62 2109
-30.7798 1133.62 2109
-25.6755 1130.93 2104
-20.5166 1123.94 2091
-15.5164 1123.94 2091
-10.5162 1123.94 2091
-5.49488 1119.64 2083
-0.510589 1112.65 2070
4.42225 1108.35 2062
9.35312 1108.35 2062
14.2493 1105.67 2057
19.1683 1105.67 2057
24.2043 1111.04 2067
29.1894 1112.65 2070
34.1394 1112.65 2070
39.0894 1112.65 2070
44.1458 1115.34 2075
49.1787 1116.95 2078
54.1478 1116.95 2078
59.117 1116.95 2078
64.0861 1116.95 2078
69.1217 1118.03 2080
74.0956 1118.03 2080
79.0695 1118.03 2080
85.0132 1130.93 2104
90.3868 1135.23 2112
95.4373 1135.23 2112
100.583 1136.3 2114
106.488 1145.44 2131
111.688 1146.52 2133
116.789 1146.52 2133
121.889 1146.52 2133
126.99 1146.52 2133
132.091 1146.52 2133
137.191 1146.52 2133
142.159 1145.44 2131
147.393 1146.52 2133
152.708 1148.13 2136
158.037 1149.74 2139
163.152 1149.74 2139
168.503 1151.35 2142
173.788 1152.43 2144
179.165 1154.04 2147
184.299 1154.04 2147
189.433 1154.04 2147
194.295 1152.43 2144
199.422 1152.43 2144
204.549 1152.43 2144
209.481 1151.35 2142
214.603 1151.35 2142
219.725 1151.35 2142
224.847 1151.35 2142
230.184 1152.43 2144
235.97 1155.66 2150
241.111 1155.66 2150
246.252 1155.66 2150
251.393 1155.66 2150
256.535 1155.66 2150
261.676 1155.66 2150
266.445 1154.04 2147
271.2 1152.43 2144
276.069 1151.35 2142
281.191 1151.35 2142
285.912 1149.74 2139
291.027 1149.74 2139
296.142 1149.74 2139
301.257 1149.74 2139
306.372 1149.74 2139
311.05 1148.13 2136
316.158 1148.13 2136
321.266 1148.13 2136
326.374 1148.13 2136
331.482 1148.13 2136
336.117 1146.52 2133
340.897 1145.44 2131
345.993 1145.44 2131
349.606 1140.6 2122
354.681 1140.6 2122
360.264 1142.22 2125
365.861 1143.83 2128
370.95 1143.83 2128
376.038 1143.83 2128
381.127 1143.83 2128
386.216 1143.83 2128
391.304 1143.83 2128
395.834 1142.22 2125
400.916 1142.22 2125
405.997 1142.22 2125
410.499 1140.6 2122
415.573 1140.6 2122
420.647 1140.6 2122
425.722 1140.6 2122
430.796 1140.6 2122
435.87 1140.6 2122
440.945 1140.6 2122
447.28 1143.83 2128
453.432 1146.52 2133
458.532 1146.52 2133
463.633 1146.52 2133
468.734 1146.52 2133
473.834 1146.52 2133
477.812 1143.83 2128
482.22 1142.22 2125
487.99 1143.83 2128
494.237 1146.52 2133
499.338 1146.52 2133
505.148 1148.13 2136
510.972 1149.74 2139
516.087 1149.74 2139
521.202 1149.74 2139
528.286 1154.04 2147
534.91 1157.27 2153
540.059 1157.27 2153
545.207 1157.27 2153
550.356 1157.27 2153
555.504 1157.27 2153
560.653 1157.27 2153
566.327 1158.34 2155
571.48 1158.34 2155
576.633 1158.34 2155
581.787 1158.34 2155
586.94 1158.34 2155
592.093 1158.34 2155
597.246 1158.34 2155
602.4 1158.34 2155
607.553 1158.34 2155
610.432 1154.04 2147
615.566 1154.04 2147
619.833 1152.43 2144
624.96 1152.43 2144
630.086 1152.43 2144
636.991 1155.66 2150
643.028 1157.27 2153
648.177 1157.27 2153
653.325 1157.27 2153
658.474 1157.27 2153
661.773 1154.04 2147
666.907 1154.04 2147
672.041 1154.04 2147
677.175 1154.04 2147
682.309 1154.04 2147
687.444 1154.04 2147
692.578 1154.04 2147
696.737 1152.43 2144
701.209 1151.35 2142
704.353 1148.13 2136
709.461 1148.13 2136
714.568 1148.13 2136
719.676 1148.13 2136
724.784 1148.13 2136
729.892 1148.13 2136
735 1148.13 2136
740.108 1148.13 2136
742.424 1143.83 2128
747.513 1143.83 2128
752.602 1143.83 2128
755.554 1140.6 2122
760.628 1140.6 2122
768.95 1145.44 2131
774.046 1145.44 2131
779.142 1145.44 2131
784.238 1145.44 2131
788.223 1143.83 2128
793.311 1143.83 2128
797.274 1142.22 2125
802.356 1142.22 2125
809.717 1145.44 2131
815.578 1146.52 2133
820.678 1146.52 2133
825.779 1146.52 2133
832.048 1148.13 2136
838.332 1149.74 2139
843.447 1149.74 2139
848.562 1149.74 2139
853.677 1149.74 2139
858.792 1149.74 2139
861.484 1146.52 2133
865.772 1145.44 2131
869.642 1143.83 2128
872.264 1140.6 2122
877.338 1140.6 2122
881.581 1139.53 2120
886.651 1139.53 2120
891.72 1139.53 2120
898.905 1142.22 2125
903.986 1142.22 2125
910.351 1143.83 2128
915.44 1143.83 2128
921.826 1145.44 2131
926.922 1145.44 2131
932.018 1145.44 2131
937.993 1146.52 2133
943.094 1146.52 2133
948.195 1146.52 2133
953.295 1146.52 2133
957.497 1145.44 2131
962.593 1145.44 2131
968.597 1146.52 2133
973.698 1146.52 2133
978.799 1146.52 2133
985.283 1148.13 2136
990.391 1148.13 2136
995.499 1148.13 2136
999.201 1146.52 2133
1004.3 1146.52 2133
1009.4 1146.52 2133
1014.5 1146.52 2133
1019.6 1146.52 2133
1024.7 1146.52 2133
1029.81 1146.52 2133
1033.94 1145.44 2131
1039.03 1145.44 2131
1046.58 1148.13 2136
1053.16 1149.74 2139
1058.28 1149.74 2139
1063.39 1149.74 2139
1068.51 1149.74 2139
1075.13 1151.35 2142
1082.77 1154.04 2147
1087.91 1154.04 2147
1094.57 1155.66 2150
1101.24 1157.27 2153
1106.39 1157.27 2153
1111.54 1157.27 2153
1116.69 1157.27 2153
1120.27 1155.66 2150
1125.41 1155.66 2150
1128.98 1154.04 2147
1132.53 1152.43 2144
1137.65 1152.43 2144
1142.78 1152.43 2144
1147.91 1152.43 2144
1151.96 1151.35 2142
1151.14 1145.44 2131
1156.24 1145.44 2131
1161.33 1145.44 2131
1166.43 1145.44 2131
1168.23 1142.22 2125
1170.55 1139.53 2120
1175.62 1139.53 2120
1179.01 1137.92 2117
1185.75 1139.53 2120
1197 1145.44 2131
1203.23 1146.52 2133
1208.33 1146.52 2133
1213.43 1146.52 2133
1220.24 1148.13 2136
1228.79 1151.35 2142
1233.91 1151.35 2142
1239.04 1151.35 2142
1244.16 1151.35 2142
1249.28 1151.35 2142
1254.4 1151.35 2142
1254.23 1146.52 2133
1258.15 1145.44 2131
1263.25 1145.44 2131
1266.56 1143.83 2128
1271.65 1143.83 2128
1276.74 1143.83 2128
1281.83 1143.83 2128
1286.91 1143.83 2128
1292 1143.83 2128
1297.09 1143.83 2128
1297.29 1139.53 2120
1302.35 1139.53 2120
1302.49 1135.23 2112
1303.83 1132 2106
1303.89 1127.7 2098
1308.91 1127.7 2098
1312.67 1126.63 2096
1314.54 1123.94 2091
1319.54 1123.94 2091
1324.54 1123.94 2091
1333.99 1127.7 2098
1339.01 1127.7 2098
1352.99 1135.23 2112
1361.26 1137.92 2117
1368.26 1139.53 2120
1373.33 1139.53 2120
1378.4 1139.53 2120
1383.47 1139.53 2120
1389.85 1140.6 2122
1394.92 1140.6 2122
1401.98 1142.22 2125
1407.06 1142.22 2125
1414.13 1143.83 2128
1419.22 1143.83 2128
1424.31 1143.83 2128
1432.76 1146.52 2133
1437.86 1146.52 2133
1442.96 1146.52 2133
1446.7 1145.44 2131
1451.8 1145.44 2131
1450.74 1140.6 2122
1455.81 1140.6 2122
1459.51 1139.53 2120
1462.51 1137.92 2117
1462.02 1133.62 2109
1469.15 1135.23 2112
1474.21 1135.23 2112
1486.26 1140.6 2122
1495.55 1143.83 2128
1502.76 1145.44 2131
1507.85 1145.44 2131
1516.5 1148.13 2136
1523.74 1149.74 2139
1528.86 1149.74 2139
1533.97 1149.74 2139
1539.09 1149.74 2139
1544.2 1149.74 2139
1549.32 1149.74 2139
1554.43 1149.74 2139
1557.36 1148.13 2136
1560.27 1146.52 2133
1563.91 1145.44 2131
1569 1145.44 2131
1571.88 1143.83 2128
1585.12 1149.74 2139
1593.95 1152.43 2144
1599.08 1152.43 2144
1604.21 1152.43 2144
1609.33 1152.43 2144
1614.46 1152.43 2144
1619.59 1152.43 2144
1624.72 1152.43 2144
1628.32 1151.35 2142
1628.87 1148.13 2136
1627.86 1143.83 2128
-1570.82 1132.73 2098
-1565.81 1132.73 2098
-1572.69 1141.37 2114
-1572.09 1144.61 2120
-1567.02 1144.61 2120
-1561.95 1144.61 2120
-1558.35 1145.69 2122
-1553.27 1145.69 2122
-1550.39 1147.31 2125
-1545.31 1147.31 2125
-1540.22 1147.31 2125
-1532.98 1145.69 2122
-1530.06 1147.31 2125
-1524.98 1147.31 2125
-1524.19 1150.55 2131
-1524.8 1154.87 2139
-1519.68 1154.87 2139
-1514.57 1154.87 2139
-1509.45 1154.87 2139
-1500.12 1151.63 2133
-1495.02 1151.63 2133
-1478.74 1142.99 2117
-1462.54 1134.35 2101
-1448.5 1127.33 2088
-1443.5 1127.33 2088
-1435.07 1124.63 2083
-1436.95 1130.03 2093
-1442.89 1138.67 2109
-1446.71 1145.69 2122
-1441.64 1145.69 2122
-1436.56 1145.69 2122
-1431.49 1145.69 2122
-1426.41 1145.69 2122
-1420 1144.61 2120
-1412.93 1142.99 2117
-1407.87 1142.99 2117
-1402.8 1142.99 2117
-1394.44 1140.29 2112
-1385.44 1137.05 2106
-1379.1 1135.97 2104
-1374.06 1135.97 2104
-1367.08 1134.35 2101
-1370.48 1141.37 2114
-1367.37 1142.99 2117
-1362.3 1142.99 2117
-1357.24 1142.99 2117
-1352.18 1142.99 2117
-1343.94 1140.29 2112
-1338.89 1140.29 2112
-1330.05 1137.05 2106
-1307.39 1121.93 2078
-1286.13 1107.89 2052
-1281.22 1107.89 2052
-1276.31 1107.89 2052
-1268.31 1105.19 2047
-1264.65 1106.27 2049
-1259.75 1106.27 2049
-1254.85 1106.27 2049
-1249.95 1106.27 2049
-1235.93 1098.18 2034
-1231.07 1098.18 2034
-1226.21 1098.18 2034
-1221.34 1098.18 2034
-1215.28 1097.1 2032
-1210.42 1097.1 2032
-1205.56 1097.1 2032
-1194.8 1091.7 2022
-1189.96 1091.7 2022
-1186.88 1093.32 2025
-1182.04 1093.32 2025
-1177.2 1093.32 2025
-1173.52 1094.4 2027
-1172.7 1098.18 2034
-1172.43 1102.5 2042
-1167.55 1102.5 2042
-1171.21 1110.59 2057
-1170.83 1114.91 2065
-1167.02 1115.99 2067
-1162.07 1115.99 2067
-1164.41 1123.01 2080
-1162.22 1125.71 2085
-1157.24 1125.71 2085
-1152.25 1125.71 2085
-1147.26 1125.71 2085
-1141.18 1124.63 2083
-1136.2 1124.63 2083
-1131.22 1124.63 2083
-1124.62 1123.01 2080
-1123.95 1127.33 2088
-1118.96 1127.33 2088
-1113.96 1127.33 2088
-1110.56 1128.95 2091
-1108.21 1131.65 2096
-1104.25 1132.73 2098
-1099.23 1132.73 2098
-1098.39 1137.05 2106
-1093.35 1137.05 2106
-1089.86 1138.67 2109
-1084.82 1138.67 2109
-1079.78 1138.67 2109
-1076.26 1140.29 2112
-1071.21 1140.29 2112
-1066.16 1140.29 2112
-1062.12 1141.37 2114
-1058.56 1142.99 2117
-1053.5 1142.99 2117
-1048.44 1142.99 2117
-1043.37 1142.99 2117
-1036.84 1141.37 2114
-1031.79 1141.37 2114
-1026.73 1141.37 2114
-1024.57 1144.61 2120
-1019.51 1144.61 2120
-1015.39 1145.69 2122
-1010.32 1145.69 2122
-1006.66 1147.31 2125
-1001.58 1147.31 2125
-996.502 1147.31 2125
-991.42 1147.31 2125
-982.626 1142.99 2117
-976.178 1141.37 2114
-971.123 1141.37 2114
-966.067 1141.37 2114
-960.103 1140.29 2112
-950.078 1134.35 2101
-942.805 1131.65 2096
-937.793 1131.65 2096
-929.221 1127.33 2088
-922.014 1124.63 2083
-915.713 1123.01 2080
-910.739 1123.01 2080
-905.765 1123.01 2080
-902.956 1125.71 2085
-897.97 1125.71 2085
-897.696 1131.65 2096
-892.683 1131.65 2096
-887.671 1131.65 2096
-881.396 1130.03 2093
-876.391 1130.03 2093
-870.553 1128.95 2091
-866.381 1130.03 2093
-863.434 1132.73 2098
-860.872 1135.97 2104
-855.84 1135.97 2104
-850.809 1135.97 2104
-845.778 1135.97 2104
-840.746 1135.97 2104
-835.715 1135.97 2104
-829.499 1134.35 2101
-824.475 1134.35 2101
-821.401 1137.05 2106
-816.365 1137.05 2106
-811.329 1137.05 2106
-806.293 1137.05 2106
-801.257 1137.05 2106
-796.221 1137.05 2106
-792.312 1138.67 2109
-787.268 1138.67 2109
-782.225 1138.67 2109
-777.182 1138.67 2109
-771.04 1137.05 2106
-763.094 1132.73 2098
-758.078 1132.73 2098
-753.061 1132.73 2098
-747.331 1131.65 2096
-741.256 1130.03 2093
-736.251 1130.03 2093
-731.246 1130.03 2093
-726.241 1130.03 2093
-721.236 1130.03 2093
-716.231 1130.03 2093
-712.245 1131.65 2096
-707.233 1131.65 2096
-702.221 1131.65 2096
-697.874 1132.73 2098
-693.848 1134.35 2101
-688.824 1134.35 2101
-684.776 1135.97 2104
-679.745 1135.97 2104
-674.713 1135.97 2104
-669.682 1135.97 2104
-661.176 1130.03 2093
-656.171 1130.03 2093
-651.166 1130.03 2093
-646.161 1130.03 2093
-642.688 1132.73 2098
-637.671 1132.73 2098
-634.463 1135.97 2104
-629.432 1135.97 2104
-624.4 1135.97 2104
-619.369 1135.97 2104
-614.338 1135.97 2104
-609.306 1135.97 2104
-603.414 1134.35 2101
-598.389 1134.35 2101
-593.365 1134.35 2101
-587.501 1132.73 2098
-580.541 1128.95 2091
-572.513 1123.01 2080
-567.539 1123.01 2080
-562.565 1123.01 2080
-557.055 1121.93 2078
-552.617 1123.01 2080
-548.96 1125.71 2085
-543.974 1125.71 2085
-539.763 1127.33 2088
-534.77 1127.33 2088
-530.539 1128.95 2091
-526.041 1130.03 2093
-521.036 1130.03 2093
-516.771 1131.65 2096
-512.979 1134.35 2101
-507.955 1134.35 2101
-502.931 1134.35 2101
-498.618 1135.97 2104
-494.76 1138.67 2109
-489.716 1138.67 2109
-484.673 1138.67 2109
-477.128 1132.73 2098
-472.111 1132.73 2098
-467.094 1132.73 2098
-462.077 1132.73 2098
-457.06 1132.73 2098
-451.612 1131.65 2096
-446.6 1131.65 2096
-440.956 1130.03 2093
-435.534 1128.95 2091
-429.917 1127.33 2088
-424.923 1127.33 2088
-418.925 1124.63 2083
-413.348 1123.01 2080
-408.374 1123.01 2080
-403.4 1123.01 2080
-398.043 1121.93 2078
-393.074 1121.93 2078
-388.478 1123.01 2080
-383.504 1123.01 2080
-378.53 1123.01 2080
-374.095 1124.63 2083
-370.532 1128.95 2091
-365.531 1128.95 2091
-360.531 1128.95 2091
-355.871 1130.03 2093
-351.369 1131.65 2096
-346.357 1131.65 2096
-341.345 1131.65 2096
-337.135 1134.35 2101
-332.111 1134.35 2101
-327.087 1134.35 2101
-322.829 1137.05 2106
-317.793 1137.05 2106
-312.757 1137.05 2106
-307.721 1137.05 2106
-302.685 1137.05 2106
-297.648 1137.05 2106
-292.612 1137.05 2106
-287.576 1137.05 2106
-282.54 1137.05 2106
-277.504 1137.05 2106
-272.468 1137.05 2106
-267.432 1137.05 2106
-262.396 1137.05 2106
-257.115 1135.97 2104
-251.365 1132.73 2098
-246.348 1132.73 2098
-241.331 1132.73 2098
-236.089 1131.65 2096
-231.077 1131.65 2096
-226.065 1131.65 2096
-221.053 1131.65 2096
-215.525 1128.95 2091
-210.525 1128.95 2091
-206.016 1131.65 2096
-201.004 1131.65 2096
-195.992 1131.65 2096
-190.98 1131.65 2096
-185.967 1131.65 2096
-180.955 1131.65 2096
-175.523 1128.95 2091
-170.278 1127.33 2088
-165.285 1127.33 2088
-160.523 1128.95 2091
-156.043 1132.73 2098
-151.026 1132.73 2098
-146.009 1132.73 2098
-141.395 1135.97 2104
-136.688 1138.67 2109
-131.645 1138.67 2109
-126.902 1141.37 2114
-122.02 1142.99 2117
-117.233 1145.69 2122
-112.159 1145.69 2122
-107.236 1147.31 2125
-102.299 1148.93 2128
-97.2101 1148.93 2128
-92.1214 1148.93 2128
-87.0327 1148.93 2128
-81.8285 1147.31 2125
-76.7469 1147.31 2125
-71.6654 1147.31 2125
-66.5839 1147.31 2125
-61.3577 1144.61 2120
-56.2881 1144.61 2120
-51.0253 1140.29 2112
-45.8442 1137.05 2106
-40.7694 1135.97 2104
-35.7381 1135.97 2104
-30.7068 1135.97 2104
-25.6023 1132.73 2098
-20.5166 1128.95 2091
-15.5164 1128.95 2091
-10.5011 1127.33 2088
-5.49488 1124.63 2083
-0.509849 1115.99 2067
4.42225 1113.29 2062
9.35312 1113.29 2062
14.284 1113.29 2062
19.1683 1110.59 2057
24.1223 1112.21 2060
29.1894 1117.61 2070
34.1394 1117.61 2070
39.0894 1117.61 2070
44.1458 1120.31 2075
49.1787 1121.93 2078
54.1478 1121.93 2078
59.117 1121.93 2078
64.0861 1121.93 2078
69.1217 1123.01 2080
74.0956 1123.01 2080
79.1836 1124.63 2083
85.0132 1135.97 2104
90.3868 1140.29 2112
95.4373 1140.29 2112
100.583 1141.37 2114
106.338 1148.93 2128
111.583 1150.55 2131
116.679 1150.55 2131
121.775 1150.55 2131
126.692 1148.93 2128
131.781 1148.93 2128
136.87 1148.93 2128
141.758 1147.31 2125
146.84 1147.31 2125
152.136 1148.93 2128
157.225 1148.93 2128
162.313 1148.93 2128
167.795 1151.63 2133
173.139 1153.25 2136
178.247 1153.25 2136
183.355 1153.25 2136
188.463 1153.25 2136
193.57 1153.25 2136
198.678 1153.25 2136
203.5 1151.63 2133
208.405 1150.55 2131
213.2 1148.93 2128
218.289 1148.93 2128
223.063 1147.31 2125
229.003 1151.63 2133
234.104 1151.63 2133
239.204 1151.63 2133
244.305 1151.63 2133
250.458 1156.49 2142
255.58 1156.49 2142
260.702 1156.49 2142
265.825 1156.49 2142
270.947 1156.49 2142
275.682 1154.87 2139
280.797 1154.87 2139
285.912 1154.87 2139
290.211 1151.63 2133
295.312 1151.63 2133
300.412 1151.63 2133
305.513 1151.63 2133
310.613 1151.63 2133
315.714 1151.63 2133
320.815 1151.63 2133
325.915 1151.63 2133
331.016 1151.63 2133
335.802 1150.55 2131
339.938 1147.31 2125
345.019 1147.31 2125
349.277 1144.61 2120
354.346 1144.61 2120
359.755 1145.69 2122
364.829 1145.69 2122
369.904 1145.69 2122
374.625 1144.61 2120
379.694 1144.61 2120
384.764 1144.61 2120
389.833 1144.61 2120
394.903 1144.61 2120
399.973 1144.61 2120
405.042 1144.61 2120
409.531 1142.99 2117
413.614 1140.29 2112
418.665 1140.29 2112
423.113 1138.67 2109
429.172 1141.37 2114
434.227 1141.37 2114
439.906 1142.99 2117
445.599 1144.61 2120
451.093 1145.69 2122
456.168 1145.69 2122
461.894 1147.31 2125
466.976 1147.31 2125
472.057 1147.31 2125
476.016 1144.61 2120
481.539 1145.69 2122
486.614 1145.69 2122
492.383 1147.31 2125
497.465 1147.31 2125
503.965 1150.55 2131
509.539 1151.63 2133
514.639 1151.63 2133
519.74 1151.63 2133
526.317 1154.87 2139
532.674 1157.57 2144
540.059 1162.43 2153
545.207 1162.43 2153
550.356 1162.43 2153
553.956 1159.19 2147
559.872 1160.81 2150
565.801 1162.43 2153
570.95 1162.43 2153
576.098 1162.43 2153
581.247 1162.43 2153
586.395 1162.43 2153
591.544 1162.43 2153
596.692 1162.43 2153
600.163 1159.19 2147
605.297 1159.19 2147
610.432 1159.19 2147
614.132 1156.49 2142
618.387 1154.87 2139
623.502 1154.87 2139
628.617 1154.87 2139
633.732 1154.87 2139
639.743 1156.49 2142
644.865 1156.49 2142
649.987 1156.49 2142
655.11 1156.49 2142
657.458 1151.63 2133
661.005 1148.93 2128
666.094 1148.93 2128
671.183 1148.93 2128
676.271 1148.93 2128
680.399 1147.31 2125
685.481 1147.31 2125
690.562 1147.31 2125
694.662 1145.69 2122
699.736 1145.69 2122
704.811 1145.69 2122
709.885 1145.69 2122
714.959 1145.69 2122
720.034 1145.69 2122
725.108 1145.69 2122
730.182 1145.69 2122
734.564 1144.61 2120
739.633 1144.61 2120
744.703 1144.61 2120
745.882 1138.67 2109
750.925 1138.67 2109
757.761 1141.37 2114
763.898 1142.99 2117
770.051 1144.61 2120
775.12 1144.61 2120
780.19 1144.61 2120
785.259 1144.61 2120
790.329 1144.61 2120
795.398 1144.61 2120
801.223 1145.69 2122
807.437 1147.31 2125
812.519 1147.31 2125
817.6 1147.31 2125
822.682 1147.31 2125
828.932 1148.93 2128
835.197 1150.55 2131
840.292 1150.55 2131
845.388 1150.55 2131
850.484 1150.55 2131
855.58 1150.55 2131
859.464 1148.93 2128
863.334 1147.31 2125
866.372 1144.61 2120
871.442 1144.61 2120
876.511 1144.61 2120
879.086 1141.37 2114
884.141 1141.37 2114
890.458 1142.99 2117
896.79 1144.61 2120
901.859 1144.61 2120
909.068 1147.31 2125
914.149 1147.31 2125
920.529 1148.93 2128
925.617 1148.93 2128
930.706 1148.93 2128
937.114 1150.55 2131
942.21 1150.55 2131
947.306 1150.55 2131
952.401 1150.55 2131
956.149 1148.93 2128
961.238 1148.93 2128
967.689 1150.55 2131
972.785 1150.55 2131
977.881 1150.55 2131
983.899 1151.63 2133
989 1151.63 2133
994.101 1151.63 2133
999.201 1151.63 2133
1004.3 1151.63 2133
1009.4 1151.63 2133
1014.5 1151.63 2133
1019.6 1151.63 2133
1024.7 1151.63 2133
1029.81 1151.63 2133
1033.94 1150.55 2131
1039.03 1150.55 2131
1046.58 1153.25 2136
1053.16 1154.87 2139
1058.28 1154.87 2139
1063.39 1154.87 2139
1068.51 1154.87 2139
1075.13 1156.49 2142
1082.77 1159.19 2147
1087.91 1159.19 2147
1094.57 1160.81 2150
1101.24 1162.43 2153
1106.39 1162.43 2153
1111.54 1162.43 2153
1116.69 1162.43 2153
1120.27 1160.81 2150
1125.41 1160.81 2150
1128.98 1159.19 2147
1132.53 1157.57 2144
1137.65 1157.57 2144
1142.78 1157.57 2144
1147.91 1157.57 2144
1151.96 1156.49 2142
1151.14 1150.55 2131
1156.24 1150.55 2131
1161.33 1150.55 2131
1166.43 1150.55 2131
1168.23 1147.31 2125
1170.55 1144.61 2120
1175.62 1144.61 2120
1179.01 1142.99 2117
1185.75 1144.61 2120
1197 1150.55 2131
1203.23 1151.63 2133
1208.33 1151.63 2133
1213.43 1151.63 2133
1220.24 1153.25 2136
1228.79 1156.49 2142
1233.91 1156.49 2142
1239.04 1156.49 2142
1244.16 1156.49 2142
1249.28 1156.49 2142
1254.4 1156.49 2142
1254.23 1151.63 2133
1258.15 1150.55 2131
1263.25 1150.55 2131
1266.56 1148.93 2128
1271.65 1148.93 2128
1276.74 1148.93 2128
1281.83 1148.93 2128
1286.91 1148.93 2128
1292 1148.93 2128
1297.09 1148.93 2128
1297.29 1144.61 2120
1302.35 1144.61 2120
1302.49 1140.29 2112
1303.83 1137.05 2106
1303.89 1132.73 2098
1308.91 1132.73 2098
1312.67 1131.65 2096
1314.54 1128.95 2091
1319.54 1128.95 2091
1324.54 1128.95 2091
1333.99 1132.73 2098
1339.01 1132.73 2098
1352.99 1140.29 2112
1361.26 1142.99 2117
1368.26 1144.61 2120
1373.33 1144.61 2120
1378.4 1144.61 2120
1383.47 1144.61 2120
1389.85 1145.69 2122
1394.92 1145.69 2122
1401.98 1147.31 2125
1407.06 1147.31 2125
1414.13 1148.93 2128
1419.22 1148.93 2128
1424.31 1148.93 2128
1432.76 1151.63 2133
1437.86 1151.63 2133
1442.96 1151.63 2133
1446.7 1150.55 2131
1451.8 1150.55 2131
1450.74 1145.69 2122
1455.81 1145.69 2122
1459.51 1144.61 2120
1462.51 1142.99 2117
1462.02 1138.67 2109
1469.15 1140.29 2112
1474.21 1140.29 2112
1480.66 1141.37 2114
1491.33 1145.69 2122
1502.76 1150.55 2131
1507.85 1150.55 2131
1512.95 1150.55 2131
1521.6 1153.25 2136
1526.71 1153.25 2136
1531.82 1153.25 2136
1536.93 1153.25 2136
1542.04 1153.25 2136
1547.14 1153.25 2136
1552.25 1153.25 2136
1555.17 1151.63 2133
1558.81 1150.55 2131
1557.3 1145.69 2122
1562.37 1145.69 2122
1567.45 1145.69 2122
1572.52 1145.69 2122
1590.24 1154.87 2139
1597.59 1156.49 2142
1602.71 1156.49 2142
1607.83 1156.49 2142
1612.96 1156.49 2142
1618.08 1156.49 2142
1623.2 1156.49 2142
1626.04 1154.87 2139
1622.77 1148.93 2128
1623.27 1145.69 2122
-1565.58 1133.96 2091
-1560.58 1133.96 2091
-1568.97 1143.72 2109
-1567.64 1146.43 2114
-1562.58 1146.43 2114
-1557.53 1146.43 2114
-1556.88 1149.69 2120
-1551.81 1149.69 2120
-1548.2 1150.77 2122
-1543.12 1150.77 2122
-1538.05 1150.77 2122
-1531.53 1149.69 2120
-1526.46 1149.69 2120
-1521.39 1149.69 2120
-1522.04 1154.03 2128
-1519.09 1155.65 2131
-1515.42 1156.74 2133
-1510.32 1156.74 2133
-1505.22 1156.74 2133
-1494.49 1152.4 2125
-1489.41 1152.4 2125
-1471.06 1142.09 2106
-1455.58 1133.96 2091
-1446.42 1130.71 2085
-1441.43 1130.71 2085
-1433 1127.99 2080
-1433.52 1132.33 2088
-1439.47 1141.01 2104
-1437.85 1143.72 2109
-1432.81 1143.72 2109
-1427.76 1143.72 2109
-1422.72 1143.72 2109
-1417.68 1143.72 2109
-1410.62 1142.09 2106
-1402.25 1139.38 2101
-1397.23 1139.38 2101
-1392.2 1139.38 2101
-1381.9 1135.04 2093
-1373.6 1132.33 2088
-1368.61 1132.33 2088
-1365.57 1133.96 2091
-1360.57 1133.96 2091
-1360.11 1137.76 2098
-1355.1 1137.76 2098
-1350.08 1137.76 2098
-1345.06 1137.76 2098
-1340.04 1137.76 2098
-1326.75 1130.71 2085
-1321.77 1130.71 2085
-1310.47 1125.28 2075
-1281.6 1104.68 2037
-1266.07 1095.46 2020
-1255 1090.03 2010
-1250.19 1090.03 2010
-1244.15 1088.95 2008
-1243.66 1092.74 2015
-1238.85 1092.74 2015
-1234.03 1092.74 2015
-1229.21 1092.74 2015
-1218.31 1087.32 2005
-1213.52 1087.32 2005
-1208.72 1087.32 2005
-1202.73 1086.24 2003
-1197.94 1086.24 2003
-1190.17 1083.53 1998
-1188.36 1086.24 2003
-1183.57 1086.24 2003
-1181.72 1088.95 2008
-1178.09 1090.03 2010
-1174.45 1091.12 2012
-1169.64 1091.12 2012
-1172.36 1098.17 2025
-1168.67 1099.25 2027
-1170.71 1105.76 2039
-1165.84 1105.76 2039
-1165.51 1110.1 2047
-1163.45 1112.81 2052
-1161.37 1115.52 2057
-1156.45 1115.52 2057
-1157.13 1120.94 2067
-1156.65 1125.28 2075
-1154.46 1127.99 2080
-1149.49 1127.99 2080
-1144.51 1127.99 2080
-1139.54 1127.99 2080
-1134.56 1127.99 2080
-1129.59 1127.99 2080
-1123.54 1126.91 2078
-1119.64 1127.99 2080
-1116.28 1129.62 2083
-1111.3 1129.62 2083
-1108.97 1132.33 2088
-1103.98 1132.33 2088
-1101.62 1135.04 2093
-1096.61 1135.04 2093
-1093.17 1136.67 2096
-1088.16 1136.67 2096
-1083.15 1136.67 2096
-1078.13 1136.67 2096
-1074.15 1137.76 2098
-1070.66 1139.38 2101
-1068.17 1142.09 2106
-1063.13 1142.09 2106
-1058.1 1142.09 2106
-1054.56 1143.72 2109
-1049.52 1143.72 2109
-1044.47 1143.72 2109
-1039.43 1143.72 2109
-1034.39 1143.72 2109
-1029.34 1143.72 2109
-1022.84 1142.09 2106
-1019.26 1143.72 2109
-1014.22 1143.72 2109
-1011.56 1146.43 2114
-1006.51 1146.43 2114
-1002.88 1148.06 2117
-997.813 1148.06 2117
-992.75 1148.06 2117
-987.688 1148.06 2117
-978.912 1143.72 2109
-971.56 1141.01 2104
-966.529 1141.01 2104
-960.127 1139.38 2101
-955.103 1139.38 2101
-947.817 1136.67 2096
-936.958 1129.62 2083
-931.977 1129.62 2083
-925.66 1127.99 2080
-916.26 1122.57 2070
-909.109 1119.86 2065
-904.171 1119.86 2065
-897.926 1118.23 2062
-897.326 1123.66 2072
-892.371 1123.66 2072
-887.417 1123.66 2072
-882.462 1123.66 2072
-877.507 1123.66 2072
-870.447 1120.94 2067
-865.504 1120.94 2067
-860.561 1120.94 2067
-857.688 1123.66 2072
-853.968 1125.28 2075
-851.052 1127.99 2080
-846.078 1127.99 2080
-841.104 1127.99 2080
-836.13 1127.99 2080
-831.156 1127.99 2080
-826.182 1127.99 2080
-820.419 1126.91 2078
-816.234 1127.99 2080
-813.211 1130.71 2085
-808.225 1130.71 2085
-804.395 1132.33 2088
-799.402 1132.33 2088
-794.409 1132.33 2088
-789.415 1132.33 2088
-784.422 1132.33 2088
-777.563 1129.62 2083
-772.582 1129.62 2083
-767.601 1129.62 2083
-762.62 1129.62 2083
-753.638 1123.66 2072
-748.683 1123.66 2072
-743.728 1123.66 2072
-738.773 1123.66 2072
-730.277 1118.23 2062
-723.587 1115.52 2057
-718.668 1115.52 2057
-713.749 1115.52 2057
-712.276 1120.94 2067
-708.36 1122.57 2070
-704.09 1123.66 2072
-699.135 1123.66 2072
-695.185 1125.28 2075
-690.223 1125.28 2075
-686.252 1126.91 2078
-681.283 1126.91 2078
-676.965 1127.99 2080
-671.991 1127.99 2080
-667.017 1127.99 2080
-662.043 1127.99 2080
-658.017 1129.62 2083
-653.036 1129.62 2083
-648.055 1129.62 2083
-643.074 1129.62 2083
-640.543 1133.96 2091
-636.151 1135.04 2093
-632.654 1137.76 2098
-627.637 1137.76 2098
-622.62 1137.76 2098
-617.603 1137.76 2098
-612.586 1137.76 2098
-607.569 1137.76 2098
-602.552 1137.76 2098
-596.111 1135.04 2093
-591.106 1135.04 2093
-584.701 1132.33 2088
-577.487 1127.99 2080
-571.962 1126.91 2078
-566.993 1126.91 2078
-560.401 1123.66 2072
-554.106 1120.94 2067
-549.163 1120.94 2067
-546.327 1125.28 2075
-541.365 1125.28 2075
-538.471 1129.62 2083
-533.49 1129.62 2083
-529.777 1132.33 2088
-524.784 1132.33 2088
-519.791 1132.33 2088
-514.798 1132.33 2088
-509.805 1132.33 2088
-504.812 1132.33 2088
-499.819 1132.33 2088
-496.011 1135.04 2093
-491.006 1135.04 2093
-486.001 1135.04 2093
-480.996 1135.04 2093
-477.128 1137.76 2098
-472.111 1137.76 2098
-467.094 1137.76 2098
-462.077 1137.76 2098
-457.06 1137.76 2098
-451.612 1136.67 2096
-446.6 1136.67 2096
-440.956 1135.04 2093
-435.534 1133.96 2091
-429.917 1132.33 2088
-424.923 1132.33 2088
-418.925 1129.62 2083
-413.348 1127.99 2080
-408.374 1127.99 2080
-403.4 1127.99 2080
-398.043 1126.91 2078
-393.074 1126.91 2078
-388.478 1127.99 2080
-383.504 1127.99 2080
-378.53 1127.99 2080
-374.095 1129.62 2083
-370.532 1133.96 2091
-365.531 1133.96 2091
-360.531 1133.96 2091
-355.871 1135.04 2093
-351.369 1136.67 2096
-346.357 1136.67 2096
-341.345 1136.67 2096
-337.135 1139.38 2101
-332.111 1139.38 2101
-327.087 1139.38 2101
-322.829 1142.09 2106
-317.793 1142.09 2106
-312.757 1142.09 2106
-307.721 1142.09 2106
-302.685 1142.09 2106
-297.648 1142.09 2106
-292.612 1142.09 2106
-287.576 1142.09 2106
-282.54 1142.09 2106
-277.504 1142.09 2106
-272.468 1142.09 2106
-267.432 1142.09 2106
-262.396 1142.09 2106
-257.115 1141.01 2104
-251.365 1137.76 2098
-246.348 1137.76 2098
-241.331 1137.76 2098
-236.089 1136.67 2096
-231.077 1136.67 2096
-226.065 1136.67 2096
-221.053 1136.67 2096
-215.525 1133.96 2091
-210.525 1133.96 2091
-206.016 1136.67 2096
-201.004 1136.67 2096
-195.992 1136.67 2096
-190.98 1136.67 2096
-185.967 1136.67 2096
-180.955 1136.67 2096
-175.523 1133.96 2091
-170.278 1132.33 2088
-165.285 1132.33 2088
-160.523 1133.96 2091
-156.043 1137.76 2098
-151.026 1137.76 2098
-146.009 1137.76 2098
-141.395 1141.01 2104
-136.688 1143.72 2109
-131.645 1143.72 2109
-126.902 1146.43 2114
-122.02 1148.06 2117
-117.233 1150.77 2122
-112.159 1150.77 2122
-107.236 1152.4 2125
-102.299 1154.03 2128
-97.2101 1154.03 2128
-92.1214 1154.03 2128
-87.0327 1154.03 2128
-81.8285 1152.4 2125
-76.7469 1152.4 2125
-71.6654 1152.4 2125
-66.5839 1152.4 2125
-61.3577 1149.69 2120
-56.2881 1149.69 2120
-51.0253 1145.35 2112
-45.8442 1142.09 2106
-40.7694 1141.01 2104
-35.7381 1141.01 2104
-30.7068 1141.01 2104
-25.6023 1137.76 2098
-20.5166 1133.96 2091
-15.5164 1133.96 2091
-10.486 1130.71 2085
-5.49488 1129.62 2083
-0.509849 1120.94 2067
4.42225 1118.23 2062
9.35312 1118.23 2062
14.284 1118.23 2062
19.1683 1115.52 2057
24.1223 1117.15 2060
29.1894 1122.57 2070
34.1394 1122.57 2070
39.0894 1122.57 2070
44.1458 1125.28 2075
49.1077 1125.28 2075
54.0697 1125.28 2075
59.117 1126.91 2078
64.0861 1126.91 2078
69.1217 1127.99 2080
74.0956 1127.99 2080
79.1836 1129.62 2083
85.0132 1141.01 2104
90.1301 1142.09 2106
95.1661 1142.09 2106
100.583 1146.43 2114
106.038 1150.77 2122
111.426 1154.03 2128
116.515 1154.03 2128
121.604 1154.03 2128
126.692 1154.03 2128
131.781 1154.03 2128
136.484 1150.77 2122
141.558 1150.77 2122
146.287 1148.06 2117
151.349 1148.06 2117
156.412 1148.06 2117
161.474 1148.06 2117
166.773 1149.69 2120
171.842 1149.69 2120
176.912 1149.69 2120
181.981 1149.69 2120
187.051 1149.69 2120
192.12 1149.69 2120
197.19 1149.69 2120
201.973 1148.06 2117
206.742 1146.43 2114
211.597 1145.35 2112
216.648 1145.35 2112
221.698 1145.35 2112
227.285 1148.06 2117
232.677 1149.69 2120
237.971 1150.77 2122
243.045 1150.77 2122
248.119 1150.77 2122
253.552 1152.4 2125
258.633 1152.4 2125
263.715 1152.4 2125
268.796 1152.4 2125
273.878 1152.4 2125
278.959 1152.4 2125
284.041 1152.4 2125
289.122 1152.4 2125
294.619 1154.03 2128
299.708 1154.03 2128
304.797 1154.03 2128
309.885 1154.03 2128
314.974 1154.03 2128
320.063 1154.03 2128
325.151 1154.03 2128
330.24 1154.03 2128
334.856 1152.4 2125
338.658 1148.06 2117
343.72 1148.06 2117
348.288 1146.43 2114
352.508 1143.72 2109
358.399 1146.43 2114
363.454 1146.43 2114
368.509 1146.43 2114
373.564 1146.43 2114
378.261 1145.35 2112
383.312 1145.35 2112
388.362 1145.35 2112
393.413 1145.35 2112
398.463 1145.35 2112
403.514 1145.35 2112
407.984 1143.72 2109
413.027 1143.72 2109
416.484 1139.38 2101
422.11 1141.01 2104
427.142 1141.01 2104
432.173 1141.01 2104
437.204 1141.01 2104
443.917 1145.35 2112
449.393 1146.43 2114
454.448 1146.43 2114
459.503 1146.43 2114
464.558 1146.43 2114
469.614 1146.43 2114
474.22 1145.35 2112
478.589 1143.72 2109
484.779 1146.43 2114
490.53 1148.06 2117
495.592 1148.06 2117
501.837 1150.77 2122
506.911 1150.77 2122
512.709 1152.4 2125
517.791 1152.4 2125
524.841 1156.74 2133
530.687 1158.36 2136
537.801 1162.7 2144
542.928 1162.7 2144
548.055 1162.7 2144
553.956 1164.33 2147
559.09 1164.33 2147
564.224 1164.33 2147
569.359 1164.33 2147
574.493 1164.33 2147
579.627 1164.33 2147
584.761 1164.33 2147
589.895 1164.33 2147
593.643 1161.62 2142
598.766 1161.62 2142
603.888 1161.62 2142
605.883 1155.65 2131
609.258 1152.4 2125
612.894 1149.69 2120
618.547 1150.77 2122
623.621 1150.77 2122
631.362 1155.65 2131
636.458 1155.65 2131
641.554 1155.65 2131
646.649 1155.65 2131
651.745 1155.65 2131
654.067 1150.77 2122
656.656 1146.43 2114
661.712 1146.43 2114
666.136 1145.35 2112
670.233 1143.72 2109
675.276 1143.72 2109
681.287 1145.35 2112
686.338 1145.35 2112
691.388 1145.35 2112
697.098 1146.43 2114
702.153 1146.43 2114
707.209 1146.43 2114
713.275 1148.06 2117
718.337 1148.06 2117
723.399 1148.06 2117
728.462 1148.06 2117
733.524 1148.06 2117
735.795 1143.72 2109
740.839 1143.72 2109
744.821 1142.09 2106
749.145 1141.01 2104
755.969 1143.72 2109
761.012 1143.72 2109
768.961 1148.06 2117
774.023 1148.06 2117
779.086 1148.06 2117
784.148 1148.06 2117
789.21 1148.06 2117
794.273 1148.06 2117
800.468 1149.69 2120
805.538 1149.69 2120
811.372 1150.77 2122
816.446 1150.77 2122
821.521 1150.77 2122
827.763 1152.4 2125
832.845 1152.4 2125
837.927 1152.4 2125
841.818 1150.77 2122
846.892 1150.77 2122
851.967 1150.77 2122
857.041 1150.77 2122
861.303 1149.69 2120
865.146 1148.06 2117
868.975 1146.43 2114
874.031 1146.43 2114
877.007 1143.72 2109
882.05 1143.72 2109
888.355 1145.35 2112
894.252 1146.43 2114
899.307 1146.43 2114
906.929 1149.69 2120
911.998 1149.69 2120
917.933 1150.77 2122
923.007 1150.77 2122
928.082 1150.77 2122
934.475 1152.4 2125
939.557 1152.4 2125
944.638 1152.4 2125
949.72 1152.4 2125
954.801 1152.4 2125
959.883 1152.4 2125
964.964 1152.4 2125
970.046 1152.4 2125
975.128 1152.4 2125
981.593 1154.03 2128
986.682 1154.03 2128
991.77 1154.03 2128
998.264 1155.65 2131
1003.36 1155.65 2131
1008.46 1155.65 2131
1013.55 1155.65 2131
1018.65 1155.65 2131
1022.3 1154.03 2128
1027.39 1154.03 2128
1032.48 1154.03 2128
1037.57 1154.03 2128
1044.13 1155.65 2131
1050.21 1156.74 2133
1055.31 1156.74 2133
1061.9 1158.36 2136
1067.01 1158.36 2136
1072.12 1158.36 2136
1077.22 1158.36 2136
1082.33 1158.36 2136
1087.44 1158.36 2136
1094.08 1159.99 2139
1099.2 1159.99 2139
1104.31 1159.99 2139
1109.43 1159.99 2139
1112.98 1158.36 2136
1118.09 1158.36 2136
1120.57 1155.65 2131
1124.08 1154.03 2128
1130.76 1155.65 2131
1135.85 1155.65 2131
1140.95 1155.65 2131
1146.04 1155.65 2131
1147.9 1152.4 2125
1152.98 1152.4 2125
1156.43 1150.77 2122
1157.12 1146.43 2114
1162.18 1146.43 2114
1166.13 1145.35 2112
1171.18 1145.35 2112
1174.56 1143.72 2109
1182.4 1146.43 2114
1195.32 1154.03 2128
1200.41 1154.03 2128
1205.5 1154.03 2128
1210.58 1154.03 2128
1218.53 1156.74 2133
1225.35 1158.36 2136
1230.46 1158.36 2136
1235.57 1158.36 2136
1240.67 1158.36 2136
1245.78 1158.36 2136
1249.13 1156.74 2133
1251.29 1154.03 2128
1252.84 1150.77 2122
1257.91 1150.77 2122
1261.8 1149.69 2120
1266.87 1149.69 2120
1270.14 1148.06 2117
1275.2 1148.06 2117
1280.26 1148.06 2117
1285.32 1148.06 2117
1290.39 1148.06 2117
1288.72 1142.09 2106
1293.75 1142.09 2106
1293.86 1137.76 2098
1294.54 1133.96 2091
1295.81 1130.71 2085
1300.8 1130.71 2085
1304.53 1129.62 2083
1304.48 1125.28 2075
1304.4 1120.94 2067
1308.07 1119.86 2065
1325.73 1130.71 2085
1330.71 1130.71 2085
1342.74 1136.67 2096
1350.97 1139.38 2101
1359.22 1142.09 2106
1364.26 1142.09 2106
1369.3 1142.09 2106
1379.55 1146.43 2114
1384.61 1146.43 2114
1389.66 1146.43 2114
1401.98 1152.4 2125
1407.06 1152.4 2125
1414.13 1154.03 2128
1419.22 1154.03 2128
1424.31 1154.03 2128
1432.76 1156.74 2133
1437.86 1156.74 2133
1442.96 1156.74 2133
1446.7 1155.65 2131
1451.8 1155.65 2131
1450.74 1150.77 2122
1455.81 1150.77 2122
1459.51 1149.69 2120
1462.51 1148.06 2117
1462.02 1143.72 2109
1469.15 1145.35 2112
1474.21 1145.35 2112
1480.66 1146.43 2114
1491.33 1150.77 2122
1502.76 1155.65 2131
1507.85 1155.65 2131
1512.95 1155.65 2131
1521.6 1158.36 2136
1526.71 1158.36 2136
1531.82 1158.36 2136
1536.93 1158.36 2136
1542.04 1158.36 2136
1547.14 1158.36 2136
1552.25 1158.36 2136
1555.17 1156.74 2133
1558.81 1155.65 2131
1557.3 1150.77 2122
1562.37 1150.77 2122
1567.45 1150.77 2122
1572.52 1150.77 2122
1590.24 1159.99 2139
1597.59 1161.62 2142
1602.71 1161.62 2142
1607.83 1161.62 2142
1612.96 1161.62 2142
1618.08 1161.62 2142
1623.2 1161.62 2142
1626.04 1159.99 2139
1622.77 1154.03 2128
1623.27 1150.77 2122
-1565.58 1138.97 2091
-1560.58 1138.97 2091
-1568.97 1148.77 2109
-1567.64 1151.5 2114
-1562.58 1151.5 2114
-1557.53 1151.5 2114
-1556.88 1154.77 2120
-1551.81 1154.77 2120
-1548.2 1155.85 2122
-1543.12 1155.85 2122
-1538.05 1155.85 2122
-1531.53 1154.77 2120
-1526.46 1154.77 2120
-1521.39 1154.77 2120
-1522.04 1159.12 2128
-1519.09 1160.76 2131
-1515.42 1161.85 2133
-1510.32 1161.85 2133
-1505.22 1161.85 2133
-1494.49 1157.49 2125
-1489.41 1157.49 2125
-1471.06 1147.14 2106
-1451.4 1135.7 2085
-1442.95 1132.98 2080
-1437.97 1132.98 2080
-1427.49 1128.62 2072
-1426.65 1131.89 2078
-1430.58 1138.97 2091
-1425.58 1138.97 2091
-1420.58 1138.97 2091
-1415.58 1138.97 2091
-1410.58 1138.97 2091
-1405.58 1138.97 2091
-1400.58 1138.97 2091
-1390.24 1134.61 2083
-1379.94 1130.25 2075
-1374.97 1130.25 2075
-1370.01 1130.25 2075
-1359.79 1125.9 2067
-1353.53 1124.81 2065
-1358.39 1132.98 2080
-1353.42 1132.98 2080
-1350.39 1134.61 2083
-1345.41 1134.61 2083
-1340.43 1134.61 2083
-1335.44 1134.61 2083
-1330.46 1134.61 2083
-1317.21 1127.53 2070
-1312.26 1127.53 2070
-1286.47 1109.55 2037
-1270.9 1100.3 2020
-1259.8 1094.85 2010
-1248.75 1089.4 2000
-1243.97 1089.4 2000
-1237.95 1088.31 1998
-1239.34 1093.76 2008
-1234.54 1093.76 2008
-1229.74 1093.76 2008
-1223.11 1092.12 2005
-1217.1 1091.04 2003
-1212.31 1091.04 2003
-1207.52 1091.04 2003
-1199.73 1088.31 1998
-1193.75 1087.22 1996
-1187.19 1085.59 1993
-1184.21 1087.22 1996
-1179.43 1087.22 1996
-1175.84 1088.31 1998
-1173.99 1091.04 2003
-1170.37 1092.12 2005
-1165.57 1092.12 2005
-1164.83 1095.94 2012
-1162.9 1098.66 2017
-1167.84 1107.92 2034
-1162.98 1107.92 2034
-1159.82 1109.55 2037
-1157.78 1112.28 2042
-1156.85 1116.09 2049
-1151.95 1116.09 2049
-1151.53 1120.45 2057
-1152.19 1125.9 2067
-1148.91 1127.53 2070
-1143.96 1127.53 2070
-1139.01 1127.53 2070
-1134.06 1127.53 2070
-1130.2 1128.62 2072
-1125.25 1128.62 2072
-1123.54 1131.89 2078
-1118.57 1131.89 2078
-1113.6 1131.89 2078
-1108.63 1131.89 2078
-1106.31 1134.61 2083
-1101.33 1134.61 2083
-1098.98 1137.33 2088
-1093.99 1137.33 2088
-1089 1137.33 2088
-1084 1137.33 2088
-1080.56 1138.97 2091
-1075.56 1138.97 2091
-1070.56 1138.97 2091
-1068.11 1141.69 2096
-1064.11 1142.78 2098
-1059.09 1142.78 2098
-1054.08 1142.78 2098
-1050.56 1144.42 2101
-1045.54 1144.42 2101
-1040.51 1144.42 2101
-1035.49 1144.42 2101
-1030.46 1144.42 2101
-1025.44 1144.42 2101
-1020.42 1144.42 2101
-1016.84 1146.05 2104
-1011.81 1146.05 2104
-1007.74 1147.14 2106
-1002.7 1147.14 2106
-997.664 1147.14 2106
-992.628 1147.14 2106
-987.592 1147.14 2106
-982.556 1147.14 2106
-973.807 1142.78 2098
-967.866 1141.69 2096
-962.854 1141.69 2096
-955.557 1138.97 2091
-947.829 1135.7 2085
-940.582 1132.98 2080
-927.512 1123.17 2062
-922.581 1123.17 2062
-917.65 1123.17 2062
-906.079 1115 2047
-897.662 1110.64 2039
-892.787 1110.64 2039
-887.911 1110.64 2039
-883.035 1110.64 2039
-878.159 1110.64 2039
-875.425 1113.37 2044
-870.537 1113.37 2044
-865.649 1113.37 2044
-859.919 1112.28 2042
-855.036 1112.28 2042
-850.153 1112.28 2042
-849.409 1117.73 2052
-846.56 1120.45 2057
-846.96 1127.53 2070
-842.01 1127.53 2070
-837.869 1128.62 2072
-832.914 1128.62 2072
-827.959 1128.62 2072
-822.21 1127.53 2070
-817.26 1127.53 2070
-812.31 1127.53 2070
-808.14 1128.62 2072
-803.185 1128.62 2072
-798.231 1128.62 2072
-793.276 1128.62 2072
-788.321 1128.62 2072
-783.366 1128.62 2072
-778.412 1128.62 2072
-771.59 1125.9 2067
-766.647 1125.9 2067
-761.705 1125.9 2067
-756.762 1125.9 2067
-749.273 1122.08 2060
-744.347 1122.08 2060
-737.626 1119.36 2055
-732.712 1119.36 2055
-726.735 1117.73 2052
-719.014 1113.37 2044
-714.126 1113.37 2044
-709.239 1113.37 2044
-707.108 1117.73 2052
-702.201 1117.73 2052
-697.294 1117.73 2052
-692.387 1117.73 2052
-692.505 1125.9 2067
-688.56 1127.53 2070
-684.271 1128.62 2072
-679.316 1128.62 2072
-675.338 1130.25 2075
-670.376 1130.25 2075
-665.414 1130.25 2075
-660.452 1130.25 2075
-655.49 1130.25 2075
-651.468 1131.89 2078
-648.055 1134.61 2083
-643.074 1134.61 2083
-638.093 1134.61 2083
-633.112 1134.61 2083
-628.734 1135.7 2085
-623.748 1135.7 2085
-618.762 1135.7 2085
-613.776 1135.7 2085
-608.79 1135.7 2085
-603.804 1135.7 2085
-598.818 1135.7 2085
-593.832 1135.7 2085
-588.847 1135.7 2085
-581.901 1131.89 2078
-573.322 1124.81 2065
-567.558 1123.17 2062
-562.627 1123.17 2062
-557.156 1122.08 2060
-552.23 1122.08 2060
-548.632 1124.81 2065
-544.22 1125.9 2067
-540.06 1127.53 2070
-535.11 1127.53 2070
-530.16 1127.53 2070
-526.479 1130.25 2075
-522.271 1131.89 2078
-517.302 1131.89 2078
-513.565 1134.61 2083
-508.584 1134.61 2083
-504.812 1137.33 2088
-499.819 1137.33 2088
-494.826 1137.33 2088
-490.537 1138.97 2091
-485.537 1138.97 2091
-480.536 1138.97 2091
-475.991 1140.06 2093
-470.986 1140.06 2093
-465.981 1140.06 2093
-460.976 1140.06 2093
-455.971 1140.06 2093
-450.535 1138.97 2091
-445.535 1138.97 2091
-440.535 1138.97 2091
-435.534 1138.97 2091
-428.887 1134.61 2083
-423.906 1134.61 2083
-417.919 1131.89 2078
-412.95 1131.89 2078
-407.392 1130.25 2075
-402.43 1130.25 2075
-397.468 1130.25 2075
-393.074 1131.89 2078
-388.105 1131.89 2078
-383.135 1131.89 2078
-378.166 1131.89 2078
-373.556 1132.98 2080
-369.468 1135.7 2085
-364.483 1135.7 2085
-359.497 1135.7 2085
-355.531 1138.97 2091
-350.531 1138.97 2091
-345.531 1138.97 2091
-340.856 1140.06 2093
-335.851 1140.06 2093
-330.846 1140.06 2093
-326.308 1141.69 2096
-321.603 1142.78 2098
-316.586 1142.78 2098
-311.569 1142.78 2098
-306.552 1142.78 2098
-301.535 1142.78 2098
-296.518 1142.78 2098
-291.918 1144.42 2101
-286.894 1144.42 2101
-282.272 1146.05 2104
-277.241 1146.05 2104
-272.209 1146.05 2104
-266.797 1144.42 2101
-261.773 1144.42 2101
-256.382 1142.78 2098
-250.766 1140.06 2093
-245.761 1140.06 2093
-240.756 1140.06 2093
-235.526 1138.97 2091
-230.195 1137.33 2088
-225.202 1137.33 2088
-220.209 1137.33 2088
-214.907 1135.7 2085
-210.223 1137.33 2088
-205.23 1137.33 2088
-200.237 1137.33 2088
-195.244 1137.33 2088
-190.251 1137.33 2088
-185.258 1137.33 2088
-180.264 1137.33 2088
-175.271 1137.33 2088
-169.871 1134.61 2083
-164.89 1134.61 2083
-160.292 1137.33 2088
