1393.62 1083.26 2535
1399.69 1083.26 2535
1405.75 1083.26 2535
1403.46 1076.85 2520
1409.48 1076.85 2520
1415.51 1076.85 2520
1430 1083.26 2535
1436.06 1083.26 2535
1442.12 1083.26 2535
1439.61 1076.85 2520
1441.05 1073.43 2512
1440.72 1068.73 2501
1446.7 1068.73 2501
1452.68 1068.73 2501
1456.33 1067.02 2497
1464.64 1068.73 2501
1479.44 1075.14 2516
1492.54 1080.27 2528
1498.59 1080.27 2528
1511.18 1084.97 2539
1517.25 1084.97 2539
1523.32 1084.97 2539
1529.4 1084.97 2539
1533.05 1083.26 2535
1548.83 1090.09 2551
1557.36 1091.8 2555
1563.47 1091.8 2555
1569.58 1091.8 2555
1583.09 1096.93 2567
1598.52 1103.34 2582
1604.69 1103.34 2582
1610.87 1103.34 2582
1617.04 1103.34 2582
1623.22 1103.34 2582
1629.39 1103.34 2582
1615.93 1090.09 2551
1622.03 1090.09 2551
1613.45 1080.27 2528
1619.49 1080.27 2528
1610.42 1062.32 2486
1616.37 1062.32 2486
1622.31 1062.32 2486
1628.26 1062.32 2486
1634.2 1062.32 2486
1640.15 1062.32 2486
1646.09 1062.32 2486
1628.11 1046.94 2450
1621.97 1039.24 2432
1550.81 990.102 2317
1554.34 988.82 2314
1559.87 988.82 2314
1560.67 985.829 2307
1568.9 987.538 2311
1574.43 987.538 2311
1592.94 995.657 2330
1598.51 995.657 2330
1610.97 999.93 2340
1625.55 1005.49 2353
1631.17 1005.49 2353
1636.8 1005.49 2353
1642.43 1005.49 2353
1876.71 1099.92 2574
1885.79 1101.63 2578
1891.95 1101.63 2578
1898.12 1101.63 2578
1904.28 1101.63 2578
1910.45 1101.63 2578
1913.64 1099.92 2574
1919.79 1099.92 2574
1934.93 1105.05 2586
1941.11 1105.05 2586
1947.29 1105.05 2586
1953.48 1105.05 2586
1959.66 1105.05 2586
1962.8 1103.34 2582
1968.98 1103.34 2582
1972.09 1101.63 2578
-1742.08 1071.71 2494
-1736.11 1071.71 2494
-1730.15 1071.71 2494
-1724.19 1071.71 2494
-1718.22 1071.71 2494
-1709.51 1069.99 2490
-1703.56 1069.99 2490
-1694.88 1068.27 2486
-1686.89 1066.99 2483
-1675.54 1063.55 2475
-1669.62 1063.55 2475
-1659 1060.54 2468
-1650.42 1058.82 2464
-1639.85 1055.81 2457
-1633.98 1055.81 2457
-1628.1 1055.81 2457
-1614.96 1051.09 2446
-1613.72 1054.09 2453
-1607.85 1054.09 2453
-1601.99 1054.09 2453
-1615.64 1066.99 2483
-1611.65 1068.27 2486
-1605.7 1068.27 2486
-1599.76 1068.27 2486
-1623.29 1096.21 2551
-1617.19 1096.21 2551
-1611.09 1096.21 2551
-1637.7 1118.55 2603
-1631.48 1118.55 2603
-1625.25 1118.55 2603
-1619.03 1118.55 2603
-1610.33 1116.83 2599
-1604.11 1116.83 2599
-1597.9 1116.83 2599
-1601.48 1123.71 2615
-1595.23 1123.71 2615
-1588.97 1123.71 2615
-1582.72 1123.71 2615
-1574.05 1121.99 2611
-1563.01 1118.55 2603
-1556.78 1118.55 2603
-1550.56 1118.55 2603
-1544.33 1118.55 2603
-1530.43 1112.96 2590
-1524.23 1112.96 2590
-1518.04 1112.96 2590
-1511.85 1112.96 2590
-1492.28 1103.08 2567
-1486.14 1103.08 2567
-1470.78 1096.21 2551
-1453.77 1088.04 2532
-1217.82 1066.99 2483
-1211.88 1066.99 2483
-1205.95 1066.99 2483
-1190.83 1058.82 2464
-1184.93 1058.82 2464
-1179.04 1058.82 2464
-1167.91 1054.09 2453
-1160.63 1052.8 2450
-1154.77 1052.8 2450
-1140.47 1045.07 2432
-1128.12 1039.05 2418
-1122.34 1039.05 2418
-1116.56 1039.05 2418
-1110.77 1039.05 2418
-1104.99 1039.05 2418
-1099.21 1039.05 2418
-1093.43 1039.05 2418
-1087.64 1039.05 2418
-1086.34 1043.35 2428
-1095.22 1057.53 2461
-1092.43 1060.54 2468
-1086.53 1060.54 2468
-1081.94 1061.83 2471
-1076.03 1061.83 2471
-1070.12 1061.83 2471
-1062.92 1060.54 2468
-1047.6 1051.09 2446
-1038.77 1048.08 2439
-1032.93 1048.08 2439
-1022.47 1043.35 2428
-1016.66 1043.35 2428
-1010.86 1043.35 2428
-1005.05 1043.35 2428
-999.245 1043.35 2428
-980.755 1030.03 2397
-970.956 1025.73 2387
-969.291 1030.03 2397
-969.187 1036.05 2411
-963.422 1036.05 2411
-957.656 1036.05 2411
-955.839 1040.34 2421
-950.05 1040.34 2421
-944.26 1040.34 2421
-941.185 1043.35 2428
-936.919 1045.07 2432
-936.464 1051.09 2446
-930.615 1051.09 2446
-933.083 1060.54 2468
-928.308 1061.83 2471
-927.999 1068.27 2486
-922.054 1068.27 2486
-917.583 1069.99 2490
-914.192 1073 2497
-912.585 1078.16 2509
-906.586 1078.16 2509
-901.663 1079.45 2512
-895.656 1079.45 2512
-889.649 1079.45 2512
-883.642 1079.45 2512
-876.587 1078.16 2509
-869.199 1076.44 2505
-865.621 1079.45 2512
-859.614 1079.45 2512
-854.966 1081.17 2516
-848.95 1081.17 2516
-842.933 1081.17 2516
-835.586 1079.45 2512
-825.946 1074.72 2501
-817.671 1071.71 2494
-811.707 1071.71 2494
-805.743 1071.71 2494
-799.779 1071.71 2494
-790.314 1066.99 2483
-786.588 1069.99 2490
-780.633 1069.99 2490
-774.679 1069.99 2490
-768.725 1069.99 2490
-763.996 1071.71 2494
-758.032 1071.71 2494
-752.068 1071.71 2494
-747.001 1073 2497
-741.03 1073 2497
-737.414 1076.44 2505
-731.424 1076.44 2505
-725.434 1076.44 2505
-719.444 1076.44 2505
-713.453 1076.44 2505
-705.204 1073 2497
-699.233 1073 2497
-694.372 1074.72 2501
-689.493 1076.44 2505
-683.502 1076.44 2505
-678.594 1078.16 2509
-672.594 1078.16 2509
-666.594 1078.16 2509
-660.595 1078.16 2509
-654.595 1078.16 2509
-645.493 1073 2497
-639.522 1073 2497
-632.79 1071.71 2494
-626.826 1071.71 2494
-618.123 1066.99 2483
-612.925 1068.27 2486
-606.981 1068.27 2486
-601.036 1068.27 2486
-599.639 1076.44 2505
-594.597 1078.16 2509
-588.597 1078.16 2509
-582.597 1078.16 2509
-579.126 1082.88 2520
-573.1 1082.88 2520
-567.073 1082.88 2520
-561.047 1082.88 2520
-553.259 1079.45 2512
-551.609 1088.04 2532
-545.555 1088.04 2532
-539.5 1088.04 2532
-537.448 1096.21 2551
-532.181 1097.92 2555
-526.071 1097.92 2555
-519.961 1097.92 2555
-510.634 1091.05 2539
-504.562 1091.05 2539
-497.116 1088.04 2532
-491.062 1088.04 2532
-485.007 1088.04 2532
-478.952 1088.04 2532
-472.897 1088.04 2532
-463.893 1081.17 2516
-456.602 1078.16 2509
-449.166 1074.72 2501
-443.185 1074.72 2501
-437.204 1074.72 2501
-431.224 1074.72 2501
-425.243 1074.72 2501
-419.262 1074.72 2501
-413.282 1074.72 2501
-405.51 1069.99 2490
-397.148 1063.55 2475
-391.23 1063.55 2475
-385.311 1063.55 2475
-380.006 1065.27 2479
-376.341 1071.71 2494
-372.011 1076.44 2505
-366.021 1076.44 2505
-361.612 1081.17 2516
-356.726 1084.6 2524
-350.69 1084.6 2524
-344.655 1084.6 2524
-338.619 1084.6 2524
-332.583 1084.6 2524
-326.548 1084.6 2524
-320.512 1084.6 2524
-315.847 1089.33 2535
-309.785 1089.33 2535
-303.723 1089.33 2535
-296.369 1084.6 2524
-290.334 1084.6 2524
-285.988 1091.05 2539
-280.798 1094.49 2547
-274.707 1094.49 2547
-269.882 1099.64 2559
-263.763 1099.64 2559
-257.644 1099.64 2559
-251.524 1099.64 2559
-245.021 1097.92 2555
-238.164 1094.49 2547
-231.708 1092.77 2543
-225.627 1092.77 2543
-219.201 1091.05 2539
-213.129 1091.05 2539
-206.487 1088.04 2532
-201.62 1094.49 2547
-195.529 1094.49 2547
-190.628 1101.36 2563
-184.499 1101.36 2563
-178.371 1101.36 2563
-171.973 1099.64 2559
-165.854 1099.64 2559
-159.734 1099.64 2559
-153.615 1099.64 2559
-147.034 1096.21 2551
-140.05 1089.33 2535
-132.614 1078.16 2509
-126.614 1078.16 2509
-117.586 1051.09 2446
-109.179 1027.02 2390
-102.424 1016.71 2366
-95.7032 1005.54 2340
-90.1076 1005.54 2340
-83.2117 990.066 2304
-76.7579 978.034 2276
-70.8453 971.588 2261
-65.4385 971.588 2261
-59.5273 963.424 2242
-54.0211 960.845 2236
-48.4129 955.689 2224
-42.8815 950.962 2213
-37.5895 950.962 2213
-32.21 948.383 2207
-26.8958 947.094 2204
-21.5371 943.227 2195
-16.2882 943.227 2195
-11.0392 943.227 2195
-5.7745 940.649 2189
-0.539942 940.649 2189
4.70105 941.938 2192
9.94279 941.938 2192
15.2053 943.227 2195
20.4822 944.516 2198
25.7383 944.516 2198
30.9943 944.516 2198
36.2504 944.516 2198
41.5065 944.516 2198
46.8902 947.094 2204
52.1607 947.094 2204
57.4311 947.094 2204
62.7869 948.383 2207
68.0645 948.383 2207
73.5415 950.962 2213
78.8334 950.962 2213
84.1254 950.962 2213
89.4174 950.962 2213
94.7093 950.962 2213
100.001 950.962 2213
105.008 948.383 2207
110.135 947.094 2204
115.406 947.094 2204
120.676 947.094 2204
125.947 947.094 2204
131.872 951.821 2215
137.54 954.399 2221
142.851 954.399 2221
148.963 959.556 2233
155.132 964.713 2245
160.929 967.291 2251
166.312 967.291 2251
171.695 967.291 2251
177.078 967.291 2251
183.515 972.877 2264
188.928 972.877 2264
195.63 979.323 2279
202.491 986.198 2295
209.973 995.652 2317
215.514 995.652 2317
225.157 1014.13 2360
232.072 1019.72 2373
240.151 1030.03 2397
245.883 1030.03 2397
252.664 1034.33 2407
260.675 1043.35 2428
268.896 1052.8 2450
274.754 1052.8 2450
284.736 1068.27 2486
292.435 1074.72 2501
299.37 1078.16 2509
305.37 1078.16 2509
312.238 1081.17 2516
318.761 1082.88 2520
324.787 1082.88 2520
330.813 1082.88 2520
336.839 1082.88 2520
342.865 1082.88 2520
349.445 1084.6 2524
355.481 1084.6 2524
361.516 1084.6 2524
368.717 1088.04 2532
375.808 1091.05 2539
381.879 1091.05 2539
389.173 1094.49 2547
395.264 1094.49 2547
401.355 1094.49 2547
406.805 1092.77 2543
412.237 1091.05 2539
418.309 1091.05 2539
424.38 1091.05 2539
430.452 1091.05 2539
436.523 1091.05 2539
443.989 1094.49 2547
452.907 1101.36 2563
459.036 1101.36 2563
465.165 1101.36 2563
471.294 1101.36 2563
476.678 1099.64 2559
482.797 1099.64 2559
488.152 1097.92 2555
491.941 1092.77 2543
495.867 1088.04 2532
501.922 1088.04 2532
506.372 1084.6 2524
510.783 1081.17 2516
515.978 1079.45 2512
521.985 1079.45 2512
526.521 1076.44 2505
532.511 1076.44 2505
537.642 1074.72 2501
543.622 1074.72 2501
546.307 1068.27 2486
546.698 1057.53 2461
552.583 1057.53 2461
556.652 1054.09 2453
562.518 1054.09 2453
566.762 1051.09 2446
570.972 1048.08 2439
576.805 1048.08 2439
585.265 1052.8 2450
591.124 1052.8 2450
599.663 1057.53 2461
611.699 1068.27 2486
621.371 1074.72 2501
627.351 1074.72 2501
638.143 1082.88 2520
644.169 1082.88 2520
654.066 1089.33 2535
660.128 1089.33 2535
672.497 1099.64 2559
682.594 1106.09 2574
691.96 1111.25 2586
698.144 1111.25 2586
705.417 1112.96 2590
711.611 1112.96 2590
720.299 1116.83 2599
726.514 1116.83 2599
732.729 1116.83 2599
740.081 1118.55 2603
747.452 1120.27 2607
753.686 1120.27 2607
759.92 1120.27 2607
766.155 1120.27 2607
770.018 1116.83 2599
776.234 1116.83 2599
782.448 1116.83 2599
787.146 1114.68 2594
788.456 1107.81 2578
794.621 1107.81 2578
796.126 1101.36 2563
801.003 1099.64 2559
803.337 1094.49 2547
809.428 1094.49 2547
811.676 1089.33 2535
814.19 1084.6 2524
816.326 1079.45 2512
822.333 1079.45 2512
828.34 1079.45 2512
833.35 1078.16 2509
836.674 1074.72 2501
844.002 1076.44 2505
849.993 1076.44 2505
855.983 1076.44 2505
861.973 1076.44 2505
866.577 1074.72 2501
876.396 1079.45 2512
882.403 1079.45 2512
891.239 1082.88 2520
898.689 1084.6 2524
907.592 1088.04 2532
913.647 1088.04 2532
920.792 1089.33 2535
928.316 1091.05 2539
935.86 1092.77 2543
941.941 1092.77 2543
951.004 1096.21 2551
957.104 1096.21 2551
963.205 1096.21 2551
969.305 1096.21 2551
975.405 1096.21 2551
978.427 1092.77 2543
984.508 1092.77 2543
995.264 1097.92 2555
1001.37 1097.92 2555
1009.06 1099.64 2559
1016.77 1101.36 2563
1022.9 1101.36 2563
1029.02 1101.36 2563
1035.15 1101.36 2563
1036.41 1096.21 2551
1044.14 1097.92 2555
1050.25 1097.92 2555
1056.36 1097.92 2555
1062.47 1097.92 2555
1068.58 1097.92 2555
1071.33 1094.49 2547
1075.72 1092.77 2543
1081.81 1092.77 2543
1087.89 1092.77 2543
1093.97 1092.77 2543
1194.47 1118.55 2603
1200.7 1118.55 2603
1206.92 1118.55 2603
1220.6 1125.43 2619
1226.87 1125.43 2619
1233.13 1125.43 2619
1239.39 1125.43 2619
1245.66 1125.43 2619
1251.92 1125.43 2619
1256.26 1123.71 2615
1262.51 1123.71 2615
1247.42 1104.8 2571
1247.72 1099.64 2559
1257.75 1103.08 2567
1263.89 1103.08 2567
1270.03 1103.08 2567
1276.17 1103.08 2567
1285.8 1106.09 2574
1291.96 1106.09 2574
1298.12 1106.09 2574
1300.72 1103.08 2567
1306.86 1103.08 2567
1308.91 1099.64 2559
1308.86 1094.49 2547
1314.95 1094.49 2547
1321.04 1094.49 2547
1325.05 1092.77 2543
1333.22 1094.49 2547
1341.42 1096.21 2551
1347.52 1096.21 2551
1353.62 1096.21 2551
1359.72 1096.21 2551
1361.54 1092.77 2543
1365.47 1091.05 2539
1371.54 1091.05 2539
1375.44 1089.33 2535
1379.87 1088.04 2532
1387.56 1089.33 2535
1393.62 1089.33 2535
1399.69 1089.33 2535
1405.75 1089.33 2535
1403.46 1082.88 2520
1409.48 1082.88 2520
1415.51 1082.88 2520
1430 1089.33 2535
1436.06 1089.33 2535
1442.12 1089.33 2535
1439.61 1082.88 2520
1441.05 1079.45 2512
1440.72 1074.72 2501
1446.7 1074.72 2501
1452.68 1074.72 2501
1456.33 1073 2497
1464.64 1074.72 2501
1479.44 1081.17 2516
1492.54 1086.32 2528
1498.59 1086.32 2528
1511.18 1091.05 2539
1517.25 1091.05 2539
1523.32 1091.05 2539
1529.4 1091.05 2539
1533.05 1089.33 2535
1548.83 1096.21 2551
1557.36 1097.92 2555
1563.47 1097.92 2555
1569.58 1097.92 2555
1583.09 1103.08 2567
1598.52 1109.53 2582
1604.69 1109.53 2582
1610.87 1109.53 2582
1617.04 1109.53 2582
1623.22 1109.53 2582
1629.39 1109.53 2582
1615.93 1096.21 2551
1622.03 1096.21 2551
1613.45 1086.32 2528
1619.49 1086.32 2528
1617.82 1081.17 2516
1621.26 1079.45 2512
1622.73 1076.44 2505
1628.72 1076.44 2505
1629.49 1073 2497
1628.26 1068.27 2486
1634.2 1068.27 2486
1640.15 1068.27 2486
1646.09 1068.27 2486
1637.42 1058.82 2464
1629.3 1049.8 2443
1559.51 1001.24 2330
1565.08 1001.24 2330
1565.94 998.231 2323
1563.37 993.074 2311
1568.9 993.074 2311
1574.43 993.074 2311
1592.94 1001.24 2330
1598.51 1001.24 2330
1610.97 1005.54 2340
1625.55 1011.12 2353
1631.17 1011.12 2353
1636.8 1011.12 2353
1651.5 1016.71 2366
1683.77 1033.04 2404
1689.52 1033.04 2404
1695.27 1033.04 2404
1765.94 1065.27 2479
1771.87 1065.27 2479
1782.82 1068.27 2486
1788.77 1068.27 2486
1794.71 1068.27 2486
1795.58 1065.27 2479
1814.59 1073 2497
1834.42 1081.17 2516
1860.18 1092.77 2543
1866.27 1092.77 2543
1881.18 1097.92 2555
1887.29 1097.92 2555
1902.29 1103.08 2567
1908.43 1103.08 2567
1914.57 1103.08 2567
1920.71 1103.08 2567
1932.1 1106.09 2574
1938.26 1106.09 2574
1944.41 1106.09 2574
1950.57 1106.09 2574
1959.76 1107.81 2578
1965.93 1107.81 2578
1972.09 1107.81 2578
-1742.08 1077.69 2494
-1736.11 1077.69 2494
-1730.15 1077.69 2494
-1724.19 1077.69 2494
-1718.22 1077.69 2494
-1709.51 1075.96 2490
-1703.56 1075.96 2490
-1694.88 1074.23 2486
-1686.89 1072.93 2483
-1675.54 1069.48 2475
-1669.62 1069.48 2475
-1659 1066.45 2468
-1650.42 1064.72 2464
-1639.85 1061.7 2457
-1633.98 1061.7 2457
-1628.1 1061.7 2457
-1612.98 1055.65 2443
-1613.72 1059.97 2453
-1607.85 1059.97 2453
-1601.99 1059.97 2453
-1596.12 1059.97 2453
-1620.74 1100.59 2547
-1614.65 1100.59 2547
-1608.56 1100.59 2547
-1637.7 1124.79 2603
-1631.48 1124.79 2603
-1625.25 1124.79 2603
-1619.03 1124.79 2603
-1610.33 1123.06 2599
-1604.11 1123.06 2599
-1594.82 1120.9 2594
-1596.58 1126.52 2607
-1590.35 1126.52 2607
-1584.11 1126.52 2607
-1573.04 1123.06 2599
-1566.82 1123.06 2599
-1563.01 1124.79 2603
-1556.78 1124.79 2603
-1550.56 1124.79 2603
-1544.33 1124.79 2603
-1530.43 1119.17 2590
-1524.23 1119.17 2590
-1518.04 1119.17 2590
-1511.85 1119.17 2590
-1492.28 1109.23 2567
-1486.14 1109.23 2567
-1470.78 1102.32 2551
-1217.82 1072.93 2483
-1211.88 1072.93 2483
-1205.95 1072.93 2483
-1190.83 1064.72 2464
-1184.93 1064.72 2464
-1179.04 1064.72 2464
-1167.91 1059.97 2453
-1160.63 1058.67 2450
-1154.77 1058.67 2450
-1140.47 1050.9 2432
-1128.12 1044.85 2418
-1122.34 1044.85 2418
-1116.56 1044.85 2418
-1110.77 1044.85 2418
-1104.99 1044.85 2418
-1099.21 1044.85 2418
-1093.43 1044.85 2418
-1087.64 1044.85 2418
-1084.99 1047.87 2425
-1088.54 1056.95 2446
-1089.33 1063.43 2461
-1083.45 1063.43 2461
-1080.63 1066.45 2468
-1074.72 1066.45 2468
-1068.82 1066.45 2468
-1053.45 1056.95 2446
-1044.6 1053.92 2439
-1037.06 1052.19 2435
-1031.24 1052.19 2435
-1022.47 1049.17 2428
-1016.66 1049.17 2428
-1010.86 1049.17 2428
-1005.05 1049.17 2428
-999.245 1049.17 2428
-980.755 1035.77 2397
-970.956 1031.45 2387
-969.291 1035.77 2397
-969.187 1041.82 2411
-963.422 1041.82 2411
-957.656 1041.82 2411
-955.839 1046.14 2421
-950.05 1046.14 2421
-944.26 1046.14 2421
-941.185 1049.17 2428
-936.919 1050.9 2432
-936.464 1056.95 2446
-930.615 1056.95 2446
-933.083 1066.45 2468
-928.308 1067.75 2471
-927.999 1074.23 2486
-922.054 1074.23 2486
-917.583 1075.96 2490
-914.192 1078.98 2497
-912.585 1084.17 2509
-906.586 1084.17 2509
-901.663 1085.46 2512
-895.656 1085.46 2512
-889.649 1085.46 2512
-883.642 1085.46 2512
-876.587 1084.17 2509
-869.199 1082.44 2505
-865.621 1085.46 2512
-859.614 1085.46 2512
-854.966 1087.19 2516
-848.95 1087.19 2516
-842.933 1087.19 2516
-835.586 1085.46 2512
-825.946 1080.71 2501
-817.671 1077.69 2494
-811.707 1077.69 2494
-805.743 1077.69 2494
-799.779 1077.69 2494
-790.314 1072.93 2483
-786.588 1075.96 2490
-780.633 1075.96 2490
-774.679 1075.96 2490
-768.725 1075.96 2490
-763.996 1077.69 2494
-758.032 1077.69 2494
-752.068 1077.69 2494
-747.001 1078.98 2497
-741.03 1078.98 2497
-737.414 1082.44 2505
-731.424 1082.44 2505
-725.434 1082.44 2505
-719.444 1082.44 2505
-713.453 1082.44 2505
-705.204 1078.98 2497
-699.233 1078.98 2497
-694.372 1080.71 2501
-689.493 1082.44 2505
-683.502 1082.44 2505
-678.594 1084.17 2509
-672.594 1084.17 2509
-666.594 1084.17 2509
-660.595 1084.17 2509
-654.595 1084.17 2509
-645.493 1078.98 2497
-639.522 1078.98 2497
-632.79 1077.69 2494
-626.826 1077.69 2494
-618.123 1072.93 2483
-612.925 1074.23 2486
-606.981 1074.23 2486
-601.036 1074.23 2486
-599.639 1082.44 2505
-594.597 1084.17 2509
-588.597 1084.17 2509
-582.597 1084.17 2509
-579.126 1088.92 2520
-573.1 1088.92 2520
-567.073 1088.92 2520
-561.047 1088.92 2520
-553.259 1085.46 2512
-551.609 1094.11 2532
-545.555 1094.11 2532
-539.5 1094.11 2532
-537.448 1102.32 2551
-532.181 1104.05 2555
-526.071 1104.05 2555
-519.961 1104.05 2555
-510.634 1097.13 2539
-504.562 1097.13 2539
-497.116 1094.11 2532
-491.062 1094.11 2532
-485.007 1094.11 2532
-478.952 1094.11 2532
-472.897 1094.11 2532
-463.893 1087.19 2516
-456.602 1084.17 2509
-449.166 1080.71 2501
-443.185 1080.71 2501
-437.204 1080.71 2501
-431.224 1080.71 2501
-425.243 1080.71 2501
-419.262 1080.71 2501
-413.282 1080.71 2501
-405.51 1075.96 2490
-397.148 1069.48 2475
-391.23 1069.48 2475
-385.311 1069.48 2475
-380.006 1071.2 2479
-376.341 1077.69 2494
-372.011 1082.44 2505
-366.021 1082.44 2505
-361.612 1087.19 2516
-355.595 1087.19 2516
-349.579 1087.19 2516
-342.06 1082.44 2505
-336.07 1082.44 2505
-331.529 1087.19 2516
-325.513 1087.19 2516
-319.496 1087.19 2516
-313.48 1087.19 2516
-307.463 1087.19 2516
-301.447 1087.19 2516
-294.608 1084.17 2509
-286.423 1075.96 2490
-282.158 1082.44 2505
-277.38 1087.19 2516
-271.364 1087.19 2516
-265.347 1087.19 2516
-259.331 1087.19 2516
-253.314 1087.19 2516
-247.298 1087.19 2516
-240.898 1085.46 2512
-233.862 1080.71 2501
-227.882 1080.71 2501
-221.901 1080.71 2501
-215.575 1078.98 2497
-209.604 1078.98 2497
-203.062 1075.96 2490
-199.166 1087.19 2516
-193.149 1087.19 2516
-187.728 1090.65 2524
-181.692 1090.65 2524
-175.656 1090.65 2524
-169.621 1090.65 2524
-163.585 1090.65 2524
-157.549 1090.65 2524
-151.514 1090.65 2524
-145.248 1088.92 2520
-138.614 1084.17 2509
-131.24 1072.93 2483
-125.302 1072.93 2483
-114.894 1032.75 2390
-107.169 1013.73 2346
-101.299 1011.14 2340
-94.3536 996.882 2307
-88.8368 996.882 2307
-82.995 992.992 2298
-76.6567 982.19 2273
-70.3439 970.091 2245
-64.715 966.202 2236
-59.368 966.202 2236
-53.9486 964.905 2233
-48.1081 954.967 2210
-42.8234 954.967 2210
-37.5386 954.967 2210
-32.1662 952.374 2204
-26.8592 951.078 2201
-21.5371 948.485 2195
-16.2882 948.485 2195
-11.0392 948.485 2195
-5.7745 945.892 2189
-0.539202 944.596 2186
4.68819 944.596 2186
9.91558 944.596 2186
15.143 944.596 2186
20.4263 947.189 2192
25.668 947.189 2192
30.9097 947.189 2192
36.1515 947.189 2192
41.3932 947.189 2192
46.8264 951.078 2201
52.0897 951.078 2201
57.3529 951.078 2201
62.6162 951.078 2201
67.972 952.374 2204
73.3421 953.67 2207
78.6197 953.67 2207
83.8973 953.67 2207
89.1749 953.67 2207
94.4525 953.67 2207
99.7301 953.67 2207
104.865 952.374 2204
109.836 949.781 2198
115.249 951.078 2201
120.512 951.078 2201
125.947 952.374 2204
131.574 954.967 2210
137.355 958.424 2218
142.658 958.424 2218
148.963 964.905 2233
154.925 968.794 2242
160.929 972.683 2251
166.312 972.683 2251
171.695 972.683 2251
177.078 972.683 2251
182.947 975.276 2257
188.344 975.276 2257
195.372 983.486 2276
202.491 991.696 2295
209.973 1001.2 2317
215.514 1001.2 2317
224.203 1015.46 2350
230.8 1019.78 2360
237.746 1025.4 2373
243.421 1025.4 2373
251.615 1035.77 2397
258.42 1040.09 2407
266.152 1047.87 2425
271.951 1047.87 2425
280.613 1058.67 2450
289.395 1069.48 2475
296.626 1074.23 2486
302.571 1074.23 2486
309.508 1077.69 2494
316.358 1080.71 2501
322.338 1080.71 2501
328.319 1080.71 2501
334.299 1080.71 2501
340.28 1080.71 2501
346.261 1080.71 2501
351.678 1078.98 2497
357.649 1078.98 2497
366.387 1087.19 2516
372.996 1088.92 2520
379.022 1088.92 2520
386.27 1092.38 2528
392.315 1092.38 2528
398.361 1092.38 2528
404.406 1092.38 2528
410.451 1092.38 2528
415.837 1090.65 2524
421.873 1090.65 2524
427.909 1090.65 2524
433.944 1090.65 2524
441.374 1094.11 2532
449.373 1098.86 2543
455.454 1098.86 2543
461.535 1098.86 2543
468.352 1100.59 2547
474.442 1100.59 2547
480.533 1100.59 2547
485.095 1097.13 2539
489.813 1094.11 2532
491.363 1084.17 2509
497.363 1084.17 2509
502.56 1082.44 2505
506.926 1078.98 2497
511.459 1075.96 2490
517.414 1075.96 2490
521.897 1072.93 2483
526.134 1069.48 2475
529.688 1064.72 2464
534.928 1063.43 2461
540.813 1063.43 2461
544.921 1059.97 2453
546.071 1050.9 2432
550.298 1047.87 2425
556.097 1047.87 2425
560.969 1046.14 2421
564.418 1041.82 2411
571.839 1044.85 2418
581.682 1052.19 2435
587.505 1052.19 2435
593.327 1052.19 2435
602.841 1058.67 2450
613.917 1067.75 2471
619.826 1067.75 2471
630.546 1075.96 2490
639.313 1080.71 2501
648.131 1085.46 2512
654.138 1085.46 2512
663.299 1090.65 2524
678.616 1105.77 2559
687.946 1110.96 2571
694.094 1110.96 2571
703.238 1115.71 2582
710.512 1117.44 2586
716.696 1117.44 2586
722.88 1117.44 2586
731.319 1120.9 2594
738.944 1123.06 2599
745.159 1123.06 2599
751.374 1123.06 2599
757.589 1123.06 2599
763.804 1123.06 2599
770.018 1123.06 2599
776.234 1123.06 2599
780.943 1120.9 2594
785.932 1119.17 2590
785.092 1109.23 2567
791.23 1109.23 2567
794.884 1105.77 2559
797.247 1100.59 2547
802.076 1098.86 2543
808.157 1098.86 2543
808.154 1090.65 2524
810.319 1085.46 2512
816.326 1085.46 2512
822.333 1085.46 2512
826.032 1082.44 2505
829.365 1078.98 2497
832.994 1075.96 2490
840.296 1077.69 2494
846.26 1077.69 2494
852.224 1077.69 2494
858.188 1077.69 2494
862.766 1075.96 2490
870.116 1077.69 2494
876.08 1077.69 2494
882.044 1077.69 2494
888.007 1077.69 2494
893.971 1077.69 2494
899.935 1077.69 2494
905.899 1077.69 2494
915.885 1082.44 2505
924.451 1085.46 2512
930.458 1085.46 2512
939.448 1088.92 2520
945.474 1088.92 2520
951.5 1088.92 2520
957.526 1088.92 2520
963.552 1088.92 2520
968.039 1087.19 2516
978.701 1092.38 2528
989.031 1097.13 2539
995.103 1097.13 2539
1001.17 1097.13 2539
1010.42 1100.59 2547
1016.51 1100.59 2547
1022.6 1100.59 2547
1028.69 1100.59 2547
1034.78 1100.59 2547
1040.87 1100.59 2547
1046.96 1100.59 2547
1053.05 1100.59 2547
1055.82 1097.13 2539
1063.56 1098.86 2543
1069.64 1098.86 2543
1075.72 1098.86 2543
1081.81 1098.86 2543
1087.89 1098.86 2543
1093.97 1098.86 2543
1190.34 1120.9 2594
1196.55 1120.9 2594
1206.92 1124.79 2603
1220.6 1131.7 2619
1226.87 1131.7 2619
1233.13 1131.7 2619
1239.39 1131.7 2619
1245.66 1131.7 2619
1251.92 1131.7 2619
1256.26 1129.97 2615
1241.27 1110.96 2571
1231.89 1097.13 2539
1239.91 1098.86 2543
1245.99 1098.86 2543
1252.08 1098.86 2543
1258.16 1098.86 2543
1268.22 1102.32 2551
1278.31 1105.77 2559
1284.43 1105.77 2559
1290.55 1105.77 2559
1296.67 1105.77 2559
1302.79 1105.77 2559
1302.77 1100.59 2547
1302.69 1095.4 2535
1308.76 1095.4 2535
1314.82 1095.4 2535
1319.32 1094.11 2532
1325.37 1094.11 2532
1337.21 1098.86 2543
1343.29 1098.86 2543
1349.37 1098.86 2543
1355.45 1098.86 2543
1359.39 1097.13 2539
1363.31 1095.4 2535
1369.38 1095.4 2535
1373.81 1094.11 2532
1379.87 1094.11 2532
1387.56 1095.4 2535
1393.62 1095.4 2535
1399.69 1095.4 2535
1401.87 1092.38 2528
1403.46 1088.92 2520
1409.48 1088.92 2520
1415.51 1088.92 2520
1421.53 1088.92 2520
1427.56 1088.92 2520
1433.59 1088.92 2520
1435.04 1085.46 2512
1437.03 1082.44 2505
1438.42 1078.98 2497
1442.65 1077.69 2494
1448.61 1077.69 2494
1454.58 1077.69 2494
1464.64 1080.71 2501
1479.44 1087.19 2516
1490.18 1090.65 2524
1496.22 1090.65 2524
1508.8 1095.4 2535
1514.86 1095.4 2535
1520.93 1095.4 2535
1526.99 1095.4 2535
1526.4 1090.65 2524
1532.43 1090.65 2524
1550.05 1098.86 2543
1561.03 1102.32 2551
1567.13 1102.32 2551
1575.69 1104.05 2555
1581.8 1104.05 2555
1595.37 1109.23 2567
1601.51 1109.23 2567
1612.03 1112.26 2574
1618.19 1112.26 2574
1624.34 1112.26 2574
1615.93 1102.32 2551
1622.03 1102.32 2551
1613.45 1092.38 2528
1619.49 1092.38 2528
1617.82 1087.19 2516
1621.26 1085.46 2512
1622.73 1082.44 2505
1628.72 1082.44 2505
1629.49 1078.98 2497
1628.26 1074.23 2486
1634.2 1074.23 2486
1640.15 1074.23 2486
1646.09 1074.23 2486
1637.42 1064.72 2464
1631.3 1056.95 2446
1579.59 1019.78 2360
1585.23 1019.78 2360
1572.68 1008.12 2333
1571.49 1003.8 2323
1575.01 1002.5 2320
1580.56 1002.5 2320
1597.73 1009.84 2337
1603.32 1009.84 2337
1617.85 1015.46 2350
1627.62 1018.05 2356
1649.89 1028.43 2380
1655.58 1028.43 2380
1675.23 1037.07 2400
1690.78 1043.12 2414
1721.85 1058.67 2450
1727.71 1058.67 2450
1733.57 1058.67 2450
1739.43 1058.67 2450
1770.93 1074.23 2486
1776.88 1074.23 2486
1782.82 1074.23 2486
1788.77 1074.23 2486
1794.71 1074.23 2486
1795.58 1071.2 2479
1814.59 1078.98 2497
1834.42 1087.19 2516
1860.18 1098.86 2543
1866.27 1098.86 2543
1881.18 1104.05 2555
1887.29 1104.05 2555
1902.29 1109.23 2567
1908.43 1109.23 2567
1914.57 1109.23 2567
1920.71 1109.23 2567
1932.1 1112.26 2574
1938.26 1112.26 2574
1944.41 1112.26 2574
1950.57 1112.26 2574
1959.76 1113.98 2578
1965.93 1113.98 2578
1972.09 1113.98 2578
-1730.15 1083.66 2494
-1724.19 1083.66 2494
-1718.22 1083.66 2494
-1709.51 1081.92 2490
-1703.56 1081.92 2490
-1694.88 1080.18 2486
-1681.46 1075.41 2475
-1670.8 1072.36 2468
-1664.9 1072.36 2468
-1659 1072.36 2468
-1650.42 1070.63 2464
-1637.7 1131.02 2603
-1631.48 1131.02 2603
-1625.25 1131.02 2603
-1619.03 1131.02 2603
-1610.33 1129.28 2599
-1604.11 1129.28 2599
-1589.9 1123.64 2586
-1583.72 1123.64 2586
-1577.53 1123.64 2586
-1571.35 1123.64 2586
-1565.17 1123.64 2586
-1551.75 1118.42 2574
-1545.59 1118.42 2574
-1549.01 1125.37 2590
-1542.81 1125.37 2590
-1536.62 1125.37 2590
-1516.84 1115.38 2567
-1510.7 1115.38 2567
-1504.56 1115.38 2567
-1496.09 1113.64 2563
-1480.66 1106.69 2547
-1474.57 1106.69 2547
-1450.6 1093.22 2516
-1232.05 1091.48 2512
-1226.04 1091.48 2512
-1220.03 1091.48 2512
-1203.39 1081.92 2490
-1197.44 1081.92 2490
-1189.57 1080.18 2486
-1178.39 1075.41 2475
-1172.47 1075.41 2475
-1166.55 1075.41 2475
-1147.03 1062.8 2446
-1134.65 1056.72 2432
-1123.73 1051.94 2421
-1117.94 1051.94 2421
-1110.77 1050.64 2418
-1103.16 1048.9 2414
-1094.21 1045.86 2407
-1088.45 1045.86 2407
-1082.7 1045.86 2407
-1080.07 1048.9 2414
-1079.2 1053.68 2425
-1082.69 1062.8 2446
-1076.84 1062.8 2446
-1070.99 1062.8 2446
-1062.1 1059.76 2439
-1056.26 1059.76 2439
-1047.42 1056.72 2432
-1041.6 1056.72 2432
-1028.12 1048.9 2414
-1022.35 1048.9 2414
-1016.57 1048.9 2414
-1003.68 1041.51 2397
-997.951 1041.51 2397
-990.563 1039.78 2393
-984.841 1039.78 2393
-975.027 1035.43 2383
-964.041 1029.78 2370
-960.799 1032.39 2376
-957.932 1035.43 2383
-952.233 1035.43 2383
-946.535 1035.43 2383
-944.784 1039.78 2393
-939.062 1039.78 2393
-933.34 1039.78 2393
-925.291 1037.17 2387
-919.583 1037.17 2387
-923.064 1047.6 2411
-917.298 1047.6 2411
-919.472 1056.72 2432
-914.784 1058.02 2435
-917.173 1067.58 2457
-911.298 1067.58 2457
-910.582 1073.67 2471
-909.066 1078.88 2483
-907.129 1083.66 2494
-901.166 1083.66 2494
-899.15 1088.44 2505
-894.586 1090.18 2509
-888.586 1090.18 2509
-882.586 1090.18 2509
-873.792 1086.7 2501
-867.811 1086.7 2501
-863.209 1088.44 2505
-857.219 1088.44 2505
-853.607 1091.48 2512
-847.6 1091.48 2512
-841.593 1091.48 2512
-830.597 1084.96 2497
-824.625 1084.96 2497
-817.671 1083.66 2494
-811.707 1083.66 2494
-805.743 1083.66 2494
-796.252 1078.88 2483
-790.314 1078.88 2483
-785.324 1080.18 2486
-779.379 1080.18 2486
-773.435 1080.18 2486
-767.49 1080.18 2486
-761.545 1080.18 2486
-755.6 1080.18 2486
-749.655 1080.18 2486
-746.104 1083.66 2494
-740.14 1083.66 2494
-735.059 1084.96 2497
-729.088 1084.96 2497
-723.117 1084.96 2497
-717.146 1084.96 2497
-711.175 1084.96 2497
-704.357 1083.66 2494
-698.393 1083.66 2494
-692.429 1083.66 2494
-686.465 1083.66 2494
-680.501 1083.66 2494
-677.512 1088.44 2505
-671.522 1088.44 2505
-665.532 1088.44 2505
-657.435 1084.96 2497
-651.464 1084.96 2497
-643.683 1081.92 2490
-637.729 1081.92 2490
-630.76 1080.18 2486
-624.061 1078.88 2483
-615.136 1073.67 2471
-609.227 1073.67 2471
-603.318 1073.67 2471
-598.376 1075.41 2475
-594.373 1078.88 2483
-588.435 1078.88 2483
-582.498 1078.88 2483
-576.56 1078.88 2483
-573.84 1084.96 2497
-567.869 1084.96 2497
-561.898 1084.96 2497
-555.927 1084.96 2497
-547.533 1080.18 2486
-543.985 1084.96 2497
-538.013 1084.96 2497
-532.895 1086.7 2501
-529.232 1091.48 2512
-523.225 1091.48 2512
-517.218 1091.48 2512
-511.211 1091.48 2512
-505.204 1091.48 2512
-499.197 1091.48 2512
-491.815 1088.44 2505
-485.825 1088.44 2505
-479.069 1086.7 2501
-473.088 1086.7 2501
-467.108 1086.7 2501
-457.808 1078.88 2483
-449.687 1073.67 2471
-443.778 1073.67 2471
-438.578 1075.41 2475
-432.659 1075.41 2475
-428.12 1078.88 2483
-422.182 1078.88 2483
-416.245 1078.88 2483
-410.307 1078.88 2483
-404.37 1078.88 2483
-396.506 1073.67 2471
-390.598 1073.67 2471
-383.599 1070.63 2464
-378.32 1072.36 2468
-374.682 1078.88 2483
-370.378 1083.66 2494
-364.414 1083.66 2494
-359.456 1086.7 2501
-354.041 1088.44 2505
-348.05 1088.44 2505
-342.06 1088.44 2505
-336.07 1088.44 2505
-331.529 1093.22 2516
-325.513 1093.22 2516
-319.496 1093.22 2516
-313.48 1093.22 2516
-307.463 1093.22 2516
-301.447 1093.22 2516
-294.608 1090.18 2509
-286.423 1081.92 2490
-282.158 1088.44 2505
-277.38 1093.22 2516
-271.364 1093.22 2516
-265.347 1093.22 2516
-259.331 1093.22 2516
-253.314 1093.22 2516
-247.298 1093.22 2516
-240.898 1091.48 2512
-233.862 1086.7 2501
-227.882 1086.7 2501
-221.901 1086.7 2501
-215.575 1084.96 2497
-209.604 1084.96 2497
-203.062 1081.92 2490
-199.166 1093.22 2516
-193.149 1093.22 2516
-187.728 1096.7 2524
-181.692 1096.7 2524
-175.656 1096.7 2524
-169.621 1096.7 2524
-163.585 1096.7 2524
-157.549 1096.7 2524
-151.514 1096.7 2524
-145.248 1094.96 2520
-138.614 1090.18 2509
-131.24 1078.88 2483
-125.302 1078.88 2483
-114.894 1038.47 2390
-107.169 1019.35 2346
-101.299 1016.75 2340
-94.3536 1002.41 2307
-88.8368 1002.41 2307
-82.995 998.497 2298
-76.6567 987.635 2273
-70.3439 975.469 2245
-64.715 971.558 2236
-59.368 971.558 2236
-53.9486 970.254 2233
-48.1081 960.261 2210
-42.8234 960.261 2210
-37.5386 960.261 2210
-32.1662 957.654 2204
-26.8592 956.35 2201
-21.5371 953.743 2195
-16.2882 953.743 2195
-11.0392 953.743 2195
-5.78242 952.44 2192
-0.539202 949.833 2186
4.68819 949.833 2186
9.91558 949.833 2186
15.143 949.833 2186
20.4263 952.44 2192
25.668 952.44 2192
30.9097 952.44 2192
36.1515 952.44 2192
41.3932 952.44 2192
46.8264 956.35 2201
52.0897 956.35 2201
57.3529 956.35 2201
62.6162 956.35 2201
67.972 957.654 2204
73.3421 958.957 2207
78.6197 958.957 2207
83.8973 958.957 2207
89.1749 958.957 2207
94.4525 958.957 2207
99.7301 958.957 2207
104.865 957.654 2204
109.836 955.047 2198
115.249 956.35 2201
120.512 956.35 2201
125.947 957.654 2204
131.574 960.261 2210
137.355 963.737 2218
142.658 963.737 2218
148.963 970.254 2233
154.925 974.165 2242
160.929 978.076 2251
166.312 978.076 2251
171.695 978.076 2251
177.078 978.076 2251
182.947 980.683 2257
188.344 980.683 2257
195.372 988.938 2276
202.491 997.194 2295
209.973 1006.75 2317
215.514 1006.75 2317
224.203 1021.09 2350
230.8 1025.44 2360
237.746 1031.09 2373
243.421 1031.09 2373
251.615 1041.51 2397
258.42 1045.86 2407
266.152 1053.68 2425
271.951 1053.68 2425
280.613 1064.54 2450
289.395 1075.41 2475
296.626 1080.18 2486
302.571 1080.18 2486
309.508 1083.66 2494
315.472 1083.66 2494
321.436 1083.66 2494
323.987 1072.36 2468
329.888 1072.36 2468
335.79 1072.36 2468
341.692 1072.36 2468
345.481 1065.85 2453
352.493 1069.32 2461
361.581 1078.88 2483
368.555 1081.92 2490
374.51 1081.92 2490
382.145 1086.7 2501
388.746 1088.44 2505
394.736 1088.44 2505
400.726 1088.44 2505
406.717 1088.44 2505
412.048 1086.7 2501
418.029 1086.7 2501
425.365 1090.18 2509
431.365 1090.18 2509
439.283 1094.96 2520
447.429 1100.17 2532
454.021 1101.48 2535
460.083 1101.48 2535
466.145 1101.48 2535
472.207 1101.48 2535
478.269 1101.48 2535
482.994 1098.43 2528
485.363 1090.18 2509
489.013 1084.96 2497
494.984 1084.96 2497
498.748 1080.18 2486
504.693 1080.18 2486
508.378 1075.41 2475
514.297 1075.41 2475
517.903 1070.63 2464
523.795 1070.63 2464
529.043 1069.32 2461
532.537 1064.54 2450
538.395 1064.54 2450
540.255 1056.72 2432
542.928 1050.64 2418
548.71 1050.64 2418
554.492 1050.64 2418
557.725 1045.86 2407
563.481 1045.86 2407
567.582 1042.82 2400
575.948 1047.6 2411
581.714 1047.6 2411
591.622 1054.98 2428
600.134 1059.76 2439
611.433 1069.32 2461
617.318 1069.32 2461
628.774 1078.88 2483
634.711 1078.88 2483
642.455 1081.92 2490
648.409 1081.92 2490
660.145 1091.48 2512
672.252 1101.48 2535
684.735 1111.9 2559
690.855 1111.9 2559
700.242 1117.12 2571
706.39 1117.12 2571
712.539 1117.12 2571
719.525 1118.42 2574
725.68 1118.42 2574
734.11 1121.9 2582
743.725 1127.11 2594
749.928 1127.11 2594
756.131 1127.11 2594
762.334 1127.11 2594
768.537 1127.11 2594
774.74 1127.11 2594
779.739 1125.37 2590
784.719 1123.64 2586
783.868 1113.64 2563
789.997 1113.64 2563
793.641 1110.17 2555
797.247 1106.69 2547
798.606 1100.17 2532
804.661 1100.17 2532
808.154 1096.7 2524
810.319 1091.48 2512
814.051 1088.44 2505
820.041 1088.44 2505
823.394 1084.96 2497
827.04 1081.92 2490
830.652 1078.88 2483
835.242 1077.14 2479
841.17 1077.14 2479
847.098 1077.14 2479
853.026 1077.14 2479
856.182 1073.67 2471
867.325 1080.18 2486
873.269 1080.18 2486
879.214 1080.18 2486
885.159 1080.18 2486
891.104 1080.18 2486
895.966 1078.88 2483
902.993 1080.18 2486
911.863 1083.66 2494
921.875 1088.44 2505
927.865 1088.44 2505
936.465 1091.48 2512
943.973 1093.22 2516
949.989 1093.22 2516
956.006 1093.22 2516
962.022 1093.22 2516
966.5 1091.48 2512
974.055 1093.22 2516
984.746 1098.43 2528
990.792 1098.43 2528
999.597 1101.48 2535
1007.25 1103.21 2539
1013.32 1103.21 2539
1019.39 1103.21 2539
1025.46 1103.21 2539
1029.91 1101.48 2535
1035.97 1101.48 2535
1042.03 1101.48 2535
1048.09 1101.48 2535
1051.24 1098.43 2528
1063.56 1104.95 2543
1069.64 1104.95 2543
1075.72 1104.95 2543
1081.81 1104.95 2543
1087.89 1104.95 2543
1090.53 1101.48 2535
1156.39 1094.96 2520
1162.41 1094.96 2520
1168.44 1094.96 2520
1213.15 1131.02 2603
1219.37 1131.02 2603
1225.6 1131.02 2603
1235.61 1134.5 2611
1241.85 1134.5 2611
1248.09 1134.5 2611
1214.46 1098.43 2528
1214.72 1093.22 2516
1215.4 1088.44 2505
1223.34 1090.18 2509
1229.34 1090.18 2509
1235.34 1090.18 2509
1246.78 1094.96 2520
1256.78 1098.43 2528
1262.83 1098.43 2528
1268.87 1098.43 2528
1274.92 1098.43 2528
1280.96 1098.43 2528
1287.01 1098.43 2528
1288.96 1094.96 2520
1294.99 1094.96 2520
1296.88 1091.48 2512
1302.89 1091.48 2512
1307.33 1090.18 2509
1313.33 1090.18 2509
1319.33 1090.18 2509
1331.14 1094.96 2520
1337.17 1094.96 2520
1343.2 1094.96 2520
1347.08 1093.22 2516
1353.1 1093.22 2516
1359.11 1093.22 2516
1365.13 1093.22 2516
1373.33 1094.96 2520
1381.54 1096.7 2524
1387.58 1096.7 2524
1393.61 1096.7 2524
1397.43 1094.96 2520
1401.23 1093.22 2516
1407.24 1093.22 2516
1413.26 1093.22 2516
1417.02 1091.48 2512
1423.03 1091.48 2512
1429.04 1091.48 2512
1433.33 1090.18 2509
1434.74 1086.7 2501
1436.69 1083.66 2494
1440.34 1081.92 2490
1446.29 1081.92 2490
1452.25 1081.92 2490
1464.64 1086.7 2501
1475.33 1090.18 2509
1490.18 1096.7 2524
1496.22 1096.7 2524
1507.02 1100.17 2532
1513.07 1100.17 2532
1519.13 1100.17 2532
1525.18 1100.17 2532
1514.91 1088.44 2505
1520.9 1088.44 2505
1540.91 1098.43 2528
1546.95 1098.43 2528
1553 1098.43 2528
1568.29 1104.95 2543
1574.37 1104.95 2543
1582.94 1106.69 2547
1589.03 1106.69 2547
1597.63 1108.43 2551
1603.73 1108.43 2551
1609.83 1108.43 2551
1613.39 1106.69 2547
1611.85 1101.48 2535
1613.45 1098.43 2528
1619.49 1098.43 2528
1617.82 1093.22 2516
1621.26 1091.48 2512
1622.73 1088.44 2505
1628.72 1088.44 2505
1629.49 1084.96 2497
1628.26 1080.18 2486
1634.2 1080.18 2486
1640.15 1080.18 2486
1646.09 1080.18 2486
1637.42 1070.63 2464
1631.3 1062.8 2446
1579.59 1025.44 2360
1585.23 1025.44 2360
1572.68 1013.71 2333
1571.49 1009.36 2323
1575.01 1008.06 2320
1580.56 1008.06 2320
1597.73 1015.44 2337
1603.32 1015.44 2337
1617.85 1021.09 2350
1627.62 1023.7 2356
1649.89 1034.13 2380
1655.58 1034.13 2380
1675.23 1042.82 2400
1690.78 1048.9 2414
1721.85 1064.54 2450
1727.71 1064.54 2450
1733.57 1064.54 2450
1739.43 1064.54 2450
1770.93 1080.18 2486
1776.88 1080.18 2486
1782.82 1080.18 2486
1788.77 1080.18 2486
1794.71 1080.18 2486
1795.58 1077.14 2479
1814.59 1084.96 2497
1823.48 1086.7 2501
1840.43 1093.22 2516
1846.45 1093.22 2516
1869.4 1103.21 2539
1878.43 1104.95 2543
1887.47 1106.69 2547
1893.56 1106.69 2547
1899.65 1106.69 2547
1914.72 1111.9 2559
1926.85 1115.38 2567
1932.99 1115.38 2567
1939.12 1115.38 2567
1945.26 1115.38 2567
1951.4 1115.38 2567
1957.54 1115.38 2567
1954.5 1110.17 2555
-1696.47 1079.59 2471
-1690.56 1079.59 2471
-1684.65 1079.59 2471
-1673.98 1076.53 2464
-1663.35 1073.47 2457
-1657.48 1073.47 2457
-1651.6 1073.47 2457
-1625.84 1133.33 2594
-1619.63 1133.33 2594
-1613.43 1133.33 2594
-1597.31 1126.33 2578
-1591.15 1126.33 2578
-1578.22 1121.53 2567
-1572.08 1121.53 2567
-1565.94 1121.53 2567
-1559.81 1121.53 2567
-1553.67 1121.53 2567
-1545.12 1119.78 2563
-1534.18 1116.29 2555
-1528.08 1116.29 2555
-1521.97 1116.29 2555
-1515.86 1116.29 2555
-1500.29 1109.3 2539
-1494.22 1109.3 2539
-1488.15 1109.3 2539
-1479.74 1107.55 2535
-1462.63 1099.25 2516
-1456.62 1099.25 2516
-1437.92 1089.64 2494
-1245.94 1104.49 2528
-1239.89 1104.49 2528
-1233.85 1104.49 2528
-1221.97 1099.25 2516
-1214.02 1097.5 2512
-1208.02 1097.5 2512
-1200.57 1096.19 2509
-1183.62 1086.14 2486
-1172.47 1081.33 2475
-1166.55 1081.33 2475
-1150.31 1071.72 2453
-1139.78 1067.35 2443
-1125.59 1059.49 2425
-1119.79 1059.49 2425
-1110.77 1056.43 2418
-1103.16 1054.68 2414
-1094.21 1051.62 2407
-1088.45 1051.62 2407
-1082.7 1051.62 2407
-1080.07 1054.68 2414
-1076.08 1056.43 2418
-1073.4 1059.49 2425
-1067.6 1059.49 2425
-1061.8 1059.49 2425
-1052.95 1056.43 2418
-1047.17 1056.43 2418
-1038.37 1053.37 2411
-1032.61 1053.37 2411
-1023.86 1050.31 2404
-1015.15 1047.26 2397
-1009.42 1047.26 2397
-1000.75 1044.2 2390
-995.037 1044.2 2390
-985.182 1039.83 2380
-979.491 1039.83 2380
-969.708 1035.46 2370
-962.414 1033.71 2366
-954.329 1031.09 2360
-948.686 1031.09 2360
-941.444 1029.34 2356
-935.81 1029.34 2356
-931.756 1031.09 2360
-926.112 1031.09 2360
-920.469 1031.09 2360
-913.275 1029.34 2356
-907.641 1029.34 2356
-911.195 1039.83 2380
-905.504 1039.83 2380
-899.813 1039.83 2380
-900.508 1047.26 2397
-898.509 1051.62 2407
-892.753 1051.62 2407
-894.736 1060.8 2428
-890.394 1062.55 2432
-893.672 1073.47 2457
-887.796 1073.47 2457
-888.382 1081.33 2475
-882.463 1081.33 2475
-876.545 1081.33 2475
-870.626 1081.33 2475
-863.31 1079.59 2471
-857.401 1079.59 2471
-856.661 1086.14 2486
-850.717 1086.14 2486
-847.49 1089.64 2494
-841.526 1089.64 2494
-835.563 1089.64 2494
-826.938 1086.14 2486
-820.993 1086.14 2486
-811.442 1081.33 2475
-805.523 1081.33 2475
-799.605 1081.33 2475
-793.686 1081.33 2475
-787.768 1081.33 2475
-781.849 1081.33 2475
-774.677 1079.59 2471
-767.834 1078.28 2468
-760.698 1076.53 2464
-756.95 1079.59 2471
-752.257 1081.33 2475
-746.338 1081.33 2475
-742.813 1084.83 2483
-736.876 1084.83 2483
-732.999 1087.89 2490
-727.044 1087.89 2490
-722.248 1089.64 2494
-716.284 1089.64 2494
-710.32 1089.64 2494
-704.357 1089.64 2494
-698.393 1089.64 2494
-692.429 1089.64 2494
-686.465 1089.64 2494
-680.501 1089.64 2494
-675.348 1090.95 2497
-669.377 1090.95 2497
-663.406 1090.95 2497
-656.645 1089.64 2494
-649.638 1087.89 2490
-643.683 1087.89 2490
-637.729 1087.89 2490
-628.984 1083.08 2479
-621.045 1079.59 2471
-615.136 1079.59 2471
-609.227 1079.59 2471
-602.586 1078.28 2468
-597.409 1079.59 2471
-591.5 1079.59 2471
-586.54 1081.33 2475
-580.621 1081.33 2475
-574.703 1081.33 2475
-569.703 1083.08 2479
-563.775 1083.08 2479
-557.847 1083.08 2479
-551.919 1083.08 2479
-545.11 1081.33 2475
-539.192 1081.33 2475
-533.273 1081.33 2475
-529.059 1084.83 2483
-524.596 1087.89 2490
-518.642 1087.89 2490
-512.688 1087.89 2490
-506.733 1087.89 2490
-499.371 1084.83 2483
-491.844 1081.33 2475
-485.925 1081.33 2475
-480.007 1081.33 2475
-474.089 1081.33 2475
-468.17 1081.33 2475
-462.252 1081.33 2475
-455.042 1078.28 2468
-447.867 1075.22 2461
-443.239 1078.28 2468
-437.337 1078.28 2468
-431.435 1078.28 2468
-425.534 1078.28 2468
-420.822 1081.33 2475
-414.904 1081.33 2475
-408.985 1081.33 2475
-402.415 1079.59 2471
-394.902 1075.22 2461
-389.017 1075.22 2461
-381.886 1071.72 2453
-376.021 1071.72 2453
-372.418 1078.28 2468
-368.15 1083.08 2479
-362.222 1083.08 2479
-356.869 1084.83 2483
-350.931 1084.83 2483
-345.41 1086.14 2486
-339.466 1086.14 2486
-333.521 1086.14 2486
-327.576 1086.14 2486
-321.631 1086.14 2486
-314.29 1081.33 2475
-307.499 1078.28 2468
-301.597 1078.28 2468
-295.216 1076.53 2464
-289.324 1076.53 2464
-283.432 1076.53 2464
-277.54 1076.53 2464
-272.419 1079.59 2471
-268.128 1086.14 2486
-262.184 1086.14 2486
-256.239 1086.14 2486
-250.294 1086.14 2486
-244.349 1086.14 2486
-238.404 1086.14 2486
-231.805 1083.08 2479
-224.51 1076.53 2464
-218.618 1076.53 2464
-212.726 1076.53 2464
-206.834 1076.53 2464
-200.371 1073.47 2457
-196.791 1086.14 2486
-190.846 1086.14 2486
-186.315 1094.44 2505
-180.324 1094.44 2505
-174.334 1094.44 2505
-168.344 1094.44 2505
-162.354 1094.44 2505
-156.114 1092.69 2501
-150.133 1092.69 2501
-143.749 1089.64 2494
-137.177 1084.83 2483
-128.174 1059.49 2425
-119.903 1038.08 2376
-114.221 1038.08 2376
-106.575 1019.29 2333
-100.303 1012.3 2317
-93.9855 1004 2298
-88.4903 1004 2298
-82.0921 993.08 2273
-76.3532 989.148 2264
-70.2499 979.536 2242
-64.4545 972.982 2227
-59.1291 972.982 2227
-53.5862 969.05 2218
-48.1081 965.555 2210
-42.8234 965.555 2210
-37.5386 965.555 2210
-32.1662 962.933 2204
-26.8226 960.312 2198
-21.5371 959.001 2195
-16.2882 959.001 2195
-11.0392 959.001 2195
-5.78242 957.691 2192
-0.538709 954.195 2184
4.6839 954.195 2184
9.9065 954.195 2184
15.143 955.069 2186
20.3704 955.069 2186
25.5977 955.069 2186
30.8251 955.069 2186
36.0195 954.195 2184
41.2799 955.069 2186
46.6349 957.691 2192
51.8767 957.691 2192
57.1184 957.691 2192
62.3602 957.691 2192
67.7869 960.312 2198
73.2424 962.933 2204
78.5128 962.933 2204
83.7833 962.933 2204
89.0537 962.933 2204
94.3241 962.933 2204
99.459 961.623 2201
104.58 960.312 2198
109.536 957.691 2192
114.778 957.691 2192
120.019 957.691 2192
125.775 961.623 2201
131.217 962.933 2204
136.859 965.555 2210
142.144 965.555 2210
147.962 969.05 2218
154.303 975.604 2233
160.286 979.536 2242
165.647 979.536 2242
171.009 979.536 2242
176.37 979.536 2242
182.461 983.468 2251
187.844 983.468 2251
195.115 993.08 2273
202.227 1001.38 2292
209.973 1012.3 2317
215.514 1012.3 2317
222.581 1019.29 2333
229.822 1026.72 2350
236.444 1031.09 2360
242.087 1031.09 2360
249.095 1036.77 2373
257.347 1047.26 2397
264.176 1051.62 2407
269.932 1051.62 2407
276.948 1056.43 2418
282.73 1056.43 2418
291.018 1065.61 2439
296.85 1065.61 2439
306.282 1078.28 2468
312.183 1078.28 2468
318.085 1078.28 2468
323.987 1078.28 2468
329.888 1078.28 2468
335.79 1078.28 2468
341.692 1078.28 2468
345.481 1071.72 2453
352.493 1075.22 2461
361.581 1084.83 2483
368.555 1087.89 2490
374.51 1087.89 2490
382.145 1092.69 2501
388.746 1094.44 2505
394.736 1094.44 2505
400.726 1094.44 2505
406.717 1094.44 2505
412.048 1092.69 2501
418.029 1092.69 2501
425.365 1096.19 2509
431.365 1096.19 2509
439.283 1100.99 2520
447.429 1106.24 2532
454.021 1107.55 2535
460.083 1107.55 2535
466.145 1107.55 2535
472.207 1107.55 2535
478.269 1107.55 2535
482.994 1104.49 2528
485.363 1096.19 2509
489.013 1090.95 2497
494.984 1090.95 2497
498.748 1086.14 2486
504.693 1086.14 2486
508.378 1081.33 2475
514.297 1081.33 2475
517.903 1076.53 2464
523.795 1076.53 2464
529.043 1075.22 2461
532.537 1070.41 2450
538.395 1070.41 2450
540.255 1062.55 2432
542.928 1056.43 2418
548.71 1056.43 2418
554.492 1056.43 2418
557.725 1051.62 2407
563.481 1051.62 2407
567.582 1048.57 2400
575.948 1053.37 2411
581.714 1053.37 2411
591.622 1060.8 2428
600.134 1065.61 2439
611.433 1075.22 2461
617.318 1075.22 2461
628.774 1084.83 2483
634.711 1084.83 2483
642.455 1087.89 2490
648.409 1087.89 2490
660.145 1097.5 2512
672.252 1107.55 2535
684.735 1118.03 2559
690.855 1118.03 2559
700.242 1123.28 2571
706.39 1123.28 2571
712.539 1123.28 2571
719.525 1124.59 2574
725.68 1124.59 2574
734.11 1128.08 2582
743.725 1133.33 2594
749.928 1133.33 2594
756.131 1133.33 2594
762.334 1133.33 2594
768.537 1133.33 2594
774.74 1133.33 2594
779.739 1131.58 2590
784.719 1129.83 2586
783.868 1119.78 2563
789.997 1119.78 2563
793.641 1116.29 2555
797.247 1112.79 2547
798.606 1106.24 2532
804.661 1106.24 2532
808.154 1102.74 2524
810.319 1097.5 2512
814.051 1094.44 2505
820.041 1094.44 2505
823.394 1090.95 2497
827.04 1087.89 2490
830.652 1084.83 2483
835.242 1083.08 2479
841.17 1083.08 2479
847.098 1083.08 2479
853.026 1083.08 2479
856.182 1079.59 2471
867.325 1086.14 2486
873.269 1086.14 2486
879.214 1086.14 2486
885.159 1086.14 2486
891.104 1086.14 2486
895.966 1084.83 2483
902.993 1086.14 2486
911.863 1089.64 2494
921.875 1094.44 2505
927.865 1094.44 2505
936.465 1097.5 2512
943.973 1099.25 2516
949.989 1099.25 2516
956.006 1099.25 2516
962.022 1099.25 2516
966.5 1097.5 2512
974.055 1099.25 2516
980.072 1099.25 2516
986.088 1099.25 2516
998.414 1106.24 2532
1005.66 1107.55 2535
1011.72 1107.55 2535
1017.78 1107.55 2535
1023.84 1107.55 2535
1029.91 1107.55 2535
1035.97 1107.55 2535
1040.8 1106.24 2532
1045.2 1104.49 2528
1051.24 1104.49 2528
1058.96 1106.24 2532
1065.02 1106.24 2532
1072.34 1107.55 2535
1078.4 1107.55 2535
1084.46 1107.55 2535
1090.53 1107.55 2535
1090.1 1100.99 2520
1138.49 1089.64 2494
1156.39 1100.99 2520
1162.41 1100.99 2520
1168.44 1100.99 2520
1174.46 1100.99 2520
1180.49 1100.99 2520
1181.34 1096.19 2509
1187.34 1096.19 2509
1193.34 1096.19 2509
1199.34 1096.19 2509
1203.42 1094.44 2505
1207.47 1092.69 2501
1213.45 1092.69 2501
1221.39 1094.44 2505
1229.34 1096.19 2509
1235.34 1096.19 2509
1241.34 1096.19 2509
1254.79 1102.74 2524
1262.83 1104.49 2528
1268.87 1104.49 2528
1274.92 1104.49 2528
1276.91 1100.99 2520
1282.93 1100.99 2520
1288.96 1100.99 2520
1289.33 1096.19 2509
1293.27 1094.44 2505
1299.26 1094.44 2505
1301.08 1090.95 2497
1307.05 1090.95 2497
1317.23 1094.44 2505
1325.33 1096.19 2509
1331.33 1096.19 2509
1337.33 1096.19 2509
1344.94 1097.5 2512
1350.94 1097.5 2512
1356.95 1097.5 2512
1362.96 1097.5 2512
1368.97 1097.5 2512
1379.35 1100.99 2520
1385.38 1100.99 2520
1391.4 1100.99 2520
1395.21 1099.25 2516
1399 1097.5 2512
1405.01 1097.5 2512
1409.33 1096.19 2509
1415.33 1096.19 2509
1421.33 1096.19 2509
1427.33 1096.19 2509
1433.33 1096.19 2509
1434.74 1092.69 2501
1438.42 1090.95 2497
1440.34 1087.89 2490
1450.36 1090.95 2497
1456.33 1090.95 2497
1462.3 1090.95 2497
1468.27 1090.95 2497
1485.46 1099.25 2516
1491.48 1099.25 2516
1502.25 1102.74 2524
1508.29 1102.74 2524
1514.33 1102.74 2524
1520.36 1102.74 2524
1510.07 1090.95 2497
1514.22 1089.64 2494
1524.45 1092.69 2501
1530.43 1092.69 2501
1536.41 1092.69 2501
1559.04 1104.49 2528
1567.56 1106.24 2532
1575.48 1107.55 2535
1581.54 1107.55 2535
1590.11 1109.3 2539
1596.18 1109.3 2539
1602.25 1109.3 2539
1605.79 1107.55 2535
1607.4 1104.49 2528
1605.79 1099.25 2516
1611.81 1099.25 2516
1615.25 1097.5 2512
1619.32 1096.19 2509
1617.55 1090.95 2497
1623.52 1090.95 2497
1617.74 1083.08 2479
1623.67 1083.08 2479
1629.6 1083.08 2479
1635.53 1083.08 2479
1641.46 1083.08 2479
1637.42 1076.53 2464
1631.3 1068.66 2446
1594.99 1041.14 2383
