-1327.11 1076.54 2167
-1323.15 1077.54 2169
-1317.97 1077.54 2169
-1312.78 1077.54 2169
-1307.59 1077.54 2169
-1301.2 1076.54 2167
-1296.02 1076.54 2167
-1290.84 1076.54 2167
-1278.54 1070.58 2155
-1273.39 1070.58 2155
-1271.76 1073.56 2161
-1271.29 1077.54 2169
-1266.1 1077.54 2169
-1264.4 1080.52 2175
-1259.2 1080.52 2175
-1257.46 1083.5 2181
-1252.24 1083.5 2181
-1253.32 1088.96 2192
-1253.2 1093.44 2201
-1247.94 1093.44 2201
-1242.67 1093.44 2201
-1237.41 1093.44 2201
-1225.43 1087.47 2189
-1220.19 1087.47 2189
-1214.96 1087.47 2189
-1216.36 1093.44 2201
-1212.74 1094.93 2204
-1207.47 1094.93 2204
-1202.2 1094.93 2204
-1209.42 1106.35 2227
-1207.34 1109.33 2233
-1202 1109.33 2233
-1196.66 1109.33 2233
-1188.12 1106.35 2227
-1182.8 1106.35 2227
-1177.47 1106.35 2227
-1161.62 1096.42 2207
-1156.34 1096.42 2207
-1152.63 1097.91 2210
-1151.5 1101.88 2218
-1157.04 1112.31 2239
-1159.41 1119.77 2254
-1163.74 1129.2 2273
-1171.05 1141.62 2298
-1165.55 1141.62 2298
-1163.09 1144.6 2304
-1157.58 1144.6 2304
-1152.07 1144.6 2304
-1146.56 1144.6 2304
-1136.59 1140.13 2295
-1123.22 1132.19 2279
-1110.41 1124.73 2264
-1105 1124.73 2264
-1087.44 1112.31 2239
-1086.44 1116.78 2248
-1085.39 1121.26 2257
-1081.9 1123.24 2261
-1076.5 1123.24 2261
-1072.51 1124.73 2264
-1069.93 1127.71 2270
-1064.5 1127.71 2270
-1059.07 1127.71 2270
-1049.46 1123.24 2261
-1042.21 1121.26 2257
-1040.03 1124.73 2264
-1034.62 1124.73 2264
-1029.2 1124.73 2264
-1023.79 1124.73 2264
-1018.37 1124.73 2264
-1008.49 1119.77 2254
-997.755 1113.8 2242
-991.066 1112.31 2239
-985.712 1112.31 2239
-980.358 1112.31 2239
-972.391 1109.33 2233
-965.752 1107.84 2230
-960.419 1107.84 2230
-953.802 1106.35 2227
-944.643 1101.88 2218
-938.069 1100.39 2215
-932.772 1100.39 2215
-925.382 1097.91 2210
-918.848 1096.42 2207
-912.328 1094.93 2204
-908.293 1096.42 2207
-903.015 1096.42 2207
-897.737 1096.42 2207
-892.46 1096.42 2207
-887.182 1096.42 2207
-880.706 1094.93 2204
-874.244 1093.44 2201
-868.98 1093.44 2201
-862.54 1091.95 2198
-857.284 1091.95 2198
-852.028 1091.95 2198
-847.927 1093.44 2201
-844.961 1096.42 2207
-840.825 1097.91 2210
-835.54 1097.91 2210
-830.256 1097.91 2210
-826.837 1100.39 2215
-822.653 1101.88 2218
-817.349 1101.88 2218
-813.144 1103.37 2221
-814.38 1112.31 2239
-810.11 1113.8 2242
-804.748 1113.8 2242
-799.387 1113.8 2242
-795.088 1115.29 2245
-789.72 1115.29 2245
-784.351 1115.29 2245
-778.983 1115.29 2245
-773.614 1115.29 2245
-768.246 1115.29 2245
-761.858 1113.8 2242
-759.533 1118.28 2251
-754.151 1118.28 2251
-748.768 1118.28 2251
-743.385 1118.28 2251
-735.051 1113.8 2242
-729.69 1113.8 2242
-724.329 1113.8 2242
-718.005 1112.31 2239
-712.651 1112.31 2239
-704.454 1107.84 2230
-699.121 1107.84 2230
-690.055 1101.88 2218
-684.752 1101.88 2218
-676.997 1097.91 2210
-671.712 1097.91 2210
-664.618 1094.93 2204
-659.348 1094.93 2204
-655.858 1097.91 2210
-650.573 1097.91 2210
-645.288 1097.91 2210
-640.003 1097.91 2210
-634.719 1097.91 2210
-632.567 1103.37 2221
-628.103 1104.86 2224
-622.785 1104.86 2224
-621.631 1112.31 2239
-616.277 1112.31 2239
-610.923 1112.31 2239
-605.569 1112.31 2239
-604.236 1119.77 2254
-599.643 1121.26 2257
-595.299 1123.24 2261
-589.892 1123.24 2261
-584.485 1123.24 2261
-579.078 1123.24 2261
-573.672 1123.24 2261
-568.265 1123.24 2261
-562.858 1123.24 2261
-557.452 1123.24 2261
-552.045 1123.24 2261
-544.946 1119.77 2254
-538.838 1118.28 2251
-534.166 1119.77 2254
-530.418 1123.24 2261
-525.011 1123.24 2261
-519.604 1123.24 2261
-514.198 1123.24 2261
-508.791 1123.24 2261
-503.384 1123.24 2261
-495.775 1118.28 2251
-490.392 1118.28 2251
-485.009 1118.28 2251
-479.626 1118.28 2251
-473.612 1116.78 2248
-468.236 1116.78 2248
-464.713 1121.26 2257
-459.316 1121.26 2257
-453.919 1121.26 2257
-449.317 1123.24 2261
-443.91 1123.24 2261
-438.503 1123.24 2261
-433.097 1123.24 2261
-428.257 1124.73 2264
-423.404 1126.22 2267
-417.983 1126.22 2267
-412.562 1126.22 2267
-407.141 1126.22 2267
-401.188 1124.73 2264
-395.774 1124.73 2264
-390.36 1124.73 2264
-385.456 1126.22 2267
-380.035 1126.22 2267
-375.605 1129.2 2273
-370.17 1129.2 2273
-364.735 1129.2 2273
-359.299 1129.2 2273
-353.864 1129.2 2273
-346.589 1123.24 2261
-340.578 1121.26 2257
-334.736 1119.77 2254
-329.346 1119.77 2254
-323.956 1119.77 2254
-318.99 1121.26 2257
-313.593 1121.26 2257
-308.195 1121.26 2257
-302.798 1121.26 2257
-297.401 1121.26 2257
-291.616 1119.77 2254
-286.607 1121.26 2257
-281.21 1121.26 2257
-275.812 1121.26 2257
-270.895 1123.24 2261
-265.488 1123.24 2261
-260.081 1123.24 2261
-254.224 1121.26 2257
-248.827 1121.26 2257
-244.508 1126.22 2267
-239.087 1126.22 2267
-233.666 1126.22 2267
-228.849 1129.2 2273
-223.708 1130.69 2276
-218.266 1130.69 2276
-212.823 1130.69 2276
-207.654 1132.19 2279
-202.204 1132.19 2279
-196.754 1132.19 2279
-191.053 1130.69 2276
-185.365 1129.2 2273
-179.455 1126.22 2267
-174.034 1126.22 2267
-167.869 1121.26 2257
-162.256 1119.77 2254
-156.866 1119.77 2254
-151.476 1119.77 2254
-145.697 1116.78 2248
-140.321 1116.78 2248
-134.586 1113.8 2242
-129.743 1118.28 2251
-124.36 1118.28 2251
-118.977 1118.28 2251
-113.595 1118.28 2251
-108.212 1118.28 2251
-101.733 1106.35 2227
-95.8876 1100.39 2215
-91.4497 1110.82 2236
-86.1028 1110.82 2236
-80.7558 1110.82 2236
-75.4089 1110.82 2236
-70.0619 1110.82 2236
-64.9755 1115.29 2245
-59.607 1115.29 2245
-54.2385 1115.29 2245
-48.87 1115.29 2245
-43.5016 1115.29 2245
-38.1331 1115.29 2245
-32.7208 1113.8 2242
178.165 1091.95 2198
183.421 1091.95 2198
188.934 1093.44 2201
194.462 1094.93 2204
201.817 1106.35 2227
207.422 1107.84 2230
213.04 1109.33 2233
219.554 1115.29 2245
224.922 1115.29 2245
230.291 1115.29 2245
235.659 1115.29 2245
240.706 1113.8 2242
246.067 1113.8 2242
251.428 1113.8 2242
256.789 1113.8 2242
262.151 1113.8 2242
267.87 1115.29 2245
273.969 1118.28 2251
279.352 1118.28 2251
285.114 1119.77 2254
290.891 1121.26 2257
296.288 1121.26 2257
301.685 1121.26 2257
307.082 1121.26 2257
312.479 1121.26 2257
317.876 1121.26 2257
323.274 1121.26 2257
328.671 1121.26 2257
334.66 1123.24 2261
340.067 1123.24 2261
345.473 1123.24 2261
351.346 1124.73 2264
357.232 1126.22 2267
363.133 1127.71 2270
368.562 1127.71 2270
374.484 1129.2 2273
380.421 1130.69 2276
386.372 1132.19 2279
391.822 1132.19 2279
397.272 1132.19 2279
402.191 1130.69 2276
407.097 1129.2 2273
413.077 1130.69 2276
418.519 1130.69 2276
424.521 1132.19 2279
431.102 1135.17 2285
438.477 1140.13 2295
443.965 1140.13 2295
449.453 1140.13 2295
454.941 1140.13 2295
460.429 1140.13 2295
465.917 1140.13 2295
471.405 1140.13 2295
476.27 1138.64 2292
483.012 1141.62 2298
488.507 1141.62 2298
494.002 1141.62 2298
499.498 1141.62 2298
504.993 1141.62 2298
510.488 1141.62 2298
515.983 1141.62 2298
521.479 1141.62 2298
526.974 1141.62 2298
532.469 1141.62 2298
537.262 1140.13 2295
542.75 1140.13 2295
548.238 1140.13 2295
553.726 1140.13 2295
557.508 1136.66 2288
561.503 1133.68 2282
565.47 1130.69 2276
571.665 1132.19 2279
577.115 1132.19 2279
584.098 1135.17 2285
589.562 1135.17 2285
595.026 1135.17 2285
600.49 1135.17 2285
605.955 1135.17 2285
611.419 1135.17 2285
616.883 1135.17 2285
621.53 1133.68 2282
625.338 1130.69 2276
630.781 1130.69 2276
636.224 1130.69 2276
641.666 1130.69 2276
647.109 1130.69 2276
651.691 1129.2 2273
657.127 1129.2 2273
662.562 1129.2 2273
667.997 1129.2 2273
675.211 1132.19 2279
680.66 1132.19 2279
686.11 1132.19 2279
691.56 1132.19 2279
697.01 1132.19 2279
701.535 1130.69 2276
706.977 1130.69 2276
710.542 1127.71 2270
715.97 1127.71 2270
723.305 1130.69 2276
728.748 1130.69 2276
734.19 1130.69 2276
739.633 1130.69 2276
746.058 1132.19 2279
751.507 1132.19 2279
756.957 1132.19 2279
762.407 1132.19 2279
765.835 1129.2 2273
771.271 1129.2 2273
777.731 1130.69 2276
783.174 1130.69 2276
788.616 1130.69 2276
795.106 1132.19 2279
802.663 1135.17 2285
808.127 1135.17 2285
813.591 1135.17 2285
820.131 1136.66 2288
827.046 1138.64 2292
832.526 1138.64 2292
839.104 1140.13 2295
846.8 1143.11 2301
852.303 1143.11 2301
857.805 1143.11 2301
864.433 1144.6 2304
869.943 1144.6 2304
875.452 1144.6 2304
880.962 1144.6 2304
886.471 1144.6 2304
893.142 1146.1 2307
898.659 1146.1 2307
904.176 1146.1 2307
907.327 1143.11 2301
916.796 1148.08 2311
924.717 1151.06 2317
930.258 1151.06 2317
935.798 1151.06 2317
941.339 1151.06 2317
945.654 1149.57 2314
951.187 1149.57 2314
955.48 1148.08 2311
961.006 1148.08 2311
969.042 1151.06 2317
974.583 1151.06 2317
980.123 1151.06 2317
985.664 1151.06 2317
991.205 1151.06 2317
996.745 1151.06 2317
996.662 1144.6 2304
1000.87 1143.11 2301
1006.37 1143.11 2301
1013.19 1144.6 2304
1018.7 1144.6 2304
1024.21 1144.6 2304
1029.72 1144.6 2304
1032.53 1141.62 2298
1038.03 1141.62 2298
1040.8 1138.64 2292
1041.72 1133.68 2282
1047.17 1133.68 2282
1054.01 1135.17 2285
1059.48 1135.17 2285
1064.94 1135.17 2285
1070.41 1135.17 2285
1075.87 1135.17 2285
1081.33 1135.17 2285
1070.63 1118.28 2251
1056.41 1097.91 2210
1060.25 1096.42 2207
1079.53 1110.82 2236
1084.88 1110.82 2236
1096.08 1116.78 2248
1102.92 1118.28 2251
1108.31 1118.28 2251
1113.69 1118.28 2251
1119.07 1118.28 2251
1139.94 1133.68 2282
1150.42 1138.64 2292
1155.9 1138.64 2292
1161.38 1138.64 2292
1166.86 1138.64 2292
1172.34 1138.64 2292
1169.6 1130.69 2276
1175.04 1130.69 2276
1177.37 1127.71 2270
1182.8 1127.71 2270
1185.09 1124.73 2264
1188.92 1123.24 2261
1192.22 1121.26 2257
1194.43 1118.28 2251
1199.81 1118.28 2251
1200.38 1113.8 2242
1205.74 1113.8 2242
1211.1 1113.8 2242
1216.46 1113.8 2242
1221.82 1113.8 2242
1222.26 1109.33 2233
1222.65 1104.86 2224
1227.97 1104.86 2224
1220.53 1093.44 2201
1224.13 1091.95 2198
1224.35 1087.47 2189
1232.95 1090.45 2195
1239.89 1091.95 2198
1245.15 1091.95 2198
1257.23 1097.91 2210
1262.52 1097.91 2210
1269.52 1099.4 2213
1274.81 1099.4 2213
1280.11 1099.4 2213
1290.05 1103.37 2221
1302.36 1109.33 2233
1307.7 1109.33 2233
1314.8 1110.82 2236
1320.15 1110.82 2236
1347.43 1129.2 2273
1352.86 1129.2 2273
1365.47 1135.17 2285
1380.53 1143.11 2301
1389.65 1146.1 2307
1395.17 1146.1 2307
1404.93 1149.57 2314
1410.47 1149.57 2314
1416 1149.57 2314
1417.23 1146.1 2307
1417.2 1141.62 2298
1418.98 1138.64 2292
1424.46 1138.64 2292
1429.94 1138.64 2292
1432.92 1136.66 2288
1438.39 1136.66 2288
1438.18 1132.19 2279
1443.63 1132.19 2279
1449.08 1132.19 2279
1456.44 1133.68 2282
1463.82 1135.17 2285
1469.29 1135.17 2285
1474.75 1135.17 2285
1478.27 1133.68 2282
1473.98 1126.22 2267
1479.4 1126.22 2267
1478.27 1121.26 2257
1481.69 1119.77 2254
1477.19 1112.31 2239
1482.54 1112.31 2239
1495.87 1118.28 2251
1501.25 1118.28 2251
1506.64 1118.28 2251
1507.99 1115.29 2245
1513.36 1115.29 2245
1514.67 1112.31 2239
1522.06 1113.8 2242
1535.59 1119.77 2254
1540.98 1119.77 2254
1546.37 1119.77 2254
1562.78 1127.71 2270
1576.5 1133.68 2282
1586.11 1136.66 2288
1591.58 1136.66 2288
1597.06 1136.66 2288
1602.53 1136.66 2288
1608 1136.66 2288
1611.35 1135.17 2285
1616.82 1135.17 2285
1620.15 1133.68 2282
1625.61 1133.68 2282
1633.21 1135.17 2285
1638.67 1135.17 2285
1653.49 1141.62 2298
1663.32 1144.6 2304
1671 1146.1 2307
1676.52 1146.1 2307
1682.04 1146.1 2307
1692.67 1149.57 2314
1700.41 1151.06 2317
1705.95 1151.06 2317
1711.49 1151.06 2317
1721.48 1154.04 2323
1727.03 1154.04 2323
1732.59 1154.04 2323
1729.16 1148.08 2311
1734.69 1148.08 2311
1720.64 1135.17 2285
1735.92 1141.62 2298
1741.42 1141.62 2298
1753.75 1146.1 2307
1764.61 1149.57 2314
1770.14 1149.57 2314
-1583.11 1062.27 2128
-1580.24 1063.77 2131
-1583.28 1069.26 2142
-1578.16 1069.26 2142
-1582.58 1075.75 2155
-1581.82 1078.74 2161
-1576.65 1078.74 2161
-1571.49 1078.74 2161
-1574.29 1084.23 2172
-1579.21 1091.22 2186
-1573.98 1091.22 2186
-1568.76 1091.22 2186
-1578.55 1101.7 2207
-1577.55 1104.7 2213
-1572.26 1104.7 2213
-1566.96 1104.7 2213
-1561.67 1104.7 2213
-1543.72 1095.71 2195
-1538.47 1095.71 2195
-1531.13 1094.22 2192
-1532.15 1098.71 2201
-1542.84 1110.19 2224
-1537.53 1110.19 2224
-1532.21 1110.19 2224
-1526.89 1110.19 2224
-1515.41 1105.7 2215
-1510.12 1105.7 2215
-1501.42 1103.2 2210
-1496.14 1103.2 2210
-1490.85 1103.2 2210
-1485.57 1103.2 2210
-1474.26 1098.71 2201
-1462.99 1094.22 2192
-1457.74 1094.22 2192
-1452.5 1094.22 2192
-1440 1088.72 2181
-1434.78 1088.72 2181
-1432.84 1091.22 2186
-1435.45 1097.21 2198
-1430.2 1097.21 2198
-1424.94 1097.21 2198
-1419.68 1097.21 2198
-1414.43 1097.21 2198
-1403.4 1092.72 2189
-1394.97 1090.22 2184
-1387.84 1088.72 2181
-1384.53 1090.22 2184
-1379.31 1090.22 2184
-1374.08 1090.22 2184
-1368.86 1090.22 2184
-1363.64 1090.22 2184
-1350.95 1084.23 2172
-1345.76 1084.23 2172
-1335.63 1080.24 2164
-1330.45 1080.24 2164
-1325.28 1080.24 2164
-1320.1 1080.24 2164
-1316.75 1081.74 2167
-1311.57 1081.74 2167
-1306.39 1081.74 2167
-1299.4 1080.24 2164
-1288.85 1075.75 2155
-1283.69 1075.75 2155
-1277.35 1074.75 2153
-1273.39 1075.75 2155
-1271.76 1078.74 2161
-1271.29 1082.73 2169
-1266.1 1082.73 2169
-1264.4 1085.73 2175
-1259.2 1085.73 2175
-1257.46 1088.72 2181
-1252.24 1088.72 2181
-1253.32 1094.22 2192
-1253.2 1098.71 2201
-1247.94 1098.71 2201
-1242.67 1098.71 2201
-1237.41 1098.71 2201
-1225.43 1092.72 2189
-1220.19 1092.72 2189
-1214.96 1092.72 2189
-1216.36 1098.71 2201
-1212.74 1100.21 2204
-1207.47 1100.21 2204
-1202.2 1100.21 2204
-1209.42 1111.69 2227
-1207.34 1114.68 2233
-1202 1114.68 2233
-1196.66 1114.68 2233
-1188.12 1111.69 2227
-1182.8 1111.69 2227
-1177.47 1111.69 2227
-1161.62 1101.7 2207
-1156.34 1101.7 2207
-1152.63 1103.2 2210
-1151.5 1107.19 2218
-1157.04 1117.68 2239
-1159.41 1125.16 2254
-1163.74 1134.65 2273
-1171.05 1147.13 2298
-1165.55 1147.13 2298
-1163.09 1150.12 2304
-1157.58 1150.12 2304
-1152.07 1150.12 2304
-1146.56 1150.12 2304
-1136.59 1145.63 2295
-1123.22 1137.64 2279
-1110.41 1130.16 2264
-1105 1130.16 2264
-1087.44 1117.68 2239
-1086.44 1122.17 2248
-1085.39 1126.66 2257
-1081.9 1128.66 2261
-1076.5 1128.66 2261
-1072.51 1130.16 2264
-1069.93 1133.15 2270
-1064.5 1133.15 2270
-1059.07 1133.15 2270
-1049.46 1128.66 2261
-1042.21 1126.66 2257
-1040.03 1130.16 2264
-1034.62 1130.16 2264
-1029.2 1130.16 2264
-1023.79 1130.16 2264
-1018.37 1130.16 2264
-1008.49 1125.16 2254
-997.755 1119.17 2242
-991.066 1117.68 2239
-985.712 1117.68 2239
-980.358 1117.68 2239
-972.391 1114.68 2233
-965.752 1113.18 2230
-960.419 1113.18 2230
-953.802 1111.69 2227
-944.643 1107.19 2218
-938.069 1105.7 2215
-932.772 1105.7 2215
-925.382 1103.2 2210
-918.848 1101.7 2207
-912.328 1100.21 2204
-908.293 1101.7 2207
-903.015 1101.7 2207
-897.737 1101.7 2207
-892.46 1101.7 2207
-887.182 1101.7 2207
-880.706 1100.21 2204
-874.244 1098.71 2201
-868.98 1098.71 2201
-862.54 1097.21 2198
-857.284 1097.21 2198
-852.028 1097.21 2198
-847.927 1098.71 2201
-844.961 1101.7 2207
-840.825 1103.2 2210
-835.54 1103.2 2210
-830.256 1103.2 2210
-826.837 1105.7 2215
-822.653 1107.19 2218
-817.349 1107.19 2218
-813.144 1108.69 2221
-814.38 1117.68 2239
-810.11 1119.17 2242
-804.748 1119.17 2242
-799.387 1119.17 2242
-792.963 1117.68 2239
-788.664 1119.17 2242
-783.303 1119.17 2242
-777.942 1119.17 2242
-772.58 1119.17 2242
-767.219 1119.17 2242
-761.858 1119.17 2242
-756.497 1119.17 2242
-751.135 1119.17 2242
-745.774 1119.17 2242
-740.413 1119.17 2242
-732.101 1114.68 2233
-726.761 1114.68 2233
-721.421 1114.68 2233
-716.081 1114.68 2233
-709.787 1113.18 2230
-699.716 1105.7 2215
-694.419 1105.7 2215
-687.567 1103.2 2210
-681.356 1101.7 2207
-673.321 1097.21 2198
-668.065 1097.21 2198
-662.809 1097.21 2198
-657.553 1097.21 2198
-653.187 1098.71 2201
-649.69 1101.7 2207
-644.412 1101.7 2207
-639.135 1101.7 2207
-633.857 1101.7 2207
-627.725 1100.21 2204
-626.409 1107.19 2218
-621.105 1107.19 2218
-617.466 1110.19 2224
-613.8 1113.18 2230
-609.286 1114.68 2233
-603.946 1114.68 2233
-598.606 1114.68 2233
-598.846 1125.16 2254
-593.456 1125.16 2254
-588.066 1125.16 2254
-582.676 1125.16 2254
-576.517 1123.67 2251
-572.657 1126.66 2257
-567.26 1126.66 2257
-561.862 1126.66 2257
-556.465 1126.66 2257
-551.068 1126.66 2257
-544.22 1123.67 2251
-537.401 1120.67 2245
-532.744 1122.17 2248
-529.479 1126.66 2257
-524.082 1126.66 2257
-518.685 1126.66 2257
-513.288 1126.66 2257
-507.891 1126.66 2257
-502.494 1126.66 2257
-495.114 1122.17 2248
-489.085 1120.67 2245
-483.717 1120.67 2245
-478.348 1120.67 2245
-472.348 1119.17 2242
-467.611 1120.67 2245
-464.096 1125.16 2254
-458.706 1125.16 2254
-453.316 1125.16 2254
-448.522 1126.66 2257
-443.125 1126.66 2257
-437.728 1126.66 2257
-433.097 1128.66 2261
-427.69 1128.66 2261
-422.283 1128.66 2261
-416.876 1128.66 2261
-411.47 1128.66 2261
-406.063 1128.66 2261
-400.656 1128.66 2261
-395.249 1128.66 2261
-389.843 1128.66 2261
-382.736 1123.67 2251
-376.347 1120.67 2245
-370.979 1120.67 2245
-365.122 1119.17 2242
-358.797 1116.18 2236
-352.976 1114.68 2233
-347.636 1114.68 2233
-340.917 1110.19 2224
-333.939 1104.7 2213
-328.944 1105.7 2215
-324.086 1107.19 2218
-318.782 1107.19 2218
-313.478 1107.19 2218
-309.008 1110.19 2224
-303.689 1110.19 2224
-298.371 1110.19 2224
-293.053 1110.19 2224
-287.346 1108.69 2221
-282.035 1108.69 2221
-276.35 1107.19 2218
-271.047 1107.19 2218
-265.743 1107.19 2218
-260.791 1108.69 2221
-256.17 1111.69 2227
-250.845 1111.69 2227
-245.85 1113.18 2230
-242.135 1120.67 2245
-237.083 1122.17 2248
-231.707 1122.17 2248
-226.634 1123.67 2251
-222.234 1128.66 2261
-216.827 1128.66 2261
-211.42 1128.66 2261
-205.376 1125.16 2254
-199.986 1125.16 2254
-194.596 1125.16 2254
-188.954 1123.67 2251
-182.837 1119.17 2242
-177.238 1117.68 2239
-171.884 1117.68 2239
-164.968 1107.19 2218
-159.448 1105.7 2215
-153.804 1103.2 2210
-148.721 1104.7 2213
-143.429 1104.7 2213
-138.137 1104.7 2213
-132.845 1104.7 2213
-127.668 1105.7 2215
-122.371 1105.7 2215
-117.075 1105.7 2215
-111.778 1105.7 2215
-106.481 1105.7 2215
-101.093 1104.7 2213
-95.2815 1098.71 2201
-89.8956 1097.21 2198
-84.6395 1097.21 2198
-79.3834 1097.21 2198
-74.1273 1097.21 2198
-68.8713 1097.21 2198
-64.1072 1105.7 2215
-59.368 1116.18 2236
-54.0211 1116.18 2236
-48.8047 1119.17 2242
-43.4434 1119.17 2242
-38.0821 1119.17 2242
-32.6333 1116.18 2236
-26.8958 1100.21 2204
177.435 1092.72 2189
182.67 1092.72 2189
187.904 1092.72 2189
194.198 1098.71 2201
200.005 1101.7 2207
207.422 1113.18 2230
212.754 1113.18 2230
218.38 1114.68 2233
224.321 1117.68 2239
229.675 1117.68 2239
235.029 1117.68 2239
240.383 1117.68 2239
245.408 1116.18 2236
250.755 1116.18 2236
256.102 1116.18 2236
261.098 1114.68 2233
266.438 1114.68 2233
272.873 1119.17 2242
278.235 1119.17 2242
283.975 1120.67 2245
290.117 1123.67 2251
295.5 1123.67 2251
300.883 1123.67 2251
306.674 1125.16 2254
312.064 1125.16 2254
317.454 1125.16 2254
322.414 1123.67 2251
327.797 1123.67 2251
333.18 1123.67 2251
339.014 1125.16 2254
344.404 1125.16 2254
349.794 1125.16 2254
355.184 1125.16 2254
361.694 1128.66 2261
367.1 1128.66 2261
373.001 1130.16 2264
378.917 1131.65 2267
384.338 1131.65 2267
389.759 1131.65 2267
395.18 1131.65 2267
400.601 1131.65 2267
405.485 1130.16 2264
410.899 1130.16 2264
416.313 1130.16 2264
421.727 1130.16 2264
428.838 1134.65 2273
434.847 1136.15 2276
440.29 1136.15 2276
445.732 1136.15 2276
450.58 1134.65 2273
456.016 1134.65 2273
461.451 1134.65 2273
466.27 1133.15 2270
471.699 1133.15 2270
478.388 1136.15 2276
483.831 1136.15 2276
490.563 1139.14 2282
496.02 1139.14 2282
501.477 1139.14 2282
506.934 1139.14 2282
512.391 1139.14 2282
517.848 1139.14 2282
523.305 1139.14 2282
528.762 1139.14 2282
532.814 1136.15 2276
538.257 1136.15 2276
543.699 1136.15 2276
549.142 1136.15 2276
554.584 1136.15 2276
557.074 1130.16 2264
562.488 1130.16 2264
568.655 1131.65 2267
574.076 1131.65 2267
580.264 1133.15 2270
586.466 1134.65 2273
591.901 1134.65 2273
597.337 1134.65 2273
602.772 1134.65 2273
608.208 1134.65 2273
613.643 1134.65 2273
618.261 1133.15 2270
622.865 1131.65 2267
627.455 1130.16 2264
632.869 1130.16 2264
638.283 1130.16 2264
643.697 1130.16 2264
649.111 1130.16 2264
655.392 1131.65 2267
660.813 1131.65 2267
666.234 1131.65 2267
671.655 1131.65 2267
677.076 1131.65 2267
682.497 1131.65 2267
687.008 1130.16 2264
692.422 1130.16 2264
694.754 1125.16 2254
700.144 1125.16 2254
703.656 1122.17 2248
709.031 1122.17 2248
717.267 1126.66 2257
722.664 1126.66 2257
728.061 1126.66 2257
733.459 1126.66 2257
738.856 1126.66 2257
744.253 1126.66 2257
749.65 1126.66 2257
755.047 1126.66 2257
760.444 1126.66 2257
765.842 1126.66 2257
772.606 1128.66 2261
778.012 1128.66 2261
783.419 1128.66 2261
788.826 1128.66 2261
796.34 1131.65 2267
801.761 1131.65 2267
809.319 1134.65 2273
815.829 1136.15 2276
822.355 1137.64 2279
827.804 1137.64 2279
834.351 1139.14 2282
840.912 1140.64 2285
848.969 1144.13 2292
854.45 1144.13 2292
859.931 1144.13 2292
865.412 1144.13 2292
870.892 1144.13 2292
876.373 1144.13 2292
884.163 1147.13 2298
889.658 1147.13 2298
896.322 1148.63 2301
901.824 1148.63 2301
907.327 1148.63 2301
916.796 1153.62 2311
924.717 1156.61 2317
930.258 1156.61 2317
935.798 1156.61 2317
941.339 1156.61 2317
945.654 1155.12 2314
951.187 1155.12 2314
955.48 1153.62 2311
961.006 1153.62 2311
969.042 1156.61 2317
974.583 1156.61 2317
980.123 1156.61 2317
985.664 1156.61 2317
991.205 1156.61 2317
996.745 1156.61 2317
996.662 1150.12 2304
1000.87 1148.63 2301
1006.37 1148.63 2301
1013.19 1150.12 2304
1018.7 1150.12 2304
1024.21 1150.12 2304
1029.72 1150.12 2304
1032.53 1147.13 2298
1038.03 1147.13 2298
1040.8 1144.13 2292
1041.72 1139.14 2282
1047.17 1139.14 2282
1054.01 1140.64 2285
1059.48 1140.64 2285
1064.94 1140.64 2285
1070.41 1140.64 2285
1075.87 1140.64 2285
1081.33 1140.64 2285
1070.63 1123.67 2251
1056.41 1103.2 2210
1060.25 1101.7 2207
1079.53 1116.18 2236
1084.88 1116.18 2236
1096.08 1122.17 2248
1102.92 1123.67 2251
1108.31 1123.67 2251
1113.69 1123.67 2251
1119.07 1123.67 2251
1139.94 1139.14 2282
1150.42 1144.13 2292
1155.9 1144.13 2292
1161.38 1144.13 2292
1166.86 1144.13 2292
1172.34 1144.13 2292
1169.6 1136.15 2276
1175.04 1136.15 2276
1177.37 1133.15 2270
1182.8 1133.15 2270
1185.09 1130.16 2264
1188.92 1128.66 2261
1194.33 1128.66 2261
1199.74 1128.66 2261
1203.01 1126.66 2257
1200.38 1119.17 2242
1205.74 1119.17 2242
1211.1 1119.17 2242
1216.46 1119.17 2242
1221.82 1119.17 2242
1222.26 1114.68 2233
1222.65 1110.19 2224
1227.97 1110.19 2224
1220.53 1098.71 2201
1224.13 1097.21 2198
1224.35 1092.72 2189
1232.95 1095.71 2195
1239.89 1097.21 2198
1245.15 1097.21 2198
1257.23 1103.2 2210
1262.52 1103.2 2210
1269.52 1104.7 2213
1274.81 1104.7 2213
1280.11 1104.7 2213
1290.05 1108.69 2221
1302.36 1114.68 2233
1307.7 1114.68 2233
1314.8 1116.18 2236
1320.15 1116.18 2236
1347.43 1134.65 2273
1352.86 1134.65 2273
1365.47 1140.64 2285
1380.53 1148.63 2301
1389.65 1151.62 2307
1395.17 1151.62 2307
1404.93 1155.12 2314
1410.47 1155.12 2314
1416 1155.12 2314
1417.23 1151.62 2307
1417.2 1147.13 2298
1418.98 1144.13 2292
1424.46 1144.13 2292
1429.94 1144.13 2292
1432.92 1142.14 2288
1432.73 1137.64 2279
1434.39 1134.65 2273
1439.83 1134.65 2273
1445.26 1134.65 2273
1450.7 1134.65 2273
1452.29 1131.65 2267
1457.71 1131.65 2267
1463.13 1131.65 2267
1464.67 1128.66 2261
1461.62 1122.17 2248
1467 1122.17 2248
1450.76 1105.7 2215
1446.85 1098.71 2201
1460.03 1104.7 2213
1465.33 1104.7 2213
1470.62 1104.7 2213
1475.91 1104.7 2213
1481.2 1104.7 2213
1478.43 1098.71 2201
1485.72 1100.21 2204
1490.99 1100.21 2204
1498.3 1101.7 2207
1505.62 1103.2 2210
1514.32 1105.7 2215
1519.62 1105.7 2215
1533.18 1111.69 2227
1553.01 1122.17 2248
1562.54 1125.16 2254
1567.93 1125.16 2254
1586.59 1134.65 2273
1596.22 1137.64 2279
1601.67 1137.64 2279
1607.12 1137.64 2279
1612.57 1137.64 2279
1618.02 1137.64 2279
1621.34 1136.15 2276
1626.78 1136.15 2276
1627.92 1133.15 2270
1637.66 1136.15 2276
1658.99 1147.13 2298
1666.66 1148.63 2301
1672.16 1148.63 2301
1677.66 1148.63 2301
1685.36 1150.12 2304
1690.87 1150.12 2304
1696.38 1150.12 2304
1701.89 1150.12 2304
1709.62 1151.62 2307
1715.14 1151.62 2307
1720.65 1151.62 2307
1723.92 1150.12 2304
1715.17 1140.64 2285
1704.82 1130.16 2264
1726.1 1140.64 2285
1731.56 1140.64 2285
1746.91 1147.13 2298
1759.27 1151.62 2307
1764.79 1151.62 2307
-1599.28 1071.38 2136
-1594.17 1071.38 2136
-1589.06 1071.38 2136
-1583.95 1071.38 2136
-1583.28 1074.39 2142
-1578.16 1074.39 2142
-1582.58 1080.91 2155
-1581.82 1083.92 2161
-1578.84 1085.42 2164
-1573.67 1085.42 2164
-1582.99 1095.45 2184
-1583.55 1099.47 2192
-1578.3 1099.47 2192
-1573.06 1099.47 2192
-1578.55 1106.99 2207
-1577.55 1110 2213
-1572.26 1110 2213
-1566.96 1110 2213
-1561.67 1110 2213
-1543.72 1100.97 2195
-1538.47 1100.97 2195
-1531.13 1099.47 2192
-1532.15 1103.98 2201
-1542.84 1115.52 2224
-1537.53 1115.52 2224
-1532.21 1115.52 2224
-1526.89 1115.52 2224
-1514.04 1110 2213
-1508.75 1110 2213
-1501.42 1108.49 2210
-1496.14 1108.49 2210
-1490.85 1108.49 2210
-1485.57 1108.49 2210
-1474.26 1103.98 2201
-1462.99 1099.47 2192
-1457.74 1099.47 2192
-1452.5 1099.47 2192
-1440 1093.95 2181
-1434.78 1093.95 2181
-1432.84 1096.46 2186
-1431.53 1099.47 2192
-1426.29 1099.47 2192
-1421.05 1099.47 2192
-1415.81 1099.47 2192
-1410.57 1099.47 2192
-1403.4 1097.96 2189
-1394.97 1095.45 2184
-1384.02 1090.94 2175
-1382.63 1093.95 2181
-1377.41 1093.95 2181
-1372.2 1093.95 2181
-1366.98 1093.95 2181
-1361.77 1093.95 2181
-1349.09 1087.93 2169
-1338.94 1083.92 2161
-1333.78 1083.92 2161
-1328.61 1083.92 2161
-1323.44 1083.92 2161
-1318.27 1083.92 2161
-1314.93 1085.42 2164
-1309.75 1085.42 2164
-1304.58 1085.42 2164
-1292.8 1079.9 2153
-1279.28 1072.88 2139
-1274.16 1072.88 2139
-1269.05 1072.88 2139
-1265.7 1074.39 2142
-1268.23 1080.91 2155
-1266.6 1083.92 2161
-1261.43 1083.92 2161
-1260.91 1087.93 2169
-1257.46 1089.43 2172
-1252.27 1089.43 2172
-1247.07 1089.43 2172
-1243.6 1090.94 2175
-1241.81 1093.95 2181
-1236.6 1093.95 2181
-1231.38 1093.95 2181
-1224.48 1092.44 2178
-1219.27 1092.44 2178
-1215.73 1093.95 2181
-1210.52 1093.95 2181
-1205.3 1093.95 2181
-1200.09 1093.95 2181
-1202.54 1100.97 2195
-1197.29 1100.97 2195
-1196.93 1105.49 2204
-1194.91 1108.49 2210
-1189.62 1108.49 2210
-1184.34 1108.49 2210
-1179.05 1108.49 2210
-1168.99 1103.98 2201
-1163.72 1103.98 2201
-1158.46 1103.98 2201
-1153.2 1103.98 2201
-1152.63 1108.49 2210
-1151.5 1112.51 2218
-1157.04 1123.04 2239
-1151.69 1123.04 2239
-1147.87 1124.55 2242
-1145.57 1127.55 2248
-1140.19 1127.55 2248
-1134.82 1127.55 2248
-1135.97 1134.08 2261
-1132.07 1135.58 2264
-1126.65 1135.58 2264
-1121.24 1135.58 2264
-1114.35 1134.08 2261
-1098.15 1123.04 2239
-1092.79 1123.04 2239
-1071.9 1106.99 2207
-1079.19 1120.03 2233
-1078.17 1124.55 2242
-1077.12 1129.06 2251
-1071.74 1129.06 2251
-1066.35 1129.06 2251
-1065.68 1134.08 2261
-1060.28 1134.08 2261
-1054.87 1134.08 2261
-1044.82 1129.06 2251
-1038.05 1127.55 2248
-1036.81 1132.07 2257
-1031.42 1132.07 2257
-1029.2 1135.58 2264
-1023.79 1135.58 2264
-1018.37 1135.58 2264
-1001.77 1123.04 2239
-996.42 1123.04 2239
-989.738 1121.54 2236
-984.391 1121.54 2236
-977.731 1120.03 2233
-971.084 1118.53 2230
-964.453 1117.02 2227
-959.127 1117.02 2227
-948.662 1111 2215
-942.514 1110 2213
-935.951 1108.49 2210
-930.666 1108.49 2210
-922.869 1105.49 2204
-916.35 1103.98 2201
-912.328 1105.49 2204
-907.058 1105.49 2204
-901.788 1105.49 2204
-896.517 1105.49 2204
-891.247 1105.49 2204
-884.77 1103.98 2201
-879.507 1103.98 2201
-873.052 1102.48 2198
-867.796 1102.48 2198
-860.185 1099.47 2192
-856.114 1100.97 2195
-850.865 1100.97 2195
-846.772 1102.48 2198
-844.961 1106.99 2207
-839.684 1106.99 2207
-834.406 1106.99 2207
-829.129 1106.99 2207
-824.971 1108.49 2210
-820.799 1110 2213
-815.507 1110 2213
-812.045 1112.51 2218
-810.015 1117.02 2227
-806.858 1120.03 2233
-801.518 1120.03 2233
-796.178 1120.03 2233
-792.963 1123.04 2239
-788.664 1124.55 2242
-783.303 1124.55 2242
-777.942 1124.55 2242
-772.58 1124.55 2242
-767.219 1124.55 2242
-761.858 1124.55 2242
-756.497 1124.55 2242
-751.135 1124.55 2242
-745.774 1124.55 2242
-740.413 1124.55 2242
-732.101 1120.03 2233
-726.761 1120.03 2233
-721.421 1120.03 2233
-716.081 1120.03 2233
-709.787 1118.53 2230
-699.716 1111 2215
-694.419 1111 2215
-687.567 1108.49 2210
-681.356 1106.99 2207
-673.321 1102.48 2198
-668.065 1102.48 2198
-662.809 1102.48 2198
-657.553 1102.48 2198
-653.187 1103.98 2201
-649.69 1106.99 2207
-644.412 1106.99 2207
-639.135 1106.99 2207
-633.857 1106.99 2207
-627.725 1105.49 2204
-626.409 1112.51 2218
-621.105 1112.51 2218
-617.466 1115.52 2224
-613.8 1118.53 2230
-609.286 1120.03 2233
-603.946 1120.03 2233
-598.606 1120.03 2233
-598.846 1130.56 2254
-593.456 1130.56 2254
-588.066 1130.56 2254
-582.676 1130.56 2254
-576.517 1129.06 2251
-572.657 1132.07 2257
-567.26 1132.07 2257
-561.862 1132.07 2257
-556.465 1132.07 2257
-551.068 1132.07 2257
-544.22 1129.06 2251
-537.401 1126.05 2245
-532.744 1127.55 2248
-529.479 1132.07 2257
-524.082 1132.07 2257
-518.685 1132.07 2257
-513.288 1132.07 2257
-507.891 1132.07 2257
-502.494 1132.07 2257
-495.114 1127.55 2248
-489.085 1126.05 2245
-483.717 1126.05 2245
-478.348 1126.05 2245
-472.348 1124.55 2242
-467.611 1126.05 2245
-464.096 1130.56 2254
-458.706 1130.56 2254
-453.316 1130.56 2254
-448.522 1132.07 2257
-443.125 1132.07 2257
-437.728 1132.07 2257
-433.097 1134.08 2261
-427.69 1134.08 2261
-422.283 1134.08 2261
-416.876 1134.08 2261
-411.47 1134.08 2261
-406.063 1134.08 2261
-400.656 1134.08 2261
-395.249 1134.08 2261
-389.843 1134.08 2261
-382.736 1129.06 2251
-376.347 1126.05 2245
-370.979 1126.05 2245
-365.122 1124.55 2242
-358.797 1121.54 2236
-352.976 1120.03 2233
-347.636 1120.03 2233
-340.917 1115.52 2224
-333.939 1110 2213
-328.944 1111 2215
-324.086 1112.51 2218
-318.782 1112.51 2218
-313.478 1112.51 2218
-309.008 1115.52 2224
-303.689 1115.52 2224
-298.371 1115.52 2224
-293.053 1115.52 2224
-287.346 1114.01 2221
-282.035 1114.01 2221
-276.35 1112.51 2218
-271.047 1112.51 2218
-265.743 1112.51 2218
-260.439 1112.51 2218
-255.135 1112.51 2218
-248.592 1106.99 2207
-243.314 1106.99 2207
-239.547 1114.01 2221
-234.868 1117.02 2227
-229.543 1117.02 2227
-224.52 1118.53 2230
-220.072 1123.04 2239
-214.717 1123.04 2239
-209.363 1123.04 2239
-203.462 1120.03 2233
-198.123 1120.03 2233
-192.783 1120.03 2233
-186.939 1117.02 2227
-179.983 1106.99 2207
-174.705 1106.99 2207
-169.428 1106.99 2207
-162.811 1097.96 2189
-157.361 1096.46 2186
-151.785 1093.95 2181
-146.57 1093.95 2181
-141.16 1092.44 2178
-135.952 1092.44 2178
-130.744 1092.44 2178
-125.708 1093.95 2181
-120.493 1093.95 2181
-115.277 1093.95 2181
-110.062 1093.95 2181
-104.847 1093.95 2181
-99.6312 1093.95 2181
-94.0261 1089.43 2172
-88.8322 1089.43 2172
-83.6383 1089.43 2172
-78.6611 1092.44 2178
-73.4528 1092.44 2178
-68.2446 1092.44 2178
-63.2679 1096.46 2186
-58.5184 1105.49 2204
-53.248 1105.49 2204
-48.4129 1115.52 2224
-43.0946 1115.52 2224
-37.7764 1115.52 2224
-32.4581 1115.52 2224
-26.8958 1105.49 2204
-21.6254 1105.49 2204
-16.3549 1105.49 2204
-11.0845 1105.49 2204
-5.81407 1105.49 2204
176.544 1092.44 2178
182.253 1095.45 2184
187.475 1095.45 2184
193.139 1097.96 2189
199.461 1103.98 2201
207.143 1117.02 2227
212.468 1117.02 2227
217.793 1117.02 2227
223.119 1117.02 2227
228.444 1117.02 2227
233.77 1117.02 2227
238.773 1115.52 2224
243.762 1114.01 2221
249.073 1114.01 2221
254.384 1114.01 2221
259.345 1112.51 2218
266.08 1118.53 2230
271.778 1120.03 2233
277.118 1120.03 2233
283.216 1123.04 2239
288.957 1124.55 2242
294.712 1126.05 2245
300.081 1126.05 2245
305.858 1127.55 2248
311.233 1127.55 2248
316.609 1127.55 2248
321.984 1127.55 2248
326.923 1126.05 2245
332.292 1126.05 2245
338.111 1127.55 2248
343.487 1127.55 2248
348.863 1127.55 2248
354.238 1127.55 2248
360.574 1130.56 2254
367.1 1134.08 2261
372.507 1134.08 2261
377.914 1134.08 2261
383.321 1134.08 2261
388.727 1134.08 2261
394.134 1134.08 2261
399.541 1134.08 2261
404.948 1134.08 2261
410.354 1134.08 2261
413.922 1129.06 2251
418.746 1127.55 2248
424.688 1129.06 2251
432.554 1135.58 2264
437.968 1135.58 2264
443.382 1135.58 2264
448.796 1135.58 2264
454.21 1135.58 2264
459.624 1135.58 2264
461.751 1127.55 2248
467.75 1129.06 2251
475.866 1135.58 2264
481.28 1135.58 2264
487.338 1137.08 2267
492.759 1137.08 2267
498.181 1137.08 2267
503.602 1137.08 2267
509.023 1137.08 2267
513.082 1134.08 2261
518.489 1134.08 2261
525.286 1137.08 2267
530.707 1137.08 2267
536.128 1137.08 2267
540.833 1135.58 2264
546.246 1135.58 2264
551.66 1135.58 2264
556.336 1134.08 2261
561.743 1134.08 2261
567.15 1134.08 2261
572.556 1134.08 2261
578.73 1135.58 2264
585.692 1138.59 2270
591.12 1138.59 2270
596.548 1138.59 2270
601.977 1138.59 2270
605.799 1135.58 2264
611.213 1135.58 2264
616.627 1135.58 2264
622.041 1135.58 2264
625.515 1132.07 2257
630.912 1132.07 2257
636.309 1132.07 2257
641.707 1132.07 2257
645.384 1129.06 2251
650.766 1129.06 2251
656.149 1129.06 2251
661.532 1129.06 2251
666.026 1127.55 2248
671.402 1127.55 2248
676.777 1127.55 2248
681.243 1126.05 2245
686.611 1126.05 2245
688.281 1120.03 2233
693.621 1120.03 2233
698.021 1118.53 2230
703.354 1118.53 2230
709.64 1120.03 2233
714.98 1120.03 2233
720.319 1120.03 2233
726.634 1121.54 2236
731.981 1121.54 2236
737.328 1121.54 2236
742.675 1121.54 2236
748.022 1121.54 2236
755.391 1124.55 2242
760.752 1124.55 2242
766.113 1124.55 2242
771.474 1124.55 2242
777.875 1126.05 2245
784.29 1127.55 2248
792.827 1132.07 2257
798.225 1132.07 2257
806.114 1135.58 2264
812.603 1137.08 2267
819.107 1138.59 2270
824.535 1138.59 2270
829.964 1138.59 2270
837.6 1141.6 2276
844.154 1143.1 2279
849.604 1143.1 2279
855.053 1143.1 2279
860.503 1143.1 2279
867.093 1144.61 2282
872.55 1144.61 2282
878.007 1144.61 2282
884.625 1146.11 2285
890.089 1146.11 2285
899.473 1151.13 2295
904.961 1151.13 2295
911.639 1152.63 2298
917.134 1152.63 2298
922.629 1152.63 2298
928.124 1152.63 2298
933.62 1152.63 2298
939.115 1152.63 2298
945.843 1154.14 2301
951.346 1154.14 2301
958.096 1155.64 2304
963.605 1155.64 2304
969.115 1155.64 2304
974.624 1155.64 2304
980.134 1155.64 2304
985.643 1155.64 2304
991.153 1155.64 2304
994.067 1152.63 2298
995.213 1147.62 2288
1000.68 1147.62 2288
1006.16 1147.62 2288
1011.63 1147.62 2288
1010.43 1140.09 2273
1015.87 1140.09 2273
1017.26 1135.58 2264
1022.67 1135.58 2264
1022.18 1129.06 2251
1020.72 1121.54 2236
1023.31 1118.53 2230
1028.64 1118.53 2230
1031.19 1115.52 2224
1028.59 1106.99 2207
1032.46 1105.49 2204
1037.73 1105.49 2204
1043 1105.49 2204
1048.27 1105.49 2204
1039.68 1090.94 2175
1049.21 1095.45 2184
1065.53 1106.99 2207
1070.81 1106.99 2207
1090.23 1121.54 2236
1097.04 1123.04 2239
1103.88 1124.55 2242
1109.24 1124.55 2242
1116.09 1126.05 2245
1139.94 1144.61 2282
1150.42 1149.62 2292
1155.9 1149.62 2292
1161.38 1149.62 2292
1166.86 1149.62 2292
1172.34 1149.62 2292
1169.6 1141.6 2276
1175.04 1141.6 2276
1177.37 1138.59 2270
1182.8 1138.59 2270
1185.09 1135.58 2264
1188.92 1134.08 2261
1194.33 1134.08 2261
1199.74 1134.08 2261
1203.01 1132.07 2257
1200.38 1124.55 2242
1205.74 1124.55 2242
1207.86 1121.54 2236
1213.21 1121.54 2236
1216.92 1120.03 2233
1220.62 1118.53 2230
1217.7 1111 2215
1223 1111 2215
1220.53 1103.98 2201
1219.11 1097.96 2189
1222.67 1096.46 2186
1231.27 1099.47 2192
1238.2 1100.97 2195
1243.45 1100.97 2195
1250.41 1102.48 2198
1262.52 1108.49 2210
1269.52 1110 2213
1274.81 1110 2213
1280.11 1110 2213
1285.4 1110 2213
1295.36 1114.01 2221
1300.67 1114.01 2221
1311.27 1118.53 2230
1320.15 1121.54 2236
1347.43 1140.09 2273
1352.86 1140.09 2273
1361.88 1143.1 2279
1380.53 1154.14 2301
1389.65 1157.15 2307
1395.17 1157.15 2307
1403.11 1159.15 2311
1408.64 1159.15 2311
1414.16 1159.15 2311
1417.23 1157.15 2307
1417.2 1152.63 2298
1414.65 1146.11 2285
1420.11 1146.11 2285
1425.57 1146.11 2285
1429.16 1144.61 2282
1432.73 1143.1 2279
1434.39 1140.09 2273
1439.83 1140.09 2273
1445.26 1140.09 2273
1450.7 1140.09 2273
1452.29 1137.08 2267
1457.71 1137.08 2267
1463.13 1137.08 2267
1464.67 1134.08 2261
1461.62 1127.55 2248
1467 1127.55 2248
1450.76 1111 2215
1450.8 1106.99 2207
1460.03 1110 2213
1465.33 1110 2213
1470.62 1110 2213
1475.91 1110 2213
1481.2 1110 2213
1478.43 1103.98 2201
1485.72 1105.49 2204
1490.99 1105.49 2204
1498.3 1106.99 2207
1505.62 1108.49 2210
1514.32 1111 2215
1519.62 1111 2215
1533.18 1117.02 2227
1553.01 1127.55 2248
1562.54 1130.56 2254
1567.93 1130.56 2254
1586.59 1140.09 2273
1596.22 1143.1 2279
1601.67 1143.1 2279
1607.12 1143.1 2279
1612.57 1143.1 2279
1618.02 1143.1 2279
1621.34 1141.6 2276
1626.78 1141.6 2276
1627.92 1138.59 2270
1637.66 1141.6 2276
1658.99 1152.63 2298
1666.66 1154.14 2301
1672.16 1154.14 2301
1677.66 1154.14 2301
1685.36 1155.64 2304
1690.87 1155.64 2304
1696.38 1155.64 2304
1701.89 1155.64 2304
1709.62 1157.15 2307
1715.14 1157.15 2307
1720.65 1157.15 2307
1723.92 1155.64 2304
1715.17 1146.11 2285
1704.82 1135.58 2264
1726.1 1146.11 2285
1731.56 1146.11 2285
1746.91 1152.63 2298
1759.27 1157.15 2307
1764.79 1157.15 2307
-1601.52 1078.01 2139
-1596.41 1078.01 2139
-1589.06 1076.49 2136
-1583.95 1076.49 2136
-1586.98 1082.04 2147
-1581.84 1082.04 2147
-1578.91 1083.55 2150
-1577.43 1086.07 2155
-1578.84 1090.61 2164
-1573.67 1090.61 2164
-1582.99 1100.69 2184
-1583.55 1104.72 2192
-1578.3 1104.72 2192
-1573.06 1104.72 2192
-1578.55 1112.28 2207
-1573.27 1112.28 2207
-1567.99 1112.28 2207
-1562.72 1112.28 2207
-1557.44 1112.28 2207
-1543.72 1106.23 2195
-1538.47 1106.23 2195
-1521.35 1097.66 2178
-1525.89 1104.72 2192
-1524.81 1107.74 2198
-1519.55 1107.74 2198
-1514.29 1107.74 2198
-1509.04 1107.74 2198
-1503.78 1107.74 2198
-1502.62 1110.77 2204
-1497.35 1110.77 2204
-1492.08 1110.77 2204
-1484.78 1109.25 2201
-1479.52 1109.25 2201
-1470.24 1106.23 2195
-1462.99 1104.72 2192
-1452.42 1100.69 2184
-1447.2 1100.69 2184
-1440 1099.17 2181
-1434.78 1099.17 2181
-1432.84 1101.69 2186
-1431.53 1104.72 2192
-1426.29 1104.72 2192
-1421.05 1104.72 2192
-1415.81 1104.72 2192
-1410.57 1104.72 2192
-1401.48 1101.69 2186
-1393.06 1099.17 2181
-1384.02 1096.15 2175
-1380.73 1097.66 2178
-1375.52 1097.66 2178
-1370.31 1097.66 2178
-1365.1 1097.66 2178
-1359.89 1097.66 2178
-1342.24 1087.58 2158
-1337.08 1087.58 2158
-1328.84 1085.06 2153
-1323.69 1085.06 2153
-1318.54 1085.06 2153
-1307.9 1080.53 2144
-1301.56 1079.52 2142
-1296.44 1079.52 2142
-1285.89 1074.98 2133
-1279.59 1073.97 2131
-1274.49 1073.97 2131
-1269.4 1073.97 2131
-1262.52 1072.46 2128
-1260.39 1074.98 2133
-1260.58 1079.52 2142
-1258.39 1082.04 2147
-1253.26 1082.04 2147
-1249.87 1083.55 2150
-1247.62 1086.07 2155
-1242.47 1086.07 2155
-1237.31 1086.07 2155
-1235.59 1089.09 2161
-1233.84 1092.12 2167
-1228.66 1092.12 2167
-1223.48 1092.12 2167
-1218.29 1092.12 2167
-1213.11 1092.12 2167
-1206.26 1090.61 2164
-1205.52 1094.64 2172
-1200.33 1094.64 2172
-1196.79 1096.15 2175
-1191.58 1096.15 2175
-1189.66 1099.17 2181
-1184.44 1099.17 2181
-1186.8 1106.23 2195
-1181.55 1106.23 2195
-1176.3 1106.23 2195
-1166.25 1101.69 2186
-1161.02 1101.69 2186
-1151.56 1097.66 2178
-1146.35 1097.66 2178
-1141.15 1097.66 2178
-1143.24 1104.72 2192
-1147.34 1113.79 2210
-1146.19 1117.82 2218
-1140.89 1117.82 2218
-1135.58 1117.82 2218
-1131.81 1119.33 2221
-1126.5 1119.33 2221
-1121.19 1119.33 2221
-1117.38 1120.84 2224
-1112.06 1120.84 2224
-1106.75 1120.84 2224
-1101.43 1120.84 2224
-1091.67 1116.31 2215
-1080.98 1110.77 2204
-1075.71 1110.77 2204
-1067.53 1107.74 2198
-1066.62 1112.28 2207
-1068.08 1119.33 2221
-1069.94 1126.89 2236
-1064.6 1126.89 2236
-1059.25 1126.89 2236
-1055.32 1128.4 2239
-1049.96 1128.4 2239
-1044.61 1128.4 2239
-1030.9 1119.33 2221
-1025.59 1119.33 2221
-1025.79 1125.38 2233
-1020.45 1125.38 2233
-1016.47 1126.89 2236
-1011.13 1126.89 2236
-1005.78 1126.89 2236
-1000.43 1126.89 2236
-988.409 1119.33 2221
-979.557 1115.3 2213
-974.265 1115.3 2213
-966.346 1112.28 2207
-961.069 1112.28 2207
-953.193 1109.25 2201
-947.929 1109.25 2201
-941.381 1107.74 2198
-934.847 1106.23 2195
-925.787 1101.69 2186
-920.56 1101.69 2186
-915.332 1101.69 2186
-911.354 1103.21 2189
-906.119 1103.21 2189
-903.354 1106.23 2195
-898.105 1106.23 2195
-892.856 1106.23 2195
-887.607 1106.23 2195
-879.946 1103.21 2189
-874.712 1103.21 2189
-867.491 1100.69 2184
-862.269 1100.69 2184
-855.869 1099.17 2181
-851.823 1100.69 2184
-846.601 1100.69 2184
-842.149 1101.69 2186
-840.367 1106.23 2195
-835.118 1106.23 2195
-829.869 1106.23 2195
-824.62 1106.23 2195
-822.731 1110.77 2204
-817.461 1110.77 2204
-812.19 1110.77 2204
-806.92 1110.77 2204
-803.832 1113.79 2210
-802.522 1119.33 2221
-797.21 1119.33 2221
-791.899 1119.33 2221
-789.776 1123.87 2230
-785.498 1125.38 2233
-780.159 1125.38 2233
-775.86 1126.89 2236
-770.513 1126.89 2236
-765.166 1126.89 2236
-758.799 1125.38 2233
-753.46 1125.38 2233
-748.12 1125.38 2233
-742.78 1125.38 2233
-735.459 1122.36 2227
-730.133 1122.36 2227
-724.808 1122.36 2227
-719.483 1122.36 2227
-714.157 1122.36 2227
-703.421 1113.79 2210
-697.188 1112.28 2207
-691.911 1112.28 2207
-685.7 1110.77 2204
-676.725 1104.72 2192
-671.483 1104.72 2192
-666.241 1104.72 2192
-660.999 1104.72 2192
-655.758 1104.72 2192
-651.406 1106.23 2195
-647.041 1107.74 2198
-641.784 1107.74 2198
-636.528 1107.74 2198
-631.272 1107.74 2198
-626.871 1109.25 2201
-624.149 1113.79 2210
-618.864 1113.79 2210
-615.801 1117.82 2218
-611.323 1119.33 2221
-607.649 1122.36 2227
-602.323 1122.36 2227
-598.606 1125.38 2233
-598.846 1135.96 2254
-593.456 1135.96 2254
-588.066 1135.96 2254
-582.676 1135.96 2254
-576.517 1134.45 2251
-571.135 1134.45 2251
-565.752 1134.45 2251
-560.369 1134.45 2251
-554.986 1134.45 2251
-549.603 1134.45 2251
-542.044 1129.92 2242
-535.247 1126.89 2236
-530.611 1128.4 2239
-527.368 1132.94 2248
-521.992 1132.94 2248
-516.617 1132.94 2248
-511.241 1132.94 2248
-505.866 1132.94 2248
-499.822 1131.43 2245
-494.453 1131.43 2245
-488.431 1129.92 2242
-483.07 1129.92 2242
-477.07 1128.4 2239
-471.716 1128.4 2239
-466.986 1129.92 2242
-462.243 1131.43 2245
-456.874 1131.43 2245
-451.506 1131.43 2245
-446.137 1131.43 2245
-440.769 1131.43 2245
-435.4 1131.43 2245
-430.032 1131.43 2245
-426.366 1135.96 2254
-420.976 1135.96 2254
-415.586 1135.96 2254
-410.196 1135.96 2254
-404.806 1135.96 2254
-396.758 1128.4 2239
-391.404 1128.4 2239
-383.98 1122.36 2227
-377.125 1117.82 2218
-371.318 1116.31 2215
-366.021 1116.31 2215
-359.91 1113.79 2210
-354.144 1112.28 2207
-347.444 1107.74 2198
-342.188 1107.74 2198
-336.932 1107.74 2198
-330.317 1103.21 2189
-324.637 1101.69 2186
-319.41 1101.69 2186
-314.183 1101.69 2186
-309.803 1104.72 2192
-305.395 1107.74 2198
-300.139 1107.74 2198
-294.883 1107.74 2198
-290.417 1110.77 2204
-285.535 1112.28 2207
-280.638 1113.79 2210
-275.354 1113.79 2210
-270.069 1113.79 2210
-264.784 1113.79 2210
-259.499 1113.79 2210
-253.869 1112.28 2207
-248.592 1112.28 2207
-243.314 1112.28 2207
-239.547 1119.33 2221
-234.868 1122.36 2227
-229.543 1122.36 2227
-224.52 1123.87 2230
-220.072 1128.4 2239
-214.717 1128.4 2239
-209.363 1128.4 2239
-203.462 1125.38 2233
-198.123 1125.38 2233
-192.783 1125.38 2233
-186.939 1122.36 2227
-179.983 1112.28 2207
-174.705 1112.28 2207
-169.428 1112.28 2207
-162.811 1103.21 2189
-157.361 1101.69 2186
-151.785 1099.17 2181
-146.57 1099.17 2181
-141.16 1097.66 2178
-135.952 1097.66 2178
-130.744 1097.66 2178
-125.708 1099.17 2181
-120.493 1099.17 2181
-115.277 1099.17 2181
-110.062 1099.17 2181
-104.847 1099.17 2181
-99.6312 1099.17 2181
-94.0261 1094.64 2172
-88.9549 1096.15 2175
-83.7538 1096.15 2175
-78.6611 1097.66 2178
-73.4528 1097.66 2178
-68.2446 1097.66 2178
-63.2679 1101.69 2186
-58.5184 1110.77 2204
-53.248 1110.77 2204
-48.4129 1120.84 2224
-43.0946 1120.84 2224
-37.7764 1120.84 2224
-32.4581 1120.84 2224
-26.8958 1110.77 2204
-21.6254 1110.77 2204
-16.3549 1110.77 2204
-11.0845 1110.77 2204
-5.81407 1110.77 2204
-0.542162 1107.74 2198
4.71392 1107.74 2198
176.787 1099.17 2181
182.67 1103.21 2189
187.904 1103.21 2189
193.404 1104.72 2192
199.461 1109.25 2201
207.143 1122.36 2227
212.468 1122.36 2227
217.793 1122.36 2227
223.119 1122.36 2227
228.444 1122.36 2227
233.77 1122.36 2227
238.773 1120.84 2224
243.762 1119.33 2221
249.073 1119.33 2221
254.384 1119.33 2221
259.345 1117.82 2218
264.648 1117.82 2218
271.413 1123.87 2230
276.745 1123.87 2230
282.458 1125.38 2233
288.184 1126.89 2236
293.925 1128.4 2239
299.279 1128.4 2239
305.041 1129.92 2242
310.402 1129.92 2242
315.764 1129.92 2242
321.125 1129.92 2242
325.613 1126.89 2236
331.848 1129.92 2242
337.209 1129.92 2242
342.57 1129.92 2242
347.932 1129.92 2242
353.766 1131.43 2245
359.614 1132.94 2248
365.477 1134.45 2251
370.86 1134.45 2251
377.245 1137.48 2257
382.642 1137.48 2257
388.04 1137.48 2257
393.437 1137.48 2257
398.304 1135.96 2254
402.619 1132.94 2248
407.995 1132.94 2248
411.716 1128.4 2239
416.511 1126.89 2236
421.858 1126.89 2236
428.924 1131.43 2245
434.293 1131.43 2245
439.661 1131.43 2245
445.03 1131.43 2245
450.398 1131.43 2245
455.767 1131.43 2245
459.903 1128.4 2239
465.257 1128.4 2239
471.872 1131.43 2245
477.241 1131.43 2245
484.544 1135.96 2254
489.934 1135.96 2254
495.324 1135.96 2254
498.714 1131.43 2245
504.083 1131.43 2245
509.451 1131.43 2245
514.82 1131.43 2245
522.969 1137.48 2257
528.366 1137.48 2257
533.763 1137.48 2257
537.727 1134.45 2251
543.11 1134.45 2251
548.493 1134.45 2251
553.876 1134.45 2251
559.258 1134.45 2251
564.641 1134.45 2251
569.264 1132.94 2248
576.174 1135.96 2254
581.564 1135.96 2254
586.954 1135.96 2254
592.344 1135.96 2254
597.734 1135.96 2254
601.518 1132.94 2248
606.894 1132.94 2248
610.635 1129.92 2242
615.997 1129.92 2242
618.864 1125.38 2233
624.203 1125.38 2233
629.543 1125.38 2233
634.883 1125.38 2233
639.363 1123.87 2230
646.43 1126.89 2236
651.777 1126.89 2236
657.124 1126.89 2236
662.471 1126.89 2236
667.818 1126.89 2236
673.165 1126.89 2236
673.96 1119.33 2221
679.271 1119.33 2221
683.657 1117.82 2218
688.961 1117.82 2218
694.265 1117.82 2218
699.569 1117.82 2218
705.826 1119.33 2221
713.059 1122.36 2227
718.384 1122.36 2227
724.684 1123.87 2230
730.017 1123.87 2230
735.35 1123.87 2230
740.682 1123.87 2230
746.015 1123.87 2230
753.369 1126.89 2236
758.716 1126.89 2236
764.063 1126.89 2236
769.41 1126.89 2236
775.796 1128.4 2239
783.244 1131.43 2245
789.666 1132.94 2248
795.042 1132.94 2248
805.046 1139.49 2261
810.453 1139.49 2261
815.859 1139.49 2261
821.266 1139.49 2261
827.77 1141 2264
834.288 1142.52 2267
840.82 1144.03 2270
846.248 1144.03 2270
853.928 1147.05 2276
859.37 1147.05 2276
864.813 1147.05 2276
870.256 1147.05 2276
876.852 1148.56 2279
883.464 1150.08 2282
888.921 1150.08 2282
895.553 1151.59 2285
901.017 1151.59 2285
907.672 1153.1 2288
915.937 1156.63 2295
921.425 1156.63 2295
926.913 1156.63 2295
932.401 1156.63 2295
937.889 1156.63 2295
943.377 1156.63 2295
948.865 1156.63 2295
956.848 1159.65 2301
962.35 1159.65 2301
967.853 1159.65 2301
973.355 1159.65 2301
977.581 1158.14 2298
981.793 1156.63 2295
987.281 1156.63 2295
988.443 1151.59 2285
993.908 1151.59 2285
995.435 1147.05 2276
1000.88 1147.05 2276
1004.99 1145.54 2273
1006.43 1141 2264
1010.5 1139.49 2261
1006.02 1128.4 2239
1011.38 1128.4 2239
1015.37 1126.89 2236
1017.98 1123.87 2230
1020.56 1120.84 2224
1025.88 1120.84 2224
1023.31 1112.28 2207
1024.39 1107.74 2198
1028.24 1106.23 2195
1033.49 1106.23 2195
1038.74 1106.23 2195
1033.05 1094.64 2172
1039.68 1096.15 2175
1044.88 1096.15 2175
1062.64 1109.25 2201
1067.9 1109.25 2201
1081.45 1117.82 2218
1094.1 1125.38 2233
1100.92 1126.89 2236
1106.27 1126.89 2236
1114.6 1129.92 2242
1136.94 1147.05 2276
1145.4 1150.08 2282
1150.85 1150.08 2282
1156.31 1150.08 2282
1160.24 1148.56 2279
1165.69 1148.56 2279
1169.6 1147.05 2276
1173.49 1145.54 2273
1175.82 1142.52 2267
1181.24 1142.52 2267
1185.09 1141 2264
1188.92 1139.49 2261
1194.33 1139.49 2261
1199.74 1139.49 2261
1203.01 1137.48 2257
1200.38 1129.92 2242
1205.74 1129.92 2242
1207.86 1126.89 2236
1213.21 1126.89 2236
1216.92 1125.38 2233
1215.69 1119.33 2221
1217.7 1116.31 2215
1223 1116.31 2215
1220.53 1109.25 2201
1219.11 1103.21 2189
1222.67 1101.69 2186
1229.58 1103.21 2189
1236.51 1104.72 2192
1241.75 1104.72 2192
1248.7 1106.23 2195
1260.8 1112.28 2207
1266.08 1112.28 2207
1271.36 1112.28 2207
