996.767 -116.107 2917
1288.12 -145.96 3667
1296.89 -145.96 3667
1305.66 -145.96 3667
1332 -147.91 3716
1340.88 -147.91 3716
1349.77 -147.91 3716
1352.44 -147.234 3699
1355.4 -146.597 3683
1361.24 -146.278 3675
1370.03 -146.278 3675
1378.82 -146.278 3675
1387.6 -146.278 3675
1393.35 -145.96 3667
1402.12 -145.96 3667
1407.43 -145.602 3658
1409.98 -144.965 3642
1403.5 -143.412 3603
1412.11 -143.412 3603
1411.66 -142.497 3580
1417.05 -142.179 3572
1413.62 -140.984 3542
1418.87 -140.666 3534
1427.32 -140.666 3534
1430.09 -140.109 3520
1435.24 -139.79 3512
1434.59 -138.915 3490
1442.94 -138.915 3490
1445.46 -138.357 3476
1450.43 -138.039 3468
1449.89 -137.203 3447
1458.13 -137.203 3447
1454.46 -136.089 3419
1456.65 -135.531 3405
1461.78 -135.253 3398
1469.9 -135.253 3398
1478.03 -135.253 3398
1486.16 -135.253 3398
1491.2 -134.974 3391
1499.31 -134.974 3391
1507.42 -134.974 3391
1494.08 -133.064 3343
1502.07 -133.064 3343
1501.03 -132.267 3323
1508.98 -132.267 3323
1516.92 -132.267 3323
1540.47 -133.621 3357
1603.39 -138.357 3476
1618.19 -138.915 3490
1626.54 -138.915 3490
1638.17 -139.193 3497
1650.29 -139.512 3505
1679.5 -141.263 3549
1687.98 -141.263 3549
1700.3 -141.581 3557
1708.8 -141.581 3557
1717.31 -141.581 3557
1725.81 -141.581 3557
1734.32 -141.581 3557
1742.82 -141.581 3557
1751.33 -141.581 3557
1759.84 -141.581 3557
1768.34 -141.581 3557
1776.85 -141.581 3557
1781.34 -141.263 3549
1809.49 -142.815 3588
1818.07 -142.815 3588
1826.65 -142.815 3588
1835.23 -142.815 3588
1843.81 -142.815 3588
1840.52 -141.9 3565
1577.48 -113.719 2857
1597.62 -114.674 2881
1604.51 -114.674 2881
1611.4 -114.674 2881
1607.61 -113.918 2862
1614.46 -113.918 2862
1612.8 -113.321 2847
1619.61 -113.321 2847
1615.57 -112.565 2828
1616.59 -112.167 2818
1615.26 -111.609 2804
1621.97 -111.609 2804
1625.77 -111.41 2799
1627.22 -111.052 2790
1630.96 -110.853 2785
1637.62 -110.853 2785
1636.01 -110.296 2771
1637.3 -109.938 2762
1635.58 -109.38 2748
1639.76 -109.221 2744
1646.32 -109.221 2744
1647.46 -108.863 2735
1654 -108.863 2735
1657.5 -108.664 2730
1664.03 -108.664 2730
1670.56 -108.664 2730
1669.1 -108.146 2717
1673.13 -107.987 2713
1679.62 -107.987 2713
1680.51 -107.629 2704
1686.98 -107.629 2704
1690.32 -107.43 2699
1696.77 -107.43 2699
1703.22 -107.43 2699
1707.14 -107.271 2695
1713.59 -107.271 2695
1714.29 -106.913 2686
1720.71 -106.913 2686
1727.14 -106.913 2686
1733.56 -106.913 2686
1737.39 -106.753 2682
1743.8 -106.753 2682
1744.34 -106.395 2673
1750.74 -106.395 2673
1751.87 -106.077 2665
1758.24 -106.077 2665
1764.61 -106.077 2665
1768.33 -105.917 2661
1774.69 -105.917 2661
1781.06 -105.917 2661
1784.06 -105.718 2656
1790.41 -105.718 2656
1788.65 -105.241 2644
1794.97 -105.241 2644
1801.29 -105.241 2644
1804.88 -105.082 2640
1811.19 -105.082 2640
1814.06 -104.883 2635
1820.36 -104.883 2635
1826.66 -104.883 2635
1830.18 -104.723 2631
1836.47 -104.723 2631
1842.77 -104.723 2631
1846.25 -104.564 2627
1852.53 -104.564 2627
1858.81 -104.564 2627
1865.09 -104.564 2627
1871.37 -104.564 2627
1877.66 -104.564 2627
1881.07 -104.405 2623
1884.46 -104.246 2619
1890.73 -104.246 2619
1896.99 -104.246 2619
1903.25 -104.246 2619
1909.51 -104.246 2619
1915.78 -104.246 2619
1919.11 -104.086 2615
1925.36 -104.086 2615
1928.66 -103.927 2611
1934.9 -103.927 2611
1941.14 -103.927 2611
1944.4 -103.768 2607
1950.64 -103.768 2607
1956.87 -103.768 2607
1963.11 -103.768 2607
1969.34 -103.768 2607
1972.54 -103.609 2603
1971.93 -103.251 2594
1978.13 -103.251 2594
1981.27 -103.091 2590
-2050.76 -102.461 2739
-2065.1 -103.508 2767
-2058.49 -103.508 2767
-2051.87 -103.508 2767
-2045.25 -103.508 2767
-2038.64 -103.508 2767
-2032.02 -103.508 2767
-2025.4 -103.508 2767
-2021.71 -103.658 2771
-2018.71 -103.845 2776
-2032.37 -104.892 2804
-2025.67 -104.892 2804
-2029.04 -105.416 2818
-2029.48 -105.79 2828
-2025.58 -105.94 2832
-2018.81 -105.94 2832
-2012.03 -105.94 2832
-2002.43 -105.79 2828
-1995.67 -105.79 2828
-2239.27 -119.107 3184
-2248.48 -120.005 3208
-2258.27 -120.94 3233
-2250.54 -120.94 3233
-2274.03 -122.624 3278
-2297.3 -124.307 3323
-2321.73 -126.065 3370
-2313.68 -126.065 3370
-2310.41 -126.327 3377
-2302.33 -126.327 3377
-2308.52 -127.113 3398
-2300.4 -127.113 3398
-2330.05 -129.208 3454
-2326.49 -129.469 3461
-2318.22 -129.469 3461
-2309.94 -129.469 3461
-2301.67 -129.469 3461
-2274.83 -128.422 3433
-2266.63 -128.422 3433
-2258.42 -128.422 3433
-2245.62 -128.16 3426
-2237.43 -128.16 3426
-2266.32 -130.292 3483
-2257.99 -130.292 3483
-2249.66 -130.292 3483
-2241.34 -130.292 3483
-2233.01 -130.292 3483
-2215.1 -129.731 3468
-2216.35 -130.292 3483
-2240.35 -132.2 3534
-2246.43 -133.061 3557
-2237.92 -133.061 3557
-2238.82 -133.622 3572
-2230.27 -133.622 3572
-2221.73 -133.622 3572
-2213.19 -133.622 3572
-2204.65 -133.622 3572
-2186.88 -133.061 3557
-2192.46 -133.921 3580
-2183.9 -133.921 3580
-2199.04 -135.38 3619
-2195.23 -135.679 3627
-2186.56 -135.679 3627
-2177.88 -135.679 3627
-2169.21 -135.679 3627
-2155.77 -135.38 3619
-2147.12 -135.38 3619
-2129.01 -134.781 3603
-2120.39 -134.781 3603
-2111.78 -134.781 3603
-2103.16 -134.781 3603
-2094.54 -134.781 3603
-2072.61 -133.921 3580
-2046.18 -132.761 3549
-2037.69 -132.761 3549
-2012.62 -131.677 3520
-2008.19 -131.938 3527
-2003.73 -132.2 3534
-1995.28 -132.2 3534
-1986.82 -132.2 3534
-1991.25 -133.061 3557
-1987.2 -133.36 3565
-1978.68 -133.36 3565
-1970.15 -133.36 3565
-1952.82 -132.761 3549
-1944.34 -132.761 3549
-1952.76 -133.921 3580
-1944.2 -133.921 3580
-1948.07 -134.781 3603
-1939.46 -134.781 3603
-1930.84 -134.781 3603
-1922.23 -134.781 3603
-1913.61 -134.781 3603
-1897.06 -134.22 3588
-1888.48 -134.22 3588
-1879.9 -134.22 3588
-1871.32 -134.22 3588
-1878.84 -135.38 3619
-1890.34 -136.839 3658
-1881.59 -136.839 3658
-1877.45 -137.176 3667
-1872.76 -137.475 3675
-1863.97 -137.475 3675
-1855.18 -137.475 3675
-1826.3 -135.978 3635
-1813.61 -135.679 3627
-1804.93 -135.679 3627
-1796.26 -135.679 3627
-1783.64 -135.38 3619
-1774.99 -135.38 3619
-1766.33 -135.38 3619
-1753.79 -135.081 3611
-1737.43 -134.482 3595
-1725.46 -134.22 3588
-1716.88 -134.22 3588
-1708.3 -134.22 3588
-1699.72 -134.22 3588
-1694.44 -134.482 3595
-1685.85 -134.482 3595
-1677.25 -134.482 3595
-1668.65 -134.482 3595
-1656.82 -134.22 3588
-1637.68 -133.36 3565
-1629.15 -133.36 3565
-1613.35 -132.761 3549
-1612.1 -133.36 3565
-1606.73 -133.622 3572
-1608.48 -134.482 3595
-1599.88 -134.482 3595
-1591.28 -134.482 3595
-1582.69 -134.482 3595
-1574.09 -134.482 3595
-1555.48 -133.622 3572
-1543.9 -133.36 3565
-1531.93 -133.061 3557
-1523.43 -133.061 3557
-1511.51 -132.761 3549
-1487.36 -131.377 3512
-1460.43 -129.731 3468
-1452.14 -129.731 3468
-1432.19 -128.684 3440
-1415.27 -127.898 3419
-1351.53 -122.848 3284
-1305.22 -119.332 3190
-1297.59 -119.332 3190
-1282.68 -118.659 3172
-1260.63 -117.312 3136
-1243.54 -116.414 3112
-1236.1 -116.414 3112
-1199.83 -113.683 3039
-1175.3 -112.037 2995
-1157.61 -111.027 2968
-1144.69 -110.466 2953
-1137.63 -110.466 2953
-1126.36 -110.055 2942
-1119.32 -110.055 2942
-1112.29 -110.055 2942
-1105.25 -110.055 2942
-1098.22 -110.055 2942
-1089.33 -109.868 2937
-1082.31 -109.868 2937
-1075.28 -109.868 2937
-1068.26 -109.868 2937
-1061.24 -109.868 2937
-1054.21 -109.868 2937
-1047.19 -109.868 2937
-1036.62 -109.494 2927
-1027.87 -109.307 2922
-1019.13 -109.119 2917
-1012.16 -109.119 2917
-1005.18 -109.119 2917
-996.153 -108.895 2911
-987.493 -108.708 2906
-980.544 -108.708 2906
-971.919 -108.521 2901
-964.982 -108.521 2901
-958.045 -108.521 2901
-951.108 -108.521 2901
-944.171 -108.521 2901
-937.234 -108.521 2901
-928.693 -108.334 2896
-921.768 -108.334 2896
-914.843 -108.334 2896
-907.917 -108.334 2896
-899.437 -108.147 2891
-892.523 -108.147 2891
-885.61 -108.147 2891
-878.697 -108.147 2891
-870.276 -107.96 2886
-863.374 -107.96 2886
-856.473 -107.96 2886
-849.572 -107.96 2886
-842.671 -107.96 2886
-834.321 -107.773 2881
-827.432 -107.773 2881
-820.543 -107.773 2881
-812.241 -107.586 2876
-805.364 -107.586 2876
-798.486 -107.586 2876
-791.609 -107.586 2876
-784.732 -107.586 2876
-776.502 -107.399 2871
-769.636 -107.399 2871
-762.771 -107.399 2871
-755.906 -107.399 2871
-747.736 -107.212 2866
-740.882 -107.212 2866
-734.029 -107.212 2866
-727.175 -107.212 2866
-720.322 -107.212 2866
-713.468 -107.212 2866
-706.615 -107.212 2866
-698.785 -107.062 2862
-691.941 -107.062 2862
-685.097 -107.062 2862
-677.068 -106.875 2857
-670.236 -106.875 2857
-664.565 -107.062 2862
-657.721 -107.062 2862
-650.877 -107.062 2862
-644.033 -107.062 2862
-637.19 -107.062 2862
-633.429 -107.586 2876
-626.552 -107.586 2876
-621.829 -107.96 2886
-617.058 -108.334 2896
-614.557 -109.119 2917
-607.582 -109.119 2917
-605.754 -110.055 2942
-611.743 -112.449 3006
-614.41 -114.282 3055
-607.104 -114.282 3055
-599.799 -114.282 3055
-628.179 -121.165 3239
-625.414 -122.137 3265
-617.606 -122.137 3265
-609.799 -122.137 3265
-601.991 -122.137 3265
-594.183 -122.137 3265
-586.376 -122.137 3265
-584.239 -123.335 3297
-576.354 -123.335 3297
-568.47 -123.335 3297
-560.586 -123.335 3297
-552.702 -123.335 3297
-545.809 -123.559 3303
-539.051 -123.821 3310
-531.136 -123.821 3310
-524.327 -124.083 3317
-516.395 -124.083 3317
-508.463 -124.083 3317
-499.475 -123.821 3310
-490.52 -123.559 3303
-306.278 -79.7167 2131
-301.182 -79.7167 2131
-296.086 -79.7167 2131
-292.492 -80.1282 2142
-288.041 -80.3152 2147
-282.907 -80.3152 2147
-277.772 -80.3152 2147
-272.638 -80.3152 2147
-267.504 -80.3152 2147
-262.003 -80.203 2144
-257.955 -80.5397 2153
-252.806 -80.5397 2153
-247.658 -80.5397 2153
-242.509 -80.5397 2153
-237.361 -80.5397 2153
-233.399 -80.9512 2164
-228.224 -80.9512 2164
-223.049 -80.9512 2164
-167.816 -81.7741 2186
-162.588 -81.7741 2186
-157.361 -81.7741 2186
-151.785 -81.5871 2181
-146.57 -81.5871 2181
-140.966 -81.3626 2175
-135.765 -81.3626 2175
-130.564 -81.3626 2175
-125.19 -81.2504 2172
-119.996 -81.2504 2172
-114.379 -80.9512 2164
-109.204 -80.9512 2164
-103.885 -80.8389 2161
-98.7176 -80.8389 2161
-93.4201 -80.7267 2158
-88.1369 -80.6145 2155
-82.9067 -80.5397 2153
-77.7582 -80.5397 2153
-72.6097 -80.5397 2153
-67.3672 -80.4274 2150
-62.2259 -80.4274 2150
-57.0846 -80.4274 2150
-51.7984 -80.203 2144
-46.6714 -80.203 2144
-41.5057 -80.1282 2142
-36.3835 -80.1282 2142
-31.2176 -80.016 2139
-26.1026 -80.016 2139
-20.9582 -79.9037 2136
-15.8503 -79.9037 2136
-10.7174 -79.7167 2131
-5.6215 -79.7167 2131
-0.525636 -79.7167 2131
4.5638 -79.6045 2128
9.65249 -79.6045 2128
14.7412 -79.6045 2128
19.8299 -79.6045 2128
24.9186 -79.6045 2128
30.0073 -79.6045 2128
35.0465 -79.4922 2125
40.128 -79.4922 2125
45.1457 -79.38 2122
50.22 -79.38 2122
55.2944 -79.38 2122
60.3687 -79.38 2122
65.4431 -79.38 2122
70.5174 -79.38 2122
75.5205 -79.3052 2120
80.5901 -79.3052 2120
85.7405 -79.38 2122
90.9432 -79.4922 2125
96.0247 -79.4922 2125
101.106 -79.4922 2125
106.188 -79.4922 2125
111.426 -79.6045 2128
116.515 -79.6045 2128
121.604 -79.6045 2128
126.871 -79.7167 2131
131.967 -79.7167 2131
137.384 -79.9037 2136
142.492 -79.9037 2136
147.6 -79.9037 2136
152.922 -80.016 2139
158.037 -80.016 2139
163.152 -80.016 2139
168.503 -80.1282 2142
173.788 -80.203 2144
179.165 -80.3152 2147
184.299 -80.3152 2147
189.433 -80.3152 2147
195.292 -80.6145 2155
201.004 -80.8389 2161
206.171 -80.8389 2161
211.339 -80.8389 2161
216.807 -80.9512 2164
222.29 -81.0634 2167
227.471 -81.0634 2167
232.653 -81.0634 2167
238.384 -81.2504 2172
243.578 -81.2504 2172
248.772 -81.2504 2172
254.317 -81.3626 2175
259.518 -81.3626 2175
264.719 -81.3626 2175
269.175 -81.1382 2169
274.362 -81.1382 2169
279.549 -81.1382 2169
284.736 -81.1382 2169
291.927 -81.6993 2184
297.15 -81.6993 2184
302.649 -81.7741 2186
309.144 -82.1108 2195
314.393 -82.1108 2195
319.642 -82.1108 2195
490.068 -109.681 2932
497.079 -109.681 2932
505.81 -110.055 2942
512.845 -110.055 2942
519.88 -110.055 2942
526.915 -110.055 2942
533.951 -110.055 2942
540.986 -110.055 2942
548.021 -110.055 2942
553.17 -109.681 2932
559.226 -109.494 2927
565.258 -109.307 2922
572.245 -109.307 2922
577.052 -108.895 2911
582.007 -108.521 2901
587.929 -108.334 2896
594.854 -108.334 2896
599.701 -107.96 2886
605.552 -107.773 2881
612.441 -107.773 2881
619.33 -107.773 2881
626.22 -107.773 2881
633.109 -107.773 2881
638.888 -107.586 2876
644.642 -107.399 2871
651.508 -107.399 2871
658.373 -107.399 2871
664.08 -107.212 2866
670.934 -107.212 2866
678.97 -107.399 2871
685.835 -107.399 2871
692.7 -107.399 2871
698.347 -107.212 2866
705.201 -107.212 2866
712.054 -107.212 2866
718.908 -107.212 2866
724.748 -107.062 2862
731.592 -107.062 2862
738.436 -107.062 2862
745.28 -107.062 2862
750.81 -106.875 2857
757.642 -106.875 2857
764.474 -106.875 2857
771.306 -106.875 2857
779.5 -107.062 2862
786.344 -107.062 2862
793.188 -107.062 2862
798.634 -106.875 2857
805.466 -106.875 2857
812.298 -106.875 2857
819.13 -106.875 2857
825.962 -106.875 2857
832.794 -106.875 2857
839.625 -106.875 2857
846.457 -106.875 2857
853.289 -106.875 2857
860.121 -106.875 2857
866.953 -106.875 2857
873.785 -106.875 2857
880.617 -106.875 2857
887.449 -106.875 2857
894.281 -106.875 2857
903.952 -107.212 2866
910.805 -107.212 2866
917.659 -107.212 2866
924.512 -107.212 2866
934.615 -107.586 2876
941.493 -107.586 2876
948.37 -107.586 2876
956.908 -107.773 2881
967.143 -108.147 2891
982.816 -109.119 2917
989.792 -109.119 2917
996.767 -109.119 2917
1288.12 -137.176 3667
1296.89 -137.176 3667
1305.66 -137.176 3667
1314.43 -137.176 3667
1323.2 -137.176 3667
1331.97 -137.176 3667
1340.74 -137.176 3667
1343.25 -136.54 3650
1358.28 -137.176 3667
1367.05 -137.176 3667
1375.81 -137.176 3667
1384.58 -137.176 3667
1393.35 -137.176 3667
1402.12 -137.176 3667
1404.35 -136.54 3650
1407.27 -135.978 3635
1400.38 -134.482 3595
1408.98 -134.482 3595
1408.51 -133.622 3572
1414.27 -133.36 3565
1410.42 -132.2 3534
1416.06 -131.938 3527
1424.5 -131.938 3527
1430.09 -131.677 3520
1432.37 -131.115 3505
1431.71 -130.292 3483
1440.04 -130.292 3483
1442.13 -129.731 3468
1444.57 -129.208 3454
1444 -128.422 3433
1452.21 -128.422 3433
1451.48 -127.636 3412
1444.67 -126.327 3377
1449.73 -126.065 3370
1454.76 -125.803 3363
1462.81 -125.803 3363
1470.85 -125.803 3363
1476.25 -125.579 3357
1481.18 -125.317 3350
1489.19 -125.317 3350
1485.14 -124.307 3323
1490.39 -124.083 3317
1498.32 -124.083 3317
1506.25 -124.083 3317
1514.18 -124.083 3317
1534.05 -125.055 3343
1599.7 -129.731 3468
1618.19 -130.554 3490
1626.54 -130.554 3490
1634.89 -130.554 3490
1646.53 -130.816 3497
1679.5 -132.761 3549
1687.98 -132.761 3549
1700.3 -133.061 3557
1708.8 -133.061 3557
1717.31 -133.061 3557
1725.81 -133.061 3557
1734.32 -133.061 3557
1742.82 -133.061 3557
1751.33 -133.061 3557
1759.84 -133.061 3557
1768.34 -133.061 3557
1776.85 -133.061 3557
1781.34 -132.761 3549
1809.49 -134.22 3588
1818.07 -134.22 3588
1826.65 -134.22 3588
1835.23 -134.22 3588
1843.81 -134.22 3588
1840.52 -133.36 3565
1577.48 -106.875 2857
1597.62 -107.773 2881
1604.51 -107.773 2881
1611.4 -107.773 2881
1607.61 -107.062 2862
1614.46 -107.062 2862
1612.8 -106.501 2847
1619.61 -106.501 2847
1615.57 -105.79 2828
1616.59 -105.416 2818
1615.26 -104.892 2804
1621.97 -104.892 2804
1625.77 -104.705 2799
1627.22 -104.369 2790
1630.96 -104.182 2785
1637.62 -104.182 2785
1636.01 -103.658 2771
1637.3 -103.321 2762
1635.58 -102.797 2748
1639.76 -102.648 2744
1646.32 -102.648 2744
1647.46 -102.311 2735
1654 -102.311 2735
1657.5 -102.124 2730
1664.03 -102.124 2730
1670.56 -102.124 2730
1669.1 -101.638 2717
1673.13 -101.488 2713
1679.62 -101.488 2713
1680.51 -101.152 2704
1686.98 -101.152 2704
1690.32 -100.965 2699
1696.77 -100.965 2699
1703.22 -100.965 2699
1707.14 -100.815 2695
1713.59 -100.815 2695
1714.29 -100.478 2686
1720.71 -100.478 2686
1727.14 -100.478 2686
1733.56 -100.478 2686
1737.39 -100.329 2682
1743.8 -100.329 2682
1744.34 -99.9919 2673
1750.74 -99.9919 2673
1751.87 -99.6926 2665
1758.24 -99.6926 2665
1764.61 -99.6926 2665
1768.33 -99.543 2661
1774.69 -99.543 2661
1781.06 -99.543 2661
1784.06 -99.3559 2656
1790.41 -99.3559 2656
1788.65 -98.9071 2644
1794.97 -98.9071 2644
1801.29 -98.9071 2644
1804.88 -98.7574 2640
1811.19 -98.7574 2640
1814.06 -98.5704 2635
1820.36 -98.5704 2635
1826.66 -98.5704 2635
1830.18 -98.4207 2631
1836.47 -98.4207 2631
1842.77 -98.4207 2631
1846.25 -98.2711 2627
1852.53 -98.2711 2627
1858.81 -98.2711 2627
1865.09 -98.2711 2627
1871.37 -98.2711 2627
1877.66 -98.2711 2627
1881.07 -98.1215 2623
1884.46 -97.9718 2619
1890.73 -97.9718 2619
1896.99 -97.9718 2619
1903.25 -97.9718 2619
1909.51 -97.9718 2619
1915.78 -97.9718 2619
1919.11 -97.8222 2615
1925.36 -97.8222 2615
1928.66 -97.6726 2611
1934.9 -97.6726 2611
1941.14 -97.6726 2611
1944.4 -97.5229 2607
1950.64 -97.5229 2607
1956.87 -97.5229 2607
1963.11 -97.5229 2607
1969.34 -97.5229 2607
1972.54 -97.3733 2603
1971.93 -97.0366 2594
1978.13 -97.0366 2594
1981.27 -96.887 2590
-2050.76 -95.8995 2739
-2061.37 -96.7048 2762
-2058.49 -96.8799 2767
-2051.87 -96.8799 2767
-2045.25 -96.8799 2767
-2034.95 -96.7048 2762
-2032.02 -96.8799 2767
-2025.4 -96.8799 2767
-2021.71 -97.0199 2771
-2018.71 -97.195 2776
-2032.37 -98.1753 2804
-2025.67 -98.1753 2804
-2029.04 -98.6655 2818
-2025.89 -98.8406 2823
-2022.72 -99.0156 2828
-2015.95 -99.0156 2828
-2009.19 -99.0156 2828
-2002.43 -99.0156 2828
-1995.67 -99.0156 2828
-2213.96 -110.22 3148
-2231.66 -111.48 3184
-2240.81 -112.32 3208
-2233.14 -112.32 3208
-2242.81 -113.196 3233
-2266.19 -114.771 3278
-2299 -116.837 3337
-2291.02 -116.837 3337
-2310.41 -118.238 3377
-2302.33 -118.238 3377
-2318.03 -119.463 3412
-2309.87 -119.463 3412
-2325.33 -120.688 3447
-2321.79 -120.934 3454
-2313.53 -120.934 3454
-2305.27 -120.934 3454
-2297.01 -120.934 3454
-2270.2 -119.953 3426
-2262 -119.953 3426
-2253.81 -119.953 3426
-2245.62 -119.953 3426
-2237.43 -119.953 3426
-2261.77 -121.704 3476
-2253.46 -121.704 3476
-2245.14 -121.704 3476
-2236.83 -121.704 3476
-2228.52 -121.704 3476
-2215.1 -121.424 3468
-2216.35 -121.949 3483
-2235.91 -123.489 3527
-2246.43 -124.54 3557
-2237.92 -124.54 3557
-2229.41 -124.54 3557
-2220.91 -124.54 3557
-2212.4 -124.54 3557
-2203.9 -124.54 3557
-2186.13 -124.015 3542
-2181.97 -124.26 3549
-2173.48 -124.26 3549
-2164.99 -124.26 3549
-2180.2 -125.625 3588
-2195.23 -126.991 3627
-2186.56 -126.991 3627
-2177.88 -126.991 3627
-2169.21 -126.991 3627
-2155.77 -126.711 3619
-2147.12 -126.711 3619
-2133.73 -126.431 3611
-2120.39 -126.15 3603
-2111.78 -126.15 3603
-2103.16 -126.15 3603
-2094.54 -126.15 3603
-2077.24 -125.625 3588
-2055.4 -124.82 3565
-2046.88 -124.82 3565
-2029.2 -124.26 3549
-2012.18 -123.735 3534
-2003.73 -123.735 3534
-2003.74 -124.26 3549
-1995.26 -124.26 3549
-1986.77 -124.26 3549
-1978.28 -124.26 3549
-1969.8 -124.26 3549
-1961.31 -124.26 3549
-1940.72 -123.489 3527
-1928.45 -123.244 3520
-1935.85 -124.26 3549
-1927.36 -124.26 3549
-1931.31 -125.065 3572
-1922.77 -125.065 3572
-1914.23 -125.065 3572
-1905.69 -125.065 3572
-1897.15 -125.065 3572
-1880.67 -124.54 3557
-1872.17 -124.54 3557
-1863.66 -124.54 3557
-1862.98 -125.065 3572
-1858.59 -125.345 3580
-1870.18 -126.711 3619
-1861.53 -126.711 3619
-1852.88 -126.711 3619
-1852.38 -127.271 3635
-1843.68 -127.271 3635
-1834.99 -127.271 3635
-1818.26 -126.711 3619
-1809.6 -126.711 3619
-1800.95 -126.711 3619
-1792.3 -126.711 3619
-1783.64 -126.711 3619
-1774.99 -126.711 3619
-1766.33 -126.711 3619
-1746.02 -125.87 3595
-1730.18 -125.345 3580
-1721.62 -125.345 3580
-1713.06 -125.345 3580
-1704.5 -125.345 3580
-1695.93 -125.345 3580
-1687.37 -125.345 3580
-1678.81 -125.345 3580
-1670.25 -125.345 3580
-1661.69 -125.345 3580
-1646.2 -124.82 3565
-1627.11 -124.015 3542
-1618.64 -124.015 3542
-1606.54 -123.735 3534
-1604.87 -124.26 3549
-1603.58 -124.82 3565
-1598.19 -125.065 3572
-1589.64 -125.065 3572
-1581.1 -125.065 3572
-1572.56 -125.065 3572
-1564.02 -125.065 3572
-1548.94 -124.54 3557
-1540.44 -124.54 3557
-1528.49 -124.26 3549
-1520 -124.26 3549
-1508.53 -124.015 3542
-1493.71 -123.489 3527
-1466.75 -121.949 3483
-1458.42 -121.949 3483
-1435.1 -120.688 3447
-1418.17 -119.953 3426
-1354 -115.191 3290
-1320.36 -112.986 3227
-1312.64 -112.986 3227
-1289.96 -111.69 3190
-1272.69 -110.85 3166
-1243.54 -108.959 3112
-1236.1 -108.959 3112
-1199.83 -106.403 3039
-1179.62 -105.248 3006
-1157.61 -103.917 2968
-1146.63 -103.567 2958
-1139.56 -103.567 2958
-1126.36 -103.007 2942
-1119.32 -103.007 2942
-1112.29 -103.007 2942
-1105.25 -103.007 2942
-1096.35 -102.832 2937
-1089.33 -102.832 2937
-1084.15 -103.007 2942
-1077.11 -103.007 2942
-1070.08 -103.007 2942
-1063.04 -103.007 2942
-1054.21 -102.832 2937
-1047.19 -102.832 2937
-1038.4 -102.657 2932
-1031.38 -102.657 2932
-1020.88 -102.307 2922
-1013.89 -102.307 2922
-1006.9 -102.307 2922
-998.206 -102.132 2917
-989.192 -101.922 2911
-982.231 -101.922 2911
-973.595 -101.747 2906
-966.645 -101.747 2906
-959.696 -101.747 2906
-952.747 -101.747 2906
-944.171 -101.572 2901
-937.234 -101.572 2901
-930.296 -101.572 2901
-923.359 -101.572 2901
-916.422 -101.572 2901
-909.485 -101.572 2901
-900.992 -101.396 2896
-894.067 -101.396 2896
-885.61 -101.221 2891
-878.697 -101.221 2891
-871.784 -101.221 2891
-864.87 -101.221 2891
-857.957 -101.221 2891
-851.044 -101.221 2891
-842.671 -101.046 2886
-835.769 -101.046 2886
-828.868 -101.046 2886
-820.543 -100.871 2881
-813.653 -100.871 2881
-806.764 -100.871 2881
-799.875 -100.871 2881
-791.609 -100.696 2876
-784.732 -100.696 2876
-777.854 -100.696 2876
-770.977 -100.696 2876
-764.099 -100.696 2876
-757.222 -100.696 2876
-750.345 -100.696 2876
-743.467 -100.696 2876
-736.59 -100.696 2876
-729.713 -100.696 2876
-722.835 -100.696 2876
-715.958 -100.696 2876
-707.848 -100.521 2871
-699.761 -100.346 2866
-692.908 -100.346 2866
-686.054 -100.346 2866
-678.253 -100.206 2862
-671.409 -100.206 2862
-664.565 -100.206 2862
-657.721 -100.206 2862
-650.877 -100.206 2862
-644.033 -100.206 2862
-637.19 -100.206 2862
-632.328 -100.521 2871
-625.462 -100.521 2871
-620.752 -100.871 2881
-615.993 -101.221 2891
-611.187 -101.572 2901
-604.249 -101.572 2901
-600.607 -102.132 2917
-602.992 -103.742 2963
-607.773 -105.808 3022
-600.546 -105.808 3022
-603.137 -107.559 3072
-628.179 -113.406 3239
-624.073 -114.071 3258
-616.282 -114.071 3258
-608.491 -114.071 3258
-600.7 -114.071 3258
-592.909 -114.071 3258
-585.119 -114.071 3258
-578.568 -114.316 3265
-571.809 -114.526 3271
-565.194 -114.771 3278
-557.356 -114.771 3278
-549.517 -114.771 3278
-543.661 -115.191 3290
-539.051 -115.892 3310
-531.136 -115.892 3310
-523.221 -115.892 3310
-515.305 -115.892 3310
-507.39 -115.892 3310
-499.475 -115.892 3310
-489.629 -115.437 3297
-305.415 -74.4018 2125
-300.334 -74.4018 2125
-296.086 -74.6119 2131
-292.082 -74.892 2139
-287.638 -75.067 2144
-282.511 -75.067 2144
-277.384 -75.067 2144
-272.257 -75.067 2144
-267.504 -75.1721 2147
-262.37 -75.1721 2147
-257.595 -75.2771 2150
-252.454 -75.2771 2150
-247.658 -75.3821 2153
-242.509 -75.3821 2153
-237.361 -75.3821 2153
-232.752 -75.5572 2158
-227.591 -75.5572 2158
-222.431 -75.5572 2158
-167.816 -76.5376 2186
-162.588 -76.5376 2186
-157.361 -76.5376 2186
-151.994 -76.4675 2184
-146.772 -76.4675 2184
-141.16 -76.2575 2178
-135.765 -76.1524 2175
-130.564 -76.1524 2175
-125.363 -76.1524 2175
-120.161 -76.1524 2175
-114.537 -75.8723 2167
-109.204 -75.7673 2164
-103.885 -75.6622 2161
-98.7176 -75.6622 2161
-93.4201 -75.5572 2158
-88.2596 -75.5572 2158
-82.9067 -75.3821 2153
-77.7582 -75.3821 2153
-72.6097 -75.3821 2153
-67.3672 -75.2771 2150
-62.1391 -75.1721 2147
-57.005 -75.1721 2147
-51.7984 -75.067 2144
-46.6279 -74.997 2142
-41.5057 -74.997 2142
-36.3835 -74.997 2142
-31.2176 -74.892 2139
-26.1026 -74.892 2139
-20.9582 -74.7869 2136
-15.8503 -74.7869 2136
-10.7174 -74.6119 2131
-5.6215 -74.6119 2131
-0.524896 -74.5068 2128
4.5638 -74.5068 2128
9.65249 -74.5068 2128
14.7412 -74.5068 2128
19.8299 -74.5068 2128
24.8834 -74.4018 2125
29.965 -74.4018 2125
35.0465 -74.4018 2125
40.0713 -74.2967 2122
45.1457 -74.2967 2122
50.22 -74.2967 2122
55.2944 -74.2967 2122
60.3687 -74.2967 2122
65.4431 -74.2967 2122
70.5174 -74.2967 2122
75.5205 -74.2267 2120
80.5901 -74.2267 2120
85.7405 -74.2967 2122
90.9432 -74.4018 2125
96.0247 -74.4018 2125
101.106 -74.4018 2125
106.188 -74.4018 2125
111.426 -74.5068 2128
116.679 -74.6119 2131
121.775 -74.6119 2131
126.871 -74.6119 2131
131.967 -74.6119 2131
137.191 -74.6819 2133
142.292 -74.6819 2133
147.6 -74.7869 2136
152.922 -74.892 2139
158.037 -74.892 2139
163.152 -74.892 2139
168.503 -74.997 2142
173.788 -75.067 2144
179.165 -75.1721 2147
184.299 -75.1721 2147
189.433 -75.1721 2147
195.292 -75.4522 2155
201.004 -75.6622 2161
206.171 -75.6622 2161
211.632 -75.7673 2164
216.807 -75.7673 2164
222.29 -75.8723 2167
227.471 -75.8723 2167
232.868 -75.9423 2169
238.713 -76.1524 2175
243.914 -76.1524 2175
249.116 -76.1524 2175
254.317 -76.1524 2175
259.518 -76.1524 2175
264.719 -76.1524 2175
269.548 -76.0474 2172
274.362 -75.9423 2169
279.549 -75.9423 2169
284.736 -75.9423 2169
291.927 -76.4675 2184
297.15 -76.4675 2184
302.649 -76.5376 2186
307.877 -76.5376 2186
313.104 -76.5376 2186
318.04 -76.4675 2184
490.068 -102.657 2932
497.079 -102.657 2932
504.09 -102.657 2932
511.102 -102.657 2932
519.88 -103.007 2942
526.915 -103.007 2942
533.951 -103.007 2942
539.147 -102.657 2932
546.158 -102.657 2932
552.226 -102.482 2927
559.226 -102.482 2927
565.258 -102.307 2922
572.245 -102.307 2922
576.061 -101.747 2906
582.007 -101.572 2901
586.914 -101.221 2891
593.827 -101.221 2891
599.701 -101.046 2886
605.552 -100.871 2881
612.441 -100.871 2881
619.33 -100.871 2881
626.22 -100.871 2881
633.109 -100.871 2881
638.888 -100.696 2876
644.642 -100.521 2871
651.508 -100.521 2871
658.373 -100.521 2871
665.239 -100.521 2871
672.104 -100.521 2871
678.97 -100.521 2871
685.835 -100.521 2871
692.7 -100.521 2871
699.566 -100.521 2871
706.431 -100.521 2871
713.297 -100.521 2871
718.908 -100.346 2866
725.761 -100.346 2866
732.615 -100.346 2866
739.468 -100.346 2866
745.28 -100.206 2862
752.124 -100.206 2862
758.968 -100.206 2862
765.812 -100.206 2862
772.656 -100.206 2862
779.5 -100.206 2862
786.344 -100.206 2862
793.188 -100.206 2862
800.031 -100.206 2862
806.875 -100.206 2862
813.719 -100.206 2862
820.563 -100.206 2862
827.407 -100.206 2862
832.794 -100.031 2857
841.095 -100.206 2862
847.939 -100.206 2862
854.783 -100.206 2862
861.627 -100.206 2862
868.471 -100.206 2862
875.314 -100.206 2862
880.617 -100.031 2857
889.002 -100.206 2862
897.098 -100.346 2866
905.529 -100.521 2871
912.394 -100.521 2871
919.26 -100.521 2871
927.738 -100.696 2876
936.24 -100.871 2881
944.766 -101.046 2886
951.668 -101.046 2886
960.23 -101.221 2891
973.834 -101.922 2911
986.186 -102.482 2927
993.185 -102.482 2927
1021.71 -104.688 2990
1038.15 -105.633 3017
1045.37 -105.633 3017
1052.58 -105.633 3017
1271.26 -126.711 3619
1282.75 -126.991 3627
1291.42 -126.991 3627
1300.09 -126.991 3627
1308.77 -126.991 3627
1317.44 -126.991 3627
1326.11 -126.991 3627
1337.73 -127.271 3635
1346.42 -127.271 3635
1360.71 -127.796 3650
1369.44 -127.796 3650
1378.16 -127.796 3650
1386.89 -127.796 3650
1395.62 -127.796 3650
1398.58 -127.271 3635
1391.78 -125.87 3595
1394.54 -125.345 3580
1403.1 -125.345 3580
1405.74 -124.82 3565
1405.15 -124.015 3542
1407.63 -123.489 3527
1413.25 -123.244 3520
1421.67 -123.244 3520
1423.99 -122.719 3505
1423.38 -121.949 3483
1428.84 -121.704 3476
1437.15 -121.704 3476
1436.31 -120.934 3454
1435.79 -120.198 3433
1438.11 -119.708 3419
1446.28 -119.708 3419
1436.59 -118.238 3377
1436.11 -117.537 3357
1441.13 -117.292 3350
1449.14 -117.292 3350
1457.15 -117.292 3350
1465.16 -117.292 3350
1473.17 -117.292 3350
1469.25 -116.347 3323
1477.19 -116.347 3323
1482.46 -116.137 3317
1490.39 -116.137 3317
1498.32 -116.137 3317
1506.25 -116.137 3317
1514.18 -116.137 3317
1524.87 -116.347 3323
1596.47 -121.179 3461
1611.7 -121.704 3476
1620.02 -121.704 3476
1634.89 -122.194 3490
1646.53 -122.439 3497
1679.5 -124.26 3549
1687.98 -124.26 3549
1700.3 -124.54 3557
1708.8 -124.54 3557
1717.31 -124.54 3557
1725.81 -124.54 3557
1734.32 -124.54 3557
1742.82 -124.54 3557
1751.33 -124.54 3557
1759.84 -124.54 3557
1768.34 -124.54 3557
1776.85 -124.54 3557
1777.83 -124.015 3542
1786.3 -124.015 3542
1794.77 -124.015 3542
1826.65 -125.625 3588
1835.23 -125.625 3588
1843.81 -125.625 3588
1840.52 -124.82 3565
1825.7 -123.244 3520
1799.73 -120.934 3454
1807.99 -120.934 3454
1613.08 -103.182 2947
1620.12 -103.182 2947
1627.17 -103.182 2947
1617.58 -102.132 2917
1624.56 -102.132 2917
1631.53 -102.132 2917
1623.9 -101.221 2891
1625.17 -100.871 2881
1632.06 -100.871 2881
1628.14 -100.206 2862
1626.42 -99.6809 2847
1622.33 -99.0156 2828
1620.45 -98.4905 2813
1627.18 -98.4905 2813
1628.68 -98.1753 2804
1629.55 -97.8252 2794
1633.89 -97.6852 2790
1640.56 -97.6852 2790
1638.96 -97.195 2776
1637.3 -96.7048 2762
1640.93 -96.5297 2757
1642.15 -96.2146 2748
1648.72 -96.2146 2748
1652.88 -96.0746 2744
1659.44 -96.0746 2744
1660.54 -95.7595 2735
1667.08 -95.7595 2735
1670.56 -95.5844 2730
1671.56 -95.2693 2721
1675.6 -95.1292 2717
1682.1 -95.1292 2717
1686.11 -94.9892 2713
1689.48 -94.8141 2708
1695.95 -94.8141 2708
1702.43 -94.8141 2708
1708.9 -94.8141 2708
1709.68 -94.499 2699
1716.13 -94.499 2699
1722.59 -94.499 2699
1729.04 -94.499 2699
1735.49 -94.499 2699
1736.79 -94.2189 2691
1743.22 -94.2189 2691
1749.66 -94.2189 2691
1750.22 -93.9038 2682
1750.74 -93.5887 2673
1751.87 -93.3086 2665
1758.24 -93.3086 2665
1764.61 -93.3086 2665
1770.99 -93.3086 2665
1777.36 -93.3086 2665
1783.73 -93.3086 2665
1787.42 -93.1685 2661
1790.41 -92.9935 2656
1791.35 -92.7134 2648
1794.97 -92.5733 2644
1801.29 -92.5733 2644
1807.61 -92.5733 2644
1813.94 -92.5733 2644
1817.5 -92.4333 2640
1823.82 -92.4333 2640
1830.13 -92.4333 2640
1832.97 -92.2582 2635
1839.27 -92.2582 2635
1845.57 -92.2582 2635
1849.06 -92.1182 2631
1855.35 -92.1182 2631
1864.47 -92.2582 2635
1870.77 -92.2582 2635
1877.07 -92.2582 2635
1877.66 -91.9781 2627
1883.94 -91.9781 2627
1887.34 -91.8381 2623
1893.61 -91.8381 2623
1896.99 -91.698 2619
1903.25 -91.698 2619
1909.51 -91.698 2619
1915.78 -91.698 2619
1922.04 -91.698 2619
1928.3 -91.698 2619
1931.61 -91.558 2615
1937.86 -91.558 2615
1944.12 -91.558 2615
1947.39 -91.4179 2611
1953.63 -91.4179 2611
1959.88 -91.4179 2611
1966.12 -91.4179 2611
1972.36 -91.4179 2611
1975.58 -91.2779 2607
1978.77 -91.1378 2603
1984.99 -91.1378 2603
1984.33 -90.8227 2594
-2054.5 -89.5013 2744
-2061.37 -90.0884 2762
-2058.49 -90.2515 2767
-2051.87 -90.2515 2767
-2045.25 -90.2515 2767
-2034.95 -90.0884 2762
-2032.02 -90.2515 2767
-2025.4 -90.2515 2767
-2021.71 -90.382 2771
-2018.71 -90.5451 2776
-2032.37 -91.4583 2804
-2025.67 -91.4583 2804
-2029.04 -91.915 2818
-2025.89 -92.0781 2823
-2022.72 -92.2411 2828
-2015.95 -92.2411 2828
-2009.19 -92.2411 2828
-2002.43 -92.2411 2828
-1995.67 -92.2411 2828
-2213.96 -102.679 3148
-2231.66 -103.853 3184
-2240.81 -104.636 3208
-2233.14 -104.636 3208
-2242.81 -105.451 3233
-2266.19 -106.919 3278
-2326.56 -110.148 3377
-2318.48 -110.148 3377
-2315.2 -110.376 3384
-2326.19 -111.29 3412
-2318.03 -111.29 3412
-2309.87 -111.29 3412
-2334.77 -112.888 3461
-2326.49 -112.888 3461
-2318.22 -112.888 3461
-2309.94 -112.888 3461
-2297.01 -112.659 3454
-2270.2 -111.746 3426
-2266.63 -111.974 3433
-2258.42 -111.974 3433
-2250.21 -111.974 3433
-2237.43 -111.746 3426
-2261.77 -113.377 3476
-2253.46 -113.377 3476
-2245.14 -113.377 3476
-2236.83 -113.377 3476
-2228.52 -113.377 3476
-2215.1 -113.116 3468
-2216.35 -113.605 3483
-2235.91 -115.04 3527
-2246.43 -116.019 3557
-2237.92 -116.019 3557
-2229.41 -116.019 3557
-2220.91 -116.019 3557
-2212.4 -116.019 3557
-2203.9 -116.019 3557
-2186.13 -115.53 3542
-2181.97 -115.758 3549
-2173.48 -115.758 3549
-2164.99 -115.758 3549
-2180.2 -117.03 3588
-2195.23 -118.302 3627
-2186.56 -118.302 3627
-2177.88 -118.302 3627
-2169.21 -118.302 3627
-2155.77 -118.041 3619
-2147.12 -118.041 3619
-2133.73 -117.78 3611
-2120.39 -117.519 3603
-2111.78 -117.519 3603
-2103.16 -117.519 3603
-2094.54 -117.519 3603
-2085.93 -117.519 3603
-2068.66 -117.03 3588
-2060.08 -117.03 3588
-2033.78 -116.019 3557
-2025.27 -116.019 3557
-2016.77 -116.019 3557
-2008.26 -116.019 3557
-1999.76 -116.019 3557
-1991.25 -116.019 3557
-1982.74 -116.019 3557
-1974.24 -116.019 3557
-1961.31 -115.758 3549
-1940.72 -115.04 3527
-1928.45 -114.812 3520
-1935.85 -115.758 3549
-1927.36 -115.758 3549
-1931.31 -116.508 3572
-1922.77 -116.508 3572
-1914.23 -116.508 3572
-1905.69 -116.508 3572
-1897.15 -116.508 3572
-1880.67 -116.019 3557
-1872.17 -116.019 3557
-1863.66 -116.019 3557
-1862.98 -116.508 3572
-1858.59 -116.769 3580
-1870.18 -118.041 3619
-1861.53 -118.041 3619
-1852.88 -118.041 3619
-1852.38 -118.563 3635
-1843.68 -118.563 3635
-1834.99 -118.563 3635
-1818.26 -118.041 3619
-1809.6 -118.041 3619
-1800.95 -118.041 3619
-1792.3 -118.041 3619
-1783.64 -118.041 3619
-1774.99 -118.041 3619
-1766.33 -118.041 3619
-1746.02 -117.258 3595
-1730.18 -116.769 3580
-1721.62 -116.769 3580
-1713.06 -116.769 3580
-1704.5 -116.769 3580
-1695.93 -116.769 3580
-1687.37 -116.769 3580
-1678.81 -116.769 3580
-1670.25 -116.769 3580
-1661.69 -116.769 3580
-1646.2 -116.28 3565
-1627.11 -115.53 3542
-1618.64 -115.53 3542
-1606.54 -115.269 3534
-1604.87 -115.758 3549
-1603.58 -116.28 3565
-1598.19 -116.508 3572
-1589.64 -116.508 3572
-1581.1 -116.508 3572
-1572.56 -116.508 3572
-1564.02 -116.508 3572
-1548.94 -116.019 3557
-1540.44 -116.019 3557
-1528.49 -115.758 3549
-1520 -115.758 3549
-1508.53 -115.53 3542
-1493.71 -115.04 3527
-1466.75 -113.605 3483
-1458.42 -113.605 3483
-1440.93 -112.888 3461
-1426.86 -112.431 3447
-1356.88 -107.539 3297
-1322.81 -105.451 3233
-1315.08 -105.451 3233
-1289.96 -104.049 3190
-1275.1 -103.461 3172
-1243.54 -101.504 3112
-1236.1 -101.504 3112
-1201.81 -99.2864 3044
-1179.62 -98.047 3006
-1159.95 -97.0032 2974
-1152.83 -97.0032 2974
-1139.56 -96.4814 2958
-1130.57 -96.3183 2953
-1119.32 -95.9595 2942
-1112.29 -95.9595 2942
-1105.25 -95.9595 2942
-1096.35 -95.7964 2937
-1089.33 -95.7964 2937
-1084.15 -95.9595 2942
-1077.11 -95.9595 2942
-1070.08 -95.9595 2942
-1063.04 -95.9595 2942
-1056.01 -95.9595 2942
-1048.97 -95.9595 2942
-1040.17 -95.7964 2937
-1033.14 -95.7964 2937
-1024.37 -95.6333 2932
-1017.36 -95.6333 2932
-1008.63 -95.4702 2927
-999.917 -95.3072 2922
-992.93 -95.3072 2922
-985.942 -95.3072 2922
-975.27 -94.9484 2911
-968.309 -94.9484 2911
-961.348 -94.9484 2911
-954.386 -94.9484 2911
-947.425 -94.9484 2911
-940.464 -94.9484 2911
-931.9 -94.7853 2906
-924.951 -94.7853 2906
-918.002 -94.7853 2906
-911.052 -94.7853 2906
-902.548 -94.6222 2901
-895.611 -94.6222 2901
-887.142 -94.4591 2896
-880.216 -94.4591 2896
-871.784 -94.296 2891
-864.87 -94.296 2891
-857.957 -94.296 2891
-851.044 -94.296 2891
-844.13 -94.296 2891
-837.217 -94.296 2891
-830.304 -94.296 2891
-821.967 -94.1329 2886
-813.653 -93.9698 2881
-806.764 -93.9698 2881
-799.875 -93.9698 2881
-792.985 -93.9698 2881
-786.096 -93.9698 2881
-779.207 -93.9698 2881
-772.317 -93.9698 2881
-765.428 -93.9698 2881
-758.539 -93.9698 2881
-750.345 -93.8068 2876
-743.467 -93.8068 2876
-736.59 -93.8068 2876
-729.713 -93.8068 2876
-722.835 -93.8068 2876
-715.958 -93.8068 2876
-709.08 -93.8068 2876
-700.982 -93.6437 2871
-692.908 -93.4806 2866
-686.054 -93.4806 2866
-679.201 -93.4806 2866
-671.409 -93.3501 2862
-664.565 -93.3501 2862
-658.641 -93.4806 2866
-651.787 -93.4806 2866
-644.934 -93.4806 2866
-638.08 -93.4806 2866
-632.328 -93.6437 2871
-625.462 -93.6437 2871
-619.674 -93.8068 2876
-613.862 -93.9698 2881
-609.08 -94.296 2891
-604.249 -94.6222 2901
-597.312 -94.6222 2901
-596.684 -95.6333 2932
-600.13 -97.3294 2984
-592.995 -97.3294 2984
-603.137 -100.2 3072
-625.852 -105.255 3227
-624.073 -106.266 3258
-616.282 -106.266 3258
-608.491 -106.266 3258
-600.7 -106.266 3258
-592.909 -106.266 3258
-585.119 -106.266 3258
-578.568 -106.495 3265
-571.809 -106.691 3271
-563.987 -106.691 3271
-556.165 -106.691 3271
-548.344 -106.691 3271
-542.67 -107.115 3284
-539.051 -107.963 3310
-531.136 -107.963 3310
-523.221 -107.963 3310
-515.305 -107.963 3310
-507.39 -107.963 3310
-499.475 -107.963 3310
-489.629 -107.539 3297
-295.669 -69.4092 2128
-291.673 -69.6701 2136
-287.37 -69.8658 2142
-282.248 -69.8658 2142
-277.126 -69.8658 2142
-272.638 -70.0289 2147
-267.504 -70.0289 2147
-262.37 -70.0289 2147
-257.595 -70.1268 2150
-252.454 -70.1268 2150
-247.313 -70.1268 2150
-242.171 -70.1268 2150
-237.361 -70.2246 2153
-232.212 -70.2246 2153
-227.064 -70.2246 2153
-168.507 -71.5945 2195
-163.258 -71.5945 2195
-158.009 -71.5945 2195
-152.133 -71.301 2186
-146.906 -71.301 2186
-141.355 -71.1379 2181
-135.952 -71.04 2178
-130.744 -71.04 2178
-125.535 -71.04 2178
-120.327 -71.04 2178
-114.643 -70.7465 2169
-109.356 -70.6812 2167
-104.029 -70.5834 2164
-98.8546 -70.5834 2164
-93.5499 -70.4855 2161
-88.2596 -70.3877 2158
-82.9067 -70.2246 2153
-77.7582 -70.2246 2153
-72.5085 -70.1268 2150
-67.3672 -70.1268 2150
-62.0523 -69.9311 2144
-56.9253 -69.9311 2144
-51.7984 -69.9311 2144
-46.6279 -69.8658 2142
-41.4476 -69.768 2139
-36.3326 -69.768 2139
-31.2176 -69.768 2139
-26.066 -69.6701 2136
-20.9582 -69.6701 2136
-15.8503 -69.6701 2136
-10.7174 -69.507 2131
-5.61359 -69.4092 2128
-0.524896 -69.4092 2128
4.5638 -69.4092 2128
9.65249 -69.4092 2128
14.7204 -69.3113 2125
19.8019 -69.3113 2125
24.8834 -69.3113 2125
29.965 -69.3113 2125
34.997 -69.2135 2122
40.0713 -69.2135 2122
45.2095 -69.3113 2125
50.291 -69.3113 2125
55.3726 -69.3113 2125
60.4541 -69.3113 2125
65.4431 -69.2135 2122
70.5174 -69.2135 2122
75.5918 -69.2135 2122
80.6661 -69.2135 2122
85.8617 -69.3113 2125
90.9432 -69.3113 2125
96.0247 -69.3113 2125
101.106 -69.3113 2125
106.338 -69.4092 2128
111.583 -69.507 2131
116.679 -69.507 2131
121.775 -69.507 2131
126.871 -69.507 2131
132.091 -69.5723 2133
137.384 -69.6701 2136
142.492 -69.6701 2136
147.6 -69.6701 2136
153.137 -69.8658 2142
158.259 -69.8658 2142
163.381 -69.8658 2142
168.503 -69.8658 2142
173.788 -69.9311 2144
179.165 -70.0289 2147
184.299 -70.0289 2147
189.698 -70.1268 2150
195.292 -70.2898 2155
200.725 -70.3877 2158
205.885 -70.3877 2158
211.632 -70.5834 2164
217.108 -70.6812 2167
222.29 -70.6812 2167
227.471 -70.6812 2167
233.19 -70.8443 2172
238.713 -70.9422 2175
244.587 -71.1379 2181
249.803 -71.1379 2181
255.018 -71.1379 2181
260.234 -71.1379 2181
265.449 -71.1379 2181
269.92 -70.9422 2175
275.121 -70.9422 2175
279.935 -70.8443 2172
286.311 -71.1379 2181
292.195 -71.301 2186
297.422 -71.301 2186
303.065 -71.3988 2189
309.567 -71.6924 2198
317.258 -72.2469 2215
322.555 -72.2469 2215
327.851 -72.2469 2215
517.229 -95.4702 2927
524.229 -95.4702 2927
531.228 -95.4702 2927
538.228 -95.4702 2927
545.227 -95.4702 2927
552.226 -95.4702 2927
559.226 -95.4702 2927
565.258 -95.3072 2922
572.245 -95.3072 2922
576.061 -94.7853 2906
582.007 -94.6222 2901
586.914 -94.296 2891
593.827 -94.296 2891
600.74 -94.296 2891
605.552 -93.9698 2881
612.441 -93.9698 2881
619.33 -93.9698 2881
626.22 -93.9698 2881
632.01 -93.8068 2876
638.888 -93.8068 2876
644.642 -93.6437 2871
651.508 -93.6437 2871
658.373 -93.6437 2871
665.239 -93.6437 2871
672.104 -93.6437 2871
678.97 -93.6437 2871
685.835 -93.6437 2871
692.7 -93.6437 2871
699.566 -93.6437 2871
706.431 -93.6437 2871
713.297 -93.6437 2871
718.908 -93.4806 2866
725.761 -93.4806 2866
732.615 -93.4806 2866
739.468 -93.4806 2866
746.322 -93.4806 2866
752.124 -93.3501 2862
760.029 -93.4806 2866
766.882 -93.4806 2866
773.736 -93.4806 2866
780.589 -93.4806 2866
787.443 -93.4806 2866
794.296 -93.4806 2866
801.15 -93.4806 2866
808.003 -93.4806 2866
814.857 -93.4806 2866
821.71 -93.4806 2866
827.407 -93.3501 2862
834.251 -93.3501 2862
841.095 -93.3501 2862
847.939 -93.3501 2862
854.783 -93.3501 2862
861.627 -93.3501 2862
868.471 -93.3501 2862
875.314 -93.3501 2862
882.158 -93.3501 2862
891.798 -93.6437 2871
898.663 -93.6437 2871
907.106 -93.8068 2876
913.983 -93.8068 2876
920.861 -93.8068 2876
929.351 -93.9698 2881
937.865 -94.1329 2886
951.314 -94.7853 2906
958.263 -94.7853 2906
966.873 -94.9484 2911
979.186 -95.4702 2927
992.924 -96.1226 2947
999.971 -96.1226 2947
1021.71 -97.5251 2990
1079.1 -102.287 3136
1086.6 -102.287 3136
1102.47 -103.07 3160
1110.03 -103.07 3160
1239.6 -114.323 3505
1247.98 -114.323 3505
1266.76 -115.269 3534
1280.62 -115.758 3549
1300.37 -116.769 3580
1308.93 -116.769 3580
1320.43 -117.03 3588
1329.01 -117.03 3588
1349.15 -118.041 3619
1357.81 -118.041 3619
1366.46 -118.041 3619
1375.11 -118.041 3619
1383.77 -118.041 3619
1383.19 -117.258 3595
1385.98 -116.769 3580
1388.69 -116.28 3565
1397.22 -116.28 3565
1396.68 -115.53 3542
1399.19 -115.04 3527
1401.64 -114.551 3512
1401.21 -113.834 3490
1409.55 -113.834 3490
1415.06 -113.605 3483
1420.52 -113.377 3476
1416.92 -112.431 3447
1425.16 -112.431 3447
1427.58 -111.974 3433
1429.93 -111.518 3419
1429.28 -110.833 3398
1437.4 -110.833 3398
1430.64 -109.691 3363
1430.12 -109.039 3343
1435.54 -108.843 3337
1449.14 -109.267 3350
1457.15 -109.267 3350
1465.16 -109.267 3350
1467.46 -108.843 3337
1469.25 -108.387 3323
1477.19 -108.387 3323
1479.33 -107.963 3310
1487.24 -107.963 3310
1492 -107.734 3303
1499.9 -107.734 3303
1507.79 -107.734 3303
1524.87 -108.387 3323
1583.56 -111.974 3433
1604.75 -112.888 3461
1613.02 -112.888 3461
1628.33 -113.377 3476
1636.64 -113.377 3476
1672.4 -115.269 3534
1680.85 -115.269 3534
1696.47 -115.758 3549
1704.96 -115.758 3549
1713.44 -115.758 3549
1721.93 -115.758 3549
1723.1 -115.269 3534
1735.48 -115.53 3542
1743.95 -115.53 3542
1752.42 -115.53 3542
1760.89 -115.53 3542
1758.37 -114.812 3520
1766.78 -114.812 3520
1782.26 -115.269 3534
1790.71 -115.269 3534
1803.24 -115.53 3542
1811.71 -115.53 3542
1820.18 -115.53 3542
1824.52 -115.269 3534
1825.7 -114.812 3520
1799.73 -112.659 3454
1807.99 -112.659 3454
1805.21 -111.974 3433
1806.02 -111.518 3419
1784.48 -109.691 3363
1785.6 -109.267 3350
1793.61 -109.267 3350
1780.11 -107.963 3310
1773.98 -107.115 3284
1764.47 -106.071 3252
1772.24 -106.071 3252
1742.8 -103.853 3184
1717.43 -101.896 3124
1627.17 -96.1226 2947
1634.22 -96.1226 2947
1641.26 -96.1226 2947
1639.92 -95.6333 2932
1638.51 -95.1441 2917
1630.82 -94.296 2891
1637.73 -94.296 2891
1636.11 -93.8068 2876
1632.13 -93.187 2857
1624.62 -92.3716 2832
1629.09 -92.2411 2828
1635.85 -92.2411 2828
1628.68 -91.4583 2804
1635.38 -91.4583 2804
1633.89 -91.0017 2790
1640.56 -91.0017 2790
1641.33 -90.6755 2780
1645.6 -90.5451 2776
1643.91 -90.0884 2762
1650.51 -90.0884 2762
1651.72 -89.7949 2753
1655.29 -89.6318 2748
1659.44 -89.5013 2744
1666 -89.5013 2744
1672.57 -89.5013 2744
1673.62 -89.2078 2735
1677.09 -89.0447 2730
1675.6 -88.6207 2717
1682.1 -88.6207 2717
1686.11 -88.4902 2713
1692.6 -88.4902 2713
1695.95 -88.3271 2708
1702.43 -88.3271 2708
1708.9 -88.3271 2708
1715.38 -88.3271 2708
1721.85 -88.3271 2708
1725.78 -88.1966 2704
1732.24 -88.1966 2704
1738.71 -88.1966 2704
1741.95 -88.0335 2699
1745.81 -87.9031 2695
1752.26 -87.9031 2695
1756.09 -87.7726 2691
1756.63 -87.479 2682
1757.13 -87.1855 2673
1763.52 -87.1855 2673
1769.91 -87.1855 2673
1770.99 -86.9246 2665
1777.36 -86.9246 2665
1783.73 -86.9246 2665
1790.11 -86.9246 2665
1793.78 -86.7941 2661
1800.15 -86.7941 2661
1803.11 -86.631 2656
1809.47 -86.631 2656
1815.82 -86.631 2656
1816.68 -86.3701 2648
1820.26 -86.2396 2644
1826.58 -86.2396 2644
1832.9 -86.2396 2644
1839.23 -86.2396 2644
1842.76 -86.1091 2640
1849.07 -86.1091 2640
1851.87 -85.946 2635
1858.17 -85.946 2635
1864.47 -85.946 2635
1870.77 -85.946 2635
1877.07 -85.946 2635
1883.37 -85.946 2635
1886.81 -85.8156 2631
1893.1 -85.8156 2631
1899.39 -85.8156 2631
1905.68 -85.8156 2631
1911.97 -85.8156 2631
1915.35 -85.6851 2627
1921.63 -85.6851 2627
1927.91 -85.6851 2627
1931.25 -85.5546 2623
1937.52 -85.5546 2623
1943.79 -85.5546 2623
1950.07 -85.5546 2623
1956.34 -85.5546 2623
1962.61 -85.5546 2623
1965.88 -85.4242 2619
1972.14 -85.4242 2619
1978.41 -85.4242 2619
1978.61 -85.1632 2611
1981.81 -85.0328 2607
1988.04 -85.0328 2607
1984.33 -84.6087 2594
-2054.5 -82.928 2744
-2054.66 -83.2 2753
-2054.77 -83.472 2762
-2048.16 -83.472 2762
-2041.56 -83.472 2762
-2034.95 -83.472 2762
-2028.35 -83.472 2762
-2021.74 -83.472 2762
-2015.14 -83.472 2762
-2015.08 -83.744 2771
-2018.6 -84.1671 2785
-2011.94 -84.1671 2785
-2018.96 -84.7413 2804
-2022.3 -85.1644 2818
-2015.56 -85.1644 2818
-2008.83 -85.1644 2818
-2002.09 -85.1644 2818
-1995.35 -85.1644 2818
-1988.61 -85.1644 2818
-2201.3 -94.5936 3130
-2227.46 -96.0442 3178
-2236.62 -96.7695 3202
-2228.96 -96.7695 3202
-2238.65 -97.5251 3227
-2252.36 -98.4619 3258
-2326.56 -102.058 3377
-2318.48 -102.058 3377
-2315.2 -102.27 3384
-2326.19 -103.116 3412
-2318.03 -103.116 3412
-2309.87 -103.116 3412
-2334.77 -104.597 3461
-2326.49 -104.597 3461
-2318.22 -104.597 3461
-2309.94 -104.597 3461
-2297.01 -104.385 3454
-2270.2 -103.539 3426
-2266.63 -103.751 3433
-2258.42 -103.751 3433
-2250.21 -103.751 3433
-2237.43 -103.539 3426
-2242.9 -104.174 3447
-2234.66 -104.174 3447
-2239.98 -104.808 3468
-2231.68 -104.808 3468
-2223.39 -104.808 3468
-2210.63 -104.597 3461
-2216.35 -105.262 3483
-2231.48 -106.38 3520
-2236.95 -107.045 3542
-2228.48 -107.045 3542
-2220.01 -107.045 3542
-2211.54 -107.045 3542
-2203.07 -107.045 3542
-2194.6 -107.045 3542
-2181.19 -106.803 3534
-2172.74 -106.803 3534
-2173.48 -107.256 3549
-2164.99 -107.256 3549
-2170.48 -107.952 3572
-2190.39 -109.372 3619
-2181.73 -109.372 3619
-2173.08 -109.372 3619
-2164.42 -109.372 3619
-2155.77 -109.372 3619
-2147.12 -109.372 3619
-2138.46 -109.372 3619
-2129.81 -109.372 3619
-2121.15 -109.372 3619
-2112.5 -109.372 3619
-2094.54 -108.888 3603
-2085.93 -108.888 3603
-2068.66 -108.435 3588
-2060.08 -108.435 3588
-2038.35 -107.74 3565
-2029.83 -107.74 3565
-2021.3 -107.74 3565
-2012.78 -107.74 3565
-2004.25 -107.74 3565
-1995.73 -107.74 3565
-1987.2 -107.74 3565
-1978.68 -107.74 3565
-1965.73 -107.498 3557
-1944.57 -106.803 3534
-1924.07 -106.138 3512
-1923.85 -106.592 3527
-1915.42 -106.592 3527
-1918.88 -107.256 3549
-1914.7 -107.498 3557
-1906.19 -107.498 3557
-1897.69 -107.498 3557
-1889.18 -107.498 3557
-1872.74 -107.045 3542
-1864.27 -107.045 3542
-1851.61 -106.803 3534
-1828.04 -105.927 3505
-1846.65 -107.498 3557
-1845.9 -107.952 3572
-1837.35 -107.952 3572
-1832.91 -108.193 3580
-1824.35 -108.193 3580
-1815.79 -108.193 3580
-1803.19 -107.952 3572
-1794.65 -107.952 3572
-1778.6 -107.498 3557
-1774.08 -107.74 3565
-1765.55 -107.74 3565
-1757.03 -107.74 3565
-1748.5 -107.74 3565
-1728.75 -107.045 3542
-1720.28 -107.045 3542
-1707.95 -106.803 3534
-1703.34 -107.045 3542
-1694.87 -107.045 3542
-1686.4 -107.045 3542
-1677.93 -107.045 3542
-1672.76 -107.256 3549
-1664.28 -107.256 3549
-1655.79 -107.256 3549
-1647.3 -107.256 3549
-1638.82 -107.256 3549
-1613.33 -106.138 3512
-1611.79 -106.592 3527
-1603.35 -106.592 3527
-1601.7 -107.045 3542
-1603.58 -107.74 3565
-1595.05 -107.74 3565
-1586.53 -107.74 3565
-1578 -107.74 3565
-1565.96 -107.498 3557
-1557.45 -107.498 3557
-1545.46 -107.256 3549
-1536.97 -107.256 3549
-1525.47 -107.045 3542
-1517 -107.045 3542
-1508.53 -107.045 3542
-1493.71 -106.592 3527
-1466.75 -105.262 3483
-1458.42 -105.262 3483
-1443.84 -104.808 3468
-1429.76 -104.385 3454
-1365.11 -100.245 3317
-1335.91 -98.6735 3265
-1328.1 -98.6735 3265
-1304.92 -97.5251 3227
-1277.51 -96.0442 3178
-1250.73 -94.5936 3130
-1243.25 -94.5936 3130
-1221.94 -93.5358 3095
-1194.53 -91.9945 3044
-1172.43 -90.8461 3006
-1165.24 -90.8461 3006
-1145.72 -89.879 2974
-1132.49 -89.3955 2958
-1123.51 -89.2443 2953
-1112.29 -88.9119 2942
-1105.25 -88.9119 2942
-1098.22 -88.9119 2942
-1091.18 -88.9119 2942
-1085.99 -89.063 2947
-1078.94 -89.063 2947
-1071.9 -89.063 2947
-1064.85 -89.063 2947
-1057.8 -89.063 2947
-1050.76 -89.063 2947
-1043.71 -89.063 2947
-1036.66 -89.063 2947
-1026.12 -88.7608 2937
-1019.1 -88.7608 2937
-1012.07 -88.7608 2937
-1001.63 -88.4586 2927
-994.629 -88.4586 2927
-987.63 -88.4586 2927
-978.955 -88.3075 2922
-971.968 -88.3075 2922
-964.98 -88.3075 2922
-957.993 -88.3075 2922
-951.005 -88.3075 2922
-944.018 -88.3075 2922
-935.427 -88.1564 2917
-928.452 -88.1564 2917
-921.476 -88.1564 2917
-914.501 -88.1564 2917
-904.103 -87.8239 2906
