-2397.77 66.1553 3740
-2378.61 65.8723 3724
-2343.62 65.1471 3683
-2334.81 65.1471 3683
-2320.95 65.0056 3675
-2301.47 64.7049 3658
-2308.39 65.1471 3683
-2299.58 65.1471 3683
-2290.77 65.1471 3683
-2281.97 65.1471 3683
-2268.22 65.0056 3675
-2254.51 64.8641 3667
-2245.75 64.8641 3667
-2232.91 68.7909 3889
-2223.61 68.7909 3889
-2214.31 68.7909 3889
-2225.42 69.4277 3925
-2216.03 69.4277 3925
-2206.65 69.4277 3925
-2197.26 69.4277 3925
-2128.23 67.535 3818
-2119.1 67.535 3818
-2109.97 67.535 3818
-2115.15 67.9949 3844
-2105.95 67.9949 3844
-2096.76 67.9949 3844
-2059.33 67.0751 3792
-2036.21 66.6152 3766
-2008.9 66.0138 3732
-1999.97 66.0138 3732
-1991.05 66.0138 3732
-1986.37 66.1553 3740
-1986.42 66.456 3757
-1982.17 66.6152 3766
-1973.17 66.6152 3766
-1973.03 66.9159 3783
-1963.98 66.9159 3783
-1954.93 66.9159 3783
-1945.89 66.9159 3783
-1928.14 66.6152 3766
-1919.13 66.6152 3766
-1914.18 66.7567 3774
-1905.16 66.7567 3774
-1896.13 66.7567 3774
-1878.61 66.456 3757
-1869.62 66.456 3757
-1860.64 66.456 3757
-1856.09 66.6152 3766
-1855.42 66.9159 3783
-1850.77 67.0751 3792
-1841.7 67.0751 3792
-1832.64 67.0751 3792
-1865.89 68.6317 3880
-1856.61 68.6317 3880
-1847.33 68.6317 3880
-1838.05 68.6317 3880
-1828.77 68.6317 3880
-1819.5 68.6317 3880
-1810.22 68.6317 3880
-1792.58 68.3133 3862
-1766.72 67.6765 3826
-1757.58 67.6765 3826
-1736.55 67.2166 3800
-1719.73 66.9159 3783
-1710.68 66.9159 3783
-1701.64 66.9159 3783
-1692.59 66.9159 3783
-1683.54 66.9159 3783
-1662.99 66.456 3757
-1621.43 65.1471 3683
-1612.62 65.1471 3683
-1582.91 64.298 3635
-1560.36 63.732 3603
-1548.3 63.5905 3595
-1539.7 63.5905 3595
-1492.77 61.9985 3505
-1465.76 61.2202 3461
-1436.85 60.3535 3412
-1428.69 60.3535 3412
-1414.7 60.1058 3398
-1394.98 59.6105 3370
-1381.58 59.3806 3357
-1359.64 58.7792 3323
-1351.69 58.7792 3323
-1341.32 58.6731 3317
-1317.71 57.9832 3278
-1289.49 57.0811 3227
-1281.77 57.0811 3227
-1264.19 56.6389 3202
-1251.82 56.4266 3190
-1237.17 56.1082 3172
-1229.59 56.1082 3172
-1210.44 55.5775 3142
-1198.34 55.3653 3130
-1177.54 54.7462 3095
-1170.13 54.7462 3095
-1158.6 54.5516 3084
-1136.29 53.8441 3044
-1127.16 53.7556 3039
-1119.89 53.7556 3039
-1112.63 53.7556 3039
-1105.36 53.7556 3039
-1098.09 53.7556 3039
-1084.72 53.4549 3022
-1077.5 53.4549 3022
-1068.5 53.3665 3017
-1059.17 53.2603 3011
-1050.23 53.1719 3006
-1043.04 53.1719 3006
-1033.78 53.0658 3000
-1024.9 52.9773 2995
-1012.3 52.6943 2979
-1005.18 52.6943 2979
-998.052 52.6943 2979
-990.928 52.6943 2979
-983.804 52.6943 2979
-978.32 52.7828 2984
-971.184 52.7828 2984
-964.049 52.7828 2984
-955.31 52.6943 2979
-948.186 52.6943 2979
-941.062 52.6943 2979
-933.938 52.6943 2979
-923.392 52.4997 2968
-916.295 52.4997 2968
-909.198 52.4997 2968
-900.581 52.4113 2963
-891.987 52.3228 2958
-884.914 52.3228 2958
-877.84 52.3228 2958
-870.767 52.3228 2958
-863.694 52.3228 2958
-856.62 52.3228 2958
-849.547 52.3228 2958
-841.049 52.2344 2953
-832.293 52.1283 2947
-823.846 52.0398 2942
-816.81 52.0398 2942
-808.399 51.9514 2937
-800.011 51.8629 2932
-791.648 51.7745 2927
-784.648 51.7745 2927
-777.649 51.7745 2927
-768.017 51.5976 2917
-761.042 51.5976 2917
-754.066 51.5976 2917
-747.091 51.5976 2917
-740.115 51.5976 2917
-731.632 51.4915 2911
-724.671 51.4915 2911
-717.71 51.4915 2911
-710.749 51.4915 2911
-703.787 51.4915 2911
-696.826 51.4915 2911
-685.126 51.1377 2891
-677.039 51.0493 2886
-670.138 51.0493 2886
-663.237 51.0493 2886
-656.335 51.0493 2886
-649.434 51.0493 2886
-642.533 51.0493 2886
-636.733 51.1377 2891
-629.82 51.1377 2891
-622.906 51.1377 2891
-619.189 51.403 2906
-612.24 51.403 2906
-605.291 51.403 2906
-601.636 51.6861 2922
-609.505 52.9773 2995
-602.343 52.9773 2995
-595.181 52.9773 2995
-662.841 62.7768 3549
-654.354 62.7768 3549
-645.867 62.7768 3549
-641.511 63.1836 3572
-632.969 63.1836 3572
-624.428 63.1836 3572
-614.679 63.0598 3565
-606.154 63.0598 3565
-597.629 63.0598 3565
-590.261 63.1836 3572
-581.719 63.1836 3572
-573.177 63.1836 3572
-565.9 63.3252 3580
-557.339 63.3252 3580
-548.778 63.3252 3580
-540.218 63.3252 3580
-531.657 63.3252 3580
-527.625 63.8735 3611
-520.14 64.015 3619
-511.486 64.015 3619
-502.832 64.015 3619
-495.27 64.1565 3627
-489.683 64.5634 3650
-480.954 64.5634 3650
-472.226 64.5634 3650
-465.657 64.8641 3667
-457.884 65.0056 3675
-449.096 65.0056 3675
-445.221 65.7308 3716
-436.335 65.7308 3716
-427.449 65.7308 3716
-418.562 65.7308 3716
-260.513 41.7981 2363
-254.862 41.7981 2363
-249.211 41.7981 2363
-244.592 41.975 2373
-239.219 42.0281 2376
-234.225 42.1519 2383
-228.527 42.1519 2383
-223.483 42.2757 2390
-217.768 42.2757 2390
-212.052 42.2757 2390
-206.337 42.2757 2390
-200.37 42.2227 2387
-193.765 42.0281 2376
-187.608 41.922 2370
-181.941 41.922 2370
-175.976 41.8512 2366
-169.886 41.7451 2360
-163.06 41.4444 2343
-157.457 41.4444 2343
-151.465 41.3382 2337
-145.253 41.1614 2327
-138.728 40.8783 2311
-133.201 40.8783 2311
-126.957 40.6484 2298
-120.457 40.3123 2279
-113.746 39.8701 2254
-108.356 39.8701 2254
-102.829 39.817 2251
-97.0564 39.6578 2242
-90.7136 39.2333 2218
-84.8706 38.9857 2204
-79.6001 38.9857 2204
-73.8238 38.7203 2189
-68.4326 38.6319 2184
-63.0363 38.5257 2178
-57.8281 38.5257 2178
-52.4749 38.4196 2172
-47.1721 38.3312 2167
-41.932 38.2781 2164
-36.7572 38.2781 2164
-31.4949 38.172 2158
-26.2734 38.0835 2153
-21.0955 38.0305 2150
-15.9542 38.0305 2150
-10.7828 37.9243 2144
-5.65052 37.889 2142
-0.526129 37.7298 2133
4.5638 37.6413 2128
9.65249 37.6413 2128
14.6858 37.4998 2120
19.7274 37.4467 2117
24.7546 37.3937 2114
29.8098 37.3937 2114
34.8321 37.3583 2112
39.8825 37.3583 2112
44.9329 37.3583 2112
49.9834 37.3583 2112
54.9556 37.3052 2109
59.9135 37.2522 2106
64.8879 37.2168 2104
69.9193 37.2168 2104
74.8437 37.1637 2101
79.8678 37.1637 2101
84.8919 37.1637 2101
89.9161 37.1637 2101
94.9402 37.1637 2101
99.8216 37.1107 2098
104.988 37.1637 2101
110.013 37.1637 2101
115.037 37.1637 2101
120.061 37.1637 2101
125.085 37.1637 2101
130.109 37.1637 2101
135.133 37.1637 2101
140.157 37.1637 2101
144.836 37.0753 2096
149.491 36.9868 2091
154.491 36.9868 2091
159.262 36.9338 2088
163.862 36.8453 2083
168.438 36.7569 2078
173.407 36.7569 2078
178.119 36.7038 2075
182.816 36.6508 2072
186.864 36.4739 2062
191.795 36.4739 2062
196.535 36.4385 2060
200.19 36.2085 2047
204.283 36.067 2039
208.954 36.0317 2037
213.825 36.0317 2037
218.16 35.9432 2032
221.702 35.731 2020
224.85 35.4656 2005
229.644 35.4656 2005
234.205 35.4302 2003
238.398 35.3418 1998
243.42 35.3772 2000
248.202 35.3772 2000
252.985 35.3772 2000
257.767 35.3772 2000
414.976 53.9502 3050
422.269 53.9502 3050
430.267 54.0386 3055
437.572 54.0386 3055
444.878 54.0386 3055
451.443 53.9502 3050
454.525 53.4549 3022
458.39 53.0658 3000
465.564 53.0658 3000
472.738 53.0658 3000
479.112 52.9773 2995
485.462 52.8889 2990
492.612 52.8889 2990
496.085 52.4997 2968
499.622 52.1283 2947
505.81 52.0398 2942
509.359 51.6861 2922
516.346 51.6861 2922
523.333 51.6861 2922
530.321 51.6861 2922
536.389 51.5976 2917
543.364 51.5976 2917
550.34 51.5976 2917
557.315 51.5976 2917
563.13 51.4915 2911
570.091 51.4915 2911
577.052 51.4915 2911
583.01 51.403 2906
589.959 51.403 2906
596.908 51.403 2906
603.857 51.403 2906
610.806 51.403 2906
617.755 51.403 2906
624.705 51.403 2906
631.654 51.403 2906
638.603 51.403 2906
645.552 51.403 2906
652.501 51.403 2906
659.45 51.403 2906
665.253 51.3146 2901
672.19 51.3146 2901
679.127 51.3146 2901
686.064 51.3146 2901
693.001 51.3146 2901
699.939 51.3146 2901
706.876 51.3146 2901
713.813 51.3146 2901
720.75 51.3146 2901
728.942 51.403 2906
735.891 51.403 2906
742.84 51.403 2906
749.789 51.403 2906
756.738 51.403 2906
765.001 51.4915 2911
771.962 51.4915 2911
778.923 51.4915 2911
785.884 51.4915 2911
792.845 51.4915 2911
799.807 51.4915 2911
806.768 51.4915 2911
813.729 51.4915 2911
820.69 51.4915 2911
827.651 51.4915 2911
834.612 51.4915 2911
841.573 51.4915 2911
848.534 51.4915 2911
855.495 51.4915 2911
862.456 51.4915 2911
869.417 51.4915 2911
876.378 51.4915 2911
881.822 51.403 2906
888.771 51.403 2906
895.721 51.403 2906
902.67 51.403 2906
913.062 51.5976 2917
920.037 51.5976 2917
927.013 51.5976 2917
937.19 51.7745 2927
954.189 52.3228 2958
964.513 52.4997 2968
971.61 52.4997 2968
982.335 52.6943 2979
1003.74 53.4549 3022
1014.65 53.6495 3033
1021.9 53.6495 3033
1052.23 54.8523 3101
1069.55 55.3653 3130
1093.55 56.2143 3178
1101.15 56.2143 3178
1139.1 57.7532 3265
1172.2 59.0268 3337
1211.66 60.6011 3426
1219.85 60.6011 3426
1245.97 61.4855 3476
1264.74 61.9985 3505
1273.13 61.9985 3505
1281.51 61.9985 3505
1284.37 61.7332 3490
1303.83 62.2638 3520
1312.24 62.2638 3520
1320.66 62.2638 3520
1329.08 62.2638 3520
1337.5 62.2638 3520
1345.91 62.2638 3520
1354.33 62.2638 3520
1356.94 61.9985 3505
1350.91 61.344 3468
1345.49 60.7249 3433
1353.69 60.7249 3433
1350.8 60.2296 3405
1358.94 60.2296 3405
1353.03 59.6105 3370
1361.09 59.6105 3370
1363.86 59.3806 3357
1355.55 58.6731 3317
1363.48 58.6731 3317
1371.41 58.6731 3317
1371.02 58.3193 3297
1375.98 58.1955 3290
1381.32 58.0893 3284
1386.64 57.9832 3278
1394.48 57.9832 3278
1402.32 57.9832 3278
1410.16 57.9832 3278
1414.97 57.8594 3271
1425.83 57.9832 3278
1433.67 57.9832 3278
1444.15 58.0893 3284
1472.34 58.903 3330
1501.2 59.7344 3377
1509.27 59.7344 3377
1529.93 60.2296 3405
1553.88 60.8487 3440
1565.29 60.9726 3447
1573.53 60.9726 3447
1584.98 61.0964 3454
1593.24 61.0964 3454
1601.5 61.0964 3454
1606.5 60.9726 3447
1614.74 60.9726 3447
1622.99 60.9726 3447
1631.23 60.9726 3447
1629.48 60.6011 3426
1637.68 60.6011 3426
1642.51 60.4773 3419
1650.68 60.4773 3419
1658.86 60.4773 3419
1663.62 60.3535 3412
1671.78 60.3535 3412
1669.6 59.982 3391
1677.71 59.982 3391
1682.34 59.8582 3384
1676.94 59.3806 3357
1681.46 59.2568 3350
1689.47 59.2568 3350
1690.89 59.0268 3337
1688.69 58.6731 3317
1693.04 58.5492 3310
1700.95 58.5492 3310
1708.87 58.5492 3310
1716.78 58.5492 3310
1724.7 58.5492 3310
1732.62 58.5492 3310
1740.53 58.5492 3310
1748.45 58.5492 3310
1756.36 58.5492 3310
1764.28 58.5492 3310
1772.19 58.5492 3310
1769.35 58.1955 3290
1766.95 57.8594 3271
1761.21 57.4172 3246
1768.97 57.4172 3246
1759.22 56.8511 3214
1750.41 56.3205 3184
1738.15 55.6837 3148
1735.7 55.3653 3130
1743.18 55.3653 3130
1721.58 54.4455 3078
1697.49 53.4549 3022
1680.46 52.6943 2979
1687.58 52.6943 2979
1670.81 51.9514 2937
1648.7 51.0493 2886
1644.13 50.6955 2866
1642.92 50.4479 2852
1649.74 50.4479 2852
1653.65 50.3594 2847
1651.71 50.0941 2832
1653.21 49.9349 2823
1659.96 49.9349 2823
1660.81 49.758 2813
1665.17 49.6872 2809
1668.91 49.5988 2804
1675.61 49.5988 2804
1679.32 49.5104 2799
1686.01 49.5104 2799
1689.68 49.4219 2794
1696.36 49.4219 2794
1703.04 49.4219 2794
1707.28 49.3512 2790
1710.88 49.2627 2785
1714.45 49.1743 2780
1721.1 49.1743 2780
1725.26 49.1035 2776
1726.29 48.9443 2767
1729.77 48.8559 2762
1736.38 48.8559 2762
1742.98 48.8559 2762
1743.88 48.6967 2753
1750.47 48.6967 2753
1757.05 48.6967 2753
1763.63 48.6967 2753
1770.22 48.6967 2753
1773.57 48.6082 2748
1777.55 48.5375 2744
1784.12 48.5375 2744
1787.41 48.449 2739
1793.96 48.449 2739
1797.88 48.3783 2735
1804.42 48.3783 2735
1805.01 48.2191 2726
1811.52 48.2191 2726
1818.04 48.2191 2726
1824.56 48.2191 2726
1831.08 48.2191 2726
1834.23 48.1307 2721
1840.73 48.1307 2721
1847.24 48.1307 2721
1853.75 48.1307 2721
1857.52 48.0599 2717
1861.27 47.9891 2713
1864.32 47.9007 2708
1870.79 47.9007 2708
1871.03 47.7415 2699
1877.49 47.7415 2699
1881.15 47.6707 2695
1887.59 47.6707 2695
1894.04 47.6707 2695
1900.48 47.6707 2695
1904.1 47.6 2691
1910.53 47.6 2691
1916.97 47.6 2691
1919.83 47.5116 2686
1926.25 47.5116 2686
1932.67 47.5116 2686
1942.71 47.6 2691
1949.14 47.6 2691
1955.58 47.6 2691
1955.45 47.4408 2682
1961.86 47.4408 2682
1968.28 47.4408 2682
1974.69 47.4408 2682
1981.1 47.4408 2682
1987.52 47.4408 2682
1993.93 47.4408 2682
1997.36 47.37 2678
1997.03 47.2108 2669
2003.41 47.2108 2669
2012.81 47.2816 2673
2019.2 47.2816 2673
2029.38 47.37 2678
2051.75 47.7415 2699
2058.2 47.7415 2699
2064.66 47.7415 2699
-2085.2 55.9342 2785
-2078.54 55.9342 2785
-2071.88 55.9342 2785
-2058.54 55.7535 2776
-2048.21 55.653 2771
-2041.58 55.653 2771
-2034.96 55.653 2771
-2021.74 55.4723 2762
-2011.49 55.3719 2757
-2004.9 55.3719 2757
-1998.31 55.3719 2757
-1991.71 55.3719 2757
-1972.16 55.0103 2739
-1956.28 54.7493 2726
-1949.76 54.7493 2726
-1930.41 54.3877 2708
-1899.07 53.6848 2673
-1869.31 53.022 2640
-1863 53.022 2640
-2446.65 75.7974 3774
-2437.62 75.7974 3774
-2428.6 75.7974 3774
-2397.77 75.1145 3740
-2378.61 74.7932 3724
-2343.62 73.9697 3683
-2334.81 73.9697 3683
-2320.95 73.8091 3675
-2301.47 73.4676 3658
-2292.72 73.4676 3658
-2289.59 73.6484 3667
-2280.82 73.6484 3667
-2272.05 73.6484 3667
-2263.28 73.6484 3667
-2115.15 77.2033 3844
-2105.95 77.2033 3844
-2096.76 77.2033 3844
-2059.33 76.1589 3792
-2036.21 75.6367 3766
-2008.9 74.9539 3732
-1999.97 74.9539 3732
-1991.05 74.9539 3732
-1986.37 75.1145 3740
-1986.42 75.456 3757
-1982.17 75.6367 3766
-1973.17 75.6367 3766
-1973.03 75.9781 3783
-1963.98 75.9781 3783
-1954.93 75.9781 3783
-1945.89 75.9781 3783
-1928.14 75.6367 3766
-1919.13 75.6367 3766
-1914.18 75.7974 3774
-1905.16 75.7974 3774
-1896.13 75.7974 3774
-1878.61 75.456 3757
-1869.62 75.456 3757
-1860.64 75.456 3757
-1865.89 77.9263 3880
-1856.61 77.9263 3880
-1847.33 77.9263 3880
-1838.05 77.9263 3880
-1828.77 77.9263 3880
-1819.5 77.9263 3880
-1810.22 77.9263 3880
-1792.58 77.5648 3862
-1766.72 76.8418 3826
-1757.58 76.8418 3826
-1736.55 76.3196 3800
-1719.73 75.9781 3783
-1710.68 75.9781 3783
-1701.64 75.9781 3783
-1692.59 75.9781 3783
-1683.54 75.9781 3783
-1662.99 75.456 3757
-1621.43 73.9697 3683
-1612.62 73.9697 3683
-1582.91 73.0057 3635
-1560.36 72.363 3603
-1548.3 72.2023 3595
-1539.7 72.2023 3595
-1489.37 70.2341 3497
-1459.83 69.2299 3447
-1430.95 68.2458 3398
-1422.83 68.2458 3398
-1411.79 68.1052 3391
-1394.98 67.6834 3370
-1362.23 66.4784 3310
-1354.32 66.4784 3310
-1346.4 66.4784 3310
-1338.49 66.4784 3310
-1314.89 65.6951 3271
-1287.09 64.6909 3221
-1279.39 64.6909 3221
-1264.19 64.3093 3202
-1251.82 64.0683 3190
-1237.17 63.7068 3172
-1229.59 63.7068 3172
-1208.13 62.9837 3136
-1198.34 62.8632 3130
-1177.54 62.1603 3095
-1170.13 62.1603 3095
-1158.6 61.9394 3084
-1136.29 61.136 3044
-1127.16 61.0356 3039
-1119.89 61.0356 3039
-1110.43 60.9151 3033
-1103.18 60.9151 3033
-1095.92 60.9151 3033
-1084.72 60.6941 3022
-1077.5 60.6941 3022
-1068.5 60.5937 3017
-1059.17 60.4732 3011
-1050.23 60.3728 3006
-1043.04 60.3728 3006
-1033.78 60.2523 3000
-1024.9 60.1519 2995
-1012.3 59.8305 2979
-1005.18 59.8305 2979
-998.052 59.8305 2979
-990.928 59.8305 2979
-983.804 59.8305 2979
-978.32 59.931 2984
-971.184 59.931 2984
-964.049 59.931 2984
-955.31 59.8305 2979
-948.186 59.8305 2979
-941.062 59.8305 2979
-933.938 59.8305 2979
-923.392 59.6096 2968
-916.295 59.6096 2968
-909.198 59.6096 2968
-900.581 59.5092 2963
-891.987 59.4088 2958
-884.914 59.4088 2958
-877.84 59.4088 2958
-870.767 59.4088 2958
-863.694 59.4088 2958
-856.62 59.4088 2958
-849.547 59.4088 2958
-841.049 59.3083 2953
-832.293 59.1878 2947
-823.846 59.0874 2942
-816.81 59.0874 2942
-808.399 58.987 2937
-800.011 58.8866 2932
-791.648 58.7862 2927
-784.648 58.7862 2927
-777.649 58.7862 2927
-768.017 58.5853 2917
-761.042 58.5853 2917
-754.066 58.5853 2917
-747.091 58.5853 2917
-740.115 58.5853 2917
-731.632 58.4648 2911
-724.671 58.4648 2911
-717.71 58.4648 2911
-710.749 58.4648 2911
-702.579 58.3644 2906
-695.629 58.3644 2906
-683.941 57.9627 2886
-675.866 57.8623 2881
-668.977 57.8623 2881
-663.237 57.9627 2886
-656.335 57.9627 2886
-649.434 57.9627 2886
-642.533 57.9627 2886
-636.733 58.0631 2891
-629.82 58.0631 2891
-622.906 58.0631 2891
-619.189 58.3644 2906
-612.24 58.3644 2906
-605.291 58.3644 2906
-601.636 58.6857 2922
-594.649 58.6857 2922
-587.661 58.6857 2922
-662.841 71.2785 3549
-654.354 71.2785 3549
-645.867 71.2785 3549
-641.511 71.7404 3572
-632.969 71.7404 3572
-624.428 71.7404 3572
-614.679 71.5998 3565
-606.154 71.5998 3565
-597.629 71.5998 3565
-590.261 71.7404 3572
-581.719 71.7404 3572
-573.177 71.7404 3572
-565.9 71.9011 3580
-557.339 71.9011 3580
-548.778 71.9011 3580
-540.218 71.9011 3580
-531.657 71.9011 3580
-527.625 72.5237 3611
-520.14 72.6844 3619
-511.486 72.6844 3619
-502.832 72.6844 3619
-495.27 72.845 3627
-489.683 73.307 3650
-480.954 73.307 3650
-472.226 73.307 3650
-465.657 73.6484 3667
-457.884 73.8091 3675
-449.096 73.8091 3675
-445.221 74.6325 3716
-436.335 74.6325 3716
-427.449 74.6325 3716
-418.562 74.6325 3716
-260.513 47.4587 2363
-254.862 47.4587 2363
-249.211 47.4587 2363
-244.592 47.6596 2373
-239.219 47.7198 2376
-234.225 47.8604 2383
-228.527 47.8604 2383
-223.483 48.001 2390
-217.768 48.001 2390
-212.052 48.001 2390
-206.337 48.001 2390
-200.37 47.9407 2387
-193.765 47.7198 2376
-187.608 47.5993 2370
-181.941 47.5993 2370
-175.976 47.519 2366
-169.886 47.3985 2360
-163.06 47.057 2343
-157.457 47.057 2343
-151.465 46.9365 2337
-145.253 46.7357 2327
-138.728 46.4144 2311
-133.201 46.4144 2311
-126.957 46.1533 2298
-120.457 45.7717 2279
-113.746 45.2696 2254
-108.356 45.2696 2254
-102.829 45.2093 2251
-97.0564 45.0285 2242
-90.7136 44.5465 2218
-84.8706 44.2654 2204
-79.6001 44.2654 2204
-73.8238 43.9641 2189
-68.4326 43.8637 2184
-63.0363 43.7432 2178
-57.8281 43.7432 2178
-52.4749 43.6227 2172
-47.1721 43.5222 2167
-41.932 43.462 2164
-36.7572 43.462 2164
-31.4949 43.3415 2158
-26.2734 43.2411 2153
-21.0955 43.1808 2150
-15.9542 43.1808 2150
-10.7828 43.0603 2144
-5.65052 43.0201 2142
-0.526129 42.8394 2133
4.5638 42.739 2128
9.65249 42.739 2128
14.665 42.518 2117
19.6994 42.4578 2114
24.7546 42.4578 2114
29.8098 42.4578 2114
34.8321 42.4176 2112
39.8259 42.3574 2109
44.8691 42.3574 2109
49.9124 42.3574 2109
54.8775 42.2971 2106
59.9135 42.2971 2106
64.7954 42.1967 2101
69.8196 42.1967 2101
74.8437 42.1967 2101
79.7538 42.1364 2098
84.7707 42.1364 2098
89.7877 42.1364 2098
94.8046 42.1364 2098
99.8216 42.1364 2098
104.839 42.1364 2098
109.855 42.1364 2098
115.037 42.1967 2101
120.061 42.1967 2101
125.085 42.1967 2101
130.109 42.1967 2101
135.133 42.1967 2101
139.957 42.1364 2098
144.836 42.0963 2096
149.491 41.9958 2091
154.491 41.9958 2091
159.262 41.9356 2088
163.862 41.8352 2083
168.438 41.7348 2078
173.407 41.7348 2078
178.119 41.6745 2075
182.375 41.5138 2067
186.864 41.4134 2062
191.795 41.4134 2062
196.058 41.2728 2055
200.19 41.1121 2047
204.283 40.9515 2039
208.441 40.8109 2032
213.3 40.8109 2032
217.623 40.7105 2027
221.372 40.5096 2017
224.85 40.2686 2005
229.644 40.2686 2005
234.205 40.2285 2003
238.398 40.128 1998
243.176 40.128 1998
248.202 40.1682 2000
252.985 40.1682 2000
257.767 40.1682 2000
414.976 61.2565 3050
422.269 61.2565 3050
430.267 61.3569 3055
437.572 61.3569 3055
444.878 61.3569 3055
448.187 60.8147 3028
452.119 60.3728 3006
457.626 60.1519 2995
464.788 60.1519 2995
470.217 59.931 2984
477.352 59.931 2984
484.488 59.931 2984
491.624 59.931 2984
495.249 59.5092 2963
499.622 59.1878 2947
505.81 59.0874 2942
509.359 58.6857 2922
516.346 58.6857 2922
523.333 58.6857 2922
530.321 58.6857 2922
536.389 58.5853 2917
543.364 58.5853 2917
550.34 58.5853 2917
557.315 58.5853 2917
564.29 58.5853 2917
571.266 58.5853 2917
577.052 58.4648 2911
584.013 58.4648 2911
589.959 58.3644 2906
596.908 58.3644 2906
603.857 58.3644 2906
610.806 58.3644 2906
617.755 58.3644 2906
624.705 58.3644 2906
631.654 58.3644 2906
638.603 58.3644 2906
645.552 58.3644 2906
652.501 58.3644 2906
659.45 58.3644 2906
666.399 58.3644 2906
673.349 58.3644 2906
680.298 58.3644 2906
687.247 58.3644 2906
694.196 58.3644 2906
699.939 58.264 2901
708.094 58.3644 2906
715.043 58.3644 2906
721.992 58.3644 2906
728.942 58.3644 2906
735.891 58.3644 2906
744.118 58.4648 2911
751.079 58.4648 2911
758.04 58.4648 2911
766.578 58.5853 2917
773.553 58.5853 2917
780.529 58.5853 2917
787.504 58.5853 2917
794.48 58.5853 2917
801.455 58.5853 2917
808.43 58.5853 2917
815.406 58.5853 2917
822.381 58.5853 2917
829.357 58.5853 2917
836.332 58.5853 2917
843.308 58.5853 2917
848.534 58.4648 2911
855.495 58.4648 2911
864.234 58.5853 2917
871.209 58.5853 2917
878.185 58.5853 2917
883.34 58.4648 2911
890.301 58.4648 2911
897.262 58.4648 2911
904.223 58.4648 2911
913.062 58.5853 2917
923.191 58.7862 2927
930.191 58.7862 2927
938.791 58.8866 2932
954.189 59.4088 2958
966.462 59.7301 2974
973.574 59.7301 2974
983.983 59.931 2984
1007.39 60.9151 3033
1026.02 61.5979 3067
1033.36 61.5979 3067
1052.23 62.2808 3101
1069.55 62.8632 3130
1095.62 63.9478 3184
1103.23 63.9478 3184
1139.1 65.5746 3265
1172.2 67.0206 3337
1263.3 71.7404 3572
1271.84 71.7404 3572
1280.38 71.7404 3572
1288.92 71.7404 3572
1297.46 71.7404 3572
1306 71.7404 3572
1303.51 71.1379 3542
1326.05 71.9011 3580
1337.59 72.0617 3588
1346.17 72.0617 3588
1354.75 72.0617 3588
1360.29 71.9011 3580
1368.86 71.9011 3580
1377.42 71.9011 3580
1380.17 71.5998 3565
1368.05 70.5354 3512
1359.2 69.6517 3468
1367.5 69.6517 3468
1375.79 69.6517 3468
1381.29 69.5111 3461
1378.32 68.9487 3433
1386.53 68.9487 3433
1374.83 67.9646 3384
1374.34 67.5428 3363
1377.04 67.2817 3350
1385.05 67.2817 3350
1381.84 66.7395 3323
1378.91 66.2173 3297
1386.79 66.2173 3297
1394.68 66.2173 3297
1402.56 66.2173 3297
1410.45 66.2173 3297
1415.32 66.0767 3290
1420.59 65.9562 3284
1428.44 65.9562 3284
1433.67 65.8357 3278
1452.5 66.3378 3303
1484.28 67.4223 3357
1513.64 68.3864 3405
1521.79 68.3864 3405
1548.8 69.2299 3447
1566.53 69.6517 3468
1584.81 70.0935 3490
1593.16 70.0935 3490
1608.39 70.3948 3505
1616.77 70.3948 3505
1625.15 70.3948 3505
1626.54 70.0935 3490
1634.89 70.0935 3490
1643.23 70.0935 3490
1651.58 70.0935 3490
1656.59 69.9529 3483
1661.58 69.8123 3476
1669.89 69.8123 3476
1678.2 69.8123 3476
1679.24 69.5111 3461
1684.1 69.3705 3454
1692.36 69.3705 3454
1693.72 69.0893 3440
1701.95 69.0893 3440
1696.26 68.5269 3412
1690.43 67.9646 3384
1681.46 67.2817 3350
1689.47 67.2817 3350
1697.48 67.2817 3350
1688.69 66.619 3317
1693.04 66.4784 3310
1700.95 66.4784 3310
1708.87 66.4784 3310
1716.78 66.4784 3310
1724.7 66.4784 3310
1732.62 66.4784 3310
1740.53 66.4784 3310
1748.45 66.4784 3310
1756.36 66.4784 3310
1764.28 66.4784 3310
1772.19 66.4784 3310
1769.35 66.0767 3290
1766.95 65.6951 3271
1761.21 65.193 3246
1768.97 65.193 3246
1759.22 64.5503 3214
1750.41 63.9478 3184
1738.15 63.2247 3148
1735.7 62.8632 3130
1743.18 62.8632 3130
1721.58 61.8189 3078
1697.49 60.6941 3022
1680.46 59.8305 2979
1687.58 59.8305 2979
1670.81 58.987 2937
1648.7 57.9627 2886
1644.13 57.561 2866
1642.92 57.2799 2852
1649.74 57.2799 2852
1653.65 57.1794 2847
1654.63 56.9786 2837
1656.14 56.7978 2828
1662.9 56.7978 2828
1663.76 56.597 2818
1667.54 56.4966 2813
1671.88 56.4162 2809
1678.6 56.4162 2809
1682.32 56.3158 2804
1689.02 56.3158 2804
1692.7 56.2154 2799
1699.4 56.2154 2799
1706.09 56.2154 2799
1709.72 56.115 2794
1713.95 56.0346 2790
1717.54 55.9342 2785
1724.2 55.9342 2785
1725.26 55.7535 2776
1731.9 55.7535 2776
1732.9 55.5727 2767
1739.52 55.5727 2767
1742.98 55.4723 2762
1749.59 55.4723 2762
1753.01 55.3719 2757
1759.6 55.3719 2757
1763.63 55.2915 2753
1770.22 55.2915 2753
1773.57 55.1911 2748
1780.14 55.1911 2748
1786.72 55.1911 2748
1787.41 55.0103 2739
1793.96 55.0103 2739
1797.88 54.93 2735
1804.42 54.93 2735
1810.96 54.93 2735
1817.5 54.93 2735
1820.71 54.8296 2730
1827.24 54.8296 2730
1833.77 54.8296 2730
1840.3 54.8296 2730
1844.12 54.7493 2726
1850.64 54.7493 2726
1857.15 54.7493 2726
1860.26 54.6488 2721
1864.02 54.5685 2717
1864.32 54.3877 2708
1870.79 54.3877 2708
1877.27 54.3877 2708
1880.96 54.3074 2704
1883.94 54.207 2699
1890.39 54.207 2699
1896.85 54.207 2699
1900.48 54.1266 2695
1904.1 54.0463 2691
1913.37 54.1266 2695
1919.81 54.1266 2695
1926.26 54.1266 2695
1932.7 54.1266 2695
1936.27 54.0463 2691
1942.71 54.0463 2691
1949.14 54.0463 2691
1955.58 54.0463 2691
1955.45 53.8656 2682
1961.86 53.8656 2682
1968.28 53.8656 2682
1974.69 53.8656 2682
1981.1 53.8656 2682
1987.52 53.8656 2682
1993.93 53.8656 2682
1997.36 53.7852 2678
2000.02 53.6848 2673
2006.41 53.6848 2673
2012.81 53.6848 2673
2019.2 53.6848 2673
2035.44 53.9459 2686
2055.55 54.3074 2704
2062.01 54.3074 2704
2068.48 54.3074 2704
-2088.94 62.7181 2790
-2082.27 62.7181 2790
-2075.6 62.7181 2790
-2061.51 62.4933 2780
-2051.91 62.4034 2776
-2041.58 62.291 2771
-2034.96 62.291 2771
-2021.74 62.0887 2762
-2015.14 62.0887 2762
-2008.53 62.0887 2762
-2001.93 62.0887 2762
-1995.32 62.0887 2762
-1972.16 61.5716 2739
-1956.28 61.2794 2726
-1949.76 61.2794 2726
-1939.68 61.167 2721
-1899.07 60.088 2673
-1889.85 59.9981 2669
-1883.46 59.9981 2669
-1856.68 59.3462 2640
-2469.34 85.6248 3809
-2460.23 85.6248 3809
-2451.12 85.6248 3809
-2419.57 84.838 3774
-2394.58 84.276 3749
-2379.89 84.0737 3740
-2370.94 84.0737 3740
-2351.89 83.7141 3724
-2301.47 82.2304 3658
-2287.7 82.0506 3650
-2120.1 86.6139 3853
-2110.89 86.6139 3853
-2101.67 86.6139 3853
-2073.45 85.8271 3818
-2040.53 84.838 3774
-2013.2 84.0737 3740
-2004.26 84.0737 3740
-1991.05 83.8939 3732
-1995.4 84.4559 3757
-1986.42 84.4559 3757
-1982.17 84.6582 3766
-1973.17 84.6582 3766
-1973.03 85.0404 3783
-1963.98 85.0404 3783
-1954.93 85.0404 3783
-1945.89 85.0404 3783
-1928.14 84.6582 3766
-1923.21 84.838 3774
-1927.37 85.4225 3800
-1918.28 85.4225 3800
-1909.2 85.4225 3800
-1878.61 84.4559 3757
-1869.62 84.4559 3757
-1734.2 86.2093 3835
-1729.08 86.4116 3844
-1719.88 86.4116 3844
-1710.69 86.4116 3844
-1678.48 85.2427 3792
-1628.47 83.1521 3699
-1619.63 83.1521 3699
-1592.93 82.2304 3658
-1574.22 81.7134 3635
-1548.3 80.8142 3595
-1539.7 80.8142 3595
-1486.39 78.4538 3490
-1459.83 77.4872 3447
-1428 76.2283 3391
-1419.9 76.2283 3391
-1405.96 75.9136 3377
-1392.09 75.5989 3363
-1362.23 74.4075 3310
-1354.32 74.4075 3310
-1346.4 74.4075 3310
-1335.66 74.2501 3303
-1312.48 73.3959 3265
-1287.09 72.4068 3221
-1279.39 72.4068 3221
-1264.19 71.9797 3202
-1251.82 71.7099 3190
-1237.17 71.3053 3172
-1229.59 71.3053 3172
-1210.44 70.6309 3142
-1198.34 70.3612 3130
-1177.54 69.5744 3095
-1170.13 69.5744 3095
-1158.6 69.3271 3084
-1134.43 68.3155 3039
-1124.94 68.1806 3033
-1117.68 68.1806 3033
-1110.43 68.1806 3033
-1103.18 68.1806 3033
-1094.12 68.0683 3028
-1082.93 67.821 3017
-1075.71 67.821 3017
-1066.37 67.6861 3011
-1059.17 67.6861 3011
-1048.13 67.4388 3000
-1040.96 67.4388 3000
-1032.06 67.3264 2995
-1023.19 67.214 2990
-1012.3 66.9668 2979
-1005.18 66.9668 2979
-998.052 66.9668 2979
-992.591 67.0791 2984
-985.456 67.0791 2984
-980.287 67.214 2990
-973.137 67.214 2990
-965.987 67.214 2990
-956.913 67.0791 2984
-949.777 67.0791 2984
-942.642 67.0791 2984
-933.938 66.9668 2979
-926.815 66.9668 2979
-919.691 66.9668 2979
-911.036 66.8544 2974
-902.1 66.7195 2968
-895.003 66.7195 2968
-887.906 66.7195 2968
-879.324 66.6071 2963
-872.239 66.6071 2963
-865.153 66.6071 2963
-858.068 66.6071 2963
-849.547 66.4947 2958
-842.473 66.4947 2958
-833.988 66.3823 2953
-823.846 66.135 2942
-816.81 66.135 2942
-808.399 66.0226 2937
-800.011 65.9102 2932
-791.648 65.7978 2927
-784.648 65.7978 2927
-777.649 65.7978 2927
-768.017 65.573 2917
-761.042 65.573 2917
-754.066 65.573 2917
-745.554 65.4381 2911
-738.593 65.4381 2911
-731.632 65.4381 2911
-724.671 65.4381 2911
-717.71 65.4381 2911
-709.528 65.3257 2906
-702.579 65.3257 2906
-695.629 65.3257 2906
-682.756 64.7637 2881
-675.866 64.7637 2881
-670.138 64.8761 2886
-663.237 64.8761 2886
-656.335 64.8761 2886
-650.559 64.9885 2891
-643.646 64.9885 2891
-636.733 64.9885 2891
-629.82 64.9885 2891
-623.984 65.1009 2896
-619.189 65.3257 2906
-612.24 65.3257 2906
-605.291 65.3257 2906
-598.342 65.3257 2906
-661.545 80.6568 3588
-652.965 80.6568 3588
-644.385 80.6568 3588
-637.045 80.8142 3595
-628.448 80.8142 3595
-619.852 80.8142 3595
-611.255 80.8142 3595
-605.34 81.1739 3611
-596.705 81.1739 3611
-589.373 81.3537 3619
-580.719 81.3537 3619
-573.33 81.5335 3627
-564.656 81.5335 3627
-555.983 81.5335 3627
-547.31 81.5335 3627
-540.864 81.8707 3642
-534.493 82.2304 3658
-525.745 82.2304 3658
-516.998 82.2304 3658
-508.251 82.2304 3658
-501.825 82.6126 3675
-493.037 82.6126 3675
-484.249 82.6126 3675
-476.496 82.7924 3683
-472.895 83.7141 3724
-464.986 83.8939 3732
-456.062 83.8939 3732
-451.211 84.6582 3766
-446.198 85.4225 3800
-437.111 85.4225 3800
-428.024 85.4225 3800
-260.513 53.1193 2363
-255.941 53.3441 2373
-250.266 53.3441 2373
-244.592 53.3441 2373
-240.326 53.6588 2387
-234.618 53.6588 2387
-228.91 53.6588 2387
-224.137 53.8836 2397
-218.405 53.8836 2397
-212.674 53.8836 2397
-206.942 53.8836 2397
-201.21 53.8836 2397
-194.662 53.6588 2387
-188.954 53.6588 2387
-182.402 53.4115 2376
-176.274 53.2767 2370
-169.886 53.0519 2360
-163.06 52.6697 2343
-157.457 52.6697 2343
-151.465 52.5348 2337
-145.253 52.31 2327
-138.728 51.9504 2311
-133.201 51.9504 2311
-126.957 51.6581 2298
-120.457 51.231 2279
-113.746 50.669 2254
-108.356 50.669 2254
-102.692 50.5342 2248
-96.9266 50.3318 2239
-90.7136 49.8598 2218
-84.8706 49.5451 2204
-79.6001 49.5451 2204
-73.8238 49.2079 2189
-68.4326 49.0955 2184
-63.0363 48.9606 2178
-57.8281 48.9606 2178
-52.4749 48.8257 2172
-47.1721 48.7133 2167
-41.932 48.6459 2164
-36.7572 48.6459 2164
-31.4949 48.511 2158
-26.2368 48.3312 2150
-21.0955 48.3312 2150
-15.9542 48.3312 2150
-10.7828 48.1963 2144
-5.65052 48.1513 2142
-0.526129 47.949 2133
4.5638 47.8366 2128
9.65249 47.8366 2128
14.665 47.5893 2117
19.6994 47.5219 2114
24.7312 47.4769 2112
29.7816 47.4769 2112
34.8321 47.4769 2112
39.8259 47.4095 2109
44.8691 47.4095 2109
49.9124 47.4095 2109
54.8775 47.3421 2106
59.8566 47.2971 2104
64.7954 47.2297 2101
69.8196 47.2297 2101
74.7368 47.1622 2098
79.7538 47.1622 2098
84.7707 47.1622 2098
89.7877 47.1622 2098
94.8046 47.1622 2098
99.8216 47.1622 2098
104.839 47.1622 2098
109.855 47.1622 2098
114.872 47.1622 2098
119.889 47.1622 2098
124.906 47.1622 2098
129.923 47.1622 2098
134.94 47.1622 2098
139.824 47.1173 2096
144.49 47.0049 2091
149.276 46.9374 2088
154.269 46.9374 2088
159.033 46.87 2085
163.626 46.7576 2080
168.195 46.6452 2075
173.157 46.6452 2075
177.689 46.5328 2070
182.198 46.4204 2065
186.411 46.2406 2057
191.33 46.2406 2057
195.772 46.1282 2052
199.408 45.8359 2039
203.783 45.7235 2034
208.441 45.6786 2032
213.3 45.6786 2032
217.408 45.5212 2025
221.153 45.2964 2015
225.411 45.184 2010
230.217 45.184 2010
234.439 45.0716 2005
238.995 45.0267 2003
243.42 44.9592 2000
248.575 45.0267 2003
253.364 45.0267 2003
258.154 45.0267 2003
262.944 45.0267 2003
267.734 45.0267 2003
411.982 68.0683 3028
419.223 68.0683 3028
431.957 68.945 3067
439.291 68.945 3067
446.625 68.945 3067
448.187 68.0683 3028
453.773 67.821 3017
457.626 67.3264 2995
464.788 67.3264 2995
471.162 67.214 2990
477.352 67.0791 2984
484.488 67.0791 2984
491.624 67.0791 2984
495.249 66.6071 2963
499.622 66.2474 2947
505.81 66.135 2942
509.359 65.6854 2922
516.346 65.6854 2922
523.333 65.6854 2922
530.321 65.6854 2922
536.389 65.573 2917
543.364 65.573 2917
550.34 65.573 2917
557.315 65.573 2917
564.29 65.573 2917
571.266 65.573 2917
577.052 65.4381 2911
584.013 65.4381 2911
589.959 65.3257 2906
596.908 65.3257 2906
603.857 65.3257 2906
610.806 65.3257 2906
617.755 65.3257 2906
624.705 65.3257 2906
631.654 65.3257 2906
638.603 65.3257 2906
645.552 65.3257 2906
652.501 65.3257 2906
659.45 65.3257 2906
666.399 65.3257 2906
673.349 65.3257 2906
680.298 65.3257 2906
687.247 65.3257 2906
694.196 65.3257 2906
699.939 65.2133 2901
708.094 65.3257 2906
715.043 65.3257 2906
721.992 65.3257 2906
728.942 65.3257 2906
735.891 65.3257 2906
744.118 65.4381 2911
751.079 65.4381 2911
758.04 65.4381 2911
766.578 65.573 2917
773.553 65.573 2917
780.529 65.573 2917
787.504 65.573 2917
794.48 65.573 2917
801.455 65.573 2917
808.43 65.573 2917
815.406 65.573 2917
822.381 65.573 2917
829.357 65.573 2917
836.332 65.573 2917
843.308 65.573 2917
848.534 65.4381 2911
855.495 65.4381 2911
864.234 65.573 2917
871.209 65.573 2917
878.185 65.573 2917
883.34 65.4381 2911
890.301 65.4381 2911
897.262 65.4381 2911
904.223 65.4381 2911
913.062 65.573 2917
923.191 65.7978 2927
930.191 65.7978 2927
938.791 65.9102 2932
954.189 66.4947 2958
966.462 66.8544 2974
973.574 66.8544 2974
983.983 67.0791 2984
1007.39 68.1806 3033
1026.02 68.945 3067
1033.36 68.945 3067
1046.46 69.3271 3084
1067.5 70.2263 3124
1095.62 71.5751 3184
1103.23 71.5751 3184
1139.1 73.3959 3265
1172.2 75.0145 3337
1263.3 80.2972 3572
1271.84 80.2972 3572
1280.38 80.2972 3572
1288.92 80.2972 3572
1297.46 80.2972 3572
1306 80.2972 3572
1303.51 79.6228 3542
1326.05 80.477 3580
1337.59 80.6568 3588
1346.17 80.6568 3588
1354.75 80.6568 3588
1360.29 80.477 3580
1368.86 80.477 3580
1377.42 80.477 3580
1380.17 80.1398 3565
1368.05 78.9484 3512
1359.2 77.9593 3468
1367.5 77.9593 3468
1375.79 77.9593 3468
1381.29 77.8019 3461
1378.32 77.1725 3433
1386.53 77.1725 3433
1374.83 76.071 3384
1374.34 75.5989 3363
1377.04 75.3067 3350
1385.05 75.3067 3350
1381.84 74.6997 3323
1378.91 74.1153 3297
1386.79 74.1153 3297
1394.68 74.1153 3297
1402.56 74.1153 3297
1410.45 74.1153 3297
1415.32 73.9579 3290
1420.59 73.823 3284
1428.44 73.823 3284
1433.67 73.6882 3278
1452.5 74.2501 3303
1484.28 75.464 3357
1513.64 76.5431 3405
1521.79 76.5431 3405
1548.8 77.4872 3447
1566.53 77.9593 3468
1584.81 78.4538 3490
1593.16 78.4538 3490
1608.39 78.791 3505
1616.77 78.791 3505
1625.15 78.791 3505
1626.54 78.4538 3490
1634.89 78.4538 3490
1643.23 78.4538 3490
1651.58 78.4538 3490
1656.59 78.2965 3483
1661.58 78.1391 3476
1669.89 78.1391 3476
1678.2 78.1391 3476
1679.24 77.8019 3461
1684.1 77.6446 3454
1692.36 77.6446 3454
1693.72 77.3298 3440
1701.95 77.3298 3440
1696.26 76.7004 3412
1690.43 76.071 3384
1681.46 75.3067 3350
1689.47 75.3067 3350
1697.48 75.3067 3350
1688.69 74.5649 3317
1689.46 74.2501 3303
1700.95 74.4075 3310
1708.87 74.4075 3310
1716.78 74.4075 3310
1724.7 74.4075 3310
1732.62 74.4075 3310
1740.53 74.4075 3310
1748.45 74.4075 3310
1749.46 74.1153 3297
1753.62 73.9579 3290
1761.48 73.9579 3290
1759.13 73.5308 3271
1753.45 72.9688 3246
1743.85 72.2495 3214
1751.54 72.2495 3214
1746.08 71.7099 3190
1743.82 71.3053 3172
1738.15 70.7658 3148
1729.04 70.0914 3118
1736.5 70.0914 3118
1718.23 69.0574 3072
1694.68 67.821 3017
1674.25 66.7195 2968
1681.35 66.7195 2968
1667.97 65.9102 2932
1648.7 64.8761 2886
1644.13 64.4266 2866
1642.92 64.1118 2852
1649.74 64.1118 2852
1653.65 63.9994 2847
1654.63 63.7746 2837
1656.14 63.5723 2828
1662.9 63.5723 2828
1663.76 63.3475 2818
1667.54 63.2351 2813
1671.88 63.1452 2809
1678.6 63.1452 2809
1682.32 63.0328 2804
1689.02 63.0328 2804
1692.7 62.9204 2799
1699.4 62.9204 2799
1706.09 62.9204 2799
1709.72 62.808 2794
1713.95 62.7181 2790
1717.54 62.6057 2785
1724.2 62.6057 2785
1725.26 62.4034 2776
1731.9 62.4034 2776
1732.9 62.2011 2767
1739.52 62.2011 2767
1742.98 62.0887 2762
1749.59 62.0887 2762
1753.01 61.9763 2757
1759.6 61.9763 2757
1763.63 61.8864 2753
1770.22 61.8864 2753
1773.57 61.774 2748
1780.14 61.774 2748
1786.72 61.774 2748
1787.41 61.5716 2739
1793.96 61.5716 2739
1797.88 61.4817 2735
1804.42 61.4817 2735
1810.96 61.4817 2735
1817.5 61.4817 2735
1820.71 61.3693 2730
1827.24 61.3693 2730
1833.77 61.3693 2730
1840.3 61.3693 2730
1844.12 61.2794 2726
1850.64 61.2794 2726
1857.15 61.2794 2726
1860.26 61.167 2721
1864.02 61.0771 2717
1864.32 60.8748 2708
1870.79 60.8748 2708
1877.27 60.8748 2708
1880.96 60.7849 2704
1883.94 60.6725 2699
1890.39 60.6725 2699
1896.85 60.6725 2699
1900.48 60.5825 2695
1904.1 60.4926 2691
1913.37 60.5825 2695
1919.81 60.5825 2695
1926.26 60.5825 2695
1932.7 60.5825 2695
1936.27 60.4926 2691
1942.71 60.4926 2691
1949.14 60.4926 2691
1955.58 60.4926 2691
1955.45 60.2903 2682
1961.86 60.2903 2682
1968.28 60.2903 2682
1974.69 60.2903 2682
1981.1 60.2903 2682
1987.52 60.2903 2682
1993.93 60.2903 2682
1997.36 60.2004 2678
2000.02 60.088 2673
2006.41 60.088 2673
2012.81 60.088 2673
2019.2 60.088 2673
2035.44 60.3802 2686
2055.55 60.7849 2704
2062.01 60.7849 2704
2068.48 60.7849 2704
-2088.94 69.4016 2790
-2082.27 69.4016 2790
-2075.6 69.4016 2790
-2061.51 69.1528 2780
-2054.86 69.1528 2780
-2048.22 69.1528 2780
-2041.57 69.1528 2780
-2025.4 68.8294 2767
-2015.14 68.7051 2762
-2008.53 68.7051 2762
-2001.93 68.7051 2762
-1995.32 68.7051 2762
-1972.16 68.1329 2739
-1959.15 67.9091 2730
-1952.62 67.9091 2730
-1939.68 67.6852 2721
-1899.07 66.4912 2673
-1889.85 66.3917 2669
-1883.46 66.3917 2669
-1874.27 66.2922 2665
-2469.34 94.7493 3809
-2460.23 94.7493 3809
-2451.12 94.7493 3809
-2419.57 93.8787 3774
-2399.69 93.4558 3757
-2385.61 93.2568 3749
-2376.65 93.2568 3749
-2351.89 92.6349 3724
-2120.1 95.8438 3853
-2110.89 95.8438 3853
-2101.67 95.8438 3853
-2082.68 95.3961 3835
-2059.45 94.7493 3809
-2013.2 93.0329 3740
-2004.26 93.0329 3740
-1991.05 92.8339 3732
-1995.4 93.4558 3757
-1991.18 93.6797 3766
-1982.17 93.6797 3766
-1973.17 93.6797 3766
-1973.03 94.1026 3783
-1963.98 94.1026 3783
-1954.93 94.1026 3783
-1945.89 94.1026 3783
-1928.14 93.6797 3766
-1923.21 93.8787 3774
-1927.37 94.5254 3800
-1918.28 94.5254 3800
-1909.2 94.5254 3800
-1734.2 95.3961 3835
-1729.08 95.6199 3844
-1719.88 95.6199 3844
-1710.69 95.6199 3844
-1689.99 94.9732 3818
-1643 92.8339 3732
-1634.08 92.8339 3732
-1607.3 91.8141 3691
-1588.08 91.217 3667
-1568.54 90.5952 3642
-1559.83 90.5952 3642
-1534.51 89.625 3603
-1453.9 85.3963 3433
-1385.98 82.3366 3310
-1378.06 82.3366 3310
-1370.15 82.3366 3310
-1362.23 82.3366 3310
-1346.13 81.8391 3290
-1338.27 81.8391 3290
-1327.97 81.6899 3284
-1307.26 80.8939 3252
-1284.3 79.9486 3214
-1276.61 79.9486 3214
-1264.19 79.6501 3202
-1251.82 79.3516 3190
-1237.17 78.9039 3172
-1229.59 78.9039 3172
-1210.44 78.1576 3142
-1198.34 77.8591 3130
-1177.54 76.9885 3095
-1170.13 76.9885 3095
-1156.35 76.5656 3078
-1134.43 75.5955 3039
-1123.08 75.3219 3028
-1115.84 75.3219 3028
-1108.6 75.3219 3028
-1099.18 75.1726 3022
-1090.14 75.0482 3017
-1080.77 74.899 3011
-1073.57 74.899 3011
-1064.6 74.7746 3006
-1055.3 74.6254 3000
-1048.13 74.6254 3000
-1040.96 74.6254 3000
-1032.06 74.501 2995
-1023.19 74.3766 2990
-1012.3 74.103 2979
-1005.18 74.103 2979
-998.052 74.103 2979
-992.591 74.2273 2984
-985.456 74.2273 2984
-980.287 74.3766 2990
-973.137 74.3766 2990
-965.987 74.3766 2990
-958.837 74.3766 2990
-951.687 74.3766 2990
-944.537 74.3766 2990
-935.506 74.2273 2984
-928.37 74.2273 2984
-921.235 74.2273 2984
-912.567 74.103 2979
-903.924 73.9786 2974
-896.812 73.9786 2974
-889.701 73.9786 2974
-882.589 73.9786 2974
-875.477 73.9786 2974
-865.153 73.705 2963
-858.068 73.705 2963
-850.983 73.705 2963
-842.473 73.5806 2958
-833.988 73.4562 2953
-823.846 73.1826 2942
-816.81 73.1826 2942
-808.399 73.0582 2937
-800.011 72.9338 2932
-791.648 72.8095 2927
-784.648 72.8095 2927
-776.321 72.6851 2922
-768.017 72.5607 2917
-761.042 72.5607 2917
-754.066 72.5607 2917
-745.554 72.4115 2911
-738.593 72.4115 2911
-731.632 72.4115 2911
-724.671 72.4115 2911
-716.477 72.2871 2906
-709.528 72.2871 2906
-701.37 72.1627 2901
-694.433 72.1627 2901
-683.941 71.7896 2886
-677.039 71.7896 2886
-671.299 71.914 2891
-664.386 71.914 2891
-657.473 71.914 2891
-650.559 71.914 2891
-643.646 71.914 2891
-636.733 71.914 2891
-629.82 71.914 2891
-623.984 72.0383 2896
-619.189 72.2871 2906
-613.293 72.4115 2911
-606.332 72.4115 2911
-599.371 72.4115 2911
-661.545 89.2519 3588
-652.965 89.2519 3588
-647.079 89.625 3603
-638.463 89.625 3603
-635.441 90.4211 3635
-626.748 90.4211 3635
-618.056 90.4211 3635
-611.878 90.7942 3650
-604.472 90.9932 3658
-595.725 90.9932 3658
-586.977 90.9932 3658
-578.23 90.9932 3658
-569.482 90.9932 3658
-560.735 90.9932 3658
-551.988 90.9932 3658
-543.24 90.9932 3658
-534.493 90.9932 3658
-528.189 91.4161 3675
-519.401 91.4161 3675
-510.613 91.4161 3675
-502.917 91.6151 3683
-498.537 92.4359 3716
-489.651 92.4359 3716
-481.8 92.6349 3724
-476.069 93.2568 3749
-471.341 94.1026 3783
-462.294 94.1026 3783
-456.363 94.7493 3809
-447.255 94.7493 3809
-438.146 94.7493 3809
-429.038 94.7493 3809
-256.696 59.2028 2380
-251.004 59.2028 2380
-246.035 59.3769 2387
-240.931 59.5262 2393
-235.601 59.6257 2397
-229.869 59.6257 2397
-225.073 59.8744 2407
-219.317 59.8744 2407
-213.561 59.8744 2407
-207.805 59.8744 2407
-202.049 59.8744 2407
-195.478 59.6257 2397
-189.746 59.6257 2397
-182.939 59.2774 2383
-176.497 59.0287 2373
-169.598 58.6058 2356
-162.851 58.2078 2340
-157.255 58.2078 2340
-151.465 58.1331 2337
-145.253 57.8844 2327
-138.728 57.4864 2311
-133.201 57.4864 2311
-126.957 57.163 2298
-120.299 56.6158 2276
-113.595 55.9939 2251
-108.212 55.9939 2251
-102.555 55.8446 2245
-96.6668 55.5461 2233
-90.5909 55.0984 2215
-84.8706 54.8248 2204
-79.6001 54.8248 2204
-73.8238 54.4516 2189
-68.4326 54.3273 2184
-63.0363 54.178 2178
-57.8281 54.178 2178
-52.4749 54.0288 2172
-47.1721 53.9044 2167
-41.8739 53.7551 2161
-36.7063 53.7551 2161
-31.4949 53.6805 2158
-26.2368 53.4815 2150
-21.0955 53.4815 2150
-15.9542 53.4815 2150
-10.7828 53.3322 2144
-5.65052 53.2825 2142
-0.526129 53.0586 2133
4.5638 52.9342 2128
9.65249 52.9342 2128
14.665 52.6606 2117
19.6994 52.586 2114
24.7312 52.5362 2112
29.7816 52.5362 2112
34.8321 52.5362 2112
39.8259 52.4616 2109
44.8053 52.387 2106
49.8414 52.387 2106
54.8775 52.387 2106
59.8566 52.3372 2104
64.7954 52.2626 2101
69.8196 52.2626 2101
74.7368 52.188 2098
79.7538 52.188 2098
84.7707 52.188 2098
89.7877 52.188 2098
94.8046 52.188 2098
99.8216 52.188 2098
104.739 52.1382 2096
109.855 52.188 2098
114.872 52.188 2098
119.889 52.188 2098
124.906 52.188 2098
129.923 52.188 2098
134.94 52.188 2098
139.824 52.1382 2096
144.49 52.0139 2091
149.276 51.9392 2088
154.269 51.9392 2088
159.033 51.8646 2085
163.626 51.7402 2080
168.195 51.6159 2075
173.157 51.6159 2075
177.689 51.4915 2070
182.198 51.3671 2065
186.411 51.1681 2057
191.33 51.1681 2057
195.772 51.0437 2052
199.212 50.6706 2037
203.783 50.596 2034
207.928 50.4219 2027
212.776 50.4219 2027
217.408 50.3721 2025
221.372 50.1731 2017
225.635 50.0487 2012
230.446 50.0487 2012
235.024 49.999 2010
239.592 49.9492 2008
243.785 49.8249 2003
248.575 49.8249 2003
253.364 49.8249 2003
258.412 49.8746 2005
263.206 49.8746 2005
268.001 49.8746 2005
432.661 76.4164 3072
440.007 76.4164 3072
447.353 76.4164 3072
453.959 76.292 3067
453.773 75.0482 3017
457.626 74.501 2995
464.788 74.501 2995
471.162 74.3766 2990
477.352 74.2273 2984
484.488 74.2273 2984
491.624 74.2273 2984
494.414 73.5806 2958
499.622 73.307 2947
505.81 73.1826 2942
510.23 72.8095 2927
517.229 72.8095 2927
523.333 72.6851 2922
530.321 72.6851 2922
537.308 72.6851 2922
544.295 72.6851 2922
551.283 72.6851 2922
558.27 72.6851 2922
564.29 72.5607 2917
571.266 72.5607 2917
578.241 72.5607 2917
584.013 72.4115 2911
590.974 72.4115 2911
597.935 72.4115 2911
603.857 72.2871 2906
610.806 72.2871 2906
618.818 72.4115 2911
625.779 72.4115 2911
632.741 72.4115 2911
639.702 72.4115 2911
646.663 72.4115 2911
653.624 72.4115 2911
660.585 72.4115 2911
667.546 72.4115 2911
674.507 72.4115 2911
681.468 72.4115 2911
688.429 72.4115 2911
695.39 72.4115 2911
702.351 72.4115 2911
709.312 72.4115 2911
716.274 72.4115 2911
723.235 72.4115 2911
730.196 72.4115 2911
737.157 72.4115 2911
744.118 72.4115 2911
751.079 72.4115 2911
759.602 72.5607 2917
766.578 72.5607 2917
774.879 72.6851 2922
781.867 72.6851 2922
788.854 72.6851 2922
795.841 72.6851 2922
802.829 72.6851 2922
809.816 72.6851 2922
815.406 72.5607 2917
822.381 72.5607 2917
829.357 72.5607 2917
836.332 72.5607 2917
843.308 72.5607 2917
850.283 72.5607 2917
857.259 72.5607 2917
864.234 72.5607 2917
871.209 72.5607 2917
878.185 72.5607 2917
885.16 72.5607 2917
892.136 72.5607 2917
897.262 72.4115 2911
904.223 72.4115 2911
914.627 72.6851 2922
923.191 72.8095 2927
930.191 72.8095 2927
938.791 72.9338 2932
957.415 73.8293 2968
969.712 74.2273 2984
976.848 74.2273 2984
991.238 74.7746 3006
1011.05 75.7199 3044
1027.69 76.4164 3072
1035.04 76.4164 3072
1046.46 76.7149 3084
1067.5 77.7099 3124
1095.62 79.2024 3184
1103.23 79.2024 3184
1110.85 79.2024 3184
1316.93 93.2568 3749
1325.89 93.2568 3749
1334.86 93.2568 3749
1343.82 93.2568 3749
1305.88 90.023 3619
1314.53 90.023 3619
1314.41 89.426 3595
1323.01 89.426 3595
1349.02 90.5952 3642
1360.71 90.7942 3650
1369.44 90.7942 3650
1378.16 90.7942 3650
1386.89 90.7942 3650
1395.62 90.7942 3650
1398.58 90.4211 3635
1389.07 89.2519 3588
1388.69 88.6798 3565
1397.22 88.6798 3565
1393.52 87.9087 3534
1401.97 87.9087 3534
1407.63 87.7345 3527
1404.02 86.9883 3497
1412.38 86.9883 3497
1408.96 86.2669 3468
1411.53 85.9187 3454
1408.28 85.2221 3426
1416.48 85.2221 3426
1410.11 84.3515 3391
1412.37 84.0033 3377
1406.14 83.1575 3343
1414.14 83.1575 3343
1416.6 82.8341 3330
1419 82.5108 3317
1423.92 82.3366 3310
1426.21 82.0133 3297
1434.1 82.0133 3297
1438.92 81.8391 3290
1455.58 82.3366 3310
1505.5 84.6998 3405
1532.31 85.7445 3447
1540.56 85.7445 3447
1558.24 86.2669 3468
1576.47 86.8142 3490
1594.8 87.3614 3512
1603.2 87.3614 3512
1618.48 87.7345 3527
1626.92 87.7345 3527
1635.35 87.7345 3527
1640.52 87.5604 3520
1648.94 87.5604 3520
1657.36 87.5604 3520
1665.77 87.5604 3520
1674.19 87.5604 3520
1682.61 87.5604 3520
1687.18 87.3614 3512
1695.58 87.3614 3512
1696.7 86.9883 3497
1705.06 86.9883 3497
1699.22 86.2669 3468
1704.06 86.0928 3461
1712.34 86.0928 3461
1710.18 85.5704 3440
1704.42 84.8739 3412
1698.52 84.1774 3384
1706.61 84.1774 3384
1697.48 83.3316 3350
1685.12 82.3366 3310
1682.81 81.8391 3290
1690.68 81.8391 3290
1695.45 81.6899 3284
1703.3 81.6899 3284
1711.15 81.6899 3284
1705.4 81.0431 3258
1713.19 81.0431 3258
1720.98 81.0431 3258
1725.58 80.8939 3252
1730.16 80.7446 3246
1737.93 80.7446 3246
1741.92 80.5705 3239
1736.16 79.9486 3214
1734.08 79.5009 3196
1741.73 79.5009 3196
1736.23 78.9039 3172
1730.62 78.3069 3148
1728.21 77.8591 3130
1719.62 77.1377 3101
1727.03 77.1377 3101
1705.92 75.8691 3050
1682.32 74.501 2995
1659.58 73.1826 2942
1666.62 73.1826 2942
1656.02 72.4115 2911
1640.13 71.4165 2871
1644.13 71.2921 2866
1642.92 70.9438 2852
1649.74 70.9438 2852
1656.56 70.9438 2852
1654.63 70.5707 2837
1656.14 70.3468 2828
1662.9 70.3468 2828
1663.76 70.0981 2818
1667.54 69.9737 2813
1674.26 69.9737 2813
1680.99 69.9737 2813
1682.32 69.7498 2804
1689.02 69.7498 2804
1695.73 69.7498 2804
1699.4 69.6255 2799
1706.09 69.6255 2799
1709.72 69.5011 2794
1716.41 69.5011 2794
1720.62 69.4016 2790
1727.29 69.4016 2790
1727.75 69.1528 2780
1731.9 69.0533 2776
1738.54 69.0533 2776
1745.18 69.0533 2776
1746.14 68.8294 2767
1749.59 68.7051 2762
1756.19 68.7051 2762
1762.79 68.7051 2762
1766.2 68.5807 2757
1772.79 68.5807 2757
1776.8 68.4812 2753
1783.38 68.4812 2753
1789.97 68.4812 2753
1790.68 68.2573 2744
1797.24 68.2573 2744
1800.51 68.1329 2739
1807.06 68.1329 2739
1810.96 68.0334 2735
1817.5 68.0334 2735
1824.05 68.0334 2735
1830.59 68.0334 2735
1837.13 68.0334 2735
1840.3 67.9091 2730
1850.21 68.0334 2735
1856.75 68.0334 2735
1863.29 68.0334 2735
1863.67 67.8096 2726
1870.19 67.8096 2726
1870.51 67.5857 2717
1877.01 67.5857 2717
1880.74 67.4862 2713
1883.75 67.3618 2708
1887.43 67.2623 2704
1893.9 67.2623 2704
1900.36 67.2623 2704
1903.3 67.1379 2699
1909.76 67.1379 2699
1916.21 67.1379 2699
1919.81 67.0384 2695
1926.26 67.0384 2695
1932.7 67.0384 2695
1936.27 66.9389 2691
1942.71 66.9389 2691
1949.14 66.9389 2691
1955.58 66.9389 2691
1955.45 66.7151 2682
1961.86 66.7151 2682
1968.28 66.7151 2682
1974.69 66.7151 2682
1981.1 66.7151 2682
1987.52 66.7151 2682
1993.93 66.7151 2682
1997.36 66.6156 2678
2000.02 66.4912 2673
2006.41 66.4912 2673
2012.81 66.4912 2673
2019.2 66.4912 2673
2035.44 66.8146 2686
2055.55 67.2623 2704
2062.01 67.2623 2704
2068.48 67.2623 2704
-2088.94 76.085 2790
-2082.27 76.085 2790
-2075.6 76.085 2790
-2065.22 75.9487 2785
-2054.86 75.8123 2780
-2048.22 75.8123 2780
-2041.57 75.8123 2780
-2031.99 75.7033 2776
-2015.14 75.3215 2762
-2008.53 75.3215 2762
-2001.93 75.3215 2762
-1995.32 75.3215 2762
-1975.76 74.8306 2744
-1959.15 74.4488 2730
-1952.62 74.4488 2730
-1939.68 74.2034 2721
-1899.07 72.8944 2673
-1889.85 72.7853 2669
-1883.46 72.7853 2669
-1874.27 72.6762 2665
-2469.34 103.874 3809
-2460.23 103.874 3809
