434.176 93.033 3136
441.675 93.033 3136
447.455 92.677 3124
454.926 92.677 3124
458.992 91.9947 3101
461.293 90.986 3067
464.349 90.1554 3039
471.616 90.1554 3039
475.417 89.5027 3017
479.912 88.9984 3000
485.462 88.7017 2990
492.612 88.7017 2990
496.085 88.0491 2968
501.487 87.7524 2958
506.669 87.4261 2947
511.973 87.1294 2937
518.997 87.1294 2937
525.124 86.9811 2932
532.136 86.9811 2932
539.147 86.9811 2932
546.158 86.9811 2932
553.17 86.9811 2932
559.226 86.8328 2927
566.225 86.8328 2927
573.224 86.8328 2927
579.232 86.6844 2922
586.22 86.6844 2922
593.207 86.6844 2922
600.195 86.6844 2922
606.143 86.5361 2917
613.118 86.5361 2917
620.094 86.5361 2917
627.069 86.5361 2917
632.741 86.3581 2911
639.702 86.3581 2911
647.996 86.5361 2917
654.971 86.5361 2917
661.946 86.5361 2917
668.922 86.5361 2917
675.897 86.5361 2917
681.468 86.3581 2911
688.429 86.3581 2911
695.39 86.3581 2911
702.351 86.3581 2911
708.094 86.2098 2906
715.043 86.2098 2906
721.992 86.2098 2906
728.942 86.2098 2906
735.891 86.2098 2906
742.84 86.2098 2906
749.789 86.2098 2906
756.738 86.2098 2906
763.687 86.2098 2906
770.636 86.2098 2906
777.585 86.2098 2906
784.535 86.2098 2906
791.484 86.2098 2906
798.433 86.2098 2906
805.382 86.2098 2906
812.331 86.2098 2906
819.28 86.2098 2906
826.229 86.2098 2906
833.178 86.2098 2906
840.128 86.2098 2906
847.077 86.2098 2906
854.026 86.2098 2906
862.456 86.3581 2911
869.417 86.3581 2911
876.378 86.3581 2911
883.34 86.3581 2911
890.301 86.3581 2911
897.262 86.3581 2911
902.67 86.2098 2906
909.619 86.2098 2906
916.568 86.2098 2906
923.517 86.2098 2906
932.067 86.3581 2911
945.802 86.9811 2932
954.439 87.1294 2937
963.099 87.2778 2942
970.134 87.2778 2942
984.144 87.9008 2963
1000.26 88.7017 2990
1007.41 88.7017 2990
1014.56 88.7017 2990
1352.67 110.477 3724
1361.58 110.477 3724
1379.68 111.218 3749
1394.95 111.723 3766
1403.95 111.723 3766
1412.96 111.723 3766
1421.96 111.723 3766
1427.55 111.456 3757
1436.53 111.456 3757
1432.82 110.477 3724
1422.76 109.023 3675
1415.96 107.836 3635
1424.65 107.836 3635
1420.73 106.887 3603
1426.17 106.65 3595
1428.78 106.205 3580
1424.9 105.285 3549
1433.38 105.285 3549
1426.84 104.187 3512
1423.38 103.327 3483
1411.16 101.844 3433
1419.37 101.844 3433
1404.29 100.183 3377
1404 99.5892 3357
1409.09 99.3815 3350
1417.1 99.3815 3350
1405.11 97.9872 3303
1402.32 97.2456 3278
1407.14 97.0379 3271
1409.34 96.6523 3258
1417.13 96.6523 3258
1424.92 96.6523 3258
1438.43 97.0379 3271
1505.5 101.013 3405
1516.76 101.221 3412
1524.92 101.221 3412
1555.09 102.674 3461
1563.37 102.674 3461
1578.45 103.119 3476
1586.77 103.119 3476
1604.72 103.742 3497
1633.84 105.077 3542
1656.22 105.967 3572
1664.76 105.967 3572
1673.3 105.967 3572
1681.84 105.967 3572
1690.38 105.967 3572
1695.59 105.76 3565
1704.12 105.76 3565
1712.64 105.76 3565
1721.17 105.76 3565
1725.81 105.522 3557
1719.69 104.632 3527
1713.43 103.742 3497
1718.34 103.535 3490
1726.69 103.535 3490
1724.1 102.882 3468
1704.42 101.221 3412
1698.52 100.39 3384
1706.61 100.39 3384
1704.06 99.7672 3363
1691.74 98.5806 3323
1682.81 97.6016 3290
1690.68 97.6016 3290
1692.35 97.2456 3278
1696.56 97.0379 3271
1687.7 96.0886 3239
1692.31 95.9106 3233
1700.04 95.9106 3233
1701.43 95.5546 3221
1709.14 95.5546 3221
1709.91 95.169 3208
1717.58 95.169 3208
1715.57 94.635 3190
1713.48 94.101 3172
1708.04 93.389 3148
1715.57 93.389 3148
1716.53 93.033 3136
1717.43 92.677 3124
1712.2 91.9947 3101
1710.19 91.4904 3084
1717.56 91.4904 3084
1696.41 89.9774 3033
1682.32 88.8501 2995
1671.43 87.9008 2963
1678.52 87.9008 2963
1676.5 87.4261 2947
1662.98 86.3581 2911
1664.21 86.0615 2901
1665.38 85.7648 2891
1672.3 85.7648 2891
1670.5 85.3198 2876
1669.21 84.9045 2862
1667.27 84.4595 2847
1674.08 84.4595 2847
1674.98 84.1628 2837
1678.8 84.0145 2832
1683.19 83.8958 2828
1689.95 83.8958 2828
1693.72 83.7475 2823
1700.47 83.7475 2823
1704.19 83.5992 2818
1707.9 83.4508 2813
1714.62 83.4508 2813
1718.9 83.3322 2809
1719.48 83.0355 2799
1726.17 83.0355 2799
1732.86 83.0355 2799
1727.75 82.4719 2780
1734.4 82.4719 2780
1738.54 82.3532 2776
1745.18 82.3532 2776
1751.82 82.3532 2776
1755.29 82.2049 2771
1761.91 82.2049 2771
1768.54 82.2049 2771
1775.17 82.2049 2771
1781.79 82.2049 2771
1788.42 82.2049 2771
1792.45 82.0862 2767
1799.07 82.0862 2767
1805.69 82.0862 2767
1812.3 82.0862 2767
1812.35 81.7895 2757
1818.94 81.7895 2757
1825.53 81.7895 2757
1832.12 81.7895 2757
1832.72 81.5225 2748
1839.29 81.5225 2748
1845.86 81.5225 2748
1852.43 81.5225 2748
1859 81.5225 2748
1865.57 81.5225 2748
1872.14 81.5225 2748
1875.98 81.4039 2744
1882.54 81.4039 2744
1885.66 81.2555 2739
1892.21 81.2555 2739
1898.76 81.2555 2739
1899.05 80.9885 2730
1896.5 80.6029 2717
1905.8 80.7215 2721
1912.31 80.7215 2721
1918.82 80.7215 2721
1922.49 80.6029 2717
1928.99 80.6029 2717
1932.64 80.4842 2713
1939.12 80.4842 2713
1945.61 80.4842 2713
1948.5 80.3359 2708
1954.98 80.3359 2708
1958.56 80.2172 2704
1965.02 80.2172 2704
1964.93 79.9502 2695
1971.37 79.9502 2695
1977.82 79.9502 2695
1984.26 79.9502 2695
1987.75 79.8316 2691
1994.19 79.8316 2691
1993.93 79.5646 2682
2000.34 79.5646 2682
2000.02 79.2976 2673
2006.41 79.2976 2673
2009.79 79.1789 2669
2016.18 79.1789 2669
2032.41 79.5646 2682
2045.67 79.8316 2691
2078.79 80.8699 2726
2085.31 80.8699 2726
-2088.94 89.452 2790
-2085.26 89.5802 2794
-2078.57 89.5802 2794
-2071.89 89.5802 2794
-2065.21 89.5802 2794
-2058.53 89.5802 2794
-2051.85 89.5802 2794
-2038.58 89.2917 2785
-2031.92 89.2917 2785
-2028.9 89.452 2790
-2022.22 89.452 2790
-2015.55 89.452 2790
-2005.28 89.2917 2785
-1995.03 89.1314 2780
-1988.38 89.1314 2780
-1968.91 88.5543 2762
-1958.75 88.394 2757
-1945.78 88.1054 2748
-1939.21 88.1054 2748
-1929.83 87.9771 2744
-1946.15 120.744 3766
-1937.14 120.744 3766
-1928.14 120.744 3766
-1941.04 122.123 3809
-1931.94 122.123 3809
-1922.83 122.123 3809
-1595.01 118.083 3683
-1586.2 118.083 3683
-1577.39 118.083 3683
-1531.11 115.262 3595
-1512.77 114.524 3572
-1504.23 114.524 3572
-1495.68 114.524 3572
-1487.14 114.524 3572
-1457.08 112.857 3520
-1315.08 103.655 3233
-1307.35 103.655 3233
-1299.62 103.655 3233
-1272.31 102.084 3184
-1264.69 102.084 3184
-1247.6 101.315 3160
-1232.98 100.738 3142
-1220.79 100.353 3130
-1213.31 100.353 3130
-1198.89 99.7758 3112
-1184.94 99.2308 3095
-1162.32 97.9483 3055
-1155.01 97.9483 3055
-1139.44 97.243 3033
-1123.98 96.5376 3011
-1116.78 96.5376 3011
-1111.79 96.73 3017
-1106.4 96.8903 3022
-1099.18 96.8903 3022
-1091.95 96.8903 3022
-1082.93 96.73 3017
-1075.71 96.73 3017
-1068.5 96.73 3017
-1059.17 96.5376 3011
-1050.23 96.3773 3006
-1043.04 96.3773 3006
-1035.85 96.3773 3006
-1028.66 96.3773 3006
-1019.44 96.1849 3000
-1012.26 96.1849 3000
-1003.41 96.0246 2995
-997.913 96.1849 3000
-990.739 96.1849 3000
-983.566 96.1849 3000
-976.392 96.1849 3000
-967.602 96.0246 2995
-956.913 95.6719 2984
-949.777 95.6719 2984
-942.642 95.6719 2984
-933.938 95.5116 2979
-925.259 95.3513 2974
-918.147 95.3513 2974
-907.666 94.9986 2963
-899.061 94.8383 2958
-890.48 94.678 2953
-883.418 94.678 2953
-876.357 94.678 2953
-869.295 94.678 2953
-862.234 94.678 2953
-855.172 94.678 2953
-844.951 94.3254 2942
-836.492 94.165 2937
-828.057 94.0047 2932
-818.245 93.6841 2922
-811.258 93.6841 2922
-802.894 93.5238 2917
-795.919 93.5238 2917
-788.943 93.5238 2917
-781.968 93.5238 2917
-774.992 93.5238 2917
-768.017 93.5238 2917
-761.042 93.5238 2917
-754.066 93.5238 2917
-747.091 93.5238 2917
-740.115 93.5238 2917
-733.14 93.5238 2917
-726.164 93.5238 2917
-719.189 93.5238 2917
-712.214 93.5238 2917
-705.238 93.5238 2917
-698.263 93.5238 2917
-688.68 93.1711 2906
-680.558 93.0108 2901
-673.621 93.0108 2901
-667.833 93.1711 2906
-660.884 93.1711 2906
-653.935 93.1711 2906
-646.986 93.1711 2906
-640.036 93.1711 2906
-630.909 92.8505 2896
-622.906 92.6902 2891
-617.058 92.8505 2896
-610.133 92.8505 2896
-603.208 92.8505 2896
-606.784 94.4857 2947
-604.01 95.159 2968
-596.913 95.159 2968
-589.815 95.159 2968
-686.374 117.827 3675
-679.06 118.083 3683
-670.253 118.083 3683
-661.446 118.083 3683
-654.057 118.34 3691
-649.601 119.141 3716
-640.715 119.141 3716
-637.439 120.199 3749
-628.474 120.199 3749
-619.509 120.199 3749
-607.776 119.654 3732
-597.568 119.398 3724
-588.663 119.398 3724
-582.248 119.911 3740
-577.29 120.744 3766
-568.285 120.744 3766
-560.467 121.001 3774
-554.072 121.578 3792
-545.005 121.578 3792
-535.937 121.578 3792
-526.869 121.578 3792
-517.801 121.578 3792
-509.807 121.834 3800
-500.72 121.834 3800
-493.961 122.411 3818
-491.562 124.111 3871
-482.305 124.111 3871
-473.048 124.111 3871
-237.765 66.2714 2067
-232.823 66.2714 2067
-227.88 66.2714 2067
-221.643 65.8867 2055
-216.729 65.8867 2055
-211.814 65.8867 2055
-206.9 65.8867 2055
-201.986 65.8867 2055
-196.305 65.6302 2047
-191.41 65.6302 2047
-186.059 65.4699 2042
-180.733 65.3096 2037
-175.43 65.1493 2032
-170.571 65.1493 2032
-165.712 65.1493 2032
-160.852 65.1493 2032
-157.298 65.6943 2049
-152.845 65.8867 2055
-147.931 65.8867 2055
-143.713 66.2073 2065
-138.909 66.2714 2067
-134.485 66.5279 2075
-129.523 66.5279 2075
-124.561 66.5279 2075
-119.887 66.6882 2080
-115.355 66.9447 2088
-110.362 66.9447 2088
-105.52 67.0409 2091
-100.616 67.105 2093
-95.7483 67.2012 2096
-90.7361 67.2012 2096
-85.8057 67.2653 2098
-80.9043 67.3615 2101
-75.8801 67.3615 2101
-70.856 67.3615 2101
-65.9886 67.5218 2106
-60.9525 67.5218 2106
-55.9164 67.5218 2106
-50.8803 67.5218 2106
-45.8007 67.4577 2104
-40.7694 67.4577 2104
-35.7381 67.4577 2104
-30.663 67.3615 2101
-25.6023 67.2653 2098
-20.5657 67.2012 2096
-15.5313 67.105 2093
-10.5263 67.105 2093
-5.52126 67.105 2093
-0.515769 67.0409 2091
4.47801 66.9447 2088
9.47105 66.9447 2088
14.4433 66.8485 2085
19.4292 66.8485 2085
24.415 66.8485 2085
29.4009 66.8485 2085
34.3868 66.8485 2085
39.3726 66.8485 2085
44.316 66.7844 2083
49.297 66.7844 2083
54.2781 66.7844 2083
59.2592 66.7844 2083
64.2403 66.7844 2083
69.2878 66.8485 2085
74.2737 66.8485 2085
79.2596 66.8485 2085
84.5687 67.105 2093
89.7021 67.2012 2096
94.7142 67.2012 2096
99.9643 67.3615 2101
105.238 67.5218 2106
110.431 67.618 2109
116.077 67.9707 2120
121.147 67.9707 2120
126.335 68.0348 2122
132.091 68.3875 2133
137.384 68.4837 2136
142.492 68.4837 2136
148.015 68.676 2142
153.923 69.0287 2153
159.441 69.189 2158
164.602 69.189 2158
170.47 69.4776 2167
176.3 69.7341 2175
182.253 70.0226 2184
187.475 70.0226 2184
193.668 70.3753 2195
199.733 70.6639 2204
205.282 70.76 2207
210.56 70.76 2207
216.424 70.9524 2213
221.917 71.0165 2215
227.521 71.1127 2218
232.825 71.1127 2218
239.417 71.4975 2230
246.067 71.8822 2242
251.765 71.9784 2245
257.133 71.9784 2245
263.203 72.1708 2251
269.779 72.4914 2261
275.551 72.5876 2264
280.965 72.5876 2264
286.379 72.5876 2264
425.86 100.353 3130
433.345 100.353 3130
440.83 100.353 3130
447.455 100.161 3124
454.926 100.161 3124
458.992 99.4232 3101
461.293 98.3331 3067
464.349 97.4353 3039
471.616 97.4353 3039
475.417 96.73 3017
479.912 96.1849 3000
485.462 95.8643 2990
492.612 95.8643 2990
496.085 95.159 2968
501.487 94.8383 2958
506.669 94.4857 2947
511.973 94.165 2937
518.997 94.165 2937
525.124 94.0047 2932
532.136 94.0047 2932
539.147 94.0047 2932
546.158 94.0047 2932
553.17 94.0047 2932
559.226 93.8444 2927
566.225 93.8444 2927
573.224 93.8444 2927
579.232 93.6841 2922
586.22 93.6841 2922
593.207 93.6841 2922
600.195 93.6841 2922
606.143 93.5238 2917
613.118 93.5238 2917
620.094 93.5238 2917
627.069 93.5238 2917
632.741 93.3314 2911
639.702 93.3314 2911
647.996 93.5238 2917
654.971 93.5238 2917
661.946 93.5238 2917
668.922 93.5238 2917
675.897 93.5238 2917
681.468 93.3314 2911
688.429 93.3314 2911
695.39 93.3314 2911
702.351 93.3314 2911
708.094 93.1711 2906
715.043 93.1711 2906
721.992 93.1711 2906
728.942 93.1711 2906
735.891 93.1711 2906
742.84 93.1711 2906
749.789 93.1711 2906
756.738 93.1711 2906
763.687 93.1711 2906
770.636 93.1711 2906
777.585 93.1711 2906
784.535 93.1711 2906
791.484 93.1711 2906
798.433 93.1711 2906
805.382 93.1711 2906
812.331 93.1711 2906
819.28 93.1711 2906
826.229 93.1711 2906
833.178 93.1711 2906
840.128 93.1711 2906
847.077 93.1711 2906
854.026 93.1711 2906
862.456 93.3314 2911
869.417 93.3314 2911
876.378 93.3314 2911
883.34 93.3314 2911
890.301 93.3314 2911
897.262 93.3314 2911
902.67 93.1711 2906
909.619 93.1711 2906
916.568 93.1711 2906
923.517 93.1711 2906
932.067 93.3314 2911
942.577 93.6841 2922
952.814 94.0047 2932
959.825 94.0047 2932
966.836 94.0047 2932
982.483 94.8383 2958
991.229 94.9986 2963
998.315 94.9986 2963
1005.4 94.9986 2963
1352.67 119.398 3724
1361.58 119.398 3724
1379.68 120.199 3749
1394.95 120.744 3766
1403.95 120.744 3766
1412.96 120.744 3766
1421.96 120.744 3766
1427.55 120.456 3757
1436.53 120.456 3757
1432.82 119.398 3724
1422.76 117.827 3675
1415.96 116.544 3635
1424.65 116.544 3635
1420.73 115.518 3603
1426.17 115.262 3595
1428.78 114.781 3580
1424.9 113.787 3549
1433.38 113.787 3549
1426.84 112.6 3512
1423.38 111.671 3483
1411.16 110.068 3433
1419.37 110.068 3433
1404.29 108.272 3377
1404 107.631 3357
1409.09 107.407 3350
1417.1 107.407 3350
1405.11 105.9 3303
1402.32 105.098 3278
1407.14 104.874 3271
1409.34 104.457 3258
1417.13 104.457 3258
1424.92 104.457 3258
1438.43 104.874 3271
1505.5 109.17 3405
1516.76 109.394 3412
1524.92 109.394 3412
1555.09 110.965 3461
1563.37 110.965 3461
1571.64 110.965 3461
1633.84 113.562 3542
1656.22 114.524 3572
1664.76 114.524 3572
1673.3 114.524 3572
1681.84 114.524 3572
1690.38 114.524 3572
1695.59 114.3 3565
1704.12 114.3 3565
1712.64 114.3 3565
1721.17 114.3 3565
1725.81 114.043 3557
1719.69 113.081 3527
1713.43 112.12 3497
1718.34 111.895 3490
1726.69 111.895 3490
1713.66 110.516 3447
1704.42 109.394 3412
1695.01 108.272 3377
1703.08 108.272 3377
1701.02 107.631 3357
1691.74 106.541 3323
1682.81 105.483 3290
1690.68 105.483 3290
1685.64 104.681 3265
1679.96 103.848 3239
1674.68 103.046 3214
1676.08 102.661 3202
1683.74 102.661 3202
1691.4 102.661 3202
1695.87 102.469 3196
1703.51 102.469 3196
1711.16 102.469 3196
1705.89 101.7 3172
1703.75 101.122 3154
1704.78 100.738 3142
1712.3 100.738 3142
1709.96 100.161 3124
1714.13 99.9682 3118
1712.2 99.4232 3101
1700.76 98.3331 3067
1708.09 98.3331 3067
1696.41 97.243 3033
1679.51 95.8643 2990
1668.61 94.8383 2958
1675.68 94.8383 2958
1670.81 94.165 2937
1662.98 93.3314 2911
1664.21 93.0108 2901
1665.38 92.6902 2891
1672.3 92.6902 2891
1670.5 92.2093 2876
1669.21 91.7604 2862
1667.27 91.2795 2847
1674.08 91.2795 2847
1674.98 90.9589 2837
1678.8 90.7986 2832
1683.19 90.6703 2828
1689.95 90.6703 2828
1693.72 90.51 2823
1700.47 90.51 2823
1704.19 90.3497 2818
1707.9 90.1894 2813
1714.62 90.1894 2813
1718.9 90.0612 2809
1719.48 89.7405 2799
1723.09 89.5802 2794
1729.77 89.5802 2794
1727.75 89.1314 2780
1734.4 89.1314 2780
1738.54 89.0031 2776
1745.18 89.0031 2776
1751.82 89.0031 2776
1755.29 88.8428 2771
1761.91 88.8428 2771
1768.54 88.8428 2771
1775.17 88.8428 2771
1781.79 88.8428 2771
1788.42 88.8428 2771
1792.45 88.7146 2767
1799.07 88.7146 2767
1805.69 88.7146 2767
1812.3 88.7146 2767
1812.35 88.394 2757
1818.94 88.394 2757
1825.53 88.394 2757
1832.12 88.394 2757
1832.72 88.1054 2748
1839.29 88.1054 2748
1845.86 88.1054 2748
1852.43 88.1054 2748
1859 88.1054 2748
1865.57 88.1054 2748
1872.14 88.1054 2748
1875.98 87.9771 2744
1882.54 87.9771 2744
1885.66 87.8168 2739
1892.21 87.8168 2739
1898.76 87.8168 2739
1899.05 87.5283 2730
1896.5 87.1115 2717
1905.8 87.2397 2721
1912.31 87.2397 2721
1918.82 87.2397 2721
1922.49 87.1115 2717
1928.99 87.1115 2717
1929.08 86.8229 2708
1935.55 86.8229 2708
1942.03 86.8229 2708
1945.62 86.6947 2704
1952.09 86.6947 2704
1958.56 86.6947 2704
1965.02 86.6947 2704
1964.93 86.4061 2695
1971.37 86.4061 2695
1974.88 86.2779 2691
1981.32 86.2779 2691
1987.75 86.2779 2691
1994.19 86.2779 2691
1987.24 85.7008 2673
1993.63 85.7008 2673
1994.04 85.4443 2665
2000.41 85.4443 2665
2006.78 85.4443 2665
2013.15 85.4443 2665
2025.59 85.7008 2673
2045.67 86.2779 2691
2078.79 87.4 2726
2085.31 87.4 2726
-2091.94 96.2733 2794
-2085.26 96.2733 2794
-2082.29 96.4456 2799
-2075.6 96.4456 2799
-2068.91 96.4456 2799
-2062.21 96.4456 2799
-2055.52 96.4456 2799
-2042.24 96.1355 2790
-2038.49 96.2733 2794
-2035.44 96.4456 2799
-2028.75 96.4456 2799
-2022.05 96.4456 2799
-2015.36 96.4456 2799
-2002.21 96.1355 2790
-1995.54 96.1355 2790
-1978.89 95.6531 2776
-1962.3 95.1707 2762
-1952.16 94.9984 2757
-1945.56 94.9984 2757
-1929.83 94.5504 2744
-1612.62 126.906 3683
-1603.81 126.906 3683
-1595.01 126.906 3683
-1565.53 125.252 3635
-1556.83 125.252 3635
-1531.11 123.873 3595
-1512.77 123.081 3572
-1504.23 123.081 3572
-1495.68 123.081 3572
-1487.14 123.081 3572
-1457.08 121.289 3520
-1315.08 111.4 3233
-1307.35 111.4 3233
-1299.62 111.4 3233
-1272.31 109.712 3184
-1264.69 109.712 3184
-1247.6 108.885 3160
-1232.98 108.264 3142
-1220.79 107.851 3130
-1213.31 107.851 3130
-1198.89 107.231 3112
-1184.94 106.645 3095
-1164.6 105.473 3061
-1157.28 105.473 3061
-1133.43 103.957 3017
-1122.11 103.578 3006
-1114.92 103.578 3006
-1109.58 103.75 3011
-1104.57 103.957 3017
-1097.36 103.957 3017
-1090.14 103.957 3017
-1082.93 103.957 3017
-1075.71 103.957 3017
-1068.5 103.957 3017
-1059.17 103.75 3011
-1050.23 103.578 3006
-1043.04 103.578 3006
-1035.85 103.578 3006
-1028.66 103.578 3006
-1019.44 103.371 3000
-1012.26 103.371 3000
-1003.41 103.199 2995
-997.913 103.371 3000
-990.739 103.371 3000
-983.566 103.371 3000
-976.392 103.371 3000
-967.602 103.199 2995
-956.913 102.82 2984
-949.777 102.82 2984
-942.642 102.82 2984
-933.938 102.648 2979
-925.259 102.476 2974
-918.147 102.476 2974
-907.666 102.097 2963
-899.061 101.924 2958
-891.987 101.924 2958
-884.914 101.924 2958
-877.84 101.924 2958
-870.767 101.924 2958
-862.234 101.752 2953
-855.172 101.752 2953
-844.951 101.373 2942
-836.492 101.201 2937
-828.057 101.028 2932
-818.245 100.684 2922
-811.258 100.684 2922
-801.243 100.305 2911
-794.282 100.305 2911
-790.296 100.684 2922
-783.308 100.684 2922
-776.321 100.684 2922
-769.333 100.684 2922
-762.346 100.684 2922
-755.359 100.684 2922
-748.371 100.684 2922
-741.384 100.684 2922
-735.653 100.856 2927
-728.654 100.856 2927
-721.654 100.856 2927
-714.655 100.856 2927
-706.447 100.684 2922
-699.46 100.684 2922
-689.865 100.305 2911
-682.904 100.305 2911
-675.943 100.305 2911
-668.982 100.305 2911
-662.021 100.305 2911
-656.41 100.512 2917
-649.435 100.512 2917
-642.459 100.512 2917
-633.087 100.132 2906
-625.061 99.9602 2901
-618.124 99.9602 2901
-614.557 100.512 2917
-607.582 100.512 2917
-606.784 101.545 2947
-599.736 101.545 2947
-592.689 101.545 2947
-585.642 101.545 2947
-679.06 126.906 3683
-670.253 126.906 3683
-661.446 126.906 3683
-654.057 127.181 3691
-656.768 129.456 3757
-647.784 129.456 3757
-638.8 129.456 3757
-629.815 129.456 3757
-620.831 129.456 3757
-610.544 129.18 3749
-598.852 128.594 3732
-591.192 128.87 3740
-587.541 130.041 3774
-578.517 130.041 3774
-574.773 131.247 3809
-567.001 131.557 3818
-560.355 132.143 3835
-551.185 132.143 3835
-542.014 132.143 3835
-532.844 132.143 3835
-523.673 132.143 3835
-515.71 132.453 3844
-506.517 132.453 3844
-500.818 133.384 3871
-492.705 133.694 3880
-483.426 133.694 3880
-474.148 133.694 3880
-239.261 71.6709 2080
-234.287 71.6709 2080
-229.313 71.6709 2080
-223.26 71.3263 2070
-218.31 71.3263 2070
-212.33 70.9817 2060
-206.9 70.8094 2055
-201.986 70.8094 2055
-197.072 70.8094 2055
-192.158 70.8094 2055
-186.059 70.3615 2042
-180.91 70.2581 2039
-175.602 70.0858 2034
-170.739 70.0858 2034
-165.712 70.0169 2032
-160.852 70.0169 2032
-157.529 70.7061 2052
-152.994 70.8784 2057
-148.075 70.8784 2057
-143.713 71.154 2065
-138.909 71.2229 2067
-134.485 71.4986 2075
-129.523 71.4986 2075
-124.741 71.602 2078
-120.06 71.7742 2083
-115.521 72.0499 2091
-110.52 72.0499 2091
-105.621 72.1188 2093
-100.76 72.2222 2096
-95.8396 72.2911 2098
-90.8227 72.2911 2098
-85.9284 72.3945 2101
-80.9043 72.3945 2101
-75.9885 72.4978 2104
-70.9572 72.4978 2104
-65.9886 72.5668 2106
-60.9525 72.5668 2106
-55.9164 72.5668 2106
-50.8803 72.5668 2106
-45.8007 72.4978 2104
-40.7694 72.4978 2104
-35.7381 72.4978 2104
-30.6192 72.2911 2098
-25.5779 72.2222 2096
-20.5363 72.1188 2093
-15.5313 72.1188 2093
-10.5263 72.1188 2093
-5.51598 72.0499 2091
-0.515029 71.9465 2088
4.47158 71.8432 2085
9.45744 71.8432 2085
14.4295 71.7742 2083
19.4105 71.7742 2083
24.3916 71.7742 2083
29.3727 71.7742 2083
34.3538 71.7742 2083
39.3349 71.7742 2083
44.2521 71.6709 2080
49.226 71.6709 2080
54.2 71.6709 2080
59.1739 71.6709 2080
64.2403 71.7742 2083
69.2878 71.8432 2085
74.2737 71.8432 2085
79.2596 71.8432 2085
84.5687 72.1188 2093
89.7021 72.2222 2096
94.7142 72.2222 2096
99.9643 72.3945 2101
105.388 72.6701 2109
110.693 72.8424 2114
115.913 72.9458 2117
120.975 72.9458 2117
126.514 73.2215 2125
132.091 73.4971 2133
137.77 73.8072 2142
142.892 73.8072 2142
148.36 73.9795 2147
154.066 74.2552 2155
159.884 74.5653 2164
165.059 74.5653 2164
170.863 74.8409 2172
176.787 75.151 2181
182.92 75.5301 2192
188.162 75.5301 2192
194.198 75.8402 2201
199.733 75.9436 2204
205.561 76.1503 2210
210.846 76.1503 2210
216.424 76.2537 2213
221.917 76.3226 2215
227.521 76.426 2218
232.825 76.426 2218
239.417 76.8394 2230
245.738 77.1496 2239
251.428 77.2529 2242
256.789 77.2529 2242
262.502 77.3563 2245
268.944 77.6664 2254
275.186 77.9076 2261
280.593 77.9076 2261
285.999 77.9076 2261
423.411 107.231 3112
430.853 107.231 3112
439.985 107.644 3124
447.455 107.644 3124
454.926 107.644 3124
459.88 107.058 3107
462.046 105.852 3072
464.349 104.715 3039
471.616 104.715 3039
476.205 104.13 3022
480.872 103.578 3006
487.086 103.371 3000
494.26 103.371 3000
497.924 102.648 2979
502.335 102.097 2963
508.561 101.924 2958
513.716 101.545 2947
520.764 101.545 2947
526.02 101.201 2937
533.043 101.201 2937
540.066 101.201 2937
547.09 101.201 2937
553.17 101.028 2932
560.181 101.028 2932
567.192 101.028 2932
574.203 101.028 2932
580.224 100.856 2927
587.223 100.856 2927
593.207 100.684 2922
600.195 100.684 2922
607.182 100.684 2922
613.118 100.512 2917
620.094 100.512 2917
627.069 100.512 2917
632.741 100.305 2911
639.702 100.305 2911
647.996 100.512 2917
654.971 100.512 2917
661.946 100.512 2917
668.922 100.512 2917
675.897 100.512 2917
681.468 100.305 2911
688.429 100.305 2911
695.39 100.305 2911
702.351 100.305 2911
708.094 100.132 2906
715.043 100.132 2906
721.992 100.132 2906
728.942 100.132 2906
735.891 100.132 2906
742.84 100.132 2906
749.789 100.132 2906
756.738 100.132 2906
765.001 100.305 2911
771.962 100.305 2911
778.923 100.305 2911
785.884 100.305 2911
791.484 100.132 2906
799.807 100.305 2911
806.768 100.305 2911
813.729 100.305 2911
820.69 100.305 2911
827.651 100.305 2911
834.612 100.305 2911
841.573 100.305 2911
848.534 100.305 2911
855.495 100.305 2911
864.234 100.512 2917
871.209 100.512 2917
878.185 100.512 2917
885.16 100.512 2917
892.136 100.512 2917
899.111 100.512 2917
902.67 100.132 2906
909.619 100.132 2906
916.568 100.132 2906
923.517 100.132 2906
930.466 100.132 2906
940.964 100.512 2917
949.564 100.684 2922
956.551 100.684 2922
963.539 100.684 2922
972.187 100.856 2927
989.557 101.924 2958
996.63 101.924 2958
1003.7 101.924 2958
1452.25 136.864 3972
1461.75 136.864 3972
1471.25 136.864 3972
1463.23 135.244 3925
1465.86 134.624 3907
1431.78 130.662 3792
1440.85 130.662 3792
1449.92 130.662 3792
1448.98 129.766 3766
1441.73 128.318 3724
1421.81 125.769 3650
1430.53 125.769 3650
1433.35 125.252 3635
1432.52 124.425 3611
1437.96 124.149 3603
1437.34 123.357 3580
1445.9 123.357 3580
1432.93 121.53 3527
1423.38 120.014 3483
1414.04 118.533 3440
1422.26 118.533 3440
1404.29 116.362 3377
1406.51 115.879 3363
1409.09 115.431 3350
1417.1 115.431 3350
1405.11 113.812 3303
1402.32 112.951 3278
1407.14 112.709 3271
1409.34 112.261 3258
1417.13 112.261 3258
1424.92 112.261 3258
1438.43 112.709 3271
1508.6 117.568 3412
1541.65 119.497 3468
1549.94 119.497 3468
1558.24 119.497 3468
1566.53 119.497 3468
1574.82 119.497 3468
1670.59 124.149 3603
1679.2 124.149 3603
1687.82 124.149 3603
1696.44 124.149 3603
1712.62 124.7 3619
1721.28 124.7 3619
1729.93 124.7 3619
1730.9 124.149 3603
1739.52 124.149 3603
1733.09 123.081 3572
1734.32 122.564 3557
1720.78 121.014 3512
1718.34 120.255 3490
1726.69 120.255 3490
1713.66 118.774 3447
1690.43 116.603 3384
1687.98 115.879 3363
1696.02 115.879 3363
1690.89 114.984 3337
1681.56 113.812 3303
1670.02 112.503 3265
1677.83 112.503 3265
1662.92 110.986 3221
1660.77 110.332 3202
1662.17 109.918 3190
1654.1 108.885 3160
1667.96 109.298 3172
1675.55 109.298 3172
1683.14 109.298 3172
1690.72 109.298 3172
1698.31 109.298 3172
1696.21 108.678 3154
1697.27 108.264 3142
1695.02 107.644 3124
1702.49 107.644 3124
1706.67 107.437 3118
1704.78 106.852 3101
1693.43 105.68 3067
1685.23 104.715 3039
1692.5 104.715 3039
1675.16 103.199 2995
1661.54 101.924 2958
1656.76 101.201 2937
1663.79 101.201 2937
1659.43 100.512 2917
1660.12 100.132 2906
1664.21 99.9602 2901
1662.5 99.4433 2886
1669.4 99.4433 2886
1670.5 99.0988 2876
1669.21 98.6164 2862
1667.27 98.0995 2847
1674.08 98.0995 2847
1674.98 97.7549 2837
1678.8 97.5827 2832
1683.19 97.4448 2828
1689.95 97.4448 2828
1693.72 97.2725 2823
1700.47 97.2725 2823
1704.19 97.1003 2818
1707.9 96.928 2813
1714.62 96.928 2813
1721.35 96.928 2813
1719.48 96.4456 2799
1726.17 96.4456 2799
1732.86 96.4456 2799
1730.86 95.9632 2785
1734.4 95.7909 2780
1741.04 95.7909 2780
1747.69 95.7909 2780
1754.34 95.7909 2780
1758.45 95.6531 2776
1765.09 95.6531 2776
1771.73 95.6531 2776
1778.37 95.6531 2776
1785.01 95.6531 2776
1791.64 95.6531 2776
1795.04 95.4808 2771
1801.67 95.4808 2771
1805.69 95.3429 2767
1812.3 95.3429 2767
1818.92 95.3429 2767
1825.54 95.3429 2767
1828.84 95.1707 2762
1832.12 94.9984 2757
1838.72 94.9984 2757
1845.31 94.9984 2757
1851.9 94.9984 2757
1858.5 94.9984 2757
1862.38 94.8605 2753
1868.97 94.8605 2753
1875.55 94.8605 2753
1878.71 94.6883 2748
1885.29 94.6883 2748
1889.1 94.5504 2744
1895.66 94.5504 2744
1902.23 94.5504 2744
1899.05 94.068 2730
1902.79 93.9302 2726
1909.3 93.9302 2726
1915.82 93.9302 2726
1922.34 93.9302 2726
1925.32 93.7579 2721
1931.83 93.7579 2721
1932.64 93.4823 2713
1939.12 93.4823 2713
1945.61 93.4823 2713
1948.5 93.31 2708
1954.98 93.31 2708
1954.93 92.9999 2699
1961.39 92.9999 2699
1964.93 92.862 2695
1971.37 92.862 2695
1974.88 92.7242 2691
1981.32 92.7242 2691
1987.75 92.7242 2691
1994.19 92.7242 2691
1990.96 92.2763 2678
1993.63 92.104 2673
2000.02 92.104 2673
2006.41 92.104 2673
2006.78 91.8283 2665
2013.15 91.8283 2665
2032.41 92.4141 2682
2048.71 92.862 2695
2078.79 93.9302 2726
2085.31 93.9302 2726
-2091.94 102.966 2794
-2085.26 102.966 2794
-2082.29 103.151 2799
-2075.6 103.151 2799
-2068.91 103.151 2799
-2062.21 103.151 2799
-2055.52 103.151 2799
-2042.24 102.819 2790
-2038.49 102.966 2794
-2035.44 103.151 2799
-2028.75 103.151 2799
-2022.05 103.151 2799
-2015.36 103.151 2799
-2002.21 102.819 2790
-1995.54 102.819 2790
-1978.89 102.303 2776
-1962.3 101.787 2762
-1952.16 101.603 2757
-1945.56 101.603 2757
-1929.83 101.124 2744
-1612.62 135.728 3683
-1603.81 135.728 3683
-1595.01 135.728 3683
-1565.53 133.959 3635
-1556.83 133.959 3635
-1531.11 132.485 3595
-1512.77 131.638 3572
-1504.23 131.638 3572
-1495.68 131.638 3572
-1487.14 131.638 3572
-1457.08 129.721 3520
-1315.08 119.145 3233
-1307.35 119.145 3233
-1299.62 119.145 3233
-1272.31 117.339 3184
-1264.69 117.339 3184
-1247.6 116.454 3160
-1240.05 116.454 3160
-1227.81 116.012 3148
-1220.28 116.012 3148
-1198.89 114.685 3112
-1184.94 114.059 3095
-1164.6 112.806 3061
-1157.28 112.806 3061
-1133.43 111.184 3017
-1122.11 110.779 3006
-1114.92 110.779 3006
-1109.58 110.963 3011
-1104.57 111.184 3017
-1097.36 111.184 3017
-1090.14 111.184 3017
-1082.93 111.184 3017
-1075.71 111.184 3017
-1068.5 111.184 3017
-1059.17 110.963 3011
-1050.23 110.779 3006
-1043.04 110.779 3006
-1035.85 110.779 3006
-1028.66 110.779 3006
-1019.44 110.558 3000
-1012.26 110.558 3000
-1003.41 110.374 2995
-997.913 110.558 3000
-990.739 110.558 3000
-983.566 110.558 3000
-976.392 110.558 3000
-967.602 110.374 2995
-956.913 109.968 2984
-949.777 109.968 2984
-942.642 109.968 2984
-933.938 109.784 2979
-925.259 109.6 2974
-918.147 109.6 2974
-907.666 109.194 2963
-899.061 109.01 2958
-891.987 109.01 2958
-884.914 109.01 2958
-877.84 109.01 2958
-870.767 109.01 2958
-862.234 108.826 2953
-855.172 108.826 2953
-844.951 108.421 2942
-836.492 108.236 2937
-828.057 108.052 2932
-818.245 107.683 2922
-811.258 107.683 2922
-801.243 107.278 2911
-794.282 107.278 2911
-790.296 107.683 2922
-783.308 107.683 2922
-776.321 107.683 2922
-769.333 107.683 2922
-762.346 107.683 2922
-756.651 107.868 2927
-749.652 107.868 2927
-742.652 107.868 2927
-735.653 107.868 2927
-728.654 107.868 2927
-721.654 107.868 2927
-714.655 107.868 2927
-707.656 107.868 2927
-700.656 107.868 2927
-692.472 107.683 2922
-684.312 107.499 2917
-677.336 107.499 2917
-672.659 107.868 2927
-665.66 107.868 2927
-658.66 107.868 2927
-651.661 107.868 2927
-644.662 107.868 2927
-637.662 107.868 2927
-629.586 107.683 2922
-622.598 107.683 2922
-616.664 107.868 2927
-609.665 107.868 2927
-609.048 109.01 2958
-601.975 109.01 2958
-594.901 109.01 2958
-587.828 109.01 2958
-679.06 135.728 3683
-670.253 135.728 3683
-661.446 135.728 3683
-655.474 136.318 3699
-656.768 138.455 3757
-647.784 138.455 3757
-641.69 139.082 3774
-632.665 139.082 3774
-623.641 139.082 3774
-611.847 138.455 3757
-602.863 138.455 3757
-596.566 139.082 3774
-592.99 140.372 3809
-583.882 140.372 3809
-578.697 141.33 3835
-569.526 141.33 3835
-561.67 141.662 3844
-552.478 141.662 3844
-543.286 141.662 3844
-535.344 141.993 3853
-526.131 141.993 3853
-518.125 142.325 3862
-508.889 142.325 3862
-503.147 143.32 3889
-493.847 143.32 3889
-484.548 143.32 3889
-475.248 143.32 3889
-240.181 76.9484 2088
-235.188 76.9484 2088
-230.195 76.9484 2088
-224.339 76.6535 2080
-219.365 76.6535 2080
-212.33 75.9165 2060
-207.102 75.8059 2057
-202.183 75.8059 2057
-197.072 75.7322 2055
-192.158 75.7322 2055
-186.241 75.3268 2044
-180.91 75.1426 2039
-175.602 74.9583 2034
-170.739 74.9583 2034
-165.712 74.8846 2032
-160.852 74.8846 2032
-157.529 75.6217 2052
-152.994 75.8059 2057
-148.075 75.8059 2057
-143.852 76.1744 2067
-139.111 76.285 2070
-134.485 76.4693 2075
-129.523 76.4693 2075
-124.741 76.5798 2078
-120.06 76.7641 2083
-115.631 77.1326 2093
-110.626 77.1326 2093
-105.773 77.2432 2096
-100.857 77.3169 2098
-95.8396 77.3169 2098
-90.8227 77.3169 2098
-85.9284 77.4274 2101
-81.0198 77.538 2104
-76.0607 77.6117 2106
-71.0247 77.6117 2106
-65.9886 77.6117 2106
-60.9525 77.6117 2106
-55.9164 77.6117 2106
-50.8803 77.6117 2106
-45.8442 77.6117 2106
-40.7694 77.538 2104
-35.7381 77.538 2104
-30.663 77.4274 2101
-25.6023 77.3169 2098
-20.5657 77.2432 2096
-15.5313 77.1326 2093
-10.5263 77.1326 2093
-5.51598 77.0589 2091
-0.515029 76.9484 2088
4.47158 76.8378 2085
9.45744 76.8378 2085
14.4295 76.7641 2083
19.4105 76.7641 2083
24.3916 76.7641 2083
29.3727 76.7641 2083
34.3538 76.7641 2083
39.3349 76.7641 2083
44.2521 76.6535 2080
49.226 76.6535 2080
54.2 76.6535 2080
59.1739 76.6535 2080
64.2403 76.7641 2083
69.2878 76.8378 2085
74.2737 76.8378 2085
79.2596 76.8378 2085
84.5687 77.1326 2093
89.7877 77.3169 2098
94.8046 77.3169 2098
100.202 77.6117 2106
105.388 77.7223 2109
110.85 78.0171 2117
116.187 78.2013 2122
121.261 78.2013 2122
126.99 78.6067 2133
132.462 78.8278 2139
138.092 79.1227 2147
143.226 79.1227 2147
148.913 79.4175 2155
154.71 79.7492 2164
160.106 79.8597 2167
165.288 79.8597 2167
171.099 80.1545 2175
177.03 80.4862 2184
183.17 80.8916 2195
188.419 80.8916 2195
194.462 81.2233 2204
200.005 81.3338 2207
205.84 81.5549 2213
211.132 81.5549 2213
216.424 81.5549 2213
221.917 81.6286 2215
227.521 81.7392 2218
232.825 81.7392 2218
239.095 82.0709 2227
245.079 82.292 2233
250.755 82.4025 2236
256.102 82.4025 2236
262.151 82.6237 2242
268.586 82.9553 2251
274.334 83.0659 2254
279.724 83.0659 2254
285.114 83.0659 2254
289.344 82.7342 2245
294.712 82.7342 2245
439.985 115.128 3124
447.455 115.128 3124
454.926 115.128 3124
459.88 114.501 3107
462.948 113.432 3078
466.03 112.401 3050
473.324 112.401 3050
476.205 111.369 3022
482.631 111.184 3017
488.06 110.779 3006
495.248 110.779 3006
497.924 109.784 2979
503.182 109.379 2968
509.42 109.194 2963
514.762 108.826 2953
521.824 108.826 2953
527.811 108.605 2947
534.858 108.605 2947
540.066 108.236 2937
547.09 108.236 2937
554.113 108.236 2937
561.136 108.236 2937
568.159 108.236 2937
575.183 108.236 2937
581.215 108.052 2932
587.223 107.868 2927
594.222 107.868 2927
601.222 107.868 2927
608.221 107.868 2927
614.169 107.683 2922
620.094 107.499 2917
627.069 107.499 2917
634.045 107.499 2917
641.02 107.499 2917
647.996 107.499 2917
654.971 107.499 2917
661.946 107.499 2917
668.922 107.499 2917
675.897 107.499 2917
681.468 107.278 2911
688.429 107.278 2911
695.39 107.278 2911
702.351 107.278 2911
709.312 107.278 2911
716.274 107.278 2911
721.992 107.094 2906
728.942 107.094 2906
735.891 107.094 2906
742.84 107.094 2906
749.789 107.094 2906
758.04 107.278 2911
765.001 107.278 2911
771.962 107.278 2911
778.923 107.278 2911
785.884 107.278 2911
792.845 107.278 2911
799.807 107.278 2911
806.768 107.278 2911
813.729 107.278 2911
820.69 107.278 2911
827.651 107.278 2911
834.612 107.278 2911
841.573 107.278 2911
850.283 107.499 2917
857.259 107.499 2917
865.715 107.683 2922
872.703 107.683 2922
879.69 107.683 2922
885.16 107.499 2917
892.136 107.499 2917
899.111 107.499 2917
902.67 107.094 2906
909.619 107.094 2906
916.568 107.094 2906
923.517 107.094 2906
930.466 107.094 2906
937.415 107.094 2906
944.364 107.094 2906
951.314 107.094 2906
958.263 107.094 2906
968.865 107.499 2917
975.841 107.499 2917
982.816 107.499 2917
989.792 107.499 2917
1473.46 148.516 4030
1483.1 148.516 4030
1492.73 148.516 4030
1480.75 146.379 3972
1483.12 145.679 3953
1475.2 143.983 3907
1460.61 141.662 3844
1469.8 141.662 3844
1465.52 140.372 3809
1457.99 138.787 3766
1431.54 135.434 3675
1440.33 135.434 3675
1439.26 134.512 3650
1442.04 133.959 3635
1447.54 133.665 3627
1440.55 132.227 3588
1449.13 132.227 3588
1435.78 130.237 3534
1426.24 128.616 3490
1416.92 127.031 3447
1425.16 127.031 3447
1404.29 124.451 3377
1406.51 123.935 3363
1409.09 123.456 3350
1417.1 123.456 3350
1402.56 121.503 3297
1399.32 120.545 3271
1401.55 120.066 3258
1406.75 119.845 3252
1414.52 119.845 3252
1419.68 119.624 3246
1432.72 120.066 3258
1520.98 126.773 3440
1551.43 128.616 3490
1559.78 128.616 3490
1581.6 129.721 3520
1590.02 129.721 3520
1598.44 129.721 3520
1670.59 132.78 3603
1679.2 132.78 3603
1713.59 134.807 3658
1722.33 134.807 3658
1731.08 134.807 3658
1721.28 133.37 3619
1729.93 133.37 3619
1738.59 133.37 3619
1747.24 133.37 3619
1733.09 131.638 3572
1734.32 131.085 3557
1720.78 129.427 3512
1718.34 128.616 3490
1726.69 128.616 3490
1713.66 127.031 3447
1679.94 123.935 3363
1674.93 122.977 3337
1682.91 122.977 3337
1670.62 121.503 3297
1658.65 120.066 3258
1647.52 118.702 3221
1626.96 116.676 3166
1634.53 116.676 3166
1638.98 116.454 3160
1640.29 116.012 3148
1638.39 115.349 3130
1645.88 115.349 3130
1653.36 115.349 3130
1660.85 115.349 3130
1668.33 115.349 3130
1675.82 115.349 3130
1673.62 114.685 3112
1678.36 114.501 3107
1670.06 113.432 3078
1671.42 113.027 3067
1678.76 113.027 3067
1686.09 113.027 3067
1677.97 111.995 3039
1660.83 110.374 2995
1668 110.374 2995
1651.67 108.826 2953
1644.12 107.868 2927
1645.48 107.499 2917
1652.46 107.499 2917
1653.18 107.094 2906
1654.41 106.725 2896
1655.6 106.357 2886
1662.5 106.357 2886
1669.4 106.357 2886
1664.69 105.62 2866
1663.38 105.104 2852
1667.27 104.92 2847
1674.08 104.92 2847
1674.98 104.551 2837
1678.8 104.367 2832
1683.19 104.219 2828
1689.95 104.219 2828
1693.72 104.035 2823
1700.47 104.035 2823
1704.19 103.851 2818
1707.9 103.667 2813
1714.62 103.667 2813
1721.35 103.667 2813
1722.55 103.335 2804
1726.17 103.151 2799
1732.86 103.151 2799
1730.86 102.635 2785
1737.52 102.635 2785
1741.04 102.45 2780
1747.69 102.45 2780
1754.34 102.45 2780
1758.45 102.303 2776
1765.09 102.303 2776
1771.73 102.303 2776
1778.37 102.303 2776
1785.01 102.303 2776
1791.64 102.303 2776
1795.04 102.119 2771
1801.67 102.119 2771
1808.3 102.119 2771
1814.92 102.119 2771
1818.92 101.971 2767
1825.54 101.971 2767
1828.84 101.787 2762
1835.45 101.787 2762
1842.05 101.787 2762
1848.66 101.787 2762
1855.26 101.787 2762
1858.5 101.603 2757
1865.09 101.603 2757
1871.68 101.603 2757
1878.27 101.603 2757
1882.13 101.455 2753
1888.72 101.455 2753
1891.86 101.271 2748
1898.43 101.271 2748
1902.23 101.124 2744
1902.53 100.792 2735
1905.58 100.608 2730
1912.11 100.608 2730
1918.63 100.608 2730
1925.16 100.608 2730
1928.86 100.46 2726
1935.38 100.46 2726
1932.64 99.9813 2713
1939.12 99.9813 2713
1945.61 99.9813 2713
1948.5 99.797 2708
1954.98 99.797 2708
1954.93 99.4653 2699
1961.39 99.4653 2699
1964.93 99.3179 2695
1971.37 99.3179 2695
1977.82 99.3179 2695
1984.26 99.3179 2695
1990.7 99.3179 2695
1997.15 99.3179 2695
1996.9 98.9862 2686
1997.36 98.6914 2678
2003.76 98.6914 2678
2010.17 98.6914 2678
2012.81 98.5072 2673
2019.2 98.5072 2673
2039.23 99.1705 2691
2065.43 100.129 2717
2088.7 100.939 2739
2095.25 100.939 2739
-2091.94 109.659 2794
-2085.26 109.659 2794
-2082.29 109.856 2799
-2075.6 109.856 2799
-2068.91 109.856 2799
-2062.21 109.856 2799
-2055.52 109.856 2799
-2042.24 109.502 2790
-2038.49 109.659 2794
-2035.44 109.856 2799
-2028.75 109.856 2799
-2022.05 109.856 2799
-2015.36 109.856 2799
-2002.21 109.502 2790
-1995.54 109.502 2790
-1978.89 108.953 2776
-1962.3 108.403 2762
-1952.16 108.207 2757
-1945.56 108.207 2757
-1929.83 107.697 2744
-1612.62 144.551 3683
-1603.81 144.551 3683
-1595.01 144.551 3683
-1565.53 142.667 3635
-1556.83 142.667 3635
-1518.33 139.92 3565
-1503.03 139.292 3549
-1488.22 138.703 3534
-1479.77 138.703 3534
-1465.49 138.154 3520
-1450.87 137.565 3505
-1315.08 126.889 3233
-1307.35 126.889 3233
-1299.62 126.889 3233
-1272.31 124.966 3184
-1264.69 124.966 3184
-1247.6 124.024 3160
-1240.05 124.024 3160
-1227.81 123.553 3148
-1220.28 123.553 3148
-1198.89 122.14 3112
-1184.94 121.473 3095
-1164.6 120.139 3061
-1157.28 120.139 3061
-1131.18 118.176 3011
-1113.9 117.117 2984
-1110.84 117.548 2995
-1105.52 117.745 3000
-1102.38 118.176 3011
-1095.18 118.176 3011
-1090.14 118.412 3017
-1082.93 118.412 3017
-1075.71 118.412 3017
-1068.5 118.412 3017
-1057.42 117.98 3006
-1050.23 117.98 3006
-1043.04 117.98 3006
-1035.85 117.98 3006
-1028.66 117.98 3006
-1019.44 117.745 3000
-1012.26 117.745 3000
-1003.41 117.548 2995
-997.913 117.745 3000
-990.739 117.745 3000
-983.566 117.745 3000
-976.392 117.745 3000
-967.602 117.548 2995
-956.913 117.117 2984
-949.777 117.117 2984
-942.642 117.117 2984
-932.371 116.724 2974
-925.259 116.724 2974
-918.147 116.724 2974
-907.666 116.292 2963
-899.061 116.096 2958
-891.987 116.096 2958
-884.914 116.096 2958
-877.84 116.096 2958
-870.767 116.096 2958
-862.234 115.9 2953
-855.172 115.9 2953
-844.951 115.468 2942
-836.492 115.272 2937
-828.057 115.076 2932
-818.245 114.683 2922
-811.258 114.683 2922
-801.243 114.251 2911
-794.282 114.251 2911
-790.296 114.683 2922
-783.308 114.683 2922
-776.321 114.683 2922
-769.333 114.683 2922
-762.346 114.683 2922
-756.651 114.879 2927
-749.652 114.879 2927
-742.652 114.879 2927
-735.653 114.879 2927
-728.654 114.879 2927
-721.654 114.879 2927
-714.655 114.879 2927
-707.656 114.879 2927
-700.656 114.879 2927
-692.472 114.683 2922
-684.312 114.487 2917
-677.336 114.487 2917
-672.659 114.879 2927
-665.66 114.879 2927
-658.66 114.879 2927
-651.661 114.879 2927
-644.662 114.879 2927
-637.662 114.879 2927
-629.586 114.683 2922
-622.598 114.683 2922
-616.664 114.879 2927
-609.665 114.879 2927
-609.048 116.096 2958
-601.975 116.096 2958
-594.901 116.096 2958
-587.828 116.096 2958
-661.446 144.551 3683
-655.474 145.179 3699
-667.431 149.85 3818
-658.301 149.85 3818
-649.171 149.85 3818
-632.665 148.123 3774
-623.641 148.123 3774
-614.616 148.123 3774
-607.035 148.476 3783
-602.099 149.496 3809
-598.439 150.87 3844
-589.247 150.87 3844
-589.561 153.343 3907
-581.555 153.696 3916
-572.191 153.696 3916
-562.826 153.696 3916
-553.462 153.696 3916
-547.988 154.795 3944
-538.557 154.795 3944
-529.126 154.795 3944
-519.694 154.795 3944
-515.179 156.286 3982
-505.657 156.286 3982
-496.135 156.286 3982
-486.613 156.286 3982
-240.181 81.9502 2088
-235.188 81.9502 2088
-230.195 81.9502 2088
-224.878 81.8324 2085
-219.892 81.8324 2085
-212.33 80.8512 2060
-207.404 80.8512 2060
-202.478 80.8512 2060
-197.072 80.655 2055
-192.158 80.655 2055
-186.697 80.4195 2049
-180.91 80.027 2039
-175.861 79.9485 2037
-170.99 79.9485 2037
-166.119 79.9485 2037
-161.644 80.1448 2042
-157.759 80.655 2055
-153.589 81.0475 2065
-148.651 81.0475 2065
-144.061 81.2437 2070
-139.447 81.4399 2075
-134.679 81.5577 2078
-129.71 81.5577 2078
-125.041 81.7539 2083
-120.348 81.9502 2088
-115.631 82.1464 2093
-110.626 82.1464 2093
-105.874 82.3427 2098
-100.857 82.3427 2098
-95.9767 82.4604 2101
-90.9525 82.4604 2101
-86.1329 82.6566 2106
-81.0968 82.6566 2106
-76.0607 82.6566 2106
-71.0247 82.6566 2106
-65.9886 82.6566 2106
-60.9525 82.6566 2106
-55.9164 82.6566 2106
-50.8803 82.6566 2106
-45.8442 82.6566 2106
-40.7694 82.5781 2104
-35.7381 82.5781 2104
-30.663 82.4604 2101
-25.6389 82.4604 2101
-20.5853 82.3427 2098
-15.5313 82.1464 2093
-10.5263 82.1464 2093
-5.52126 82.1464 2093
-0.514289 81.8324 2085
4.47158 81.8324 2085
9.45744 81.8324 2085
14.4295 81.7539 2083
19.4105 81.7539 2083
24.3916 81.7539 2083
29.3727 81.7539 2083
34.3538 81.7539 2083
39.3349 81.7539 2083
44.2521 81.6362 2080
49.226 81.6362 2080
54.2 81.6362 2080
59.1739 81.6362 2080
64.2403 81.7539 2083
69.2878 81.8324 2085
74.2737 81.8324 2085
79.3736 81.9502 2088
84.6899 82.2642 2096
89.9161 82.4604 2101
94.9402 82.4604 2101
100.345 82.7744 2109
105.638 82.9706 2114
111.007 83.2061 2120
116.515 83.5201 2128
121.604 83.5201 2128
127.169 83.8341 2136
132.958 84.2658 2147
138.478 84.5013 2153
143.626 84.5013 2153
149.12 84.6975 2158
154.924 85.0508 2167
160.475 85.247 2172
165.669 85.247 2172
171.571 85.6003 2181
177.03 85.718 2184
183.17 86.1497 2195
188.419 86.1497 2195
194.462 86.503 2204
200.277 86.7385 2210
205.84 86.8562 2213
211.132 86.8562 2213
216.62 86.9347 2215
221.917 86.9347 2215
227.829 87.1702 2221
233.14 87.1702 2221
239.095 87.4057 2227
245.079 87.6412 2233
250.755 87.7589 2236
256.102 87.7589 2236
262.151 87.9944 2242
268.586 88.3476 2251
274.334 88.4654 2254
279.724 88.4654 2254
285.114 88.4654 2254
289.344 88.1121 2245
294.712 88.1121 2245
295.002 86.6207 2207
439.985 122.611 3124
447.455 122.611 3124
454.926 122.611 3124
459.88 121.944 3107
462.948 120.806 3078
466.03 119.707 3050
473.324 119.707 3050
478.884 119.275 3039
483.431 118.608 3022
488.06 117.98 3006
495.248 117.98 3006
498.759 117.117 2984
503.182 116.489 2968
509.42 116.292 2963
514.762 115.9 2953
521.824 115.9 2953
527.811 115.664 2947
534.858 115.664 2947
541.905 115.664 2947
548.952 115.664 2947
555.056 115.468 2942
561.136 115.272 2937
568.159 115.272 2937
575.183 115.272 2937
581.215 115.076 2932
587.223 114.879 2927
594.222 114.879 2927
601.222 114.879 2927
608.221 114.879 2927
614.169 114.683 2922
621.157 114.683 2922
628.144 114.683 2922
634.045 114.487 2917
641.02 114.487 2917
647.996 114.487 2917
654.971 114.487 2917
661.946 114.487 2917
668.922 114.487 2917
675.897 114.487 2917
681.468 114.251 2911
689.848 114.487 2917
696.824 114.487 2917
703.799 114.487 2917
710.774 114.487 2917
717.75 114.487 2917
723.235 114.251 2911
730.196 114.251 2911
737.157 114.251 2911
744.118 114.251 2911
751.079 114.251 2911
758.04 114.251 2911
766.578 114.487 2917
773.553 114.487 2917
780.529 114.487 2917
787.504 114.487 2917
794.48 114.487 2917
801.455 114.487 2917
808.43 114.487 2917
815.406 114.487 2917
822.381 114.487 2917
829.357 114.487 2917
836.332 114.487 2917
843.308 114.487 2917
850.283 114.487 2917
857.259 114.487 2917
865.715 114.683 2922
872.703 114.683 2922
879.69 114.683 2922
885.16 114.487 2917
892.136 114.487 2917
899.111 114.487 2917
902.67 114.055 2906
909.619 114.055 2906
916.568 114.055 2906
923.517 114.055 2906
930.466 114.055 2906
937.415 114.055 2906
944.364 114.055 2906
951.314 114.055 2906
958.263 114.055 2906
968.865 114.487 2917
975.841 114.487 2917
982.816 114.487 2917
989.792 114.487 2917
1480.41 158.916 4049
1490.09 158.916 4049
1499.77 158.916 4049
1484.48 156.286 3982
1490.25 155.894 3972
1482 154.049 3925
1474.29 152.283 3880
1483.56 152.283 3880
1468.99 149.85 3818
1468.05 148.829 3792
1431.54 144.237 3675
1440.33 144.237 3675
1449.12 144.237 3675
1451.16 143.57 3658
1456.72 143.256 3650
1440.55 140.822 3588
1449.13 140.822 3588
1435.78 138.703 3534
1426.24 136.976 3490
1416.92 135.288 3447
1425.16 135.288 3447
1404.29 132.541 3377
1406.51 131.992 3363
1409.09 131.481 3350
1417.1 131.481 3350
1402.56 129.401 3297
1399.32 128.381 3271
1401.55 127.871 3258
1406.75 127.635 3252
1414.52 127.635 3252
1419.68 127.4 3246
1435.79 128.145 3265
1520.98 135.014 3440
1551.43 136.976 3490
1559.78 136.976 3490
1581.6 138.154 3520
1590.02 138.154 3520
1598.44 138.154 3520
1670.59 141.411 3603
1679.2 141.411 3603
1713.59 143.57 3658
1722.33 143.57 3658
1731.08 143.57 3658
1721.28 142.039 3619
1729.93 142.039 3619
1738.59 142.039 3619
1747.24 142.039 3619
1733.09 140.194 3572
1734.32 139.606 3557
1720.78 137.84 3512
1718.34 136.976 3490
1726.69 136.976 3490
1713.66 135.288 3447
1679.94 131.992 3363
1674.93 130.971 3337
1682.91 130.971 3337
1670.62 129.401 3297
1658.65 127.871 3258
1647.52 126.418 3221
1626.96 124.26 3166
1634.53 124.26 3166
1638.98 124.024 3160
1640.29 123.553 3148
1638.39 122.847 3130
1645.88 122.847 3130
1653.36 122.847 3130
1660.85 122.847 3130
1668.33 122.847 3130
1675.82 122.847 3130
1673.62 122.14 3112
1678.36 121.944 3107
1670.06 120.806 3078
1671.42 120.374 3067
1678.76 120.374 3067
1686.09 120.374 3067
1677.97 119.275 3039
1660.83 117.548 2995
1668 117.548 2995
1651.67 115.9 2953
1644.12 114.879 2927
1645.48 114.487 2917
1652.46 114.487 2917
1653.18 114.055 2906
1654.41 113.663 2896
1655.6 113.27 2886
1662.5 113.27 2886
1669.4 113.27 2886
1664.69 112.485 2866
1663.38 111.936 2852
1667.27 111.74 2847
1674.08 111.74 2847
1674.98 111.347 2837
1678.8 111.151 2832
1683.19 110.994 2828
1689.95 110.994 2828
1693.72 110.798 2823
1700.47 110.798 2823
1704.19 110.601 2818
1707.9 110.405 2813
1714.62 110.405 2813
1721.35 110.405 2813
1722.55 110.052 2804
1726.17 109.856 2799
1732.86 109.856 2799
1730.86 109.306 2785
1737.52 109.306 2785
1741.04 109.11 2780
1747.69 109.11 2780
1754.34 109.11 2780
1758.45 108.953 2776
1765.09 108.953 2776
1771.73 108.953 2776
1778.37 108.953 2776
1785.01 108.953 2776
1791.64 108.953 2776
1798.28 108.953 2776
1804.92 108.953 2776
1808.3 108.757 2771
1814.92 108.757 2771
1818.92 108.6 2767
1825.54 108.6 2767
1828.84 108.403 2762
1835.45 108.403 2762
1842.05 108.403 2762
1848.66 108.403 2762
1855.26 108.403 2762
1861.87 108.403 2762
1868.47 108.403 2762
1875.08 108.403 2762
1881.68 108.403 2762
1884.87 108.207 2757
1891.46 108.207 2757
1895.3 108.05 2753
1901.88 108.05 2753
1905 107.854 2748
1908.79 107.697 2744
1909.07 107.344 2735
1915.61 107.344 2735
1922.15 107.344 2735
1928.69 107.344 2735
1931.69 107.147 2730
1938.22 107.147 2730
1935.49 106.637 2717
1941.98 106.637 2717
1948.48 106.637 2717
1954.98 106.637 2717
1954.98 106.284 2708
1954.93 105.931 2699
1961.39 105.931 2699
1964.93 105.774 2695
1974.3 105.931 2699
1980.75 105.931 2699
1987.21 105.931 2699
1993.66 105.931 2699
2000.11 105.931 2699
2000.62 105.617 2691
2003.33 105.421 2686
2009.75 105.421 2686
2016.17 105.421 2686
2022.6 105.421 2686
2029.02 105.421 2686
2042.26 105.774 2695
2068.47 106.794 2721
2088.7 107.501 2739
2095.25 107.501 2739
-2091.94 116.352 2794
-2085.26 116.352 2794
-2078.57 116.352 2794
-2071.89 116.352 2794
-2065.21 116.352 2794
-2058.53 116.352 2794
-2051.85 116.352 2794
-2034.92 115.769 2780
-2035.57 116.186 2790
-2028.9 116.186 2790
-2022.22 116.186 2790
-2015.55 116.186 2790
-2005.28 115.978 2785
-1998.62 115.978 2785
-1991.96 115.978 2785
