2139.31 972.729 2832
2139.26 969.638 2823
2146.01 969.638 2823
2142.08 964.829 2809
2144.98 963.112 2804
-1777.51 1032.09 2984
-1770.38 1032.09 2984
-1763.24 1032.09 2984
-1756.11 1032.09 2984
-1725.4 1026.55 2968
-1718.3 1026.55 2968
-1711.2 1026.55 2968
-1704.11 1026.55 2968
-1697.01 1026.55 2968
-1689.91 1026.55 2968
-1679.98 1024.82 2963
-1386.59 1012.37 2927
-1379.59 1012.37 2927
-1389.48 1024.82 2963
-1389.85 1030.36 2979
-1387.84 1034.16 2990
-1380.69 1034.16 2990
-1373.54 1034.16 2990
-1346.74 1019.29 2947
-1339.69 1019.29 2947
-1311.84 1003.38 2901
-1298.16 998.19 2886
-1282.31 991.273 2866
-1275.45 991.273 2866
-1264.62 988.16 2857
-1257.78 988.16 2857
-1250.95 988.16 2857
-1244.12 988.16 2857
-1237.29 988.16 2857
-1234.33 991.273 2866
-1242.47 1003.38 2901
-1235.53 1003.38 2901
-1228.59 1003.38 2901
-1221.66 1003.38 2901
-1204.25 994.732 2876
-1197.37 994.732 2876
-1190.5 994.732 2876
-1183.62 994.732 2876
-1172.65 991.273 2866
-1175.97 999.92 2891
-1169.05 999.92 2891
-1168.17 1005.11 2906
-1165.62 1008.91 2917
-1160.63 1010.64 2922
-1153.64 1010.64 2922
-1156.46 1019.29 2947
-1149.42 1019.29 2947
-1142.37 1019.29 2947
-1135.32 1019.29 2947
-1120.62 1012.37 2927
-1115.52 1014.1 2932
-1108.51 1014.1 2932
-1101.5 1014.1 2932
-1094.49 1014.1 2932
-1093.04 1019.29 2947
-1103.68 1035.89 2995
-1096.52 1035.89 2995
-1101.36 1047.3 3028
-1102.07 1054.91 3050
-1096.57 1056.64 3055
-1089.26 1056.64 3055
-1081.96 1056.64 3055
-1072.89 1054.91 3050
-1065.6 1054.91 3050
-1044.77 1041.42 3011
-1017.59 1021.36 2953
-1010.53 1021.36 2953
-1001.43 1019.29 2947
-999.777 1024.82 2963
-992.691 1024.82 2963
-990.928 1030.36 2979
-994.372 1041.42 3011
-989.139 1043.5 3017
-981.925 1043.5 3017
-974.71 1043.5 3017
-963.968 1039.7 3006
-956.78 1039.7 3006
-949.591 1039.7 3006
-932.371 1028.63 2974
-923.392 1026.55 2968
-926.174 1037.62 3000
-919 1037.62 3000
-920.337 1047.3 3028
-914.604 1049.03 3033
-907.351 1049.03 3033
-900.098 1049.03 3033
-892.845 1049.03 3033
-877.709 1039.7 3006
-870.521 1039.7 3006
-858.737 1034.16 2990
-845.321 1026.55 2968
-838.224 1026.55 2968
-831.126 1026.55 2968
-821.253 1023.09 2958
-812.803 1021.36 2953
-800.011 1014.1 2932
-785.968 1005.11 2906
-779.019 1005.11 2906
-770.741 1003.38 2901
-763.804 1003.38 2901
-756.867 1003.38 2901
-749.93 1003.38 2901
-742.993 1003.38 2901
-733.518 999.92 2891
-724.092 996.461 2881
-718.447 998.19 2886
-711.546 998.19 2886
-707.086 1001.65 2896
-700.161 1001.65 2896
-693.236 1001.65 2896
-686.31 1001.65 2896
-679.385 1001.65 2896
-668.977 996.461 2881
-662.088 996.461 2881
-654.061 994.732 2876
-647.184 994.732 2876
-639.193 993.002 2871
-632.328 993.002 2871
-625.462 993.002 2871
-620.752 996.461 2881
-615.993 999.92 2891
-614.557 1008.91 2917
-607.582 1008.91 2917
-602.666 1012.37 2927
-596.684 1014.1 2932
-590.678 1015.83 2937
-583.655 1015.83 2937
-576.632 1015.83 2937
-568.639 1014.1 2932
-561.627 1014.1 2932
-553.67 1012.37 2927
-543.683 1006.84 2911
-536.721 1006.84 2911
-531.762 1010.64 2922
-524.775 1010.64 2922
-517.787 1010.64 2922
-510.8 1010.64 2922
-502.951 1008.91 2917
-495.975 1008.91 2917
-485.479 1001.65 2896
-477.728 999.92 2891
-469.186 996.461 2881
-462.297 996.461 2881
-454.617 994.732 2876
-446.183 991.273 2866
-437.183 986.431 2852
-431.872 989.889 2862
-425.028 989.889 2862
-419.499 993.002 2871
-412.634 993.002 2871
-405.769 993.002 2871
-398.903 993.002 2871
-392.038 993.002 2871
-384.502 991.273 2866
-381.601 1001.65 2896
-374.676 1001.65 2896
-367.751 1001.65 2896
-360.825 1001.65 2896
-354.511 1003.38 2901
-347.574 1003.38 2901
-341.811 1006.84 2911
-336.69 1012.37 2927
-330.818 1015.83 2937
-323.794 1015.83 2937
-316.771 1015.83 2937
-310.275 1017.56 2942
-303.755 1019.29 2947
-296.708 1019.29 2947
-289.661 1019.29 2947
-282.134 1017.56 2942
-273.696 1012.37 2927
-266.697 1012.37 2927
-259.254 1010.64 2922
-251.835 1008.91 2917
-245.279 1010.64 2922
-238.292 1010.64 2922
-231.305 1010.64 2922
-224.317 1010.64 2922
-215.396 1001.65 2896
-208.831 1003.38 2901
-201.894 1003.38 2901
-197.04 1014.1 2932
-190.352 1015.83 2937
-186.263 1032.09 2984
-179.127 1032.09 2984
-173.26 1039.7 3006
-166.071 1039.7 3006
-158.883 1039.7 3006
-151.695 1039.7 3006
-144.507 1039.7 3006
-135.582 1026.55 2968
-131.082 1047.3 3028
-123.842 1047.3 3028
-116.601 1047.3 3028
-109.36 1047.3 3028
-102.119 1047.3 3028
-71.2213 786.17 2273
-65.8727 787.208 2276
-60.5894 789.283 2282
-55.1324 789.283 2282
-49.8061 791.358 2288
-44.4704 793.779 2295
-39.0843 795.854 2301
-33.5819 795.854 2301
-28.1161 796.892 2304
-22.636 797.93 2307
-17.1712 800.351 2314
-11.6377 800.351 2314
-6.14646 805.885 2330
-0.574721 805.885 2330
4.99701 805.885 2330
10.5688 805.885 2330
16.1197 804.847 2327
21.5631 800.351 2314
27.0966 800.351 2314
32.6301 800.351 2314
38.312 803.464 2323
43.867 803.464 2323
49.422 803.464 2323
54.977 803.464 2323
60.7925 806.922 2333
66.3715 806.922 2333
71.9504 806.922 2333
77.5293 806.922 2333
82.8945 804.847 2327
88.459 804.847 2327
94.0236 804.847 2327
99.5881 804.847 2327
105.288 805.885 2330
110.86 805.885 2330
116.432 805.885 2330
121.846 804.847 2327
126.863 801.388 2317
133.147 805.885 2330
138.897 806.922 2333
144.91 809.344 2340
150.505 809.344 2340
156.301 810.381 2343
162.111 811.419 2346
167.721 811.419 2346
173.331 811.419 2346
270.299 1005.11 2906
277.248 1005.11 2906
284.197 1005.11 2906
290.646 1003.38 2901
296.044 998.19 2886
302.945 998.19 2886
309.847 998.19 2886
316.748 998.19 2886
323.649 998.19 2886
329.978 996.461 2881
336.867 996.461 2881
343.16 994.732 2876
348.333 989.889 2862
355.674 991.273 2866
363.792 994.732 2876
370.67 994.732 2876
378.203 996.461 2881
393.246 1017.56 2942
401.778 1021.36 2953
408.84 1021.36 2953
415.901 1021.36 2953
422.963 1021.36 2953
432.209 1026.55 2968
439.306 1026.55 2968
447.306 1028.63 2974
454.417 1028.63 2974
461.529 1028.63 2974
467.695 1026.55 2968
474.793 1026.55 2968
481.078 1024.82 2963
488.164 1024.82 2963
495.249 1024.82 2963
502.335 1024.82 2963
509.42 1024.82 2963
515.634 1023.09 2958
522.708 1023.09 2958
529.781 1023.09 2958
539.758 1028.63 2974
546.87 1028.63 2974
553.982 1028.63 2974
561.094 1028.63 2974
565.148 1023.09 2958
569.127 1017.56 2942
576.162 1017.56 2942
583.197 1017.56 2942
590.232 1017.56 2942
595.237 1014.1 2932
602.249 1014.1 2932
609.26 1014.1 2932
616.271 1014.1 2932
616.693 1003.38 2901
623.63 1003.38 2901
625.133 994.732 2876
630.911 993.002 2871
839.371 1056.64 3055
846.676 1056.64 3055
853.982 1056.64 3055
856.776 1051.11 3039
864.044 1051.11 3039
871.311 1051.11 3039
878.578 1051.11 3039
885.845 1051.11 3039
893.112 1051.11 3039
900.38 1051.11 3039
907.647 1051.11 3039
908.291 1043.5 3017
910.346 1037.62 3000
917.52 1037.62 3000
924.694 1037.62 3000
937.149 1043.5 3017
947.807 1047.3 3028
956.624 1049.03 3033
963.877 1049.03 3033
971.13 1049.03 3033
978.383 1049.03 3033
985.636 1049.03 3033
992.889 1049.03 3033
1009.37 1058.72 3061
1018.69 1060.79 3067
1033.38 1068.4 3089
1040.77 1068.4 3089
1048.15 1068.4 3089
1053.83 1066.67 3084
1061.21 1066.67 3084
1058.53 1056.64 3055
1056.42 1047.3 3028
1057.69 1041.42 3011
1063.12 1039.7 3006
1070.31 1039.7 3006
1075.35 1037.62 3000
1082.52 1037.62 3000
1089.69 1037.62 3000
1096.87 1037.62 3000
1102.2 1035.89 2995
1109.36 1035.89 2995
1112.43 1032.09 2984
1119.56 1032.09 2984
1124.81 1030.36 2979
1127.75 1026.55 2968
1126.82 1019.29 2947
1133.87 1019.29 2947
1137.04 1015.83 2937
1122.25 996.461 2881
1125.22 993.002 2871
1128.54 989.889 2862
1135.38 989.889 2862
1140.23 988.16 2857
1147.06 988.16 2857
1153.9 988.16 2857
1160.73 988.16 2857
1167.56 988.16 2857
1172.34 986.431 2852
1179.16 986.431 2852
1185.98 986.431 2852
1192.8 986.431 2852
1199.62 986.431 2852
1197.98 979.513 2832
1198.79 974.671 2818
1205.53 974.671 2818
1212.27 974.671 2818
1221.17 976.4 2823
1227.92 976.4 2823
1234.67 976.4 2823
1237.03 972.942 2813
1908.72 1070.48 3095
1916.12 1070.48 3095
1923.52 1070.48 3095
1930.92 1070.48 3095
1938.32 1070.48 3095
1941.95 1068.4 3089
1960.7 1074.63 3107
1968.12 1074.63 3107
1975.55 1074.63 3107
1968.31 1066.67 3084
1975.68 1066.67 3084
1964.41 1056.64 3055
2063.83 966.37 2794
2070.51 966.37 2794
2077.2 966.37 2794
2105.51 976.4 2823
2112.26 976.4 2823
2119.01 976.4 2823
2125.76 976.4 2823
2132.51 976.4 2823
2114.25 964.987 2790
2120.92 964.987 2790
2127.6 964.987 2790
2134.27 964.987 2790
-1708.32 1031.92 2963
-1701.23 1031.92 2963
-1694.15 1031.92 2963
-1684.22 1030.18 2958
-1677.14 1030.18 2958
-1583.12 976.546 2804
-1576.42 976.546 2804
-1384.22 1017.64 2922
-1377.24 1017.64 2922
-1372.59 1019.38 2927
-1382.39 1031.92 2963
-1375.3 1031.92 2963
-1368.22 1031.92 2963
-1361.13 1031.92 2963
-1337.6 1019.38 2927
-1330.6 1019.38 2927
-1316.36 1013.81 2911
-1291.41 999.88 2871
-1278.28 995.004 2857
-1271.45 995.004 2857
-1264.62 995.004 2857
-1261.75 998.138 2866
-1254.89 998.138 2866
-1248.04 998.138 2866
-1241.19 998.138 2866
-1234.33 998.138 2866
-1242.47 1010.33 2901
-1235.53 1010.33 2901
-1228.59 1010.33 2901
-1221.66 1010.33 2901
-1204.25 1001.62 2876
-1197.37 1001.62 2876
-1190.5 1001.62 2876
-1181.56 999.88 2871
-1172.65 998.138 2866
-1173.93 1005.1 2886
-1167.03 1005.1 2886
-1166.16 1010.33 2901
-1161.22 1012.07 2906
-1160.63 1017.64 2922
-1153.64 1017.64 2922
-1150.58 1021.12 2932
-1143.57 1021.12 2932
-1136.55 1021.12 2932
-1129.54 1021.12 2932
-1118.7 1017.64 2922
-1105.63 1012.07 2906
-1098.68 1012.07 2906
-1093.61 1013.81 2911
-1086.65 1013.81 2911
-1085.62 1019.38 2927
-1082.31 1022.87 2937
-1081.14 1028.44 2953
-1074.08 1028.44 2953
-1068.82 1030.18 2958
-1067.49 1035.75 2974
-1060.38 1035.75 2974
-1053.27 1035.75 2974
-1046.16 1035.75 2974
-1031.71 1028.44 2953
-1024.65 1028.44 2953
-1001.39 1012.07 2906
-991.02 1008.59 2896
-984.095 1008.59 2896
-989.317 1021.12 2932
-982.305 1021.12 2932
-985.606 1031.92 2963
-983.804 1037.49 2979
-983.566 1044.81 3000
-976.392 1044.81 3000
-969.218 1044.81 3000
-955.31 1037.49 2979
-948.186 1037.49 2979
-939.483 1035.75 2974
-927.355 1030.18 2958
-920.281 1030.18 2958
-916.295 1033.66 2968
-909.198 1033.66 2968
-920.337 1054.56 3028
-914.604 1056.3 3033
-907.351 1056.3 3033
-900.098 1056.3 3033
-892.845 1056.3 3033
-877.709 1046.9 3006
-870.521 1046.9 3006
-857.014 1039.23 2984
-845.321 1033.66 2968
-836.812 1031.92 2963
-829.726 1031.92 2963
-821.253 1030.18 2958
-811.151 1026.35 2947
-800.011 1021.12 2932
-784.616 1010.33 2901
-777.679 1010.33 2901
-770.741 1010.33 2901
-763.804 1010.33 2901
-756.867 1010.33 2901
-749.93 1010.33 2901
-742.993 1010.33 2901
-732.25 1005.1 2886
-724.092 1003.36 2881
-717.202 1003.36 2881
-710.313 1003.36 2881
-704.645 1005.1 2886
-697.743 1005.1 2886
-690.842 1005.1 2886
-683.941 1005.1 2886
-677.039 1005.1 2886
-668.977 1003.36 2881
-662.088 1003.36 2881
-652.924 999.88 2871
-646.059 999.88 2871
-638.08 998.138 2866
-631.227 998.138 2866
-624.373 998.138 2866
-619.674 1001.62 2876
-612.797 1001.62 2876
-609.08 1006.85 2891
-602.167 1006.85 2891
-601.636 1017.64 2922
-595.666 1019.38 2927
-588.667 1019.38 2927
-581.668 1019.38 2927
-574.668 1019.38 2927
-565.729 1015.9 2917
-558.754 1015.9 2917
-549.698 1012.07 2906
-542.749 1012.07 2906
-533.956 1008.59 2896
-527.031 1008.59 2896
-521.003 1010.33 2901
-514.066 1010.33 2901
-507.129 1010.33 2901
-500.192 1010.33 2901
-493.255 1010.33 2901
-484.641 1006.85 2891
-476.075 1003.36 2881
-467.557 999.88 2871
-460.692 999.88 2871
-453.827 999.88 2871
-444.782 995.004 2857
-437.183 993.263 2852
-431.118 995.004 2857
-424.286 995.004 2857
-418.184 996.745 2862
-412.634 999.88 2871
-405.769 999.88 2871
-398.903 999.88 2871
-392.038 999.88 2871
-383.965 996.745 2862
-381.601 1008.59 2896
-374.676 1008.59 2896
-367.751 1008.59 2896
-360.825 1008.59 2896
-354.511 1010.33 2901
-347.574 1010.33 2901
-341.811 1013.81 2911
-336.69 1019.38 2927
-330.818 1022.87 2937
-323.794 1022.87 2937
-316.771 1022.87 2937
-310.275 1024.61 2942
-303.755 1026.35 2947
-296.708 1026.35 2947
-289.661 1026.35 2947
-282.134 1024.61 2942
-273.696 1019.38 2927
-266.697 1019.38 2927
-259.254 1017.64 2922
-251.835 1015.9 2917
-244.86 1015.9 2917
-237.884 1015.9 2917
-230.909 1015.9 2917
-223.933 1015.9 2917
-214.652 1005.1 2886
-208.831 1010.33 2901
-201.894 1010.33 2901
-196.704 1019.38 2927
-190.028 1021.12 2932
-183.329 1022.87 2937
-176.306 1022.87 2937
-172.626 1043.07 2995
-165.464 1043.07 2995
-158.302 1043.07 2995
-151.14 1043.07 2995
-142.439 1031.92 2963
-135.354 1031.92 2963
-131.082 1054.56 3028
-123.842 1054.56 3028
-116.601 1054.56 3028
-109.36 1054.56 3028
-102.119 1054.56 3028
-71.2213 791.615 2273
-65.8727 792.66 2276
-60.5097 793.705 2279
-55.0599 793.705 2279
-49.7408 795.794 2285
-44.4123 798.232 2292
-39.0843 801.367 2301
-33.5819 801.367 2301
-28.0795 801.367 2301
-22.5771 801.367 2301
-17.1489 804.849 2311
-11.6226 804.849 2311
-6.13854 810.422 2327
-0.574721 811.466 2330
4.99701 811.466 2330
10.5688 811.466 2330
16.1197 810.422 2327
21.5631 805.894 2314
27.0966 805.894 2314
32.6301 805.894 2314
38.2625 807.984 2320
43.8103 807.984 2320
49.422 809.028 2323
54.977 809.028 2323
60.7925 812.511 2333
66.3715 812.511 2333
71.9504 812.511 2333
77.5293 812.511 2333
82.8945 810.422 2327
88.307 809.028 2323
94.0236 810.422 2327
99.5881 810.422 2327
105.288 811.466 2330
110.86 811.466 2330
116.432 811.466 2330
121.846 810.422 2327
126.863 806.939 2317
133.147 811.466 2330
138.897 812.511 2333
144.91 814.949 2340
150.505 814.949 2340
156.301 815.994 2343
162.111 817.039 2346
167.721 817.039 2346
173.331 817.039 2346
268.439 1005.1 2886
275.34 1005.1 2886
282.241 1005.1 2886
288.642 1003.36 2881
295.531 1003.36 2881
301.896 1001.62 2876
308.773 1001.62 2876
315.65 1001.62 2876
322.528 1001.62 2876
328.833 999.88 2871
335.698 999.88 2871
341.49 996.745 2862
346.508 991.521 2847
353.316 991.521 2847
362.527 998.138 2866
369.381 998.138 2866
378.203 1003.36 2881
390.573 1017.64 2922
400.281 1024.61 2942
407.317 1024.61 2942
415.056 1026.35 2947
422.103 1026.35 2947
432.209 1033.66 2968
439.306 1033.66 2968
447.306 1035.75 2974
454.417 1035.75 2974
461.529 1035.75 2974
467.695 1033.66 2968
473.193 1030.18 2958
478.481 1026.35 2947
485.528 1026.35 2947
491.739 1024.61 2942
498.775 1024.61 2942
505.81 1024.61 2942
513.716 1026.35 2947
520.764 1026.35 2947
527.811 1026.35 2947
536.854 1030.18 2958
543.928 1030.18 2958
551.001 1030.18 2958
557.132 1028.44 2953
562.091 1024.61 2942
564.29 1015.9 2917
571.266 1015.9 2917
577.052 1013.81 2911
584.013 1013.81 2911
590.974 1013.81 2911
597.935 1013.81 2911
604.896 1013.81 2911
611.857 1013.81 2911
616.693 1010.33 2901
623.63 1010.33 2901
625.133 1001.62 2876
630.911 999.88 2871
839.371 1063.96 3055
846.676 1063.96 3055
853.982 1063.96 3055
856.776 1058.39 3039
864.044 1058.39 3039
871.311 1058.39 3039
878.578 1058.39 3039
885.845 1058.39 3039
893.112 1058.39 3039
900.38 1058.39 3039
907.647 1058.39 3039
908.291 1050.73 3017
910.346 1044.81 3000
917.52 1044.81 3000
924.694 1044.81 3000
937.149 1050.73 3017
947.807 1054.56 3028
956.624 1056.3 3033
963.877 1056.3 3033
971.13 1056.3 3033
978.383 1056.3 3033
985.636 1056.3 3033
992.889 1056.3 3033
1009.37 1066.05 3061
1018.69 1068.14 3067
1033.38 1075.8 3089
1040.77 1075.8 3089
1048.15 1075.8 3089
1053.83 1074.06 3084
1061.21 1074.06 3084
1058.53 1063.96 3055
1056.42 1054.56 3028
1057.69 1048.64 3011
1063.12 1046.9 3006
1070.31 1046.9 3006
1075.35 1044.81 3000
1082.52 1044.81 3000
1089.69 1044.81 3000
1096.87 1044.81 3000
1102.2 1043.07 2995
1109.36 1043.07 2995
1112.43 1039.23 2984
1119.56 1039.23 2984
1124.81 1037.49 2979
1127.75 1033.66 2968
1126.82 1026.35 2947
1133.87 1026.35 2947
1137.04 1022.87 2937
1122.25 1003.36 2881
1125.22 999.88 2871
1128.54 996.745 2862
1135.38 996.745 2862
1140.23 995.004 2857
1147.06 995.004 2857
1153.9 995.004 2857
1160.73 995.004 2857
1167.56 995.004 2857
1172.34 993.263 2852
1179.16 993.263 2852
1185.98 993.263 2852
1192.8 993.263 2852
1199.62 993.263 2852
1197.98 986.297 2832
1198.79 981.422 2818
1205.53 981.422 2818
1212.27 981.422 2818
1221.17 983.163 2823
1227.92 983.163 2823
1238.61 986.297 2832
1245.38 986.297 2832
1252.15 986.297 2832
1505.29 974.804 2799
1511.99 974.804 2799
1518.68 974.804 2799
1517.74 969.929 2785
1524.4 969.929 2785
1678.08 1010.33 2901
1685.02 1010.33 2901
1718.78 1026.35 2947
1735.2 1031.92 2963
1745.23 1033.66 2968
1752.32 1033.66 2968
1759.42 1033.66 2968
1766.52 1033.66 2968
1773.61 1033.66 2968
1795.93 1030.18 2958
1803.01 1030.18 2958
1810.08 1030.18 2958
1817.15 1030.18 2958
1863.7 1052.47 3022
1870.92 1052.47 3022
1878.15 1052.47 3022
1885.38 1052.47 3022
1892.6 1052.47 3022
1886 1044.81 3000
1886.86 1041.32 2990
2020.25 952.515 2735
2046.8 961.918 2762
2053.41 961.918 2762
2083.88 973.063 2794
2101.78 978.287 2809
2108.5 978.287 2809
2115.22 978.287 2809
2107.58 971.67 2790
2103.64 966.794 2776
2110.28 966.794 2776
2113.11 965.053 2771
2119.73 965.053 2771
-1646.34 993.081 2832
-1639.56 993.081 2832
-1708.32 1039.02 2963
-1701.23 1039.02 2963
-1694.15 1039.02 2963
-1684.22 1037.27 2958
-1677.14 1037.27 2958
-1583.12 983.263 2804
-1576.42 983.263 2804
-1564.11 979.756 2794
-1557.43 979.756 2794
-1550.75 979.756 2794
-1544.07 979.756 2794
-1537.39 979.756 2794
-1515.92 970.288 2767
-1509.3 970.288 2767
-1495.08 965.379 2753
-1503.09 974.847 2780
-1496.45 974.847 2780
-1489.8 974.847 2780
-1483.15 974.847 2780
-1476.5 974.847 2780
-1384.22 1024.64 2922
-1377.24 1024.64 2922
-1372.59 1026.39 2927
-1382.39 1039.02 2963
-1375.3 1039.02 2963
-1368.22 1039.02 2963
-1361.13 1039.02 2963
-1337.6 1026.39 2927
-1330.6 1026.39 2927
-1316.36 1020.78 2911
-1291.41 1006.76 2871
-1278.28 1001.85 2857
-1271.45 1001.85 2857
-1264.62 1001.85 2857
-1261.75 1005 2866
-1254.89 1005 2866
-1248.04 1005 2866
-1241.19 1005 2866
-1234.33 1005 2866
-1242.47 1017.28 2901
-1235.53 1017.28 2901
-1228.59 1017.28 2901
-1221.66 1017.28 2901
-1204.25 1008.51 2876
-1197.37 1008.51 2876
-1188.43 1006.76 2871
-1173.74 1000.09 2852
-1166.92 1000.09 2852
-1160.1 1000.09 2852
-1153.28 1000.09 2852
-1160.13 1012.02 2886
-1157.22 1015.52 2896
-1150.3 1015.52 2896
-1143.37 1015.52 2896
-1138.41 1017.28 2901
-1131.47 1017.28 2901
-1124.54 1017.28 2901
-1115.67 1015.52 2896
-1103.01 1010.26 2881
-1098.02 1012.02 2886
-1091.12 1012.02 2886
-1084.22 1012.02 2886
-1077.31 1012.02 2886
-1072.27 1013.77 2891
-1074.94 1022.89 2917
-1073.45 1028.15 2932
-1066.44 1028.15 2932
-1059.43 1028.15 2932
-1061.75 1037.27 2958
-1054.68 1037.27 2958
-1047.6 1037.27 2958
-1034.9 1031.65 2942
-1015.29 1019.03 2906
-1008.34 1019.03 2906
-996.222 1013.77 2891
-989.309 1013.77 2891
-982.396 1013.77 2891
-977.169 1015.52 2896
-970.244 1015.52 2896
-982.279 1035.51 2953
-978.52 1039.02 2963
-976.681 1044.63 2979
-969.557 1044.63 2979
-962.433 1044.63 2979
-953.706 1042.88 2974
-946.594 1042.88 2974
-937.587 1040.77 2968
-930.49 1040.77 2968
-916.859 1033.41 2947
-909.812 1033.41 2947
-902.765 1033.41 2947
-902.1 1040.77 2968
-913.096 1061.81 3028
-905.855 1061.81 3028
-898.614 1061.81 3028
-888.135 1057.95 3017
-880.921 1057.95 3017
-873.706 1057.95 3017
-857.014 1046.38 2984
-843.897 1039.02 2963
-832.293 1033.41 2947
-825.246 1033.41 2947
-815.422 1029.9 2937
-807.023 1028.15 2932
-791.553 1017.28 2901
-780.559 1012.02 2886
-776.338 1015.52 2896
-769.413 1015.52 2896
-762.488 1015.52 2896
-755.563 1015.52 2896
-748.637 1015.52 2896
-740.432 1013.77 2891
-729.713 1008.51 2876
-721.578 1006.76 2871
-715.958 1008.51 2876
-709.08 1008.51 2876
-702.203 1008.51 2876
-695.326 1008.51 2876
-688.448 1008.51 2876
-681.571 1008.51 2876
-674.693 1008.51 2876
-666.655 1006.76 2871
-659.79 1006.76 2871
-651.787 1005 2866
-644.033 1003.6 2862
-637.19 1003.6 2862
-631.227 1005 2866
-624.373 1005 2866
-618.597 1006.76 2871
-612.797 1008.51 2876
-605.919 1008.51 2876
-599.042 1008.51 2876
-594.224 1012.02 2886
-593.631 1022.89 2917
-586.656 1022.89 2917
-579.68 1022.89 2917
-572.705 1022.89 2917
-562.626 1017.28 2901
-555.689 1017.28 2901
-548.752 1017.28 2901
-539.947 1013.77 2891
-533.034 1013.77 2891
-526.121 1013.77 2891
-519.207 1013.77 2891
-512.294 1013.77 2891
-505.381 1013.77 2891
-498.468 1013.77 2891
-491.554 1013.77 2891
-482.965 1010.26 2881
-474.423 1006.76 2871
-466.092 1003.6 2862
-459.248 1003.6 2862
-451.614 1001.85 2857
-443.225 998.341 2847
-435.65 996.588 2842
-430.363 1000.09 2852
-423.543 1000.09 2852
-417.454 1001.85 2857
-411.341 1003.6 2862
-404.497 1003.6 2862
-397.653 1003.6 2862
-390.809 1003.6 2862
-383.294 1001.85 2857
-379.625 1010.26 2881
-372.735 1010.26 2881
-367.751 1015.52 2896
-360.825 1015.52 2896
-353.9 1015.52 2896
-346.975 1015.52 2896
-341.811 1020.78 2911
-336.69 1026.39 2927
-330.818 1029.9 2937
-323.794 1029.9 2937
-316.771 1029.9 2937
-310.275 1031.65 2942
-303.24 1031.65 2942
-296.205 1031.65 2942
-289.169 1031.65 2942
-281.175 1028.15 2932
-273.696 1026.39 2927
-266.697 1026.39 2927
-257.835 1019.03 2906
-251.835 1022.89 2917
-244.86 1022.89 2917
-237.884 1022.89 2917
-230.909 1022.89 2917
-223.089 1019.03 2906
-214.28 1010.26 2881
-208.111 1013.77 2891
-201.198 1013.77 2891
-196.704 1026.39 2927
-189.704 1026.39 2927
-183.017 1028.15 2932
-176.006 1028.15 2932
-171.992 1046.38 2984
-164.856 1046.38 2984
-157.72 1046.38 2984
-150.585 1046.38 2984
-142.439 1039.02 2963
-134.623 1033.41 2947
-131.082 1061.81 3028
-123.842 1061.81 3028
-116.601 1061.81 3028
-109.36 1061.81 3028
-102.119 1061.81 3028
-71.1273 796.008 2270
-65.7858 797.06 2273
-60.4301 798.112 2276
-54.9875 798.112 2276
-49.6102 799.164 2279
-44.4123 803.723 2292
-39.0843 806.879 2301
-33.5819 806.879 2301
-28.0795 806.879 2301
-22.5771 806.879 2301
-17.1489 810.385 2311
-11.6226 810.385 2311
-6.13854 815.996 2327
-0.573981 815.996 2327
4.99058 815.996 2327
10.5551 815.996 2327
16.1197 815.996 2327
21.5911 812.489 2317
27.1317 812.489 2317
32.6724 812.489 2317
38.2625 813.541 2320
43.8103 813.541 2320
49.422 814.593 2323
54.977 814.593 2323
60.7144 817.048 2330
66.2861 817.048 2330
71.8578 817.048 2330
77.4296 817.048 2330
82.752 814.593 2323
88.307 814.593 2323
94.0236 815.996 2327
99.5881 815.996 2327
105.288 817.048 2330
110.86 817.048 2330
116.432 817.048 2330
121.846 815.996 2327
126.863 812.489 2317
133.147 817.048 2330
138.897 818.1 2333
145.095 821.607 2343
150.698 821.607 2343
156.301 821.607 2343
162.111 822.659 2346
167.721 822.659 2346
173.331 822.659 2346
263.416 993.081 2832
271.619 998.341 2847
278.427 998.341 2847
285.235 998.341 2847
293.069 1001.85 2857
299.901 1001.85 2857
306.733 1001.85 2857
313.565 1001.85 2857
320.397 1001.85 2857
326.656 1000.09 2852
333.476 1000.09 2852
339.7 998.341 2847
345.291 994.835 2837
352.075 994.835 2837
360.756 1000.09 2852
367.576 1000.09 2852
376.891 1006.76 2871
385.761 1012.02 2886
396.88 1022.89 2917
403.855 1022.89 2917
410.831 1022.89 2917
418.523 1024.64 2922
429.15 1033.41 2947
436.198 1033.41 2947
444.899 1037.27 2958
451.973 1037.27 2958
459.046 1037.27 2958
464.386 1033.41 2947
468.234 1026.39 2927
473.61 1022.89 2917
480.585 1022.89 2917
488.396 1024.64 2922
495.384 1024.64 2922
503.231 1026.39 2927
511.973 1029.9 2937
518.997 1029.9 2937
526.02 1029.9 2937
533.951 1031.65 2942
540.986 1031.65 2942
548.021 1031.65 2942
553.17 1028.15 2932
557.315 1022.89 2917
563.13 1020.78 2911
570.091 1020.78 2911
574.078 1015.52 2896
578.997 1012.02 2886
587.929 1015.52 2896
594.854 1015.52 2896
601.779 1015.52 2896
609.755 1017.28 2901
616.693 1017.28 2901
623.63 1017.28 2901
625.133 1008.51 2876
630.911 1006.76 2871
833.326 1063.56 3033
840.579 1063.56 3033
847.832 1063.56 3033
853.675 1061.81 3028
860.916 1061.81 3028
868.157 1061.81 3028
872.218 1057.95 3017
879.432 1057.95 3017
884.884 1055.85 3011
892.084 1055.85 3011
888.233 1042.88 2974
893.539 1040.77 2968
899.119 1039.02 2963
906.204 1039.02 2963
913.29 1039.02 2963
923.792 1042.88 2974
937.477 1050.24 2995
944.639 1050.24 2995
951.801 1050.24 2995
958.963 1050.24 2995
959.351 1042.88 2974
968.087 1044.63 2979
975.211 1044.63 2979
998.493 1061.81 3028
1007.39 1063.56 3033
1020.33 1069.53 3050
1027.63 1069.53 3050
1034.92 1069.53 3050
1042.21 1069.53 3050
1049.51 1069.53 3050
1049.18 1061.81 3028
1044.91 1050.24 2995
1052.07 1050.24 2995
1051.8 1042.88 2974
1058.92 1042.88 2974
1066.03 1042.88 2974
1078.91 1048.49 2990
1086.06 1048.49 2990
1093.21 1048.49 2990
1096.31 1044.63 2979
1103.44 1044.63 2979
1108.7 1042.88 2974
1115.81 1042.88 2974
1122.92 1042.88 2974
1125.85 1039.02 2963
1126.82 1033.41 2947
1133.87 1033.41 2947
1129.3 1022.89 2917
1122.25 1010.26 2881
1125.22 1006.76 2871
1128.54 1003.6 2862
1135.38 1003.6 2862
1140.23 1001.85 2857
1147.06 1001.85 2857
1153.9 1001.85 2857
1160.73 1001.85 2857
1167.56 1001.85 2857
1172.34 1000.09 2852
1179.16 1000.09 2852
1185.98 1000.09 2852
1192.8 1000.09 2852
1199.62 1000.09 2852
1197.98 993.081 2832
1198.79 988.172 2818
1205.53 988.172 2818
1212.27 988.172 2818
1221.17 989.925 2823
1227.92 989.925 2823
1238.61 993.081 2832
1245.38 993.081 2832
1252.15 993.081 2832
1498.6 981.509 2799
1505.29 981.509 2799
1511.99 981.509 2799
1518.68 981.509 2799
1517.74 976.6 2785
1524.4 976.6 2785
1678.08 1017.28 2901
1685.02 1017.28 2901
1718.78 1033.41 2947
1735.2 1039.02 2963
1745.23 1040.77 2968
1752.32 1040.77 2968
1759.42 1040.77 2968
1766.52 1040.77 2968
1773.61 1040.77 2968
1779.18 1031.65 2942
1795.93 1037.27 2958
1803.01 1037.27 2958
1810.08 1037.27 2958
1817.15 1037.27 2958
1863.7 1059.71 3022
1870.92 1059.71 3022
1878.15 1059.71 3022
1885.38 1059.71 3022
1892.6 1059.71 3022
1886 1051.99 3000
1886.86 1048.49 2990
2020.25 959.067 2735
2046.8 968.535 2762
2053.41 968.535 2762
2083.88 979.756 2794
2101.78 985.016 2809
2108.5 985.016 2809
2115.22 985.016 2809
2107.58 978.353 2790
2103.64 973.444 2776
2110.28 973.444 2776
2113.11 971.691 2771
2119.73 971.691 2771
-1646.34 999.865 2832
-1639.56 999.865 2832
-1641.44 1005.16 2847
-1634.63 1005.16 2847
-1627.82 1005.16 2847
-1621.02 1005.16 2847
-1608.54 1001.63 2837
-1583.12 989.98 2804
-1576.42 989.98 2804
-1564.11 986.449 2794
-1557.43 986.449 2794
-1550.75 986.449 2794
-1544.07 986.449 2794
-1537.39 986.449 2794
-1515.92 976.917 2767
-1509.3 976.917 2767
-1495.08 971.974 2753
-1503.09 981.506 2780
-1496.45 981.506 2780
-1489.8 981.506 2780
-1483.15 981.506 2780
-1476.5 981.506 2780
-1384.22 1031.64 2922
-1377.24 1031.64 2922
-1372.59 1033.41 2927
-1382.39 1046.12 2963
-1375.3 1046.12 2963
-1368.22 1046.12 2963
-1361.13 1046.12 2963
-1337.6 1033.41 2927
-1330.6 1033.41 2927
-1316.36 1027.76 2911
-1291.41 1013.63 2871
-1278.28 1008.69 2857
-1271.45 1008.69 2857
-1264.62 1008.69 2857
-1263.95 1013.63 2871
-1257.08 1013.63 2871
-1250.22 1013.63 2871
-1241.19 1011.87 2866
-1234.33 1011.87 2866
-1242.47 1024.23 2901
-1235.53 1024.23 2901
-1228.59 1024.23 2901
-1221.66 1024.23 2901
-1204.25 1015.4 2876
-1197.37 1015.4 2876
-1188.43 1013.63 2871
-1173.74 1006.93 2852
-1166.92 1006.93 2852
-1160.1 1006.93 2852
-1153.28 1006.93 2852
-1160.13 1018.93 2886
-1157.22 1022.46 2896
-1150.3 1022.46 2896
-1143.37 1022.46 2896
-1138.41 1024.23 2901
-1131.47 1024.23 2901
-1124.54 1024.23 2901
-1115.67 1022.46 2896
-1103.01 1017.17 2881
-1098.02 1018.93 2886
-1091.12 1018.93 2886
-1084.22 1018.93 2886
-1077.31 1018.93 2886
-1072.27 1020.7 2891
-1074.94 1029.88 2917
-1073.45 1035.17 2932
-1066.44 1035.17 2932
-1059.43 1035.17 2932
-1061.75 1044.35 2958
-1054.68 1044.35 2958
-1047.6 1044.35 2958
-1034.9 1038.7 2942
-1015.29 1025.99 2906
-1008.34 1025.99 2906
-996.222 1020.7 2891
-989.309 1020.7 2891
-982.396 1020.7 2891
-977.169 1022.46 2896
-970.244 1022.46 2896
-982.279 1042.59 2953
-978.52 1046.12 2963
-976.681 1051.77 2979
-969.557 1051.77 2979
-962.433 1051.77 2979
-955.31 1051.77 2979
-948.186 1051.77 2979
-941.062 1051.77 2979
-933.938 1051.77 2979
-921.837 1046.12 2963
-914.751 1046.12 2963
-902.765 1040.47 2947
-902.1 1047.88 2968
-913.096 1069.07 3028
-905.855 1069.07 3028
-898.614 1069.07 3028
-888.135 1065.18 3017
-880.921 1065.18 3017
-873.706 1065.18 3017
-857.014 1053.53 2984
-843.897 1046.12 2963
-832.293 1040.47 2947
-825.246 1040.47 2947
-815.422 1036.94 2937
-807.023 1035.17 2932
-791.553 1024.23 2901
-780.559 1018.93 2886
-776.338 1022.46 2896
-769.413 1022.46 2896
-762.488 1022.46 2896
-755.563 1022.46 2896
-748.637 1022.46 2896
-740.432 1020.7 2891
-729.713 1015.4 2876
-721.578 1013.63 2871
-715.958 1015.4 2876
-709.08 1015.4 2876
-702.203 1015.4 2876
-695.326 1015.4 2876
-688.448 1015.4 2876
-681.571 1015.4 2876
-674.693 1015.4 2876
-666.655 1013.63 2871
-659.79 1013.63 2871
-651.787 1011.87 2866
-644.033 1010.46 2862
-637.19 1010.46 2862
-631.227 1011.87 2866
-624.373 1011.87 2866
-618.597 1013.63 2871
-612.797 1015.4 2876
-605.919 1015.4 2876
-599.042 1015.4 2876
-594.224 1018.93 2886
-593.631 1029.88 2917
-586.656 1029.88 2917
-579.68 1029.88 2917
-572.705 1029.88 2917
-562.626 1024.23 2901
-555.689 1024.23 2901
-548.752 1024.23 2901
-539.947 1020.7 2891
-533.034 1020.7 2891
-526.121 1020.7 2891
-519.207 1020.7 2891
-512.294 1020.7 2891
-505.381 1020.7 2891
-498.468 1020.7 2891
-491.554 1020.7 2891
-482.965 1017.17 2881
-474.423 1013.63 2871
-466.092 1010.46 2862
-459.248 1010.46 2862
-451.614 1008.69 2857
-443.225 1005.16 2847
-435.65 1003.4 2842
-430.363 1006.93 2852
-423.543 1006.93 2852
-417.454 1008.69 2857
-411.341 1010.46 2862
-404.497 1010.46 2862
-397.653 1010.46 2862
-390.809 1010.46 2862
-381.952 1005.16 2847
-378.966 1015.4 2876
-372.088 1015.4 2876
-365.846 1017.17 2881
-359.579 1018.93 2886
-352.678 1018.93 2886
-345.777 1018.93 2886
-338.876 1018.93 2886
-333.7 1024.23 2901
-328.565 1029.88 2917
-321.589 1029.88 2917
-314.614 1029.88 2917
-309.22 1035.17 2932
-302.209 1035.17 2932
-295.198 1035.17 2932
-288.187 1035.17 2932
-280.696 1033.41 2927
-271.733 1025.99 2906
-264.784 1025.99 2906
-256.504 1020.7 2891
-250.885 1025.99 2906
-243.936 1025.99 2906
-236.987 1025.99 2906
-230.038 1025.99 2906
-221.17 1017.17 2881
-211.008 1001.63 2837
-206.311 1011.87 2866
-199.458 1011.87 2866
-194.284 1020.7 2891
-189.056 1029.88 2917
-182.081 1029.88 2917
-175.105 1029.88 2917
-168.13 1029.88 2917
-163.143 1042.59 2953
-156.082 1042.59 2953
-149.02 1042.59 2953
-141.19 1036.94 2937
-133.71 1033.41 2927
-126.71 1033.41 2927
-119.711 1033.41 2927
-112.711 1033.41 2927
-71.1273 801.446 2270
-65.7858 802.505 2273
-60.4301 803.564 2276
-54.9875 803.564 2276
-49.6755 805.682 2282
-44.4123 809.213 2292
-39.0843 812.391 2301
-33.5819 812.391 2301
-28.0795 812.391 2301
-22.5771 812.391 2301
-17.1193 814.509 2307
-11.6025 814.509 2307
-6.13854 821.57 2327
-0.573981 821.57 2327
4.99058 821.57 2327
10.5551 821.57 2327
16.092 820.158 2323
21.5911 818.04 2317
27.1317 818.04 2317
32.6724 818.04 2317
38.2625 819.099 2320
43.8103 819.099 2320
49.422 820.158 2323
54.977 820.158 2323
60.7144 822.629 2330
66.2861 822.629 2330
71.8578 822.629 2330
77.4296 822.629 2330
82.752 820.158 2323
88.307 820.158 2323
94.0236 821.57 2327
99.5881 821.57 2327
105.288 822.629 2330
110.86 822.629 2330
116.432 822.629 2330
121.846 821.57 2327
126.863 818.04 2317
133.147 822.629 2330
138.897 823.689 2333
145.095 827.219 2343
150.698 827.219 2343
156.301 827.219 2343
162.111 828.278 2346
167.721 828.278 2346
173.331 828.278 2346
261.277 991.745 2809
268.376 993.157 2813
276.569 998.453 2828
283.332 998.453 2828
291.018 1001.63 2837
298.327 1003.4 2842
305.66 1005.16 2847
312.468 1005.16 2847
319.276 1005.16 2847
325.511 1003.4 2842
332.307 1003.4 2842
338.507 1001.63 2837
343.587 996.688 2823
350.337 996.688 2823
358.226 999.865 2832
364.999 999.865 2832
373.74 1005.16 2847
382.553 1010.46 2862
392.662 1018.93 2886
399.564 1018.93 2886
407.169 1020.7 2891
414.798 1022.46 2896
423.18 1025.99 2906
430.129 1025.99 2906
439.485 1031.64 2922
446.472 1031.64 2922
453.459 1031.64 2922
457.926 1025.99 2906
464.075 1024.23 2901
469.388 1020.7 2891
476.302 1020.7 2891
484.051 1022.46 2896
490.976 1022.46 2896
499.62 1025.99 2906
507.441 1027.76 2911
514.402 1027.76 2911
521.363 1027.76 2911
531.228 1033.41 2927
538.228 1033.41 2927
545.227 1033.41 2927
549.208 1027.76 2911
556.169 1027.76 2911
560.228 1022.46 2896
567.153 1022.46 2896
572.096 1018.93 2886
576.991 1015.4 2876
583.869 1015.4 2876
590.746 1015.4 2876
597.623 1015.4 2876
606.603 1018.93 2886
613.504 1018.93 2886
620.405 1018.93 2886
831.953 1069.07 3028
839.194 1069.07 3028
846.434 1069.07 3028
851.984 1066.95 3022
859.21 1066.95 3022
866.437 1066.95 3022
872.218 1065.18 3017
877.683 1063.06 3011
875.479 1051.77 2979
882.603 1051.77 2979
881.961 1042.59 2953
887.217 1040.47 2947
889.712 1035.17 2932
896.723 1035.17 2932
902.193 1033.41 2927
910.746 1035.17 2932
919.322 1036.94 2937
926.346 1036.94 2937
933.369 1036.94 2937
940.392 1036.94 2937
942.577 1031.64 2922
949.564 1031.64 2922
956.551 1031.64 2922
977.059 1046.12 2963
987.798 1050 2974
994.909 1050 2974
1002.02 1050 2974
1005.4 1046.12 2963
1010.78 1044.35 2958
1017.85 1044.35 2958
1024.92 1044.35 2958
1026.42 1038.7 2942
1033.45 1038.7 2942
1046.14 1044.35 2958
1053.22 1044.35 2958
1060.29 1044.35 2958
1070.97 1047.88 2968
1080.25 1050 2974
1087.36 1050 2974
1094.47 1050 2974
1101.59 1050 2974
1108.7 1050 2974
1115.81 1050 2974
1120.66 1047.88 2968
1119.77 1040.47 2947
1123 1036.94 2937
1130.02 1036.94 2937
1129.3 1029.88 2917
1118.36 1013.63 2871
1121.7 1010.46 2862
1128.54 1010.46 2862
1135.38 1010.46 2862
1140.23 1008.69 2857
1147.06 1008.69 2857
1151.88 1006.93 2852
1158.7 1006.93 2852
1165.52 1006.93 2852
1172.34 1006.93 2852
1179.16 1006.93 2852
1185.98 1006.93 2852
1192.8 1006.93 2852
1199.62 1006.93 2852
1197.98 999.865 2832
1198.79 994.923 2818
1205.53 994.923 2818
1212.27 994.923 2818
1221.17 996.688 2823
1227.92 996.688 2823
1240.8 1001.63 2837
1247.58 1001.63 2837
1256.57 1003.4 2842
1263.37 1003.4 2842
1270.17 1003.4 2842
1498.6 988.214 2799
1505.29 988.214 2799
1511.99 988.214 2799
1518.68 988.214 2799
1517.74 983.272 2785
1524.4 983.272 2785
1678.08 1024.23 2901
1685.02 1024.23 2901
1718.78 1040.47 2947
1735.2 1046.12 2963
1745.23 1047.88 2968
1752.32 1047.88 2968
1759.42 1047.88 2968
1766.52 1047.88 2968
1773.61 1047.88 2968
1779.18 1038.7 2942
1795.93 1044.35 2958
1803.01 1044.35 2958
1810.08 1044.35 2958
1817.15 1044.35 2958
1824.23 1044.35 2958
1831.3 1044.35 2958
1838.37 1044.35 2958
1845.45 1044.35 2958
1845.63 1040.47 2947
1852.68 1040.47 2947
1856.57 1038.7 2942
2016.56 963.853 2730
2026.79 965.619 2735
2033.33 965.619 2735
2063.74 976.917 2767
2080.08 981.506 2780
2086.73 981.506 2780
2093.38 981.506 2780
2100.03 981.506 2780
2093.03 975.151 2762
2099.64 975.151 2762
2110.06 976.917 2767
2116.67 976.917 2767
-1609.33 979.99 2757
-1646.34 1006.65 2832
-1639.56 1006.65 2832
-1632.79 1006.65 2832
-1626.02 1006.65 2832
-1619.25 1006.65 2832
-1610.2 1005.23 2828
-1603.43 1005.23 2828
-1564.49 984.967 2771
-1552.8 981.768 2762
-1564.11 993.142 2794
-1557.43 993.142 2794
-1550.75 993.142 2794
-1544.07 993.142 2794
-1537.39 993.142 2794
-1518.11 984.967 2771
-1511.48 984.967 2771
-1499.97 981.768 2762
-1503.09 988.166 2780
-1496.45 988.166 2780
-1489.8 988.166 2780
-1483.15 988.166 2780
-1476.5 988.166 2780
-1384.22 1038.64 2922
-1377.24 1038.64 2922
-1372.59 1040.42 2927
-1377.72 1049.66 2953
-1370.66 1049.66 2953
-1363.6 1049.66 2953
-1356.54 1049.66 2953
-1330.28 1034.73 2911
-1323.32 1034.73 2911
-1311.84 1031.18 2901
-1291.41 1020.51 2871
-1278.28 1015.54 2857
-1271.45 1015.54 2857
-1264.62 1015.54 2857
-1263.95 1020.51 2871
-1257.08 1020.51 2871
-1250.22 1020.51 2871
-1235.12 1013.76 2852
-1228.3 1013.76 2852
-1227.48 1018.73 2866
-1222.75 1020.51 2871
-1215.89 1020.51 2871
-1209.02 1020.51 2871
-1194.2 1013.76 2852
-1187.38 1013.76 2852
-1178.49 1011.98 2847
-1163.87 1005.23 2828
-1150.97 999.896 2813
-1151.97 1006.65 2832
-1149.24 1010.2 2842
-1142.44 1010.2 2842
-1135.65 1010.2 2842
-1130.84 1011.98 2847
-1126 1013.76 2852
-1119.18 1013.76 2852
-1112.36 1013.76 2852
-1105.54 1013.76 2852
-1098.72 1013.76 2852
-1089.99 1011.98 2847
-1085.08 1013.76 2852
-1078.26 1013.76 2852
-1071.44 1013.76 2852
-1064.62 1013.76 2852
-1066.7 1022.29 2876
-1061.67 1024.07 2881
-1058.44 1027.62 2891
-1051.53 1027.62 2891
-1054.01 1036.86 2917
-1056.01 1045.75 2942
-1048.97 1045.75 2942
-1041.94 1045.75 2942
-1026.11 1036.86 2917
-1010.05 1027.62 2891
-1003.14 1027.62 2891
-994.499 1025.84 2886
-987.598 1025.84 2886
-980.697 1025.84 2886
-975.482 1027.62 2891
-968.569 1027.62 2891
-976.957 1043.97 2937
-978.52 1053.21 2963
-973.074 1054.99 2968
-965.977 1054.99 2968
-958.879 1054.99 2968
-955.31 1058.9 2979
-948.186 1058.9 2979
-941.062 1058.9 2979
-933.938 1058.9 2979
-921.837 1053.21 2963
-914.751 1053.21 2963
-902.765 1047.53 2947
-900.581 1053.21 2963
-906.462 1068.5 3006
-902.564 1072.41 3017
-895.35 1072.41 3017
-888.135 1072.41 3017
-880.921 1072.41 3017
-873.706 1072.41 3017
-857.014 1060.68 2984
-843.897 1053.21 2963
-832.293 1047.53 2947
-825.246 1047.53 2947
-815.422 1043.97 2937
-805.647 1040.42 2927
-791.553 1031.18 2901
-780.559 1025.84 2886
-773.658 1025.84 2886
-766.756 1025.84 2886
-759.855 1025.84 2886
-752.954 1025.84 2886
-746.052 1025.84 2886
-739.151 1025.84 2886
-729.713 1022.29 2876
-720.322 1018.73 2866
-714.713 1020.51 2871
-707.848 1020.51 2871
-702.203 1022.29 2876
-695.326 1022.29 2876
-688.448 1022.29 2876
-681.571 1022.29 2876
-674.693 1022.29 2876
-665.494 1018.73 2866
-658.641 1018.73 2866
-650.877 1017.31 2862
-644.033 1017.31 2862
-637.19 1017.31 2862
-630.346 1017.31 2862
-623.502 1017.31 2862
-617.52 1018.73 2866
-610.666 1018.73 2866
-603.813 1018.73 2866
-596.959 1018.73 2866
-592.165 1022.29 2876
-587.322 1025.84 2886
-580.421 1025.84 2886
-573.52 1025.84 2886
-566.619 1025.84 2886
-560.687 1027.62 2891
-553.774 1027.62 2891
-546.86 1027.62 2891
-538.079 1024.07 2881
-531.19 1024.07 2881
-524.301 1024.07 2881
-519.207 1027.62 2891
-512.294 1027.62 2891
-505.381 1027.62 2891
-498.468 1027.62 2891
-491.554 1027.62 2891
-481.288 1020.51 2871
-472.936 1017.31 2862
-464.463 1013.76 2852
-457.643 1013.76 2852
-450.033 1011.98 2847
-442.446 1010.2 2842
-435.65 1010.2 2842
-428.854 1010.2 2842
-422.058 1010.2 2842
-416.723 1013.76 2852
-409.903 1013.76 2852
-403.083 1013.76 2852
-396.263 1013.76 2852
-389.443 1013.76 2852
-381.952 1011.98 2847
-378.966 1022.29 2876
-372.088 1022.29 2876
-365.846 1024.07 2881
-359.579 1025.84 2886
-352.678 1025.84 2886
-345.777 1025.84 2886
-338.876 1025.84 2886
-333.7 1031.18 2901
-328.565 1036.86 2917
-321.589 1036.86 2917
-314.614 1036.86 2917
-309.22 1042.2 2932
-302.209 1042.2 2932
-295.198 1042.2 2932
-288.187 1042.2 2932
-280.696 1040.42 2927
-271.733 1032.95 2906
-264.784 1032.95 2906
-256.504 1027.62 2891
-250.885 1032.95 2906
-243.936 1032.95 2906
-236.987 1032.95 2906
-230.038 1032.95 2906
-221.17 1024.07 2881
-211.008 1008.43 2837
-206.311 1018.73 2866
-199.458 1018.73 2866
-194.284 1027.62 2891
-189.056 1036.86 2917
-182.081 1036.86 2917
-175.105 1036.86 2917
-168.13 1036.86 2917
-163.143 1049.66 2953
-156.082 1049.66 2953
-149.02 1049.66 2953
-141.19 1043.97 2937
-133.71 1040.42 2927
-126.71 1040.42 2927
-119.711 1040.42 2927
-112.711 1040.42 2927
-71.4093 810.083 2279
-66.0463 811.149 2282
-60.5894 811.149 2282
-55.1324 811.149 2282
-49.7408 812.215 2285
-44.4704 815.77 2295
-39.0843 817.903 2301
-33.5819 817.903 2301
-28.0795 817.903 2301
-22.5771 817.903 2301
-17.1193 820.035 2307
-11.6025 820.035 2307
-6.13854 827.145 2327
-0.573981 827.145 2327
4.99058 827.145 2327
10.5551 827.145 2327
16.092 825.723 2323
21.5911 823.59 2317
27.1317 823.59 2317
32.6724 823.59 2317
38.2625 824.656 2320
43.8103 824.656 2320
49.422 825.723 2323
54.977 825.723 2323
60.7144 828.211 2330
66.2861 828.211 2330
71.8578 828.211 2330
77.4296 828.211 2330
82.752 825.723 2323
88.307 825.723 2323
94.0236 827.145 2327
99.5881 827.145 2327
105.288 828.211 2330
110.86 828.211 2330
116.432 828.211 2330
121.846 827.145 2327
126.863 823.59 2317
133.147 828.211 2330
138.897 829.277 2333
145.095 832.832 2343
150.698 832.832 2343
156.301 832.832 2343
162.111 833.898 2346
167.721 833.898 2346
173.331 833.898 2346
261.277 998.474 2809
268.376 999.896 2813
276.569 1005.23 2828
283.332 1005.23 2828
291.018 1008.43 2837
298.327 1010.2 2842
305.66 1011.98 2847
312.468 1011.98 2847
319.276 1011.98 2847
325.511 1010.2 2842
332.307 1010.2 2842
338.507 1008.43 2837
343.587 1003.45 2823
350.337 1003.45 2823
358.226 1006.65 2832
364.999 1006.65 2832
373.74 1011.98 2847
382.553 1017.31 2862
392.662 1025.84 2886
399.564 1025.84 2886
407.169 1027.62 2891
414.798 1029.4 2896
423.18 1032.95 2906
430.129 1032.95 2906
439.485 1038.64 2922
446.472 1038.64 2922
453.459 1038.64 2922
457.926 1032.95 2906
464.075 1031.18 2901
469.388 1027.62 2891
476.302 1027.62 2891
484.051 1029.4 2896
490.976 1029.4 2896
499.62 1032.95 2906
507.441 1034.73 2911
514.402 1034.73 2911
521.363 1034.73 2911
528.324 1034.73 2911
533.447 1031.18 2901
540.384 1031.18 2901
547.321 1031.18 2901
554.258 1031.18 2901
558.294 1025.84 2886
565.195 1025.84 2886
568.131 1018.73 2866
574.182 1017.31 2862
580.011 1015.54 2857
588.692 1018.73 2866
595.545 1018.73 2866
602.399 1018.73 2866
831.953 1076.32 3028
839.194 1076.32 3028
846.434 1076.32 3028
851.984 1074.19 3022
859.21 1074.19 3022
866.437 1074.19 3022
869.038 1068.5 3006
868.356 1058.9 2979
872.247 1054.99 2968
879.344 1054.99 2968
875.689 1042.2 2932
879.69 1038.64 2922
881.822 1032.95 2906
888.771 1032.95 2906
894.179 1031.18 2901
901.117 1031.18 2901
906.489 1029.4 2896
913.414 1029.4 2896
920.339 1029.4 2896
922.461 1024.07 2881
926.125 1020.51 2871
932.99 1020.51 2871
946.403 1027.62 2891
953.316 1027.62 2891
963.551 1031.18 2901
970.488 1031.18 2901
977.425 1031.18 2901
984.363 1031.18 2901
989.591 1029.4 2896
998.237 1031.18 2901
1008.64 1034.73 2911
1015.6 1034.73 2911
1022.56 1034.73 2911
1033.41 1038.64 2922
1040.4 1038.64 2922
1047.39 1038.64 2922
1054.37 1038.64 2922
1068.63 1045.75 2942
1081.51 1051.44 2958
1088.59 1051.44 2958
1097.51 1053.21 2963
1104.6 1053.21 2963
1111.68 1053.21 2963
1114.99 1049.66 2953
1117.87 1045.75 2942
1119.17 1040.42 2927
1126.17 1040.42 2927
1123.11 1031.18 2901
1118.36 1020.51 2871
1121.7 1017.31 2862
1128.54 1017.31 2862
1135.38 1017.31 2862
1140.23 1015.54 2857
1147.06 1015.54 2857
1151.88 1013.76 2852
1158.7 1013.76 2852
1165.52 1013.76 2852
1172.34 1013.76 2852
1179.16 1013.76 2852
1185.98 1013.76 2852
1192.8 1013.76 2852
1199.62 1013.76 2852
1197.98 1006.65 2832
1203.05 1005.23 2828
1209.81 1005.23 2828
1214.42 1003.45 2823
1225.06 1006.65 2832
1234.01 1008.43 2837
1242.98 1010.2 2842
1249.78 1010.2 2842
1263.21 1015.54 2857
1270.04 1015.54 2857
1276.87 1015.54 2857
1409.07 993.142 2794
1437.54 1008.43 2837
1444.32 1008.43 2837
1451.1 1008.43 2837
1457.89 1008.43 2837
1464.67 1008.43 2837
1468.86 1006.65 2832
1473.55 1005.23 2828
1498.6 994.919 2799
1505.29 994.919 2799
1511.99 994.919 2799
1508.37 988.166 2780
1505.21 981.768 2762
1511.81 981.768 2762
1513.47 978.569 2753
1640.04 1011.98 2847
1663.62 1022.29 2876
1670.5 1022.29 2876
1677.37 1022.29 2876
1704.75 1034.73 2911
1718.18 1038.64 2922
1725.16 1038.64 2922
1732.15 1038.64 2922
1739.14 1038.64 2922
1746.13 1038.64 2922
1719.52 1018.73 2866
1738.42 1025.84 2886
1779.18 1045.75 2942
1786.22 1045.75 2942
1793.25 1045.75 2942
1800.29 1045.75 2942
1801.18 1042.2 2932
1808.19 1042.2 2932
1815.2 1042.2 2932
1816 1038.64 2922
1822.99 1038.64 2922
1813.69 1029.4 2896
1820.62 1029.4 2896
1824.39 1027.62 2891
2016.56 970.393 2730
2023.09 970.393 2730
2029.61 970.393 2730
2060.01 981.768 2762
2077.09 986.744 2776
2083.73 986.744 2776
2090.37 986.744 2776
2097 986.744 2776
2093.03 981.768 2762
2099.64 981.768 2762
2102.43 979.99 2757
2109.02 979.99 2757
-1609.33 986.595 2757
-1630.06 1003.41 2804
-1623.35 1003.41 2804
-1630.49 1012 2828
-1623.72 1012 2828
-1616.96 1012 2828
-1596.53 1003.41 2804
-1571.12 991.605 2771
-1556.59 986.595 2757
-1552.8 988.384 2762
-1564.11 999.835 2794
-1557.43 999.835 2794
-1550.75 999.835 2794
-1544.07 999.835 2794
-1537.39 999.835 2794
-1518.11 991.605 2771
-1511.48 991.605 2771
-1499.97 988.384 2762
-1503.09 994.825 2780
-1496.45 994.825 2780
-1489.8 994.825 2780
-1485.82 996.615 2785
-1479.16 996.615 2785
-1472.5 996.615 2785
-1372.59 1047.43 2927
-1365.59 1047.43 2927
-1358.59 1047.43 2927
-1349.29 1045.64 2922
-1342.3 1045.64 2922
-1330.28 1041.7 2911
-1323.32 1041.7 2911
-1311.84 1038.13 2901
-1304.9 1038.13 2901
-1278.28 1022.38 2857
-1271.45 1022.38 2857
-1264.62 1022.38 2857
-1263.95 1027.39 2871
-1257.08 1027.39 2871
-1250.22 1027.39 2871
-1235.12 1020.59 2852
-1228.3 1020.59 2852
-1225.77 1024.17 2862
-1218.92 1024.17 2862
-1212.08 1024.17 2862
-1201.02 1020.59 2852
-1184.15 1012 2828
-1177.39 1012 2828
-1168.56 1010.21 2823
-1156.05 1005.2 2809
-1147.28 1003.41 2804
-1142.61 1005.2 2809
-1145.2 1013.43 2832
-1138.42 1013.43 2832
-1131.65 1013.43 2832
-1124.88 1013.43 2832
-1118.11 1013.43 2832
-1111.33 1013.43 2832
-1104.56 1013.43 2832
-1096.24 1012 2828
-1089.48 1012 2828
-1082.71 1012 2828
-1079.38 1015.22 2837
-1072.59 1015.22 2837
-1065.81 1015.22 2837
-1057.16 1013.43 2832
-1054.09 1017.01 2842
-1052.83 1022.38 2857
-1052.95 1029.18 2876
-1046.07 1029.18 2876
-1041 1030.97 2881
-1041.29 1038.13 2901
-1034.35 1038.13 2901
-1027.42 1038.13 2901
-1016.96 1034.55 2891
-1008.3 1032.76 2886
-1001.4 1032.76 2886
-991.053 1029.18 2876
-984.176 1029.18 2876
-978.997 1030.97 2881
-972.108 1030.97 2881
-965.219 1030.97 2881
-958.329 1030.97 2881
-969.934 1051.01 2937
-971.435 1060.31 2963
-964.349 1060.31 2963
-958.879 1062.1 2968
-955.31 1066.04 2979
-948.186 1066.04 2979
-941.062 1066.04 2979
-933.938 1066.04 2979
-923.392 1062.1 2968
-916.295 1062.1 2968
-902.765 1054.59 2947
-895.718 1054.59 2947
-893.495 1060.31 2963
-892.692 1067.83 2984
-885.556 1067.83 2984
-881.659 1071.76 2995
-874.497 1071.76 2995
-867.335 1071.76 2995
-854.142 1064.25 2974
-837.916 1052.8 2942
-828.057 1049.22 2932
-821.045 1049.22 2932
-811.258 1045.64 2922
-798.49 1038.13 2901
-788.824 1034.55 2891
-780.559 1032.76 2886
-773.658 1032.76 2886
-765.428 1030.97 2881
-758.539 1030.97 2881
-751.649 1030.97 2881
-744.76 1030.97 2881
-737.87 1030.97 2881
-729.713 1029.18 2876
-720.322 1025.6 2866
-713.468 1025.6 2866
-706.615 1025.6 2866
-700.982 1027.39 2871
-695.326 1029.18 2876
-688.448 1029.18 2876
-681.571 1029.18 2876
-674.693 1029.18 2876
-665.494 1025.6 2866
-658.641 1025.6 2866
-650.877 1024.17 2862
-644.033 1024.17 2862
-637.19 1024.17 2862
-630.346 1024.17 2862
-623.502 1024.17 2862
-616.658 1024.17 2862
-609.814 1024.17 2862
-602.97 1024.17 2862
-596.126 1024.17 2862
-590.106 1025.6 2866
-584.27 1027.39 2871
-578.41 1029.18 2876
-571.533 1029.18 2876
-564.655 1029.18 2876
-557.778 1029.18 2876
-549.943 1027.39 2871
-543.077 1027.39 2871
-534.531 1024.17 2862
-527.687 1024.17 2862
-522.481 1027.39 2871
-515.615 1027.39 2871
-508.75 1027.39 2871
-501.885 1027.39 2871
-495.019 1027.39 2871
-488.154 1027.39 2871
-479.78 1024.17 2862
-471.283 1020.59 2852
-463.649 1018.8 2847
-456.841 1018.8 2847
-449.243 1017.01 2842
-441.668 1015.22 2837
-434.884 1015.22 2837
-428.1 1015.22 2837
-421.316 1015.22 2837
-414.532 1015.22 2837
-407.029 1013.43 2832
-400.257 1013.43 2832
-393.484 1013.43 2832
-385.483 1010.21 2823
-380.611 1015.22 2837
-377.648 1025.6 2866
-370.795 1025.6 2866
-365.211 1029.18 2876
-358.334 1029.18 2876
-351.456 1029.18 2876
-344.579 1029.18 2876
-337.701 1029.18 2876
-331.399 1030.97 2881
-324.51 1030.97 2881
-317.62 1030.97 2881
-310.731 1030.97 2881
-303.314 1029.18 2876
-296.437 1029.18 2876
-289.56 1029.18 2876
-282.682 1029.18 2876
-274.846 1025.6 2866
-267.618 1024.17 2862
-260.775 1024.17 2862
-253.931 1024.17 2862
-246.655 1022.38 2857
-239.823 1022.38 2857
-232.991 1022.38 2857
-226.159 1022.38 2857
-217.792 1015.22 2837
-209.595 1008.42 2818
-204.224 1015.22 2837
-197.439 1015.22 2837
-192.604 1025.6 2866
-185.751 1025.6 2866
-179.834 1030.97 2881
-172.944 1030.97 2881
-166.919 1036.34 2896
-159.994 1036.34 2896
-153.069 1036.34 2896
-146.144 1036.34 2896
-139.219 1036.34 2896
-131.608 1030.97 2881
-124.719 1030.97 2881
-117.42 1027.39 2871
-71.4093 815.542 2279
-66.0463 816.616 2282
-60.5894 816.616 2282
