-528.241 565.647 3557
-521.927 568.032 3572
-520.14 575.506 3619
-511.486 575.506 3619
-503.944 576.779 3627
-495.27 576.779 3627
-486.597 576.779 3627
-476.87 575.506 3619
-467.18 574.234 3611
-458.545 574.234 3611
-450.907 575.506 3619
-442.253 575.506 3619
-436.355 579.164 3642
-428.585 580.436 3650
-421.812 583.14 3667
-413.043 583.14 3667
-406.92 586.956 3691
-398.957 588.228 3699
-392.748 592.204 3724
-383.843 592.204 3724
-379.166 598.883 3766
-372.716 603.018 3792
-366.909 608.424 3826
-357.76 608.424 3826
-350.251 611.287 3844
-341.058 611.287 3844
-331.866 611.287 3844
-322.674 611.287 3844
-314.95 614.149 3862
-309.989 622.736 3916
-302.774 627.189 3944
-293.343 627.189 3944
-285.28 630.211 3963
-275.803 630.211 3963
-267.603 633.232 3982
-258.081 633.232 3982
-249.12 634.663 3991
-239.577 634.663 3991
-230.033 634.663 3991
-220.489 634.663 3991
-210.47 633.232 3982
-109.356 344.604 2167
-104.174 344.604 2167
-98.9916 344.604 2167
-93.8097 344.604 2167
-88.6277 344.604 2167
-83.3303 344.127 2164
-78.4444 345.399 2172
-73.2505 345.399 2172
-68.0566 345.399 2172
-62.8627 345.399 2172
-57.6688 345.399 2172
-52.4024 344.922 2169
-47.1721 344.604 2167
-42.0289 344.922 2169
-36.8422 344.922 2169
-31.6554 344.922 2169
-26.4687 344.922 2169
-21.282 344.922 2169
-16.0952 344.922 2169
-10.8984 344.604 2167
-5.71647 344.604 2167
-0.535749 345.399 2172
4.67103 346.353 2178
9.87929 346.353 2178
15.1083 346.831 2181
20.4263 348.58 2192
25.7734 350.011 2201
31.0366 350.011 2201
36.5803 352.714 2218
42.1108 354.623 2230
47.5072 355.1 2233
53.131 357.008 2245
58.4995 357.008 2245
64.124 358.439 2254
69.7299 359.552 2261
75.2363 360.029 2264
80.6502 360.029 2264
86.2922 360.984 2270
92.3265 363.369 2285
97.9191 363.846 2288
103.39 363.846 2288
109.195 364.959 2295
114.833 365.436 2298
120.485 365.913 2301
125.987 365.913 2301
131.49 365.913 2301
137.171 366.39 2304
142.68 366.39 2304
148.19 366.39 2304
153.699 366.39 2304
159.209 366.39 2304
164.719 366.39 2304
520.595 481.523 3028
527.836 481.523 3028
535.961 482.319 3033
543.214 482.319 3033
552.463 484.068 3044
559.742 484.068 3044
567.021 484.068 3044
572.225 482.319 3033
578.522 481.523 3028
585.763 481.523 3028
593.004 481.523 3028
598.064 479.774 3017
605.279 479.774 3017
611.275 478.82 3011
618.476 478.82 3011
625.676 478.82 3011
630.564 477.071 3000
635.612 475.481 2990
642.762 475.481 2990
648.608 474.526 2984
648.931 469.597 2953
657.104 470.392 2958
664.177 470.392 2958
672.385 471.187 2963
679.471 471.187 2963
686.556 471.187 2963
694.812 471.982 2968
703.328 472.936 2974
710.44 472.936 2974
718.758 473.731 2979
728.562 475.481 2990
736.942 476.276 2995
744.104 476.276 2995
751.266 476.276 2995
758.428 476.276 2995
765.59 476.276 2995
772.752 476.276 2995
778.612 475.481 2990
785.762 475.481 2990
792.912 475.481 2990
798.457 474.526 2984
805.592 474.526 2984
812.728 474.526 2984
819.864 474.526 2984
825.613 473.731 2979
829.662 471.982 2968
836.76 471.982 2968
843.857 471.982 2968
850.954 471.982 2968
858.052 471.982 2968
862.234 470.392 2958
867.838 469.597 2953
874.9 469.597 2953
878.676 467.847 2942
884.206 467.052 2937
888.195 465.462 2927
898.253 467.052 2937
905.276 467.052 2937
979.704 501.56 3154
998.515 507.285 3190
1006.14 507.285 3190
1013.77 507.285 3190
1019.48 506.331 3184
1030.96 508.239 3196
1050.63 514.123 3233
1058.36 514.123 3233
1070.38 516.191 3246
1084.45 519.212 3265
1118.35 531.616 3343
1126.35 531.616 3343
1153 540.362 3398
1175.48 547.041 3440
1196.09 552.766 3476
1204.41 552.766 3476
1215.16 553.879 3483
1233.68 558.491 3512
1244.91 559.763 3520
1253.32 559.763 3520
1261.74 559.763 3520
1270.16 559.763 3520
1281.12 560.876 3527
1289.55 560.876 3527
1306.08 564.375 3549
1317.53 565.647 3557
1331.63 568.032 3572
1340.17 568.032 3572
1348.71 568.032 3572
1360.29 569.305 3580
1368.86 569.305 3580
1377.42 569.305 3580
1385.98 569.305 3580
1391.42 568.032 3572
1399.96 568.032 3572
1399.44 564.375 3549
1396.42 559.763 3520
1395.66 556.106 3497
1389.56 550.381 3461
1397.84 550.381 3461
1383.37 541.475 3405
1371.89 533.842 3357
1368.82 529.549 3330
1376.78 529.549 3330
1373.52 525.255 3303
1375.98 523.188 3290
1381.32 522.234 3284
1378.18 518.099 3258
1385.97 518.099 3258
1393.76 518.099 3258
1404.56 519.212 3265
1412.37 519.212 3265
1420.18 519.212 3265
1427.99 519.212 3265
1435.79 519.212 3265
1446.25 520.166 3271
1457.19 521.279 3278
1465.03 521.279 3278
1472.87 521.279 3278
1480.7 521.279 3278
1488.54 521.279 3278
1496.38 521.279 3278
1501.01 520.166 3271
1502.83 518.099 3258
1510.62 518.099 3258
1512.82 516.191 3246
1514.49 514.123 3233
1516.58 512.215 3221
1512.45 508.239 3196
1520.09 508.239 3196
1516.26 504.423 3172
1509.43 499.652 3142
1502.46 494.881 3112
1509.9 494.881 3112
1497.84 488.521 3072
1483.63 481.523 3028
1464.28 472.936 2974
1458.04 468.643 2947
1465.08 468.643 2947
1446.66 460.532 2896
1446.05 458.147 2881
1447.9 456.557 2871
1454.76 456.557 2871
1457.05 455.126 2862
1461.33 454.33 2857
1465.6 453.535 2852
1472.42 453.535 2852
1479.24 453.535 2852
1483.45 452.74 2847
1487.64 451.945 2842
1491.81 451.15 2837
1498.59 451.15 2837
1505.38 451.15 2837
1509.5 450.355 2832
1514.13 449.719 2828
1520.89 449.719 2828
1524.95 448.924 2823
1526.28 447.333 2813
1533 447.333 2813
1539.73 447.333 2813
1544.26 446.697 2809
1548.21 445.902 2804
1547.15 443.676 2790
1553.83 443.676 2790
1560.5 443.676 2790
1567.17 443.676 2790
1576.1 444.312 2794
1582.78 444.312 2794
1589.46 444.312 2794
1596.14 444.312 2794
1602.82 444.312 2794
1609.5 444.312 2794
1619.08 445.107 2799
1625.77 445.107 2799
1632.46 445.107 2799
1639.16 445.107 2799
1645.85 445.107 2799
1652.54 445.107 2799
1662.2 445.902 2804
1668.91 445.902 2804
1678.6 446.697 2809
1687.72 447.333 2813
1694.44 447.333 2813
1701.17 447.333 2813
1707.9 447.333 2813
1714.62 447.333 2813
1721.35 447.333 2813
1728.08 447.333 2813
1732.34 446.697 2809
1739.05 446.697 2809
1742.66 445.902 2804
1749.37 445.902 2804
1756.07 445.902 2804
1762.78 445.902 2804
1769.48 445.902 2804
1776.19 445.902 2804
1779.72 445.107 2799
1786.41 445.107 2799
1793.1 445.107 2799
1799.8 445.107 2799
1806.49 445.107 2799
1816.42 445.902 2804
1823.13 445.902 2804
1829.83 445.902 2804
1829.99 444.312 2794
1836.67 444.312 2794
1843.35 444.312 2794
1847.38 443.676 2790
1850.73 442.881 2785
1860.73 443.676 2790
1867.4 443.676 2790
1874.07 443.676 2790
1877.37 442.881 2785
1884.03 442.881 2785
1890.69 442.881 2785
1893.94 442.086 2780
1897.86 441.45 2776
1904.5 441.45 2776
1911.13 441.45 2776
1917.77 441.45 2776
1924.41 441.45 2776
1927.57 440.654 2771
1934.2 440.654 2771
1940.82 440.654 2771
1947.45 440.654 2771
1951.25 440.018 2767
1960.7 440.654 2771
1967.33 440.654 2771
1973.95 440.654 2771
1980.58 440.654 2771
1987.21 440.654 2771
1993.83 440.654 2771
2000.46 440.654 2771
2004.19 440.018 2767
2000.63 437.792 2753
2007.21 437.792 2753
2026.96 440.654 2771
2033.59 440.654 2771
2040.22 440.654 2771
2046.84 440.654 2771
2063.84 442.881 2785
2070.5 442.881 2785
2077.16 442.881 2785
2090.56 444.312 2794
2097.24 444.312 2794
2103.92 444.312 2794
2103.8 442.881 2785
2106.67 442.086 2780
2113.32 442.086 2780
2123.78 442.881 2785
2130.44 442.881 2785
-2103.17 453.426 2809
-2096.45 453.426 2809
-2089.73 453.426 2809
-2061.51 448.745 2780
-2051.91 448.099 2776
-2051.9 449.552 2785
-2045.24 449.552 2785
-2038.58 449.552 2785
-2035.57 450.359 2790
-2028.9 450.359 2790
-2028.75 451.812 2799
-2022.05 451.812 2799
-2015.36 451.812 2799
-2012.26 452.619 2804
-2022.72 456.493 2828
-2015.95 456.493 2828
-2033.35 461.982 2862
-2047.04 466.663 2891
-2040.12 466.663 2891
-2033.21 466.663 2891
-2015.78 464.241 2876
-2001.92 462.627 2866
-1995.07 462.627 2866
-1978.5 460.367 2852
-1975.14 461.174 2857
-1977.95 463.434 2871
-1971.09 463.434 2871
-1964.22 463.434 2871
-1964.17 465.048 2881
-1957.28 465.048 2881
-1950.4 465.048 2881
-1943.51 465.048 2881
-1929.89 463.434 2871
-1917 461.982 2862
-1912.83 462.627 2866
-1905.97 462.627 2866
-1909.06 465.048 2881
-1905.47 465.856 2886
-1898.57 465.856 2886
-1891.67 465.856 2886
-1884.77 465.856 2886
-1881.12 466.663 2891
-1883.93 469.084 2906
-1876.98 469.084 2906
-1896.42 475.702 2947
-1893.22 476.671 2953
-1905.95 481.675 2984
-1898.82 481.675 2984
-1901.83 484.257 3000
-1901.6 486.033 3011
-1922.08 493.135 3055
-1914.78 493.135 3055
-1911.22 494.104 3061
-1903.9 494.104 3061
-1913.93 498.624 3089
-1906.54 498.624 3089
-1920.67 504.273 3124
-1924.22 507.179 3142
-1916.71 507.179 3142
-1912.84 508.147 3148
-1905.32 508.147 3148
-1897.79 508.147 3148
-1890.26 508.147 3148
-1868.38 504.273 3124
-1868.06 506.21 3136
-1878.36 511.053 3166
-1888.51 515.896 3196
-1880.87 515.896 3196
-1887.88 519.931 3221
-1890.68 522.837 3239
-1882.94 522.837 3239
-1897.77 529.132 3278
-1915.88 536.396 3323
-1927.45 541.884 3357
-1919.43 541.884 3357
-1938.73 549.632 3405
-1958.37 557.542 3454
-1958.01 559.802 3468
-1949.72 559.802 3468
-1941.43 559.802 3468
-1953.76 565.774 3505
-1949.26 566.904 3512
-1940.86 566.904 3512
-1936.87 568.195 3520
-1932.28 569.325 3527
-1927.67 570.455 3534
-1919.22 570.455 3534
-1915.09 571.747 3542
-1910.39 572.876 3549
-1906.19 574.168 3557
-1897.69 574.168 3557
-1893.43 575.459 3565
-1888.6 576.589 3572
-1880.06 576.589 3572
-1871.52 576.589 3572
-1867.15 577.88 3580
-1862.74 579.172 3588
-1857.78 580.302 3595
-1849.18 580.302 3595
-1844.68 581.593 3603
-1840.14 582.884 3611
-1831.51 582.884 3611
-1822.87 582.884 3611
-1814.24 582.884 3611
-1805.6 582.884 3611
-1800.95 584.176 3619
-1792.3 584.176 3619
-1783.64 584.176 3619
-1782.84 586.758 3635
-1774.14 586.758 3635
-1765.45 586.758 3635
-1764.01 589.18 3650
-1767.3 593.215 3675
-1773.83 598.381 3707
-1764.96 598.381 3707
-1771.73 603.708 3740
-1770.8 606.452 3757
-1778.23 612.101 3792
-1769.16 612.101 3792
-1760.09 612.101 3792
-1751.02 612.101 3792
-1741.96 612.101 3792
-1732.89 612.101 3792
-1723.82 612.101 3792
-1730.13 617.59 3826
-1737.17 623.401 3862
-1727.94 623.401 3862
-1718.7 623.401 3862
-1709.47 623.401 3862
-1700.23 623.401 3862
-1667.79 614.845 3809
-1654.76 613.393 3800
-1623.59 605.16 3749
-1593.09 597.089 3699
-1584.24 597.089 3699
-1557.94 590.471 3658
-1532.67 584.176 3619
-1507.6 577.88 3580
-1499.03 577.88 3580
-1480.9 574.168 3557
-1462.87 570.455 3534
-1439.19 564.483 3497
-1430.83 564.483 3497
-1410.67 559.802 3468
-1393.89 556.412 3447
-1374.39 551.892 3419
-1366.21 551.892 3419
-1335.79 542.852 3363
-1317.49 538.656 3337
-1309.51 538.656 3337
-1298.8 537.526 3330
-1290.83 537.526 3330
-1277.86 535.427 3317
-1267.25 534.297 3310
-1256.67 533.167 3303
-1248.77 533.167 3303
-1240.88 533.167 3303
-1230.74 532.199 3297
-1180.94 513.958 3184
-1173.33 513.958 3184
-1154.73 509.116 3154
-1145.01 508.147 3148
-1203.24 537.526 3330
-1195.28 537.526 3330
-1187.31 537.526 3330
-1179.35 537.526 3330
-1168.93 536.396 3323
-1160.98 536.396 3323
-999.777 478.285 2963
-992.691 478.285 2963
-985.606 478.285 2963
-969.934 474.088 2937
-962.911 474.088 2937
-955.887 474.088 2937
-938.849 469.084 2906
-928.693 467.47 2896
-921.768 467.47 2896
-899.364 459.56 2847
-837.217 466.663 2891
-830.304 466.663 2891
-823.391 466.663 2891
-816.477 466.663 2891
-805.364 464.241 2876
-798.486 464.241 2876
-790.233 463.434 2871
-784.732 464.241 2876
-779.207 465.048 2881
-773.658 465.856 2886
-766.756 465.856 2886
-765.121 469.084 2906
-761.042 470.86 2917
-754.066 470.86 2917
-747.091 470.86 2917
-740.115 470.86 2917
-733.14 470.86 2917
-733.633 475.702 2947
-726.585 475.702 2947
-719.538 475.702 2947
-712.491 475.702 2947
-705.444 475.702 2947
-698.397 475.702 2947
-684.312 470.86 2917
-688.018 478.285 2963
-684.609 480.868 2979
-677.486 480.868 2979
-670.362 480.868 2979
-658.181 498.624 3089
-661.961 507.179 3142
-654.447 507.179 3142
-651.875 511.053 3166
-649.189 514.927 3190
-642.767 515.896 3196
-635.125 515.896 3196
-627.482 515.896 3196
-618.676 514.927 3190
-611.047 514.927 3190
-602.284 513.958 3184
-596.911 515.896 3196
-626.513 548.502 3398
-622.209 551.892 3419
-614.033 551.892 3419
-610.819 556.412 3447
-602.576 556.412 3447
-595.54 557.542 3454
-587.281 557.542 3454
-581.368 559.802 3468
-574.397 561.093 3476
-569.505 564.483 3497
-561.143 564.483 3497
-555.151 566.904 3512
-549.088 569.325 3527
-545.253 574.168 3557
-536.747 574.168 3557
-529.429 575.459 3565
-521.927 576.589 3572
-520.14 584.176 3619
-511.486 584.176 3619
-503.944 585.467 3627
-495.27 585.467 3627
-486.597 585.467 3627
-476.87 584.176 3619
-467.18 582.884 3611
-457.53 581.593 3603
-450.907 584.176 3619
-442.253 584.176 3619
-435.516 586.758 3635
-427.646 587.888 3642
-420.777 590.471 3658
-412.029 590.471 3658
-404.274 591.924 3667
-398.957 597.089 3699
-391.904 599.833 3716
-383.018 599.833 3716
-378.26 606.452 3757
-370.16 607.904 3766
-365.278 614.845 3809
-356.17 614.845 3809
-348.611 617.59 3826
-339.461 617.59 3826
-331.866 620.495 3844
-322.674 620.495 3844
-314.95 623.401 3862
-309.277 630.664 3907
-302.083 635.184 3935
-292.674 635.184 3935
-284.56 638.09 3953
-275.803 639.704 3963
-266.326 639.704 3963
-256.849 639.704 3963
-247.934 641.157 3972
-238.436 641.157 3972
-228.938 641.157 3972
-218.942 639.704 3963
-209.466 639.704 3963
-109.608 350.602 2172
-104.414 350.602 2172
-99.22 350.602 2172
-94.0261 350.602 2172
-88.6277 349.795 2167
-83.4458 349.795 2167
-78.4444 350.602 2172
-73.2505 350.602 2172
-68.0566 350.602 2172
-62.8627 350.602 2172
-57.6688 350.602 2172
-52.4749 350.602 2172
-47.2156 350.118 2169
-42.087 350.602 2172
-36.8931 350.602 2172
-31.6992 350.602 2172
-26.4687 350.118 2169
-21.282 350.118 2169
-16.0952 350.118 2169
-10.9085 350.118 2169
-5.71647 349.795 2167
-0.536489 351.087 2175
4.67103 351.571 2178
9.87929 351.571 2178
15.1291 352.539 2184
20.4822 354.799 2198
25.8085 355.768 2204
31.079 355.768 2204
36.7782 359.965 2230
42.1674 360.449 2233
47.571 360.933 2236
53.131 362.386 2245
58.6558 363.354 2251
64.2093 364.323 2257
69.8224 365.453 2264
75.336 365.937 2267
80.7571 365.937 2267
86.2922 366.421 2270
92.3265 368.843 2285
98.0903 369.973 2292
103.571 369.973 2292
109.195 370.457 2295
114.983 371.425 2301
120.485 371.425 2301
125.987 371.425 2301
131.49 371.425 2301
137.171 371.91 2304
142.68 371.91 2304
148.19 371.91 2304
153.699 371.91 2304
159.209 371.91 2304
164.719 371.91 2304
520.595 488.777 3028
527.836 488.777 3028
535.961 489.584 3033
543.214 489.584 3033
552.463 491.36 3044
559.742 491.36 3044
567.021 491.36 3044
572.225 489.584 3033
578.522 488.777 3028
585.763 488.777 3028
593.004 488.777 3028
598.064 487.001 3017
605.279 487.001 3017
611.275 486.033 3011
618.476 486.033 3011
625.676 486.033 3011
630.564 484.257 3000
635.612 482.643 2990
642.762 482.643 2990
648.608 481.675 2984
648.931 476.671 2953
657.104 477.478 2958
664.177 477.478 2958
672.385 478.285 2963
679.471 478.285 2963
686.556 478.285 2963
694.812 479.092 2968
703.328 480.06 2974
710.44 480.06 2974
718.758 480.868 2979
728.562 482.643 2990
736.942 483.45 2995
744.104 483.45 2995
751.266 483.45 2995
758.428 483.45 2995
765.59 483.45 2995
772.752 483.45 2995
778.612 482.643 2990
785.762 482.643 2990
792.912 482.643 2990
798.457 481.675 2984
805.592 481.675 2984
812.728 481.675 2984
819.864 481.675 2984
825.613 480.868 2979
829.662 479.092 2968
836.76 479.092 2968
843.857 479.092 2968
850.954 479.092 2968
858.052 479.092 2968
862.234 477.478 2958
867.838 476.671 2953
874.9 476.671 2953
878.676 474.895 2942
884.206 474.088 2937
888.195 472.474 2927
898.253 474.088 2937
905.276 474.088 2937
928.762 482.643 2990
996.637 513.958 3184
1004.25 513.958 3184
1011.86 513.958 3184
1015.64 512.021 3172
1030.96 515.896 3196
1050.63 521.868 3233
1058.36 521.868 3233
1070.38 523.966 3246
1084.45 527.033 3265
1114 537.526 3330
1121.97 537.526 3330
1145.88 545.112 3377
1175.48 555.282 3440
1193.34 559.802 3468
1201.64 559.802 3468
1215.16 562.223 3483
1228.41 564.483 3497
1236.77 564.483 3497
1245.13 564.483 3497
1253.5 564.483 3497
1267.27 566.904 3512
1278.57 568.195 3520
1286.99 568.195 3520
1300.56 570.455 3534
1314.57 572.876 3549
1329.02 575.459 3565
1337.54 575.459 3565
1348.71 576.589 3572
1360.29 577.88 3580
1368.86 577.88 3580
1377.42 577.88 3580
1385.98 577.88 3580
1391.42 576.589 3572
1399.96 576.589 3572
1399.44 572.876 3549
1396.42 568.195 3520
1395.66 564.483 3497
1389.56 558.672 3461
1397.84 558.672 3461
1383.37 549.632 3405
1371.89 541.884 3357
1368.82 537.526 3330
1376.78 537.526 3330
1373.52 533.167 3303
1375.98 531.069 3290
1381.32 530.1 3284
1378.18 525.904 3258
1385.97 525.904 3258
1391.19 524.935 3252
1398.97 524.935 3252
1409.34 525.904 3258
1417.13 525.904 3258
1424.92 525.904 3258
1432.72 525.904 3258
1443.6 527.033 3265
1454.08 528.002 3271
1461.9 528.002 3271
1469.72 528.002 3271
1477.54 528.002 3271
1485.36 528.002 3271
1493.19 528.002 3271
1498.25 527.033 3265
1500.07 524.935 3252
1507.84 524.935 3252
1509.56 522.837 3239
1514.49 521.868 3233
1516.58 519.931 3221
1512.45 515.896 3196
1520.09 515.896 3196
1516.26 512.021 3172
1509.43 507.179 3142
1502.46 502.336 3112
1509.9 502.336 3112
1497.84 495.88 3072
1483.63 488.777 3028
1464.28 480.06 2974
1458.04 475.702 2947
1465.08 475.702 2947
1446.66 467.47 2896
1446.05 465.048 2881
1447.9 463.434 2871
1454.76 463.434 2871
1457.05 461.982 2862
1461.33 461.174 2857
1465.6 460.367 2852
1472.42 460.367 2852
1479.24 460.367 2852
1480.85 458.753 2842
1487.64 458.753 2842
1491.81 457.946 2837
1498.59 457.946 2837
1505.38 457.946 2837
1509.5 457.139 2832
1514.13 456.493 2828
1520.89 456.493 2828
1524.95 455.686 2823
1526.28 454.072 2813
1530.82 453.426 2809
1537.54 453.426 2809
1541.51 452.619 2804
1548.21 452.619 2804
1547.15 450.359 2790
1553.83 450.359 2790
1560.5 450.359 2790
1564.36 449.552 2785
1571.02 449.552 2785
1580.51 450.359 2790
1587.18 450.359 2790
1593.86 450.359 2790
1602.82 451.005 2794
1609.5 451.005 2794
1616.19 451.005 2794
1622.87 451.005 2794
1632.46 451.812 2799
1639.16 451.812 2799
1645.85 451.812 2799
1652.54 451.812 2799
1662.2 452.619 2804
1668.91 452.619 2804
1678.6 453.426 2809
1687.72 454.072 2813
1694.44 454.072 2813
1701.17 454.072 2813
1707.9 454.072 2813
1714.62 454.072 2813
1721.35 454.072 2813
1725.62 453.426 2809
1732.34 453.426 2809
1739.05 453.426 2809
1742.66 452.619 2804
1746.25 451.812 2799
1756.07 452.619 2804
1762.78 452.619 2804
1769.48 452.619 2804
1776.19 452.619 2804
1779.72 451.812 2799
1786.41 451.812 2799
1793.1 451.812 2799
1799.8 451.812 2799
1806.49 451.812 2799
1813.18 451.812 2799
1819.88 451.812 2799
1826.57 451.812 2799
1829.99 451.005 2794
1836.67 451.005 2794
1843.35 451.005 2794
1844.07 449.552 2785
1850.73 449.552 2785
1860.73 450.359 2790
1867.4 450.359 2790
1874.07 450.359 2790
1877.37 449.552 2785
1884.03 449.552 2785
1890.69 449.552 2785
1893.94 448.745 2780
1897.86 448.099 2776
1904.5 448.099 2776
1911.13 448.099 2776
1917.77 448.099 2776
1924.41 448.099 2776
1927.57 447.292 2771
1934.2 447.292 2771
1940.82 447.292 2771
1944.64 446.647 2767
1951.25 446.647 2767
1957.87 446.647 2767
1967.33 447.292 2771
1973.95 447.292 2771
1980.58 447.292 2771
1987.21 447.292 2771
1993.83 447.292 2771
1997.57 446.647 2767
2000.57 445.84 2762
2000.63 444.387 2753
2007.21 444.387 2753
2026.96 447.292 2771
2033.59 447.292 2771
2040.22 447.292 2771
2053.49 448.745 2780
2063.84 449.552 2785
2070.5 449.552 2785
2087.61 451.812 2799
2094.3 451.812 2799
2104.75 452.619 2804
2111.45 452.619 2804
2118.16 452.619 2804
2117.28 451.005 2794
2123.96 451.005 2794
2130.65 451.005 2794
2134.27 450.359 2790
-2103.17 460.155 2809
-2096.45 460.155 2809
-2089.73 460.155 2809
-2061.51 455.405 2780
-2051.91 454.749 2776
-2051.9 456.224 2785
-2045.24 456.224 2785
-2038.58 456.224 2785
-2035.57 457.043 2790
-2028.9 457.043 2790
-2028.75 458.517 2799
-2022.05 458.517 2799
-2015.36 458.517 2799
-2015.84 460.155 2809
-2022.72 463.268 2828
-2135 490.625 2995
-2127.84 490.625 2995
-2120.68 490.625 2995
-2113.51 490.625 2995
-2033.21 473.588 2891
-2026.3 473.588 2891
-2019.38 473.588 2891
-2012.47 473.588 2891
-1998.62 471.95 2881
-1991.73 471.95 2881
-1988.29 472.769 2886
-1981.39 472.769 2886
-1974.48 472.769 2886
-1974.4 474.407 2896
-1967.48 474.407 2896
-1960.55 474.407 2896
-1953.62 474.407 2896
-1946.7 474.407 2896
-1933.08 472.769 2886
-1932.85 474.407 2896
-1925.92 474.407 2896
-1925.62 476.045 2906
-1929.24 478.666 2922
-1922.25 478.666 2922
-1915.27 478.666 2922
-1897.83 476.045 2906
-1890.88 476.045 2906
-1910.51 482.762 2947
-1903.46 482.762 2947
-1920.23 488.823 2984
-1941.3 496.031 3028
-1948.11 499.635 3050
-1940.82 499.635 3050
-1936.69 500.454 3055
-1943.91 504.221 3078
-1936.55 504.221 3078
-1939.85 507.006 3095
-1932.45 507.006 3095
-1925.05 507.006 3095
-1917.64 507.006 3095
-1928.14 511.757 3124
-1931.74 514.706 3142
-1942.6 519.62 3172
-1935.01 519.62 3172
-1931.07 520.603 3178
-1923.47 520.603 3178
-1915.87 520.603 3178
-1908.27 520.603 3178
-1889.91 517.654 3160
-1893.07 520.603 3178
-1896.15 523.552 3196
-1888.51 523.552 3196
-1899.11 528.63 3227
-1902.53 531.742 3246
-1909.36 535.838 3271
-1901.54 535.838 3271
-1923.82 544.356 3323
-1927.41 547.632 3343
-1955.01 557.789 3405
-1946.87 557.789 3405
-1954.67 562.376 3433
-1966.31 568.109 3468
-1958.01 568.109 3468
-1949.72 568.109 3468
-1953.74 571.713 3490
-1953.76 574.17 3505
-1953.7 576.628 3520
-1945.28 576.628 3520
-1936.87 576.628 3520
-1932.28 577.774 3527
-1927.67 578.921 3534
-1919.22 578.921 3534
-1918.88 581.378 3549
-1910.39 581.378 3549
-1906.19 582.689 3557
-1897.69 582.689 3557
-1893.43 583.999 3565
-1888.6 585.146 3572
-1880.06 585.146 3572
-1871.52 585.146 3572
-1867.15 586.456 3580
-1862.74 587.767 3588
-1857.78 588.914 3595
-1849.18 588.914 3595
-1844.68 590.224 3603
-1840.14 591.535 3611
-1831.51 591.535 3611
-1822.87 591.535 3611
-1814.24 591.535 3611
-1805.6 591.535 3611
-1800.95 592.845 3619
-1792.3 592.845 3619
-1783.64 592.845 3619
-1782.84 595.466 3635
-1774.14 595.466 3635
-1765.45 595.466 3635
-1764.01 597.923 3650
-1767.3 602.019 3675
-1773.83 607.261 3707
-1764.96 607.261 3707
-1760.36 608.735 3716
-1762.79 612.667 3740
-1761.82 615.452 3757
-1752.83 615.452 3757
-1755.92 619.711 3783
-1751.02 621.185 3792
-1741.96 621.185 3792
-1732.89 621.185 3792
-1727.46 622.496 3800
-1730.13 626.755 3826
-1733.12 631.178 3853
-1723.91 631.178 3853
-1714.7 631.178 3853
-1705.48 631.178 3853
-1696.27 631.178 3853
-1667.79 623.97 3809
-1654.76 622.496 3800
-1623.59 614.141 3749
-1593.09 605.95 3699
-1584.24 605.95 3699
-1557.94 599.234 3658
-1532.67 592.845 3619
-1507.6 586.456 3580
-1499.03 586.456 3580
-1480.9 582.689 3557
-1462.87 578.921 3534
-1439.19 572.86 3497
-1430.83 572.86 3497
-1410.67 568.109 3468
-1393.89 564.669 3447
-1377.2 561.229 3426
-1369.01 561.229 3426
-1346.92 555.495 3391
-1327.75 550.909 3363
-1314.61 548.779 3350
-1306.6 548.779 3350
-1298.59 548.779 3350
-1287.88 547.632 3343
-1277.59 546.649 3337
-1271.89 547.632 3343
-1263.9 547.632 3343
-1255.9 547.632 3343
-1238.2 543.373 3317
-1230.27 543.373 3317
-1224.55 544.356 3323
-1216.6 544.356 3323
-1215.93 547.632 3343
-1207.94 547.632 3343
-1199.94 547.632 3343
-1191.95 547.632 3343
-1181.83 546.649 3337
-1171.39 545.503 3330
-1163.43 545.503 3330
-1148.52 542.226 3310
-1140.61 542.226 3310
-976.957 481.124 2937
-969.934 481.124 2937
-962.911 481.124 2937
-954.26 480.305 2932
-935.618 474.407 2896
-928.693 474.407 2896
-921.768 474.407 2896
-837.217 473.588 2891
-830.304 473.588 2891
-823.391 473.588 2891
-816.477 473.588 2891
-765.121 476.045 2906
-763.651 479.485 2927
-756.651 479.485 2927
-749.652 479.485 2927
-742.652 479.485 2927
-733.14 477.847 2917
-733.633 482.762 2947
-726.585 482.762 2947
-719.538 482.762 2947
-712.491 482.762 2947
-705.444 482.762 2947
-698.397 482.762 2947
-722.529 555.495 3391
-714.42 555.495 3391
-716.518 563.522 3440
-708.292 563.522 3440
-708.816 570.566 3483
-700.487 570.566 3483
-692.159 570.566 3483
-669.89 558.935 3412
-661.731 558.935 3412
-646.867 553.202 3377
-635.009 549.926 3357
-638.561 560.082 3419
-638.129 566.962 3461
-633.856 570.566 3483
-625.527 570.566 3483
-617.198 570.566 3483
-608.869 570.566 3483
-600.541 570.566 3483
-592.212 570.566 3483
-586.23 572.86 3497
-577.867 572.86 3497
-571.948 575.317 3512
-563.549 575.317 3512
-557.522 577.774 3527
-553.759 582.689 3557
-545.253 582.689 3557
-536.747 582.689 3557
-529.429 583.999 3565
-521.927 585.146 3572
-518.99 591.535 3611
-510.355 591.535 3611
-502.832 592.845 3619
-494.178 592.845 3619
-485.524 592.845 3619
-476.87 592.845 3619
-467.18 591.535 3611
-457.53 590.224 3603
-449.91 591.535 3611
-441.275 591.535 3611
-435.516 595.466 3635
-427.646 596.613 3642
-419.857 597.923 3650
-411.128 597.923 3650
-404.274 600.708 3667
-398.094 604.64 3691
-390.111 605.95 3699
-381.266 605.95 3699
-375.743 611.356 3732
-369.276 615.452 3757
-362.785 619.711 3783
-353.739 619.711 3783
-347.062 623.97 3809
-338.752 625.444 3818
-330.312 626.755 3826
-321.163 626.755 3826
-314.95 632.652 3862
-309.277 640.024 3907
-302.774 646.085 3944
-293.343 646.085 3944
-284.56 647.559 3953
-276.429 650.672 3972
-266.931 650.672 3972
-257.433 650.672 3972
-247.373 649.197 3963
-237.296 647.559 3953
-227.843 647.559 3953
-217.893 646.085 3944
-207.986 644.611 3935
-109.608 355.805 2172
-104.414 355.805 2172
-99.22 355.805 2172
-94.0261 355.805 2172
-88.8322 355.805 2172
-83.6383 355.805 2172
-78.5527 356.297 2175
-73.3517 356.297 2175
-68.1506 356.297 2175
-62.9495 356.297 2175
-57.7484 356.297 2175
-52.5473 356.297 2175
-47.3462 356.297 2175
-42.1452 356.297 2175
-36.9441 356.297 2175
-31.743 356.297 2175
-26.5053 355.805 2172
-21.3114 355.805 2172
-16.1175 355.805 2172
-10.9085 355.314 2169
-5.72175 355.314 2169
-0.536489 356.297 2175
4.67746 357.28 2181
9.8929 357.28 2181
15.143 358.099 2186
20.5101 360.556 2201
25.8085 361.047 2204
31.079 361.047 2204
36.8277 365.798 2233
42.2241 366.29 2236
47.571 366.29 2236
52.918 366.29 2236
58.6558 368.747 2251
64.2093 369.73 2257
69.8224 370.876 2264
75.336 371.368 2267
80.7571 371.368 2267
86.2922 371.859 2270
92.3265 374.316 2285
98.2186 375.955 2295
103.707 375.955 2295
109.337 376.446 2298
114.983 376.937 2301
120.485 376.937 2301
125.987 376.937 2301
131.661 377.429 2304
137.171 377.429 2304
142.68 377.429 2304
148.19 377.429 2304
153.699 377.429 2304
159.002 376.937 2301
164.504 376.937 2301
527.836 496.031 3028
535.961 496.85 3033
543.214 496.85 3033
555.548 501.437 3061
562.868 501.437 3061
570.188 501.437 3061
577.508 501.437 3061
585.974 502.419 3067
593.308 502.419 3067
600.642 502.419 3067
601.236 496.85 3033
608.489 496.85 3033
614.727 496.031 3028
621.968 496.031 3028
629.208 496.031 3028
635.188 495.048 3022
639.013 492.427 3006
646.202 492.427 3006
649.912 489.806 2990
651.129 485.383 2963
658.214 485.383 2963
665.3 485.383 2963
672.385 485.383 2963
679.471 485.383 2963
687.714 486.202 2968
696.216 487.185 2974
704.511 488.004 2979
711.634 488.004 2979
718.758 488.004 2979
728.562 489.806 2990
739.649 492.427 3006
746.837 492.427 3006
754.026 492.427 3006
761.214 492.427 3006
771.214 494.229 3017
778.428 494.229 3017
785.643 494.229 3017
792.858 494.229 3017
800.072 494.229 3017
807.287 494.229 3017
815.851 495.048 3022
824.712 496.031 3028
831.953 496.031 3028
839.194 496.031 3028
843.359 494.229 3017
851.984 495.048 3022
859.21 495.048 3022
866.437 495.048 3022
873.663 495.048 3022
879.432 494.229 3017
886.647 494.229 3017
893.861 494.229 3017
893.012 489.806 2990
900.162 489.806 2990
910.346 491.444 3000
917.52 491.444 3000
924.694 491.444 3000
928.762 489.806 2990
981.612 513.723 3136
989.111 513.723 3136
996.61 513.723 3136
1019.48 521.586 3184
1044.83 530.596 3239
1058.75 533.708 3258
1066.54 533.708 3258
1084.89 538.95 3290
1092.76 538.95 3290
1127.39 552.055 3370
1135.44 552.055 3370
1162.5 561.229 3426
1182.66 566.962 3461
1196.09 569.42 3476
1204.41 569.42 3476
1217.6 571.713 3490
1231.22 574.17 3505
1239.6 574.17 3505
1247.98 574.17 3505
1258.87 575.317 3512
1267.27 575.317 3512
1281.12 577.774 3527
1289.55 577.774 3527
1303.51 580.231 3542
1314.57 581.378 3549
1329.02 583.999 3565
1337.54 583.999 3565
1346.07 583.999 3565
1360.29 586.456 3580
1368.86 586.456 3580
1377.42 586.456 3580
1385.98 586.456 3580
1388.69 583.999 3565
1397.22 583.999 3565
1399.44 581.378 3549
1396.42 576.628 3520
1395.66 572.86 3497
1389.56 566.962 3461
1397.84 566.962 3461
1383.37 557.789 3405
1371.89 549.926 3357
1368.82 545.503 3330
1376.78 545.503 3330
1376.43 542.226 3310
1378.91 540.097 3297
1381.32 537.967 3284
1381.14 534.855 3265
1388.95 534.855 3265
1393.76 533.708 3258
1398.97 532.725 3252
1406.75 532.725 3252
1414.52 532.725 3252
1422.3 532.725 3252
1432.72 533.708 3258
1440.51 533.708 3258
1451.41 534.855 3265
1459.22 534.855 3265
1467.02 534.855 3265
1474.83 534.855 3265
1482.64 534.855 3265
1490.45 534.855 3265
1495.04 533.708 3258
1500.07 532.725 3252
1507.84 532.725 3252
1509.56 530.596 3239
1514.49 529.613 3233
1516.58 527.647 3221
1512.45 523.552 3196
1520.09 523.552 3196
1516.26 519.62 3172
1509.43 514.706 3142
1502.46 509.791 3112
1509.9 509.791 3112
1497.84 503.239 3072
1486.08 496.85 3033
1469.21 488.823 2984
1463.48 484.564 2958
1470.55 484.564 2958
1451.65 476.045 2906
1446.05 471.95 2881
1447.9 470.312 2871
1454.76 470.312 2871
1457.05 468.837 2862
1461.33 468.018 2857
1465.6 467.199 2852
1472.42 467.199 2852
1479.24 467.199 2852
1480.85 465.561 2842
1487.64 465.561 2842
1491.81 464.742 2837
1498.59 464.742 2837
1505.38 464.742 2837
1509.5 463.923 2832
1514.13 463.268 2828
1520.89 463.268 2828
1524.95 462.449 2823
1526.28 460.811 2813
1530.82 460.155 2809
1537.54 460.155 2809
1541.51 459.336 2804
1548.21 459.336 2804
1547.15 457.043 2790
1553.83 457.043 2790
1560.5 457.043 2790
1564.36 456.224 2785
1571.02 456.224 2785
1580.51 457.043 2790
1587.18 457.043 2790
1593.86 457.043 2790
1602.82 457.698 2794
1609.5 457.698 2794
1619.08 458.517 2799
1625.77 458.517 2799
1632.46 458.517 2799
1639.16 458.517 2799
1648.79 459.336 2804
1655.5 459.336 2804
1665.17 460.155 2809
1674.26 460.811 2813
1680.99 460.811 2813
1687.72 460.811 2813
1694.44 460.811 2813
1704.19 461.63 2818
1710.93 461.63 2818
1717.67 461.63 2818
1724.41 461.63 2818
1725.62 460.155 2809
1732.34 460.155 2809
1739.05 460.155 2809
1745.77 460.155 2809
1746.25 458.517 2799
1756.07 459.336 2804
1762.78 459.336 2804
1769.48 459.336 2804
1776.19 459.336 2804
1779.72 458.517 2799
1786.41 458.517 2799
1793.1 458.517 2799
1799.8 458.517 2799
1806.49 458.517 2799
1813.18 458.517 2799
1819.88 458.517 2799
1826.57 458.517 2799
1829.99 457.698 2794
1834.04 457.043 2790
1840.71 457.043 2790
1844.07 456.224 2785
1850.73 456.224 2785
1857.39 456.224 2785
1864.05 456.224 2785
1870.71 456.224 2785
1874 455.405 2780
1880.65 455.405 2780
1887.3 455.405 2780
1893.94 455.405 2780
1894.44 453.93 2771
1901.06 453.93 2771
1907.69 453.93 2771
1914.32 453.93 2771
1920.94 453.93 2771
1921.31 452.456 2762
1927.91 452.456 2762
1934.52 452.456 2762
1941.12 452.456 2762
1947.73 452.456 2762
1954.33 452.456 2762
1964.49 453.275 2767
1971.1 453.275 2767
1977.72 453.275 2767
1984.34 453.275 2767
1990.95 453.275 2767
1993.96 452.456 2762
2000.57 452.456 2762
2000.63 450.982 2753
2007.21 450.982 2753
2026.96 453.93 2771
2033.59 453.93 2771
2040.22 453.93 2771
2053.49 455.405 2780
2063.84 456.224 2785
2070.5 456.224 2785
2087.61 458.517 2799
2094.3 458.517 2799
2104.75 459.336 2804
2111.45 459.336 2804
2118.16 459.336 2804
2117.28 457.698 2794
2123.96 457.698 2794
2130.65 457.698 2794
2134.27 457.043 2790
-2103.17 466.884 2809
-2096.45 466.884 2809
-2089.73 466.884 2809
-2061.51 462.064 2780
-2051.91 461.399 2776
-2051.9 462.895 2785
-2045.24 462.895 2785
-2038.58 462.895 2785
-2035.57 463.726 2790
-2028.9 463.726 2790
-2028.75 465.222 2799
-2022.05 465.222 2799
-2015.36 465.222 2799
-2015.84 466.884 2809
-2022.72 470.042 2828
-2135 497.799 2995
-2127.84 497.799 2995
-2120.68 497.799 2995
-2113.51 497.799 2995
-2033.21 480.514 2891
-2026.3 480.514 2891
-2019.38 480.514 2891
-2012.47 480.514 2891
-1998.62 478.851 2881
-1991.73 478.851 2881
-1988.29 479.682 2886
-1981.39 479.682 2886
-1974.48 479.682 2886
-1974.4 481.345 2896
-1967.48 481.345 2896
-1960.55 481.345 2896
-1953.62 481.345 2896
-1946.7 481.345 2896
-1933.08 479.682 2886
-1932.85 481.345 2896
-1925.92 481.345 2896
-1925.62 483.007 2906
-1929.24 485.666 2922
-1922.25 485.666 2922
-1915.27 485.666 2922
-1897.83 483.007 2906
-1890.88 483.007 2906
-1910.51 489.821 2947
-1903.46 489.821 2947
-1920.23 495.971 2984
-1941.3 503.284 3028
-1948.11 506.941 3050
-1940.82 506.941 3050
-1936.69 507.772 3055
-1943.91 511.595 3078
-1936.55 511.595 3078
-1939.85 514.42 3095
-1932.45 514.42 3095
-1925.05 514.42 3095
-1917.64 514.42 3095
-1928.14 519.24 3124
-1931.74 522.232 3142
-1942.6 527.219 3172
-1935.01 527.219 3172
-1931.07 528.216 3178
-1923.47 528.216 3178
-1915.87 528.216 3178
-1908.27 528.216 3178
-1889.91 525.224 3160
-1893.07 528.216 3178
-1896.15 531.208 3196
-1888.51 531.208 3196
-1899.11 536.36 3227
-1902.53 539.518 3246
-1909.36 543.673 3271
-1901.54 543.673 3271
-1923.82 552.316 3323
-1927.41 555.641 3343
-1955.01 565.945 3405
-1946.87 565.945 3405
-1954.67 570.599 3433
-1966.31 576.417 3468
-1958.01 576.417 3468
-1949.72 576.417 3468
-1953.74 580.073 3490
-1953.76 582.567 3505
-1953.7 585.06 3520
-1945.28 585.06 3520
-1936.87 585.06 3520
-1932.28 586.223 3527
-1927.67 587.387 3534
-1919.22 587.387 3534
-1918.88 589.88 3549
-1910.39 589.88 3549
-1906.19 591.209 3557
-1897.69 591.209 3557
-1893.43 592.539 3565
-1888.6 593.703 3572
-1880.06 593.703 3572
-1871.52 593.703 3572
-1867.15 595.032 3580
-1862.74 596.362 3588
-1857.78 597.525 3595
-1849.18 597.525 3595
-1840.59 597.525 3595
-1836.07 598.855 3603
-1827.45 598.855 3603
-1818.84 598.855 3603
-1810.22 598.855 3603
-1801.6 598.855 3603
-1792.99 598.855 3603
-1784.37 598.855 3603
-1775.76 598.855 3603
-1771.06 600.185 3611
-1774.14 604.174 3635
-1765.45 604.174 3635
-1756.76 604.174 3635
-1755.28 606.667 3650
-1762.34 612.152 3683
-1753.54 612.152 3683
-1760.36 617.637 3716
-1762.79 621.626 3740
-1761.82 624.451 3757
-1752.83 624.451 3757
-1755.92 628.773 3783
-1751.02 630.269 3792
-1741.96 630.269 3792
-1732.89 630.269 3792
-1727.46 631.599 3800
-1730.13 635.92 3826
-1733.12 640.408 3853
-1723.91 640.408 3853
-1714.7 640.408 3853
-1705.48 640.408 3853
-1696.27 640.408 3853
-1667.79 633.094 3809
-1654.76 631.599 3800
-1623.59 623.122 3749
-1593.09 614.811 3699
-1584.24 614.811 3699
-1557.94 607.997 3658
-1532.67 601.514 3619
-1507.6 595.032 3580
-1499.03 595.032 3580
-1480.9 591.209 3557
-1462.87 587.387 3534
-1439.19 581.237 3497
-1430.83 581.237 3497
-1410.67 576.417 3468
-1393.89 572.926 3447
-1377.2 569.436 3426
-1369.01 569.436 3426
-1346.92 563.619 3391
-1330.52 560.128 3370
-1319.71 558.965 3363
-1311.67 558.965 3363
-1303.63 558.965 3363
-1290.58 556.804 3350
-1282.56 556.804 3350
-1282.16 560.128 3370
-1274.1 560.128 3370
-1266.05 560.128 3370
-1257.99 560.128 3370
-1249.93 560.128 3370
-1259.93 568.272 3419
-1251.75 568.272 3419
-1243.57 568.272 3419
-1220.22 561.292 3377
-1212.15 561.292 3377
-1194.45 556.804 3350
-1181.83 554.643 3337
-1171.39 553.48 3330
-1163.43 553.48 3330
-1148.52 550.156 3310
-1140.61 550.156 3310
-976.957 488.159 2937
-969.934 488.159 2937
-962.911 488.159 2937
-954.26 487.328 2932
-935.618 481.345 2896
-928.693 481.345 2896
-921.768 481.345 2896
-837.217 480.514 2891
-830.304 480.514 2891
-823.391 480.514 2891
-816.477 480.514 2891
-765.121 483.007 2906
-763.651 486.497 2927
-756.651 486.497 2927
-749.652 486.497 2927
-742.652 486.497 2927
-733.14 484.835 2917
-733.633 489.821 2947
-726.585 489.821 2947
-719.538 489.821 2947
-712.491 489.821 2947
-705.444 489.821 2947
-698.397 489.821 2947
-732.97 571.763 3440
-724.744 571.763 3440
-716.518 571.763 3440
-723.116 583.73 3512
-714.718 583.73 3512
-706.32 583.73 3512
-697.922 583.73 3512
-683.83 578.91 3483
-675.501 578.91 3483
-656.253 569.436 3426
-648.061 569.436 3426
-646.405 575.253 3461
-642.185 578.91 3483
-640.59 585.06 3520
-632.172 585.06 3520
-623.755 585.06 3520
-615.337 585.06 3520
-606.92 585.06 3520
-597.142 583.73 3512
-588.744 583.73 3512
-583.981 587.387 3534
-576.833 588.716 3542
-568.363 588.716 3542
-561 589.88 3549
-555.004 592.539 3565
-547.552 593.703 3572
-539.01 593.703 3572
-531.657 595.032 3580
-524.265 596.362 3588
-518.99 600.185 3611
-510.355 600.185 3611
-502.832 601.514 3619
-494.178 601.514 3619
-485.524 601.514 3619
-476.87 601.514 3619
-467.18 600.185 3611
-457.53 598.855 3603
-449.91 600.185 3611
-441.275 600.185 3611
-435.516 604.174 3635
-427.646 605.337 3642
-419.857 606.667 3650
-411.128 606.667 3650
-404.274 609.493 3667
-398.094 613.482 3691
-390.111 614.811 3699
-381.266 614.811 3699
-375.743 620.296 3732
-369.276 624.451 3757
-362.785 628.773 3783
-353.739 628.773 3783
-347.062 633.094 3809
-338.752 634.59 3818
-330.312 635.92 3826
-321.163 635.92 3826
-314.95 641.904 3862
-309.277 649.383 3907
-302.774 655.533 3944
-293.343 655.533 3944
-284.56 657.029 3953
-276.429 660.187 3972
-266.931 660.187 3972
-257.433 660.187 3972
-247.373 658.691 3963
-237.296 657.029 3953
-227.843 657.029 3953
-217.893 655.533 3944
-207.986 654.037 3935
-109.759 361.507 2175
-104.558 361.507 2175
-99.3571 361.507 2175
-94.0261 361.008 2172
-88.8322 361.008 2172
-83.7538 361.507 2175
-78.5527 361.507 2175
-73.3517 361.507 2175
-68.1506 361.507 2175
-63.0363 362.006 2178
-57.8281 362.006 2178
-52.6198 362.006 2178
-47.3462 361.507 2175
-42.1452 361.507 2175
-36.9441 361.507 2175
-31.743 361.507 2175
-26.5419 361.507 2175
-21.3114 361.008 2172
-16.1175 361.008 2172
-10.9085 360.51 2169
-5.72966 361.008 2172
-0.536489 361.507 2175
4.68819 363.335 2186
9.91558 363.335 2186
15.1637 363.834 2189
20.5381 366.327 2204
25.8436 366.826 2207
31.1213 366.826 2207
36.8277 371.147 2233
42.2241 371.646 2236
47.6349 372.145 2239
52.989 372.145 2239
58.6558 374.139 2251
64.2093 375.136 2257
69.8224 376.3 2264
75.336 376.798 2267
80.7571 376.798 2267
86.2922 377.297 2270
92.4478 380.289 2288
98.2186 381.452 2295
103.707 381.452 2295
109.337 381.951 2298
114.983 382.45 2301
120.642 382.948 2304
126.152 382.948 2304
131.661 382.948 2304
137.171 382.948 2304
142.68 382.948 2304
148.19 382.948 2304
153.699 382.948 2304
159.002 382.45 2301
164.504 382.45 2301
555.548 508.769 3061
562.868 508.769 3061
572.237 510.598 3072
579.583 510.598 3072
586.929 510.598 3072
594.275 510.598 3072
601.621 510.598 3072
605.597 507.772 3055
612.903 507.772 3055
619.193 506.941 3050
626.487 506.941 3050
633.78 506.941 3050
639.812 505.944 3044
643.69 503.284 3028
650.931 503.284 3028
653.39 499.628 3006
659.26 498.63 3000
660.658 494.309 2974
667.77 494.309 2974
674.881 494.309 2974
681.993 494.309 2974
689.105 494.309 2974
697.387 495.14 2979
705.693 495.971 2984
712.829 495.971 2984
725.273 499.628 3006
732.461 499.628 3006
742.356 501.456 3017
749.57 501.456 3017
756.785 501.456 3017
766.785 503.284 3028
776.838 505.113 3039
784.105 505.113 3039
791.372 505.113 3039
798.639 505.113 3039
805.906 505.113 3039
810.23 503.284 3028
817.471 503.284 3028
827.708 505.113 3039
834.975 505.113 3039
842.242 505.113 3039
847.832 504.115 3033
856.776 505.113 3039
864.044 505.113 3039
871.311 505.113 3039
878.578 505.113 3039
884.096 504.115 3033
891.349 504.115 3033
898.602 504.115 3033
902.569 502.287 3022
908.291 501.456 3017
920.36 504.115 3033
929.448 505.113 3039
936.715 505.113 3039
950.816 508.769 3061
968.778 514.42 3095
1004.25 529.213 3184
1011.86 529.213 3184
1023.32 531.208 3196
1049.03 540.515 3252
1065.25 544.837 3278
1073.09 544.837 3278
1084.89 546.831 3290
1099.4 550.156 3310
1132.07 562.455 3384
1140.16 562.455 3384
1167.26 571.763 3440
1182.66 575.253 3461
1198.5 578.91 3483
1206.83 578.91 3483
1220.05 581.237 3497
1231.22 582.567 3505
1242.08 583.73 3512
1250.47 583.73 3512
1258.87 583.73 3512
1270.16 585.06 3520
1283.66 587.387 3534
1292.11 587.387 3534
1306.08 589.88 3549
1317.53 591.209 3557
1329.02 592.539 3565
1337.54 592.539 3565
1348.71 593.703 3572
1360.29 595.032 3580
1368.86 595.032 3580
1377.42 595.032 3580
1385.98 595.032 3580
1388.69 592.539 3565
1397.22 592.539 3565
1399.44 589.88 3549
1396.42 585.06 3520
1395.66 581.237 3497
1389.56 575.253 3461
1397.84 575.253 3461
1383.37 565.945 3405
1371.89 557.967 3357
1368.82 553.48 3330
1376.78 553.48 3330
1376.43 550.156 3310
1378.91 547.995 3297
1383.85 546.831 3290
1381.14 542.676 3265
1388.95 542.676 3265
1393.76 541.513 3258
1398.97 540.515 3252
1406.75 540.515 3252
1414.52 540.515 3252
1422.3 540.515 3252
1430.08 540.515 3252
1437.85 540.515 3252
1448.3 541.513 3258
1456.09 541.513 3258
1467.02 542.676 3265
1474.83 542.676 3265
1482.64 542.676 3265
1487.25 541.513 3258
1492.29 540.515 3252
1494.07 538.355 3239
1501.81 538.355 3239
1506.76 537.357 3233
1511.68 536.36 3227
1516.58 535.363 3221
1512.45 531.208 3196
1520.09 531.208 3196
1516.26 527.219 3172
1509.43 522.232 3142
1502.46 517.246 3112
1509.9 517.246 3112
1497.84 510.598 3072
1489.02 505.113 3039
1474.62 497.799 2995
1468.43 493.312 2968
1475.52 493.312 2968
1457.15 484.835 2917
1451.07 480.514 2891
1447.9 477.189 2871
1454.76 477.189 2871
1459.08 476.358 2866
1461.33 474.862 2857
1465.6 474.031 2852
1472.42 474.031 2852
1476.64 473.2 2847
1480.85 472.369 2842
1487.64 472.369 2842
1491.81 471.538 2837
1498.59 471.538 2837
1502.72 470.707 2832
1507.36 470.042 2828
1514.13 470.042 2828
1520.89 470.042 2828
1524.95 469.211 2823
1526.28 467.549 2813
1530.82 466.884 2809
1537.54 466.884 2809
1541.51 466.053 2804
1545.45 465.222 2799
1549.37 464.391 2794
1556.05 464.391 2794
1560.5 463.726 2790
1564.36 462.895 2785
1571.02 462.895 2785
1580.51 463.726 2790
1587.18 463.726 2790
1593.86 463.726 2790
1602.82 464.391 2794
1609.5 464.391 2794
1619.08 465.222 2799
1625.77 465.222 2799
1632.46 465.222 2799
1639.16 465.222 2799
1648.79 466.053 2804
1655.5 466.053 2804
1665.17 466.884 2809
1674.26 467.549 2813
1680.99 467.549 2813
1687.72 467.549 2813
1694.44 467.549 2813
1704.19 468.38 2818
1710.93 468.38 2818
1717.67 468.38 2818
1724.41 468.38 2818
1725.62 466.884 2809
1732.34 466.884 2809
1739.05 466.884 2809
1745.77 466.884 2809
1746.25 465.222 2799
1756.07 466.053 2804
1762.78 466.053 2804
1769.48 466.053 2804
1776.19 466.053 2804
1779.72 465.222 2799
1786.41 465.222 2799
1793.1 465.222 2799
1799.8 465.222 2799
1806.49 465.222 2799
1809.94 464.391 2794
1816.62 464.391 2794
1823.31 464.391 2794
1829.99 464.391 2794
1836.67 464.391 2794
1843.35 464.391 2794
1847.38 463.726 2790
1850.73 462.895 2785
1857.39 462.895 2785
1864.05 462.895 2785
1870.71 462.895 2785
1874 462.064 2780
1880.65 462.064 2780
1887.3 462.064 2780
1891.22 461.399 2776
1891.7 459.903 2767
1898.32 459.903 2767
1901.5 459.072 2762
1908.1 459.072 2762
1914.7 459.072 2762
1917.83 458.241 2757
1927.91 459.072 2762
1934.52 459.072 2762
1941.12 459.072 2762
1941.38 457.577 2753
1950.8 458.241 2757
1964.49 459.903 2767
1971.1 459.903 2767
1977.72 459.903 2767
1984.34 459.903 2767
1990.95 459.903 2767
1993.96 459.072 2762
2000.57 459.072 2762
2000.63 457.577 2753
2007.21 457.577 2753
2026.96 460.568 2771
2033.59 460.568 2771
2040.22 460.568 2771
2053.49 462.064 2780
2063.84 462.895 2785
2070.5 462.895 2785
2087.61 465.222 2799
2098.04 466.053 2804
2104.75 466.053 2804
2111.45 466.053 2804
2118.16 466.053 2804
2124.86 466.053 2804
2131.57 466.053 2804
2138.27 466.053 2804
2137.33 464.391 2794
-2099.42 472.77 2804
-2092.72 472.77 2804
-2086.01 472.77 2804
-2058.54 468.049 2776
-2051.91 468.049 2776
-2051.9 469.567 2785
-2048.91 470.41 2790
-2042.24 470.41 2790
-2049.43 473.613 2809
-2049.26 475.131 2818
-2042.52 475.131 2818
-2035.78 475.131 2818
-2060.72 482.549 2862
-2149.32 504.974 2995
-2142.16 504.974 2995
-2150.68 508.683 3017
-2147.02 509.526 3022
-2139.79 509.526 3022
-2132.57 509.526 3022
-2121.83 508.683 3017
-2087.98 502.276 2979
-2080.85 502.276 2979
-2041.01 494.352 2932
-2009.03 488.282 2896
-2002.1 488.282 2896
-2002.07 489.968 2906
-1995.12 489.968 2906
-1988.17 489.968 2906
-1981.22 489.968 2906
-1977.67 490.811 2911
-1970.7 490.811 2911
-1963.74 490.811 2911
-1953.42 489.968 2906
-1946.47 489.968 2906
-1942.86 490.811 2911
-1935.9 490.811 2911
-1936.23 492.666 2922
-1932.54 493.509 2927
-1925.54 493.509 2927
-1918.54 493.509 2927
-1911.54 493.509 2927
-1917.56 496.881 2947
-1931.26 502.276 2979
-1924.13 502.276 2979
-1955.62 512.393 3039
-1958.61 515.09 3055
-1951.3 515.09 3055
-1958.63 518.968 3078
-1955.08 519.98 3084
-1962.23 523.858 3107
-1954.8 523.858 3107
-1954.26 525.712 3118
-1946.81 525.712 3118
-1943.08 526.724 3124
-1935.61 526.724 3124
-1939.25 529.759 3142
-1950.18 534.817 3172
-1949.95 536.84 3184
-1942.33 536.84 3184
-1938.36 537.852 3190
-1930.74 537.852 3190
-1923.11 537.852 3190
-1911.88 536.84 3184
-1900.67 535.829 3178
-1903.8 538.864 3196
-1918.11 545.102 3233
-1910.37 545.102 3233
-1917.36 549.317 3258
-1921.29 552.689 3278
-1920.45 554.713 3290
-1912.59 554.713 3290
-1939.46 564.829 3350
-1942.98 568.201 3370
-1971.09 578.823 3433
-1962.88 578.823 3433
-1974.6 584.724 3468
-1978.78 588.434 3490
-1974.39 589.614 3497
-1966.02 589.614 3497
-1962.14 590.963 3505
-1962.12 593.492 3520
-1957.59 594.672 3527
-1949.15 594.672 3527
-1940.72 594.672 3527
-1936.12 595.852 3534
-1927.67 595.852 3534
-1919.22 595.852 3534
-1918.88 598.381 3549
-1910.39 598.381 3549
-1906.19 599.73 3557
-1897.69 599.73 3557
-1893.43 601.079 3565
-1884.9 601.079 3565
-1880.06 602.259 3572
-1871.52 602.259 3572
-1862.98 602.259 3572
-1858.59 603.608 3580
-1854.16 604.957 3588
-1845.58 604.957 3588
-1837 604.957 3588
-1828.42 604.957 3588
-1819.84 604.957 3588
-1811.26 604.957 3588
-1806.2 606.137 3595
-1797.6 606.137 3595
-1789.01 606.137 3595
-1780.41 606.137 3595
-1771.81 606.137 3595
-1767.14 607.486 3603
-1762.43 608.835 3611
-1753.79 608.835 3611
-1756.76 612.882 3635
-1751.43 614.062 3642
-1754.69 618.277 3667
-1745.92 618.277 3667
-1748.52 622.323 3691
-1755.25 627.887 3724
-1758.06 632.103 3749
-1749.1 632.103 3749
-1755.92 637.835 3783
-1751.02 639.353 3792
-1741.96 639.353 3792
-1732.89 639.353 3792
-1727.46 640.701 3800
-1730.13 645.085 3826
-1729.08 648.12 3844
-1719.88 648.12 3844
-1710.69 648.12 3844
-1701.5 648.12 3844
-1692.31 648.12 3844
-1667.79 642.219 3809
-1654.76 640.701 3800
-1623.59 632.103 3749
-1593.09 623.672 3699
-1584.24 623.672 3699
-1557.94 616.759 3658
-1532.67 610.184 3619
-1507.6 603.608 3580
-1499.03 603.608 3580
-1480.9 599.73 3557
-1462.87 595.852 3534
-1439.19 589.614 3497
-1430.83 589.614 3497
-1410.67 584.724 3468
-1393.89 581.184 3447
-1377.2 577.643 3426
-1369.01 577.643 3426
-1346.92 571.742 3391
-1330.52 568.201 3370
-1319.71 567.021 3363
-1311.67 567.021 3363
-1303.63 567.021 3363
-1290.58 564.829 3350
-1282.56 564.829 3350
-1282.16 568.201 3370
-1274.1 568.201 3370
-1266.05 568.201 3370
-1257.99 568.201 3370
-1249.93 568.201 3370
-1259.93 576.463 3419
-1251.75 576.463 3419
-1243.57 576.463 3419
-1220.22 569.381 3377
-1212.15 569.381 3377
-1194.45 564.829 3350
-1181.83 562.637 3337
-1171.39 561.457 3330
-1163.43 561.457 3330
-1148.52 558.085 3310
-1140.61 558.085 3310
-956.394 488.282 2896
-949.469 488.282 2896
-942.543 488.282 2896
-935.618 488.282 2896
-763.651 493.509 2927
-756.651 493.509 2927
-749.652 493.509 2927
-742.652 493.509 2927
-732.97 580.003 3440
-724.744 580.003 3440
-716.518 580.003 3440
-723.116 592.143 3512
-714.718 592.143 3512
-706.32 592.143 3512
-697.922 592.143 3512
-683.83 587.253 3483
-675.501 587.253 3483
-656.253 577.643 3426
-648.061 577.643 3426
-646.405 583.544 3461
-642.185 587.253 3483
-640.59 593.492 3520
-632.172 593.492 3520
-623.755 593.492 3520
-615.337 593.492 3520
-606.92 593.492 3520
-597.142 592.143 3512
-588.744 592.143 3512
-583.981 595.852 3534
-576.833 597.201 3542
-568.363 597.201 3542
-561 598.381 3549
-555.004 601.079 3565
-547.552 602.259 3572
-539.01 602.259 3572
-531.657 603.608 3580
-524.265 604.957 3588
-518.99 608.835 3611
-510.355 608.835 3611
-502.832 610.184 3619
-494.178 610.184 3619
-485.524 610.184 3619
-476.87 610.184 3619
-467.18 608.835 3611
-457.53 607.486 3603
-448.914 607.486 3603
-440.298 607.486 3603
-435.516 612.882 3635
