167.402 -589.369 2128
172.734 -590.2 2131
177.997 -590.754 2133
183.097 -590.754 2133
189.433 -594.631 2147
195.292 -596.847 2155
200.446 -596.847 2155
205.599 -596.847 2155
211.045 -597.677 2158
216.807 -599.339 2164
222.802 -601.555 2172
227.996 -601.555 2172
233.512 -602.386 2175
239.043 -603.217 2178
244.251 -603.217 2178
249.459 -603.217 2178
254.667 -603.217 2178
259.876 -603.217 2178
265.084 -603.217 2178
270.292 -603.217 2178
275.5 -603.217 2178
281.095 -604.048 2181
286.967 -605.432 2186
292.195 -605.432 2186
297.422 -605.432 2186
303.48 -607.094 2192
310.412 -610.418 2204
315.682 -610.418 2204
320.953 -610.418 2204
620.686 -1074.6 3880
629.964 -1074.6 3880
639.243 -1074.6 3880
647.017 -1072.11 3871
653.222 -1067.12 3853
662.435 -1067.12 3853
663.979 -1054.94 3809
668.493 -1047.74 3783
671.45 -1038.32 3749
681.867 -1040.53 3757
690.851 -1040.53 3757
699.835 -1040.53 3757
708.819 -1040.53 3757
713.027 -1033.61 3732
721.951 -1033.61 3732
724.413 -1024.47 3699
733.258 -1024.47 3699
742.104 -1024.47 3699
750.949 -1024.47 3699
759.795 -1024.47 3699
768.64 -1024.47 3699
777.485 -1024.47 3699
788.031 -1026.69 3707
796.896 -1026.69 3707
807.717 -1029.18 3716
818.361 -1031.4 3724
829.043 -1033.61 3732
837.968 -1033.61 3732
846.892 -1033.61 3732
1470.31 -1092.33 3944
1479.74 -1092.33 3944
1489.17 -1092.33 3944
1498.6 -1092.33 3944
1508.04 -1092.33 3944
1506.69 -1084.57 3916
1498.64 -1072.11 3871
1504.39 -1069.62 3862
1513.62 -1069.62 3862
1512.21 -1062.14 3835
1514.64 -1057.43 3818
1516.58 -1052.44 3800
1525.67 -1052.44 3800
1534.76 -1052.44 3800
1543.84 -1052.44 3800
1552.93 -1052.44 3800
1558.73 -1050.23 3792
1567.8 -1050.23 3792
1576.87 -1050.23 3792
1582.17 -1047.74 3783
1587.43 -1045.24 3774
1596.45 -1045.24 3774
1602.08 -1043.03 3766
1611.08 -1043.03 3766
1612.77 -1038.32 3749
1636.45 -1047.74 3783
1645.49 -1047.74 3783
1654.54 -1047.74 3783
-2929.8 -1117.2 4069
-2920.07 -1117.2 4069
-2910.34 -1117.2 4069
-2879.22 -1108.96 4039
-2869.56 -1108.96 4039
-2859.9 -1108.96 4039
-2836.84 -1103.75 4020
-2800.5 -1093.31 3982
-2790.98 -1093.31 3982
-2754.91 -1082.88 3944
-2739.22 -1080.41 3935
-2716.63 -1075.19 3916
-2707.26 -1075.19 3916
-2679.3 -1067.78 3889
-2670 -1067.78 3889
-2636.07 -1057.89 3853
-2626.85 -1057.89 3853
-2611.52 -1055.42 3844
-2602.33 -1055.42 3844
-2593.14 -1055.42 3844
-2583.95 -1055.42 3844
-2574.76 -1055.42 3844
-1421.85 -1080.41 3935
-1412.44 -1080.41 3935
-1403.03 -1080.41 3935
-1386.89 -1075.19 3916
-1377.52 -1075.19 3916
-1368.16 -1075.19 3916
-1361.92 -1077.66 3925
-1368.73 -1090.57 3972
-1359.23 -1090.57 3972
-1349.73 -1090.57 3972
-1340.23 -1090.57 3972
-1327.72 -1088.1 3963
-1318.24 -1088.1 3963
-1302.49 -1082.88 3944
-1283.88 -1075.19 3916
-1265.73 -1067.78 3889
-1241.89 -1055.42 3844
-1232.7 -1055.42 3844
-1220.64 -1052.95 3835
-1208.63 -1050.48 3826
-1196.97 -1048.28 3818
-1187.84 -1048.28 3818
-1173.15 -1043.34 3800
-196.74 -577.682 2104
-191.708 -577.682 2104
-186.677 -577.682 2104
-181.646 -577.682 2104
-176.615 -577.682 2104
-170.931 -575.485 2096
-165.285 -573.289 2088
-159.908 -571.916 2083
-154.927 -571.916 2083
-149.946 -571.916 2083
-144.617 -570.543 2078
-139.648 -570.543 2078
-134.679 -570.543 2078
-129.71 -570.543 2078
-124.741 -570.543 2078
-119.599 -569.719 2075
-114.637 -569.719 2075
-109.411 -568.346 2070
-104.208 -566.974 2065
-99.0298 -565.601 2060
-94.1037 -565.601 2060
-88.9612 -564.228 2055
-84.0471 -564.228 2055
-79.1329 -564.228 2055
-74.0021 -562.581 2049
-69.2035 -563.404 2052
-64.2966 -563.404 2052
-59.3896 -563.404 2052
-54.4826 -563.404 2052
-49.5757 -563.404 2052
-44.6687 -563.404 2052
-39.8199 -564.228 2055
-34.9058 -564.228 2055
-30.0208 -564.777 2057
-25.1019 -564.777 2057
-20.183 -564.777 2057
-15.2864 -565.601 2060
-10.3703 -566.15 2062
-5.43948 -566.15 2062
-0.509356 -566.974 2065
4.42868 -566.974 2065
9.36673 -566.974 2065
14.3048 -566.974 2065
19.2428 -566.974 2065
24.1457 -566.15 2062
29.0766 -566.15 2062
34.0075 -566.15 2062
38.9383 -566.15 2062
43.8692 -566.15 2062
48.8711 -566.974 2065
53.8091 -566.974 2065
58.804 -567.523 2067
63.8394 -568.346 2070
68.8558 -568.896 2072
73.8106 -568.896 2072
78.7654 -568.896 2072
83.8414 -569.719 2075
88.9317 -570.543 2078
94.2172 -572.465 2085
99.203 -572.465 2085
104.339 -573.289 2088
109.332 -573.289 2088
114.325 -573.289 2088
119.318 -573.289 2088
124.49 -574.112 2091
129.799 -575.485 2096
135.648 -579.054 2109
140.691 -579.054 2109
146.08 -580.427 2114
151.564 -582.075 2120
157.225 -584.271 2128
162.313 -584.271 2128
167.638 -585.095 2131
172.896 -585.644 2133
177.997 -585.644 2133
183.097 -585.644 2133
189.433 -589.488 2147
195.292 -591.684 2155
200.725 -592.508 2158
205.885 -592.508 2158
211.339 -593.332 2161
217.308 -595.528 2169
223.418 -597.999 2178
228.626 -597.999 2178
233.834 -597.999 2178
239.701 -599.647 2184
244.924 -599.647 2184
250.146 -599.647 2184
255.369 -599.647 2184
260.234 -598.823 2181
265.449 -598.823 2181
270.292 -597.999 2178
275.88 -598.823 2181
281.095 -598.823 2181
286.967 -600.196 2186
292.596 -601.019 2189
297.83 -601.019 2189
304.726 -604.314 2201
310.834 -605.962 2207
317.688 -608.982 2218
322.991 -608.982 2218
328.295 -608.982 2218
620.686 -1065.31 3880
629.964 -1065.31 3880
639.243 -1065.31 3880
647.017 -1062.84 3871
647.288 -1048.28 3818
656.418 -1048.28 3818
663.979 -1045.81 3809
662.485 -1029.34 3749
666.972 -1022.47 3724
681.867 -1031.54 3757
690.851 -1031.54 3757
699.835 -1031.54 3757
708.819 -1031.54 3757
706.722 -1015.61 3699
715.567 -1015.61 3699
718.146 -1006.82 3667
728.501 -1009.02 3675
738.894 -1011.22 3683
747.701 -1011.22 3683
756.508 -1011.22 3683
766.978 -1013.41 3691
777.485 -1015.61 3699
788.031 -1017.81 3707
796.896 -1017.81 3707
807.717 -1020.28 3716
818.361 -1022.47 3724
827.266 -1022.47 3724
836.171 -1022.47 3724
1470.31 -1082.88 3944
1479.74 -1082.88 3944
1489.17 -1082.88 3944
1498.6 -1082.88 3944
1508.04 -1082.88 3944
1506.69 -1075.19 3916
1505.6 -1067.78 3889
1507.89 -1062.84 3871
1517.15 -1062.84 3871
1519.31 -1057.89 3853
1521.38 -1052.95 3835
1516.58 -1043.34 3800
1525.67 -1043.34 3800
1534.76 -1043.34 3800
1543.84 -1043.34 3800
1552.93 -1043.34 3800
1558.73 -1041.14 3792
1567.8 -1041.14 3792
1576.87 -1041.14 3792
1582.17 -1038.67 3783
1591.22 -1038.67 3783
1600.26 -1038.67 3783
1605.48 -1036.2 3774
1614.5 -1036.2 3774
1623.53 -1036.2 3774
1632.55 -1036.2 3774
1630.7 -1029.34 3749
-2939.53 -1107.45 4069
-2929.8 -1107.45 4069
-2920.07 -1107.45 4069
-2888.88 -1099.29 4039
-2872.81 -1096.84 4030
-2863.17 -1096.84 4030
-2846.45 -1094.12 4020
-2810.02 -1083.77 3982
-2780.1 -1075.88 3953
-2770.65 -1075.88 3953
-2754.91 -1073.43 3944
-2713.46 -1060.91 3898
-2697.89 -1058.46 3889
-2688.59 -1058.46 3889
-2666.89 -1053.56 3871
-2639.1 -1046.21 3844
-2612.12 -1039.14 3818
-2602.99 -1039.14 3818
-2593.86 -1039.14 3818
-2590.15 -1041.31 3826
-2581 -1041.31 3826
-2571.85 -1041.31 3826
-2557.34 -1039.14 3818
-1411.73 -1063.36 3907
-1402.39 -1063.36 3907
-1393.04 -1063.36 3907
-1386.89 -1065.81 3916
-1377.52 -1065.81 3916
-1368.16 -1065.81 3916
-1361.92 -1068.26 3925
-1368.73 -1081.05 3972
-1359.23 -1081.05 3972
-1349.73 -1081.05 3972
-1340.23 -1081.05 3972
-1327.72 -1078.6 3963
-1318.24 -1078.6 3963
-1302.49 -1073.43 3944
-1283.88 -1065.81 3916
-1265.73 -1058.46 3889
-1244.8 -1048.66 3853
-1235.58 -1048.66 3853
-1223.51 -1046.21 3844
-1211.47 -1043.76 3835
-1199.48 -1041.31 3826
-1190.33 -1041.31 3826
-1178.71 -1039.14 3818
-196.927 -573.186 2106
-191.891 -573.186 2106
-186.855 -573.186 2106
-181.646 -572.641 2104
-176.615 -572.641 2104
-171.094 -571.008 2098
-165.523 -569.103 2091
-160.062 -567.47 2085
-155.076 -567.47 2085
-150.09 -567.47 2085
-144.617 -565.565 2078
-139.648 -565.565 2078
-134.679 -565.565 2078
-129.523 -564.749 2075
-124.561 -564.749 2075
-119.599 -564.749 2075
-114.637 -564.749 2075
-109.411 -563.388 2070
-104.057 -561.21 2062
-99.0298 -560.666 2060
-94.1037 -560.666 2060
-89.0478 -559.85 2057
-84.0471 -559.305 2055
-79.1329 -559.305 2055
-74.0021 -557.672 2049
-69.3047 -559.305 2055
-64.3905 -559.305 2055
-59.4764 -559.305 2055
-54.5623 -559.305 2055
-49.6482 -559.305 2055
-44.734 -559.305 2055
-39.8199 -559.305 2055
-34.9058 -559.305 2055
-30.0208 -559.85 2057
-25.1019 -559.85 2057
-20.183 -559.85 2057
-15.2864 -560.666 2060
-10.3854 -562.027 2065
-5.4474 -562.027 2065
-0.509356 -562.027 2065
4.42868 -562.027 2065
9.36673 -562.027 2065
14.3048 -562.027 2065
19.2428 -562.027 2065
24.1808 -562.027 2065
29.1189 -562.027 2065
34.0569 -562.027 2065
38.9383 -561.21 2062
43.8692 -561.21 2062
48.9184 -562.571 2067
53.8612 -562.571 2067
58.9463 -563.932 2072
63.9011 -563.932 2072
68.8558 -563.932 2072
73.8106 -563.932 2072
78.7654 -563.932 2072
83.9626 -565.565 2078
89.1457 -566.926 2083
94.3527 -568.287 2088
99.3458 -568.287 2088
104.589 -569.648 2093
109.594 -569.648 2093
114.763 -570.464 2096
119.775 -570.464 2096
124.787 -570.464 2096
130.295 -572.641 2104
135.969 -575.363 2114
141.025 -575.363 2114
146.494 -576.996 2120
151.921 -578.357 2125
157.225 -579.173 2128
162.313 -579.173 2128
167.795 -580.534 2133
172.896 -580.534 2133
178.247 -581.351 2136
183.355 -581.351 2136
189.433 -584.345 2147
195.564 -587.339 2158
201.004 -588.155 2161
206.171 -588.155 2161
211.632 -588.971 2164
217.308 -590.332 2169
223.418 -592.782 2178
228.626 -592.782 2178
234.479 -594.415 2184
239.921 -594.959 2186
245.148 -594.959 2186
250.375 -594.959 2186
255.369 -594.415 2184
260.592 -594.415 2184
265.814 -594.415 2184
271.037 -594.415 2184
276.259 -594.415 2184
281.74 -594.959 2186
287.361 -595.776 2189
294.2 -599.042 2201
299.463 -599.042 2201
305.557 -600.675 2207
311.257 -601.491 2210
317.688 -603.669 2218
322.991 -603.669 2218
328.295 -603.669 2218
333.599 -603.669 2218
338.903 -603.669 2218
620.686 -1056.01 3880
629.964 -1056.01 3880
639.243 -1056.01 3880
644.008 -1048.66 3853
645.762 -1036.69 3809
654.871 -1036.69 3809
656.483 -1024.98 3766
659.481 -1015.73 3732
666.972 -1013.55 3724
675.878 -1013.55 3724
684.783 -1013.55 3724
693.688 -1013.55 3724
697.877 -1006.75 3699
700.608 -998.04 3667
709.377 -998.04 3667
718.146 -998.04 3667
728.501 -1000.22 3675
738.894 -1002.39 3683
747.701 -1002.39 3683
756.508 -1002.39 3683
766.978 -1004.57 3691
775.804 -1004.57 3691
786.331 -1006.75 3699
795.176 -1006.75 3699
804.022 -1006.75 3699
812.867 -1006.75 3699
821.713 -1006.75 3699
1496.35 -1078.6 3963
1505.82 -1078.6 3963
1515.3 -1078.6 3963
1506.69 -1065.81 3916
1505.6 -1058.46 3889
1507.89 -1053.56 3871
1517.15 -1053.56 3871
1519.31 -1048.66 3853
1521.38 -1043.76 3835
1516.58 -1034.24 3800
1525.67 -1034.24 3800
1534.76 -1034.24 3800
1543.84 -1034.24 3800
1552.93 -1034.24 3800
1558.73 -1032.06 3792
1567.8 -1032.06 3792
1576.87 -1032.06 3792
1582.17 -1029.61 3783
1591.22 -1029.61 3783
1600.26 -1029.61 3783
1605.48 -1027.16 3774
1614.5 -1027.16 3774
1623.53 -1027.16 3774
1632.55 -1027.16 3774
1626.79 -1017.91 3740
-2963.75 -1103.1 4089
-2953.98 -1103.1 4089
-2944.2 -1103.1 4089
-2920.07 -1097.7 4069
-2882.44 -1087.18 4030
-2838.59 -1074.23 3982
-2829.07 -1074.23 3982
-2819.54 -1074.23 3982
-2810.02 -1074.23 3982
-2773.77 -1063.98 3944
-2764.34 -1063.98 3944
-2748.63 -1061.55 3935
-2713.46 -1051.57 3898
-2691.65 -1046.72 3880
-2682.37 -1046.72 3880
-2648.29 -1037.01 3844
-2621.25 -1029.99 3818
-2594.33 -1022.98 3792
-2585.26 -1022.98 3792
-2576.2 -1022.98 3792
-2572.54 -1025.14 3800
-2563.46 -1025.14 3800
-2554.37 -1025.14 3800
-2527.87 -1018.12 3774
-1395.47 -1041.86 3862
-1386.23 -1041.86 3862
-1377 -1041.86 3862
-1377.33 -1049.15 3889
-1368.03 -1049.15 3889
-1358.73 -1049.15 3889
-1361.92 -1058.86 3925
-1355.98 -1061.55 3935
-1359.23 -1071.54 3972
-1349.73 -1071.54 3972
-1340.23 -1071.54 3972
-1330.74 -1071.54 3972
-1321.24 -1071.54 3972
-1308.77 -1069.11 3963
-1290.11 -1061.55 3935
-1265.73 -1049.15 3889
-1244.8 -1039.43 3853
-1235.58 -1039.43 3853
-1223.51 -1037.01 3844
-1214.31 -1037.01 3844
-1202.3 -1034.58 3835
-1193.13 -1034.58 3835
-1178.71 -1029.99 3818
-203.018 -571.108 2117
-197.955 -571.108 2117
-192.893 -571.108 2117
-187.387 -569.759 2112
-181.819 -568.141 2106
-176.782 -568.141 2106
-171.339 -566.792 2101
-165.681 -564.634 2093
-160.292 -563.285 2088
-155.299 -563.285 2088
-150.09 -562.476 2085
-144.756 -561.127 2080
-139.648 -560.587 2078
-134.679 -560.587 2078
-129.523 -559.778 2075
-124.561 -559.778 2075
-119.599 -559.778 2075
-114.637 -559.778 2075
-109.411 -558.429 2070
-104.057 -556.271 2062
-99.0298 -555.731 2060
-94.1037 -555.731 2060
-89.0478 -554.922 2057
-84.1289 -554.922 2057
-79.1329 -554.382 2055
-74.0021 -552.764 2049
-69.3047 -554.382 2055
-64.3905 -554.382 2055
-59.4764 -554.382 2055
-54.5623 -554.382 2055
-49.6482 -554.382 2055
-44.734 -554.382 2055
-39.8199 -554.382 2055
-34.9058 -554.382 2055
-30.0208 -554.922 2057
-25.1019 -554.922 2057
-20.183 -554.922 2057
-15.2864 -555.731 2060
-10.3854 -557.08 2065
-5.4474 -557.08 2065
-0.509356 -557.08 2065
4.42868 -557.08 2065
9.36673 -557.08 2065
14.3048 -557.08 2065
19.2428 -557.08 2065
24.1808 -557.08 2065
29.1189 -557.08 2065
34.0569 -557.08 2065
38.995 -557.08 2065
43.933 -557.08 2065
48.9894 -558.429 2070
53.9394 -558.429 2070
58.9463 -558.969 2072
63.9011 -558.969 2072
69.0552 -560.587 2078
74.0956 -561.127 2080
79.0695 -561.127 2080
84.1646 -561.936 2083
89.2313 -562.476 2085
94.5787 -564.634 2093
99.5837 -564.634 2093
104.589 -564.634 2093
109.751 -565.443 2096
114.763 -565.443 2096
119.775 -565.443 2096
124.906 -565.983 2098
130.295 -567.601 2104
135.969 -570.299 2114
141.025 -570.299 2114
146.494 -571.918 2120
152.136 -574.076 2128
157.225 -574.076 2128
162.313 -574.076 2128
167.795 -575.425 2133
172.896 -575.425 2133
178.497 -577.043 2139
183.612 -577.043 2139
189.698 -580.011 2150
195.836 -582.978 2161
201.562 -584.597 2167
206.744 -584.597 2167
212.121 -585.136 2169
217.608 -585.946 2172
224.033 -589.183 2184
229.256 -589.183 2184
234.693 -589.723 2186
240.25 -590.532 2189
245.484 -590.532 2189
250.719 -590.532 2189
255.603 -589.723 2186
260.83 -589.723 2186
266.058 -589.723 2186
271.285 -589.723 2186
276.892 -590.532 2189
282.126 -590.532 2189
288.149 -592.151 2195
294.2 -593.769 2201
299.463 -593.769 2201
306.387 -597.006 2213
312.384 -598.355 2218
320.266 -603.211 2236
325.613 -603.211 2236
331.848 -604.83 2242
337.209 -604.83 2242
342.57 -604.83 2242
620.686 -1046.72 3880
629.964 -1046.72 3880
639.243 -1046.72 3880
644.008 -1039.43 3853
645.762 -1027.56 3809
654.871 -1027.56 3809
656.483 -1015.96 3766
659.481 -1006.79 3732
666.972 -1004.63 3724
675.878 -1004.63 3724
684.783 -1004.63 3724
693.688 -1004.63 3724
701.084 -1002.47 3716
703.665 -993.572 3683
712.472 -993.572 3683
719.713 -991.414 3675
730.087 -993.572 3683
738.894 -993.572 3683
749.325 -995.73 3691
758.151 -995.73 3691
766.978 -995.73 3691
775.804 -995.73 3691
786.331 -997.888 3699
795.176 -997.888 3699
804.022 -997.888 3699
812.867 -997.888 3699
821.713 -997.888 3699
1496.35 -1069.11 3963
1505.82 -1069.11 3963
1515.3 -1069.11 3963
1506.69 -1056.43 3916
1505.6 -1049.15 3889
1507.89 -1044.29 3871
1517.15 -1044.29 3871
1519.31 -1039.43 3853
1521.38 -1034.58 3835
1516.58 -1025.14 3800
1525.67 -1025.14 3800
1534.76 -1025.14 3800
1543.84 -1025.14 3800
1552.93 -1025.14 3800
1558.73 -1022.98 3792
1567.8 -1022.98 3792
1576.87 -1022.98 3792
1582.17 -1020.55 3783
1591.22 -1020.55 3783
1600.26 -1020.55 3783
1605.48 -1018.12 3774
1614.5 -1018.12 3774
1623.53 -1018.12 3774
1632.55 -1018.12 3774
1626.79 -1008.95 3740
-2963.75 -1093.3 4089
-2953.98 -1093.3 4089
-2944.2 -1093.3 4089
-2920.07 -1087.96 4069
-2882.44 -1077.53 4030
-2838.59 -1064.7 3982
-2829.07 -1064.7 3982
-2819.54 -1064.7 3982
-2810.02 -1064.7 3982
-2773.77 -1054.53 3944
-2764.34 -1054.53 3944
-2748.63 -1052.13 3935
-2713.46 -1042.24 3898
-2691.65 -1037.42 3880
-2682.37 -1037.42 3880
-2648.29 -1027.8 3844
-2621.25 -1020.85 3818
-2594.33 -1013.89 3792
-2585.26 -1013.89 3792
-2576.2 -1013.89 3792
-2572.54 -1016.03 3800
-2563.46 -1016.03 3800
-2554.37 -1016.03 3800
-2527.87 -1009.08 3774
-1395.47 -1032.61 3862
-1386.23 -1032.61 3862
-1380.21 -1035.02 3871
-1383.7 -1044.64 3907
-1374.36 -1044.64 3907
-1365.02 -1044.64 3907
-1365.39 -1052.13 3935
-1355.98 -1052.13 3935
-1359.23 -1062.02 3972
-1349.73 -1062.02 3972
-1343.61 -1064.7 3982
-1334.09 -1064.7 3982
-1324.56 -1064.7 3982
-1315.04 -1064.7 3982
-1293.06 -1054.53 3944
-1271.59 -1044.64 3907
-1250.61 -1035.02 3871
-1241.36 -1035.02 3871
-1226.37 -1030.2 3853
-1217.16 -1030.2 3853
-1207.94 -1030.2 3853
-1198.73 -1030.2 3853
-1186.74 -1027.8 3844
-203.305 -566.839 2120
-198.236 -566.839 2120
-193.166 -566.839 2120
-187.831 -566.037 2117
-182.077 -563.898 2109
-177.034 -563.898 2109
-171.339 -561.759 2101
-165.681 -559.62 2093
-160.292 -558.283 2088
-155.299 -558.283 2088
-150.09 -557.481 2085
-144.965 -556.946 2083
-139.648 -555.609 2078
-134.679 -555.609 2078
-129.523 -554.807 2075
-124.561 -554.807 2075
-119.599 -554.807 2075
-114.637 -554.807 2075
-109.411 -553.47 2070
-104.057 -551.331 2062
-99.0298 -550.797 2060
-94.1037 -550.797 2060
-89.0478 -549.994 2057
-84.1289 -549.994 2057
-79.1329 -549.46 2055
-74.0021 -547.855 2049
-69.3047 -549.46 2055
-64.3905 -549.46 2055
-59.4764 -549.46 2055
-54.5623 -549.46 2055
-49.6482 -549.46 2055
-44.734 -549.46 2055
-39.8199 -549.46 2055
-34.9058 -549.46 2055
-30.0208 -549.994 2057
-25.1019 -549.994 2057
-20.183 -549.994 2057
-15.2864 -550.797 2060
-10.3854 -552.133 2065
-5.4474 -552.133 2065
-0.509356 -552.133 2065
4.42868 -552.133 2065
9.36673 -552.133 2065
14.3048 -552.133 2065
19.2428 -552.133 2065
24.1808 -552.133 2065
29.1189 -552.133 2065
34.0569 -552.133 2065
38.995 -552.133 2065
43.933 -552.133 2065
48.9894 -553.47 2070
53.9394 -553.47 2070
58.9463 -554.005 2072
63.9011 -554.005 2072
69.0552 -555.609 2078
74.0956 -556.144 2080
79.0695 -556.144 2080
84.1646 -556.946 2083
89.2313 -557.481 2085
94.5787 -559.62 2093
99.5837 -559.62 2093
104.589 -559.62 2093
109.751 -560.422 2096
114.763 -560.422 2096
119.775 -560.422 2096
124.906 -560.957 2098
130.295 -562.561 2104
135.969 -565.235 2114
141.025 -565.235 2114
146.494 -566.839 2120
152.136 -568.978 2128
157.225 -568.978 2128
162.313 -568.978 2128
167.795 -570.315 2133
172.896 -570.315 2133
178.497 -571.919 2139
183.612 -571.919 2139
189.698 -574.86 2150
195.836 -577.802 2161
201.562 -579.406 2167
206.744 -579.406 2167
212.121 -579.941 2169
217.608 -580.743 2172
224.033 -583.951 2184
229.256 -583.951 2184
234.693 -584.486 2186
240.25 -585.288 2189
245.484 -585.288 2189
250.719 -585.288 2189
255.603 -584.486 2186
260.83 -584.486 2186
266.058 -584.486 2186
271.285 -584.486 2186
276.892 -585.288 2189
282.126 -585.288 2189
288.149 -586.892 2195
294.2 -588.497 2201
299.463 -588.497 2201
306.387 -591.705 2213
312.384 -593.042 2218
320.266 -597.855 2236
325.613 -597.855 2236
331.848 -599.459 2242
337.209 -599.459 2242
342.57 -599.459 2242
615.677 -1013.89 3792
624.744 -1013.89 3792
633.812 -1013.89 3792
639.828 -1009.08 3774
648.853 -1009.08 3774
656.483 -1006.94 3766
659.481 -997.851 3732
658.196 -982.61 3675
669.888 -986.888 3691
683.312 -993.573 3716
692.198 -993.573 3716
701.084 -993.573 3716
703.665 -984.749 3683
712.472 -984.749 3683
719.713 -982.61 3675
730.087 -984.749 3683
738.894 -984.749 3683
749.325 -986.888 3691
758.151 -986.888 3691
766.978 -986.888 3691
775.804 -986.888 3691
784.63 -986.888 3691
793.457 -986.888 3691
800.544 -984.749 3683
809.351 -984.749 3683
818.158 -984.749 3683
1496.35 -1059.61 3963
1505.82 -1059.61 3963
1515.3 -1059.61 3963
1503.23 -1044.64 3907
1505.6 -1039.83 3889
1500.88 -1030.2 3853
1510.09 -1030.2 3853
1515.76 -1027.8 3844
1514.64 -1020.85 3818
1516.58 -1016.03 3800
1525.67 -1016.03 3800
1531.53 -1013.89 3792
1533.28 -1009.08 3774
1542.31 -1009.08 3774
1551.33 -1009.08 3774
1560.36 -1009.08 3774
1569.38 -1009.08 3774
1575.06 -1006.94 3766
1580.28 -1004.54 3757
1589.26 -1004.54 3757
1598.25 -1004.54 3757
1599.96 -999.99 3740
1602.02 -995.712 3724
1610.92 -995.712 3724
-2963.75 -1083.51 4089
-2953.98 -1083.51 4089
-2944.2 -1083.51 4089
-2920.07 -1078.21 4069
-2854.55 -1057.54 3991
-2838.59 -1055.16 3982
-2829.07 -1055.16 3982
-2819.54 -1055.16 3982
-2802.97 -1052.51 3972
-2767.45 -1042.7 3935
-2758.04 -1042.7 3935
-2735.35 -1037.67 3916
-2700.93 -1028.13 3880
-2672.92 -1020.97 3853
-2663.71 -1020.97 3853
-2630.38 -1011.7 3818
-2603.4 -1004.81 3792
-2576.54 -997.92 3766
-2567.54 -997.92 3766
-2558.53 -997.92 3766
-2549.53 -997.92 3766
-2540.52 -997.92 3766
-2531.52 -997.92 3766
-2511.12 -993.415 3749
-1395.47 -1023.36 3862
-1386.23 -1023.36 3862
-1380.21 -1025.74 3871
-1383.7 -1035.28 3907
-1374.36 -1035.28 3907
-1365.02 -1035.28 3907
-1365.39 -1042.7 3935
-1355.98 -1042.7 3935
-1359.23 -1052.51 3972
-1349.73 -1052.51 3972
-1343.61 -1055.16 3982
-1334.09 -1055.16 3982
-1324.56 -1055.16 3982
-1315.04 -1055.16 3982
-1293.06 -1045.09 3944
-1271.59 -1035.28 3907
-1250.61 -1025.74 3871
-1241.36 -1025.74 3871
-1226.37 -1020.97 3853
-1217.16 -1020.97 3853
-1207.94 -1020.97 3853
-1198.73 -1020.97 3853
-1186.74 -1018.59 3844
-203.305 -561.761 2120
-198.236 -561.761 2120
-193.166 -561.761 2120
-187.831 -560.966 2117
-182.077 -558.846 2109
-177.034 -558.846 2109
-171.339 -556.726 2101
-165.681 -554.606 2093
-160.292 -553.281 2088
-155.299 -553.281 2088
-150.09 -552.486 2085
-144.965 -551.956 2083
-139.648 -550.631 2078
-134.679 -550.631 2078
-129.523 -549.836 2075
-124.561 -549.836 2075
-119.599 -549.836 2075
-114.637 -549.836 2075
-109.411 -548.512 2070
-103.956 -545.862 2060
-99.0298 -545.862 2060
-94.1037 -545.862 2060
-89.0478 -545.067 2057
-84.1289 -545.067 2057
-79.1329 -544.537 2055
-74.0021 -542.947 2049
-69.3047 -544.537 2055
-64.3905 -544.537 2055
-59.4764 -544.537 2055
-54.5623 -544.537 2055
-49.6482 -544.537 2055
-44.6687 -543.742 2052
-39.8199 -544.537 2055
-34.9058 -544.537 2055
-30.0208 -545.067 2057
-25.1019 -545.067 2057
-20.183 -545.067 2057
-15.2641 -545.067 2057
-10.3854 -547.187 2065
-5.4474 -547.187 2065
-0.509356 -547.187 2065
4.42868 -547.187 2065
9.36673 -547.187 2065
14.3048 -547.187 2065
19.2428 -547.187 2065
24.1808 -547.187 2065
29.1189 -547.187 2065
34.0569 -547.187 2065
39.0327 -547.717 2067
43.9756 -547.717 2067
49.0367 -549.042 2072
53.9915 -549.042 2072
59.117 -550.631 2078
64.0861 -550.631 2078
69.2214 -551.956 2083
74.2737 -552.486 2085
79.2596 -552.486 2085
84.2454 -552.486 2085
89.4881 -554.076 2091
94.5787 -554.606 2093
99.5837 -554.606 2093
104.739 -555.401 2096
109.855 -555.931 2098
114.872 -555.931 2098
119.889 -555.931 2098
125.264 -557.521 2104
130.419 -558.051 2106
135.969 -560.171 2114
141.025 -560.171 2114
146.633 -562.291 2122
152.136 -563.881 2128
157.225 -563.881 2128
162.313 -563.881 2128
167.795 -565.205 2133
173.139 -566 2136
178.748 -567.59 2142
183.87 -567.59 2142
189.698 -569.71 2150
196.108 -573.42 2164
201.562 -574.215 2167
206.744 -574.215 2167
212.121 -574.745 2169
217.608 -575.54 2172
224.033 -578.719 2184
229.256 -578.719 2184
234.693 -579.249 2186
240.25 -580.044 2189
245.484 -580.044 2189
250.719 -580.044 2189
255.954 -580.044 2189
261.188 -580.044 2189
266.423 -580.044 2189
271.285 -579.249 2186
276.892 -580.044 2189
282.126 -580.044 2189
288.936 -583.224 2201
294.2 -583.224 2201
300.687 -585.609 2210
306.387 -586.404 2213
313.651 -590.114 2227
321.125 -594.088 2242
326.486 -594.088 2242
331.848 -594.088 2242
337.209 -594.088 2242
342.57 -594.088 2242
612.754 -1000.04 3774
621.779 -1000.04 3774
630.804 -1000.04 3774
639.828 -1000.04 3774
648.853 -1000.04 3774
653.52 -993.415 3749
660.895 -991.031 3740
663.928 -982.286 3707
675.878 -986.791 3724
687.725 -991.031 3740
696.668 -991.031 3740
705.612 -991.031 3740
709.97 -984.671 3716
718.856 -984.671 3716
722.846 -978.047 3691
739.8 -988.911 3732
750.329 -991.031 3740
759.273 -991.031 3740
768.216 -991.031 3740
777.16 -991.031 3740
777.485 -980.166 3699
786.331 -980.166 3699
793.457 -978.047 3691
802.283 -978.047 3691
811.109 -978.047 3691
819.935 -978.047 3691
1492.57 -1047.47 3953
1502.02 -1047.47 3953
1511.48 -1047.47 3953
1503.23 -1035.28 3907
1505.6 -1030.51 3889
1500.88 -1020.97 3853
1510.09 -1020.97 3853
1512.21 -1016.2 3835
1511.07 -1009.31 3809
1513.39 -1004.81 3792
1522.46 -1004.81 3792
1524.26 -1000.04 3774
1530.03 -997.92 3766
1539.04 -997.92 3766
1548.04 -997.92 3766
1557.05 -997.92 3766
1566.05 -997.92 3766
1571.3 -995.535 3757
1580.28 -995.535 3757
1589.26 -995.535 3757
1594.84 -993.415 3749
1603.81 -993.415 3749
1620.09 -997.92 3766
1629.09 -997.92 3766
1638.1 -997.92 3766
-2953.98 -1073.71 4089
-2944.2 -1073.71 4089
-2934.42 -1073.71 4089
-2868.14 -1052.97 4010
-2845 -1047.98 3991
-2835.46 -1047.98 3991
-2819.54 -1045.62 3982
-2796.61 -1040.63 3963
-2767.45 -1033.28 3935
-2758.04 -1033.28 3935
-2748.63 -1033.28 3935
-2713.46 -1023.56 3898
-2679.16 -1014.11 3862
-2669.93 -1014.11 3862
-2648.29 -1009.38 3844
-2621.25 -1002.55 3818
-2576.54 -988.899 3766
-2567.54 -988.899 3766
-2558.53 -988.899 3766
-2572.54 -997.827 3800
-2563.46 -997.827 3800
-2554.37 -997.827 3800
-2545.28 -997.827 3800
-1408.48 -1023.56 3898
-1399.16 -1023.56 3898
-1393.04 -1025.92 3907
-1393.62 -1033.28 3935
-1384.21 -1033.28 3935
-1374.8 -1033.28 3935
-1365.39 -1033.28 3935
-1368.73 -1042.99 3972
-1362.65 -1045.62 3982
-1353.13 -1045.62 3982
-1346.64 -1047.98 3991
-1340.45 -1050.61 4001
-1330.88 -1050.61 4001
-1321.32 -1050.61 4001
-1311.75 -1050.61 4001
-1283.63 -1035.64 3944
-1259.34 -1023.56 3898
-1250.02 -1023.56 3898
-1237.83 -1021.2 3889
-1231.37 -1023.56 3898
-1222.05 -1023.56 3898
-1212.73 -1023.56 3898
-1203.41 -1023.56 3898
-203.305 -556.682 2120
-198.236 -556.682 2120
-193.166 -556.682 2120
-187.831 -555.894 2117
-182.077 -553.794 2109
-177.034 -553.794 2109
-171.339 -551.693 2101
-165.681 -549.592 2093
-160.292 -548.279 2088
-155.299 -548.279 2088
-150.09 -547.492 2085
-144.965 -546.966 2083
-139.648 -545.654 2078
-134.679 -545.654 2078
-129.523 -544.866 2075
-124.561 -544.866 2075
-119.599 -544.866 2075
-114.637 -544.866 2075
-109.411 -543.553 2070
-103.956 -540.927 2060
-99.0298 -540.927 2060
-94.1037 -540.927 2060
-88.9612 -539.614 2055
-84.0471 -539.614 2055
-79.1329 -539.614 2055
-74.1105 -538.826 2052
-69.2035 -538.826 2052
-64.2966 -538.826 2052
-59.3896 -538.826 2052
-54.4826 -538.826 2052
-49.5757 -538.826 2052
-44.6687 -538.826 2052
-39.8199 -539.614 2055
-34.9058 -539.614 2055
-30.0208 -540.139 2057
-25.1019 -540.139 2057
-20.183 -540.139 2057
-15.2864 -540.927 2060
-10.3854 -542.24 2065
-5.4474 -542.24 2065
-0.509849 -542.765 2067
4.43297 -542.765 2067
9.3758 -542.765 2067
14.3186 -542.765 2067
19.2614 -542.765 2067
24.2043 -542.765 2067
29.1471 -542.765 2067
34.0899 -542.765 2067
39.0327 -542.765 2067
44.0394 -543.553 2070
49.1077 -544.866 2075
54.0697 -544.866 2075
59.117 -545.654 2078
64.2403 -546.966 2083
69.2878 -547.492 2085
74.2737 -547.492 2085
79.2596 -547.492 2085
84.4879 -549.067 2091
89.5737 -549.592 2093
94.8046 -550.905 2098
99.8216 -550.905 2098
104.839 -550.905 2098
109.855 -550.905 2098
115.037 -551.693 2101
120.061 -551.693 2101
125.264 -552.481 2104
130.419 -553.006 2106
136.162 -555.894 2117
141.225 -555.894 2117
146.633 -557.207 2122
152.136 -558.783 2128
157.446 -559.571 2131
162.542 -559.571 2131
167.795 -560.096 2133
173.382 -561.671 2139
178.748 -562.459 2142
183.87 -562.459 2142
189.698 -564.56 2150
196.108 -568.236 2164
201.562 -569.024 2167
206.744 -569.024 2167
212.121 -569.549 2169
217.608 -570.337 2172
224.033 -573.488 2184
229.256 -573.488 2184
234.693 -574.013 2186
240.25 -574.801 2189
245.821 -575.588 2192
251.063 -575.588 2192
256.304 -575.588 2192
261.546 -575.588 2192
266.788 -575.588 2192
271.657 -574.801 2189
276.892 -574.801 2189
282.9 -576.376 2195
288.936 -577.952 2201
294.2 -577.952 2201
300.687 -580.315 2210
308.326 -584.779 2227
314.496 -586.354 2233
321.125 -588.718 2242
326.923 -589.505 2245
332.292 -589.505 2245
337.66 -589.505 2245
343.029 -589.505 2245
608.695 -984.435 3749
617.66 -984.435 3749
627.962 -986.535 3757
636.946 -986.535 3757
645.93 -986.535 3757
653.52 -984.435 3749
660.895 -982.071 3740
663.928 -973.406 3707
677.33 -979.971 3732
687.725 -982.071 3740
696.668 -982.071 3740
705.612 -982.071 3740
709.97 -975.769 3716
721.951 -979.971 3732
730.876 -979.971 3732
741.386 -982.071 3740
752.135 -984.435 3749
761.1 -984.435 3749
770.065 -984.435 3749
779.03 -984.435 3749
787.995 -984.435 3749
796.96 -984.435 3749
793.457 -969.205 3691
802.283 -969.205 3691
811.109 -969.205 3691
819.935 -969.205 3691
1492.57 -1038 3953
1502.02 -1038 3953
1511.48 -1038 3953
1506.69 -1028.29 3916
1505.6 -1021.2 3889
1500.88 -1011.74 3853
1510.09 -1011.74 3853
1512.21 -1007.02 3835
1514.64 -1002.55 3818
1513.39 -995.726 3792
1522.46 -995.726 3792
1521.03 -988.899 3766
1530.03 -988.899 3766
1539.04 -988.899 3766
1548.04 -988.899 3766
1557.05 -988.899 3766
1566.05 -988.899 3766
1571.3 -986.535 3757
1580.28 -986.535 3757
1589.26 -986.535 3757
1594.84 -984.435 3749
1603.81 -984.435 3749
1620.09 -988.899 3766
1629.09 -988.899 3766
1638.1 -988.899 3766
-2953.98 -1063.92 4089
-2944.2 -1063.92 4089
-2934.42 -1063.92 4089
-2896.03 -1053.51 4049
-2858.55 -1043.36 4010
-2848.96 -1043.36 4010
-2833 -1041.02 4001
-2810.02 -1036.08 3982
-2793.47 -1033.48 3972
-2783.97 -1033.48 3972
-2768.18 -1031.13 3963
-2732.25 -1021.25 3925
-2704.14 -1014.22 3898
-2694.82 -1014.22 3898
-2660.69 -1004.86 3862
-2639.1 -1000.17 3844
-2599.81 -988.724 3800
-2590.72 -988.724 3800
-2581.63 -988.724 3800
-2596.24 -997.83 3835
-2587.07 -997.83 3835
-2577.9 -997.83 3835
-2545.28 -988.724 3800
-2536.2 -988.724 3800
-1421.85 -1023.85 3935
-1412.44 -1023.85 3935
-1403.03 -1023.85 3935
-1393.62 -1023.85 3935
-1384.21 -1023.85 3935
-1374.8 -1023.85 3935
-1365.39 -1023.85 3935
-1368.73 -1033.48 3972
-1365.73 -1038.42 3991
-1356.19 -1038.42 3991
-1346.64 -1038.42 3991
-1340.45 -1041.02 4001
-1330.88 -1041.02 4001
-1321.32 -1041.02 4001
-1311.75 -1041.02 4001
-1283.63 -1026.19 3944
-1259.34 -1014.22 3898
-1255.79 -1018.91 3916
-1246.42 -1018.91 3916
-1237.06 -1018.91 3916
-1227.69 -1018.91 3916
-1218.33 -1018.91 3916
-1208.97 -1018.91 3916
-207.589 -549.522 2112
-203.305 -551.604 2120
-198.236 -551.604 2120
-193.166 -551.604 2120
-187.831 -550.823 2117
-182.077 -548.742 2109
-177.034 -548.742 2109
-171.339 -546.66 2101
-165.681 -544.579 2093
-160.292 -543.278 2088
-155.299 -543.278 2088
-150.09 -542.497 2085
-144.965 -541.977 2083
-139.648 -540.676 2078
-134.679 -540.676 2078
-129.523 -539.895 2075
-124.561 -539.895 2075
-119.599 -539.895 2075
-114.637 -539.895 2075
-109.411 -538.594 2070
-103.956 -535.992 2060
-99.0298 -535.992 2060
-94.1037 -535.992 2060
-89.0478 -535.212 2057
-84.1289 -535.212 2057
-79.1329 -534.691 2055
-74.1105 -533.911 2052
-69.2035 -533.911 2052
-64.2966 -533.911 2052
-59.3896 -533.911 2052
-54.4826 -533.911 2052
-49.6482 -534.691 2055
-44.734 -534.691 2055
-39.8199 -534.691 2055
-34.9058 -534.691 2055
-30.0208 -535.212 2057
-25.1019 -535.212 2057
-20.183 -535.212 2057
-15.2864 -535.992 2060
-10.3854 -537.293 2065
-5.4474 -537.293 2065
-0.509849 -537.814 2067
4.43297 -537.814 2067
9.3758 -537.814 2067
14.3186 -537.814 2067
19.2614 -537.814 2067
24.2043 -537.814 2067
29.1471 -537.814 2067
34.0899 -537.814 2067
39.0327 -537.814 2067
44.0394 -538.594 2070
49.1077 -539.895 2075
54.0697 -539.895 2075
59.117 -540.676 2078
64.2403 -541.977 2083
69.2878 -542.497 2085
74.2737 -542.497 2085
79.4877 -544.058 2091
84.4879 -544.058 2091
89.5737 -544.579 2093
94.8046 -545.88 2098
99.8216 -545.88 2098
104.988 -546.66 2101
110.013 -546.66 2101
115.201 -547.441 2104
120.232 -547.441 2104
125.383 -547.961 2106
130.419 -547.961 2106
136.162 -550.823 2117
141.225 -550.823 2117
146.84 -552.905 2125
152.136 -553.685 2128
157.446 -554.466 2131
162.542 -554.466 2131
168.031 -555.767 2136
173.625 -557.328 2142
178.915 -557.848 2144
184.041 -557.848 2144
189.698 -559.409 2150
196.108 -563.052 2164
201.562 -563.833 2167
206.744 -563.833 2167
212.121 -564.353 2169
217.608 -565.134 2172
224.033 -568.256 2184
229.256 -568.256 2184
234.693 -568.776 2186
240.25 -569.557 2189
245.821 -570.337 2192
251.063 -570.337 2192
256.304 -570.337 2192
261.546 -570.337 2192
266.788 -570.337 2192
271.657 -569.557 2189
276.892 -569.557 2189
283.286 -571.899 2198
288.936 -572.679 2201
294.2 -572.679 2201
300.687 -575.021 2210
308.326 -579.444 2227
314.496 -581.005 2233
321.125 -583.347 2242
326.923 -584.128 2245
332.292 -584.128 2245
337.66 -584.128 2245
343.029 -584.128 2245
608.695 -975.454 3749
617.66 -975.454 3749
627.962 -977.535 3757
636.946 -977.535 3757
645.93 -977.535 3757
653.52 -975.454 3749
660.895 -973.112 3740
663.928 -964.526 3707
677.33 -971.031 3732
687.725 -973.112 3740
696.668 -973.112 3740
705.612 -973.112 3740
711.498 -968.949 3724
723.499 -973.112 3740
732.442 -973.112 3740
741.386 -973.112 3740
757.15 -981.959 3774
766.175 -981.959 3774
775.2 -981.959 3774
784.225 -981.959 3774
787.995 -975.454 3749
796.96 -975.454 3749
793.457 -960.363 3691
802.283 -960.363 3691
811.109 -960.363 3691
819.935 -960.363 3691
1492.57 -1028.53 3953
1502.02 -1028.53 3953
1511.48 -1028.53 3953
1506.69 -1018.91 3916
1505.6 -1011.88 3889
1500.88 -1002.51 3853
1510.09 -1002.51 3853
1512.21 -997.83 3835
1514.64 -993.407 3818
1513.39 -986.642 3792
1522.46 -986.642 3792
1521.03 -979.877 3766
1530.03 -979.877 3766
1539.04 -979.877 3766
1548.04 -979.877 3766
1557.05 -979.877 3766
1566.05 -979.877 3766
1571.3 -977.535 3757
1580.28 -977.535 3757
1589.26 -977.535 3757
1594.84 -975.454 3749
1603.81 -975.454 3749
1620.09 -979.877 3766
1629.09 -979.877 3766
1638.1 -979.877 3766
-2953.98 -1054.12 4089
-2944.2 -1054.12 4089
-2934.42 -1054.12 4089
-2910.34 -1048.97 4069
-2886.35 -1043.81 4049
-2876.67 -1043.81 4049
-2853.53 -1038.91 4030
-2836.84 -1036.34 4020
-2813.86 -1031.44 4001
-2804.29 -1031.44 4001
-2794.73 -1031.44 4001
-2758.71 -1021.64 3963
-2722.87 -1011.85 3925
-2713.48 -1011.85 3925
-2673.09 -1000.24 3880
-2639.1 -990.964 3844
-2599.81 -979.621 3800
-2596.85 -981.941 3809
-2587.75 -981.941 3809
-2596.24 -988.644 3835
-2587.07 -988.644 3835
-2577.9 -988.644 3835
-2551.31 -981.941 3809
-2536.2 -979.621 3800
-1425.1 -1016.74 3944
-1415.67 -1016.74 3944
-1406.24 -1016.74 3944
-1396.81 -1016.74 3944
-1387.37 -1016.74 3944
-1377.94 -1016.74 3944
-1368.51 -1016.74 3944
-1368.73 -1023.96 3972
-1365.73 -1028.86 3991
-1356.19 -1028.86 3991
-1350.02 -1031.44 4001
-1343.47 -1033.76 4010
-1333.88 -1033.76 4010
-1324.29 -1033.76 4010
-1311.75 -1031.44 4001
-1283.63 -1016.74 3944
-1262.24 -1007.2 3907
-1258.67 -1011.85 3925
-1249.29 -1011.85 3925
-1239.9 -1011.85 3925
-1233.65 -1014.42 3935
-1224.24 -1014.42 3935
-1214.83 -1014.42 3935
-1199.6 -1009.52 3916
-207.589 -544.463 2112
-203.305 -546.525 2120
-198.236 -546.525 2120
-193.166 -546.525 2120
-187.831 -545.752 2117
-182.077 -543.69 2109
-177.034 -543.69 2109
-171.339 -541.627 2101
-165.681 -539.565 2093
-160.292 -538.276 2088
-155.299 -538.276 2088
-150.09 -537.502 2085
-144.965 -536.987 2083
-139.648 -535.698 2078
-134.679 -535.698 2078
-129.523 -534.924 2075
-124.561 -534.924 2075
-119.426 -534.151 2072
-114.471 -534.151 2072
-109.411 -533.635 2070
-103.956 -531.058 2060
-99.0298 -531.058 2060
-94.1037 -531.058 2060
-89.0478 -530.284 2057
-84.1289 -530.284 2057
-79.1329 -529.769 2055
-74.2188 -529.769 2055
-69.3047 -529.769 2055
-64.3905 -529.769 2055
-59.4764 -529.769 2055
-54.4826 -528.995 2052
-49.6482 -529.769 2055
-44.734 -529.769 2055
-39.8199 -529.769 2055
-34.9058 -529.769 2055
-30.0208 -530.284 2057
-25.1019 -530.284 2057
-20.183 -530.284 2057
-15.2864 -531.058 2060
-10.3854 -532.346 2065
-5.4474 -532.346 2065
-0.509849 -532.862 2067
4.43297 -532.862 2067
9.3758 -532.862 2067
14.3186 -532.862 2067
19.2614 -532.862 2067
24.2043 -532.862 2067
29.1471 -532.862 2067
34.0899 -532.862 2067
39.0327 -532.862 2067
44.0394 -533.635 2070
49.1077 -534.924 2075
54.0697 -534.924 2075
59.117 -535.698 2078
64.2403 -536.987 2083
69.2878 -537.502 2085
74.2737 -537.502 2085
79.4877 -539.049 2091
84.4879 -539.049 2091
89.5737 -539.565 2093
94.8046 -540.854 2098
99.8216 -540.854 2098
104.988 -541.627 2101
110.013 -541.627 2101
115.201 -542.401 2104
120.232 -542.401 2104
125.383 -542.916 2106
130.419 -542.916 2106
136.162 -545.752 2117
141.225 -545.752 2117
146.84 -547.814 2125
152.136 -548.588 2128
157.446 -549.361 2131
162.542 -549.361 2131
168.031 -550.65 2136
173.625 -552.197 2142
178.915 -552.712 2144
184.041 -552.712 2144
189.433 -553.486 2147
195.564 -556.321 2158
201.283 -557.868 2164
206.457 -557.868 2164
212.121 -559.157 2169
217.608 -559.931 2172
223.726 -562.251 2181
228.941 -562.251 2181
234.693 -563.54 2186
240.25 -564.313 2189
245.821 -565.086 2192
251.063 -565.086 2192
256.304 -565.086 2192
261.546 -565.086 2192
266.788 -565.086 2192
271.657 -564.313 2189
276.892 -564.313 2189
283.286 -566.633 2198
288.936 -567.407 2201
294.2 -567.407 2201
300.687 -569.727 2210
308.326 -574.109 2227
314.496 -575.656 2233
321.125 -577.976 2242
326.923 -578.75 2245
332.292 -578.75 2245
337.66 -578.75 2245
343.029 -578.75 2245
608.695 -966.473 3749
617.66 -966.473 3749
626.625 -966.473 3749
635.59 -966.473 3749
644.555 -966.473 3749
651.951 -964.153 3740
656.654 -957.966 3716
663.928 -955.646 3707
677.33 -962.091 3732
687.725 -964.153 3740
696.668 -964.153 3740
705.612 -964.153 3740
711.498 -960.028 3724
723.499 -964.153 3740
732.442 -964.153 3740
741.386 -964.153 3740
757.15 -972.918 3774
766.175 -972.918 3774
775.2 -972.918 3774
784.225 -972.918 3774
787.995 -966.473 3749
796.96 -966.473 3749
1492.57 -1019.06 3953
1502.02 -1019.06 3953
1511.48 -1019.06 3953
1506.69 -1009.52 3916
1505.6 -1002.56 3889
1500.88 -993.284 3853
1510.09 -993.284 3853
1508.66 -986.323 3826
1514.64 -984.261 3818
1509.8 -975.238 3783
1518.85 -975.238 3783
1521.03 -970.856 3766
1530.03 -970.856 3766
1539.04 -970.856 3766
1548.04 -970.856 3766
1557.05 -970.856 3766
1566.05 -970.856 3766
1571.3 -968.536 3757
1576.91 -966.473 3749
1585.88 -966.473 3749
1594.84 -966.473 3749
1603.81 -966.473 3749
1620.09 -970.856 3766
1629.09 -970.856 3766
1638.1 -970.856 3766
-2932.3 -1036.67 4059
-2944.2 -1044.33 4089
-2934.42 -1044.33 4089
-2924.64 -1044.33 4089
-2900.61 -1039.22 4069
-2890.88 -1039.22 4069
-2874.07 -1036.67 4059
-2857.3 -1034.11 4049
-2827.22 -1026.71 4020
-2817.61 -1026.71 4020
-2808 -1026.71 4020
-2785.16 -1021.85 4001
-2722.87 -1002.44 3925
-2713.48 -1002.44 3925
-2673.09 -990.95 3880
-2639.1 -981.755 3844
-2599.81 -970.518 3800
-2596.85 -972.816 3809
-2587.75 -972.816 3809
-2596.24 -979.457 3835
-2587.07 -979.457 3835
-2577.9 -979.457 3835
-2551.31 -972.816 3809
-2536.2 -970.518 3800
-1425.1 -1007.3 3944
-1415.67 -1007.3 3944
-1406.24 -1007.3 3944
-1396.81 -1007.3 3944
-1387.37 -1007.3 3944
-1377.94 -1007.3 3944
-1368.51 -1007.3 3944
-1368.73 -1014.45 3972
-1365.73 -1019.3 3991
-1356.19 -1019.3 3991
-1350.02 -1021.85 4001
-1343.47 -1024.15 4010
-1333.88 -1024.15 4010
-1324.29 -1024.15 4010
-1311.75 -1021.85 4001
-1283.63 -1007.3 3944
-1262.24 -997.846 3907
-1258.67 -1002.44 3925
-1249.29 -1002.44 3925
-1239.9 -1002.44 3925
-1233.65 -1005 3935
-1224.24 -1005 3935
-1214.83 -1005 3935
-1199.6 -1000.14 3916
-207.589 -539.404 2112
-202.538 -539.404 2112
-197.488 -539.404 2112
-192.437 -539.404 2112
-187.387 -539.404 2112
-181.387 -536.594 2101
-176.363 -536.594 2101
-171.094 -535.828 2098
-165.681 -534.551 2093
-160.062 -532.508 2085
-155.076 -532.508 2085
-150.09 -532.508 2085
-144.965 -531.997 2083
-139.648 -530.72 2078
-134.679 -530.72 2078
-129.523 -529.954 2075
-124.381 -529.188 2072
-119.426 -529.188 2072
-114.471 -529.188 2072
-109.411 -528.677 2070
-103.956 -526.123 2060
-99.0298 -526.123 2060
-94.1037 -526.123 2060
-89.0478 -525.357 2057
-84.1289 -525.357 2057
-79.1329 -524.846 2055
-74.2188 -524.846 2055
-69.3047 -524.846 2055
-64.3905 -524.846 2055
-59.4764 -524.846 2055
-54.4826 -524.08 2052
-49.6482 -524.846 2055
-44.734 -524.846 2055
-39.8199 -524.846 2055
-34.9058 -524.846 2055
-30.0208 -525.357 2057
-25.1019 -525.357 2057
-20.183 -525.357 2057
-15.2864 -526.123 2060
-10.3854 -527.4 2065
-5.4474 -527.4 2065
-0.509849 -527.911 2067
4.43297 -527.911 2067
9.3758 -527.911 2067
14.3186 -527.911 2067
19.2614 -527.911 2067
24.2043 -527.911 2067
29.1471 -527.911 2067
34.0899 -527.911 2067
39.0327 -527.911 2067
44.0394 -528.677 2070
49.1077 -529.954 2075
54.0697 -529.954 2075
59.117 -530.72 2078
64.2403 -531.997 2083
69.2878 -532.508 2085
74.2737 -532.508 2085
79.4877 -534.04 2091
84.4879 -534.04 2091
89.5737 -534.551 2093
94.8046 -535.828 2098
99.8216 -535.828 2098
104.988 -536.594 2101
110.013 -536.594 2101
115.31 -537.871 2106
120.347 -537.871 2106
125.383 -537.871 2106
130.419 -537.871 2106
136.355 -541.447 2120
141.425 -541.447 2120
146.84 -542.724 2125
152.136 -543.49 2128
157.594 -544.767 2133
162.695 -544.767 2133
168.267 -546.299 2139
173.625 -547.066 2142
178.915 -547.576 2144
184.041 -547.576 2144
189.698 -549.109 2150
195.564 -551.152 2158
201.004 -551.918 2161
206.171 -551.918 2161
211.632 -552.684 2164
217.909 -555.494 2175
223.726 -557.026 2181
228.941 -557.026 2181
234.693 -558.303 2186
240.25 -559.069 2189
245.821 -559.836 2192
251.063 -559.836 2192
256.304 -559.836 2192
261.546 -559.836 2192
266.788 -559.836 2192
271.285 -558.303 2186
276.892 -559.069 2189
283.286 -561.368 2198
288.936 -562.134 2201
294.601 -562.9 2204
300.279 -563.667 2207
307.91 -568.008 2224
314.074 -569.541 2230
321.125 -572.605 2242
326.923 -573.372 2245
332.292 -573.372 2245
338.563 -574.904 2251
343.945 -574.904 2251
349.328 -574.904 2251
608.695 -957.492 3749
617.66 -957.492 3749
626.625 -957.492 3749
632.708 -953.151 3732
641.632 -953.151 3732
647.767 -949.064 3716
653.649 -944.722 3699
663.928 -946.766 3707
672.792 -946.766 3707
681.657 -946.766 3707
690.521 -946.766 3707
699.386 -946.766 3707
711.498 -951.107 3724
723.499 -955.194 3740
732.442 -955.194 3740
741.386 -955.194 3740
757.15 -963.877 3774
766.175 -963.877 3774
775.2 -963.877 3774
784.225 -963.877 3774
1492.57 -1009.59 3953
1502.02 -1009.59 3953
1511.48 -1009.59 3953
1506.69 -1000.14 3916
1484.7 -979.457 3835
1487.25 -975.115 3818
1496.38 -975.115 3818
1505.51 -975.115 3818
1504.32 -968.475 3792
1503.01 -961.834 3766
1512.02 -961.834 3766
1517.39 -959.536 3757
1516.22 -953.151 3732
1525.14 -953.151 3732
1534.07 -953.151 3732
1542.99 -953.151 3732
1551.92 -953.151 3732
1564.19 -955.194 3740
1573.13 -955.194 3740
1582.07 -955.194 3740
1591.02 -955.194 3740
1599.96 -955.194 3740
1605.46 -953.151 3732
1614.39 -953.151 3732
1623.31 -953.151 3732
1632.23 -953.151 3732
-2944.2 -1034.53 4089
-2934.42 -1034.53 4089
-2924.64 -1034.53 4089
-2900.61 -1029.47 4069
-2890.88 -1029.47 4069
-2874.07 -1026.94 4059
-2857.3 -1024.41 4049
-2827.22 -1017.08 4020
-2817.61 -1017.08 4020
-2808 -1017.08 4020
-2785.16 -1012.27 4001
-2722.87 -993.04 3925
-2713.48 -993.04 3925
-2685.5 -986.209 3898
-2639.1 -972.547 3844
-2599.81 -961.415 3800
-2596.85 -963.692 3809
-2587.75 -963.692 3809
-2596.24 -970.27 3835
-2587.07 -970.27 3835
-2577.9 -970.27 3835
-2551.31 -963.692 3809
-2530.86 -959.391 3792
-1425.1 -997.847 3944
-1415.67 -997.847 3944
-1406.24 -997.847 3944
-1396.81 -997.847 3944
-1387.37 -997.847 3944
-1377.94 -997.847 3944
-1371.63 -1000.12 3953
-1368.73 -1004.93 3972
-1365.73 -1009.74 3991
-1356.19 -1009.74 3991
-1350.02 -1012.27 4001
-1343.47 -1014.55 4010
-1333.88 -1014.55 4010
-1324.29 -1014.55 4010
-1314.7 -1014.55 4010
-1292.74 -1004.93 3972
-1283.24 -1004.93 3972
-1261.88 -995.57 3935
-1252.47 -995.57 3935
-1243.06 -995.57 3935
-1236.47 -997.847 3944
-1227.04 -997.847 3944
-1217.61 -997.847 3944
-1202.36 -993.04 3925
-207.589 -534.344 2112
-202.538 -534.344 2112
-197.488 -534.344 2112
-192.164 -533.585 2109
-187.121 -533.585 2109
-181.387 -531.561 2101
-176.363 -531.561 2101
-171.094 -530.802 2098
-165.681 -529.537 2093
-160.062 -527.513 2085
-155.076 -527.513 2085
-149.946 -527.007 2083
-144.756 -526.248 2080
-139.447 -524.983 2075
-134.485 -524.983 2075
-129.335 -524.224 2072
-124.381 -524.224 2072
-119.311 -523.718 2070
-114.361 -523.718 2070
-109.252 -522.959 2067
-103.956 -521.188 2060
-98.8856 -520.429 2057
-93.9667 -520.429 2057
-89.0478 -520.429 2057
-84.1289 -520.429 2057
-79.1329 -519.923 2055
-74.2188 -519.923 2055
-69.3047 -519.923 2055
-64.3905 -519.923 2055
-59.4764 -519.923 2055
-54.5623 -519.923 2055
-49.6482 -519.923 2055
-44.734 -519.923 2055
-39.8199 -519.923 2055
-34.9398 -520.429 2057
-30.0208 -520.429 2057
-25.1019 -520.429 2057
-20.2125 -521.188 2060
-15.3012 -521.694 2062
-10.3854 -522.453 2065
-5.4474 -522.453 2065
-0.509849 -522.959 2067
4.43297 -522.959 2067
9.3758 -522.959 2067
14.3186 -522.959 2067
19.2614 -522.959 2067
24.2043 -522.959 2067
29.1471 -522.959 2067
34.0899 -522.959 2067
39.0327 -522.959 2067
44.0394 -523.718 2070
49.1077 -524.983 2075
54.0697 -524.983 2075
59.117 -525.742 2078
64.2403 -527.007 2083
69.2878 -527.513 2085
74.2737 -527.513 2085
79.4877 -529.031 2091
84.5687 -529.537 2093
89.7021 -530.296 2096
94.8046 -530.802 2098
99.8216 -530.802 2098
104.988 -531.561 2101
110.013 -531.561 2101
115.31 -532.826 2106
120.347 -532.826 2106
125.383 -532.826 2106
130.419 -532.826 2106
136.355 -536.368 2120
141.425 -536.368 2120
147.047 -538.392 2128
152.35 -539.151 2131
157.594 -539.657 2133
162.695 -539.657 2133
168.267 -541.175 2139
173.788 -542.44 2144
179.165 -543.199 2147
184.299 -543.199 2147
189.698 -543.958 2150
195.292 -545.223 2155
201.004 -546.741 2161
206.171 -546.741 2161
211.632 -547.5 2164
217.909 -550.284 2175
223.726 -551.802 2181
228.941 -551.802 2181
234.693 -553.067 2186
240.25 -553.826 2189
245.821 -554.585 2192
251.063 -554.585 2192
256.304 -554.585 2192
261.546 -554.585 2192
266.788 -554.585 2192
272.03 -554.585 2192
277.271 -554.585 2192
283.286 -556.103 2198
289.33 -557.621 2204
294.601 -557.621 2204
300.279 -558.38 2207
308.741 -564.199 2230
314.496 -564.958 2233
319.836 -564.958 2233
326.923 -567.994 2245
332.736 -568.753 2248
339.014 -570.271 2254
344.404 -570.271 2254
349.794 -570.271 2254
605.935 -944.211 3732
614.859 -944.211 3732
623.784 -944.211 3732
629.995 -940.163 3716
638.881 -940.163 3716
646.199 -937.885 3707
650.822 -931.813 3683
656.764 -927.765 3667
669.888 -933.837 3691
681.657 -937.885 3707
690.521 -937.885 3707
699.386 -937.885 3707
708.25 -937.885 3707
720.404 -942.187 3724
729.309 -942.187 3724
741.386 -946.235 3740
752.135 -948.512 3749
761.1 -948.512 3749
770.065 -948.512 3749
779.03 -948.512 3749
1465.01 -981.655 3880
1474.29 -981.655 3880
1483.56 -981.655 3880
1489.38 -979.378 3871
1471.15 -961.415 3800
1470.11 -954.837 3774
1479.13 -954.837 3774
1488.16 -954.837 3774
1494.01 -952.813 3766
1503.01 -952.813 3766
1512.02 -952.813 3766
1517.39 -950.536 3757
1519.47 -946.235 3740
1525.14 -944.211 3732
1534.07 -944.211 3732
1542.99 -944.211 3732
1551.92 -944.211 3732
1560.84 -944.211 3732
1569.76 -944.211 3732
1578.69 -944.211 3732
1587.61 -944.211 3732
1589.69 -940.163 3716
1598.58 -940.163 3716
1614.39 -944.211 3732
1623.31 -944.211 3732
1632.23 -944.211 3732
-2944.2 -1024.74 4089
-2934.42 -1024.74 4089
-2924.64 -1024.74 4089
-2900.61 -1019.73 4069
-2890.88 -1019.73 4069
-2874.07 -1017.22 4059
-2857.3 -1014.71 4049
-2840.59 -1012.21 4039
-2830.93 -1012.21 4039
-2808 -1007.45 4020
-2798.39 -1007.45 4020
-2722.87 -983.638 3925
-2713.48 -983.638 3925
-2691.7 -979.127 3907
-2626.74 -958.828 3826
-2599.81 -952.312 3800
-2596.85 -954.567 3809
-2587.75 -954.567 3809
-2578.64 -954.567 3809
-2569.53 -954.567 3809
-2560.42 -954.567 3809
-2545.28 -952.312 3800
-2518.84 -945.796 3774
-1416.22 -995.417 3972
-1406.72 -995.417 3972
-1397.22 -995.417 3972
-1381.09 -990.655 3953
-1371.63 -990.655 3953
-1372.17 -997.923 3982
-1369.15 -1002.68 4001
-1359.59 -1002.68 4001
-1353.06 -1004.94 4010
-1350.17 -1009.95 4030
-1340.53 -1009.95 4030
-1330.89 -1009.95 4030
-1321.26 -1009.95 4030
-1296 -997.923 3982
-1286.47 -997.923 3982
-1264.77 -988.4 3944
-1255.34 -988.4 3944
-1245.9 -988.4 3944
-1236.47 -988.4 3944
-1227.04 -988.4 3944
-1217.61 -988.4 3944
-1210.94 -990.655 3953
-1201.48 -990.655 3953
-1192.03 -990.655 3953
-216.865 -527.28 2104
-211.834 -527.28 2104
-207.294 -528.533 2109
-202.251 -528.533 2109
-197.207 -528.533 2109
-192.164 -528.533 2109
