-2871.42 -970.989 4069
-2861.69 -970.989 4069
-2851.96 -970.989 4069
-2835.24 -968.603 4059
-2811.61 -963.83 4039
-2788.77 -959.296 4020
-2779.16 -959.296 4020
-2756.46 -954.762 4001
-2713.93 -943.308 3953
-2704.48 -943.308 3953
-2695.03 -943.308 3953
-2685.58 -943.308 3953
-2682.89 -945.694 3963
-2679.49 -947.842 3972
-2669.99 -947.842 3972
-2660.49 -947.842 3972
-2626.3 -939.012 3935
-1384.21 -939.012 3935
-1374.8 -939.012 3935
-1365.39 -939.012 3935
-1355.98 -939.012 3935
-1349.65 -941.16 3944
-1340.22 -941.16 3944
-1337.2 -945.694 3963
-1327.72 -945.694 3963
-1318.24 -945.694 3963
-1308.77 -945.694 3963
-1290.11 -939.012 3935
-1286.56 -943.308 3953
-1286.47 -950.228 3982
-1283.05 -954.762 4001
-1273.48 -954.762 4001
-1263.91 -954.762 4001
-1260.3 -959.296 4020
-1250.69 -959.296 4020
-1241.07 -959.296 4020
-1228.4 -956.91 4010
-157.771 -540.976 2267
-152.35 -540.976 2267
-146.928 -540.976 2267
-141.507 -540.976 2267
-133.865 -532.147 2230
-128.533 -532.147 2230
-122.371 -528.567 2215
-116.81 -527.374 2210
-111.223 -525.942 2204
-105.087 -521.647 2186
-99.8596 -521.647 2186
-94.2859 -519.738 2178
-88.8322 -518.306 2172
-83.5228 -517.59 2169
-78.3361 -517.59 2169
-72.6097 -513.772 2153
-67.1166 -511.147 2142
-61.7339 -509 2133
-56.6333 -509 2133
-51.2669 -506.375 2122
-46.0837 -505.182 2117
-40.8663 -503.272 2109
-35.6871 -501.363 2101
-30.663 -501.363 2101
-25.6023 -500.648 2098
-20.5166 -498.977 2091
-15.4719 -497.545 2085
-10.486 -497.545 2085
-5.48697 -496.352 2080
-0.511823 -495.159 2075
4.4437 -494.443 2072
9.39848 -494.443 2072
14.3533 -494.443 2072
19.308 -494.443 2072
24.2394 -493.966 2070
29.1894 -493.966 2070
34.1394 -493.966 2070
38.995 -492.773 2065
43.8266 -491.58 2060
48.7527 -491.58 2060
53.5485 -490.386 2055
58.292 -488.955 2049
63.0375 -487.761 2044
67.8589 -487.284 2042
72.7419 -487.284 2042
77.4349 -486.091 2037
82.104 -484.898 2032
86.8775 -484.421 2030
91.7318 -484.421 2030
96.4434 -483.705 2027
101.041 -482.512 2022
105.771 -482.034 2020
110.602 -482.034 2020
115.261 -481.318 2017
119.786 -480.125 2012
124.474 -479.648 2010
129.28 -479.648 2010
134.087 -479.648 2010
138.755 -479.171 2008
143.342 -478.455 2005
148.137 -478.455 2005
152.931 -478.455 2005
157.726 -478.455 2005
162.358 -477.978 2003
166.898 -477.262 2000
171.68 -477.262 2000
176.463 -477.262 2000
181.246 -477.262 2000
185.842 -476.784 1998
190.62 -476.784 1998
195.398 -476.784 1998
199.975 -476.307 1996
204.954 -476.784 1998
209.731 -476.784 1998
214.509 -476.784 1998
219.287 -476.784 1998
223.504 -475.591 1993
228.27 -475.591 1993
233.036 -475.591 1993
237.563 -475.114 1991
484.536 -880.786 3691
493.362 -880.786 3691
502.189 -880.786 3691
511.015 -880.786 3691
516.461 -875.059 3667
526.376 -876.968 3675
535.164 -876.968 3675
546.32 -880.786 3691
561.313 -890.57 3732
570.237 -890.57 3732
579.162 -890.57 3732
589.347 -892.479 3740
598.29 -892.479 3740
608.695 -894.627 3749
617.66 -894.627 3749
626.625 -894.627 3749
638.472 -898.684 3766
647.478 -898.684 3766
656.483 -898.684 3766
665.489 -898.684 3766
674.495 -898.684 3766
683.5 -898.684 3766
689.38 -894.627 3749
698.345 -894.627 3749
702.593 -888.661 3724
714.555 -892.479 3740
725.24 -894.627 3749
734.205 -894.627 3749
743.17 -894.627 3749
748.724 -890.57 3732
757.649 -890.57 3732
764.93 -888.661 3724
775.497 -890.57 3732
784.422 -890.57 3732
796.96 -894.627 3749
805.925 -894.627 3749
818.585 -898.684 3766
831.326 -902.741 3783
846.148 -908.945 3809
855.257 -908.945 3809
864.365 -908.945 3809
881.5 -917.297 3844
896.948 -923.74 3871
906.205 -923.74 3871
915.462 -923.74 3871
963.561 -934.478 3916
972.926 -934.478 3916
984.548 -936.626 3925
993.934 -936.626 3925
1017.89 -950.228 3982
1027.41 -950.228 3982
1036.93 -950.228 3982
1046.46 -950.228 3982
1055.98 -950.228 3982
1401.24 -902.741 3783
1410.29 -902.741 3783
1419.34 -902.741 3783
1412.15 -892.479 3740
1415.01 -888.661 3724
1423.92 -888.661 3724
1420.12 -880.786 3691
1422.76 -876.968 3675
1428.43 -875.059 3667
1443.47 -878.877 3683
1455.43 -880.786 3691
1464.26 -880.786 3691
1473.08 -880.786 3691
1478.7 -878.877 3683
1500.83 -886.752 3716
1509.72 -886.752 3716
1525.14 -890.57 3732
1534.07 -890.57 3732
1542.99 -890.57 3732
1551.92 -890.57 3732
1550.38 -884.605 3707
1559.25 -884.605 3707
1568.11 -884.605 3707
1566.77 -878.877 3683
1575.57 -878.877 3683
-2944.85 -947.304 4010
-2978.45 -961.242 4069
-2968.72 -961.242 4069
-2958.99 -961.242 4069
-2956.51 -963.604 4079
-2953.98 -965.966 4089
-2944.2 -965.966 4089
-2934.42 -965.966 4089
-2924.64 -965.966 4089
-2914.86 -965.966 4089
-2905.09 -965.966 4089
-2881.15 -961.242 4069
-2871.42 -961.242 4069
-2861.69 -961.242 4069
-2851.96 -961.242 4069
-2835.24 -958.879 4059
-2818.57 -956.517 4049
-2788.77 -949.666 4020
-2779.16 -949.666 4020
-2756.46 -945.178 4001
-2713.93 -933.838 3953
-2704.48 -933.838 3953
-2701.85 -936.201 3963
-2692.37 -936.201 3963
-2682.89 -936.201 3963
-2686.23 -940.689 3982
-2676.71 -940.689 3982
-2667.19 -940.689 3982
-2626.3 -929.586 3935
-1374.36 -922.971 3907
-1365.02 -922.971 3907
-1355.67 -922.971 3907
-1349.43 -925.098 3916
-1349.65 -931.712 3944
-1340.22 -931.712 3944
-1330.79 -931.712 3944
-1321.35 -931.712 3944
-1311.92 -931.712 3944
-1302.49 -931.712 3944
-1290.11 -929.586 3935
-1286.56 -933.838 3953
-1286.47 -940.689 3982
-1283.05 -945.178 4001
-1273.48 -945.178 4001
-1263.91 -945.178 4001
-1260.3 -949.666 4020
-1250.69 -949.666 4020
-1241.07 -949.666 4020
-1228.4 -947.304 4010
-157.771 -535.546 2267
-152.35 -535.546 2267
-146.928 -535.546 2267
-141.507 -535.546 2267
-133.865 -526.805 2230
-128.533 -526.805 2230
-122.371 -523.261 2215
-116.81 -522.08 2210
-111.223 -520.663 2204
-105.087 -516.41 2186
-99.8596 -516.41 2186
-94.2859 -514.521 2178
-88.7095 -512.394 2169
-83.2147 -510.505 2161
-78.0471 -510.505 2161
-72.5085 -507.906 2150
-67.1166 -506.016 2142
-61.676 -503.418 2131
-56.5802 -503.418 2131
-51.2185 -500.819 2120
-46.0837 -500.11 2117
-40.8663 -498.22 2109
-35.6871 -496.33 2101
-30.663 -496.33 2101
-25.5779 -495.149 2096
-20.4872 -493.259 2088
-15.457 -492.078 2083
-10.476 -492.078 2083
-5.48697 -491.37 2080
-0.511823 -490.188 2075
4.4437 -489.48 2072
9.39848 -489.48 2072
14.3533 -489.48 2072
19.308 -489.48 2072
24.2394 -489.007 2070
29.1894 -489.007 2070
34.1394 -489.007 2070
38.995 -487.826 2065
43.8266 -486.645 2060
48.7527 -486.645 2060
53.5485 -485.464 2055
58.292 -484.046 2049
63.0375 -482.865 2044
67.8589 -482.393 2042
72.7419 -482.393 2042
77.4349 -481.211 2037
82.104 -480.03 2032
86.8775 -479.558 2030
91.7318 -479.558 2030
96.4434 -478.849 2027
101.041 -477.668 2022
105.771 -477.195 2020
110.602 -477.195 2020
115.261 -476.487 2017
119.786 -475.306 2012
124.474 -474.833 2010
129.28 -474.833 2010
133.953 -474.361 2008
138.755 -474.361 2008
143.342 -473.652 2005
148.137 -473.652 2005
152.931 -473.652 2005
157.569 -473.179 2003
162.115 -472.471 2000
166.898 -472.471 2000
171.68 -472.471 2000
176.463 -472.471 2000
181.064 -471.998 1998
185.842 -471.998 1998
190.62 -471.998 1998
195.202 -471.526 1996
199.975 -471.526 1996
204.954 -471.998 1998
209.731 -471.998 1998
214.509 -471.998 1998
219.287 -471.998 1998
223.504 -470.817 1993
228.27 -470.817 1993
233.036 -470.817 1993
237.563 -470.345 1991
493.362 -871.945 3691
502.189 -871.945 3691
511.015 -871.945 3691
516.461 -866.275 3667
526.376 -868.165 3675
535.164 -868.165 3675
546.32 -871.945 3691
561.313 -881.63 3732
570.237 -881.63 3732
579.162 -881.63 3732
589.347 -883.52 3740
598.29 -883.52 3740
608.695 -885.646 3749
617.66 -885.646 3749
626.625 -885.646 3749
638.472 -889.662 3766
647.478 -889.662 3766
656.483 -889.662 3766
665.489 -889.662 3766
674.495 -889.662 3766
683.5 -889.662 3766
689.38 -885.646 3749
698.345 -885.646 3749
702.593 -879.74 3724
714.555 -883.52 3740
725.24 -885.646 3749
734.205 -885.646 3749
743.17 -885.646 3749
748.724 -881.63 3732
757.649 -881.63 3732
764.93 -879.74 3724
773.835 -879.74 3724
784.422 -881.63 3732
796.96 -885.646 3749
805.925 -885.646 3749
818.585 -889.662 3766
831.326 -893.678 3783
846.148 -899.82 3809
855.257 -899.82 3809
864.365 -899.82 3809
881.5 -908.089 3844
896.948 -914.467 3871
906.205 -914.467 3871
915.462 -914.467 3871
963.561 -925.098 3916
972.926 -925.098 3916
984.548 -927.224 3925
993.934 -927.224 3925
1017.89 -940.689 3982
1027.41 -940.689 3982
1036.93 -940.689 3982
1046.46 -940.689 3982
1055.98 -940.689 3982
1328.97 -870.055 3683
1343.59 -873.835 3699
1352.44 -873.835 3699
1367.54 -877.851 3716
1401.24 -893.678 3783
1410.29 -893.678 3783
1419.34 -893.678 3783
1428.38 -893.678 3783
1418.05 -881.63 3732
1426.97 -881.63 3732
1426.28 -875.724 3707
1425.85 -870.055 3683
1434.66 -870.055 3683
1449.74 -873.835 3699
1458.58 -873.835 3699
1474.17 -877.851 3716
1483.06 -877.851 3716
1491.95 -877.851 3716
1514.16 -885.646 3749
1523.12 -885.646 3749
1532.09 -885.646 3749
1541.05 -885.646 3749
1550.02 -885.646 3749
1555.24 -883.52 3740
1560.84 -881.63 3732
1563.03 -877.851 3716
1571.92 -877.851 3716
1576.98 -875.724 3707
1585.84 -875.724 3707
-2944.85 -937.698 4010
-2978.45 -951.494 4069
-2968.72 -951.494 4069
-2958.99 -951.494 4069
-2949.26 -951.494 4069
-2953.98 -956.171 4089
-2944.2 -956.171 4089
-2934.42 -956.171 4089
-2924.64 -956.171 4089
-2914.86 -956.171 4089
-2905.09 -956.171 4089
-2881.15 -951.494 4069
-2864.36 -949.156 4059
-2854.65 -949.156 4059
-2844.95 -949.156 4059
-2835.24 -949.156 4059
-2818.57 -946.818 4049
-2788.77 -940.036 4020
-2779.16 -940.036 4020
-2756.46 -935.593 4001
-2713.93 -924.369 3953
-2704.48 -924.369 3953
-2701.85 -926.707 3963
-2692.37 -926.707 3963
-2682.89 -926.707 3963
-2686.23 -931.15 3982
-2676.71 -931.15 3982
-2667.19 -931.15 3982
-2626.3 -920.16 3935
-1394.06 -926.707 3963
-1384.58 -926.707 3963
-1375.1 -926.707 3963
-1365.63 -926.707 3963
-1356.15 -926.707 3963
-1346.67 -926.707 3963
-1343.61 -931.15 3982
-1334.09 -931.15 3982
-1324.56 -931.15 3982
-1311.74 -928.812 3972
-1293.06 -922.264 3944
-1286.56 -924.369 3953
-1289.38 -933.255 3991
-1285.93 -937.698 4010
-1276.34 -937.698 4010
-1269.91 -940.036 4020
-1263.43 -942.375 4030
-1253.8 -942.375 4030
-1244.16 -942.375 4030
-1231.46 -940.036 4020
-157.771 -530.115 2267
-152.35 -530.115 2267
-146.928 -530.115 2267
-141.32 -529.413 2264
-133.865 -521.463 2230
-128.533 -521.463 2230
-122.371 -517.955 2215
-116.81 -516.786 2210
-111.223 -515.383 2204
-105.087 -511.174 2186
-99.8596 -511.174 2186
-94.156 -508.602 2175
-88.7095 -507.199 2169
-83.2147 -505.328 2161
-78.0471 -505.328 2161
-72.4074 -502.054 2147
-67.1166 -500.885 2142
-61.676 -498.313 2131
-56.5802 -498.313 2131
-51.2185 -495.74 2120
-46.0184 -494.337 2114
-40.8081 -492.467 2106
-35.6871 -491.297 2101
-30.663 -491.297 2101
-25.5779 -490.128 2096
-20.4872 -488.258 2088
-15.457 -487.088 2083
-10.476 -487.088 2083
-5.48697 -486.387 2080
-0.511823 -485.218 2075
4.4437 -484.516 2072
9.39848 -484.516 2072
14.3533 -484.516 2072
19.308 -484.516 2072
24.2394 -484.048 2070
29.1894 -484.048 2070
34.1394 -484.048 2070
39.0327 -483.347 2067
43.8692 -482.178 2062
48.8001 -482.178 2062
53.5485 -480.541 2055
58.292 -479.138 2049
63.0375 -477.969 2044
67.9254 -477.969 2044
72.8132 -477.969 2044
77.4349 -476.332 2037
82.306 -476.332 2037
86.9631 -475.163 2032
91.8222 -475.163 2032
96.5862 -474.695 2030
101.191 -473.526 2025
105.771 -472.356 2020
110.602 -472.356 2020
115.146 -471.187 2015
119.786 -470.486 2012
124.35 -469.55 2008
129.152 -469.55 2008
133.953 -469.55 2008
138.755 -469.55 2008
143.342 -468.849 2005
148.137 -468.849 2005
152.931 -468.849 2005
157.569 -468.381 2003
162.115 -467.68 2000
166.898 -467.68 2000
171.68 -467.68 2000
176.287 -467.212 1998
181.064 -467.212 1998
185.656 -466.744 1996
190.429 -466.744 1996
195.202 -466.744 1996
199.975 -466.744 1996
204.954 -467.212 1998
209.731 -467.212 1998
214.509 -467.212 1998
219.287 -467.212 1998
223.504 -466.043 1993
228.27 -466.043 1993
233.036 -466.043 1993
237.563 -465.575 1991
508.8 -859.361 3675
518.715 -861.232 3683
527.522 -861.232 3683
536.329 -861.232 3683
551.205 -870.82 3724
562.516 -874.561 3740
571.46 -874.561 3740
580.403 -874.561 3740
589.347 -874.561 3740
598.29 -874.561 3740
608.695 -876.666 3749
617.66 -876.666 3749
629.466 -880.641 3766
638.472 -880.641 3766
647.478 -880.641 3766
656.483 -880.641 3766
665.489 -880.641 3766
674.495 -880.641 3766
683.5 -880.641 3766
690.851 -878.536 3757
699.835 -878.536 3757
702.593 -870.82 3724
714.555 -874.561 3740
725.24 -876.666 3749
734.205 -876.666 3749
743.17 -876.666 3749
748.724 -872.69 3732
757.649 -872.69 3732
763.286 -868.949 3716
770.302 -866.844 3707
784.422 -872.69 3732
796.96 -876.666 3749
805.925 -876.666 3749
818.585 -880.641 3766
831.326 -884.616 3783
846.148 -890.696 3809
855.257 -890.696 3809
868.223 -894.671 3826
887.692 -905.194 3871
899.034 -907.299 3880
908.312 -907.299 3880
917.59 -907.299 3880
984.548 -917.821 3925
993.934 -917.821 3925
1017.89 -931.15 3982
1027.41 -931.15 3982
1036.93 -931.15 3982
1046.46 -931.15 3982
1055.98 -931.15 3982
1331.86 -863.103 3691
1349.77 -868.949 3716
1358.65 -868.949 3716
1385.94 -880.641 3766
1407.54 -888.591 3800
1416.63 -888.591 3800
1425.71 -888.591 3800
1434.8 -888.591 3800
1418.05 -872.69 3732
1426.97 -872.69 3732
1426.28 -866.844 3707
1425.85 -861.232 3683
1437.78 -863.103 3691
1459.54 -870.82 3724
1468.44 -870.82 3724
1477.35 -870.82 3724
1486.25 -870.82 3724
1498.37 -872.69 3732
1521.03 -880.641 3766
1530.03 -880.641 3766
1539.04 -880.641 3766
1548.04 -880.641 3766
1557.05 -880.641 3766
1562.31 -878.536 3757
1560.84 -872.69 3732
1563.03 -868.949 3716
1571.92 -868.949 3716
1580.81 -868.949 3716
1589.69 -868.949 3716
-2973.49 -937.118 4049
-2978.45 -941.747 4069
-2983.31 -946.376 4089
-2973.53 -946.376 4089
-2963.75 -946.376 4089
-2893.48 -939.433 4059
-2883.77 -939.433 4059
-2874.07 -939.433 4059
-2864.36 -939.433 4059
-2861.69 -941.747 4069
-2851.96 -941.747 4069
-2842.23 -941.747 4069
-2825.53 -939.433 4059
-2788.77 -930.406 4020
-2779.16 -930.406 4020
-2756.46 -926.009 4001
-2713.93 -914.899 3953
-2704.48 -914.899 3953
-2701.85 -917.214 3963
-2692.37 -917.214 3963
-2682.89 -917.214 3963
-2686.23 -921.611 3982
-2676.71 -921.611 3982
-2667.19 -921.611 3982
-2626.3 -910.733 3935
-1413.45 -923.694 3991
-1403.91 -923.694 3991
-1394.36 -923.694 3991
-1384.82 -923.694 3991
-1365.63 -917.214 3963
-1356.15 -917.214 3963
-1346.67 -917.214 3963
-1343.61 -921.611 3982
-1334.09 -921.611 3982
-1324.56 -921.611 3982
-1311.74 -919.297 3972
-1296.01 -914.899 3953
-1286.56 -914.899 3953
-1289.38 -923.694 3991
-1285.93 -928.092 4010
-1276.34 -928.092 4010
-1269.91 -930.406 4020
-1263.43 -932.721 4030
-1265.93 -941.747 4069
-1256.2 -941.747 4069
-1249.53 -944.061 4079
-1239.78 -944.061 4079
-1230.03 -944.061 4079
-157.771 -524.684 2267
-152.35 -524.684 2267
-146.928 -524.684 2267
-140.883 -522.37 2257
-133.505 -514.732 2224
-128.187 -514.732 2224
-122.371 -512.649 2215
-116.652 -510.798 2207
-110.92 -508.715 2198
-104.991 -505.474 2184
-99.7682 -505.474 2184
-94.0261 -502.697 2172
-88.6277 -501.54 2167
-83.0992 -499.457 2158
-77.9388 -499.457 2158
-72.4074 -496.911 2147
-67.1166 -495.754 2142
-61.676 -493.208 2131
-56.5802 -493.208 2131
-51.2185 -490.662 2120
-46.0184 -489.273 2114
-40.8081 -487.422 2106
-35.6871 -486.265 2101
-30.663 -486.265 2101
-25.5779 -485.107 2096
-20.4872 -483.256 2088
-15.4719 -482.561 2085
-10.486 -482.561 2085
-5.49488 -482.099 2083
-0.512563 -480.941 2078
4.45013 -480.247 2075
9.41209 -480.247 2075
14.3533 -479.553 2072
19.308 -479.553 2072
24.2628 -479.553 2072
29.2176 -479.553 2072
34.1724 -479.553 2072
39.0327 -478.395 2067
43.8692 -477.238 2062
48.8001 -477.238 2062
53.5485 -475.618 2055
58.292 -474.229 2049
63.1301 -473.767 2047
67.9254 -473.072 2044
72.8132 -473.072 2044
77.5109 -471.915 2039
82.306 -471.452 2037
86.9631 -470.295 2032
91.8222 -470.295 2032
96.5862 -469.832 2030
101.191 -468.675 2025
105.771 -467.518 2020
110.602 -467.518 2020
115.261 -466.823 2017
119.786 -465.666 2012
124.474 -465.203 2010
129.28 -465.203 2010
133.953 -464.74 2008
138.755 -464.74 2008
143.342 -464.046 2005
148.137 -464.046 2005
152.779 -463.583 2003
157.569 -463.583 2003
162.358 -463.583 2003
166.898 -462.889 2000
171.68 -462.889 2000
176.287 -462.426 1998
181.064 -462.426 1998
185.656 -461.963 1996
190.429 -461.963 1996
195.202 -461.963 1996
200.176 -462.426 1998
204.954 -462.426 1998
209.731 -462.426 1998
214.509 -462.426 1998
219.287 -462.426 1998
223.504 -461.269 1993
228.27 -461.269 1993
233.036 -461.269 1993
237.563 -460.806 1991
511.015 -854.261 3691
519.841 -854.261 3691
530.959 -857.964 3707
539.824 -857.964 3707
554.905 -867.685 3749
563.87 -867.685 3749
572.835 -867.685 3749
581.8 -867.685 3749
590.765 -867.685 3749
601.01 -869.536 3757
609.994 -869.536 3757
618.978 -869.536 3757
630.804 -873.471 3774
639.828 -873.471 3774
648.853 -873.471 3774
657.878 -873.471 3774
668.493 -875.554 3783
677.539 -875.554 3783
686.586 -875.554 3783
695.632 -875.554 3783
704.678 -875.554 3783
708.819 -869.536 3757
716.275 -867.685 3749
726.787 -869.536 3757
735.772 -869.536 3757
744.756 -869.536 3757
747.119 -861.899 3724
756.025 -861.899 3724
759.795 -856.113 3699
763.653 -850.558 3675
786.103 -865.602 3740
796.96 -867.685 3749
805.925 -867.685 3749
824.236 -877.637 3792
833.304 -877.637 3792
849.925 -885.506 3826
859.074 -885.506 3826
872.308 -889.672 3844
889.756 -898.004 3880
903.205 -902.17 3898
912.526 -902.17 3898
921.847 -902.17 3898
998.846 -921.611 3982
1008.37 -921.611 3982
1017.89 -921.611 3982
1029.73 -923.694 3991
1049.43 -932.721 4030
1059.07 -932.721 4030
1068.71 -932.721 4030
1331.86 -854.261 3691
1349.77 -860.047 3716
1358.65 -860.047 3716
1392.2 -875.554 3783
1407.54 -879.488 3800
1416.63 -879.488 3800
1425.71 -879.488 3800
1434.8 -879.488 3800
1418.05 -863.75 3732
1426.97 -863.75 3732
1426.28 -857.964 3707
1425.85 -852.409 3683
1437.78 -854.261 3691
1459.54 -861.899 3724
1468.44 -861.899 3724
1480.52 -863.75 3732
1489.44 -863.75 3732
1508.41 -869.536 3757
1521.03 -871.619 3766
1530.03 -871.619 3766
1539.04 -871.619 3766
1548.04 -871.619 3766
1557.05 -871.619 3766
1566.05 -871.619 3766
1564.19 -865.602 3740
1566.4 -861.899 3724
1575.3 -861.899 3724
1580.81 -860.047 3716
1589.69 -860.047 3716
-2973.49 -927.419 4049
-2963.81 -927.419 4049
-2983.31 -936.581 4089
-2973.53 -936.581 4089
-2963.75 -936.581 4089
-2893.48 -929.709 4059
-2883.77 -929.709 4059
-2874.07 -929.709 4059
-2878.47 -934.29 4079
-2868.72 -934.29 4079
-2858.96 -934.29 4079
-2849.21 -934.29 4079
-2839.46 -934.29 4079
-2788.77 -920.776 4020
-2779.16 -920.776 4020
-2756.46 -916.424 4001
-2707.76 -903.369 3944
-2692.17 -901.307 3935
-2695.03 -905.43 3953
-2685.58 -905.43 3953
-2676.12 -905.43 3953
-2686.23 -912.072 3982
-2676.71 -912.072 3982
-2667.19 -912.072 3982
-2626.3 -901.307 3935
-1413.45 -914.134 3991
-1403.91 -914.134 3991
-1394.36 -914.134 3991
-1384.82 -914.134 3991
-1365.63 -907.72 3963
-1356.15 -907.72 3963
-1346.67 -907.72 3963
-1343.61 -912.072 3982
-1334.09 -912.072 3982
-1324.56 -912.072 3982
-1311.74 -909.782 3972
-1296.01 -905.43 3953
-1286.56 -905.43 3953
-1289.38 -914.134 3991
-1285.93 -918.486 4010
-1276.34 -918.486 4010
-1269.91 -920.776 4020
-1263.43 -923.067 4030
-1265.93 -932 4069
-1256.2 -932 4069
-1249.53 -934.29 4079
-1239.78 -934.29 4079
-1230.03 -934.29 4079
-157.771 -519.254 2267
-152.35 -519.254 2267
-146.928 -519.254 2267
-140.883 -516.963 2257
-133.505 -509.405 2224
-128.187 -509.405 2224
-122.537 -508.03 2218
-116.652 -505.511 2207
-110.92 -503.449 2198
-104.991 -500.243 2184
-99.7682 -500.243 2184
-94.0261 -497.494 2172
-88.6277 -496.349 2167
-83.2147 -494.974 2161
-78.0471 -494.974 2161
-72.4074 -491.768 2147
-67.1166 -490.623 2142
-61.7339 -488.561 2133
-56.6333 -488.561 2133
-51.2185 -485.583 2120
-46.0184 -484.209 2114
-40.8663 -483.064 2109
-35.7381 -481.919 2104
-30.7068 -481.919 2104
-25.6023 -480.544 2098
-20.5363 -479.399 2093
-15.4942 -478.254 2088
-10.5011 -478.254 2088
-5.49488 -477.109 2083
-0.512563 -475.963 2078
4.45013 -475.276 2075
9.41209 -475.276 2075
14.374 -475.276 2075
19.336 -475.276 2075
24.2628 -474.589 2072
29.2176 -474.589 2072
34.1724 -474.589 2072
39.0327 -473.444 2067
43.8692 -472.299 2062
48.8001 -472.299 2062
53.6788 -471.841 2060
58.3773 -470.008 2052
63.1301 -468.863 2047
67.9254 -468.176 2044
72.8132 -468.176 2044
77.625 -467.718 2042
82.3868 -467.031 2039
86.9631 -465.427 2032
91.8222 -465.427 2032
96.6813 -465.427 2032
101.191 -463.824 2025
105.876 -463.137 2022
110.711 -463.137 2022
115.261 -461.991 2017
119.786 -460.846 2012
124.474 -460.388 2010
129.28 -460.388 2010
133.953 -459.93 2008
138.755 -459.93 2008
143.342 -459.243 2005
148.137 -459.243 2005
152.931 -459.243 2005
157.726 -459.243 2005
162.521 -459.243 2005
166.898 -458.098 2000
171.68 -458.098 2000
176.463 -458.098 2000
181.064 -457.64 1998
185.656 -457.181 1996
190.62 -457.64 1998
195.398 -457.64 1998
200.176 -457.64 1998
204.954 -457.64 1998
209.731 -457.64 1998
214.509 -457.64 1998
219.287 -457.64 1998
224.065 -457.64 1998
228.843 -457.64 1998
233.036 -456.494 1993
237.563 -456.036 1991
498.843 -854.81 3732
507.767 -854.81 3732
516.691 -854.81 3732
522.095 -849.084 3707
532.248 -851.145 3716
541.134 -851.145 3716
554.905 -858.704 3749
567.63 -864.43 3774
576.655 -864.43 3774
585.68 -864.43 3774
593.444 -862.598 3766
601.01 -860.536 3757
609.994 -860.536 3757
618.978 -860.536 3757
630.804 -864.43 3774
639.828 -864.43 3774
648.853 -864.43 3774
657.878 -864.43 3774
668.493 -866.492 3783
679.151 -868.553 3792
688.219 -868.553 3792
697.287 -868.553 3792
706.355 -868.553 3792
713.725 -866.492 3783
721.051 -864.43 3774
730.076 -864.43 3774
739.101 -864.43 3774
748.126 -864.43 3774
753.74 -860.536 3757
762.724 -860.536 3757
763.286 -851.145 3716
768.64 -847.252 3699
787.995 -858.704 3749
806.101 -868.553 3792
815.169 -868.553 3792
829.888 -874.508 3818
839.018 -874.508 3818
849.925 -876.341 3826
859.074 -876.341 3826
872.308 -880.464 3844
893.883 -892.832 3898
909.461 -899.017 3925
918.847 -899.017 3925
928.232 -899.017 3925
937.618 -899.017 3925
951.588 -903.369 3944
961.02 -903.369 3944
970.451 -903.369 3944
979.882 -903.369 3944
998.846 -912.072 3982
1008.37 -912.072 3982
1017.89 -912.072 3982
1029.73 -914.134 3991
1049.43 -923.067 4030
1059.07 -923.067 4030
1068.71 -923.067 4030
1057.74 -905.43 3953
1047.49 -888.709 3880
1056.76 -888.709 3880
1340.88 -851.145 3716
1374.1 -866.492 3783
1383.15 -866.492 3783
1398.45 -870.385 3800
1410.87 -872.447 3809
1419.98 -872.447 3809
1429.09 -872.447 3809
1434.8 -870.385 3800
1418.05 -854.81 3732
1426.97 -854.81 3732
1426.28 -849.084 3707
1425.85 -843.587 3683
1437.78 -845.419 3691
1459.54 -852.978 3724
1468.44 -852.978 3724
1487.26 -858.704 3749
1499.42 -860.536 3757
1512.02 -862.598 3766
1524.26 -864.43 3774
1533.28 -864.43 3774
1545.98 -866.492 3783
1555.03 -866.492 3783
1564.08 -866.492 3783
1569.38 -864.43 3774
1567.95 -858.704 3749
1566.4 -852.978 3724
1575.3 -852.978 3724
1580.81 -851.145 3716
1589.69 -851.145 3716
-2973.49 -917.719 4049
-2963.81 -917.719 4049
-2983.31 -926.785 4089
-2973.53 -926.785 4089
-2963.75 -926.785 4089
-2907.74 -924.519 4079
-2897.98 -924.519 4079
-2888.23 -924.519 4079
-2878.47 -924.519 4079
-2868.72 -924.519 4079
-2858.96 -924.519 4079
-2849.21 -924.519 4079
-2839.46 -924.519 4079
-2788.77 -911.146 4020
-2779.16 -911.146 4020
-2756.46 -906.84 4001
-2707.76 -893.921 3944
-2692.17 -891.881 3935
-2695.03 -895.961 3953
-2685.58 -895.961 3953
-2676.12 -895.961 3953
-2686.23 -902.534 3982
-2676.71 -902.534 3982
-2667.19 -902.534 3982
-2626.3 -891.881 3935
-1413.45 -904.573 3991
-1403.91 -904.573 3991
-1394.36 -904.573 3991
-1384.82 -904.573 3991
-1365.63 -898.227 3963
-1356.15 -898.227 3963
-1346.67 -898.227 3963
-1343.61 -902.534 3982
-1334.09 -902.534 3982
-1324.56 -902.534 3982
-1311.74 -900.267 3972
-1296.01 -895.961 3953
-1283.63 -893.921 3944
-1289.38 -904.573 3991
-1283.05 -906.84 4001
-1273.48 -906.84 4001
-1266.75 -908.88 4010
-1263.43 -913.413 4030
-1265.93 -922.252 4069
-1256.2 -922.252 4069
-1249.53 -924.519 4079
-1239.78 -924.519 4079
-1230.03 -924.519 4079
-157.075 -511.557 2257
-151.678 -511.557 2257
-146.28 -511.557 2257
-140.509 -510.197 2251
-133.325 -503.397 2221
-127.841 -502.717 2218
-122.537 -502.717 2218
-116.652 -500.224 2207
-110.92 -498.184 2198
-104.991 -495.011 2184
-99.7682 -495.011 2184
-94.0261 -492.291 2172
-88.6277 -491.158 2167
-83.2147 -489.798 2161
-78.0471 -489.798 2161
-72.4074 -486.625 2147
-67.1166 -485.491 2142
-61.7339 -483.452 2133
-56.6333 -483.452 2133
-51.2185 -480.505 2120
-46.0184 -479.145 2114
-40.8663 -478.012 2109
-35.7381 -476.879 2104
-30.7068 -476.879 2104
-25.6023 -475.519 2098
-20.5363 -474.385 2093
-15.4942 -473.252 2088
-10.5011 -473.252 2088
-5.49488 -472.119 2083
-0.512563 -470.986 2078
4.45013 -470.306 2075
9.41209 -470.306 2075
14.374 -470.306 2075
19.336 -470.306 2075
24.2628 -469.626 2072
29.2176 -469.626 2072
34.1724 -469.626 2072
39.0327 -468.492 2067
43.8692 -467.359 2062
48.8001 -467.359 2062
53.6788 -466.906 2060
58.3773 -465.093 2052
63.1301 -463.959 2047
67.9254 -463.279 2044
72.8132 -463.279 2044
77.625 -462.826 2042
82.3868 -462.146 2039
86.9631 -460.56 2032
91.8222 -460.56 2032
96.6813 -460.56 2032
101.191 -458.973 2025
105.876 -458.293 2022
110.711 -458.293 2022
115.261 -457.16 2017
119.786 -456.026 2012
124.474 -455.573 2010
129.28 -455.573 2010
133.953 -455.12 2008
138.548 -454.44 2005
143.342 -454.44 2005
148.137 -454.44 2005
152.931 -454.44 2005
157.726 -454.44 2005
162.521 -454.44 2005
166.898 -453.307 2000
171.68 -453.307 2000
176.463 -453.307 2000
181.064 -452.853 1998
185.656 -452.4 1996
190.62 -452.853 1998
195.398 -452.853 1998
200.176 -452.853 1998
204.954 -452.853 1998
209.731 -452.853 1998
214.509 -452.853 1998
219.287 -452.853 1998
224.065 -452.853 1998
228.843 -452.853 1998
233.036 -451.72 1993
237.563 -451.267 1991
498.843 -845.87 3732
507.767 -845.87 3732
516.691 -845.87 3732
522.095 -840.204 3707
532.248 -842.244 3716
541.134 -842.244 3716
554.905 -849.723 3749
567.63 -855.39 3774
576.655 -855.39 3774
585.68 -855.39 3774
593.444 -853.576 3766
601.01 -851.536 3757
609.994 -851.536 3757
618.978 -851.536 3757
630.804 -855.39 3774
639.828 -855.39 3774
648.853 -855.39 3774
657.878 -855.39 3774
668.493 -857.43 3783
679.151 -859.469 3792
688.219 -859.469 3792
697.287 -859.469 3792
706.355 -859.469 3792
713.725 -857.43 3783
721.051 -855.39 3774
730.076 -855.39 3774
739.101 -855.39 3774
748.126 -855.39 3774
753.74 -851.536 3757
762.724 -851.536 3757
763.286 -842.244 3716
768.64 -838.391 3699
787.995 -849.723 3749
806.101 -859.469 3792
815.169 -859.469 3792
829.888 -865.362 3818
839.018 -865.362 3818
849.925 -867.176 3826
859.074 -867.176 3826
872.308 -871.255 3844
893.883 -883.495 3898
909.461 -889.614 3925
918.847 -889.614 3925
928.232 -889.614 3925
937.618 -889.614 3925
951.588 -893.921 3944
961.02 -893.921 3944
970.451 -893.921 3944
979.882 -893.921 3944
998.846 -902.534 3982
1008.37 -902.534 3982
1017.89 -902.534 3982
1029.73 -904.573 3991
1049.43 -913.413 4030
1059.07 -913.413 4030
1068.71 -913.413 4030
1057.74 -895.961 3953
1047.49 -879.415 3880
1056.76 -879.415 3880
1340.88 -842.244 3716
1374.1 -857.43 3783
1383.15 -857.43 3783
1398.45 -861.283 3800
1410.87 -863.322 3809
1419.98 -863.322 3809
1429.09 -863.322 3809
1431.78 -859.469 3792
1415.01 -844.057 3724
1423.92 -844.057 3724
1423.2 -838.391 3699
1425.85 -834.764 3683
1437.78 -836.577 3691
1459.54 -844.057 3724
1468.44 -844.057 3724
1487.26 -849.723 3749
1499.42 -851.536 3757
1512.02 -853.576 3766
1524.26 -855.39 3774
1533.28 -855.39 3774
1545.98 -857.43 3783
1555.03 -857.43 3783
1564.08 -857.43 3783
1569.38 -855.39 3774
1567.95 -849.723 3749
1566.4 -844.057 3724
1575.3 -844.057 3724
1580.81 -842.244 3716
1589.69 -842.244 3716
-2983.31 -916.99 4089
-2973.53 -916.99 4089
-2963.75 -916.99 4089
-2907.74 -914.748 4079
-2897.98 -914.748 4079
-2888.23 -914.748 4079
-2878.47 -914.748 4079
-2868.72 -914.748 4079
-2858.96 -914.748 4079
-2849.21 -914.748 4079
-2839.46 -914.748 4079
-2788.77 -901.516 4020
-2779.16 -901.516 4020
-2756.46 -897.255 4001
-2707.76 -884.473 3944
-2685.33 -880.212 3925
-2688.89 -884.473 3944
-2679.46 -884.473 3944
-2670.03 -884.473 3944
-2666.67 -886.491 3953
-2657.22 -886.491 3953
-2647.76 -886.491 3953
-2619.62 -880.212 3925
-1410.26 -892.995 3982
-1400.74 -892.995 3982
-1391.22 -892.995 3982
-1378.23 -890.752 3972
-1355.98 -882.454 3935
-1346.57 -882.454 3935
-1337.16 -882.454 3935
-1333.82 -886.491 3953
-1324.37 -886.491 3953
-1314.92 -886.491 3953
-1296.22 -880.212 3925
-1277.98 -874.157 3898
-1271.59 -876.175 3907
-1274.2 -884.473 3944
-1279.84 -895.013 3991
-1270.3 -895.013 3991
-1260.75 -895.013 3991
-1257.16 -899.274 4010
-1256.6 -905.777 4039
-1246.94 -905.777 4039
-1246.47 -912.505 4069
-1236.74 -912.505 4069
-1227.01 -912.505 4069
-161.824 -504.132 2248
-156.448 -504.132 2248
-151.073 -504.132 2248
-145.697 -504.132 2248
-140.321 -504.132 2248
-133.325 -498.077 2221
-127.841 -497.404 2218
-122.537 -497.404 2218
-116.493 -494.264 2204
-110.92 -492.919 2198
-104.991 -489.779 2184
-99.7682 -489.779 2184
-94.0261 -487.088 2172
-88.6277 -485.967 2167
-83.2147 -484.621 2161
-78.0471 -484.621 2161
-72.4074 -481.482 2147
-67.1166 -480.36 2142
-61.8208 -479.015 2136
-56.7129 -479.015 2136
-51.2669 -475.875 2122
-46.149 -475.427 2120
-40.9632 -474.081 2114
-35.823 -472.96 2109
-30.7798 -472.96 2109
-25.6389 -471.166 2101
-20.5657 -470.044 2096
-15.5164 -468.923 2091
-10.5162 -468.923 2091
-5.50016 -467.578 2085
-0.512563 -466.008 2078
4.45657 -466.008 2078
9.42569 -466.008 2078
14.3948 -466.008 2078
19.3639 -466.008 2078
24.2979 -465.335 2075
29.2599 -465.335 2075
34.2219 -465.335 2075
39.1272 -464.662 2072
43.9756 -463.541 2067
48.9184 -463.541 2067
53.7309 -462.42 2062
58.5195 -461.298 2057
63.2843 -460.177 2052
68.025 -459.056 2047
72.92 -459.056 2047
77.701 -458.383 2044
82.3868 -457.262 2039
87.1771 -456.813 2037
92.0482 -456.813 2037
96.6813 -455.692 2032
101.291 -454.571 2027
105.876 -453.449 2022
110.711 -453.449 2022
115.432 -453.001 2020
119.965 -451.879 2015
124.598 -451.207 2012
129.409 -451.207 2012
133.953 -450.31 2008
138.548 -449.637 2005
143.342 -449.637 2005
148.137 -449.637 2005
152.931 -449.637 2005
157.726 -449.637 2005
162.521 -449.637 2005
167.315 -449.637 2005
172.11 -449.637 2005
176.463 -448.516 2000
181.246 -448.516 2000
185.842 -448.067 1998
190.62 -448.067 1998
195.398 -448.067 1998
200.176 -448.067 1998
205.159 -448.516 2000
210.256 -449.188 2003
215.046 -449.188 2003
219.836 -449.188 2003
224.626 -449.188 2003
229.415 -449.188 2003
234.205 -449.188 2003
238.995 -449.188 2003
492.15 -840.742 3749
501.115 -840.742 3749
510.08 -840.742 3749
516.691 -836.93 3732
523.362 -833.342 3716
533.394 -835.136 3724
542.299 -835.136 3724
557.421 -844.555 3766
567.63 -846.349 3774
576.655 -846.349 3774
585.68 -846.349 3774
593.444 -844.555 3766
601.01 -842.537 3757
609.994 -842.537 3757
618.978 -842.537 3757
630.804 -846.349 3774
639.828 -846.349 3774
648.853 -846.349 3774
657.878 -846.349 3774
668.493 -848.367 3783
679.151 -850.386 3792
689.671 -852.18 3800
698.758 -852.18 3800
707.845 -852.18 3800
715.423 -850.386 3792
724.49 -850.386 3792
735.106 -852.18 3800
744.193 -852.18 3800
753.28 -852.18 3800
760.762 -850.386 3792
769.829 -850.386 3792
771.708 -842.537 3757
775.497 -836.93 3732
802.498 -856.216 3818
817.155 -862.047 3844
826.347 -862.047 3844
839.452 -866.084 3862
848.687 -866.084 3862
857.922 -866.084 3862
863.116 -862.047 3844
880.477 -870.12 3880
904.432 -884.473 3944
913.863 -884.473 3944
923.294 -884.473 3944
932.726 -884.473 3944
940.007 -882.454 3935
953.76 -886.491 3953
963.213 -886.491 3953
972.666 -886.491 3953
979.882 -884.473 3944
989.314 -884.473 3944
998.745 -884.473 3944
1017.89 -892.995 3982
1032.31 -897.255 4001
1041.88 -897.255 4001
1051.45 -897.255 4001
1061.02 -897.255 4001
1057.74 -886.491 3953
1059.63 -880.212 3925
1069.02 -880.212 3925
1066.04 -870.12 3880
1075.32 -870.12 3880
1332 -833.342 3716
1361.81 -846.349 3774
1383.55 -854.198 3809
1392.66 -854.198 3809
1414.65 -862.047 3844
1423.84 -862.047 3844
1433.03 -862.047 3844
1429.09 -854.198 3809
1431.78 -850.386 3792
1415.01 -835.136 3724
1423.92 -835.136 3724
1423.2 -829.53 3699
1425.85 -825.941 3683
1434.66 -825.941 3683
1459.54 -835.136 3724
1468.44 -835.136 3724
1490.44 -842.537 3757
1499.42 -842.537 3757
1512.02 -844.555 3766
1524.26 -846.349 3774
1533.28 -846.349 3774
1545.98 -848.367 3783
1555.03 -848.367 3783
1564.08 -848.367 3783
1569.38 -846.349 3774
1567.95 -840.742 3749
1566.4 -835.136 3724
1575.3 -835.136 3724
1580.81 -833.342 3716
1589.69 -833.342 3716
-2907.74 -904.976 4079
-2897.98 -904.976 4079
-2888.23 -904.976 4079
-2878.47 -904.976 4079
-2868.72 -904.976 4079
-2858.96 -904.976 4079
-2849.21 -904.976 4079
-2832.5 -902.758 4069
-2781.84 -889.668 4010
-2772.25 -889.668 4010
-2756.46 -887.671 4001
-2707.76 -875.025 3944
-2692.17 -873.028 3935
-2682.76 -873.028 3935
-2666.55 -870.81 3925
-2657.17 -870.81 3925
-2660.6 -875.025 3944
-2651.17 -875.025 3944
-2641.74 -875.025 3944
-2589.59 -860.826 3880
-1410.26 -883.456 3982
-1400.74 -883.456 3982
-1391.22 -883.456 3982
-1378.23 -881.237 3972
-1346.33 -866.816 3907
-1336.99 -866.816 3907
-1315.41 -858.829 3871
-1309.19 -860.826 3880
-1302.93 -862.822 3889
-1293.63 -862.822 3889
-1284.33 -862.822 3889
-1272.08 -860.826 3880
-1262.8 -860.826 3880
-1268.06 -870.81 3925
-1279.84 -885.452 3991
-1270.3 -885.452 3991
-1260.75 -885.452 3991
-1257.16 -889.668 4010
-1250.69 -891.886 4020
-1241.07 -891.886 4020
-1237.28 -896.102 4039
-1227.62 -896.102 4039
-1217.96 -896.102 4039
-161.824 -498.746 2248
-156.448 -498.746 2248
-151.073 -498.746 2248
-145.697 -498.746 2248
-140.134 -498.081 2245
-133.325 -492.756 2221
-127.841 -492.091 2218
-122.537 -492.091 2218
-116.493 -488.984 2204
-110.92 -487.653 2198
-105.087 -484.991 2186
-99.8596 -484.991 2186
-94.2859 -483.216 2178
-88.8322 -481.885 2172
-83.3303 -480.11 2164
-78.1555 -480.11 2164
-72.6097 -477.67 2153
-67.2732 -476.338 2147
-61.9076 -474.563 2139
-56.7926 -474.563 2139
-51.3393 -471.457 2125
-46.1925 -470.792 2122
-40.9632 -469.017 2114
-35.823 -467.908 2109
-30.7798 -467.908 2109
-25.6389 -466.133 2101
-20.5657 -465.023 2096
-15.5313 -464.358 2093
-10.5263 -464.358 2093
-5.51598 -463.914 2091
-0.513796 -462.139 2083
4.46085 -461.474 2080
9.43476 -461.474 2080
14.4087 -461.474 2080
19.3826 -461.474 2080
24.3331 -461.03 2078
29.3022 -461.03 2078
34.2713 -461.03 2078
39.1838 -460.364 2075
44.0819 -459.699 2072
49.0367 -459.699 2072
53.8091 -458.146 2065
58.6049 -457.036 2060
63.3768 -455.927 2055
68.0915 -454.596 2049
72.9913 -454.596 2049
77.815 -454.152 2047
82.5888 -453.487 2044
87.2627 -452.377 2039
92.1385 -452.377 2039
96.7765 -451.268 2034
101.441 -450.38 2030
106.033 -449.271 2025
110.875 -449.271 2025
115.546 -448.606 2022
120.084 -447.496 2017
124.783 -447.053 2015
129.602 -447.053 2015
134.087 -445.943 2010
138.755 -445.499 2008
143.342 -444.834 2005
148.137 -444.834 2005
152.931 -444.834 2005
157.726 -444.834 2005
162.521 -444.834 2005
167.315 -444.834 2005
172.11 -444.834 2005
176.728 -444.39 2003
181.246 -443.725 2000
185.842 -443.281 1998
190.62 -443.281 1998
195.398 -443.281 1998
200.376 -443.725 2000
205.466 -444.39 2003
210.466 -444.834 2005
215.261 -444.834 2005
220.055 -444.834 2005
224.85 -444.834 2005
229.644 -444.834 2005
234.439 -444.834 2005
238.995 -444.39 2003
482.025 -829.765 3740
492.15 -831.762 3749
501.115 -831.762 3749
510.08 -831.762 3749
519.045 -831.762 3749
524.489 -826.215 3724
533.394 -826.215 3724
542.299 -826.215 3724
557.421 -835.533 3766
567.63 -837.308 3774
576.655 -837.308 3774
585.68 -837.308 3774
593.444 -835.533 3766
601.01 -833.537 3757
609.994 -833.537 3757
618.978 -833.537 3757
630.804 -837.308 3774
639.828 -837.308 3774
648.853 -837.308 3774
657.878 -837.308 3774
666.903 -837.308 3774
679.151 -841.302 3792
689.671 -843.077 3800
698.758 -843.077 3800
707.845 -843.077 3800
716.932 -843.077 3800
729.458 -847.07 3818
738.588 -847.07 3818
747.718 -847.07 3818
756.848 -847.07 3818
762.367 -843.077 3800
771.454 -843.077 3800
777.049 -839.305 3783
779.03 -831.762 3749
807.963 -852.839 3844
820.981 -856.832 3862
830.217 -856.832 3862
849.233 -866.816 3907
858.576 -866.816 3907
867.919 -866.816 3907
877.261 -866.816 3907
895.001 -875.025 3944
906.496 -877.022 3953
918.266 -879.24 3963
927.742 -879.24 3963
937.219 -879.24 3963
946.696 -879.24 3963
956.173 -879.24 3963
965.649 -879.24 3963
975.126 -879.24 3963
984.603 -879.24 3963
994.08 -879.24 3963
1001.02 -877.022 3953
1025.05 -889.668 4010
1039.8 -894.105 4030
1049.43 -894.105 4030
1059.07 -894.105 4030
1068.71 -894.105 4030
1070.58 -887.671 4001
1069.89 -879.24 3963
1081.82 -881.237 3972
1091.32 -881.237 3972
1100.82 -881.237 3972
1107.8 -879.24 3963
1117.28 -879.24 3963
1334.86 -826.215 3724
1365.06 -839.305 3783
1386.82 -847.07 3818
1395.95 -847.07 3818
1414.65 -852.839 3844
1423.84 -852.839 3844
1433.03 -852.839 3844
1429.09 -845.073 3809
1434.8 -843.077 3800
1415.01 -826.215 3724
1423.92 -826.215 3724
1423.2 -820.669 3699
1425.85 -817.119 3683
1431.54 -815.344 3675
1456.4 -824.44 3716
1465.29 -824.44 3716
1490.44 -833.537 3757
1499.42 -833.537 3757
1512.02 -835.533 3766
1524.26 -837.308 3774
1533.28 -837.308 3774
1545.98 -839.305 3783
1555.03 -839.305 3783
1564.08 -839.305 3783
1566.05 -835.533 3766
1564.19 -829.765 3740
1566.4 -826.215 3724
1575.3 -826.215 3724
1580.81 -824.44 3716
1589.69 -824.44 3716
-2914.86 -897.4 4089
-2905.09 -897.4 4089
-2895.31 -897.4 4089
-2878.47 -895.205 4079
-2868.72 -895.205 4079
-2858.96 -895.205 4079
-2849.21 -895.205 4079
-2825.53 -890.816 4059
-2781.84 -880.062 4010
-2772.25 -880.062 4010
-2756.46 -878.087 4001
-2707.76 -865.577 3944
-2692.17 -863.602 3935
-2682.76 -863.602 3935
-2673.35 -863.602 3935
-2663.94 -863.602 3935
-2660.6 -865.577 3944
-2657.22 -867.552 3953
-2647.76 -867.552 3953
-2644.99 -869.747 3963
-2635.51 -869.747 3963
-2626.03 -869.747 3963
-1410.26 -873.917 3982
-1400.74 -873.917 3982
-1391.22 -873.917 3982
-1378.23 -871.722 3972
-1346.33 -857.457 3907
-1336.99 -857.457 3907
-1315.41 -849.556 3871
-1309.19 -851.531 3880
-1302.93 -853.506 3889
-1293.63 -853.506 3889
-1284.33 -853.506 3889
-1272.08 -851.531 3880
-1262.8 -851.531 3880
-1268.06 -861.407 3925
-1279.84 -875.892 3991
-1270.3 -875.892 3991
-1260.75 -875.892 3991
-1257.16 -880.062 4010
-1250.69 -882.256 4020
-1241.07 -882.256 4020
-1237.28 -886.426 4039
-1227.62 -886.426 4039
-1217.96 -886.426 4039
-161.824 -493.361 2248
-156.448 -493.361 2248
-151.073 -493.361 2248
-145.697 -493.361 2248
-140.134 -492.703 2245
-133.325 -487.436 2221
-128.014 -487.436 2221
-122.537 -486.777 2218
-116.493 -483.705 2204
-110.92 -482.388 2198
-105.375 -481.071 2192
-100.134 -481.071 2192
-94.4157 -478.657 2181
-88.9549 -477.34 2175
-83.3303 -474.926 2164
-78.1555 -474.926 2164
-72.6097 -472.512 2153
-67.3672 -471.854 2150
-61.9944 -470.098 2142
-56.8722 -470.098 2142
-51.4118 -467.025 2128
-46.1925 -465.709 2122
-40.9632 -463.953 2114
-35.823 -462.855 2109
-30.7798 -462.855 2109
-25.6389 -461.1 2101
-20.5657 -460.002 2096
-15.5313 -459.344 2093
-10.5263 -459.344 2093
-5.51598 -458.905 2091
-0.513796 -457.149 2083
4.46729 -457.149 2083
9.44837 -457.149 2083
14.4295 -457.149 2083
19.4105 -457.149 2083
24.3565 -456.491 2080
29.3304 -456.491 2080
34.3043 -456.491 2080
39.2405 -456.052 2078
44.1458 -455.394 2075
49.1077 -455.394 2075
53.8612 -453.638 2067
58.7471 -453.199 2065
63.4385 -451.443 2057
68.3574 -451.443 2057
73.0982 -450.346 2052
77.8911 -449.687 2049
82.71 -449.249 2047
87.3911 -448.151 2042
92.2741 -448.151 2042
96.9192 -447.054 2037
101.54 -445.957 2032
106.138 -444.859 2027
110.985 -444.859 2027
115.718 -444.42 2025
120.084 -442.664 2017
124.783 -442.226 2015
129.602 -442.226 2015
134.087 -441.128 2010
138.755 -440.689 2008
143.557 -440.689 2008
148.359 -440.689 2008
153.16 -440.689 2008
157.962 -440.689 2008
162.764 -440.689 2008
167.565 -440.689 2008
172.11 -440.031 2005
176.728 -439.592 2003
181.246 -438.934 2000
185.842 -438.495 1998
190.811 -438.934 2000
195.594 -438.934 2000
200.376 -438.934 2000
205.466 -439.592 2003
210.466 -440.031 2005
215.261 -440.031 2005
220.055 -440.031 2005
224.85 -440.031 2005
229.644 -440.031 2005
234.439 -440.031 2005
238.995 -439.592 2003
464.138 -820.806 3740
473.082 -820.806 3740
484.216 -824.537 3757
494.382 -826.512 3766
503.387 -826.512 3766
512.393 -826.512 3766
520.153 -824.537 3757
525.616 -819.05 3732
534.54 -819.05 3732
543.464 -819.05 3732
557.421 -826.512 3766
567.63 -828.268 3774
576.655 -828.268 3774
585.68 -828.268 3774
593.444 -826.512 3766
601.01 -824.537 3757
609.994 -824.537 3757
618.978 -824.537 3757
630.804 -828.268 3774
639.828 -828.268 3774
648.853 -828.268 3774
657.878 -828.268 3774
666.903 -828.268 3774
679.151 -832.218 3792
689.671 -833.974 3800
698.758 -833.974 3800
707.845 -833.974 3800
716.932 -833.974 3800
729.458 -837.924 3818
738.588 -837.924 3818
747.718 -837.924 3818
756.848 -837.924 3818
765.978 -837.924 3818
775.108 -837.924 3818
780.541 -833.974 3800
789.628 -833.974 3800
807.963 -843.63 3844
822.895 -849.556 3871
832.151 -849.556 3871
849.233 -857.457 3907
858.576 -857.457 3907
869.918 -859.432 3916
879.282 -859.432 3916
895.001 -865.577 3944
910.853 -871.722 3972
924.754 -875.892 3991
934.297 -875.892 3991
943.841 -875.892 3991
953.385 -875.892 3991
962.928 -875.892 3991
970.279 -873.917 3982
989.151 -882.256 4020
998.764 -882.256 4020
1008.38 -882.256 4020
1015.46 -880.062 4010
1030.16 -884.451 4030
1042.12 -886.426 4039
1059.59 -893.01 4069
1069.32 -893.01 4069
1079.05 -893.01 4069
1083.43 -888.621 4049
1093.11 -888.621 4049
1105.52 -890.816 4059
1115.22 -890.816 4059
1124.93 -890.816 4059
1110.32 -871.722 3972
1119.81 -871.722 3972
1129.31 -871.722 3972
1334.86 -817.294 3724
1365.06 -830.243 3783
1386.82 -837.924 3818
1395.95 -837.924 3818
1414.65 -843.63 3844
1423.84 -843.63 3844
1433.03 -843.63 3844
1429.09 -835.949 3809
1434.8 -833.974 3800
1415.01 -817.294 3724
1423.92 -817.294 3724
1423.2 -811.808 3699
1425.85 -808.296 3683
1431.54 -806.54 3675
1456.4 -815.539 3716
1465.29 -815.539 3716
1490.44 -824.537 3757
1499.42 -824.537 3757
1512.02 -826.512 3766
1524.26 -828.268 3774
1533.28 -828.268 3774
1545.98 -830.243 3783
1555.03 -830.243 3783
1564.08 -830.243 3783
1566.05 -826.512 3766
1564.19 -820.806 3740
1573.13 -820.806 3740
1582.07 -820.806 3740
1584.21 -817.294 3724
1589.69 -815.539 3716
1591.27 -811.808 3699
1600.11 -811.808 3699
-2914.86 -887.604 4089
-2905.09 -887.604 4089
-2895.31 -887.604 4089
-2878.47 -885.434 4079
-2868.72 -885.434 4079
-2858.96 -885.434 4079
-2849.21 -885.434 4079
-2825.53 -881.092 4059
-2781.84 -870.456 4010
-2772.25 -870.456 4010
-2756.46 -868.502 4001
-2726.98 -862.207 3972
-2698.32 -856.129 3944
-2695.03 -858.083 3953
-2685.58 -858.083 3953
-2676.12 -858.083 3953
-2666.67 -858.083 3953
-2657.22 -858.083 3953
-2647.76 -858.083 3953
-2650.99 -862.207 3972
-2641.49 -862.207 3972
-2632 -862.207 3972
-2609.95 -858.083 3953
-1410.26 -864.378 3982
-1400.74 -864.378 3982
-1391.22 -864.378 3982
-1378.23 -862.207 3972
-1324.62 -834.422 3844
-1315.43 -834.422 3844
-1309.29 -836.376 3853
-1300.08 -836.376 3853
-1290.87 -836.376 3853
-1284.65 -838.329 3862
-1278.38 -840.283 3871
-1269.13 -840.283 3871
-1259.87 -840.283 3871
-1262.24 -848.097 3907
-1258.67 -852.005 3925
-1249.29 -852.005 3925
-1260.75 -866.331 3991
-1251.21 -866.331 3991
-1241.66 -866.331 3991
-1232.12 -866.331 3991
-1222.58 -866.331 3991
-161.608 -487.325 2245
-156.24 -487.325 2245
-150.871 -487.325 2245
-145.503 -487.325 2245
-139.572 -485.371 2236
-133.325 -482.115 2221
-128.014 -482.115 2221
-122.261 -480.379 2213
-116.335 -477.774 2201
-110.769 -476.471 2195
-105.375 -475.82 2192
-100.134 -475.82 2192
-94.4157 -473.432 2181
-88.9549 -472.13 2175
-83.3303 -469.742 2164
-78.1555 -469.742 2164
-72.6097 -467.354 2153
-67.3672 -466.703 2150
-61.9944 -464.967 2142
-56.8722 -464.967 2142
-51.4118 -461.928 2128
-46.1925 -460.625 2122
-40.9632 -458.889 2114
-35.823 -457.803 2109
-30.7798 -457.803 2109
-25.6389 -456.067 2101
-20.5657 -454.981 2096
-15.5313 -454.33 2093
-10.5263 -454.33 2093
-5.51598 -453.896 2091
-0.513796 -452.159 2083
4.46729 -452.159 2083
9.44837 -452.159 2083
14.4295 -452.159 2083
19.4105 -452.159 2083
24.3565 -451.508 2080
29.3304 -451.508 2080
34.3043 -451.508 2080
39.2405 -451.074 2078
44.1458 -450.423 2075
49.1077 -450.423 2075
53.8612 -448.686 2067
58.7471 -448.252 2065
63.4385 -446.516 2057
68.3574 -446.516 2057
73.0982 -445.43 2052
77.8911 -444.779 2049
82.71 -444.345 2047
87.3911 -443.26 2042
92.2741 -443.26 2042
96.9192 -442.174 2037
101.54 -441.089 2032
106.138 -440.003 2027
110.985 -440.003 2027
115.718 -439.569 2025
120.084 -437.833 2017
124.783 -437.399 2015
129.602 -437.399 2015
134.087 -436.313 2010
138.755 -435.879 2008
143.557 -435.879 2008
148.359 -435.879 2008
153.16 -435.879 2008
157.962 -435.879 2008
162.764 -435.879 2008
167.565 -435.879 2008
172.11 -435.228 2005
176.728 -434.794 2003
181.246 -434.143 2000
185.842 -433.708 1998
190.811 -434.143 2000
195.594 -434.143 2000
200.376 -434.143 2000
205.466 -434.794 2003
210.466 -435.228 2005
215.261 -435.228 2005
220.055 -435.228 2005
224.85 -435.228 2005
229.644 -435.228 2005
234.439 -435.228 2005
238.995 -434.794 2003
464.138 -811.847 3740
473.082 -811.847 3740
484.216 -815.537 3757
494.382 -817.49 3766
503.387 -817.49 3766
512.393 -817.49 3766
520.153 -815.537 3757
525.616 -810.11 3732
534.54 -810.11 3732
543.464 -810.11 3732
554.905 -813.8 3749
566.427 -817.49 3766
575.432 -817.49 3766
584.438 -817.49 3766
592.026 -815.537 3757
598.29 -811.847 3740
607.234 -811.847 3740
616.177 -811.847 3740
627.962 -815.537 3757
638.472 -817.49 3766
648.853 -819.227 3774
657.878 -819.227 3774
666.903 -819.227 3774
675.927 -819.227 3774
688.219 -823.134 3792
697.287 -823.134 3792
706.355 -823.134 3792
716.932 -824.871 3800
729.458 -828.778 3818
738.588 -828.778 3818
747.718 -828.778 3818
756.848 -828.778 3818
765.978 -828.778 3818
775.108 -828.778 3818
780.541 -824.871 3800
789.628 -824.871 3800
807.963 -834.422 3844
822.895 -840.283 3871
832.151 -840.283 3871
849.233 -848.097 3907
858.576 -848.097 3907
869.918 -850.051 3916
879.282 -850.051 3916
895.001 -856.129 3944
910.853 -862.207 3972
924.754 -866.331 3991
934.297 -866.331 3991
943.841 -866.331 3991
953.385 -866.331 3991
962.928 -866.331 3991
970.279 -864.378 3982
989.151 -872.627 4020
998.764 -872.627 4020
1008.38 -872.627 4020
1015.46 -870.456 4010
1030.16 -874.797 4030
1042.12 -876.751 4039
1059.59 -883.263 4069
1069.32 -883.263 4069
1079.05 -883.263 4069
1083.43 -878.922 4049
1093.11 -878.922 4049
1105.52 -881.092 4059
1115.22 -881.092 4059
1124.93 -881.092 4059
1110.32 -862.207 3972
1119.81 -862.207 3972
1129.31 -862.207 3972
1334.86 -808.373 3724
1365.06 -821.181 3783
1386.82 -828.778 3818
1395.95 -828.778 3818
1414.65 -834.422 3844
1423.84 -834.422 3844
1433.03 -834.422 3844
1429.09 -826.824 3809
1434.8 -824.871 3800
1415.01 -808.373 3724
1423.92 -808.373 3724
1423.2 -802.947 3699
1425.85 -799.474 3683
1431.54 -797.737 3675
1452.87 -804.683 3707
1461.74 -804.683 3707
1483.69 -811.847 3740
1499.42 -815.537 3757
1508.41 -815.537 3757
1521.03 -817.49 3766
1530.03 -817.49 3766
1542.31 -819.227 3774
1551.33 -819.227 3774
1560.36 -819.227 3774
1562.31 -815.537 3757
1564.19 -811.847 3740
1573.13 -811.847 3740
1582.07 -811.847 3740
1584.21 -808.373 3724
1589.69 -806.637 3716
1591.27 -802.947 3699
1600.11 -802.947 3699
-2914.86 -877.809 4089
-2905.09 -877.809 4089
-2895.31 -877.809 4089
-2878.47 -875.662 4079
-2861.69 -873.516 4069
-2851.96 -873.516 4069
-2842.23 -873.516 4069
-2825.53 -871.369 4059
-2781.84 -860.85 4010
-2772.25 -860.85 4010
-2756.46 -858.918 4001
-2726.98 -852.692 3972
-2698.32 -846.681 3944
-2695.03 -848.613 3953
-2685.58 -848.613 3953
-2676.12 -848.613 3953
-2666.67 -848.613 3953
-2657.22 -848.613 3953
-2647.76 -848.613 3953
-2650.99 -852.692 3972
-2641.49 -852.692 3972
-2632 -852.692 3972
-2609.95 -848.613 3953
-1410.26 -854.839 3982
-1400.74 -854.839 3982
-1391.22 -854.839 3982
-1378.23 -852.692 3972
-1333.92 -831.01 3871
-1324.67 -831.01 3871
