1649.86 1029.18 2876
1656.74 1029.18 2876
1663.62 1029.18 2876
1670.5 1029.18 2876
1677.37 1029.18 2876
1684.25 1029.18 2876
1691.13 1029.18 2876
1692.1 1025.6 2866
1673.46 1010.21 2823
1665.93 1001.62 2799
1672.62 1001.62 2799
1673.92 998.404 2790
-1991.81 986.715 2739
-1995.41 991.758 2753
-1988.82 991.758 2753
-1982.24 991.758 2753
-1972.07 989.957 2748
-1965.5 989.957 2748
-1958.93 989.957 2748
-1949.51 988.516 2744
-1939.41 986.715 2739
-1932.86 986.715 2739
-1913.65 980.23 2721
-1907.14 980.23 2721
-1897.84 978.789 2717
-1891.35 978.789 2717
-1882.07 977.348 2713
-1865.91 972.305 2699
-1856.7 970.864 2695
-1874.28 983.473 2730
-1867.76 983.473 2730
-1867.36 986.715 2739
-1873.04 993.199 2757
-1866.45 993.199 2757
-1859.86 993.199 2757
-1853.26 993.199 2757
-1846.67 993.199 2757
-1840.08 993.199 2757
-1815.53 983.473 2730
-1809 983.473 2730
-1793.89 978.789 2717
-1799.23 985.274 2735
-1792.69 985.274 2735
-1818.81 1003.29 2785
-1818 1006.53 2794
-1821.05 1011.93 2809
-1814.33 1011.93 2809
-1807.61 1011.93 2809
-1657.54 1018.78 2828
-1667.7 1029.22 2857
-1663.78 1031.03 2862
-1656.93 1031.03 2862
-1652.39 1032.47 2866
-1645.54 1032.47 2866
-1638.69 1032.47 2866
-1629.56 1031.03 2862
-1622.71 1031.03 2862
-1613.05 1029.22 2857
-1606.21 1029.22 2857
-1599.38 1029.22 2857
-1592.55 1029.22 2857
-1585.72 1029.22 2857
-1594.91 1039.67 2886
-1588.01 1039.67 2886
-1589.33 1045.07 2901
-1602.03 1058.04 2937
-1611.84 1069.21 2968
-1604.74 1069.21 2968
-1597.64 1069.21 2968
-1590.55 1069.21 2968
-1583.45 1069.21 2968
-1565.2 1061.65 2947
-1536.47 1046.88 2906
-1529.52 1046.88 2906
-1522.58 1046.88 2906
-1515.63 1046.88 2906
-1498.29 1039.67 2886
-1366.19 1071.37 2974
-1359.08 1071.37 2974
-1351.96 1071.37 2974
-1344.85 1071.37 2974
-1332.79 1067.41 2963
-1321.23 1063.81 2953
-1314.17 1063.81 2953
-1295.6 1054.44 2927
-1288.6 1054.44 2927
-1265.84 1041.47 2891
-1258.93 1041.47 2891
-1247.25 1043.27 2896
-1253.6 1054.44 2927
-1250.86 1058.04 2937
-1243.84 1058.04 2937
-1245.66 1065.61 2958
-1242.77 1069.21 2968
-1235.68 1069.21 2968
-1228.58 1069.21 2968
-1221.48 1069.21 2968
-1212.34 1067.41 2963
-1205.25 1067.41 2963
-1196.15 1065.61 2958
-1174.6 1052.64 2922
-1169.61 1054.44 2927
-1162.61 1054.44 2927
-1155.61 1054.44 2927
-1146.65 1052.64 2922
-1109.9 1037.87 2881
-1103.01 1037.87 2881
-1096.12 1037.87 2881
-1089.23 1037.87 2881
-1082.34 1037.87 2881
-989.435 1020.22 2832
-1003.14 1041.47 2891
-996.222 1041.47 2891
-989.309 1041.47 2891
-982.396 1041.47 2891
-975.482 1041.47 2891
-968.569 1041.47 2891
-950.346 1029.22 2857
-945.165 1031.03 2862
-946.19 1039.67 2886
-939.289 1039.67 2886
-932.387 1039.67 2886
-925.486 1039.67 2886
-923.359 1045.07 2901
-916.422 1045.07 2901
-909.485 1045.07 2901
-896.325 1037.87 2881
-894.067 1043.27 2896
-887.142 1043.27 2896
-880.216 1043.27 2896
-873.291 1043.27 2896
-866.366 1043.27 2896
-859.441 1043.27 2896
-849.572 1039.67 2886
-842.671 1039.67 2886
-840.113 1045.07 2901
-833.176 1045.07 2901
-826.239 1045.07 2901
-822.126 1048.68 2911
-816.845 1050.84 2917
-809.87 1050.84 2917
-802.894 1050.84 2917
-795.919 1050.84 2917
-784.616 1045.07 2901
-777.679 1045.07 2901
-766.756 1039.67 2886
-759.855 1039.67 2886
-752.954 1039.67 2886
-746.052 1039.67 2886
-739.151 1039.67 2886
-733.518 1041.47 2891
-727.862 1043.27 2896
-722.181 1045.07 2901
-715.244 1045.07 2901
-710.749 1048.68 2911
-703.787 1048.68 2911
-696.826 1048.68 2911
-688.68 1046.88 2906
-679.385 1043.27 2896
-670.138 1039.67 2886
-663.237 1039.67 2886
-655.198 1037.87 2881
-647.184 1036.07 2876
-639.193 1034.27 2871
-633.429 1036.07 2876
-626.552 1036.07 2876
-620.752 1037.87 2881
-613.862 1037.87 2881
-606.973 1037.87 2881
-599.042 1036.07 2876
-591.135 1034.27 2871
-585.287 1036.07 2876
-578.41 1036.07 2876
-571.533 1036.07 2876
-564.655 1036.07 2876
-555.838 1032.47 2866
-547.261 1029.22 2857
-541.375 1031.03 2862
-534.531 1031.03 2862
-527.687 1031.03 2862
-521.571 1032.47 2866
-514.718 1032.47 2866
-507.864 1032.47 2866
-500.311 1031.03 2862
-491.743 1027.42 2852
-484.923 1027.42 2852
-477.265 1025.62 2847
-470.457 1025.62 2847
-462.835 1023.82 2842
-456.039 1023.82 2842
-448.452 1022.02 2837
-441.668 1022.02 2837
-434.884 1022.02 2837
-428.1 1022.02 2837
-420.573 1020.22 2832
-413.216 1018.78 2828
-407.029 1020.22 2832
-401.67 1023.82 2842
-394.874 1023.82 2842
-388.078 1023.82 2842
-381.282 1023.82 2842
-374.486 1023.82 2842
-367.69 1023.82 2842
-362.163 1027.42 2852
-355.343 1027.42 2852
-348.523 1027.42 2852
-341.104 1025.62 2847
-333.709 1023.82 2842
-326.913 1023.82 2842
-321.243 1027.42 2852
-314.423 1027.42 2852
-307.603 1027.42 2852
-300.783 1027.42 2852
-293.963 1027.42 2852
-287.143 1027.42 2852
-279.832 1025.62 2847
-273.503 1027.42 2852
-266.683 1027.42 2852
-259.863 1027.42 2852
-253.043 1027.42 2852
-245.36 1023.82 2842
-236.969 1016.98 2823
-230.218 1016.98 2823
-223.468 1016.98 2823
-216.333 1015.17 2818
-210.636 1020.22 2832
-204.943 1025.62 2847
-198.135 1025.62 2847
-192.604 1032.47 2866
-185.751 1032.47 2866
-178.897 1032.47 2866
-172.044 1032.47 2866
-164.96 1031.03 2862
-156.735 1022.02 2837
-151.483 1032.47 2866
-144.63 1032.47 2866
-137.776 1032.47 2866
-62.8627 782.455 2172
-57.6688 782.455 2172
-52.4749 782.455 2172
-47.2156 781.374 2169
-42.0289 781.374 2169
-36.8422 781.374 2169
-31.6262 780.654 2167
-26.4443 780.654 2167
-21.2623 780.654 2167
-16.0804 780.654 2167
-10.8833 779.573 2164
-5.70856 779.573 2164
-0.533036 778.492 2161
4.63457 778.492 2161
9.80218 778.492 2161
14.949 777.412 2158
20.1094 777.412 2158
25.3401 779.573 2164
30.5149 779.573 2164
35.6897 779.573 2164
72.4781 785.697 2181
77.6935 785.697 2181
82.9089 785.697 2181
88.3264 787.499 2186
93.8106 789.66 2192
99.0523 789.66 2192
104.294 789.66 2192
109.536 789.66 2192
114.778 789.66 2192
119.855 788.579 2189
124.918 787.499 2186
130.324 788.579 2189
135.559 788.579 2189
140.793 788.579 2189
146.028 788.579 2189
151.055 787.499 2186
156.282 787.499 2186
160.919 784.617 2178
166.127 784.617 2178
170.627 781.374 2169
175.814 781.374 2169
181.001 781.374 2169
276.771 1045.07 2901
284.686 1048.68 2911
291.647 1048.68 2911
298.609 1048.68 2911
305.57 1048.68 2911
312.531 1048.68 2911
318.943 1046.88 2906
324.771 1043.27 2896
330.551 1039.67 2886
337.452 1039.67 2886
343.757 1037.87 2881
350.037 1036.07 2876
356.915 1036.07 2876
364.425 1037.87 2881
371.314 1037.87 2881
378.203 1037.87 2881
385.093 1037.87 2881
391.982 1037.87 2881
398.179 1036.07 2876
404.352 1034.27 2871
409.929 1031.03 2862
416.773 1031.03 2862
423.616 1031.03 2862
430.46 1031.03 2862
437.304 1031.03 2862
444.148 1031.03 2862
452.41 1034.27 2871
459.276 1034.27 2871
466.141 1034.27 2871
471.524 1031.03 2862
478.368 1031.03 2862
485.212 1031.03 2862
493.603 1034.27 2871
500.468 1034.27 2871
507.334 1034.27 2871
514.199 1034.27 2871
521.972 1036.07 2876
529.769 1037.87 2881
538.521 1041.47 2891
545.434 1041.47 2891
557.315 1050.84 2917
570.094 1061.65 2947
577.141 1061.65 2947
584.188 1061.65 2947
589.229 1058.04 2937
594.222 1054.44 2927
601.222 1054.44 2927
607.182 1052.64 2922
611.857 1048.68 2911
615.63 1043.27 2896
622.555 1043.27 2896
627.307 1039.67 2886
632.01 1036.07 2876
684.497 1022.02 2837
691.281 1022.02 2837
698.065 1022.02 2837
704.849 1022.02 2837
714.142 1025.62 2847
722.216 1027.42 2852
729.036 1027.42 2852
735.856 1027.42 2852
742.676 1027.42 2852
750.81 1029.22 2857
758.968 1031.03 2862
765.812 1031.03 2862
772.656 1031.03 2862
779.5 1031.03 2862
788.816 1034.27 2871
795.682 1034.27 2871
802.547 1034.27 2871
808.003 1032.47 2866
814.857 1032.47 2866
824.577 1036.07 2876
831.455 1036.07 2876
839.789 1037.87 2881
848.148 1039.67 2886
855.049 1039.67 2886
861.951 1039.67 2886
868.852 1039.67 2886
875.753 1039.67 2886
882.655 1039.67 2886
889.556 1039.67 2886
896.457 1039.67 2886
903.359 1039.67 2886
910.26 1039.67 2886
917.161 1039.67 2886
932.067 1048.68 2911
940.964 1050.84 2917
951.189 1054.44 2927
958.188 1054.44 2927
965.188 1054.44 2927
972.187 1054.44 2927
979.186 1054.44 2927
984.501 1052.64 2922
989.792 1050.84 2917
996.767 1050.84 2917
1005.46 1052.64 2922
1012.45 1052.64 2922
1019.44 1052.64 2922
1022.56 1048.68 2911
1029.52 1048.68 2911
1036.48 1048.68 2911
1043.44 1048.68 2911
1048.6 1046.88 2906
1061.36 1052.64 2922
1072.01 1056.24 2932
1079.02 1056.24 2932
1087.88 1058.04 2937
1094.9 1058.04 2937
1101.93 1058.04 2937
1103.29 1052.64 2922
1110.27 1052.64 2922
1113.06 1048.68 2911
1120.02 1048.68 2911
1119.23 1041.47 2891
1124.2 1039.67 2886
1129.14 1037.87 2881
1136.03 1037.87 2881
1142.92 1037.87 2881
1143.82 1032.47 2866
1149.07 1031.03 2862
1151.88 1027.42 2852
1158.7 1027.42 2852
1165.52 1027.42 2852
1176.45 1031.03 2862
1183.29 1031.03 2862
1190.13 1031.03 2862
1196.98 1031.03 2862
1203.82 1031.03 2862
1206.44 1027.42 2852
1213.26 1027.42 2852
1217.94 1025.62 2847
1224.74 1025.62 2847
1229.39 1023.82 2842
1238.36 1025.62 2847
1249.54 1029.22 2857
1256.37 1029.22 2857
1276.03 1039.67 2886
1296.71 1050.84 2917
1319.78 1063.81 2953
1326.84 1063.81 2953
1372.75 1094.79 3039
1392.73 1104.88 3067
1400.06 1104.88 3067
1407.4 1104.88 3067
1414.73 1104.88 3067
1414.18 1098.75 3050
1421.48 1098.75 3050
1420.81 1092.63 3033
1430.88 1094.79 3039
1440.52 1096.59 3044
1447.8 1096.59 3044
1455.07 1096.59 3044
1492.62 1119.29 3107
1505.36 1123.25 3118
1524.46 1131.89 3142
1531.97 1131.89 3142
1545.37 1136.22 3154
1552.91 1136.22 3154
1560.45 1136.22 3154
1567.99 1136.22 3154
1575.54 1136.22 3154
1577.05 1131.89 3142
1584.57 1131.89 3142
1481.28 1043.27 2896
1488.21 1043.27 2896
1495.13 1043.27 2896
1502.06 1043.27 2896
1503.77 1039.67 2886
1510.67 1039.67 2886
1517.57 1039.67 2886
1521.83 1037.87 2881
1510.68 1025.62 2847
1514.83 1023.82 2842
1529.65 1029.22 2857
1541.32 1032.47 2866
1548.18 1032.47 2866
1557.74 1034.27 2871
1564.61 1034.27 2871
1571.48 1034.27 2871
1573.39 1031.03 2862
1580.24 1031.03 2862
1587.08 1031.03 2862
1601.72 1036.07 2876
1608.6 1036.07 2876
1626.71 1043.27 2896
1633.64 1043.27 2896
1640.56 1043.27 2896
1647.49 1043.27 2896
1642.99 1036.07 2876
1649.86 1036.07 2876
1656.74 1036.07 2876
1663.62 1036.07 2876
1670.5 1036.07 2876
1677.37 1036.07 2876
1684.25 1036.07 2876
1691.13 1036.07 2876
1692.1 1032.47 2866
1673.46 1016.98 2823
1665.93 1008.33 2799
1672.62 1008.33 2799
1673.92 1005.09 2790
1680.59 1005.09 2790
-1988.9 991.826 2735
-1995.41 998.353 2753
-1988.82 998.353 2753
-1982.24 998.353 2753
-1972.07 996.54 2748
-1965.5 996.54 2748
-1958.93 996.54 2748
-1949.51 995.089 2744
-1939.41 993.276 2739
-1932.86 993.276 2739
-1913.65 986.749 2721
-1907.14 986.749 2721
-1897.84 985.298 2717
-1891.35 985.298 2717
-1882.07 983.847 2713
-1860.38 975.869 2691
-1853.94 975.869 2691
-1874.28 990.012 2730
-1867.76 990.012 2730
-1864.64 991.826 2735
-1873.04 999.804 2757
-1866.45 999.804 2757
-1859.86 999.804 2757
-1853.26 999.804 2757
-1846.67 999.804 2757
-1840.08 999.804 2757
-1815.53 990.012 2730
-1809 990.012 2730
-1787.95 982.034 2708
-1781.47 982.034 2708
-1769.1 978.77 2699
-1792.03 995.089 2744
-1812.15 1009.96 2785
-1821.05 1018.66 2809
-1814.33 1018.66 2809
-1807.61 1018.66 2809
-1657.54 1025.55 2828
-1658.95 1030.63 2842
-1660.87 1036.07 2857
-1654.04 1036.07 2857
-1650.09 1037.88 2862
-1643.24 1037.88 2862
-1636.4 1037.88 2862
-1629.56 1037.88 2862
-1619.88 1036.07 2857
-1613.05 1036.07 2857
-1606.21 1036.07 2857
-1599.38 1036.07 2857
-1592.55 1036.07 2857
-1585.72 1036.07 2857
-1594.91 1046.58 2886
-1588.01 1046.58 2886
-1589.33 1052.02 2901
-1602.03 1065.08 2937
-1611.84 1076.32 2968
-1604.74 1076.32 2968
-1597.64 1076.32 2968
-1590.55 1076.32 2968
-1583.45 1076.32 2968
-1565.2 1068.71 2947
-1536.47 1053.84 2906
-1529.52 1053.84 2906
-1522.58 1053.84 2906
-1515.63 1053.84 2906
-1498.29 1046.58 2886
-1366.19 1078.5 2974
-1359.08 1078.5 2974
-1351.96 1078.5 2974
-1344.85 1078.5 2974
-1332.79 1074.51 2963
-1321.23 1070.88 2953
-1314.17 1070.88 2953
-1295.6 1061.45 2927
-1288.6 1061.45 2927
-1265.84 1048.4 2891
-1258.93 1048.4 2891
-1247.25 1050.21 2896
-1253.6 1061.45 2927
-1250.86 1065.08 2937
-1243.84 1065.08 2937
-1245.66 1072.69 2958
-1242.77 1076.32 2968
-1235.68 1076.32 2968
-1228.58 1076.32 2968
-1221.48 1076.32 2968
-1212.34 1074.51 2963
-1205.25 1074.51 2963
-1196.15 1072.69 2958
-1174.6 1059.64 2922
-1169.61 1061.45 2927
-1162.61 1061.45 2927
-1155.61 1061.45 2927
-1146.65 1059.64 2922
-1109.9 1044.77 2881
-1103.01 1044.77 2881
-1096.12 1044.77 2881
-1089.23 1044.77 2881
-1082.34 1044.77 2881
-968.418 998.353 2753
-989.435 1027 2832
-1003.14 1048.4 2891
-996.222 1048.4 2891
-989.309 1048.4 2891
-982.396 1048.4 2891
-975.482 1048.4 2891
-968.569 1048.4 2891
-950.346 1036.07 2857
-945.165 1037.88 2862
-946.19 1046.58 2886
-939.289 1046.58 2886
-932.387 1046.58 2886
-925.486 1046.58 2886
-923.359 1052.02 2901
-916.422 1052.02 2901
-909.485 1052.02 2901
-896.325 1044.77 2881
-894.067 1050.21 2896
-887.142 1050.21 2896
-880.216 1050.21 2896
-873.291 1050.21 2896
-866.366 1050.21 2896
-859.441 1050.21 2896
-849.572 1046.58 2886
-842.671 1046.58 2886
-840.113 1052.02 2901
-833.176 1052.02 2901
-826.239 1052.02 2901
-822.126 1055.65 2911
-816.845 1057.83 2917
-809.87 1057.83 2917
-802.894 1057.83 2917
-795.919 1057.83 2917
-784.616 1052.02 2901
-777.679 1052.02 2901
-766.756 1046.58 2886
-759.855 1046.58 2886
-752.954 1046.58 2886
-746.052 1046.58 2886
-739.151 1046.58 2886
-733.518 1048.4 2891
-727.862 1050.21 2896
-722.181 1052.02 2901
-715.244 1052.02 2901
-710.749 1055.65 2911
-703.787 1055.65 2911
-696.826 1055.65 2911
-688.68 1053.84 2906
-679.385 1050.21 2896
-670.138 1046.58 2886
-663.237 1046.58 2886
-655.198 1044.77 2881
-647.184 1042.96 2876
-639.193 1041.14 2871
-633.429 1042.96 2876
-626.552 1042.96 2876
-620.752 1044.77 2881
-613.862 1044.77 2881
-606.973 1044.77 2881
-599.042 1042.96 2876
-591.135 1041.14 2871
-585.287 1042.96 2876
-578.41 1042.96 2876
-571.533 1042.96 2876
-564.655 1042.96 2876
-555.838 1039.33 2866
-547.261 1036.07 2857
-541.375 1037.88 2862
-534.531 1037.88 2862
-527.687 1037.88 2862
-521.571 1039.33 2866
-514.718 1039.33 2866
-507.864 1039.33 2866
-496.815 1030.63 2842
-486.743 1023.74 2823
-479.992 1023.74 2823
-473.242 1023.74 2823
-466.491 1023.74 2823
-458.112 1020.11 2813
-451.385 1020.11 2813
-444.026 1018.66 2809
-437.932 1020.11 2813
-431.205 1020.11 2813
-424.478 1020.11 2813
-417.751 1020.11 2813
-409.71 1016.85 2804
-404.298 1020.11 2813
-397.571 1020.11 2813
-390.845 1020.11 2813
-384.118 1020.11 2813
-377.391 1020.11 2813
-371.982 1023.74 2823
-365.231 1023.74 2823
-358.481 1023.74 2823
-351.73 1023.74 2823
-344.368 1021.92 2818
-338.828 1025.55 2828
-332.065 1025.55 2828
-326.338 1028.81 2837
-319.554 1028.81 2837
-313.872 1032.44 2847
-307.064 1032.44 2847
-300.256 1032.44 2847
-293.448 1032.44 2847
-286.64 1032.44 2847
-278.849 1028.81 2837
-272.544 1030.63 2842
-265.748 1030.63 2842
-258.952 1030.63 2842
-252.156 1030.63 2842
-243.72 1023.74 2823
-236.549 1021.92 2818
-229.811 1021.92 2818
-223.072 1021.92 2818
-215.949 1020.11 2813
-209.595 1021.92 2818
-204.584 1030.63 2842
-197.787 1030.63 2842
-191.999 1036.07 2857
-185.167 1036.07 2857
-178.335 1036.07 2857
-171.504 1036.07 2857
-163.519 1028.81 2837
-156.735 1028.81 2837
-149.951 1028.81 2837
-143.166 1028.81 2837
-136.382 1028.81 2837
-62.9495 788.746 2175
-57.7484 788.746 2175
-52.5473 788.746 2175
-47.2809 787.658 2172
-42.0289 786.57 2169
-36.8422 786.57 2169
-31.6554 786.57 2169
-26.4687 786.57 2169
-21.2623 785.845 2167
-16.0804 785.845 2167
-10.8833 784.757 2164
-5.70856 784.757 2164
-0.533036 783.669 2161
4.63457 783.669 2161
9.80218 783.669 2161
14.949 782.581 2158
20.0815 781.493 2155
25.2347 781.493 2155
30.388 781.493 2155
35.5083 780.768 2153
72.3784 789.834 2178
77.5866 789.834 2178
82.7949 789.834 2178
88.3264 792.735 2186
94.0674 797.087 2198
99.3234 797.087 2198
104.58 797.087 2198
109.986 798.175 2201
115.249 798.175 2201
120.512 798.175 2201
126.118 800.351 2207
131.574 801.439 2210
136.859 801.439 2210
142.144 801.439 2210
147.229 800.351 2207
151.884 797.087 2198
157.14 797.087 2198
161.731 793.823 2189
166.966 793.823 2189
171.965 792.735 2186
177.192 792.735 2186
181.001 786.57 2169
274.386 1042.96 2876
281.752 1044.77 2881
288.642 1044.77 2881
296.557 1048.4 2891
303.47 1048.4 2891
310.383 1048.4 2891
316.748 1046.58 2886
323.089 1044.77 2881
328.833 1041.14 2871
335.698 1041.14 2871
342.563 1041.14 2871
348.82 1039.33 2866
355.674 1039.33 2866
363.16 1041.14 2871
370.025 1041.14 2871
376.891 1041.14 2871
383.756 1041.14 2871
390.621 1041.14 2871
397.487 1041.14 2871
402.381 1036.07 2857
408.496 1034.25 2852
415.316 1034.25 2852
422.136 1034.25 2852
428.956 1034.25 2852
435.776 1034.25 2852
442.596 1034.25 2852
450.204 1036.07 2857
457.036 1036.07 2857
463.868 1036.07 2857
469.053 1032.44 2847
475.861 1032.44 2847
482.669 1032.44 2847
490.336 1034.25 2852
499.597 1039.33 2866
506.45 1039.33 2866
513.304 1039.33 2866
520.157 1039.33 2866
527.011 1039.33 2866
535.727 1042.96 2876
542.604 1042.96 2876
550.437 1044.77 2881
569.127 1066.89 2942
576.162 1066.89 2942
583.197 1066.89 2942
589.229 1065.08 2937
590.974 1055.65 2911
597.935 1055.65 2911
604.896 1055.65 2911
608.704 1050.21 2896
613.504 1046.58 2886
620.405 1046.58 2886
625.133 1042.96 2876
628.934 1037.88 2862
684.497 1028.81 2837
691.281 1028.81 2837
698.065 1028.81 2837
703.607 1027 2832
710.379 1027 2832
718.418 1028.81 2837
725.202 1028.81 2837
731.986 1028.81 2837
736.426 1025.55 2828
743.189 1025.55 2828
751.012 1027 2832
763.136 1034.25 2852
769.956 1034.25 2852
776.776 1034.25 2852
784.97 1036.07 2857
791.802 1036.07 2857
798.634 1036.07 2857
804.056 1034.25 2852
810.876 1034.25 2852
817.696 1034.25 2852
824.516 1034.25 2852
836.874 1041.14 2871
845.209 1042.96 2876
852.087 1042.96 2876
858.964 1042.96 2876
865.841 1042.96 2876
872.719 1042.96 2876
879.596 1042.96 2876
886.474 1042.96 2876
896.457 1046.58 2886
903.359 1046.58 2886
910.26 1046.58 2886
917.161 1046.58 2886
927.264 1050.21 2896
939.028 1055.65 2911
945.989 1055.65 2911
952.95 1055.65 2911
963.539 1059.64 2922
970.526 1059.64 2922
977.514 1059.64 2922
979.11 1053.84 2906
986.059 1053.84 2906
994.717 1055.65 2911
1001.68 1055.65 2911
1008.64 1055.65 2911
1015.6 1055.65 2911
1019.05 1052.02 2901
1025.99 1052.02 2901
1032.92 1052.02 2901
1039.86 1052.02 2901
1046.8 1052.02 2901
1053.73 1052.02 2901
1066.52 1057.83 2917
1073.5 1057.83 2917
1082.32 1059.64 2922
1089.31 1059.64 2922
1096.3 1059.64 2922
1099.13 1055.65 2911
1104.19 1053.84 2906
1105.41 1048.4 2891
1110.4 1046.58 2886
1117.3 1046.58 2886
1122.25 1044.77 2881
1129.14 1044.77 2881
1136.03 1044.77 2881
1142.92 1044.77 2881
1143.82 1039.33 2866
1149.07 1037.88 2862
1151.88 1034.25 2852
1158.7 1034.25 2852
1165.52 1034.25 2852
1176.45 1037.88 2862
1183.29 1037.88 2862
1190.13 1037.88 2862
1196.98 1037.88 2862
1203.82 1037.88 2862
1204.32 1032.44 2847
1211.13 1032.44 2847
1215.8 1030.63 2842
1222.59 1030.63 2842
1229.39 1030.63 2842
1238.36 1032.44 2847
1249.54 1036.07 2857
1256.37 1036.07 2857
1271.61 1042.96 2876
1282.93 1046.58 2886
1303.69 1057.83 2917
1310.66 1057.83 2917
1350.61 1084.3 2990
1377.29 1099.89 3033
1384.54 1099.89 3033
1391.79 1099.89 3033
1399.05 1099.89 3033
1406.3 1099.89 3033
1413.55 1099.89 3033
1415.65 1095.9 3022
1430.88 1102.07 3039
1440.52 1103.88 3044
1447.8 1103.88 3044
1455.07 1103.88 3044
1492.62 1126.73 3107
1505.36 1130.72 3118
1518.64 1135.07 3130
1526.12 1135.07 3130
1533.61 1135.07 3130
1541.09 1135.07 3130
1548.58 1135.07 3130
1556.06 1135.07 3130
1552.06 1126.73 3107
1556.48 1124.55 3101
1473.61 1044.77 2881
1480.5 1044.77 2881
1487.39 1044.77 2881
1494.28 1044.77 2881
1498.56 1042.96 2876
1505.44 1042.96 2876
1507.06 1039.33 2866
1513.91 1039.33 2866
1505.38 1028.81 2837
1509.5 1027 2832
1518.94 1028.81 2837
1536.48 1036.07 2857
1543.32 1036.07 2857
1552.86 1037.88 2862
1559.71 1037.88 2862
1566.55 1037.88 2862
1570.64 1036.07 2857
1580.24 1037.88 2862
1587.08 1037.88 2862
1601.72 1042.96 2876
1608.6 1042.96 2876
1626.71 1050.21 2896
1633.64 1050.21 2896
1640.56 1050.21 2896
1647.49 1050.21 2896
1642.99 1042.96 2876
1649.86 1042.96 2876
1656.74 1042.96 2876
1663.62 1042.96 2876
1670.5 1042.96 2876
1677.37 1042.96 2876
1684.25 1042.96 2876
1691.13 1042.96 2876
1692.1 1039.33 2866
1673.46 1023.74 2823
1660.57 1011.77 2790
1667.25 1011.77 2790
1673.92 1011.77 2790
1680.59 1011.77 2790
-1988.9 998.377 2735
-1982.36 998.377 2735
-1975.82 998.377 2735
-1972.07 1003.12 2748
-1965.5 1003.12 2748
-1958.93 1003.12 2748
-1949.51 1001.66 2744
-1942.95 1001.66 2744
-1936.39 1001.66 2744
-1926.31 999.837 2739
-1907.14 993.267 2721
-1900.64 993.267 2721
-1894.13 993.267 2721
-1884.85 991.807 2717
-1872.13 988.521 2708
-1865.65 988.521 2708
-1874.28 996.552 2730
-1867.76 996.552 2730
-1864.64 998.377 2735
-1892.06 1016.63 2785
-1885.4 1016.63 2785
-1878.74 1016.63 2785
-1872.08 1016.63 2785
-1865.43 1016.63 2785
-1858.77 1016.63 2785
-1840.14 1010.06 2767
-1814.96 999.837 2739
-1791.25 990.346 2713
-1784.76 990.346 2713
-1757.95 979.03 2682
-1774.4 991.807 2717
-1803.04 1011.52 2771
-1811.32 1019.91 2794
-1804.64 1019.91 2794
-1797.96 1019.91 2794
-1654.61 1030.5 2823
-1650.77 1032.33 2828
-1652.15 1037.44 2842
-1645.35 1037.44 2842
-1644.32 1041.09 2852
-1637.5 1041.09 2852
-1630.68 1041.09 2852
-1623.86 1041.09 2852
-1617.04 1041.09 2852
-1610.22 1041.09 2852
-1606.21 1042.91 2857
-1599.38 1042.91 2857
-1592.55 1042.91 2857
-1585.72 1042.91 2857
-1594.91 1053.5 2886
-1588.01 1053.5 2886
-1589.33 1058.97 2901
-1602.03 1072.11 2937
-1600.43 1075.77 2947
-1593.39 1075.77 2947
-1594.95 1081.61 2963
-1587.87 1081.61 2963
-1580.78 1081.61 2963
-1546.08 1062.62 2911
-1517.97 1048.02 2871
-1519 1053.5 2886
-1512.1 1053.5 2886
-1505.2 1053.5 2886
-1498.29 1053.5 2886
-1344.69 1079.78 2958
-1337.62 1079.78 2958
-1330.54 1079.78 2958
-1321.23 1077.96 2953
-1314.17 1077.96 2953
-1295.6 1068.46 2927
-1288.6 1068.46 2927
-1253.6 1068.46 2927
-1250.86 1072.11 2937
-1243.84 1072.11 2937
-1245.66 1079.78 2958
-1242.77 1083.43 2968
-1235.68 1083.43 2968
-1228.58 1083.43 2968
-1221.48 1083.43 2968
-1212.34 1081.61 2963
-1205.25 1081.61 2963
-1173.1 1058.97 2901
-1109.9 1051.67 2881
-1103.01 1051.67 2881
-1096.12 1051.67 2881
-1089.23 1051.67 2881
-1082.34 1051.67 2881
-968.418 1004.95 2753
-977.906 1021.74 2799
-1003.14 1055.32 2891
-996.222 1055.32 2891
-989.309 1055.32 2891
-982.396 1055.32 2891
-975.482 1055.32 2891
-968.569 1055.32 2891
-940.7 1032.33 2828
-941.863 1041.09 2852
-938.322 1044.74 2862
-931.478 1044.74 2862
-925.926 1046.2 2866
-919.073 1046.2 2866
-913.81 1048.02 2871
-906.945 1048.02 2871
-900.08 1048.02 2871
-891.659 1046.2 2866
-884.805 1046.2 2866
-877.952 1046.2 2866
-871.098 1046.2 2866
-863.039 1044.74 2862
-856.195 1044.74 2862
-849.351 1044.74 2862
-841.035 1042.91 2857
-834.203 1042.91 2857
-828.819 1044.74 2862
-827.432 1051.67 2881
-820.543 1051.67 2881
-817.89 1057.15 2896
-815.165 1062.62 2911
-808.204 1062.62 2911
-801.243 1062.62 2911
-786.096 1051.67 2881
-777.854 1049.85 2876
-770.977 1049.85 2876
-761.443 1046.2 2866
-755.906 1048.02 2871
-749.04 1048.02 2871
-742.175 1048.02 2871
-735.309 1048.02 2871
-732.25 1053.5 2886
-725.348 1053.5 2886
-720.937 1057.15 2896
-714.011 1057.15 2896
-708.307 1058.97 2901
-701.37 1058.97 2901
-694.433 1058.97 2901
-686.31 1057.15 2896
-678.212 1055.32 2891
-667.816 1049.85 2876
-660.939 1049.85 2876
-652.924 1048.02 2871
-646.059 1048.02 2871
-636.076 1042.91 2857
-631.227 1046.2 2866
-624.373 1046.2 2866
-617.52 1046.2 2866
-610.666 1046.2 2866
-603.813 1046.2 2866
-596.959 1046.2 2866
-588.253 1042.91 2857
-581.421 1042.91 2857
-574.589 1042.91 2857
-567.757 1042.91 2857
-560.925 1042.91 2857
-552.154 1039.26 2847
-543.43 1035.61 2837
-537.592 1037.44 2842
-530.796 1037.44 2842
-523.999 1037.44 2842
-517.203 1037.44 2842
-510.407 1037.44 2842
-503.611 1037.44 2842
-496.815 1037.44 2842
-486.743 1030.5 2823
-479.992 1030.5 2823
-473.242 1030.5 2823
-466.491 1030.5 2823
-458.112 1026.85 2813
-451.385 1026.85 2813
-444.026 1025.39 2809
-437.932 1026.85 2813
-431.205 1026.85 2813
-424.478 1026.85 2813
-417.751 1026.85 2813
-409.71 1023.56 2804
-404.298 1026.85 2813
-397.571 1026.85 2813
-390.845 1026.85 2813
-384.118 1026.85 2813
-377.391 1026.85 2813
-371.982 1030.5 2823
-365.231 1030.5 2823
-358.481 1030.5 2823
-351.73 1030.5 2823
-344.368 1028.68 2818
-338.828 1032.33 2828
-332.065 1032.33 2828
-326.338 1035.61 2837
-319.554 1035.61 2837
-313.872 1039.26 2847
-307.064 1039.26 2847
-300.256 1039.26 2847
-293.448 1039.26 2847
-286.64 1039.26 2847
-278.849 1035.61 2837
-272.544 1037.44 2842
-265.748 1037.44 2842
-258.952 1037.44 2842
-252.156 1037.44 2842
-243.72 1030.5 2823
-236.549 1028.68 2818
-229.811 1028.68 2818
-223.072 1028.68 2818
-215.949 1026.85 2813
-209.595 1028.68 2818
-204.584 1037.44 2842
-197.787 1037.44 2842
-191.999 1042.91 2857
-185.167 1042.91 2857
-178.335 1042.91 2857
-171.504 1042.91 2857
-163.519 1035.61 2837
-156.735 1035.61 2837
-149.951 1035.61 2837
-143.166 1035.61 2837
-136.382 1035.61 2837
-62.9495 793.956 2175
-57.7484 793.956 2175
-52.5473 793.956 2175
-47.2809 792.861 2172
-42.0289 791.766 2169
-36.8422 791.766 2169
-31.6554 791.766 2169
-26.4687 791.766 2169
-21.2623 791.036 2167
-16.0804 791.036 2167
-10.8833 789.941 2164
-5.70856 789.941 2164
-0.533036 788.846 2161
4.63457 788.846 2161
9.80218 788.846 2161
14.949 787.751 2158
20.0815 786.656 2155
25.2347 786.656 2155
30.388 786.656 2155
35.5083 785.925 2153
40.7512 787.751 2158
45.9116 787.751 2158
51.072 787.751 2158
56.2325 787.751 2158
67.1701 795.051 2178
72.3784 795.051 2178
77.5866 795.051 2178
82.7949 795.051 2178
88.3264 797.972 2186
94.0674 802.352 2198
99.3234 802.352 2198
104.722 803.447 2201
110.285 805.637 2207
115.563 805.637 2207
120.841 805.637 2207
126.747 809.653 2218
132.408 811.843 2224
137.726 811.843 2224
143.044 811.843 2224
147.762 808.558 2215
153.059 808.558 2215
158.356 808.558 2215
163.283 806.733 2210
168.568 806.733 2210
173.853 806.733 2210
179.137 806.733 2210
184.422 806.733 2210
274.386 1049.85 2876
281.752 1051.67 2881
288.642 1051.67 2881
296.557 1055.32 2891
303.47 1055.32 2891
310.383 1055.32 2891
316.748 1053.5 2886
323.089 1051.67 2881
328.833 1048.02 2871
335.698 1048.02 2871
342.563 1048.02 2871
348.82 1046.2 2866
355.674 1046.2 2866
363.16 1048.02 2871
370.025 1048.02 2871
376.891 1048.02 2871
383.756 1048.02 2871
390.621 1048.02 2871
393.472 1037.44 2842
399.564 1035.61 2837
406.348 1035.61 2837
413.132 1035.61 2837
419.916 1035.61 2837
426.7 1035.61 2837
433.484 1035.61 2837
440.268 1035.61 2837
447.053 1035.61 2837
453.037 1033.79 2832
459.809 1033.79 2832
465.922 1032.33 2828
472.685 1032.33 2828
478.6 1030.5 2823
486.898 1033.79 2832
493.67 1033.79 2832
500.442 1033.79 2832
507.214 1033.79 2832
513.986 1033.79 2832
521.678 1035.61 2837
528.462 1035.61 2837
535.246 1035.61 2837
542.986 1037.44 2842
556.359 1049.85 2876
573.224 1068.46 2927
580.224 1068.46 2927
587.223 1068.46 2927
589.959 1060.8 2906
596.908 1060.8 2906
599.701 1053.5 2886
600.507 1042.91 2857
604.15 1037.44 2842
610.946 1037.44 2842
615.569 1033.79 2832
620.363 1030.5 2823
677.741 1025.39 2809
684.458 1025.39 2809
691.176 1025.39 2809
697.893 1025.39 2809
708.122 1030.5 2823
714.872 1030.5 2823
721.623 1030.5 2823
728.374 1030.5 2823
735.124 1030.5 2823
739.247 1026.85 2813
748.626 1030.5 2823
757.785 1033.79 2832
764.557 1033.79 2832
772.691 1035.61 2837
779.475 1035.61 2837
786.259 1035.61 2837
793.043 1035.61 2837
799.827 1035.61 2837
805.19 1033.79 2832
813.395 1035.61 2837
820.18 1035.61 2837
829.879 1039.26 2847
838.156 1041.09 2852
847.939 1044.74 2862
854.783 1044.74 2862
861.627 1044.74 2862
872.719 1049.85 2876
879.596 1049.85 2876
886.474 1049.85 2876
893.351 1049.85 2876
900.228 1049.85 2876
907.106 1049.85 2876
913.983 1049.85 2876
925.663 1055.32 2891
934.19 1057.15 2896
941.115 1057.15 2896
948.04 1057.15 2896
954.965 1057.15 2896
961.89 1057.15 2896
967.143 1055.32 2891
974.056 1055.32 2891
977.576 1051.67 2881
986.174 1053.5 2886
993.075 1053.5 2886
999.977 1053.5 2886
1006.88 1053.5 2886
1012.02 1051.67 2881
1022.45 1055.32 2891
1029.36 1055.32 2891
1036.28 1055.32 2891
1043.19 1055.32 2891
1050.1 1055.32 2891
1060.67 1058.97 2901
1067.61 1058.97 2901
1076.4 1060.8 2906
1083.35 1060.8 2906
1090.3 1060.8 2906
1093.47 1057.15 2896
1098.49 1055.32 2891
1103.5 1053.5 2886
1104.63 1048.02 2871
1111.49 1048.02 2871
1118.36 1048.02 2871
1127.18 1049.85 2876
1134.06 1049.85 2876
1140.94 1049.85 2876
1143.82 1046.2 2866
1147.06 1042.91 2857
1151.88 1041.09 2852
1158.7 1041.09 2852
1163.47 1039.26 2847
1174.39 1042.91 2857
1181.22 1042.91 2857
1188.06 1042.91 2857
1192.8 1041.09 2852
1199.62 1041.09 2852
1200.09 1035.61 2837
1206.87 1035.61 2837
1213.66 1035.61 2837
1220.44 1035.61 2837
1229.39 1037.44 2842
1238.36 1039.26 2847
1253.48 1046.2 2866
1260.33 1046.2 2866
1273.82 1051.67 2881
1282.93 1053.5 2886
1301 1062.62 2911
1307.97 1062.62 2911
1331.19 1075.77 2947
1375.02 1105.33 3028
1384.54 1107.16 3033
1391.79 1107.16 3033
1399.05 1107.16 3033
1406.3 1107.16 3033
1413.55 1107.16 3033
1418.46 1105.33 3028
1433.24 1111.17 3044
1440.52 1111.17 3044
1447.8 1111.17 3044
1455.07 1111.17 3044
1492.62 1134.17 3107
1511.15 1142.57 3130
1518.64 1142.57 3130
1526.12 1142.57 3130
1533.61 1142.57 3130
1541.09 1142.57 3130
1548.58 1142.57 3130
1550.1 1138.19 3118
1549.06 1131.98 3101
1553.46 1129.79 3095
1468.49 1048.02 2871
1475.36 1048.02 2871
1482.22 1048.02 2871
1489.09 1048.02 2871
1491.27 1044.74 2862
1498.11 1044.74 2862
1491.81 1035.61 2837
1498.59 1035.61 2837
1500.6 1032.33 2828
1502.03 1028.68 2818
1516.27 1033.79 2832
1525.73 1035.61 2837
1532.51 1035.61 2837
1547.44 1041.09 2852
1554.26 1041.09 2852
1561.08 1041.09 2852
1567.9 1041.09 2852
1577.48 1042.91 2857
1584.31 1042.91 2857
1596.15 1046.2 2866
1603.01 1046.2 2866
1621.09 1053.5 2886
1628 1053.5 2886
1634.9 1053.5 2886
1641.8 1053.5 2886
1640.13 1048.02 2871
1647 1048.02 2871
1650.98 1046.2 2866
1657.83 1046.2 2866
1664.69 1046.2 2866
1671.54 1046.2 2866
1678.39 1046.2 2866
1685.25 1046.2 2866
1686.79 1042.91 2857
1670.5 1028.68 2818
1660.57 1018.45 2790
1667.25 1018.45 2790
1673.92 1018.45 2790
1680.59 1018.45 2790
1687.26 1018.45 2790
-1955.91 1011.54 2753
-1949.32 1011.54 2753
-1942.74 1011.54 2753
-1926.31 1006.4 2739
-1913.45 1003.09 2730
-1900.64 999.785 2721
-1894.13 999.785 2721
-1887.62 999.785 2721
-1875.59 996.845 2713
-1880.81 1003.09 2730
-1886.64 1009.71 2748
-1880.07 1009.71 2748
-1898.72 1023.3 2785
-1901.58 1028.44 2799
-1898.27 1030.28 2804
-1891.56 1030.28 2804
-1884.86 1030.28 2804
-1874.8 1028.44 2799
-1868.11 1028.44 2799
-1852.11 1023.3 2785
-1826.89 1013.01 2757
-1808.41 1006.4 2739
-1801.86 1006.4 2739
-1757.95 985.455 2682
-1774.4 998.315 2717
-1803.04 1018.16 2771
-1808.73 1025.14 2790
-1802.06 1025.14 2790
-1795.39 1025.14 2790
-1656.88 1030.28 2804
-1650.17 1030.28 2804
-1651.67 1035.43 2818
-1647.85 1037.26 2823
-1652.15 1044.24 2842
-1645.35 1044.24 2842
-1641.44 1046.08 2847
-1634.63 1046.08 2847
-1627.82 1046.08 2847
-1621.02 1046.08 2847
-1611.37 1044.24 2842
-1607.4 1046.08 2847
-1600.59 1046.08 2847
-1593.78 1046.08 2847
-1586.98 1046.08 2847
-1582.94 1047.92 2852
-1586.62 1054.9 2871
-1579.76 1054.9 2871
-1581.11 1060.41 2886
-1599.3 1077.31 2932
-1597.72 1080.99 2942
-1590.68 1080.99 2942
-1583.65 1080.99 2942
-1563.22 1071.8 2917
-1556.24 1071.8 2917
-1530.15 1058.57 2881
-1502.64 1044.24 2842
-1511.1 1054.9 2871
-1506.86 1056.74 2876
-1499.98 1056.74 2876
-1493.1 1056.74 2876
-1312.1 1071.8 2917
-1305.13 1071.8 2917
-1298.15 1071.8 2917
-1291.17 1071.8 2917
-1281.56 1069.6 2911
-1249.32 1071.8 2917
-1246.61 1075.48 2927
-1239.61 1075.48 2927
-1232.61 1075.48 2927
-1225.61 1075.48 2927
-1220.69 1077.31 2932
-1213.68 1077.31 2932
-1206.67 1077.31 2932
-1189.02 1067.76 2906
-1182.07 1067.76 2906
-1173.1 1065.92 2901
-1109.9 1058.57 2881
-1103.01 1058.57 2881
-1096.12 1058.57 2881
-1089.23 1058.57 2881
-1082.34 1058.57 2881
-968.418 1011.54 2753
-969.87 1019.99 2776
-966.355 1023.3 2785
-959.695 1023.3 2785
-980.754 1053.06 2866
-973.9 1053.06 2866
-967.047 1053.06 2866
-941.097 1032.12 2809
-934.38 1032.12 2809
-933.937 1039.1 2828
-927.174 1039.1 2828
-920.412 1039.1 2828
-923.018 1049.76 2857
-916.186 1049.76 2857
-910.946 1051.59 2862
-904.102 1051.59 2862
-897.258 1051.59 2862
-887.303 1047.92 2852
-880.483 1047.92 2852
-870.6 1044.24 2842
-863.804 1044.24 2842
-857.008 1044.24 2842
-850.211 1044.24 2842
-840.448 1040.57 2832
-833.675 1040.57 2832
-826.903 1040.57 2832
-821.579 1042.41 2837
-819.103 1047.92 2852
-812.283 1047.92 2852
-812.241 1056.74 2876
-805.364 1056.74 2876
-798.486 1056.74 2876
-791.609 1056.74 2876
-784.732 1056.74 2876
-770.011 1046.08 2847
-763.203 1046.08 2847
-753.738 1042.41 2837
-746.954 1042.41 2837
-742.779 1046.08 2847
-738.556 1049.76 2857
-731.724 1049.76 2857
-727.175 1053.06 2866
-721.578 1054.9 2871
-717.202 1058.57 2881
-710.313 1058.57 2881
-705.865 1062.25 2891
-698.952 1062.25 2891
-692.039 1062.25 2891
-685.126 1062.25 2891
-675.866 1058.57 2881
-662.243 1047.92 2852
-655.423 1047.92 2852
-645.192 1042.41 2837
-637.283 1040.57 2832
-628.507 1037.26 2823
-621.756 1037.26 2823
-612.827 1033.59 2813
-608.255 1037.26 2823
-601.504 1037.26 2823
-594.753 1037.26 2823
-588.003 1037.26 2823
-581.252 1037.26 2823
-574.501 1037.26 2823
-566.745 1035.43 2818
-560.007 1035.43 2818
-553.268 1035.43 2818
-546.529 1035.43 2818
-536.151 1028.44 2799
-530.404 1030.28 2804
-523.698 1030.28 2804
-516.993 1030.28 2804
-510.288 1030.28 2804
-503.583 1030.28 2804
-496.877 1030.28 2804
-490.172 1030.28 2804
-481.743 1026.61 2794
-475.912 1028.44 2799
-469.218 1028.44 2799
-462.525 1028.44 2799
-455.832 1028.44 2799
-449.139 1028.44 2799
-442.445 1028.44 2799
-435.752 1028.44 2799
-429.059 1028.44 2799
-422.366 1028.44 2799
-415.672 1028.44 2799
-408.249 1026.61 2794
-400.992 1025.14 2790
-395.593 1028.44 2799
-388.899 1028.44 2799
-382.206 1028.44 2799
-376.184 1030.28 2804
-370.137 1032.12 2809
-363.42 1032.12 2809
-356.703 1032.12 2809
-349.986 1032.12 2809
-342.658 1030.28 2804
-337.63 1035.43 2818
-330.891 1035.43 2818
-324.152 1035.43 2818
-317.977 1037.26 2823
-311.226 1037.26 2823
-304.476 1037.26 2823
-296.67 1033.59 2813
-289.943 1033.59 2813
-283.72 1035.43 2818
-276.981 1035.43 2818
-271.585 1040.57 2832
-264.813 1040.57 2832
-258.041 1040.57 2832
-250.47 1037.26 2823
-243.288 1035.43 2818
-236.13 1033.59 2813
-229.403 1033.59 2813
-222.676 1033.59 2813
-215.642 1032.12 2809
-209.223 1033.59 2813
-203.864 1040.57 2832
-197.091 1040.57 2832
-190.991 1044.24 2842
-184.195 1044.24 2842
-177.399 1044.24 2842
-170.603 1044.24 2842
-163.231 1040.57 2832
-156.237 1039.1 2828
-149.951 1042.41 2837
-143.166 1042.41 2837
-136.382 1042.41 2837
-62.9495 799.167 2175
-57.7484 799.167 2175
-52.5473 799.167 2175
-47.2809 798.064 2172
-42.0289 796.962 2169
-36.8422 796.962 2169
-31.6554 796.962 2169
-26.4687 796.962 2169
-21.2623 796.227 2167
-16.0804 796.227 2167
-10.8833 795.125 2164
-5.70856 795.125 2164
-0.533036 794.022 2161
4.63457 794.022 2161
9.80218 794.022 2161
14.949 792.92 2158
20.0815 791.818 2155
25.2113 791.083 2153
30.3598 791.083 2153
35.5083 791.083 2153
40.7512 792.92 2158
45.9116 792.92 2158
51.072 792.92 2158
56.2325 792.92 2158
67.1701 800.269 2178
72.3784 800.269 2178
77.5866 800.269 2178
82.7949 800.269 2178
88.3264 803.208 2186
94.0674 807.617 2198
99.3234 807.617 2198
104.722 808.72 2201
110.285 810.924 2207
115.563 810.924 2207
120.841 810.924 2207
126.747 814.966 2218
132.408 817.171 2224
137.726 817.171 2224
143.044 817.171 2224
147.762 813.864 2215
153.059 813.864 2215
158.356 813.864 2215
163.283 812.027 2210
168.568 812.027 2210
173.853 812.027 2210
179.137 812.027 2210
184.422 812.027 2210
270.665 1042.41 2837
278.916 1047.92 2852
285.736 1047.92 2852
293.582 1051.59 2862
300.426 1051.59 2862
307.27 1051.59 2862
314.114 1051.59 2862
320.958 1051.59 2862
327.229 1049.76 2857
334.061 1049.76 2857
340.893 1049.76 2857
347.116 1047.92 2852
353.936 1047.92 2852
360.756 1047.92 2852
367.576 1047.92 2852
374.396 1047.92 2852
380.548 1046.08 2847
387.356 1046.08 2847
393.472 1044.24 2842
399.564 1042.41 2837
406.348 1042.41 2837
413.132 1042.41 2837
419.916 1042.41 2837
426.7 1042.41 2837
433.484 1042.41 2837
440.268 1042.41 2837
447.053 1042.41 2837
453.037 1040.57 2832
459.809 1040.57 2832
465.922 1039.1 2828
472.685 1039.1 2828
478.6 1037.26 2823
486.898 1040.57 2832
493.67 1040.57 2832
500.442 1040.57 2832
507.214 1040.57 2832
513.986 1040.57 2832
521.678 1042.41 2837
528.462 1042.41 2837
535.246 1042.41 2837
542.986 1044.24 2842
556.359 1056.74 2876
573.224 1075.48 2927
580.224 1075.48 2927
587.223 1075.48 2927
589.959 1067.76 2906
596.908 1067.76 2906
599.701 1060.41 2886
600.507 1049.76 2857
604.15 1044.24 2842
610.946 1044.24 2842
615.569 1040.57 2832
620.363 1037.26 2823
677.741 1032.12 2809
684.458 1032.12 2809
691.176 1032.12 2809
697.893 1032.12 2809
708.122 1037.26 2823
714.872 1037.26 2823
721.623 1037.26 2823
728.374 1037.26 2823
735.124 1037.26 2823
739.247 1033.59 2813
748.626 1037.26 2823
757.785 1040.57 2832
764.557 1040.57 2832
772.691 1042.41 2837
779.475 1042.41 2837
786.259 1042.41 2837
793.043 1042.41 2837
799.827 1042.41 2837
805.19 1040.57 2832
813.395 1042.41 2837
820.18 1042.41 2837
829.879 1046.08 2847
838.156 1047.92 2852
847.939 1051.59 2862
854.783 1051.59 2862
861.627 1051.59 2862
872.719 1056.74 2876
879.596 1056.74 2876
886.474 1056.74 2876
893.351 1056.74 2876
900.228 1056.74 2876
907.106 1056.74 2876
913.983 1056.74 2876
925.663 1062.25 2891
934.19 1064.09 2896
941.115 1064.09 2896
948.04 1064.09 2896
954.965 1064.09 2896
961.89 1064.09 2896
967.143 1062.25 2891
974.056 1062.25 2891
977.576 1058.57 2881
986.174 1060.41 2886
993.075 1060.41 2886
999.977 1060.41 2886
1006.88 1060.41 2886
1012.02 1058.57 2881
1022.45 1062.25 2891
1029.36 1062.25 2891
1036.28 1062.25 2891
1043.19 1062.25 2891
1050.1 1062.25 2891
1060.67 1065.92 2901
1067.61 1065.92 2901
1076.4 1067.76 2906
1083.35 1067.76 2906
1090.3 1067.76 2906
1093.47 1064.09 2896
1098.49 1062.25 2891
1103.5 1060.41 2886
1104.63 1054.9 2871
1111.49 1054.9 2871
1118.36 1054.9 2871
1127.18 1056.74 2876
1134.06 1056.74 2876
1140.94 1056.74 2876
1143.82 1053.06 2866
1147.06 1049.76 2857
1151.88 1047.92 2852
1158.7 1047.92 2852
1163.47 1046.08 2847
1174.39 1049.76 2857
1181.22 1049.76 2857
1188.06 1049.76 2857
1192.8 1047.92 2852
1199.62 1047.92 2852
1200.09 1042.41 2837
1206.87 1042.41 2837
1213.66 1042.41 2837
1220.44 1042.41 2837
1229.39 1044.24 2842
1238.36 1046.08 2847
1253.48 1053.06 2866
1260.33 1053.06 2866
1273.82 1058.57 2881
1282.93 1060.41 2886
1294.3 1064.09 2896
1301.23 1064.09 2896
1317.64 1071.8 2917
1372.29 1110.38 3022
1382.26 1112.59 3028
1389.5 1112.59 3028
1399.05 1114.42 3033
1406.3 1114.42 3033
1413.55 1114.42 3033
1418.46 1112.59 3028
1433.24 1118.47 3044
1440.52 1118.47 3044
1447.8 1118.47 3044
1455.07 1118.47 3044
1489.74 1139.41 3101
1511.15 1150.06 3130
1521.55 1152.27 3136
1529.05 1152.27 3136
1536.55 1152.27 3136
1544.05 1152.27 3136
1551.55 1152.27 3136
1547.11 1143.45 3112
1546.06 1137.2 3095
1547.94 1133.16 3084
1461.33 1049.76 2857
1468.17 1049.76 2857
1475 1049.76 2857
1481.83 1049.76 2857
1483.45 1046.08 2847
1485.02 1042.41 2837
1487.08 1039.1 2828
1493.84 1039.1 2828
1495.29 1035.43 2818
1491.91 1028.44 2799
1506.09 1033.59 2813
1523.04 1040.57 2832
1529.81 1040.57 2832
1536.58 1040.57 2832
1543.36 1040.57 2832
1550.13 1040.57 2832
1551.95 1037.26 2823
1566.43 1042.41 2837
1578.76 1046.08 2847
1588.36 1047.92 2852
1595.18 1047.92 2852
1609.86 1053.06 2866
1616.71 1053.06 2866
1623.57 1053.06 2866
1630.42 1053.06 2866
1632.13 1049.76 2857
1638.96 1049.76 2857
1645.8 1049.76 2857
1652.63 1049.76 2857
1659.46 1049.76 2857
1666.29 1049.76 2857
1673.12 1049.76 2857
1679.96 1049.76 2857
1680.88 1046.08 2847
1659.24 1028.44 2799
1660.57 1025.14 2790
1667.25 1025.14 2790
1673.92 1025.14 2790
1680.59 1025.14 2790
1687.26 1025.14 2790
1696.36 1026.61 2794
1706.09 1028.44 2799
1712.78 1028.44 2799
1719.48 1028.44 2799
1786.05 998.315 2717
1792.55 998.315 2717
1799.05 998.315 2717
-1955.91 1018.14 2753
-1949.32 1018.14 2753
-1942.74 1018.14 2753
-1926.31 1012.96 2739
-1913.45 1009.63 2730
-1904.13 1008.15 2726
-1897.61 1008.15 2726
-1891.09 1008.15 2726
-1875.59 1003.34 2713
-1884.26 1011.48 2735
-1886.64 1016.29 2748
-1880.07 1016.29 2748
-1902.13 1031.82 2790
-1901.58 1035.15 2799
-1898.27 1037 2804
-1891.56 1037 2804
-1884.86 1037 2804
-1874.8 1035.15 2799
-1868.11 1035.15 2799
-1852.11 1029.97 2785
-1826.89 1019.62 2757
-1808.41 1012.96 2739
-1801.86 1012.96 2739
-1757.95 991.88 2682
-1774.4 1004.82 2717
-1815.4 1031.82 2790
-1811.32 1033.3 2794
-1804.64 1033.3 2794
-1797.96 1033.3 2794
-1703.76 1001.5 2708
-1697.29 1001.5 2708
-1690.81 1001.5 2708
-1681.85 1000.02 2704
-1675.38 1000.02 2704
-1660.89 995.208 2691
-1648.92 991.88 2682
-1616.08 1003.34 2713
-1633.33 1018.14 2753
-1656.88 1037 2804
-1650.17 1037 2804
-1651.67 1042.18 2818
-1647.85 1044.03 2823
-1652.15 1051.05 2842
-1645.35 1051.05 2842
-1641.44 1052.9 2847
-1634.63 1052.9 2847
-1627.82 1052.9 2847
-1621.02 1052.9 2847
-1611.37 1051.05 2842
-1607.4 1052.9 2847
-1600.59 1052.9 2847
-1593.78 1052.9 2847
-1586.98 1052.9 2847
-1582.94 1054.75 2852
-1586.62 1061.78 2871
-1579.76 1061.78 2871
-1581.11 1067.32 2886
-1599.3 1084.34 2932
-1597.72 1088.04 2942
-1590.68 1088.04 2942
-1583.65 1088.04 2942
-1563.22 1078.79 2917
-1556.24 1078.79 2917
-1530.15 1065.48 2881
-1502.64 1051.05 2842
-1495.84 1051.05 2842
-1491.66 1052.9 2847
-1484.85 1052.9 2847
-1478.05 1052.9 2847
-1286.78 1063.63 2876
-1279.9 1063.63 2876
-1273.03 1063.63 2876
-1266.15 1063.63 2876
-1191.85 1071.02 2896
-1184.93 1071.02 2896
-1178 1071.02 2896
-1167.03 1067.32 2886
-1045.17 1003.34 2713
-1038.69 1003.34 2713
-1032.2 1003.34 2713
-1025.71 1003.34 2713
-1019.22 1003.34 2713
-975.246 1004.82 2717
-968.749 1004.82 2717
-962.251 1004.82 2717
-963.493 1012.96 2739
-961.835 1018.14 2753
-961.497 1024.79 2771
-954.871 1024.79 2771
-948.245 1024.79 2771
-943.317 1026.64 2776
-939.716 1029.97 2785
-933.056 1029.97 2785
-929.39 1033.3 2794
-927.662 1038.85 2809
-920.945 1038.85 2809
-914.228 1038.85 2809
-908.803 1040.33 2813
-902.076 1040.33 2813
-895.35 1040.33 2813
-888.623 1040.33 2813
-881.896 1040.33 2813
-875.169 1040.33 2813
-868.443 1040.33 2813
-854.67 1031.82 2790
-846.479 1029.97 2785
-839.819 1029.97 2785
-833.159 1029.97 2785
-826.5 1029.97 2785
-819.84 1029.97 2785
-815.808 1033.3 2794
-810.575 1035.15 2799
-806.753 1038.85 2809
-800.036 1038.85 2809
-795.861 1042.18 2818
-789.122 1042.18 2818
-782.383 1042.18 2818
-775.645 1042.18 2818
-768.906 1042.18 2818
-762.167 1042.18 2818
-755.429 1042.18 2818
-748.69 1042.18 2818
-741.951 1042.18 2818
-736.517 1044.03 2823
-732.093 1047.35 2832
-725.321 1047.35 2832
-723.623 1054.75 2852
-718.06 1056.6 2857
-714.713 1061.78 2871
-707.848 1061.78 2871
-700.982 1061.78 2871
-694.117 1061.78 2871
-687.251 1061.78 2871
-678.253 1058.45 2862
-669.063 1054.75 2852
-657.599 1047.35 2832
-650.827 1047.35 2832
-643.145 1045.87 2828
-634.132 1042.18 2818
-625.39 1038.85 2809
-618.673 1038.85 2809
-611.955 1038.85 2809
-606.1 1040.33 2813
-600.439 1042.18 2818
-593.7 1042.18 2818
-586.961 1042.18 2818
-580.223 1042.18 2818
-573.484 1042.18 2818
-565.74 1040.33 2813
-559.013 1040.33 2813
-552.286 1040.33 2813
-542.844 1035.15 2799
-535.193 1033.3 2794
-528.512 1033.3 2794
-521.831 1033.3 2794
-516.071 1035.15 2799
-509.378 1035.15 2799
-502.685 1035.15 2799
-495.105 1033.3 2794
-487.725 1031.82 2790
-481.053 1031.82 2790
-474.381 1031.82 2790
-467.71 1031.82 2790
-461.699 1033.3 2794
-455.018 1033.3 2794
-448.336 1033.3 2794
-441.655 1033.3 2794
-434.974 1033.3 2794
-428.292 1033.3 2794
-421.611 1033.3 2794
-412.851 1028.12 2780
-405.618 1026.64 2776
-399.555 1028.12 2780
-393.614 1029.97 2785
-386.954 1029.97 2785
-380.977 1031.82 2790
-374.305 1031.82 2790
-367.634 1031.82 2790
-362.126 1035.15 2799
-355.433 1035.15 2799
-348.74 1035.15 2799
-342.047 1035.15 2799
-335.952 1037 2804
-329.247 1037 2804
-322.542 1037 2804
-316.85 1040.33 2813
-310.124 1040.33 2813
-303.397 1040.33 2813
-295.194 1035.15 2799
-287.985 1033.3 2794
-283.217 1040.33 2813
-276.49 1040.33 2813
-270.243 1042.18 2818
-263.972 1044.03 2823
-257.221 1044.03 2823
-250.47 1044.03 2823
-243.288 1042.18 2818
-234.535 1033.3 2794
-227.853 1033.3 2794
-221.172 1033.3 2794
-214.491 1033.3 2794
-208.925 1038.85 2809
-202.856 1042.18 2818
-196.117 1042.18 2818
-190.319 1047.35 2832
-183.547 1047.35 2832
-176.775 1047.35 2832
-170.003 1047.35 2832
-163.231 1047.35 2832
-155.961 1044.03 2823
-149.686 1047.35 2832
-142.914 1047.35 2832
-136.142 1047.35 2832
-63.2679 808.445 2186
-58.0405 808.445 2186
-52.8131 808.445 2186
-47.4769 806.596 2181
-42.1452 804.377 2175
-36.9441 804.377 2175
-31.743 804.377 2175
-26.5419 804.377 2175
-21.282 802.158 2169
-16.0952 802.158 2169
-10.9085 802.158 2169
-5.72175 802.158 2169
-0.535009 802.158 2169
4.65173 802.158 2169
9.81578 800.309 2164
14.949 798.09 2158
20.1094 798.09 2158
25.2113 796.241 2153
30.388 796.98 2155
35.5413 796.98 2155
40.7512 798.09 2158
45.9754 799.199 2161
51.143 799.199 2161
56.3106 799.199 2161
61.8765 804.377 2175
67.2626 806.596 2181
72.4781 806.596 2181
77.6935 806.596 2181
82.7949 805.486 2178
88.1244 806.596 2181
94.0674 812.883 2198
99.3234 812.883 2198
104.722 813.992 2201
110.685 819.17 2215
116.139 820.279 2218
121.443 820.279 2218
127.09 822.498 2224
132.765 824.717 2230
138.098 824.717 2230
143.43 824.717 2230
148.763 824.717 2230
154.096 824.717 2230
159.428 824.717 2230
164.096 821.389 2221
169.407 821.389 2221
174.718 821.389 2221
180.029 821.389 2221
185.34 821.389 2221
268.376 1040.33 2813
277.449 1049.2 2837
284.234 1049.2 2837
292.043 1052.9 2847
298.852 1052.9 2847
305.66 1052.9 2847
312.468 1052.9 2847
319.276 1052.9 2847
326.084 1052.9 2847
332.892 1052.9 2847
339.7 1052.9 2847
345.291 1049.2 2837
351.454 1047.35 2832
358.226 1047.35 2832
364.999 1047.35 2832
371.246 1045.87 2828
378.008 1045.87 2828
384.771 1045.87 2828
390.841 1044.03 2823
397.592 1044.03 2823
405.059 1045.87 2828
411.821 1045.87 2828
418.584 1045.87 2828
425.347 1045.87 2828
429.817 1040.33 2813
436.544 1040.33 2813
443.271 1040.33 2813
449.358 1038.85 2809
454.451 1035.15 2799
460.321 1033.3 2794
467.002 1033.3 2794
473.683 1033.3 2794
482.943 1038.85 2809
489.661 1038.85 2809
496.378 1038.85 2809
503.095 1038.85 2809
510.538 1040.33 2813
517.265 1040.33 2813
523.992 1040.33 2813
530.718 1040.33 2813
537.445 1040.33 2813
544.172 1040.33 2813
550.898 1040.33 2813
554.85 1035.15 2799
565.355 1042.18 2818
573.109 1044.03 2823
579.859 1044.03 2823
586.61 1044.03 2823
593.361 1044.03 2823
600.111 1044.03 2823
606.862 1044.03 2823
613.613 1044.03 2823
617.287 1038.85 2809
677.741 1038.85 2809
684.458 1038.85 2809
691.176 1038.85 2809
697.893 1038.85 2809
703.356 1037 2804
711.327 1038.85 2809
719.067 1040.33 2813
725.794 1040.33 2813
732.52 1040.33 2813
738.196 1038.85 2809
744.913 1038.85 2809
751.63 1038.85 2809
758.347 1038.85 2809
768.878 1044.03 2823
775.628 1044.03 2823
782.379 1044.03 2823
789.13 1044.03 2823
795.88 1044.03 2823
802.631 1044.03 2823
809.382 1044.03 2823
816.132 1044.03 2823
825.506 1047.35 2832
832.278 1047.35 2832
843.495 1052.9 2847
850.303 1052.9 2847
857.111 1052.9 2847
866.953 1056.6 2857
873.785 1056.6 2857
880.617 1056.6 2857
887.449 1056.6 2857
894.281 1056.6 2857
901.113 1056.6 2857
906.356 1054.75 2852
914.777 1056.6 2857
923.222 1058.45 2862
930.066 1058.45 2862
938.219 1059.93 2866
945.073 1059.93 2866
951.926 1059.93 2866
958.78 1059.93 2866
965.633 1059.93 2866
971.129 1058.45 2862
979.34 1059.93 2866
987.914 1061.78 2871
994.779 1061.78 2871
1001.64 1061.78 2871
1008.51 1061.78 2871
1015.38 1061.78 2871
1022.24 1061.78 2871
1029.11 1061.78 2871
1041.38 1067.32 2886
1048.29 1067.32 2886
1057.02 1069.17 2891
1063.93 1069.17 2891
1070.84 1069.17 2891
1077.76 1069.17 2891
1084.67 1069.17 2891
1091.58 1069.17 2891
