580.628 -688.327 3800
589.715 -688.327 3800
598.802 -688.327 3800
605.169 -685.247 3783
614.215 -685.247 3783
623.262 -685.247 3783
627.962 -680.538 3757
631.352 -674.56 3724
640.257 -674.56 3724
644.804 -670.032 3699
649.408 -665.685 3675
658.196 -665.685 3675
666.984 -665.685 3675
672.646 -662.605 3658
681.394 -662.605 3658
684.293 -656.99 3627
694.494 -658.439 3635
710.925 -665.685 3675
719.713 -665.685 3675
728.501 -665.685 3675
737.289 -665.685 3675
746.077 -665.685 3675
748.086 -659.707 3642
755.341 -658.439 3635
767.186 -661.156 3650
775.914 -661.156 3650
784.643 -661.156 3650
793.371 -661.156 3650
800.341 -659.707 3642
809.05 -659.707 3642
809.003 -652.643 3603
832.142 -664.235 3667
844.58 -667.134 3683
857.094 -670.032 3699
865.94 -670.032 3699
884.481 -677.458 3740
893.425 -677.458 3740
906.47 -680.538 3757
919.596 -683.617 3774
928.621 -683.617 3774
939.882 -685.247 3783
953.193 -688.327 3800
964.559 -689.957 3809
973.667 -689.957 3809
985.098 -691.587 3818
994.228 -691.587 3818
1003.36 -691.587 3818
1012.49 -691.587 3818
1012.25 -685.247 3783
1023.73 -686.878 3792
1039.88 -691.587 3818
1049.01 -691.587 3818
1058.14 -691.587 3818
1067.27 -691.587 3818
1076.4 -691.587 3818
1078.14 -686.878 3792
1079.75 -682.168 3766
1074.3 -673.111 3716
1083.19 -673.111 3716
1092.07 -673.111 3716
1100.96 -673.111 3716
1109.84 -673.111 3716
1113.61 -670.032 3699
1122.46 -670.032 3699
1123.96 -665.685 3675
1132.75 -665.685 3675
1139.05 -664.235 3667
1147.82 -664.235 3667
1151.23 -661.156 3650
1165.36 -664.235 3667
1176.69 -665.685 3675
1185.48 -665.685 3675
1194.27 -665.685 3675
1203.05 -665.685 3675
1209.2 -664.235 3667
1217.97 -664.235 3667
1226.74 -664.235 3667
1229.78 -661.156 3650
1235.8 -659.707 3642
1244.51 -659.707 3642
1250.81 -658.439 3635
1259.5 -658.439 3635
1268.19 -658.439 3635
1271.26 -655.541 3619
1279.92 -655.541 3619
1282.88 -652.643 3603
1288.62 -651.193 3595
1288.92 -647.027 3572
1305.82 -651.193 3595
1314.41 -651.193 3595
1325.95 -652.643 3603
1340.5 -655.541 3619
1352.13 -656.99 3627
1360.81 -656.99 3627
1372.5 -658.439 3635
1381.19 -658.439 3635
1389.89 -658.439 3635
1398.58 -658.439 3635
1407.27 -658.439 3635
1415.96 -658.439 3635
1424.65 -658.439 3635
1433.35 -658.439 3635
1442.04 -658.439 3635
1444.35 -655.541 3619
1456.21 -656.99 3627
1470.94 -659.707 3642
1479.65 -659.707 3642
1491.63 -661.156 3650
1500.36 -661.156 3650
1509.09 -661.156 3650
1517.82 -661.156 3650
1523.2 -659.707 3642
1528.96 -658.439 3635
1537.66 -658.439 3635
1539.54 -655.541 3619
1537.93 -651.193 3595
1523.73 -641.593 3542
1532.2 -641.593 3542
1521.09 -633.442 3497
2337.57 -694.667 3835
2374.28 -702.818 3880
2383.55 -702.818 3880
2392.83 -702.818 3880
2374.25 -694.667 3835
2329.97 -679.089 3749
2338.94 -679.089 3749
2316.59 -670.032 3699
2325.44 -670.032 3699
2339.33 -671.481 3707
2379.87 -680.538 3757
2388.85 -680.538 3757
2397.83 -680.538 3757
2789.51 -662.605 3658
2798.26 -662.605 3658
-2959.54 -720.335 4030
-2949.9 -720.335 4030
-2940.26 -720.335 4030
-2930.63 -720.335 4030
-2920.99 -720.335 4030
-2911.35 -720.335 4030
-2901.72 -720.335 4030
-2892.08 -720.335 4030
-2868.14 -716.76 4010
-2845 -713.364 3991
-2835.46 -713.364 3991
-2825.92 -713.364 3991
-2816.37 -713.364 3991
-2806.83 -713.364 3991
-2797.29 -713.364 3991
-2787.74 -713.364 3991
-2778.2 -713.364 3991
-2768.65 -713.364 3991
-2759.11 -713.364 3991
-2736.48 -709.968 3972
-2713.93 -706.572 3953
-2724.32 -711.755 3982
-2733.89 -716.76 4010
-2724.3 -716.76 4010
-2721.48 -718.547 4020
-2711.87 -718.547 4020
-2702.26 -718.547 4020
-2679.92 -715.151 4001
-2657.67 -711.755 3982
-2666.77 -716.76 4010
-2657.18 -716.76 4010
-2647.59 -716.76 4010
-2638 -716.76 4010
-2615.96 -713.364 3991
-2606.41 -713.364 3991
-1454.85 -679.224 3800
-1445.76 -679.224 3800
-1436.68 -679.224 3800
-1414.82 -673.147 3766
-1396.1 -668.499 3740
-1396.8 -673.147 3766
-1387.8 -673.147 3766
-1378.79 -673.147 3766
-1369.79 -673.147 3766
-1360.78 -673.147 3766
-1351.78 -673.147 3766
-1339.56 -671.538 3757
-1361.39 -687.089 3844
-1368.03 -695.132 3889
-1358.73 -695.132 3889
-1349.43 -695.132 3889
-1333.92 -691.915 3871
-1324.67 -691.915 3871
-1309.29 -688.697 3853
-1300.08 -688.697 3853
-1293.88 -690.306 3862
-1284.65 -690.306 3862
-1275.41 -690.306 3862
-1260.28 -687.089 3844
-1251.08 -687.089 3844
-1241.89 -687.089 3844
-1232.7 -687.089 3844
-1217.78 -683.871 3826
-1200.41 -679.224 3800
-248.643 -597.538 3343
-240.648 -597.538 3343
-232.654 -597.538 3343
-224.66 -597.538 3343
-216.666 -597.538 3343
-207.86 -595.215 3330
-199.897 -595.215 3330
-193.491 -600.041 3357
-187.728 -607.369 3398
-179.602 -607.369 3398
-171.477 -607.369 3398
-162.678 -604.867 3384
-151.525 -592.891 3317
-143.593 -592.891 3317
-88.505 -386.8 2164
-83.3303 -386.8 2164
-78.1555 -386.8 2164
-72.8795 -386.264 2161
-67.5239 -385.191 2155
-62.3128 -384.834 2153
-57.1643 -384.834 2153
-52.0158 -384.834 2153
-46.802 -384.298 2150
-41.5445 -383.225 2144
-36.4175 -383.225 2144
-31.1738 -381.795 2136
-26.066 -381.795 2136
-20.9582 -381.795 2136
-15.8132 -380.902 2131
-10.7174 -380.902 2131
-5.60567 -379.829 2125
-0.523416 -379.293 2122
4.54664 -378.935 2120
9.6162 -378.935 2120
14.665 -378.399 2117
19.6994 -377.863 2114
24.7312 -377.505 2112
29.7816 -377.505 2112
34.7826 -376.969 2109
39.7692 -376.433 2106
44.7627 -376.076 2104
49.794 -376.076 2104
54.8253 -376.076 2104
59.8566 -376.076 2104
64.8879 -376.076 2104
69.9193 -376.076 2104
74.8437 -375.539 2101
79.8678 -375.539 2101
84.7707 -375.003 2098
89.7877 -375.003 2098
94.7142 -374.646 2096
99.5837 -374.109 2093
104.489 -373.752 2091
109.07 -372.322 2083
114.051 -372.322 2083
119.032 -372.322 2083
123.835 -371.786 2080
128.685 -371.428 2078
133.654 -371.428 2078
137.889 -369.462 2067
142.832 -369.462 2067
147.417 -368.568 2062
152.348 -368.568 2062
156.898 -367.675 2057
160.794 -365.351 2044
165.52 -364.993 2042
170.403 -364.993 2042
174.599 -363.564 2034
179.11 -362.849 2030
184.78 -364.457 2039
189.935 -364.993 2042
194.818 -364.993 2042
199.701 -364.993 2042
204.584 -364.993 2042
209.159 -364.457 2039
214.035 -364.457 2039
218.374 -363.564 2034
222.799 -362.849 2030
227.093 -361.955 2025
231.935 -361.955 2025
236.427 -361.419 2022
241.859 -362.312 2027
247.558 -363.564 2034
253.414 -364.993 2042
258.297 -364.993 2042
263.438 -365.351 2044
269.77 -367.317 2055
274.684 -367.317 2055
279.598 -367.317 2055
526.376 -656.881 3675
535.164 -656.881 3675
547.504 -661.171 3699
560.11 -665.639 3724
569.015 -665.639 3724
577.92 -665.639 3724
586.826 -665.639 3724
595.731 -665.639 3724
604.636 -665.639 3724
612.223 -664.209 3716
619.605 -662.601 3707
627.113 -661.171 3699
635.959 -661.171 3699
640.62 -656.881 3675
646.404 -653.842 3658
655.152 -653.842 3658
662.447 -652.412 3650
671.175 -652.412 3650
678.413 -650.982 3642
684.293 -648.301 3627
694.494 -649.731 3635
709.377 -655.451 3667
718.146 -655.451 3667
726.915 -655.451 3667
735.684 -655.451 3667
744.453 -655.451 3667
749.73 -652.412 3650
756.796 -650.982 3642
768.868 -653.842 3658
777.615 -653.842 3658
786.362 -653.842 3658
793.371 -652.412 3650
800.341 -650.982 3642
809.05 -650.982 3642
809.003 -644.012 3603
830.099 -653.842 3658
842.745 -656.881 3675
857.094 -661.171 3699
865.94 -661.171 3699
880.698 -665.639 3724
891.514 -667.069 3732
902.368 -668.499 3740
915.454 -671.538 3757
924.438 -671.538 3757
937.646 -674.577 3774
948.928 -676.185 3783
957.975 -676.185 3783
967.021 -676.185 3783
982.776 -680.833 3809
991.884 -680.833 3809
1000.99 -680.833 3809
1003.21 -676.185 3783
1003.15 -670.108 3749
1014.28 -671.538 3757
1030.35 -676.185 3783
1039.39 -676.185 3783
1048.44 -676.185 3783
1057.48 -676.185 3783
1066.53 -676.185 3783
1070.74 -673.147 3766
1072.29 -668.499 3740
1071.7 -662.601 3707
1083.19 -664.209 3716
1092.07 -664.209 3716
1100.96 -664.209 3716
1109.84 -664.209 3716
1106.39 -656.881 3675
1115.17 -656.881 3675
1121.52 -655.451 3667
1130.28 -655.451 3667
1136.26 -653.842 3658
1145.01 -653.842 3658
1151.23 -652.412 3650
1162.5 -653.842 3658
1171.25 -653.842 3658
1179.99 -653.842 3658
1188.74 -653.842 3658
1197.49 -653.842 3658
1200.96 -650.982 3642
1209.67 -650.982 3642
1218.38 -650.982 3642
1224.73 -649.731 3635
1230.71 -648.301 3627
1242.11 -649.731 3635
1250.81 -649.731 3635
1259.5 -649.731 3635
1268.19 -649.731 3635
1271.26 -646.871 3619
1279.92 -646.871 3619
1282.88 -644.012 3603
1288.62 -642.582 3595
1288.92 -638.47 3572
1303.27 -641.33 3588
1311.85 -641.33 3588
1325.95 -644.012 3603
1337.53 -645.441 3611
1349.15 -646.871 3619
1357.81 -646.871 3619
1369.48 -648.301 3627
1378.15 -648.301 3627
1386.83 -648.301 3627
1395.5 -648.301 3627
1404.17 -648.301 3627
1412.85 -648.301 3627
1421.52 -648.301 3627
1427.04 -646.871 3619
1435.69 -646.871 3619
1441.15 -645.441 3611
1449.79 -645.441 3611
1464.89 -648.301 3627
1473.56 -648.301 3627
1485.5 -649.731 3635
1497.07 -650.982 3642
1505.78 -650.982 3642
1514.49 -650.982 3642
1523.2 -650.982 3642
1525.6 -648.301 3627
1534.27 -648.301 3627
1539.54 -646.871 3619
1537.93 -642.582 3595
1523.73 -633.108 3542
1532.2 -633.108 3542
1521.09 -625.065 3497
2337.57 -685.48 3835
2374.28 -693.523 3880
2383.55 -693.523 3880
2392.83 -693.523 3880
2374.25 -685.48 3835
2329.97 -670.108 3749
2338.94 -670.108 3749
2316.59 -661.171 3699
2325.44 -661.171 3699
2339.33 -662.601 3707
2379.87 -671.538 3757
2388.85 -671.538 3757
2397.83 -671.538 3757
2789.51 -653.842 3658
2798.26 -653.842 3658
-2924.29 -702.216 3982
-2914.77 -702.216 3982
-2919.11 -705.567 4001
-2909.54 -705.567 4001
-2906.49 -707.154 4010
-2896.91 -707.154 4010
-2887.32 -707.154 4010
-2871.27 -705.567 4001
-2834.52 -698.866 3963
-2831.46 -700.453 3972
-2829.07 -702.216 3982
-2819.54 -702.216 3982
-2810.02 -702.216 3982
-2793.47 -700.453 3972
-2783.97 -700.453 3972
-2774.47 -700.453 3972
-2771.93 -702.216 3982
-2762.41 -702.216 3982
-2752.89 -702.216 3982
-2736.48 -700.453 3972
-2713.93 -697.102 3953
-2717.48 -700.453 3972
-2733.89 -707.154 4010
-2724.3 -707.154 4010
-2721.48 -708.917 4020
-2711.87 -708.917 4020
-2702.26 -708.917 4020
-2679.92 -705.567 4001
-2657.67 -702.216 3982
-2666.77 -707.154 4010
-2657.18 -707.154 4010
-2647.59 -707.154 4010
-2638 -707.154 4010
-2615.96 -703.803 3991
-2606.41 -703.803 3991
-1454.85 -670.121 3800
-1445.76 -670.121 3800
-1436.68 -670.121 3800
-1414.82 -664.125 3766
-1396.1 -659.54 3740
-1396.8 -664.125 3766
-1387.8 -664.125 3766
-1378.79 -664.125 3766
-1369.79 -664.125 3766
-1360.78 -664.125 3766
-1351.78 -664.125 3766
-1339.56 -662.538 3757
-1361.39 -677.88 3844
-1358.53 -681.055 3862
-1349.29 -681.055 3862
-1340.06 -681.055 3862
-1318.42 -674.706 3826
-1318.51 -679.467 3853
-1309.29 -679.467 3853
-1300.08 -679.467 3853
-1290.87 -679.467 3853
-1281.65 -679.467 3853
-1272.44 -679.467 3853
-1260.28 -677.88 3844
-1251.08 -677.88 3844
-1241.89 -677.88 3844
-1232.7 -677.88 3844
-1217.78 -674.706 3826
-1200.41 -670.121 3800
-248.643 -589.53 3343
-240.648 -589.53 3343
-232.654 -589.53 3343
-224.66 -589.53 3343
-216.666 -589.53 3343
-207.86 -587.238 3330
-199.897 -587.238 3330
-193.491 -591.999 3357
-187.728 -599.229 3398
-179.602 -599.229 3398
-171.477 -599.229 3398
-162.678 -596.76 3384
-151.525 -584.945 3317
-143.593 -584.945 3317
-88.505 -381.616 2164
-83.3303 -381.616 2164
-78.1555 -381.616 2164
-72.8795 -381.087 2161
-67.5239 -380.029 2155
-62.3128 -379.676 2153
-57.1643 -379.676 2153
-52.0158 -379.676 2153
-46.802 -379.147 2150
-41.5445 -378.089 2144
-36.4175 -378.089 2144
-31.1738 -376.679 2136
-26.066 -376.679 2136
-20.9582 -376.679 2136
-15.8132 -375.797 2131
-10.7174 -375.797 2131
-5.60567 -374.739 2125
-0.523416 -374.21 2122
4.54664 -373.857 2120
9.6162 -373.857 2120
14.665 -373.328 2117
19.6994 -372.799 2114
24.7312 -372.446 2112
29.7816 -372.446 2112
34.7826 -371.917 2109
39.7692 -371.388 2106
44.7627 -371.035 2104
49.794 -371.035 2104
54.8253 -371.035 2104
59.8566 -371.035 2104
64.8879 -371.035 2104
69.9193 -371.035 2104
74.8437 -370.506 2101
79.8678 -370.506 2101
84.7707 -369.977 2098
89.7877 -369.977 2098
94.7142 -369.625 2096
99.5837 -369.096 2093
104.489 -368.743 2091
109.07 -367.332 2083
114.051 -367.332 2083
119.032 -367.332 2083
123.835 -366.803 2080
128.685 -366.45 2078
133.654 -366.45 2078
137.889 -364.511 2067
142.832 -364.511 2067
147.417 -363.629 2062
152.348 -363.629 2062
156.898 -362.747 2057
160.794 -360.455 2044
165.52 -360.102 2042
170.403 -360.102 2042
174.599 -358.691 2034
179.11 -357.986 2030
184.78 -359.573 2039
189.935 -360.102 2042
194.818 -360.102 2042
199.701 -360.102 2042
204.584 -360.102 2042
209.159 -359.573 2039
214.035 -359.573 2039
218.374 -358.691 2034
222.799 -357.986 2030
227.093 -357.104 2025
231.935 -357.104 2025
236.427 -356.575 2022
241.859 -357.457 2027
247.558 -358.691 2034
253.414 -360.102 2042
258.297 -360.102 2042
263.438 -360.455 2044
269.77 -362.394 2055
274.684 -362.394 2055
279.598 -362.394 2055
526.376 -648.078 3675
535.164 -648.078 3675
547.504 -652.31 3699
557.553 -653.721 3707
567.793 -655.308 3716
576.679 -655.308 3716
585.565 -655.308 3716
594.451 -655.308 3716
603.337 -655.308 3716
610.74 -653.721 3707
619.605 -653.721 3707
627.113 -652.31 3699
635.959 -652.31 3699
639.226 -646.667 3667
646.404 -645.08 3658
655.152 -645.08 3658
662.447 -643.669 3650
671.175 -643.669 3650
678.413 -642.258 3642
684.293 -639.613 3627
694.494 -641.024 3635
709.377 -646.667 3667
718.146 -646.667 3667
726.915 -646.667 3667
735.684 -646.667 3667
744.453 -646.667 3667
749.73 -643.669 3650
756.796 -642.258 3642
768.868 -645.08 3658
777.615 -645.08 3658
786.362 -645.08 3658
793.371 -643.669 3650
798.803 -641.024 3635
807.495 -641.024 3635
812.595 -638.202 3619
830.099 -645.08 3658
842.745 -648.078 3675
855.241 -650.899 3691
864.067 -650.899 3691
878.806 -655.308 3716
889.603 -656.719 3724
898.508 -656.719 3724
909.362 -658.129 3732
918.287 -658.129 3732
933.422 -662.538 3757
944.664 -664.125 3766
955.696 -665.536 3774
964.72 -665.536 3774
973.745 -665.536 3774
982.77 -665.536 3774
991.795 -665.536 3774
998.698 -664.125 3766
996.465 -656.719 3724
1007.53 -658.129 3732
1023.26 -662.538 3757
1032.25 -662.538 3757
1041.23 -662.538 3757
1047.98 -661.127 3749
1056.94 -661.127 3749
1063.35 -659.54 3740
1062.83 -653.721 3707
1069.38 -652.31 3699
1078.23 -652.31 3699
1080.02 -648.078 3675
1088.81 -648.078 3675
1097.6 -648.078 3675
1103.98 -646.667 3667
1112.75 -646.667 3667
1118.76 -645.08 3658
1125.04 -643.669 3650
1131.29 -642.258 3642
1140 -642.258 3642
1148.71 -642.258 3642
1157.42 -642.258 3642
1166.12 -642.258 3642
1174.83 -642.258 3642
1183.54 -642.258 3642
1192.25 -642.258 3642
1198.65 -641.024 3635
1207.35 -641.024 3635
1216.04 -641.024 3635
1219.34 -638.202 3619
1225.28 -636.791 3611
1242.11 -641.024 3635
1250.81 -641.024 3635
1259.5 -641.024 3635
1268.19 -641.024 3635
1274.07 -639.613 3627
1282.75 -639.613 3627
1288.57 -638.202 3619
1288.62 -633.97 3595
1297.22 -633.97 3595
1308.72 -635.38 3603
1317.34 -635.38 3603
1328.9 -636.791 3611
1337.53 -636.791 3611
1349.15 -638.202 3619
1357.81 -638.202 3619
1366.46 -638.202 3619
1375.11 -638.202 3619
1383.77 -638.202 3619
1392.42 -638.202 3619
1401.08 -638.202 3619
1409.73 -638.202 3619
1418.38 -638.202 3619
1423.88 -636.791 3611
1432.52 -636.791 3611
1437.96 -635.38 3603
1440.55 -632.735 3588
1458.42 -636.791 3611
1467.06 -636.791 3611
1482.23 -639.613 3627
1490.91 -639.613 3627
1499.58 -639.613 3627
1508.25 -639.613 3627
1516.93 -639.613 3627
1522.23 -638.202 3619
1530.89 -638.202 3619
1536.14 -636.791 3611
1528.09 -629.914 3572
1523.73 -624.623 3542
1532.2 -624.623 3542
1521.09 -616.688 3497
2346.44 -684.229 3880
2355.72 -684.229 3880
2365 -684.229 3880
2346.74 -676.293 3835
2355.91 -676.293 3835
2365.08 -676.293 3835
2374.25 -676.293 3835
2334.95 -662.538 3757
2343.93 -662.538 3757
2342.27 -659.54 3740
2325.44 -652.31 3699
2339.33 -653.721 3707
2396.34 -667.123 3783
2405.38 -667.123 3783
2414.43 -667.123 3783
2406.82 -662.538 3757
2378.51 -652.31 3699
2387.35 -652.31 3699
2380.65 -648.078 3675
2384.24 -646.667 3667
2376.69 -642.258 3642
2385.4 -642.258 3642
2373.73 -636.791 3611
2356.64 -629.914 3572
2778.84 -646.667 3667
2787.61 -646.667 3667
2796.38 -646.667 3667
2798.26 -645.08 3658
-2924.29 -692.677 3982
-2914.77 -692.677 3982
-2905.24 -692.677 3982
-2895.72 -692.677 3982
-2886.2 -692.677 3982
-2876.68 -692.677 3982
-2867.16 -692.677 3982
-2850.46 -690.938 3972
-2820.93 -686.067 3944
-2811.5 -686.067 3944
-2802.07 -686.067 3944
-2792.64 -686.067 3944
-2783.21 -686.067 3944
-2773.77 -686.067 3944
-2783.97 -690.938 3972
-2774.47 -690.938 3972
-2764.97 -690.938 3972
-2755.47 -690.938 3972
-2745.98 -690.938 3972
-2723.39 -687.633 3953
-2713.93 -687.633 3953
-2704.48 -687.633 3953
-2727.75 -695.982 4001
-2718.19 -695.982 4001
-2721.48 -699.288 4020
-2711.87 -699.288 4020
-2702.26 -699.288 4020
-2673.22 -694.243 3991
-2638.31 -687.633 3953
-2666.77 -697.548 4010
-2657.18 -697.548 4010
-2647.59 -697.548 4010
-2638 -697.548 4010
-2615.96 -694.243 3991
-2606.41 -694.243 3991
-1480.89 -668.672 3844
-1471.7 -668.672 3844
-1462.5 -668.672 3844
-1443.48 -664.149 3818
-1424.58 -659.626 3792
-1396.1 -650.581 3740
-1387.16 -650.581 3740
-1375.27 -649.189 3732
-1378.79 -655.104 3766
-1369.79 -655.104 3766
-1360.78 -655.104 3766
-1351.78 -655.104 3766
-1342.77 -655.104 3766
-1361.39 -668.672 3844
-1352.2 -668.672 3844
-1343 -668.672 3844
-1330.69 -667.106 3835
-1318.42 -665.541 3826
-1309.27 -665.541 3826
-1306.24 -668.672 3844
-1297.04 -668.672 3844
-1293.88 -671.803 3862
-1284.65 -671.803 3862
-1275.41 -671.803 3862
-1263.23 -670.237 3853
-1256.94 -671.803 3862
-1247.71 -671.803 3862
-1238.47 -671.803 3862
-1229.24 -671.803 3862
-1206.1 -664.149 3818
-252.568 -572.302 3290
-247.155 -578.043 3323
-239.209 -578.043 3323
-231.262 -578.043 3323
-223.316 -578.043 3323
-215.37 -578.043 3323
-205.364 -572.302 3290
-197.496 -572.302 3290
-193.491 -583.957 3357
-187.728 -591.089 3398
-179.602 -591.089 3398
-171.477 -591.089 3398
-162.678 -588.654 3384
-151.525 -576.999 3317
-143.593 -576.999 3317
-88.505 -376.432 2164
-83.3303 -376.432 2164
-78.1555 -376.432 2164
-72.8795 -375.911 2161
-67.5239 -374.867 2155
-62.2259 -373.997 2150
-57.0846 -373.997 2150
-51.9433 -373.997 2150
-46.7367 -373.475 2147
-41.5445 -372.953 2144
-36.4175 -372.953 2144
-31.1738 -371.562 2136
-26.066 -371.562 2136
-20.9287 -371.04 2133
-15.8132 -370.692 2131
-10.7174 -370.692 2131
-5.60567 -369.648 2125
-0.523416 -369.126 2122
4.54664 -368.778 2120
9.6162 -368.778 2120
14.665 -368.257 2117
19.6994 -367.735 2114
24.7312 -367.387 2112
29.7816 -367.387 2112
34.8321 -367.387 2112
39.7692 -366.343 2106
44.7627 -365.995 2104
49.794 -365.995 2104
54.8253 -365.995 2104
59.7713 -365.473 2101
64.7954 -365.473 2101
69.8196 -365.473 2101
74.8437 -365.473 2101
79.8678 -365.473 2101
84.7707 -364.952 2098
89.7877 -364.952 2098
94.8046 -364.952 2098
99.7264 -364.604 2096
104.489 -363.734 2091
109.332 -363.212 2088
114.325 -363.212 2088
119.032 -362.342 2083
123.835 -361.82 2080
128.685 -361.473 2078
133.654 -361.473 2078
138.223 -360.429 2072
142.832 -359.559 2067
147.417 -358.689 2062
152.348 -358.689 2062
156.898 -357.82 2057
161.03 -356.08 2047
165.682 -355.558 2044
170.57 -355.558 2044
174.599 -353.819 2034
179.287 -353.471 2032
184.78 -354.688 2039
190.121 -355.558 2044
195.009 -355.558 2044
199.897 -355.558 2044
204.784 -355.558 2044
209.159 -354.688 2039
214.035 -354.688 2039
218.911 -354.688 2039
223.238 -353.819 2034
227.654 -353.123 2030
232.508 -353.123 2030
237.011 -352.601 2027
242.455 -353.471 2032
248.775 -355.558 2044
254.655 -356.95 2052
259.562 -356.95 2052
265.5 -358.341 2060
270.689 -358.689 2062
275.62 -358.689 2062
280.551 -358.689 2062
525.23 -637.882 3667
533.999 -637.882 3667
545.136 -640.666 3683
556.35 -643.449 3699
565.195 -643.449 3699
574.041 -643.449 3699
584.147 -644.841 3707
593.011 -644.841 3707
601.876 -644.841 3707
610.74 -644.841 3707
618.268 -643.449 3699
624.401 -640.666 3683
633.208 -640.666 3683
637.657 -636.317 3658
644.991 -634.925 3650
652.286 -633.534 3642
660.995 -633.534 3642
669.704 -633.534 3642
675.619 -630.924 3627
684.293 -630.924 3627
694.494 -632.316 3635
710.925 -639.274 3675
719.713 -639.274 3675
728.501 -639.274 3675
737.289 -639.274 3675
746.077 -639.274 3675
751.373 -636.317 3658
760.12 -636.317 3658
772.441 -639.274 3675
781.229 -639.274 3675
790.017 -639.274 3675
798.805 -639.274 3675
800.341 -633.534 3642
809.05 -633.534 3642
816.188 -632.316 3635
832.142 -637.882 3667
844.58 -640.666 3683
855.241 -642.057 3691
864.067 -642.057 3691
876.677 -644.841 3707
889.603 -647.798 3724
898.508 -647.798 3724
907.413 -647.798 3724
916.318 -647.798 3724
929.199 -650.581 3740
938.142 -650.581 3740
951.391 -653.538 3757
960.375 -653.538 3757
971.681 -655.104 3766
980.687 -655.104 3766
989.692 -655.104 3766
989.682 -649.189 3732
996.465 -647.798 3724
1005.37 -647.798 3724
1014.28 -647.798 3724
1023.18 -647.798 3724
1032.09 -647.798 3724
1040.99 -647.798 3724
1049.9 -647.798 3724
1053.97 -644.841 3707
1060.54 -643.449 3699
1062.45 -639.274 3675
1071.23 -639.274 3675
1077.67 -637.882 3667
1086.44 -637.882 3667
1095.21 -637.882 3667
1098.86 -634.925 3650
1107.59 -634.925 3650
1111.73 -632.316 3635
1117.96 -630.924 3627
1126.63 -630.924 3627
1135.3 -630.924 3627
1143.98 -630.924 3627
1155.19 -632.316 3635
1163.88 -632.316 3635
1172.58 -632.316 3635
1181.27 -632.316 3635
1189.96 -632.316 3635
1196.01 -630.924 3627
1204.69 -630.924 3627
1213.36 -630.924 3627
1219.34 -629.533 3619
1225.28 -628.141 3611
1242.11 -632.316 3635
1250.81 -632.316 3635
1259.5 -632.316 3635
1268.19 -632.316 3635
1274.07 -630.924 3627
1282.75 -630.924 3627
1288.57 -629.533 3619
1291.49 -626.749 3603
1300.11 -626.749 3603
1311.63 -628.141 3611
1320.26 -628.141 3611
1331.84 -629.533 3619
1340.5 -629.533 3619
1349.15 -629.533 3619
1357.81 -629.533 3619
1366.46 -629.533 3619
1378.15 -630.924 3627
1386.83 -630.924 3627
1395.5 -630.924 3627
1404.17 -630.924 3627
1412.85 -630.924 3627
1421.52 -630.924 3627
1423.88 -628.141 3611
1432.52 -628.141 3611
1428.78 -622.749 3580
1437.34 -622.749 3580
1451.96 -625.358 3595
1460.56 -625.358 3595
1478.96 -629.533 3619
1490.91 -630.924 3627
1502.89 -632.316 3635
1511.58 -632.316 3635
1520.27 -632.316 3635
1522.23 -629.533 3619
1530.89 -629.533 3619
1529.33 -625.358 3595
1531.51 -622.749 3580
1530.18 -618.748 3557
1538.68 -618.748 3557
1521.09 -608.311 3497
2216.48 -647.798 3724
2225.38 -647.798 3724
2275.09 -659.626 3792
2284.16 -659.626 3792
2346.44 -674.934 3880
2355.72 -674.934 3880
2365 -674.934 3880
2346.74 -667.106 3835
2355.91 -667.106 3835
2365.08 -667.106 3835
2336.49 -656.495 3774
2334.95 -653.538 3757
2343.93 -653.538 3757
2342.27 -650.581 3740
2325.44 -643.449 3699
2339.33 -644.841 3707
2396.34 -658.061 3783
2405.38 -658.061 3783
2414.43 -658.061 3783
2406.82 -653.538 3757
2378.51 -643.449 3699
2387.35 -643.449 3699
2380.65 -639.274 3675
2384.24 -637.882 3667
2376.69 -633.534 3642
2385.4 -633.534 3642
2373.73 -628.141 3611
2356.64 -621.357 3572
2345.32 -616.138 3542
2353.79 -616.138 3542
2362.26 -616.138 3542
2370.73 -616.138 3542
2800.29 -644.841 3707
2809.15 -644.841 3707
2818.02 -644.841 3707
2820.78 -643.449 3699
2817.39 -640.666 3683
-2924.29 -683.138 3982
-2914.77 -683.138 3982
-2905.24 -683.138 3982
-2895.72 -683.138 3982
-2886.2 -683.138 3982
-2876.68 -683.138 3982
-2867.16 -683.138 3982
-2850.46 -681.423 3972
-2794.47 -670.272 3907
-2797.96 -673.36 3925
-2802.07 -676.619 3944
-2792.64 -676.619 3944
-2783.21 -676.619 3944
-2773.77 -676.619 3944
-2783.97 -681.423 3972
-2774.47 -681.423 3972
-2764.97 -681.423 3972
-2755.47 -681.423 3972
-2745.98 -681.423 3972
-2723.39 -678.163 3953
-2707.76 -676.619 3944
-2704.48 -678.163 3953
-2720.94 -684.682 3991
-2711.39 -684.682 3991
-2708.62 -686.398 4001
-2699.05 -686.398 4001
-2689.48 -686.398 4001
-2660.49 -681.423 3972
-2638.31 -678.163 3953
-2666.77 -687.942 4010
-2657.18 -687.942 4010
-2647.59 -687.942 4010
-2638 -687.942 4010
-2615.96 -684.682 3991
-2606.41 -684.682 3991
-1480.99 -647.455 3774
-1471.97 -647.455 3774
-1462.94 -647.455 3774
-1480.89 -659.464 3844
-1471.7 -659.464 3844
-1462.5 -659.464 3844
-1443.48 -655.003 3818
-1424.58 -650.543 3792
-1393.12 -640.249 3732
-1384.19 -640.249 3732
-1375.27 -640.249 3732
-1378.79 -646.082 3766
-1369.79 -646.082 3766
-1360.78 -646.082 3766
-1351.78 -646.082 3766
-1342.77 -646.082 3766
-1361.39 -659.464 3844
-1352.2 -659.464 3844
-1343 -659.464 3844
-1330.69 -657.92 3835
-1318.42 -656.376 3826
-1309.27 -656.376 3826
-1306.24 -659.464 3844
-1297.04 -659.464 3844
-1293.88 -662.552 3862
-1284.65 -662.552 3862
-1275.41 -662.552 3862
-1263.23 -661.008 3853
-1256.94 -662.552 3862
-1247.71 -662.552 3862
-1238.47 -662.552 3862
-1229.24 -662.552 3862
-1206.1 -655.003 3818
-258.931 -561.162 3271
-252.568 -564.421 3290
-244.701 -564.421 3290
-236.833 -564.421 3290
-228.966 -564.421 3290
-221.098 -564.421 3290
-213.231 -564.421 3290
-204.178 -561.162 3271
-196.356 -561.162 3271
-191.531 -570.083 3323
-183.971 -571.284 3330
-176.008 -571.284 3330
-168.045 -571.284 3330
-159.457 -569.053 3317
-151.206 -567.852 3310
-143.29 -567.852 3310
-88.3823 -370.734 2161
-83.2147 -370.734 2161
-78.0471 -370.734 2161
-72.6772 -369.704 2155
-67.2732 -368.332 2147
-62.1391 -368.332 2147
-57.005 -368.332 2147
-51.8709 -368.332 2147
-46.7367 -368.332 2147
-41.5445 -367.817 2144
-36.4175 -367.817 2144
-31.1738 -366.445 2136
-26.0294 -365.93 2133
-20.9287 -365.93 2133
-15.8132 -365.587 2131
-10.7174 -365.587 2131
-5.60567 -364.558 2125
-0.523416 -364.043 2122
4.54664 -363.7 2120
9.6162 -363.7 2120
14.6858 -363.7 2120
19.7274 -363.185 2117
24.7312 -362.328 2112
29.7816 -362.328 2112
34.8321 -362.328 2112
39.7692 -361.298 2106
44.7627 -360.955 2104
49.794 -360.955 2104
54.8253 -360.955 2104
59.8566 -360.955 2104
64.7954 -360.44 2101
69.9193 -360.955 2104
74.9505 -360.955 2104
79.9818 -360.955 2104
84.8919 -360.44 2101
89.9161 -360.44 2101
94.9402 -360.44 2101
99.7264 -359.583 2096
104.589 -359.068 2093
109.332 -358.21 2088
114.325 -358.21 2088
119.147 -357.696 2085
124.013 -357.352 2083
128.685 -356.495 2078
133.654 -356.495 2078
138.223 -355.465 2072
143.039 -355.122 2070
147.775 -354.608 2067
152.718 -354.608 2067
157.127 -353.407 2060
161.03 -351.176 2047
165.682 -350.662 2044
170.57 -350.662 2044
174.599 -348.946 2034
179.287 -348.603 2032
184.78 -349.804 2039
190.121 -350.662 2044
195.009 -350.662 2044
199.897 -350.662 2044
204.784 -350.662 2044
209.467 -350.319 2042
214.35 -350.319 2042
218.911 -349.804 2039
223.567 -349.461 2037
227.878 -348.603 2032
232.737 -348.603 2032
237.596 -348.603 2032
242.694 -348.946 2034
249.749 -352.034 2052
255.276 -352.892 2057
260.195 -352.892 2057
265.758 -353.75 2062
270.689 -353.75 2062
484.808 -622.236 3627
493.481 -622.236 3627
503.262 -623.608 3635
512.94 -624.809 3642
525.23 -629.098 3667
533.999 -629.098 3667
542.768 -629.098 3667
555.146 -633.215 3691
563.973 -633.215 3691
572.799 -633.215 3691
579.104 -630.471 3675
587.892 -630.471 3675
597.979 -631.843 3683
606.786 -631.843 3683
615.593 -631.843 3683
623.044 -630.471 3675
631.832 -630.471 3675
636.262 -626.182 3650
642.34 -623.608 3635
651.032 -623.608 3635
658.273 -622.236 3627
666.946 -622.236 3627
675.619 -622.236 3627
684.293 -622.236 3627
694.494 -623.608 3635
710.925 -630.471 3675
719.713 -630.471 3675
728.501 -630.471 3675
737.289 -630.471 3675
746.077 -630.471 3675
753.222 -629.098 3667
763.653 -630.471 3675
774.122 -631.843 3683
782.93 -631.843 3683
791.737 -631.843 3683
800.544 -631.843 3683
809.351 -631.843 3683
818.158 -631.843 3683
826.965 -631.843 3683
835.773 -631.843 3683
850.083 -635.96 3707
861.033 -637.504 3716
869.919 -637.504 3716
880.698 -638.877 3724
889.603 -638.877 3724
898.508 -638.877 3724
907.413 -638.877 3724
916.318 -638.877 3724
929.199 -641.622 3740
938.142 -641.622 3740
951.391 -644.538 3757
960.375 -644.538 3757
971.681 -646.082 3766
980.687 -646.082 3766
989.692 -646.082 3766
989.682 -640.249 3732
996.465 -638.877 3724
1005.37 -638.877 3724
1014.28 -638.877 3724
1023.18 -638.877 3724
1032.09 -638.877 3724
1040.99 -638.877 3724
1049.9 -638.877 3724
1053.97 -635.96 3707
1060.54 -634.588 3699
1062.45 -630.471 3675
1071.23 -630.471 3675
1077.67 -629.098 3667
1086.44 -629.098 3667
1095.21 -629.098 3667
1098.86 -626.182 3650
1107.59 -626.182 3650
1111.73 -623.608 3635
1117.96 -622.236 3627
1126.63 -622.236 3627
1135.3 -622.236 3627
1143.98 -622.236 3627
1155.19 -623.608 3635
1163.88 -623.608 3635
1172.58 -623.608 3635
1181.27 -623.608 3635
1189.96 -623.608 3635
1196.01 -622.236 3627
1204.69 -622.236 3627
1213.36 -622.236 3627
1219.34 -620.863 3619
1225.28 -619.491 3611
1242.11 -623.608 3635
1250.81 -623.608 3635
1259.5 -623.608 3635
1268.19 -623.608 3635
1274.07 -622.236 3627
1282.75 -622.236 3627
1288.57 -620.863 3619
1291.49 -618.118 3603
1300.11 -618.118 3603
1311.63 -619.491 3611
1320.26 -619.491 3611
1331.84 -620.863 3619
1340.5 -620.863 3619
1349.15 -620.863 3619
1357.81 -620.863 3619
1366.46 -620.863 3619
1378.15 -622.236 3627
1386.83 -622.236 3627
1395.5 -622.236 3627
1404.17 -622.236 3627
1412.85 -622.236 3627
1421.52 -622.236 3627
1423.88 -619.491 3611
1432.52 -619.491 3611
1431.97 -615.545 3588
1440.55 -615.545 3588
1455.19 -618.118 3603
1463.81 -618.118 3603
1478.96 -620.863 3619
1490.91 -622.236 3627
1502.89 -623.608 3635
1511.58 -623.608 3635
1520.27 -623.608 3635
1522.23 -620.863 3619
1530.89 -620.863 3619
1529.33 -616.746 3595
1534.93 -615.545 3588
1536.63 -612.8 3572
1545.17 -612.8 3572
1521.09 -599.933 3497
2207.57 -638.877 3724
2241.48 -646.082 3766
2250.48 -646.082 3766
2275.09 -650.543 3792
2315.48 -659.464 3844
2346.44 -665.64 3880
2355.72 -665.64 3880
2365 -665.64 3880
2346.74 -657.92 3835
2355.91 -657.92 3835
2365.08 -657.92 3835
2336.49 -647.455 3774
2334.95 -644.538 3757
2343.93 -644.538 3757
2342.27 -641.622 3740
2325.44 -634.588 3699
2339.33 -635.96 3707
2396.34 -648.999 3783
2405.38 -648.999 3783
2414.43 -648.999 3783
2406.82 -644.538 3757
2378.51 -634.588 3699
2387.35 -634.588 3699
2380.65 -630.471 3675
2384.24 -629.098 3667
2376.69 -624.809 3642
2385.4 -624.809 3642
2373.73 -619.491 3611
2356.64 -612.8 3572
2345.32 -607.654 3542
2353.79 -607.654 3542
2362.26 -607.654 3542
2370.73 -607.654 3542
2850.9 -647.455 3774
2859.92 -647.455 3774
2868.95 -647.455 3774
2877.97 -647.455 3774
2842.63 -637.504 3716
-2924.29 -673.599 3982
-2914.77 -673.599 3982
-2905.24 -673.599 3982
-2895.72 -673.599 3982
-2886.2 -673.599 3982
-2876.68 -673.599 3982
-2867.16 -673.599 3982
-2850.46 -671.908 3972
-2794.47 -660.912 3907
-2797.96 -663.957 3925
-2802.07 -667.171 3944
-2792.64 -667.171 3944
-2783.21 -667.171 3944
-2773.77 -667.171 3944
-2783.97 -671.908 3972
-2774.47 -671.908 3972
-2764.97 -671.908 3972
-2755.47 -671.908 3972
-2745.98 -671.908 3972
-2723.39 -668.694 3953
-2707.76 -667.171 3944
-2704.48 -668.694 3953
-2720.94 -675.122 3991
-2711.39 -675.122 3991
-2708.62 -676.814 4001
-2699.05 -676.814 4001
-2689.48 -676.814 4001
-2660.49 -671.908 3972
-2638.31 -668.694 3953
-2666.77 -678.336 4010
-2657.18 -678.336 4010
-2647.59 -678.336 4010
-2638 -678.336 4010
-2615.96 -675.122 3991
-2606.41 -675.122 3991
-1543.23 -653.3 3862
-1534 -653.3 3862
-1524.76 -653.3 3862
-1484.53 -639.936 3783
-1475.48 -639.936 3783
-1462.94 -638.414 3774
-1480.89 -650.255 3844
-1471.7 -650.255 3844
-1462.5 -650.255 3844
-1449.91 -648.733 3835
-1424.58 -641.459 3792
-1393.12 -631.309 3732
-1384.19 -631.309 3732
-1375.27 -631.309 3732
-1378.79 -637.061 3766
-1369.79 -637.061 3766
-1360.78 -637.061 3766
-1351.78 -637.061 3766
-1342.77 -637.061 3766
-1361.39 -650.255 3844
-1352.2 -650.255 3844
-1343 -650.255 3844
-1330.69 -648.733 3835
-1318.42 -647.21 3826
-1309.27 -647.21 3826
-1306.24 -650.255 3844
-1297.04 -650.255 3844
-1293.88 -653.3 3862
-1284.65 -653.3 3862
-1275.41 -653.3 3862
-1263.23 -651.778 3853
-1256.94 -653.3 3862
-1247.71 -653.3 3862
-1238.47 -653.3 3862
-1229.24 -653.3 3862
-1206.1 -645.857 3818
-258.931 -553.326 3271
-252.568 -556.54 3290
-244.701 -556.54 3290
-236.833 -556.54 3290
-228.966 -556.54 3290
-221.098 -556.54 3290
-213.231 -556.54 3290
-204.178 -553.326 3271
-196.356 -553.326 3271
-191.531 -562.122 3323
-183.971 -563.306 3330
-176.008 -563.306 3330
-168.045 -563.306 3330
-159.457 -561.107 3317
-151.206 -559.923 3310
-143.29 -559.923 3310
-88.3823 -365.557 2161
-83.2147 -365.557 2161
-78.0471 -365.557 2161
-72.6772 -364.542 2155
-67.2732 -363.189 2147
-62.1391 -363.189 2147
-57.005 -363.189 2147
-51.8709 -363.189 2147
-46.7367 -363.189 2147
-41.5445 -362.681 2144
-36.4175 -362.681 2144
-31.2176 -361.836 2139
-26.066 -361.328 2136
-20.9287 -360.821 2133
-15.8132 -360.482 2131
-10.7174 -360.482 2131
-5.60567 -359.467 2125
-0.524156 -359.467 2125
4.55093 -358.96 2122
9.62527 -358.96 2122
14.6858 -358.622 2120
19.7274 -358.114 2117
24.7312 -357.268 2112
29.7816 -357.268 2112
34.8321 -357.268 2112
39.7692 -356.253 2106
44.8053 -356.253 2106
49.8414 -356.253 2106
54.8253 -355.915 2104
59.8566 -355.915 2104
64.8879 -355.915 2104
69.9193 -355.915 2104
74.9505 -355.915 2104
79.9818 -355.915 2104
85.0132 -355.915 2104
90.0445 -355.915 2104
94.9402 -355.407 2101
99.9643 -355.407 2101
104.739 -354.562 2096
109.332 -353.208 2088
114.325 -353.208 2088
119.147 -352.701 2085
124.132 -352.701 2085
128.994 -352.363 2083
133.975 -352.363 2083
138.423 -351.009 2075
143.178 -350.502 2072
147.775 -349.656 2067
152.718 -349.656 2067
157.127 -348.472 2060
161.03 -346.273 2047
165.682 -345.765 2044
170.57 -345.765 2044
174.599 -344.074 2034
179.287 -343.735 2032
184.78 -344.919 2039
190.121 -345.765 2044
195.009 -345.765 2044
199.897 -345.765 2044
204.784 -345.765 2044
209.467 -345.427 2042
214.35 -345.427 2042
219.233 -345.427 2042
223.567 -344.581 2037
227.878 -343.735 2032
232.737 -343.735 2032
237.596 -343.735 2032
242.694 -344.074 2034
249.749 -347.119 2052
255.648 -348.472 2060
260.574 -348.472 2060
265.758 -348.81 2062
476.134 -613.547 3627
484.808 -613.547 3627
493.481 -613.547 3627
503.262 -614.901 3635
514.067 -617.438 3650
525.23 -620.314 3667
533.999 -620.314 3667
542.768 -620.314 3667
555.146 -624.374 3691
563.973 -624.374 3691
572.799 -624.374 3691
579.104 -621.667 3675
587.892 -621.667 3675
597.979 -623.02 3683
606.786 -623.02 3683
615.593 -623.02 3683
623.044 -621.667 3675
631.832 -621.667 3675
636.262 -617.438 3650
642.34 -614.901 3635
651.032 -614.901 3635
658.273 -613.547 3627
666.946 -613.547 3627
675.619 -613.547 3627
684.293 -613.547 3627
694.494 -614.901 3635
710.925 -621.667 3675
719.713 -621.667 3675
728.501 -621.667 3675
737.289 -621.667 3675
746.077 -621.667 3675
754.865 -621.667 3675
765.315 -623.02 3683
777.485 -625.727 3699
786.331 -625.727 3699
795.176 -625.727 3699
804.022 -625.727 3699
809.351 -623.02 3683
818.158 -623.02 3683
826.965 -623.02 3683
839.403 -625.727 3699
850.083 -627.08 3707
861.033 -628.603 3716
869.919 -628.603 3716
880.698 -629.956 3724
889.603 -629.956 3724
898.508 -629.956 3724
907.413 -629.956 3724
916.318 -629.956 3724
923.236 -628.603 3716
934.129 -629.956 3724
947.086 -632.663 3740
956.029 -632.663 3740
964.973 -632.663 3740
971.833 -631.309 3732
980.757 -631.309 3732
987.56 -629.956 3724
987.635 -624.374 3691
998.621 -625.727 3699
1012.1 -628.603 3716
1020.98 -628.603 3716
1029.87 -628.603 3716
1034 -625.727 3699
1042.85 -625.727 3699
1051.69 -625.727 3699
1055.95 -623.02 3683
1060.13 -620.314 3667
1068.9 -620.314 3667
1075.03 -618.791 3658
1083.77 -618.791 3658
1092.52 -618.791 3658
1094.34 -614.901 3635
1103.04 -614.901 3635
1109.28 -613.547 3627
1117.96 -613.547 3627
1124.14 -612.194 3619
1132.8 -612.194 3619
1141.45 -612.194 3619
1152.65 -613.547 3627
1161.32 -613.547 3627
1169.99 -613.547 3627
1178.67 -613.547 3627
1184.72 -612.194 3619
1193.38 -612.194 3619
1202.03 -612.194 3619
1210.68 -612.194 3619
1216.64 -610.841 3611
1225.28 -610.841 3611
1239.38 -613.547 3627
1248.05 -613.547 3627
1256.73 -613.547 3627
1265.4 -613.547 3627
1274.07 -613.547 3627
1282.75 -613.547 3627
1285.72 -610.841 3611
1291.49 -609.487 3603
1300.11 -609.487 3603
1314.53 -612.194 3619
1323.19 -612.194 3619
1331.84 -612.194 3619
1340.5 -612.194 3619
1349.15 -612.194 3619
1357.81 -612.194 3619
1366.46 -612.194 3619
1378.15 -613.547 3627
1386.83 -613.547 3627
1395.5 -613.547 3627
1404.17 -613.547 3627
1412.85 -613.547 3627
1421.52 -613.547 3627
1423.88 -610.841 3611
1432.52 -610.841 3611
1431.97 -606.95 3588
1440.55 -606.95 3588
1455.19 -609.487 3603
1463.81 -609.487 3603
1478.96 -612.194 3619
1490.91 -613.547 3627
1502.89 -614.901 3635
1511.58 -614.901 3635
1520.27 -614.901 3635
1522.23 -612.194 3619
1530.89 -612.194 3619
1529.33 -608.134 3595
1534.93 -606.95 3588
1536.63 -604.243 3572
1545.17 -604.243 3572
2207.57 -629.956 3724
2241.48 -637.061 3766
2250.48 -637.061 3766
2275.09 -641.459 3792
2315.48 -650.255 3844
2324.67 -650.255 3844
2333.86 -650.255 3844
2321.72 -644.335 3809
2330.83 -644.335 3809
2339.94 -644.335 3809
2333.01 -639.936 3783
2331.53 -637.061 3766
2329.97 -634.185 3749
2338.94 -634.185 3749
2332.25 -629.956 3724
2325.44 -625.727 3699
2329.23 -624.374 3691
2364.03 -631.309 3732
2383.76 -634.185 3749
2392.73 -634.185 3749
2401.69 -634.185 3749
2368.22 -623.02 3683
2377.03 -623.02 3683
2375.47 -620.314 3667
2373.19 -617.438 3650
2376.69 -616.085 3642
2385.4 -616.085 3642
2363.22 -608.134 3595
2356.64 -604.243 3572
2345.32 -599.169 3542
2353.79 -599.169 3542
2362.26 -599.169 3542
2370.73 -599.169 3542
2850.9 -638.414 3774
2859.92 -638.414 3774
2868.95 -638.414 3774
2877.97 -638.414 3774
2842.63 -628.603 3716
-2910.33 -660.892 3963
-2900.86 -660.892 3963
-2905.24 -664.061 3982
-2895.72 -664.061 3982
-2886.2 -664.061 3982
-2876.68 -664.061 3982
-2867.16 -664.061 3982
-2850.46 -662.393 3972
-2788.03 -650.052 3898
-2785.12 -651.553 3907
-2788.57 -654.555 3925
-2779.18 -654.555 3925
-2769.8 -654.555 3925
-2767.45 -656.223 3935
-2770.65 -659.224 3953
-2761.2 -659.224 3953
-2751.75 -659.224 3953
-2742.29 -659.224 3953
-2732.84 -659.224 3953
-2723.39 -659.224 3953
-2707.76 -657.724 3944
-2704.48 -659.224 3953
-2707.98 -662.393 3972
-2698.48 -662.393 3972
-2695.76 -664.061 3982
-2686.23 -664.061 3982
-2676.71 -664.061 3982
-2647.76 -659.224 3953
-2638.31 -659.224 3953
-2648.15 -664.061 3982
-2638.62 -664.061 3982
-2629.1 -664.061 3982
-2619.58 -664.061 3982
-1543.23 -644.049 3862
-1534 -644.049 3862
-1524.76 -644.049 3862
-1484.53 -630.874 3783
-1475.48 -630.874 3783
-1462.94 -629.373 3774
-1477.42 -639.546 3835
-1468.25 -639.546 3835
-1459.08 -639.546 3835
-1449.91 -639.546 3835
-1421.2 -630.874 3783
-1387.15 -619.701 3716
-1378.26 -619.701 3716
-1369.37 -619.701 3716
-1372.57 -625.204 3749
-1366.51 -626.538 3757
-1357.53 -626.538 3757
-1348.55 -626.538 3757
-1339.56 -626.538 3757
-1352.18 -636.711 3818
-1345.87 -638.045 3826
-1336.72 -638.045 3826
-1327.57 -638.045 3826
-1315.66 -636.711 3818
-1306.53 -636.711 3818
-1291.28 -633.709 3800
-1282.2 -633.709 3800
-1290.87 -642.548 3853
-1281.65 -642.548 3853
-1272.44 -642.548 3853
-1263.23 -642.548 3853
-1254.01 -642.548 3853
-1244.8 -642.548 3853
-1235.58 -642.548 3853
-1223.51 -641.047 3844
-1206.1 -636.711 3818
-258.931 -545.49 3271
-251.109 -545.49 3271
-243.287 -545.49 3271
-235.465 -545.49 3271
-227.643 -545.49 3271
-219.822 -545.49 3271
-212 -545.49 3271
-203.366 -543.322 3258
-195.575 -543.322 3258
-189.283 -547.658 3284
-183.253 -553.161 3317
-175.321 -553.161 3317
-167.389 -553.161 3317
-158.784 -550.827 3303
-150.612 -549.826 3297
-142.728 -549.826 3297
-82.4831 -357.212 2142
-77.5415 -358.046 2147
-72.4074 -358.046 2147
-67.2732 -358.046 2147
-62.1391 -358.046 2147
-57.005 -358.046 2147
-51.8709 -358.046 2147
-46.6714 -357.545 2144
-41.5445 -357.545 2144
-36.4175 -357.545 2144
-31.2176 -356.712 2139
-26.066 -356.211 2136
-20.9287 -355.711 2133
-15.8132 -355.377 2131
-10.7174 -355.377 2131
-5.60567 -354.377 2125
-0.524156 -354.377 2125
4.55093 -353.877 2122
9.62527 -353.877 2122
14.6858 -353.543 2120
19.7274 -353.043 2117
24.7312 -352.209 2112
29.7816 -352.209 2112
34.8321 -352.209 2112
39.7692 -351.208 2106
44.8053 -351.208 2106
49.8414 -351.208 2106
54.8253 -350.875 2104
59.8566 -350.875 2104
64.8879 -350.875 2104
69.9193 -350.875 2104
74.9505 -350.875 2104
79.9818 -350.875 2104
85.0132 -350.875 2104
90.0445 -350.875 2104
94.9402 -350.375 2101
99.9643 -350.375 2101
104.739 -349.541 2096
109.332 -348.207 2088
114.325 -348.207 2088
119.147 -347.706 2085
124.132 -347.706 2085
128.994 -347.373 2083
133.975 -347.373 2083
138.423 -346.039 2075
143.178 -345.538 2072
147.775 -344.704 2067
152.718 -344.704 2067
157.127 -343.537 2060
161.03 -341.369 2047
165.52 -340.535 2042
170.403 -340.535 2042
174.599 -339.201 2034
179.287 -338.868 2032
184.599 -339.702 2037
190.121 -340.869 2044
195.009 -340.869 2044
199.897 -340.869 2044
204.784 -340.869 2044
209.467 -340.535 2042
214.35 -340.535 2042
219.233 -340.535 2042
223.567 -339.702 2037
227.878 -338.868 2032
232.737 -338.868 2032
237.596 -338.868 2032
242.694 -339.201 2034
249.749 -342.203 2052
255.648 -343.537 2060
260.574 -343.537 2060
265.758 -343.871 2062
476.134 -604.859 3627
484.808 -604.859 3627
493.481 -604.859 3627
503.262 -606.193 3635
514.067 -608.694 3650
522.795 -608.694 3650
531.523 -608.694 3650
540.252 -608.694 3650
552.74 -612.864 3675
561.528 -612.864 3675
570.316 -612.864 3675
577.843 -611.529 3667
586.612 -611.529 3667
595.381 -611.529 3667
602.667 -610.029 3658
611.415 -610.029 3658
618.806 -608.694 3650
627.534 -608.694 3650
634.868 -607.36 3642
640.926 -604.859 3627
649.6 -604.859 3627
658.273 -604.859 3627
666.946 -604.859 3627
674.129 -603.525 3619
684.293 -604.859 3627
694.494 -606.193 3635
710.925 -612.864 3675
719.713 -612.864 3675
728.501 -612.864 3675
737.289 -612.864 3675
746.077 -612.864 3675
754.865 -612.864 3675
765.315 -614.198 3683
777.485 -616.866 3699
786.331 -616.866 3699
795.176 -616.866 3699
804.022 -616.866 3699
809.351 -614.198 3683
818.158 -614.198 3683
826.965 -614.198 3683
839.403 -616.866 3699
850.083 -618.2 3707
861.033 -619.701 3716
869.919 -619.701 3716
880.698 -621.035 3724
889.603 -621.035 3724
898.508 -621.035 3724
907.413 -621.035 3724
916.318 -621.035 3724
923.236 -619.701 3716
932.122 -619.701 3716
943.034 -621.035 3724
951.939 -621.035 3724
960.844 -621.035 3724
969.75 -621.035 3724
978.655 -621.035 3724
983.052 -618.2 3707
987.635 -615.532 3691
996.461 -615.532 3691
1007.47 -616.866 3699
1016.31 -616.866 3699
1025.16 -616.866 3699
1031.77 -615.532 3691
1040.59 -615.532 3691
1047.14 -614.198 3683
1051.36 -611.529 3667
1057.53 -610.029 3658
1066.28 -610.029 3658
1070.32 -607.36 3642
1079.03 -607.36 3642
1087.74 -607.36 3642
1094.34 -606.193 3635
1103.04 -606.193 3635
1109.28 -604.859 3627
1115.49 -603.525 3619
1124.14 -603.525 3619
1132.8 -603.525 3619
1136.41 -600.856 3603
1147.56 -602.191 3611
1158.76 -603.525 3619
1167.41 -603.525 3619
1176.07 -603.525 3619
1184.72 -603.525 3619
1193.38 -603.525 3619
1202.03 -603.525 3619
1210.68 -603.525 3619
1216.64 -602.191 3611
1225.28 -602.191 3611
1236.65 -603.525 3619
1248.05 -604.859 3627
1256.73 -604.859 3627
1265.4 -604.859 3627
1271.26 -603.525 3619
1279.92 -603.525 3619
1285.72 -602.191 3611
1291.49 -600.856 3603
1300.11 -600.856 3603
1314.53 -603.525 3619
1323.19 -603.525 3619
1331.84 -603.525 3619
1340.5 -603.525 3619
1349.15 -603.525 3619
1357.81 -603.525 3619
1366.46 -603.525 3619
1378.15 -604.859 3627
1386.83 -604.859 3627
1395.5 -604.859 3627
1404.17 -604.859 3627
1412.85 -604.859 3627
1421.52 -604.859 3627
1423.88 -602.191 3611
1432.52 -602.191 3611
1431.97 -598.355 3588
1440.55 -598.355 3588
1455.19 -600.856 3603
1463.81 -600.856 3603
1478.96 -603.525 3619
1490.91 -604.859 3627
1502.89 -606.193 3635
1511.58 -606.193 3635
1520.27 -606.193 3635
1522.23 -603.525 3619
1530.89 -603.525 3619
1529.33 -599.522 3595
1534.93 -598.355 3588
1536.63 -595.687 3572
1545.17 -595.687 3572
2227.14 -626.538 3757
2246.24 -629.373 3774
2255.26 -629.373 3774
2279.89 -633.709 3800
2315.48 -641.047 3844
2324.67 -641.047 3844
2333.86 -641.047 3844
2321.72 -635.21 3809
2325.32 -633.709 3800
2334.41 -633.709 3800
2333.01 -630.874 3783
2331.53 -628.039 3766
2319.41 -622.369 3732
2328.33 -622.369 3732
2327.24 -619.701 3716
2310.35 -612.864 3675
2319.14 -612.864 3675
2338.06 -615.532 3691
2346.89 -615.532 3691
2355.71 -615.532 3691
2359.41 -614.198 3683
2357.93 -611.529 3667
2366.7 -611.529 3667
2369.64 -610.029 3658
2358.23 -604.859 3627
2361.68 -603.525 3619
2370.34 -603.525 3619
2363.22 -599.522 3595
2352.02 -594.519 3565
2345.32 -590.684 3542
2353.79 -590.684 3542
2362.26 -590.684 3542
2370.73 -590.684 3542
2476.62 -585.681 3512
2485.02 -585.681 3512
2493.42 -585.681 3512
2515.93 -587.015 3520
2524.35 -587.015 3520
2532.77 -587.015 3520
2546.24 -588.182 3527
2554.67 -588.182 3527
2563.1 -588.182 3527
2571.54 -588.182 3527
2850.9 -629.373 3774
2893.27 -636.711 3818
2902.4 -636.711 3818
2911.53 -636.711 3818
2887 -629.373 3774
-2881.24 -640.715 3898
-2871.92 -640.715 3898
-2862.6 -640.715 3898
-2853.28 -640.715 3898
-2891.38 -651.399 3963
-2881.9 -651.399 3963
-2872.43 -651.399 3963
-2862.95 -651.399 3963
-2853.47 -651.399 3963
-2830.36 -648.276 3944
-2768.72 -636.277 3871
-2765.88 -637.756 3880
-2756.6 -637.756 3880
-2747.32 -637.756 3880
-2744.39 -639.235 3889
-2747.75 -642.194 3907
-2764.34 -648.276 3944
-2754.91 -648.276 3944
-2745.48 -648.276 3944
-2736.05 -648.276 3944
-2726.62 -648.276 3944
-2704.1 -645.153 3925
-2694.71 -645.153 3925
-2698.32 -648.276 3944
-2695.03 -649.755 3953
-2685.58 -649.755 3953
-2676.12 -649.755 3953
-2666.67 -649.755 3953
-2657.22 -649.755 3953
-2616.95 -642.194 3907
-2496.15 -614.744 3740
-2498.51 -617.538 3757
-2489.53 -617.538 3757
-2480.55 -617.538 3757
-2455.11 -613.429 3732
-2419.32 -606.69 3691
-2410.49 -606.69 3691
-2354.81 -594.855 3619
-1572.81 -631.839 3844
-1563.62 -631.839 3844
-1554.42 -631.839 3844
-1545.23 -631.839 3844
-1543.23 -634.797 3862
-1534 -634.797 3862
-1524.76 -634.797 3862
-1491.2 -624.606 3800
-1482.11 -624.606 3800
-1462.94 -620.333 3774
-1477.42 -630.359 3835
-1468.25 -630.359 3835
-1459.08 -630.359 3835
-1449.91 -630.359 3835
-1421.2 -621.812 3783
-1387.15 -610.799 3716
-1378.26 -610.799 3716
-1366.06 -609.32 3707
-1372.57 -616.223 3749
-1363.6 -616.223 3749
-1354.64 -616.223 3749
-1345.67 -616.223 3749
-1327.8 -612.114 3724
-1339.79 -621.812 3783
-1339.89 -626.086 3809
-1330.78 -626.086 3809
-1321.67 -626.086 3809
-1309.46 -624.606 3800
-1300.37 -624.606 3800
-1288.57 -623.291 3792
-1279.5 -623.291 3792
-1270.43 -623.291 3792
-1261.36 -623.291 3792
-1252.29 -623.291 3792
-1243.23 -623.291 3792
-1231.23 -621.812 3783
-1238.98 -630.359 3835
-1229.81 -630.359 3835
-1220.64 -630.359 3835
-1206.1 -627.565 3818
-258.931 -537.655 3271
-251.109 -537.655 3271
-243.287 -537.655 3271
-235.465 -537.655 3271
-227.643 -537.655 3271
-218.545 -534.531 3252
-210.768 -534.531 3252
-202.617 -533.545 3246
-194.435 -532.395 3239
-188.937 -538.805 3278
-181.43 -539.791 3284
-173.577 -539.791 3284
-165.724 -539.791 3284
-157.582 -538.805 3278
-149.15 -536.668 3265
-141.342 -536.668 3265
-82.4831 -352.081 2142
-77.5415 -352.903 2147
-72.4074 -352.903 2147
-67.2732 -352.903 2147
-62.1391 -352.903 2147
-57.005 -352.903 2147
-51.8709 -352.903 2147
-46.6714 -352.409 2144
-41.5445 -352.409 2144
-36.4175 -352.409 2144
-31.2176 -351.588 2139
-26.066 -351.094 2136
-20.9287 -350.601 2133
-15.8132 -350.273 2131
-10.7174 -350.273 2131
-5.60567 -349.286 2125
-0.524156 -349.286 2125
4.55093 -348.793 2122
9.62527 -348.793 2122
14.6858 -348.465 2120
19.7274 -347.971 2117
24.7312 -347.15 2112
29.7816 -347.15 2112
34.8321 -347.15 2112
39.7692 -346.163 2106
44.8053 -346.163 2106
49.8414 -346.163 2106
54.8253 -345.835 2104
59.8566 -345.835 2104
64.8879 -345.835 2104
69.9193 -345.835 2104
74.9505 -345.835 2104
79.9818 -345.835 2104
85.0132 -345.835 2104
90.0445 -345.835 2104
94.9402 -345.342 2101
99.9643 -345.342 2101
104.739 -344.52 2096
109.332 -343.205 2088
114.325 -343.205 2088
119.147 -342.712 2085
124.132 -342.712 2085
128.994 -342.383 2083
133.975 -342.383 2083
138.423 -341.068 2075
143.178 -340.575 2072
147.775 -339.753 2067
152.718 -339.753 2067
157.127 -338.602 2060
161.03 -336.466 2047
165.52 -335.644 2042
170.403 -335.644 2042
174.599 -334.329 2034
