-1747.7 903.425 3512
-1739.31 903.425 3512
-1730.91 903.425 3512
-1722.51 903.425 3512
-1703.37 897.766 3490
-1698.43 899.566 3497
-1690.06 899.566 3497
-1681.7 899.566 3497
-1673.34 899.566 3497
-1664.98 899.566 3497
-1656.62 899.566 3497
-1461.33 877.701 3412
-1453.17 877.701 3412
-1445.01 877.701 3412
-1439.8 879.502 3419
-1431.62 879.502 3419
-1423.44 879.502 3419
-1403.68 872.299 3391
-1395.57 872.299 3391
-1387.46 872.299 3391
-1365.52 863.553 3357
-1338.49 851.463 3310
-1330.57 851.463 3310
-1330.65 856.607 3330
-1333.41 863.553 3357
-1325.38 863.553 3357
-1317.36 863.553 3357
-1311.67 865.096 3363
-1303.63 865.096 3363
-1295.58 865.096 3363
-1287.54 865.096 3363
-1287.49 870.498 3384
-1284.69 874.1 3398
-1276.56 874.1 3398
-1271.05 875.9 3405
-1283.68 890.306 3461
-1291.62 901.624 3505
-1283.24 901.624 3505
-1285.4 909.084 3534
-1276.95 909.084 3534
-1282.14 918.859 3572
-1273.6 918.859 3572
-1276.04 926.834 3603
-1270.23 928.892 3611
-1261.6 928.892 3611
-1252.97 928.892 3611
-1238.82 924.776 3595
-1225.09 920.917 3580
-1216.53 920.917 3580
-1202.9 917.059 3565
-1196.72 918.859 3572
-1188.18 918.859 3572
-1184.92 922.975 3588
-1176.34 922.975 3588
-1167.76 922.975 3588
-1161.45 924.776 3595
-1152.85 924.776 3595
-1144.25 924.776 3595
-1135.66 924.776 3595
-1127.06 924.776 3595
-1118.46 924.776 3595
-1109.87 924.776 3595
-1099.12 922.975 3588
-1090.54 922.975 3588
-1081.96 922.975 3588
-1073.38 922.975 3588
-1064.8 922.975 3588
-1053.87 920.917 3580
-1049.69 924.776 3595
-1041.09 924.776 3595
-1043.98 935.065 3635
-1053.52 951.529 3699
-1044.67 951.529 3699
-1035.83 951.529 3699
-1026.98 951.529 3699
-1006.85 940.982 3658
-998.104 940.982 3658
-989.357 940.982 3658
-976.32 936.866 3642
-965.752 935.065 3635
-957.059 935.065 3635
-948.367 935.065 3635
-939.674 935.065 3635
-930.982 935.065 3635
-922.29 935.065 3635
-820.606 909.084 3534
-812.155 909.084 3534
-803.704 909.084 3534
-785.352 897.766 3490
-777.006 897.766 3490
-763.815 892.107 3468
-636.404 899.566 3497
-628.042 899.566 3497
-619.679 899.566 3497
-611.317 899.566 3497
-602.954 899.566 3497
-587.281 888.505 3454
-574.327 881.302 3426
-568.448 884.904 3440
-563.642 890.306 3461
-555.366 890.306 3461
-548.196 892.107 3468
-543.328 897.766 3490
-534.982 897.766 3490
-526.637 897.766 3490
-518.291 897.766 3490
-508.923 895.965 3483
-500.594 895.965 3483
-492.265 895.965 3483
-484.908 897.766 3490
-476.563 897.766 3490
-469.156 899.566 3497
-460.794 899.566 3497
-453.466 901.624 3505
-445.974 903.425 3512
-437.576 903.425 3512
-429.177 903.425 3512
-421.738 905.483 3520
-414.964 909.084 3534
-406.513 909.084 3534
-398.062 909.084 3534
-389.612 909.084 3534
-382.023 911.142 3542
-373.553 911.142 3542
-365.083 911.142 3542
-356.613 911.142 3542
-346.669 907.284 3527
-338.235 907.284 3527
-329.801 907.284 3527
-321.367 907.284 3527
-314.264 911.142 3542
-306.398 912.943 3549
-297.911 912.943 3549
-289.424 912.943 3549
-99.083 557.952 2169
-93.8963 557.952 2169
-88.7095 557.952 2169
-83.4458 557.438 2167
-78.2638 557.438 2167
-72.8795 555.895 2161
-67.6179 555.123 2158
-62.3128 553.837 2153
-57.1643 553.837 2153
-51.9433 553.065 2150
-46.7367 552.293 2147
-41.6026 552.293 2147
-36.5194 553.065 2150
-31.3781 553.065 2150
-26.2368 553.065 2150
-21.0661 552.293 2147
-15.932 552.293 2147
-10.7978 552.293 2147
-5.66371 552.293 2147
-0.529582 552.293 2147
4.60455 552.293 2147
9.73867 552.293 2147
14.8728 552.293 2147
20.0815 554.351 2155
25.2699 555.123 2158
30.5149 556.666 2164
35.6897 556.666 2164
41.1288 560.268 2178
46.6988 564.641 2195
52.0897 566.184 2201
57.3529 566.184 2201
62.7015 566.956 2204
68.157 568.499 2210
73.608 569.785 2215
78.9047 569.785 2215
84.2014 569.785 2215
89.4982 569.785 2215
94.7949 569.785 2215
99.7301 567.728 2207
104.722 566.184 2201
109.986 566.184 2201
115.249 566.184 2201
120.512 566.184 2201
125.775 566.184 2201
131.039 566.184 2201
136.302 566.184 2201
141.179 564.641 2195
146.428 564.641 2195
151.677 564.641 2195
156.926 564.641 2195
161.731 563.097 2189
166.737 562.326 2186
171.965 562.326 2186
177.192 562.326 2186
182.253 561.811 2184
187.218 561.039 2181
192.168 560.268 2178
197.377 560.268 2178
203.329 562.326 2186
208.556 562.326 2186
213.784 562.326 2186
219.011 562.326 2186
224.239 562.326 2186
229.466 562.326 2186
234.479 561.811 2184
239.701 561.811 2184
244.924 561.811 2184
249.459 560.268 2178
254.667 560.268 2178
259.16 558.724 2172
264.354 558.724 2172
527.54 823.681 3202
535.197 823.681 3202
544.888 826.768 3214
552.574 826.768 3214
560.26 826.768 3214
565.825 823.681 3202
571.332 820.594 3190
569.16 806.703 3136
576.659 806.703 3136
572.237 790.24 3072
579.583 790.24 3072
591.323 796.156 3095
598.724 796.156 3095
606.125 796.156 3095
611.346 793.327 3084
618.721 793.327 3084
621.426 787.41 3061
632.238 791.783 3078
639.598 791.783 3078
651.793 797.7 3101
659.208 797.7 3101
666.624 797.7 3101
674.039 797.7 3101
682.773 799.243 3107
693.979 803.616 3124
702.797 805.16 3130
710.282 805.16 3130
719.143 806.703 3136
732.203 812.877 3160
755.444 830.112 3227
763.161 830.112 3227
778.283 838.086 3258
786.074 838.086 3258
798.738 843.231 3278
806.577 843.231 3278
819.136 848.119 3297
832.037 853.263 3317
845.033 858.408 3337
853.013 858.408 3337
871.314 868.698 3377
879.389 868.698 3377
887.464 868.698 3377
895.54 868.698 3377
899.869 865.096 3363
923.029 879.502 3419
931.205 879.502 3419
939.381 879.502 3419
947.557 879.502 3419
955.733 879.502 3419
965.882 881.302 3426
986.016 892.107 3468
994.309 892.107 3468
1002.6 892.107 3468
1010.9 892.107 3468
1019.19 892.107 3468
1025.41 890.306 3461
1031.59 888.505 3454
1041.96 890.306 3461
1050.24 890.306 3461
1058.51 890.306 3461
1066.79 890.306 3461
1077.24 892.107 3468
1090.23 895.965 3483
1098.56 895.965 3483
1111.33 899.566 3497
1124.5 903.425 3512
1132.9 903.425 3512
1141.3 903.425 3512
1149.69 903.425 3512
1160.73 905.483 3520
1171.47 907.284 3527
1179.91 907.284 3527
1188.34 907.284 3527
1199.15 909.084 3534
1207.6 909.084 3534
1218.81 911.142 3542
1227.28 911.142 3542
1238.19 912.943 3549
1249.48 915.001 3557
1257.99 915.001 3557
1266.5 915.001 3557
1277.87 917.059 3565
1286.4 917.059 3565
1303.27 922.975 3588
1311.85 922.975 3588
1325.95 926.834 3603
1334.57 926.834 3603
1343.19 926.834 3603
1351.8 926.834 3603
1360.42 926.834 3603
1372.07 928.892 3611
1380.71 928.892 3611
1389.34 928.892 3611
1394.88 926.834 3603
1388.69 917.059 3565
1397.22 917.059 3565
1378.93 899.566 3497
1381.74 895.965 3483
1381.29 890.306 3461
1372.7 879.502 3419
1380.88 879.502 3419
1369.15 866.897 3370
1371.89 863.553 3357
1374.17 859.952 3343
1382.16 859.952 3343
1387.66 858.408 3337
1389.78 854.807 3323
1397.73 854.807 3323
1405.68 854.807 3323
1405.11 849.662 3303
1410.45 848.119 3297
1418.33 848.119 3297
1420.59 844.774 3284
1428.44 844.774 3284
1433.67 843.231 3278
1435.79 839.887 3265
1443.6 839.887 3265
1451.41 839.887 3265
1459.22 839.887 3265
1467.02 839.887 3265
1471.67 838.086 3258
1479.46 838.086 3258
1484.51 836.543 3252
1489.54 834.999 3246
1497.3 834.999 3246
1505.06 834.999 3246
1506.76 831.655 3233
1514.49 831.655 3233
1522.23 831.655 3233
1527.12 830.112 3227
1534.83 830.112 3227
1542.55 830.112 3227
1547.39 828.568 3221
1548.81 825.224 3208
1556.48 825.224 3208
1561.23 823.681 3202
1563.01 820.594 3190
1567.68 819.05 3184
1575.29 819.05 3184
1573.96 814.42 3166
1569.54 808.246 3142
1565.01 802.073 3118
1555.32 793.327 3084
1562.69 793.327 3084
1558.36 787.41 3061
1537.55 773.262 3006
1517.5 759.628 2953
1524.56 759.628 2953
1518.14 752.94 2927
1503.77 742.393 2886
1500.2 737.248 2866
1497.07 732.361 2847
1503.87 732.361 2847
1505.38 729.788 2837
1507.36 727.473 2828
1508.77 724.901 2818
1515.51 724.901 2818
1517.39 722.586 2809
1521.39 721.299 2804
1525.37 720.013 2799
1532.07 720.013 2799
1538.76 720.013 2799
1540.48 717.698 2790
1547.15 717.698 2790
1553.83 717.698 2790
1562.74 718.727 2794
1569.42 718.727 2794
1576.1 718.727 2794
1582.78 718.727 2794
1589.46 718.727 2794
1596.14 718.727 2794
1602.82 718.727 2794
1609.5 718.727 2794
1616.19 718.727 2794
1620.54 717.698 2790
2043.82 897.766 3490
2052.17 897.766 3490
2069.37 901.624 3505
2081.9 903.425 3512
2099.23 907.284 3527
2107.66 907.284 3527
2125.1 911.142 3542
2133.57 911.142 3542
2142.04 911.142 3542
2150.51 911.142 3542
2163.24 912.943 3549
2171.73 912.943 3549
2180.22 912.943 3549
2188.7 912.943 3549
2187.9 909.084 3534
2178.33 901.624 3505
2181.72 899.566 3497
2190.08 899.566 3497
2185.24 894.164 3476
2170.84 884.904 3440
2161.33 877.701 3412
2169.49 877.701 3412
2155.31 868.698 3377
2146.09 861.752 3350
2145.74 858.408 3337
2153.72 858.408 3337
2157.16 856.607 3330
2147.57 849.662 3303
2146.99 846.318 3290
2154.85 846.318 3290
2162.72 846.318 3290
2170.59 846.318 3290
2183.09 848.119 3297
2199.61 851.463 3310
2216.2 854.807 3323
2224.14 854.807 3323
2273.06 870.498 3384
2285.88 872.299 3391
2298.72 874.1 3398
2306.85 874.1 3398
2314.97 874.1 3398
2323.1 874.1 3398
2331.22 874.1 3398
2334.53 872.299 3391
2337.8 870.498 3384
2327.18 863.553 3357
2335.2 863.553 3357
2324.39 856.607 3330
2318.34 851.463 3310
2312.2 846.318 3290
2315.84 844.774 3284
2323.69 844.774 3284
2313.08 838.086 3258
2316.6 836.543 3252
2320.09 834.999 3246
2327.85 834.999 3246
2326.26 831.655 3233
2325.33 828.568 3221
2323.61 825.224 3208
2313.84 819.05 3184
2321.46 819.05 3184
2324.68 817.507 3178
2332.28 817.507 3178
2339.88 817.507 3178
2347.48 817.507 3178
2355.08 817.507 3178
2362.68 817.507 3178
2374.75 819.05 3184
2391.35 822.137 3196
2398.99 822.137 3196
2420.19 826.768 3214
2427.87 826.768 3214
2449.96 831.655 3233
2457.69 831.655 3233
2489.82 839.887 3265
2497.63 839.887 3265
-2454.32 851.083 3278
-2446.48 851.083 3278
-2438.64 851.083 3278
-2430.8 851.083 3278
-2427.4 852.641 3284
-2419.55 852.641 3284
-2411.69 852.641 3284
-2399.45 851.083 3278
-2416.24 904.309 3483
-2407.91 904.309 3483
-2399.58 904.309 3483
-2361.73 893.144 3440
-2353.51 893.144 3440
-2345.28 893.144 3440
-2341.81 894.962 3447
-2333.57 894.962 3447
-2325.33 894.962 3447
-2312.38 893.144 3440
-2304.15 893.144 3440
-2295.93 893.144 3440
-2297.01 896.779 3454
-2307.97 904.309 3483
-2318.79 911.838 3512
-2310.39 911.838 3512
-2301.99 911.838 3512
-2293.59 911.838 3512
-2285.19 911.838 3512
-2272.26 910.021 3505
-2263.87 910.021 3505
-2255.49 910.021 3505
-2251.6 911.838 3512
-2243.2 911.838 3512
-2248.8 917.55 3534
-2240.35 917.55 3534
-2231.9 917.55 3534
-2223.45 917.55 3534
-2220.01 919.627 3542
-2211.54 919.627 3542
-2203.07 919.627 3542
-2194.6 919.627 3542
-2186.13 919.627 3542
-2172.74 917.55 3534
-2164.29 917.55 3534
-2151.57 915.733 3527
-2134.02 911.838 3512
-2121.39 910.021 3505
-2113.01 910.021 3505
-2095.62 906.126 3490
-2083.09 904.309 3483
-2074.76 904.309 3483
-2066.43 904.309 3483
-2053.96 902.491 3476
-2045.65 902.491 3476
-2037.34 902.491 3476
-2029.03 902.491 3476
-2011.99 898.597 3461
-1983.46 889.509 3426
-1967.19 885.875 3412
-1959.03 885.875 3412
-1950.87 885.875 3412
-1938.73 884.057 3405
-1922.65 880.422 3391
-1914.54 880.422 3391
-1906.43 880.422 3391
-1886.57 874.97 3370
-1890.21 880.422 3391
-1882.1 880.422 3391
-1873.99 880.422 3391
-1869.74 882.24 3398
-1865.45 884.057 3405
-1872.58 891.327 3433
-1864.37 891.327 3433
-1856.16 891.327 3433
-1847.95 891.327 3433
-1839.74 891.327 3433
-1824.06 887.692 3419
-1804.73 882.24 3398
-1807.71 887.692 3419
-1810.59 893.144 3440
-1802.36 893.144 3440
-1797.79 894.962 3447
-1793.18 896.779 3454
-1784.92 896.779 3454
-1776.66 896.779 3454
-1771.98 898.597 3461
-1763.71 898.597 3461
-1755.43 898.597 3461
-1750.69 900.414 3468
-1742.39 900.414 3468
-1741.6 904.309 3483
-1733.27 904.309 3483
-1724.94 904.309 3483
-1716.61 904.309 3483
-1708.29 904.309 3483
-1692.64 900.414 3468
-1684.34 900.414 3468
-1676.05 900.414 3468
-1681.7 907.944 3497
-1673.34 907.944 3497
-1664.98 907.944 3497
-1461.33 885.875 3412
-1453.17 885.875 3412
-1445.01 885.875 3412
-1436.85 885.875 3412
-1428.69 885.875 3412
-1420.53 885.875 3412
-1397.88 876.787 3377
-1389.81 876.787 3377
-1381.73 876.787 3377
-1362.67 869.777 3350
-1333.23 856.017 3297
-1325.35 856.017 3297
-1327.85 862.767 3323
-1327.85 867.96 3343
-1319.86 867.96 3343
-1311.86 867.96 3343
-1306.6 869.777 3350
-1298.59 869.777 3350
-1290.58 869.777 3350
-1282.56 869.777 3350
-1274.55 869.777 3350
-1269.19 871.595 3357
-1261.16 871.595 3357
-1268.44 882.24 3398
-1262.91 884.057 3405
-1275.4 898.597 3461
-1267.13 898.597 3461
-1266.85 904.309 3483
-1261.05 906.126 3490
-1268.5 917.55 3534
-1260.05 917.55 3534
-1262.58 925.599 3565
-1259.33 929.493 3580
-1250.77 929.493 3580
-1242.21 929.493 3580
-1230.89 927.416 3572
-1214.48 921.445 3549
-1205.99 921.445 3549
-1195.14 919.627 3542
-1189.02 921.445 3549
-1183.19 923.522 3557
-1177.33 925.599 3565
-1168.8 925.599 3565
-1162.56 927.416 3572
-1156.6 929.493 3580
-1152.85 933.388 3595
-1144.25 933.388 3595
-1135.66 933.388 3595
-1127.06 933.388 3595
-1118.46 933.388 3595
-1109.87 933.388 3595
-1099.12 931.57 3588
-1090.54 931.57 3588
-1081.96 931.57 3588
-1073.38 931.57 3588
-1064.8 931.57 3588
-1049.45 925.599 3565
-1040.93 925.599 3565
-985.28 937.542 3611
-976.645 937.542 3611
-974.444 943.773 3635
-965.752 943.773 3635
-957.059 943.773 3635
-948.367 943.773 3635
-779.142 889.509 3426
-770.95 889.509 3426
-762.757 889.509 3426
-754.565 889.509 3426
-633.856 904.309 3483
-625.527 904.309 3483
-617.198 904.309 3483
-608.869 904.309 3483
-600.541 904.309 3483
-584.9 893.144 3440
-571.98 885.875 3412
-568.448 893.144 3440
-560.222 893.144 3440
-551.996 893.144 3440
-547.089 898.597 3461
-539.903 900.414 3468
-531.61 900.414 3468
-523.317 900.414 3468
-515.024 900.414 3468
-507.9 902.491 3476
-499.588 902.491 3476
-491.275 902.491 3476
-481.852 900.414 3468
-474.651 902.491 3476
-467.278 904.309 3483
-458.949 904.309 3483
-451.526 906.126 3490
-444.069 907.944 3497
-437.576 911.838 3512
-429.177 911.838 3512
-420.779 911.838 3512
-414.964 917.55 3534
-406.513 917.55 3534
-398.062 917.55 3534
-389.612 917.55 3534
-381.161 917.55 3534
-372.71 917.55 3534
-364.259 917.55 3534
-355.808 917.55 3534
-346.669 915.733 3527
-338.235 915.733 3527
-329.801 915.733 3527
-321.367 915.733 3527
-314.264 919.627 3542
-306.398 921.445 3549
-297.911 921.445 3549
-289.424 921.445 3549
-98.9916 562.629 2167
-93.8097 562.629 2167
-88.6277 562.629 2167
-83.4458 562.629 2167
-78.2638 562.629 2167
-72.7783 560.292 2158
-67.6179 560.292 2158
-62.2259 558.215 2150
-57.0846 558.215 2150
-51.9433 558.215 2150
-46.7367 557.436 2147
-41.6026 557.436 2147
-36.4685 557.436 2147
-31.3343 557.436 2147
-26.2002 557.436 2147
-21.0661 557.436 2147
-15.932 557.436 2147
-10.7978 557.436 2147
-5.66371 557.436 2147
-0.528842 556.657 2144
4.59811 556.657 2144
9.73867 557.436 2147
14.8728 557.436 2147
20.0349 558.215 2150
25.2347 559.513 2155
30.4726 561.071 2161
35.6402 561.071 2161
40.9589 563.148 2169
46.4647 567.043 2184
51.9477 569.899 2195
57.1966 569.899 2195
62.4455 569.899 2195
67.972 572.235 2204
73.4418 573.793 2210
78.7266 573.793 2210
84.0114 573.793 2210
89.1749 573.014 2207
94.4525 573.014 2207
99.7301 573.014 2207
104.722 571.457 2201
109.986 571.457 2201
115.249 571.457 2201
120.512 571.457 2201
125.775 571.457 2201
131.039 571.457 2201
136.302 571.457 2201
141.179 569.899 2195
146.428 569.899 2195
151.677 569.899 2195
156.926 569.899 2195
161.731 568.341 2189
166.737 567.562 2186
171.965 567.562 2186
177.192 567.562 2186
182.253 567.043 2184
187.218 566.264 2181
192.168 565.485 2178
197.377 565.485 2178
203.329 567.562 2186
208.556 567.562 2186
213.784 567.562 2186
219.011 567.562 2186
224.239 567.562 2186
229.466 567.562 2186
234.479 567.043 2184
239.701 567.043 2184
244.924 567.043 2184
249.459 565.485 2178
254.667 565.485 2178
259.16 563.927 2172
264.354 563.927 2172
527.54 831.351 3202
535.197 831.351 3202
544.888 834.467 3214
552.574 834.467 3214
560.26 834.467 3214
565.825 831.351 3202
571.332 828.236 3190
569.16 814.215 3136
576.659 814.215 3136
572.237 797.599 3072
579.583 797.599 3072
591.323 803.57 3095
598.724 803.57 3095
606.125 803.57 3095
611.346 800.714 3084
618.721 800.714 3084
621.426 794.743 3061
632.238 799.156 3078
639.598 799.156 3078
650.532 803.57 3095
659.208 805.128 3101
666.624 805.128 3101
674.039 805.128 3101
682.773 806.686 3107
693.979 811.1 3124
702.797 812.657 3130
710.282 812.657 3130
719.143 814.215 3136
732.203 820.447 3160
745.378 826.678 3184
752.992 826.678 3184
766.339 832.909 3208
780.042 839.4 3233
787.773 839.4 3233
795.504 839.4 3233
803.235 839.4 3233
815.732 844.333 3252
825.028 845.891 3258
832.819 845.891 3258
845.77 851.083 3278
853.609 851.083 3278
861.448 851.083 3278
879.629 861.209 3317
887.56 861.209 3317
907.911 873.152 3363
915.953 873.152 3363
925.918 874.97 3370
933.977 874.97 3370
942.036 874.97 3370
963.909 887.692 3419
974.075 889.509 3426
982.267 889.509 3426
994.508 893.144 3440
1002.73 893.144 3440
1010.96 893.144 3440
1019.19 893.144 3440
1023.23 889.509 3426
1033.53 891.327 3433
1041.74 891.327 3433
1049.95 891.327 3433
1058.16 891.327 3433
1068.54 893.144 3440
1081.15 896.779 3454
1089.41 896.779 3454
1102.12 900.414 3468
1115.21 904.309 3483
1125.8 906.126 3490
1134.15 906.126 3490
1142.49 906.126 3490
1150.84 906.126 3490
1161.51 907.944 3497
1169.87 907.944 3497
1183.29 911.838 3512
1191.69 911.838 3512
1200.08 911.838 3512
1213.64 915.733 3527
1222.08 915.733 3527
1235.75 919.627 3542
1244.22 919.627 3542
1252.69 919.627 3542
1261.16 919.627 3542
1272.13 921.445 3549
1286.4 925.599 3565
1303.27 931.57 3588
1311.85 931.57 3588
1325.95 935.465 3603
1334.57 935.465 3603
1343.19 935.465 3603
1351.8 935.465 3603
1360.42 935.465 3603
1372.07 937.542 3611
1380.71 937.542 3611
1389.34 937.542 3611
1394.88 935.465 3603
1388.69 925.599 3565
1397.22 925.599 3565
1378.93 907.944 3497
1381.74 904.309 3483
1381.29 898.597 3461
1372.7 887.692 3419
1380.88 887.692 3419
1369.15 874.97 3370
1371.89 871.595 3357
1374.17 867.96 3343
1382.16 867.96 3343
1387.66 866.402 3337
1389.78 862.767 3323
1397.73 862.767 3323
1405.68 862.767 3323
1405.11 857.574 3303
1413.01 857.574 3303
1418.33 856.017 3297
1420.59 852.641 3284
1428.44 852.641 3284
1436.3 852.641 3284
1435.79 847.708 3265
1446.25 849.266 3271
1454.08 849.266 3271
1461.9 849.266 3271
1469.72 849.266 3271
1474.83 847.708 3265
1482.64 847.708 3265
1487.25 845.891 3258
1492.29 844.333 3252
1500.07 844.333 3252
1507.84 844.333 3252
1509.56 840.958 3239
1517.31 840.958 3239
1525.05 840.958 3239
1529.96 839.4 3233
1537.69 839.4 3233
1542.55 837.842 3227
1550.27 837.842 3227
1555.09 836.284 3221
1562.79 836.284 3221
1564.15 832.909 3208
1568.89 831.351 3202
1570.63 828.236 3190
1578.26 828.236 3190
1576.94 823.562 3172
1572.54 817.331 3148
1571.03 812.657 3130
1557.84 802.012 3089
1565.23 802.012 3089
1561.41 796.3 3067
1540.1 781.761 3011
1517.5 766.702 2953
1524.56 766.702 2953
1518.14 759.952 2927
1503.77 749.307 2886
1500.2 744.114 2866
1497.07 739.181 2847
1503.87 739.181 2847
1505.38 736.584 2837
1507.36 734.248 2828
1508.77 731.651 2818
1515.51 731.651 2818
1517.39 729.315 2809
1521.39 728.016 2804
1525.37 726.718 2799
1532.07 726.718 2799
1538.76 726.718 2799
1540.48 724.382 2790
1547.15 724.382 2790
1553.83 724.382 2790
1562.74 725.42 2794
1569.42 725.42 2794
1576.1 725.42 2794
1582.78 725.42 2794
1589.46 725.42 2794
1596.14 725.42 2794
1602.82 725.42 2794
1609.5 725.42 2794
1616.19 725.42 2794
1620.54 724.382 2790
2043.82 906.126 3490
2052.17 906.126 3490
2069.37 910.021 3505
2081.9 911.838 3512
2099.23 915.733 3527
2107.66 915.733 3527
2125.1 919.627 3542
2133.57 919.627 3542
2142.04 919.627 3542
2150.51 919.627 3542
2163.24 921.445 3549
2171.73 921.445 3549
2180.22 921.445 3549
2188.7 921.445 3549
2187.9 917.55 3534
2178.33 910.021 3505
2181.72 907.944 3497
2190.08 907.944 3497
2185.24 902.491 3476
2170.84 893.144 3440
2161.33 885.875 3412
2169.49 885.875 3412
2155.31 876.787 3377
2146.09 869.777 3350
2145.74 866.402 3337
2153.72 866.402 3337
2157.16 864.584 3330
2147.57 857.574 3303
2146.99 854.199 3290
2154.85 854.199 3290
2162.72 854.199 3290
2170.59 854.199 3290
2183.09 856.017 3297
2199.61 859.392 3310
2216.2 862.767 3323
2224.14 862.767 3323
2273.06 878.605 3384
2285.88 880.422 3391
2298.72 882.24 3398
2306.85 882.24 3398
2314.97 882.24 3398
2323.1 882.24 3398
2331.22 882.24 3398
2334.53 880.422 3391
2337.8 878.605 3384
2327.18 871.595 3357
2335.2 871.595 3357
2324.39 864.584 3330
2318.34 859.392 3310
2312.2 854.199 3290
2315.84 852.641 3284
2323.69 852.641 3284
2313.08 845.891 3258
2316.6 844.333 3252
2320.09 842.775 3246
2327.85 842.775 3246
2326.26 839.4 3233
2325.33 836.284 3221
2323.61 832.909 3208
2313.84 826.678 3184
2321.46 826.678 3184
2324.68 825.12 3178
2332.28 825.12 3178
2344.3 826.678 3184
2351.91 826.678 3184
2359.53 826.678 3184
2367.14 826.678 3184
2374.75 826.678 3184
2404.82 834.467 3214
2412.5 834.467 3214
2420.19 834.467 3214
2442.22 839.4 3233
2464.35 844.333 3252
2472.13 844.333 3252
2489.82 847.708 3265
2497.63 847.708 3265
-2454.32 858.936 3278
-2446.48 858.936 3278
-2438.64 858.936 3278
-2430.8 858.936 3278
-2427.4 860.508 3284
-2419.55 860.508 3284
-2411.69 860.508 3284
-2399.45 858.936 3278
-2416.24 912.652 3483
-2407.91 912.652 3483
-2399.58 912.652 3483
-2361.73 901.385 3440
-2353.51 901.385 3440
-2345.28 901.385 3440
-2341.81 903.219 3447
-2333.57 903.219 3447
-2325.33 903.219 3447
-2312.38 901.385 3440
-2304.15 901.385 3440
-2295.93 901.385 3440
-2297.01 905.053 3454
-2307.97 912.652 3483
-2318.79 920.251 3512
-2310.39 920.251 3512
-2301.99 920.251 3512
-2293.59 920.251 3512
-2285.19 920.251 3512
-2272.26 918.417 3505
-2263.87 918.417 3505
-2255.49 918.417 3505
-2251.6 920.251 3512
-2243.2 920.251 3512
-2248.8 926.016 3534
-2240.35 926.016 3534
-2231.9 926.016 3534
-2223.45 926.016 3534
-2220.01 928.112 3542
-2211.54 928.112 3542
-2203.07 928.112 3542
-2194.6 928.112 3542
-2186.13 928.112 3542
-2172.74 926.016 3534
-2164.29 926.016 3534
-2151.57 924.182 3527
-2134.02 920.251 3512
-2121.39 918.417 3505
-2113.01 918.417 3505
-2095.62 914.486 3490
-2083.09 912.652 3483
-2074.76 912.652 3483
-2066.43 912.652 3483
-2053.96 910.818 3476
-2045.65 910.818 3476
-2037.34 910.818 3476
-2029.03 910.818 3476
-2011.99 906.888 3461
-1983.46 897.716 3426
-1967.19 894.048 3412
-1959.03 894.048 3412
-1950.87 894.048 3412
-1938.73 892.214 3405
-1922.65 888.545 3391
-1914.54 888.545 3391
-1906.43 888.545 3391
-1886.57 883.043 3370
-1890.21 888.545 3391
-1882.1 888.545 3391
-1873.99 888.545 3391
-1869.74 890.38 3398
-1865.45 892.214 3405
-1872.58 899.551 3433
-1864.37 899.551 3433
-1856.16 899.551 3433
-1847.95 899.551 3433
-1839.74 899.551 3433
-1824.06 895.882 3419
-1804.73 890.38 3398
-1807.71 895.882 3419
-1810.59 901.385 3440
-1802.36 901.385 3440
-1797.79 903.219 3447
-1793.18 905.053 3454
-1784.92 905.053 3454
-1776.66 905.053 3454
-1771.98 906.888 3461
-1763.71 906.888 3461
-1755.43 906.888 3461
-1750.69 908.722 3468
-1742.39 908.722 3468
-1741.6 912.652 3483
-1733.27 912.652 3483
-1724.94 912.652 3483
-1716.61 912.652 3483
-1708.29 912.652 3483
-1692.64 908.722 3468
-1684.34 908.722 3468
-1662.52 901.385 3440
-1461.33 894.048 3412
-1453.17 894.048 3412
-1445.01 894.048 3412
-1436.85 894.048 3412
-1428.69 894.048 3412
-1420.53 894.048 3412
-1394.98 883.043 3370
-1386.93 883.043 3370
-1378.87 883.043 3370
-1362.67 877.802 3350
-1333.23 863.915 3297
-1322.53 862.08 3290
-1319.86 865.487 3303
-1322.69 872.562 3330
-1314.72 872.562 3330
-1306.76 872.562 3330
-1298.8 872.562 3330
-1290.83 872.562 3330
-1282.87 872.562 3330
-1274.91 872.562 3330
-1264.28 870.727 3323
-1256.34 870.727 3323
-1240.88 865.487 3303
-1247.91 875.968 3343
-1252.52 884.877 3377
-1244.45 884.877 3377
-1236.37 884.877 3377
-1248.67 899.551 3433
-1240.46 899.551 3433
-1252.71 914.486 3490
-1244.36 914.486 3490
-1249.12 924.182 3527
-1248.43 929.946 3549
-1239.94 929.946 3549
-1231.45 929.946 3549
-1220.55 928.112 3542
-1209.35 926.016 3534
-1200.89 926.016 3534
-1190.08 924.182 3527
-1183.99 926.016 3534
-1180.53 929.946 3549
-1172.04 929.946 3549
-1163.56 929.946 3549
-1157.68 932.042 3557
-1154.02 935.973 3572
-1150.6 940.165 3588
-1142.02 940.165 3588
-1133.44 940.165 3588
-1129.57 944.096 3603
-1120.95 944.096 3603
-1112.34 944.096 3603
-1103.72 944.096 3603
-1095.1 944.096 3603
-1086.49 944.096 3603
-1073.38 940.165 3588
-775.959 894.048 3412
-767.799 894.048 3412
-759.64 894.048 3412
-751.481 894.048 3412
-604.388 858.936 3278
-632.582 910.818 3476
-624.27 910.818 3476
-615.958 910.818 3476
-605.024 906.888 3461
-596.747 906.888 3461
-582.52 897.716 3426
-566.113 884.877 3377
-564.978 895.882 3419
-560.222 901.385 3440
-551.996 901.385 3440
-543.77 901.385 3440
-538.813 906.888 3461
-530.537 906.888 3461
-522.261 906.888 3461
-513.984 906.888 3461
-503.662 903.219 3447
-495.42 903.219 3447
-486.187 901.385 3440
-481.852 908.722 3468
-473.559 908.722 3468
-466.339 910.818 3476
-458.027 910.818 3476
-449.715 910.818 3476
-444.069 916.321 3497
-436.703 918.417 3505
-428.322 918.417 3505
-420.779 920.251 3512
-414.964 926.016 3534
-406.513 926.016 3534
-398.062 926.016 3534
-389.612 926.016 3534
-381.161 926.016 3534
-372.71 926.016 3534
-364.259 926.016 3534
-355.808 926.016 3534
-345.981 922.347 3520
-337.564 922.347 3520
-329.146 922.347 3520
-99.083 568.344 2169
-93.8963 568.344 2169
-88.7095 568.344 2169
-83.4458 567.82 2167
-78.2638 567.82 2167
-72.7783 565.462 2158
-67.5239 564.676 2155
-62.2259 563.366 2150
-57.0846 563.366 2150
-51.9433 563.366 2150
-46.7367 562.579 2147
-41.6026 562.579 2147
-36.4685 562.579 2147
-31.3343 562.579 2147
-26.2002 562.579 2147
-21.0661 562.579 2147
-15.932 562.579 2147
-10.7828 561.793 2144
-5.6558 561.793 2144
-0.528349 561.269 2142
4.59382 561.269 2142
9.72507 561.793 2144
14.852 561.793 2144
20.0069 562.579 2147
25.2113 564.152 2153
30.3598 564.152 2153
35.5083 564.152 2153
40.8078 566.248 2161
46.3371 570.702 2178
51.6874 572.275 2184
56.91 572.275 2184
62.1326 572.275 2184
67.6944 575.157 2195
73.3421 578.301 2207
78.6197 578.301 2207
83.8973 578.301 2207
89.0537 577.515 2204
94.3241 577.515 2204
99.5946 577.515 2204
104.865 577.515 2204
110.135 577.515 2204
115.406 577.515 2204
120.676 577.515 2204
125.947 577.515 2204
131.039 576.729 2201
136.302 576.729 2201
141.179 575.157 2195
146.428 575.157 2195
151.677 575.157 2195
156.926 575.157 2195
161.731 573.585 2189
166.966 573.585 2189
171.965 572.799 2186
177.192 572.799 2186
182.253 572.275 2184
187.218 571.489 2181
192.168 570.702 2178
197.377 570.702 2178
203.329 572.799 2186
208.556 572.799 2186
214.077 573.585 2189
219.312 573.585 2189
224.546 573.585 2189
229.466 572.799 2186
234.479 572.275 2184
239.701 572.275 2184
244.924 572.275 2184
249.459 570.702 2178
254.317 569.916 2175
259.518 569.916 2175
264.719 569.916 2175
521.831 842.166 3214
529.517 842.166 3214
537.203 842.166 3214
542.854 839.022 3202
548.448 835.877 3190
556.076 835.877 3190
561.584 832.733 3178
562.736 823.3 3142
568.071 820.155 3130
575.556 820.155 3130
573.354 806.53 3078
580.715 806.53 3078
591.323 810.984 3095
598.724 810.984 3095
606.125 810.984 3095
612.337 809.412 3089
619.724 809.412 3089
623.659 804.958 3072
632.238 806.53 3078
639.598 806.53 3078
650.532 810.984 3095
659.208 812.557 3101
666.624 812.557 3101
674.039 812.557 3101
682.773 814.129 3107
693.979 818.583 3124
702.797 820.155 3130
710.282 820.155 3130
719.143 821.728 3136
730.812 826.444 3154
739.759 828.016 3160
747.316 828.016 3160
760.606 834.305 3184
772.562 839.022 3202
781.681 840.594 3208
789.353 840.594 3208
797.024 840.594 3208
809.461 845.572 3227
820.217 848.717 3239
827.962 848.717 3239
840.61 853.695 3258
877.566 883.043 3370
885.625 883.043 3370
893.683 883.043 3370
899.869 881.209 3363
907.911 881.209 3363
915.953 881.209 3363
923.995 881.209 3363
928.434 877.802 3350
936.445 877.802 3350
950.094 883.043 3370
968.104 892.214 3405
976.247 892.214 3405
990.46 897.716 3426
998.653 897.716 3426
1006.85 897.716 3426
1010.89 894.048 3412
1019.05 894.048 3412
1027.21 894.048 3412
1035.37 894.048 3412
1043.53 894.048 3412
1047.37 890.38 3398
1057.67 892.214 3405
1074.58 899.551 3433
1082.79 899.551 3433
1097.67 905.053 3454
1105.93 905.053 3454
1116.45 906.888 3461
1124.72 906.888 3461
1133 906.888 3461
1141.28 906.888 3461
1156.86 912.652 3483
1165.19 912.652 3483
1173.52 912.652 3483
1184.22 914.486 3490
1192.57 914.486 3490
1208.48 920.251 3512
1216.88 920.251 3512
1230.51 924.182 3527
1238.95 924.182 3527
1247.38 924.182 3527
1255.81 924.182 3527
1266.76 926.016 3534
1280.62 929.946 3549
1294.92 934.139 3565
1303.44 934.139 3565
1320.43 940.165 3588
1329.01 940.165 3588
1337.59 940.165 3588
1343.17 938.069 3580
1351.73 938.069 3580
1372.07 946.192 3611
1380.71 946.192 3611
1389.34 946.192 3611
1382.88 935.973 3572
1385.58 932.042 3557
1394.08 932.042 3557
1373.41 912.652 3483
1373.01 906.888 3461
1364.53 895.882 3419
1367.08 892.214 3405
1375.22 892.214 3405
1366.3 881.209 3363
1366.17 875.968 3343
1371.7 874.396 3337
1379.68 874.396 3337
1381.84 870.727 3323
1389.78 870.727 3323
1395.21 869.155 3317
1403.14 869.155 3317
1405.11 865.487 3303
1413.01 865.487 3303
1418.33 863.915 3297
1420.59 860.508 3284
1428.44 860.508 3284
1436.3 860.508 3284
1435.79 855.53 3265
1446.25 857.102 3271
1454.08 857.102 3271
1461.9 857.102 3271
1469.72 857.102 3271
1474.83 855.53 3265
1482.64 855.53 3265
1487.25 853.695 3258
1492.29 852.123 3252
1500.07 852.123 3252
1507.84 852.123 3252
1509.56 848.717 3239
1517.31 848.717 3239
1525.05 848.717 3239
1529.96 847.145 3233
1537.69 847.145 3233
1542.55 845.572 3227
1550.27 845.572 3227
1555.09 844 3221
1562.79 844 3221
1564.15 840.594 3208
1568.89 839.022 3202
1570.63 835.877 3190
1578.26 835.877 3190
1576.94 831.161 3172
1572.54 824.872 3148
1571.03 820.155 3130
1557.84 809.412 3089
1565.23 809.412 3089
1561.41 803.648 3067
1540.1 788.974 3011
1517.5 773.776 2953
1524.56 773.776 2953
1518.14 766.963 2927
1503.77 756.22 2886
1500.2 750.979 2866
1497.07 746.001 2847
1503.87 746.001 2847
1505.38 743.38 2837
1507.36 741.022 2828
1508.77 738.402 2818
1515.51 738.402 2818
1517.39 736.044 2809
1521.39 734.734 2804
1525.37 733.423 2799
1532.07 733.423 2799
1536.01 732.113 2794
1540.48 731.065 2790
1547.15 731.065 2790
1553.83 731.065 2790
1560.5 731.065 2790
1567.17 731.065 2790
1576.1 732.113 2794
1582.78 732.113 2794
1589.46 732.113 2794
1596.14 732.113 2794
1602.82 732.113 2794
1609.5 732.113 2794
1616.19 732.113 2794
1620.54 731.065 2790
2043.82 914.486 3490
2052.17 914.486 3490
2060.51 914.486 3490
2077.75 918.417 3505
2090.3 920.251 3512
2098.7 920.251 3512
2116.1 924.182 3527
2128.75 926.016 3534
2142.04 928.112 3542
2150.51 928.112 3542
2158.98 928.112 3542
2167.45 928.112 3542
2175.92 928.112 3542
2184.39 928.112 3542
2183.57 924.182 3527
2173.36 916.321 3497
2177.35 914.486 3490
2185.7 914.486 3490
2171.41 905.053 3454
2166.42 899.551 3433
2148.02 888.545 3391
2156.13 888.545 3391
2146.37 881.209 3363
2124.95 869.155 3317
2123.87 865.487 3303
2131.77 865.487 3303
2131.25 862.08 3290
2135.22 860.508 3284
2134.59 857.102 3271
2142.41 857.102 3271
2154.83 858.936 3278
2162.67 858.936 3278
2183.09 863.915 3297
2199.61 867.321 3310
2216.2 870.727 3323
2224.14 870.727 3323
2273.06 886.711 3384
2285.88 888.545 3391
2298.72 890.38 3398
2306.85 890.38 3398
2314.97 890.38 3398
2323.1 890.38 3398
2331.22 890.38 3398
2334.53 888.545 3391
2337.8 886.711 3384
2327.18 879.636 3357
2335.2 879.636 3357
2324.39 872.562 3330
2318.34 867.321 3310
2312.2 862.08 3290
2315.84 860.508 3284
2323.69 860.508 3284
2313.08 853.695 3258
2316.6 852.123 3252
2320.09 850.551 3246
2327.85 850.551 3246
2326.26 847.145 3233
2325.33 844 3221
2323.61 840.594 3208
2313.84 834.305 3184
2321.46 834.305 3184
2324.68 832.733 3178
2332.28 832.733 3178
2344.3 834.305 3184
2351.91 834.305 3184
2359.53 834.305 3184
2367.14 834.305 3184
2374.75 834.305 3184
2404.82 842.166 3214
2412.5 842.166 3214
2420.19 842.166 3214
2442.22 847.145 3233
2464.35 852.123 3252
2472.13 852.123 3252
2489.82 855.53 3265
2497.63 855.53 3265
-2449.08 864.937 3271
-2446.48 866.788 3278
-2438.64 866.788 3278
-2430.8 866.788 3278
-2422.96 866.788 3278
-2415.13 866.788 3278
-2407.29 866.788 3278
-2399.45 866.788 3278
-2391.27 911.476 3447
-2383.03 911.476 3447
-2374.78 911.476 3447
-2361.73 909.625 3440
-2339.14 904.073 3419
-2330.96 904.073 3419
-2322.79 904.073 3419
-2314.61 904.073 3419
-2292.35 911.476 3447
-2288.75 913.327 3454
-2299.64 920.996 3483
-2291.31 920.996 3483
-2297.4 926.813 3505
-2289.02 926.813 3505
-2280.64 926.813 3505
-2267.07 924.698 3497
-2258.71 924.698 3497
-2250.34 924.698 3497
-2247.11 926.813 3505
-2238.73 926.813 3505
-2244.35 932.63 3527
-2240.35 934.482 3534
-2231.9 934.482 3534
-2223.45 934.482 3534
-2215 934.482 3534
-2206.55 934.482 3534
-2198.1 934.482 3534
-2189.65 934.482 3534
-2181.19 934.482 3534
-2168.44 932.63 3527
-2160.01 932.63 3527
-2142.42 928.664 3512
-2124.91 924.698 3497
-2116.55 924.698 3497
-2108.18 924.698 3497
-2095.62 922.847 3490
-2083.09 920.996 3483
-2061.65 915.178 3461
-2057.53 917.029 3468
-2049.24 917.029 3468
-2040.94 917.029 3468
-2032.65 917.029 3468
-2024.36 917.029 3468
-2011.99 915.178 3461
-1975.35 902.221 3412
-1967.19 902.221 3412
-1959.03 902.221 3412
-1950.87 902.221 3412
-1930.76 896.669 3391
-1914.71 892.967 3377
-1906.63 892.967 3377
-1890.69 889.265 3363
-1875.37 885.827 3350
-1863.46 883.976 3343
-1866.56 889.265 3363
-1858.52 889.265 3363
-1854.33 891.116 3370
-1857.78 896.669 3391
-1861.12 902.221 3412
-1852.96 902.221 3412
-1848.59 904.073 3419
-1840.41 904.073 3419
-1832.24 904.073 3419
-1812.86 898.52 3398
-1804.73 898.52 3398
-1804.01 902.221 3412
-1799.53 904.073 3419
-1791.36 904.073 3419
-1786.83 905.923 3426
-1789.54 911.476 3447
-1781.3 911.476 3447
-1773.06 911.476 3447
-1768.4 913.327 3454
-1763.71 915.178 3461
-1755.43 915.178 3461
-1747.15 915.178 3461
-1738.88 915.178 3461
-1730.6 915.178 3461
-1722.32 915.178 3461
-1714.05 915.178 3461
-1705.77 915.178 3461
-1694.06 913.327 3454
-1678.97 909.625 3440
-1670.74 909.625 3440
-1662.52 909.625 3440
-1461.33 902.221 3412
-1453.17 902.221 3412
-1445.01 902.221 3412
-1436.85 902.221 3412
-1428.69 902.221 3412
-1420.53 902.221 3412
-1394.98 891.116 3370
-1386.93 891.116 3370
-1378.87 891.116 3370
-1362.67 885.827 3350
-1333.23 871.812 3297
-1322.53 869.962 3290
-1319.86 873.399 3303
-1322.69 880.539 3330
-1314.72 880.539 3330
-1306.76 880.539 3330
-1298.8 880.539 3330
-1290.83 880.539 3330
-1282.87 880.539 3330
-1274.91 880.539 3330
-1264.28 878.688 3323
-1256.34 878.688 3323
-1240.88 873.399 3303
-1247.91 883.976 3343
-1252.52 892.967 3377
-1244.45 892.967 3377
-1236.37 892.967 3377
-1248.67 907.774 3433
-1240.46 907.774 3433
-1252.71 922.847 3490
-1244.36 922.847 3490
-1249.12 932.63 3527
-1248.43 938.448 3549
-1239.94 938.448 3549
-1231.45 938.448 3549
-1220.55 936.597 3542
-1209.35 934.482 3534
-1200.89 934.482 3534
-1190.08 932.63 3527
-1183.99 934.482 3534
-1180.53 938.448 3549
-1172.04 938.448 3549
-1163.56 938.448 3549
-1157.68 940.563 3557
-1154.02 944.53 3572
-1150.6 948.76 3588
-1142.02 948.76 3588
-1133.44 948.76 3588
-1129.57 952.727 3603
-1120.95 952.727 3603
-1112.34 952.727 3603
-1103.72 952.727 3603
-1095.1 952.727 3603
-1086.49 952.727 3603
-1073.38 948.76 3588
-775.959 902.221 3412
-767.799 902.221 3412
-759.64 902.221 3412
-751.481 902.221 3412
-610.919 864.937 3271
-604.388 866.788 3278
-632.582 919.145 3476
-624.27 919.145 3476
-615.958 919.145 3476
-605.024 915.178 3461
-596.747 915.178 3461
-582.52 905.923 3426
-566.113 892.967 3377
-564.978 904.073 3419
-560.222 909.625 3440
-551.996 909.625 3440
-543.77 909.625 3440
-538.813 915.178 3461
-530.537 915.178 3461
-522.261 915.178 3461
-513.984 915.178 3461
-503.662 911.476 3447
-495.42 911.476 3447
-486.187 909.625 3440
-481.852 917.029 3468
-473.559 917.029 3468
-466.339 919.145 3476
-458.027 919.145 3476
-449.715 919.145 3476
-444.069 924.698 3497
-436.703 926.813 3505
-428.322 926.813 3505
-420.779 928.664 3512
-414.964 934.482 3534
-409.159 940.563 3557
-400.653 940.563 3557
-392.147 940.563 3557
-381.161 934.482 3534
-372.71 934.482 3534
-364.259 934.482 3534
-355.808 934.482 3534
-345.981 930.78 3520
-337.564 930.78 3520
-329.146 930.78 3520
-99.083 573.54 2169
-93.8963 573.54 2169
-88.7095 573.54 2169
-83.5228 573.54 2169
-78.3361 573.54 2169
-72.7783 570.631 2158
-67.5239 569.838 2155
-62.2259 568.516 2150
-57.0846 568.516 2150
-51.9433 568.516 2150
-46.7367 567.723 2147
-41.5445 566.929 2144
-36.4175 566.929 2144
-31.2906 566.929 2144
-26.1636 566.929 2144
-21.0367 566.929 2144
-15.9097 566.929 2144
-10.7828 566.929 2144
-5.65052 566.401 2142
-0.528349 566.401 2142
4.59382 566.401 2142
9.72507 566.929 2144
14.852 566.929 2144
19.979 566.929 2144
25.2113 569.309 2153
30.3598 569.309 2153
35.5083 569.309 2153
40.6945 569.838 2155
46.2733 575.127 2175
51.6164 576.713 2181
56.8318 576.713 2181
62.1326 577.506 2184
67.3552 577.506 2184
73.1427 582.002 2201
78.406 582.002 2201
83.6692 582.002 2201
89.0537 582.795 2204
94.3241 582.795 2204
99.5946 582.795 2204
104.865 582.795 2204
110.135 582.795 2204
115.406 582.795 2204
120.676 582.795 2204
125.947 582.795 2204
131.039 582.002 2201
136.302 582.002 2201
140.986 579.622 2192
146.228 579.622 2192
151.47 579.622 2192
156.711 579.622 2192
161.731 578.828 2189
166.966 578.828 2189
171.965 578.035 2186
177.192 578.035 2186
182.419 578.035 2186
187.475 577.506 2184
192.168 575.92 2178
197.648 576.713 2181
203.608 578.828 2189
208.843 578.828 2189
214.077 578.828 2189
219.312 578.828 2189
224.546 578.828 2189
229.781 578.828 2189
235.015 578.828 2189
240.25 578.828 2189
245.484 578.828 2189
250.375 578.035 2186
255.018 576.713 2181
259.518 575.127 2175
264.719 575.127 2175
521.831 849.865 3214
529.517 849.865 3214
537.203 849.865 3214
541.837 845.105 3196
546.385 840.346 3178
553.984 840.346 3178
557.343 834 3154
562.736 830.826 3142
566.982 826.067 3124
574.453 826.067 3124
573.354 813.903 3078
580.715 813.903 3078
592.47 819.985 3101
599.885 819.985 3101
607.3 819.985 3101
614.716 819.985 3101
622.131 819.985 3101
624.877 813.903 3078
632.238 813.903 3078
639.598 813.903 3078
650.532 818.398 3095
657.933 818.398 3095
665.334 818.398 3095
672.735 818.398 3095
680.136 818.398 3095
691.314 822.894 3112
701.45 826.067 3124
708.92 826.067 3124
717.767 827.653 3130
729.422 832.413 3148
736.95 832.413 3148
744.478 832.413 3148
754.872 835.586 3160
765.324 838.759 3172
775.833 841.932 3184
783.447 841.932 3184
791.061 841.932 3184
801.685 845.105 3196
815.659 851.716 3221
823.361 851.716 3221
839.062 859.913 3252
877.566 891.116 3370
885.625 891.116 3370
893.683 891.116 3370
901.742 891.116 3370
909.801 891.116 3370
917.86 891.116 3370
923.995 889.265 3363
919.288 877.101 3317
927.22 877.101 3317
936.844 878.688 3323
958.153 891.116 3370
966.212 891.116 3370
982.365 898.52 3398
990.491 898.52 3398
998.617 898.52 3398
1006.74 898.52 3398
1010.69 894.818 3384
1018.78 894.818 3384
1026.87 894.818 3384
1034.96 894.818 3384
1038.74 891.116 3370
1051.15 894.818 3384
1063.62 898.52 3398
1071.75 898.52 3398
1091 907.774 3433
1103.69 911.476 3447
1111.93 911.476 3447
1120.17 911.476 3447
1130.71 913.327 3454
1138.97 913.327 3454
1149.55 915.178 3461
1162.85 919.145 3476
1171.16 919.145 3476
1181.85 920.996 3483
1190.17 920.996 3483
1198.5 920.996 3483
1206.83 920.996 3483
1225.28 928.664 3512
1236.49 930.78 3520
1247.38 932.63 3527
1255.81 932.63 3527
1266.76 934.482 3534
1278.1 936.597 3542
1289.11 938.448 3549
1297.59 938.448 3549
1311.97 942.679 3565
1320.49 942.679 3565
1329.02 942.679 3565
1337.54 942.679 3565
1340.03 938.448 3549
1354.59 942.679 3565
1363.12 942.679 3565
1371.64 942.679 3565
1377.07 940.563 3557
1368.05 928.664 3512
1376.45 928.664 3512
1364.74 915.178 3461
1359.13 905.923 3426
1358.94 900.371 3405
1350.22 889.265 3363
1358.26 889.265 3363
1363.86 887.678 3357
1363.72 882.39 3337
1368.82 880.539 3330
1376.78 880.539 3330
1381.84 878.688 3323
1389.78 878.688 3323
1395.21 877.101 3317
1403.14 877.101 3317
1408.09 875.25 3310
1413.01 873.399 3303
1418.33 871.812 3297
1423.19 869.962 3290
1431.05 869.962 3290
1436.3 868.375 3284
1441.51 866.788 3278
1446.25 864.937 3271
1454.08 864.937 3271
1461.9 864.937 3271
1469.72 864.937 3271
1477.54 864.937 3271
1485.36 864.937 3271
1490.45 863.351 3265
1495.04 861.5 3258
1502.83 861.5 3258
1510.62 861.5 3258
1512.82 858.327 3246
1517.31 856.476 3239
1525.05 856.476 3239
1532.8 856.476 3239
1540.54 856.476 3239
1545.42 854.889 3233
1550.27 853.303 3227
1555.09 851.716 3221
1562.79 851.716 3221
1564.15 848.279 3208
1571.83 848.279 3208
1573.59 845.105 3196
1581.23 845.105 3196
1582.91 841.932 3184
1578.53 835.586 3160
1577.05 830.826 3142
1584.57 830.826 3142
1568.27 818.398 3095
1561.41 810.995 3067
1543.17 797.773 3017
1517.5 780.85 2953
1524.56 780.85 2953
1518.14 773.975 2927
1503.77 763.133 2886
1502.82 759.167 2871
1497.07 752.821 2847
1503.87 752.821 2847
1505.38 750.177 2837
1507.36 747.797 2828
1508.77 745.152 2818
1515.51 745.152 2818
1517.39 742.773 2809
1518.68 740.128 2799
1522.65 738.806 2794
1529.33 738.806 2794
1536.01 738.806 2794
1540.48 737.749 2790
1547.15 737.749 2790
1553.83 737.749 2790
1560.5 737.749 2790
1567.17 737.749 2790
1573.84 737.749 2790
1580.51 737.749 2790
1587.18 737.749 2790
1593.86 737.749 2790
1600.53 737.749 2790
1607.2 737.749 2790
1613.87 737.749 2790
1614.74 735.104 2780
2026.84 915.178 3461
2035.12 915.178 3461
2043.39 915.178 3461
2064.71 920.996 3483
2086.13 926.813 3505
2094.51 926.813 3505
2102.9 926.813 3505
2111.28 926.813 3505
2123.89 928.664 3512
2132.29 928.664 3512
2149.83 932.63 3527
2158.27 932.63 3527
2166.7 932.63 3527
2175.13 932.63 3527
2179.23 930.78 3520
2178.33 926.813 3505
2186.71 926.813 3505
2176.93 919.145 3476
2175.81 915.178 3461
2175.25 911.476 3447
2148.02 896.669 3391
2156.13 896.669 3391
2138.07 885.827 3350
2112.13 871.812 3297
2120.02 871.812 3297
2127.9 871.812 3297
2131.25 869.962 3290
2135.22 868.375 3284
2126.1 861.5 3258
2138.48 863.351 3265
2150.23 864.937 3271
2158.05 864.937 3271
2170.51 866.788 3278
2190.97 871.812 3297
2216.2 878.688 3323
2224.14 878.688 3323
2273.06 894.818 3384
2281.16 894.818 3384
2298.72 898.52 3398
2306.85 898.52 3398
2314.97 898.52 3398
2323.1 898.52 3398
2331.22 898.52 3398
2334.53 896.669 3391
2337.8 894.818 3384
2327.18 887.678 3357
2335.2 887.678 3357
2324.39 880.539 3330
2318.34 875.25 3310
2312.2 869.962 3290
2315.84 868.375 3284
2323.69 868.375 3284
2313.08 861.5 3258
2316.6 859.913 3252
2315.08 856.476 3239
2322.83 856.476 3239
2326.26 854.889 3233
2325.33 851.716 3221
2319.27 846.692 3202
2309.48 840.346 3178
2317.08 840.346 3178
2320.29 838.759 3172
2332.28 840.346 3178
2344.3 841.932 3184
2351.91 841.932 3184
2359.53 841.932 3184
2367.14 841.932 3184
2374.75 841.932 3184
2404.82 849.865 3214
2412.5 849.865 3214
2420.19 849.865 3214
2442.22 854.889 3233
2464.35 859.913 3252
2472.13 859.913 3252
2489.82 863.351 3265
2497.63 863.351 3265
-2468.54 879.711 3297
-2460.66 879.711 3297
-2472.12 886.648 3323
-2464.17 886.648 3323
-2456.23 886.648 3323
-2433.54 881.311 3303
-2407.29 874.641 3278
-2339.47 902.924 3384
-2350.67 910.395 3412
-2342.51 910.395 3412
-2334.35 910.395 3412
-2311.88 904.792 3391
-2303.77 904.792 3391
-2295.66 904.792 3391
-2227.85 893.852 3350
-2260.92 910.395 3412
-2275.87 919.734 3447
-2267.63 919.734 3447
-2278.39 927.472 3476
-2274.65 929.339 3483
-2266.32 929.339 3483
-2257.99 929.339 3483
-2245.14 927.472 3476
-2231.68 925.337 3468
-2241.98 933.075 3497
-2233.62 933.075 3497
-2239.89 939.212 3520
-2240.35 942.947 3534
-2231.9 942.947 3534
-2223.45 942.947 3534
-2210.61 941.079 3527
-2202.18 941.079 3527
-2193.74 941.079 3527
-2185.31 941.079 3527
-2176.87 941.079 3527
-2159.22 937.077 3512
-2150.82 937.077 3512
-2138.15 935.209 3505
-2124.91 933.075 3497
-2112.31 931.207 3490
-2103.96 931.207 3490
-2091.42 929.339 3483
-2069.93 923.469 3461
-2061.65 923.469 3461
-2053.38 923.469 3461
-2045.1 923.469 3461
-2040.94 925.337 3468
-2032.65 925.337 3468
-2024.36 925.337 3468
-1995.72 915.998 3433
-1975.35 910.395 3412
-1951.05 902.924 3384
-1942.96 902.924 3384
-1934.86 902.924 3384
-1922.79 901.056 3377
-1903.37 895.72 3357
-1895.34 895.72 3357
-1879.44 891.984 3343
-1860.25 886.648 3323
-1852.31 886.648 3323
-1855.46 891.984 3343
-1847.47 891.984 3343
-1839.47 891.984 3343
-1842.44 897.321 3363
-1857.3 908.527 3405
-1849.16 908.527 3405
-1841.02 908.527 3405
-1832.88 908.527 3405
-1824.73 908.527 3405
-1805.39 902.924 3384
-1793.58 901.056 3377
-1792.91 904.792 3391
-1792.17 908.527 3405
-1784.02 908.527 3405
-1779.53 910.395 3412
-1778.64 914.13 3426
-1770.45 914.13 3426
-1762.26 914.13 3426
-1764.81 919.734 3447
-1760.14 921.602 3454
-1751.88 921.602 3454
-1743.62 921.602 3454
-1735.36 921.602 3454
-1723.6 919.734 3447
-1711.87 917.866 3440
-1703.65 917.866 3440
-1695.42 917.866 3440
-1687.2 917.866 3440
-1655.05 904.792 3391
-1646.94 904.792 3391
-1424.26 897.321 3363
-1428 904.792 3391
-1419.9 904.792 3391
-1411.79 904.792 3391
-1386.71 893.852 3350
-1378.7 893.852 3350
-1370.68 893.852 3350
-1349.25 885.047 3317
-1330.4 877.843 3290
-1322.53 877.843 3290
-1317.46 879.711 3297
-1319.91 886.648 3323
-1311.96 886.648 3323
-1306.76 888.516 3330
-1298.8 888.516 3330
-1290.83 888.516 3330
-1282.87 888.516 3330
-1274.91 888.516 3330
-1264.28 886.648 3323
-1256.34 886.648 3323
-1240.88 881.311 3303
-1232.98 881.311 3303
-1225.08 881.311 3303
-1217.18 881.311 3303
-1209.28 881.311 3303
-1211.2 888.516 3330
-1203.24 888.516 3330
-1237.27 919.734 3447
-1229.03 919.734 3447
-1228.23 925.337 3468
-1225.21 929.339 3483
-1216.88 929.339 3483
-1208.55 929.339 3483
-1200.22 929.339 3483
-1191.89 929.339 3483
-1185.94 931.207 3490
-1177.6 931.207 3490
-1176.62 937.077 3512
-1173.21 941.079 3527
-1167.09 942.947 3534
-1158.64 942.947 3534
-1152.79 945.082 3542
-1149.17 949.084 3557
-1150.6 957.356 3588
-1142.02 957.356 3588
-1133.44 957.356 3588
-1129.57 961.358 3603
-1120.95 961.358 3603
-1112.34 961.358 3603
-1103.72 961.358 3603
-1095.1 961.358 3603
-1086.49 961.358 3603
-610.919 872.773 3271
-604.388 874.641 3278
-618.387 906.659 3398
-610.262 906.659 3398
-607.098 914.13 3426
-598.905 914.13 3426
-590.713 914.13 3426
-576.569 904.792 3391
-566.113 901.056 3377
-563.821 910.395 3412
-557.942 914.13 3426
-549.75 914.13 3426
-543.77 917.866 3440
-536.634 919.734 3447
-528.391 919.734 3447
-520.148 919.734 3447
-511.905 919.734 3447
-502.64 917.866 3440
-494.413 917.866 3440
-486.187 917.866 3440
-477.961 917.866 3440
-469.735 917.866 3440
-465.266 925.337 3468
-456.973 925.337 3468
-449.715 927.472 3476
-443.18 931.207 3490
-436.703 935.209 3505
-428.322 935.209 3505
-420.779 937.077 3512
-414.964 942.947 3534
-409.159 949.084 3557
-400.653 949.084 3557
-392.147 949.084 3557
-381.161 942.947 3534
-372.71 942.947 3534
-364.259 942.947 3534
-355.103 941.079 3527
-345.981 939.212 3520
-337.564 939.212 3520
-99.083 578.736 2169
-93.8963 578.736 2169
-88.7095 578.736 2169
-83.5228 578.736 2169
-78.3361 578.736 2169
-72.7783 575.801 2158
-67.5239 575 2155
-62.2259 573.666 2150
-57.0846 573.666 2150
-51.9433 573.666 2150
-46.802 573.666 2150
-41.6026 572.866 2147
-36.4685 572.866 2147
-31.2906 572.065 2144
-26.1636 572.065 2144
-21.0367 572.065 2144
-15.9097 572.065 2144
-10.7828 572.065 2144
-5.65052 571.532 2142
-0.528349 571.532 2142
4.59382 571.532 2142
9.73867 572.866 2147
14.8728 572.866 2147
20.0069 572.866 2147
25.2113 574.467 2153
30.3598 574.467 2153
35.5083 574.467 2153
40.6945 575 2155
46.2733 580.337 2175
51.6164 581.938 2181
56.8318 581.938 2181
62.1326 582.738 2184
67.3552 582.738 2184
73.1427 587.274 2201
78.406 587.274 2201
83.6692 587.274 2201
89.0537 588.075 2204
94.3241 588.075 2204
99.5946 588.075 2204
104.865 588.075 2204
110.135 588.075 2204
115.406 588.075 2204
120.676 588.075 2204
125.947 588.075 2204
131.039 587.274 2201
136.302 587.274 2201
140.986 584.873 2192
146.228 584.873 2192
151.47 584.873 2192
156.711 584.873 2192
161.731 584.072 2189
166.966 584.072 2189
171.965 583.272 2186
177.192 583.272 2186
182.419 583.272 2186
187.475 582.738 2184
