-1625.5 -56.3732 3557
-1616.99 -56.3732 3557
-1612.1 -56.5 3565
-1603.58 -56.5 3565
-1595.05 -56.5 3565
-1586.53 -56.5 3565
-1578 -56.5 3565
-1569.48 -56.5 3565
-1560.95 -56.5 3565
-1545.46 -56.2464 3549
-1536.97 -56.2464 3549
-1519.01 -55.8978 3527
-1510.58 -55.8978 3527
-1499.16 -55.7868 3520
-1484.39 -55.5491 3505
-1469.69 -55.3114 3490
-1461.35 -55.3114 3490
-1450.09 -55.2004 3483
-1432.65 -54.8518 3461
-1409.97 -54.2971 3426
-1401.78 -54.2971 3426
-1367.96 -53.2986 3363
-1349.41 -52.8866 3337
-1320.12 -52.0466 3284
-1284.3 -50.9372 3214
-1276.61 -50.9372 3214
-1252.34 -50.2715 3172
-1228.28 -49.6059 3130
-1209.48 -49.1463 3101
-1202.06 -49.1463 3101
-1183.48 -48.6867 3072
-1167.71 -48.338 3050
-1147.86 -47.815 3017
-1140.64 -47.815 3017
-1123.29 -47.3871 2990
-1107.92 -47.0384 2968
-1095.26 -46.8007 2953
-1090.04 -46.88 2958
-1082.97 -46.88 2958
-1075.9 -46.88 2958
-1068.82 -46.88 2958
-1061.75 -46.88 2958
-1054.68 -46.88 2958
-1045.83 -46.8007 2953
-1038.77 -46.8007 2953
-1029.61 -46.7056 2947
-1022.57 -46.7056 2947
-1012.07 -46.5471 2937
-1005.05 -46.5471 2937
-994.629 -46.3887 2927
-987.63 -46.3887 2927
-980.63 -46.3887 2927
-971.968 -46.3094 2922
-964.98 -46.3094 2922
-957.993 -46.3094 2922
-949.378 -46.2302 2917
-942.403 -46.2302 2917
-937.031 -46.3094 2922
-930.043 -46.3094 2922
-923.056 -46.3094 2922
-916.069 -46.3094 2922
-907.526 -46.2302 2917
-900.55 -46.2302 2917
-893.575 -46.2302 2917
-886.599 -46.2302 2917
-879.624 -46.2302 2917
-872.648 -46.2302 2917
-863.892 -46.1351 2911
-856.931 -46.1351 2911
-849.97 -46.1351 2911
-843.009 -46.1351 2911
-836.048 -46.1351 2911
-829.087 -46.1351 2911
-820.714 -46.0558 2906
-813.765 -46.0558 2906
-806.815 -46.0558 2906
-799.866 -46.0558 2906
-792.917 -46.0558 2906
-785.968 -46.0558 2906
-779.019 -46.0558 2906
-770.741 -45.9766 2901
-762.488 -45.8974 2896
-755.563 -45.8974 2896
-748.637 -45.8974 2896
-741.712 -45.8974 2896
-733.518 -45.8181 2891
-726.605 -45.8181 2891
-719.692 -45.8181 2891
-712.779 -45.8181 2891
-704.645 -45.7389 2886
-696.534 -45.6596 2881
-689.645 -45.6596 2881
-680.386 -45.5011 2871
-673.52 -45.5011 2871
-665.494 -45.4219 2866
-658.641 -45.4219 2866
-651.787 -45.4219 2866
-644.934 -45.4219 2866
-638.08 -45.4219 2866
-631.227 -45.4219 2866
-624.373 -45.4219 2866
-619.674 -45.5804 2876
-613.862 -45.6596 2881
-608.026 -45.7389 2886
-605.291 -46.0558 2906
-598.342 -46.0558 2906
-600.957 -46.8007 2953
-606.767 -47.815 3017
-599.553 -47.815 3017
-602.155 -48.6075 3067
-617.512 -50.4617 3184
-626.563 -51.8406 3271
-618.741 -51.8406 3271
-618.203 -52.4586 3310
-612.685 -52.6647 3323
-608.378 -52.9816 3343
-600.384 -52.9816 3343
-593.63 -53.0926 3350
-587.892 -53.2986 3363
-581.057 -53.4096 3370
-572.998 -53.4096 3370
-567.287 -53.6314 3384
-561.508 -53.8533 3398
-553.382 -53.8533 3398
-545.257 -53.8533 3398
-538.237 -53.9643 3405
-531.185 -54.0752 3412
-524.099 -54.1861 3419
-515.923 -54.1861 3419
-509.826 -54.408 3433
-502.64 -54.519 3440
-494.413 -54.519 3440
-486.187 -54.519 3440
-477.961 -54.519 3440
-469.735 -54.519 3440
-461.509 -54.519 3440
-453.283 -54.519 3440
-445.057 -54.519 3440
-436.831 -54.519 3440
-428.605 -54.519 3440
-420.379 -54.519 3440
-410.475 -54.2971 3426
-402.283 -54.2971 3426
-394.09 -54.2971 3426
-385.897 -54.2971 3426
-377.705 -54.2971 3426
-370.267 -54.408 3433
-362.058 -54.408 3433
-353.849 -54.408 3433
-345.639 -54.408 3433
-336.742 -54.2971 3426
-326.535 -53.9643 3405
-318.393 -53.9643 3405
-310.251 -53.9643 3405
-300.866 -53.7424 3391
-290.944 -53.4096 3370
-282.885 -53.4096 3370
-273.196 -53.0926 3350
-264.156 -52.8866 3337
-256.176 -52.8866 3337
-248.196 -52.8866 3337
-240.216 -52.8866 3337
-231.262 -52.6647 3323
-223.316 -52.6647 3323
-215.37 -52.6647 3323
-207.423 -52.6647 3323
-198.697 -52.4586 3310
-123.922 -34.0743 2150
-118.78 -34.0743 2150
-113.639 -34.0743 2150
-108.346 -34.0268 2147
-103.212 -34.0268 2147
-98.078 -34.0268 2147
-92.9439 -34.0268 2147
-87.6871 -33.9793 2144
-82.252 -33.8525 2136
-77.1442 -33.8525 2136
-72.0364 -33.8525 2136
-66.4899 -33.6306 2122
-61.3577 -33.5989 2120
-56.2881 -33.5989 2120
-51.1461 -33.5513 2117
-45.9748 -33.4721 2112
-40.6144 -33.2185 2096
-35.3304 -32.965 2080
-30.3565 -32.965 2080
-25.2606 -32.8065 2070
-20.1634 -32.5687 2055
-15.1305 -32.3152 2039
-10.2547 -32.3152 2039
-5.35507 -32.1725 2030
-0.501216 -32.2042 2032
4.3622 -32.2359 2034
9.22611 -32.2359 2034
14.09 -32.2359 2034
18.9819 -32.2835 2037
23.9935 -32.4736 2049
28.9779 -32.5687 2055
33.892 -32.5687 2055
38.9006 -32.648 2060
43.9756 -32.7589 2067
49.0367 -32.8382 2072
53.9915 -32.8382 2072
59.0316 -32.8857 2075
64.1478 -32.965 2080
69.2878 -33.0442 2085
74.2737 -33.0442 2085
79.3736 -33.0917 2088
84.5687 -33.171 2093
89.7021 -33.2185 2096
94.7142 -33.2185 2096
99.7264 -33.2185 2096
104.739 -33.2185 2096
109.751 -33.2185 2096
115.037 -33.2978 2101
120.061 -33.2978 2101
125.264 -33.3453 2104
130.295 -33.3453 2104
135.455 -33.377 2106
140.491 -33.377 2106
145.734 -33.4246 2109
150.992 -33.4721 2112
156.19 -33.5038 2114
161.245 -33.5038 2114
166.301 -33.5038 2114
171.599 -33.5513 2117
176.912 -33.5989 2120
181.981 -33.5989 2120
187.227 -33.6306 2122
192.574 -33.6781 2125
197.655 -33.6781 2125
202.737 -33.6781 2125
208.405 -33.7732 2131
213.501 -33.7732 2131
218.597 -33.7732 2131
223.693 -33.7732 2131
229.325 -33.8525 2136
237.506 -34.2962 2164
242.681 -34.2962 2164
247.856 -34.2962 2164
253.03 -34.2962 2164
395.138 -50.4617 3184
402.752 -50.4617 3184
410.366 -50.4617 3184
417.192 -50.3666 3178
421.584 -49.9863 3154
429.126 -49.9863 3154
434.176 -49.701 3136
438.295 -49.3206 3112
440.007 -48.6867 3072
447.353 -48.6867 3072
447.299 -47.8943 3022
452.119 -47.6407 3006
454.417 -47.1335 2974
461.529 -47.1335 2974
467.695 -47.0384 2968
473.993 -46.9592 2963
478.481 -46.7056 2947
483.057 -46.4679 2932
490.068 -46.4679 2932
495.384 -46.3094 2922
500.48 -46.1351 2911
505.698 -45.9766 2901
512.635 -45.9766 2901
519.572 -45.9766 2901
525.602 -45.8974 2896
532.527 -45.8974 2896
539.452 -45.8974 2896
546.378 -45.8974 2896
553.303 -45.8974 2896
560.228 -45.8974 2896
567.153 -45.8974 2896
574.078 -45.8974 2896
580 -45.8181 2891
586.914 -45.8181 2891
593.827 -45.8181 2891
600.74 -45.8181 2891
606.603 -45.7389 2886
613.504 -45.7389 2886
620.405 -45.7389 2886
627.307 -45.7389 2886
634.208 -45.7389 2886
641.109 -45.7389 2886
648.01 -45.7389 2886
654.912 -45.7389 2886
661.813 -45.7389 2886
668.714 -45.7389 2886
675.616 -45.7389 2886
682.517 -45.7389 2886
689.418 -45.7389 2886
696.32 -45.7389 2886
702.003 -45.6596 2881
708.892 -45.6596 2881
715.781 -45.6596 2881
722.671 -45.6596 2881
729.56 -45.6596 2881
736.449 -45.6596 2881
743.339 -45.6596 2881
750.228 -45.6596 2881
755.803 -45.5804 2876
762.681 -45.5804 2876
769.558 -45.5804 2876
776.435 -45.5804 2876
783.313 -45.5804 2876
790.19 -45.5804 2876
797.068 -45.5804 2876
803.945 -45.5804 2876
809.413 -45.5011 2871
816.278 -45.5011 2871
824.577 -45.5804 2876
831.455 -45.5804 2876
838.332 -45.5804 2876
845.209 -45.5804 2876
852.087 -45.5804 2876
858.964 -45.5804 2876
865.841 -45.5804 2876
872.719 -45.5804 2876
879.596 -45.5804 2876
886.474 -45.5804 2876
894.904 -45.6596 2881
909.619 -46.0558 2906
923.191 -46.3887 2927
930.191 -46.3887 2927
940.392 -46.5471 2937
954.189 -46.88 2958
968.087 -47.2128 2979
975.211 -47.2128 2979
992.887 -47.7199 3011
1007.39 -48.0686 3033
1027.69 -48.6867 3072
1035.04 -48.6867 3072
1062.07 -49.6059 3130
1094.15 -50.747 3202
1121.08 -51.6345 3258
1128.87 -51.6345 3258
1150.27 -52.2526 3297
1181.34 -53.2986 3363
1206.71 -54.0752 3412
1214.87 -54.0752 3412
1225.54 -54.1861 3419
1233.71 -54.1861 3419
1241.89 -54.1861 3419
1250.06 -54.1861 3419
1258.24 -54.1861 3419
1269.01 -54.2971 3426
1282.42 -54.519 3440
1290.65 -54.519 3440
1306.8 -54.8518 3461
1315.08 -54.8518 3461
1323.35 -54.8518 3461
1328.94 -54.7408 3454
1331.78 -54.519 3440
1340 -54.519 3440
1340 -54.1861 3419
1348.17 -54.1861 3419
1345.24 -53.7424 3391
1331.8 -52.8866 3337
1334.16 -52.6647 3323
1342.11 -52.6647 3323
1350.05 -52.6647 3323
1358 -52.6647 3323
1365.94 -52.6647 3323
1376.78 -52.7756 3330
1384.75 -52.7756 3330
1392.71 -52.7756 3330
1400.67 -52.7756 3330
1408.64 -52.7756 3330
1413.62 -52.6647 3323
1419 -52.5696 3317
1426.93 -52.5696 3317
1434.87 -52.5696 3317
1442.8 -52.5696 3317
1441.98 -52.2526 3297
1446.79 -52.1417 3290
1454.66 -52.1417 3290
1462.52 -52.1417 3290
1470.39 -52.1417 3290
1478.26 -52.1417 3290
1489.29 -52.2526 3297
1497.17 -52.2526 3297
1505.05 -52.2526 3297
1509.73 -52.1417 3290
1526.82 -52.4586 3310
1544.01 -52.7756 3330
1551.97 -52.7756 3330
1559.93 -52.7756 3330
1571.19 -52.8866 3337
1579.17 -52.8866 3337
1596.67 -53.2035 3357
1604.69 -53.2035 3357
1615.6 -53.2986 3363
1623.64 -53.2986 3363
1631.69 -53.2986 3363
1636.8 -53.2035 3357
1661.49 -53.7424 3391
1669.6 -53.7424 3391
1677.71 -53.7424 3391
1685.82 -53.7424 3391
1686.93 -53.5205 3377
1681.46 -53.0926 3350
1689.47 -53.0926 3350
1690.89 -52.8866 3337
1712.11 -53.2986 3363
1720.15 -53.2986 3363
1728.19 -53.2986 3363
1736.23 -53.2986 3363
1730.79 -52.8866 3337
1724.7 -52.4586 3310
1722.15 -52.1417 3290
1733.69 -52.2526 3297
1741.58 -52.2526 3297
1749.46 -52.2526 3297
1757.35 -52.2526 3297
1765.23 -52.2526 3297
1769.35 -52.1417 3290
1763.71 -51.7455 3265
1761.21 -51.4443 3246
1768.97 -51.4443 3246
1746.08 -50.5568 3190
1733.92 -49.9863 3154
1724.9 -49.5108 3124
1712.96 -48.9561 3089
1720.35 -48.9561 3089
1712.07 -48.5124 3061
1694.68 -47.815 3017
1677.64 -47.1335 2974
1684.75 -47.1335 2974
1656.02 -46.1351 2911
1637.27 -45.4219 2866
1633.23 -45.1208 2847
1634.27 -44.9623 2837
1641.06 -44.9623 2837
1636.81 -44.6612 2818
1638.3 -44.5185 2809
1633.89 -44.2174 2790
1640.56 -44.2174 2790
1644.28 -44.1382 2785
1650.94 -44.1382 2785
1649.27 -43.9163 2771
1655.89 -43.9163 2771
1660.12 -43.8529 2767
1663.72 -43.7737 2762
1670.33 -43.7737 2762
1676.93 -43.7737 2762
1683.54 -43.7737 2762
1687.08 -43.6944 2757
1691.22 -43.631 2753
1694.72 -43.5518 2748
1701.29 -43.5518 2748
1707.86 -43.5518 2748
1711.94 -43.4884 2744
1718.5 -43.4884 2744
1725.06 -43.4884 2744
1728.47 -43.4091 2739
1735.02 -43.4091 2739
1739.02 -43.3457 2735
1745.56 -43.3457 2735
1752.1 -43.3457 2735
1758.64 -43.3457 2735
1759.37 -43.2031 2726
1765.89 -43.2031 2726
1772.41 -43.2031 2726
1773.06 -43.0605 2717
1771.04 -42.8544 2704
1771.59 -42.7118 2695
1778.03 -42.7118 2695
1773.22 -42.4424 2678
1776.3 -42.3631 2673
1780.03 -42.2997 2669
1786.41 -42.2997 2669
1781.37 -42.0303 2652
1787.72 -42.0303 2652
1791.35 -41.9669 2648
1797.68 -41.9669 2648
1804.02 -41.9669 2648
1807.61 -41.9035 2644
1813.94 -41.9035 2644
1820.26 -41.9035 2644
1826.58 -41.9035 2644
1830.13 -41.8401 2640
1836.44 -41.8401 2640
1842.76 -41.8401 2640
1849.07 -41.8401 2640
1851.87 -41.7609 2635
1858.17 -41.7609 2635
1868.01 -41.8401 2640
1874.32 -41.8401 2640
1880.63 -41.8401 2640
1886.95 -41.8401 2640
1893.26 -41.8401 2640
1895.98 -41.7609 2635
1902.28 -41.7609 2635
1908.58 -41.7609 2635
1914.88 -41.7609 2635
1921.18 -41.7609 2635
1927.48 -41.7609 2635
1927.91 -41.6341 2627
1934.19 -41.6341 2627
1940.48 -41.6341 2627
1946.76 -41.6341 2627
1953.04 -41.6341 2627
1959.32 -41.6341 2627
1962.61 -41.5707 2623
1962.88 -41.4439 2615
1969.13 -41.4439 2615
1975.38 -41.4439 2615
1978.61 -41.3805 2611
1978.77 -41.2537 2603
1984.99 -41.2537 2603
1988.16 -41.1903 2599
-2071.72 -37.2245 2767
-2065.1 -37.2245 2767
-2058.49 -37.2245 2767
-2051.87 -37.2245 2767
-2045.25 -37.2245 2767
-2031.27 -37.09 2757
-2024.68 -37.09 2757
-2018.08 -37.09 2757
-2011.49 -37.09 2757
-2001.99 -37.0362 2753
-1995.41 -37.0362 2753
-1982.32 -36.9151 2744
-1972.16 -36.8478 2739
-1956.28 -36.6729 2726
-1949.76 -36.6729 2726
-1943.24 -36.6729 2726
-1923.94 -36.4308 2708
-1936.58 -36.794 2735
-1992.14 -37.9779 2823
-1985.39 -37.9779 2823
-2008.78 -38.5564 2866
-2005.41 -38.6236 2871
-1998.55 -38.6236 2871
-1991.68 -38.6236 2871
-2244.57 -43.83 3258
-2236.78 -43.83 3258
-2255.67 -44.3546 3297
-2261.42 -44.6237 3317
-2275.91 -45.0676 3350
-2267.9 -45.0676 3350
-2311.16 -46.0901 3426
-2356.07 -47.1529 3505
-2357.74 -47.3546 3520
-2349.32 -47.3546 3520
-2345.56 -47.4488 3527
-2341.76 -47.543 3534
-2348.5 -47.8524 3557
-2339.99 -47.8524 3557
-2331.48 -47.8524 3557
-2322.98 -47.8524 3557
-2324.23 -48.0542 3572
-2315.69 -48.0542 3572
-2312.32 -48.1618 3580
-2308.9 -48.2695 3588
-2309.94 -48.4712 3603
-2301.32 -48.4712 3603
-2292.71 -48.4712 3603
-2284.09 -48.4712 3603
-2285.58 -48.6865 3619
-2276.93 -48.6865 3619
-2268.27 -48.6865 3619
-2259.62 -48.6865 3619
-2250.97 -48.6865 3619
-2237.35 -48.5789 3611
-2214.52 -48.2695 3588
-2201.03 -48.1618 3580
-2192.46 -48.1618 3580
-2179.02 -48.0542 3572
-2180.2 -48.2695 3588
-2175.86 -48.3636 3595
-2167.26 -48.3636 3595
-2158.67 -48.3636 3595
-2150.07 -48.3636 3595
-2141.47 -48.3636 3595
-2137.62 -48.4712 3603
-2129.01 -48.4712 3603
-2125.1 -48.5789 3611
-2116.46 -48.5789 3611
-2112.5 -48.6865 3619
-2103.85 -48.6865 3619
-2095.19 -48.6865 3619
-2086.54 -48.6865 3619
-2077.88 -48.6865 3619
-2064.65 -48.5789 3611
-2056.02 -48.5789 3611
-2047.38 -48.5789 3611
-2038.75 -48.5789 3611
-2030.11 -48.5789 3611
-2021.48 -48.5789 3611
-2012.84 -48.5789 3611
-2004.21 -48.5789 3611
-1986.73 -48.3636 3595
-1974.28 -48.2695 3588
-1965.7 -48.2695 3588
-1957.12 -48.2695 3588
-1948.54 -48.2695 3588
-1939.96 -48.2695 3588
-1927.08 -48.1618 3580
-1918.52 -48.1618 3580
-1905.69 -48.0542 3572
-1897.15 -48.0542 3572
-1884.9 -47.96 3565
-1876.38 -47.96 3565
-1863.66 -47.8524 3557
-1843.16 -47.543 3534
-1834.71 -47.543 3534
-1830.39 -47.6506 3542
-1821.92 -47.6506 3542
-1813.45 -47.6506 3542
-1804.98 -47.6506 3542
-1796.51 -47.6506 3542
-1788.04 -47.6506 3542
-1775.55 -47.543 3534
-1767.1 -47.543 3534
-1758.65 -47.543 3534
-1750.2 -47.543 3534
-1741.75 -47.543 3534
-1737.22 -47.6506 3542
-1728.75 -47.6506 3542
-1723.68 -47.7448 3549
-1715.2 -47.7448 3549
-1706.71 -47.7448 3549
-1698.22 -47.7448 3549
-1689.74 -47.7448 3549
-1681.25 -47.7448 3549
-1676.53 -47.8524 3557
-1671.78 -47.96 3565
-1666.52 -48.0542 3572
-1657.98 -48.0542 3572
-1649.44 -48.0542 3572
-1637.68 -47.96 3565
-1629.15 -47.96 3565
-1620.63 -47.96 3565
-1618.89 -48.1618 3580
-1613.92 -48.2695 3588
-1605.34 -48.2695 3588
-1596.76 -48.2695 3588
-1588.18 -48.2695 3588
-1569.48 -47.96 3565
-1560.95 -47.96 3565
-1552.43 -47.96 3565
-1540.44 -47.8524 3557
-1528.49 -47.7448 3549
-1520 -47.7448 3549
-1499.16 -47.3546 3520
-1484.39 -47.1529 3505
-1472.64 -47.0452 3497
-1464.28 -47.0452 3497
-1450.09 -46.8569 3483
-1432.65 -46.5609 3461
-1409.97 -46.0901 3426
-1401.78 -46.0901 3426
-1390.74 -45.9959 3419
-1359.92 -45.2425 3363
-1330.57 -44.5295 3310
-1289.49 -43.4129 3227
-1281.77 -43.4129 3227
-1257.08 -42.8344 3184
-1232.98 -42.2694 3142
-1216.11 -41.9465 3118
-1208.65 -41.9465 3118
-1188.1 -41.4891 3084
-1174.22 -41.2604 3067
-1156.23 -40.8837 3039
-1148.96 -40.8837 3039
-1123.29 -40.2245 2990
-1107.92 -39.9286 2968
-1097.12 -39.794 2958
-1093.73 -39.9286 2968
-1086.63 -39.9286 2968
-1079.54 -39.9286 2968
-1072.44 -39.9286 2968
-1063.55 -39.8613 2963
-1056.46 -39.8613 2963
-1049.37 -39.8613 2963
-1042.29 -39.8613 2963
-1031.71 -39.7268 2953
-1024.65 -39.7268 2953
-1015.52 -39.6461 2947
-1006.76 -39.5788 2942
-998.027 -39.5115 2937
-991.004 -39.5115 2937
-983.98 -39.5115 2937
-973.631 -39.377 2927
-966.631 -39.377 2927
-959.632 -39.377 2927
-952.633 -39.377 2927
-945.633 -39.377 2927
-938.634 -39.377 2927
-931.635 -39.377 2927
-924.635 -39.377 2927
-917.636 -39.377 2927
-909.081 -39.3097 2922
-902.094 -39.3097 2922
-893.575 -39.2425 2917
-886.599 -39.2425 2917
-879.624 -39.2425 2917
-872.648 -39.2425 2917
-863.892 -39.1618 2911
-856.931 -39.1618 2911
-849.97 -39.1618 2911
-843.009 -39.1618 2911
-836.048 -39.1618 2911
-829.087 -39.1618 2911
-822.126 -39.1618 2911
-813.765 -39.0945 2906
-806.815 -39.0945 2906
-799.866 -39.0945 2906
-792.917 -39.0945 2906
-785.968 -39.0945 2906
-779.019 -39.0945 2906
-770.741 -39.0272 2901
-763.804 -39.0272 2901
-755.563 -38.96 2896
-748.637 -38.96 2896
-741.712 -38.96 2896
-734.787 -38.96 2896
-726.605 -38.8927 2891
-719.692 -38.8927 2891
-712.779 -38.8927 2891
-704.645 -38.8254 2886
-696.534 -38.7582 2881
-689.645 -38.7582 2881
-681.571 -38.6909 2876
-673.52 -38.6236 2871
-665.494 -38.5564 2866
-658.641 -38.5564 2866
-651.787 -38.5564 2866
-646.059 -38.6236 2871
-639.193 -38.6236 2871
-632.328 -38.6236 2871
-625.462 -38.6236 2871
-620.752 -38.7582 2881
-614.928 -38.8254 2886
-610.133 -38.96 2896
-605.291 -39.0945 2906
-599.371 -39.1618 2911
-601.975 -39.794 2958
-607.773 -40.655 3022
-600.546 -40.655 3022
-602.155 -41.2604 3067
-616.348 -42.7537 3178
-626.563 -44.0048 3271
-618.741 -44.0048 3271
-619.51 -44.6237 3317
-616.372 -44.9735 3343
-609.652 -45.0676 3350
-601.641 -45.0676 3350
-595.934 -45.2425 3363
-589.116 -45.3367 3370
-585.885 -45.7134 3398
-577.759 -45.7134 3398
-570.807 -45.8075 3405
-563.821 -45.9017 3412
-556.802 -45.9959 3419
-548.626 -45.9959 3419
-541.557 -46.0901 3426
-535.544 -46.2784 3440
-529.464 -46.4667 3454
-521.204 -46.4667 3454
-512.945 -46.4667 3454
-506.731 -46.6551 3468
-498.438 -46.6551 3468
-490.145 -46.6551 3468
-481.852 -46.6551 3468
-473.559 -46.6551 3468
-465.266 -46.6551 3468
-456.973 -46.6551 3468
-448.68 -46.6551 3468
-440.387 -46.6551 3468
-432.093 -46.6551 3468
-423.8 -46.6551 3468
-413.83 -46.4667 3454
-405.57 -46.4667 3454
-398.116 -46.5609 3461
-389.84 -46.5609 3461
-381.564 -46.5609 3461
-374.042 -46.6551 3468
-365.749 -46.6551 3468
-357.456 -46.6551 3468
-349.163 -46.6551 3468
-338.806 -46.3726 3447
-329.892 -46.2784 3440
-321.666 -46.2784 3440
-312.802 -46.1842 3433
-303.971 -46.0901 3426
-293.361 -45.7134 3398
-285.236 -45.7134 3398
-275.968 -45.525 3384
-267.876 -45.525 3384
-259.784 -45.525 3384
-251.692 -45.525 3384
-242.592 -45.3367 3370
-234.533 -45.3367 3370
-226.004 -45.2425 3363
-217.962 -45.2425 3363
-209.92 -45.2425 3363
-198.697 -44.5295 3310
-124.556 -29.072 2161
-119.388 -29.072 2161
-114.062 -29.0316 2158
-108.75 -28.9913 2155
-103.212 -28.8836 2147
-98.078 -28.8836 2147
-92.9439 -28.8836 2147
-87.6871 -28.8433 2144
-82.252 -28.7357 2136
-77.1442 -28.7357 2136
-71.9352 -28.6953 2133
-66.4899 -28.5473 2122
-61.2708 -28.4801 2117
-56.2085 -28.4801 2117
-51.0736 -28.4397 2114
-45.9095 -28.3724 2109
-40.5562 -28.1572 2093
-35.2455 -27.915 2075
-30.2835 -27.915 2075
-25.1996 -27.7805 2065
-20.134 -27.6056 2052
-15.0934 -27.3635 2034
-10.2295 -27.3635 2034
-5.34715 -27.2693 2027
-0.500723 -27.3096 2030
4.35791 -27.3365 2032
9.22611 -27.3635 2034
14.09 -27.3635 2034
18.9819 -27.4038 2037
23.9935 -27.5652 2049
28.9779 -27.646 2055
33.892 -27.646 2055
38.9006 -27.7132 2060
43.9756 -27.8074 2067
49.0367 -27.8747 2072
53.9915 -27.8747 2072
59.0316 -27.915 2075
64.1478 -27.9823 2080
69.3875 -28.0899 2088
74.3806 -28.0899 2088
79.3736 -28.0899 2088
84.5687 -28.1572 2093
89.7021 -28.1975 2096
94.7142 -28.1975 2096
99.7264 -28.1975 2096
104.739 -28.1975 2096
109.751 -28.1975 2096
115.037 -28.2648 2101
120.061 -28.2648 2101
125.264 -28.3052 2104
130.295 -28.3052 2104
135.326 -28.3052 2104
140.357 -28.3052 2104
145.734 -28.3724 2109
150.992 -28.4128 2112
156.042 -28.4128 2112
161.093 -28.4128 2112
166.301 -28.4397 2114
171.599 -28.4801 2117
176.912 -28.5204 2120
181.981 -28.5204 2120
187.227 -28.5473 2122
192.574 -28.5877 2125
197.655 -28.5877 2125
202.737 -28.5877 2125
207.818 -28.5877 2125
213.2 -28.628 2128
218.597 -28.6684 2131
223.693 -28.6684 2131
228.788 -28.6684 2131
237.506 -29.1123 2164
242.681 -29.1123 2164
247.856 -29.1123 2164
253.03 -29.1123 2164
397.372 -43.0766 3202
405.029 -43.0766 3202
412.686 -43.0766 3202
419.555 -42.9959 3196
427.198 -42.9959 3196
432.391 -42.7537 3178
436.668 -42.4308 3154
439.14 -41.9465 3118
440.007 -41.3277 3072
447.353 -41.3277 3072
448.187 -40.7358 3028
452.119 -40.4398 3006
455.945 -40.1438 2984
463.081 -40.1438 2984
468.641 -40.0093 2974
474.793 -39.9286 2968
478.481 -39.6461 2947
483.88 -39.5115 2937
490.904 -39.5115 2937
495.384 -39.3097 2922
501.512 -39.2425 2917
506.569 -39.0945 2906
513.519 -39.0945 2906
519.572 -39.0272 2901
526.509 -39.0272 2901
532.527 -38.96 2896
539.452 -38.96 2896
546.378 -38.96 2896
553.303 -38.96 2896
560.228 -38.96 2896
567.153 -38.96 2896
574.078 -38.96 2896
581.004 -38.96 2896
587.929 -38.96 2896
594.854 -38.96 2896
600.74 -38.8927 2891
607.654 -38.8927 2891
614.567 -38.8927 2891
621.48 -38.8927 2891
627.307 -38.8254 2886
634.208 -38.8254 2886
641.109 -38.8254 2886
648.01 -38.8254 2886
654.912 -38.8254 2886
661.813 -38.8254 2886
668.714 -38.8254 2886
675.616 -38.8254 2886
682.517 -38.8254 2886
689.418 -38.8254 2886
696.32 -38.8254 2886
702.003 -38.7582 2881
708.892 -38.7582 2881
715.781 -38.7582 2881
722.671 -38.7582 2881
729.56 -38.7582 2881
736.449 -38.7582 2881
743.339 -38.7582 2881
750.228 -38.7582 2881
755.803 -38.6909 2876
762.681 -38.6909 2876
769.558 -38.6909 2876
776.435 -38.6909 2876
783.313 -38.6909 2876
790.19 -38.6909 2876
797.068 -38.6909 2876
803.945 -38.6909 2876
810.822 -38.6909 2876
817.7 -38.6909 2876
824.577 -38.6909 2876
831.455 -38.6909 2876
838.332 -38.6909 2876
845.209 -38.6909 2876
853.568 -38.7582 2881
860.457 -38.7582 2881
867.347 -38.7582 2881
874.236 -38.7582 2881
881.125 -38.7582 2881
888.015 -38.7582 2881
898.01 -38.8927 2891
913.062 -39.2425 2917
926.346 -39.5115 2937
933.369 -39.5115 2937
943.594 -39.6461 2947
960.964 -40.0766 2979
978.486 -40.5071 3011
985.687 -40.5071 3011
998.493 -40.7358 3028
1007.39 -40.803 3033
1029.7 -41.4084 3078
1037.06 -41.4084 3078
1064.1 -42.1887 3136
1096.2 -43.1573 3208
1121.08 -43.83 3258
1128.87 -43.83 3258
1150.27 -44.3546 3297
1179.23 -45.1618 3357
1199.28 -45.6192 3391
1207.39 -45.6192 3391
1223.03 -45.9017 3412
1231.19 -45.9017 3412
1239.35 -45.9017 3412
1247.5 -45.9017 3412
1253.09 -45.8075 3405
1253.45 -45.525 3384
1279.81 -46.1842 3433
1288.02 -46.1842 3433
1301.52 -46.3726 3447
1309.76 -46.3726 3447
1318 -46.3726 3447
1326.24 -46.3726 3447
1331.78 -46.2784 3440
1337.28 -46.1842 3433
1337.26 -45.9017 3412
1345.41 -45.9017 3412
1345.24 -45.6192 3391
1336.99 -45.0676 3350
1336.97 -44.7986 3330
1344.93 -44.7986 3330
1350.05 -44.7044 3323
1363.72 -44.8927 3337
1371.7 -44.8927 3337
1379.68 -44.8927 3337
1387.66 -44.8927 3337
1398.15 -44.9735 3343
1406.14 -44.9735 3343
1414.14 -44.9735 3343
1422.13 -44.9735 3343
1421.57 -44.7044 3323
1426.93 -44.6237 3317
1434.87 -44.6237 3317
1442.8 -44.6237 3317
1441.98 -44.3546 3297
1446.79 -44.2605 3290
1454.66 -44.2605 3290
1465.63 -44.3546 3297
1473.52 -44.3546 3297
1484.1 -44.4353 3303
1495.16 -44.5295 3310
1503.07 -44.5295 3310
1510.99 -44.5295 3310
1518.9 -44.5295 3310
1526.82 -44.5295 3310
1547.25 -44.8927 3337
1555.23 -44.8927 3337
1563.21 -44.8927 3337
1571.19 -44.8927 3337
1579.17 -44.8927 3337
1593.34 -45.0676 3350
1601.35 -45.0676 3350
1612.72 -45.1618 3357
1620.75 -45.1618 3357
1628.78 -45.1618 3357
1636.8 -45.1618 3357
1658.06 -45.525 3384
1666.15 -45.525 3384
1674.24 -45.525 3384
1682.34 -45.525 3384
1676.94 -45.1618 3357
1671.42 -44.7986 3330
1679.38 -44.7986 3330
1683.8 -44.7044 3323
1698.87 -44.8927 3337
1706.85 -44.8927 3337
1714.83 -44.8927 3337
1722.81 -44.8927 3337
1723.53 -44.7044 3323
1717.93 -44.3546 3297
1722.15 -44.2605 3290
1730.01 -44.2605 3290
1737.88 -44.2605 3290
1749.46 -44.3546 3297
1757.35 -44.3546 3297
1765.23 -44.3546 3297
1769.35 -44.2605 3290
1766.95 -44.0048 3271
1764.47 -43.7492 3252
1772.24 -43.7492 3252
1752.65 -43.0766 3202
1743.82 -42.673 3172
1741.46 -42.4308 3154
1732.37 -42.0272 3124
1739.84 -42.0272 3124
1731.09 -41.6371 3095
1719.39 -41.1797 3061
1701.89 -40.5878 3017
1709.11 -40.5878 3017
1667.97 -39.4443 2932
1640.13 -38.6236 2871
1641.83 -38.5026 2862
1640.04 -38.3008 2847
1646.84 -38.3008 2847
1642.62 -38.0452 2828
1640.63 -37.8434 2813
1639.16 -37.655 2799
1645.85 -37.655 2799
1647.23 -37.5339 2790
1650.94 -37.4667 2785
1649.27 -37.2783 2771
1655.89 -37.2783 2771
1660.12 -37.2245 2767
1666.73 -37.2245 2767
1670.33 -37.1573 2762
1676.93 -37.1573 2762
1683.54 -37.1573 2762
1687.08 -37.09 2757
1693.68 -37.09 2757
1697.8 -37.0362 2753
1704.38 -37.0362 2753
1707.86 -36.9689 2748
1711.94 -36.9151 2744
1718.5 -36.9151 2744
1725.06 -36.9151 2744
1728.47 -36.8478 2739
1735.02 -36.8478 2739
1741.57 -36.8478 2739
1748.12 -36.8478 2739
1754.67 -36.8478 2739
1758.64 -36.794 2735
1759.37 -36.6729 2726
1765.89 -36.6729 2726
1772.41 -36.6729 2726
1773.06 -36.5519 2717
1771.04 -36.377 2704
1771.59 -36.2559 2695
1778.03 -36.2559 2695
1773.22 -36.0272 2678
1776.3 -35.9599 2673
1782.7 -35.9599 2673
1789.09 -35.9599 2673
1784.06 -35.7312 2656
1787.72 -35.6774 2652
1794.06 -35.6774 2652
1800.4 -35.6774 2652
1806.74 -35.6774 2652
1810.35 -35.6236 2648
1816.68 -35.6236 2648
1820.26 -35.5698 2644
1826.58 -35.5698 2644
1832.9 -35.5698 2644
1839.23 -35.5698 2644
1842.76 -35.516 2640
1849.07 -35.516 2640
1855.38 -35.516 2640
1861.7 -35.516 2640
1870.84 -35.5698 2644
1877.16 -35.5698 2644
1883.48 -35.5698 2644
1889.81 -35.5698 2644
1896.13 -35.5698 2644
1902.45 -35.5698 2644
1908.77 -35.5698 2644
1912.2 -35.516 2640
1918.51 -35.516 2640
1921.18 -35.4487 2635
1927.48 -35.4487 2635
1933.78 -35.4487 2635
1937.14 -35.3949 2631
1943.43 -35.3949 2631
1949.72 -35.3949 2631
1956.01 -35.3949 2631
1962.3 -35.3949 2631
1965.6 -35.3411 2627
1968.88 -35.2873 2623
1975.16 -35.2873 2623
1981.43 -35.2873 2623
1981.64 -35.1797 2615
1984.85 -35.1258 2611
1991.09 -35.1258 2611
1991.22 -35.0182 2603
-2074.72 -30.6404 2771
-2068.09 -30.6404 2771
-2061.46 -30.6404 2771
-2054.84 -30.6404 2771
-2048.21 -30.6404 2771
-2041.58 -30.6404 2771
-2034.96 -30.6404 2771
-2018.08 -30.4856 2757
-2011.49 -30.4856 2757
-2004.9 -30.4856 2757
-1998.31 -30.4856 2757
-1985.21 -30.3861 2748
-1975.76 -30.3418 2744
-1965.61 -30.2865 2739
-1959.06 -30.2865 2739
-1946.09 -30.187 2730
-1923.94 -29.9438 2708
-1936.58 -30.2423 2735
-2022.48 -31.6908 2866
-2015.63 -31.6908 2866
-2008.78 -31.6908 2866
-2005.41 -31.7461 2871
-1998.55 -31.7461 2871
-1991.68 -31.7461 2871
-2244.57 -36.0254 3258
-2236.78 -36.0254 3258
-2255.67 -36.4566 3297
-2279.15 -36.9653 3343
-2294.26 -37.3412 3377
-2286.18 -37.3412 3377
-2315.88 -37.9605 3433
-2366.15 -38.9225 3520
-2362.43 -38.9999 3527
-2353.99 -38.9999 3527
-2350.21 -39.0773 3534
-2366.94 -39.4974 3572
-2358.4 -39.4974 3572
-2349.86 -39.4974 3572
-2346.56 -39.5859 3580
-2338 -39.5859 3580
-2329.44 -39.5859 3580
-2320.88 -39.5859 3580
-2322.01 -39.7518 3595
-2318.56 -39.8402 3603
-2325.33 -40.1056 3627
-2316.65 -40.1056 3627
-2307.98 -40.1056 3627
-2299.31 -40.1056 3627
-2300.11 -40.2715 3642
-2291.4 -40.2715 3642
-2282.69 -40.2715 3642
-2273.98 -40.2715 3642
-2265.27 -40.2715 3642
-2247.27 -40.1056 3627
-2228.72 -39.9287 3611
-2210.25 -39.7518 3595
-2201.65 -39.7518 3595
-2183.9 -39.5859 3580
-2184.46 -39.7518 3595
-2175.86 -39.7518 3595
-2167.26 -39.7518 3595
-2158.67 -39.7518 3595
-2150.07 -39.7518 3595
-2146.24 -39.8402 3603
-2137.62 -39.8402 3603
-2129.01 -39.8402 3603
-2125.1 -39.9287 3611
-2116.46 -39.9287 3611
-2112.5 -40.0172 3619
-2103.85 -40.0172 3619
-2095.19 -40.0172 3619
-2086.54 -40.0172 3619
-2077.88 -40.0172 3619
-2064.65 -39.9287 3611
-2056.02 -39.9287 3611
-2047.38 -39.9287 3611
-2038.75 -39.9287 3611
-2030.11 -39.9287 3611
-2021.48 -39.9287 3611
-2012.84 -39.9287 3611
-2004.21 -39.9287 3611
-1986.73 -39.7518 3595
-1974.28 -39.6744 3588
-1965.7 -39.6744 3588
-1957.12 -39.6744 3588
-1948.54 -39.6744 3588
-1939.96 -39.6744 3588
-1927.08 -39.5859 3580
-1918.52 -39.5859 3580
-1905.69 -39.4974 3572
-1897.15 -39.4974 3572
-1884.9 -39.42 3565
-1876.38 -39.42 3565
-1863.66 -39.3316 3557
-1843.16 -39.0773 3534
-1834.71 -39.0773 3534
-1834.01 -39.2431 3549
-1825.52 -39.2431 3549
-1817.04 -39.2431 3549
-1808.55 -39.2431 3549
-1800.06 -39.2431 3549
-1788.04 -39.1657 3542
-1775.55 -39.0773 3534
-1767.1 -39.0773 3534
-1758.65 -39.0773 3534
-1754.16 -39.1657 3542
-1745.69 -39.1657 3542
-1737.22 -39.1657 3542
-1728.75 -39.1657 3542
-1723.68 -39.2431 3549
-1715.2 -39.2431 3549
-1706.71 -39.2431 3549
-1698.22 -39.2431 3549
-1689.74 -39.2431 3549
-1681.25 -39.2431 3549
-1680.3 -39.42 3565
-1675.06 -39.4974 3572
-1666.52 -39.4974 3572
-1657.98 -39.4974 3572
-1649.44 -39.4974 3572
-1640.89 -39.4974 3572
-1632.35 -39.4974 3572
-1623.81 -39.4974 3572
-1622.5 -39.6744 3588
-1613.92 -39.6744 3588
-1605.34 -39.6744 3588
-1596.76 -39.6744 3588
-1588.18 -39.6744 3588
-1579.6 -39.6744 3588
-1571.02 -39.6744 3588
-1552.43 -39.42 3565
-1540.44 -39.3316 3557
-1528.49 -39.2431 3549
-1520 -39.2431 3549
-1499.16 -38.9225 3520
-1484.39 -38.7566 3505
-1472.64 -38.6681 3497
-1464.28 -38.6681 3497
-1450.09 -38.5133 3483
-1432.65 -38.2701 3461
-1409.97 -37.883 3426
-1401.78 -37.883 3426
-1390.74 -37.8056 3419
-1359.92 -37.1864 3363
-1330.57 -36.6004 3310
-1289.49 -35.6826 3227
-1281.77 -35.6826 3227
-1257.08 -35.2071 3184
-1235.34 -34.8091 3148
-1218.45 -34.5437 3124
-1210.98 -34.5437 3124
-1188.1 -34.1014 3084
-1176.13 -33.9687 3072
-1156.23 -33.6038 3039
-1148.96 -33.6038 3039
-1125.17 -33.1173 2995
-1112.03 -32.9403 2979
-1100.83 -32.8187 2968
-1095.94 -32.8851 2974
-1090.66 -32.9403 2979
-1083.54 -32.9403 2979
-1076.41 -32.9403 2979
-1067.49 -32.8851 2974
-1060.38 -32.8851 2974
-1051.15 -32.8187 2968
-1042.29 -32.7634 2963
-1035.2 -32.7634 2963
-1028.12 -32.7634 2963
-1019.31 -32.7081 2958
-1008.47 -32.5865 2947
-1001.43 -32.5865 2947
-994.378 -32.5865 2947
-985.656 -32.5312 2942
-976.957 -32.4759 2937
-969.934 -32.4759 2937
-962.911 -32.4759 2937
-954.26 -32.4206 2932
-947.249 -32.4206 2932
-940.237 -32.4206 2932
-933.226 -32.4206 2932
-926.215 -32.4206 2932
-919.204 -32.4206 2932
-910.637 -32.3653 2927
-903.637 -32.3653 2927
-895.106 -32.3101 2922
-888.119 -32.3101 2922
-879.624 -32.2548 2917
-874.144 -32.3101 2922
-867.157 -32.3101 2922
-860.169 -32.3101 2922
-851.722 -32.2548 2917
-844.747 -32.2548 2917
-837.771 -32.2548 2917
-829.087 -32.1884 2911
-822.126 -32.1884 2911
-815.165 -32.1884 2911
-808.204 -32.1884 2911
-801.243 -32.1884 2911
-794.282 -32.1884 2911
-785.968 -32.1331 2906
-779.019 -32.1331 2906
-772.07 -32.1331 2906
-763.804 -32.0779 2901
-756.867 -32.0779 2901
-749.93 -32.0779 2901
-742.993 -32.0779 2901
-734.787 -32.0226 2896
-727.862 -32.0226 2896
-720.937 -32.0226 2896
-712.779 -31.9673 2891
-705.865 -31.9673 2891
-697.743 -31.912 2886
-690.842 -31.912 2886
-681.571 -31.8014 2876
-673.52 -31.7461 2871
-666.655 -31.7461 2871
-659.79 -31.7461 2871
-652.924 -31.7461 2871
-647.184 -31.8014 2876
-640.306 -31.8014 2876
-634.53 -31.8567 2881
-627.641 -31.8567 2881
-621.829 -31.912 2886
-617.058 -32.0226 2896
-613.293 -32.1884 2911
-606.332 -32.1884 2911
-603.695 -32.4206 2932
-608.487 -33.062 2990
-612.197 -33.6591 3044
-604.918 -33.6591 3044
-610.008 -34.3557 3107
-619.839 -35.3398 3196
-632.693 -36.523 3303
-624.794 -36.523 3303
-624.366 -36.9653 3343
-621.35 -37.2638 3370
-618.387 -37.5734 3398
-610.262 -37.5734 3398
-604.617 -37.7282 3412
-597.682 -37.8056 3419
-590.713 -37.883 3426
-582.52 -37.883 3426
-576.674 -38.0379 3440
-569.605 -38.1153 3447
-561.362 -38.1153 3447
-553.119 -38.1153 3447
-545.983 -38.1927 3454
-537.723 -38.1927 3454
-531.61 -38.3475 3468
-523.317 -38.3475 3468
-515.024 -38.3475 3468
-508.923 -38.5133 3483
-502.606 -38.6681 3497
-494.243 -38.6681 3497
-485.881 -38.6681 3497
-476.563 -38.5907 3490
-468.217 -38.5907 3490
-459.871 -38.5907 3490
-451.526 -38.5907 3490
-443.18 -38.5907 3490
-434.835 -38.5907 3490
-425.633 -38.5133 3483
-416.466 -38.4359 3476
-408.154 -38.4359 3476
-399.842 -38.4359 3476
-390.628 -38.3475 3468
-382.335 -38.3475 3468
-374.905 -38.4359 3476
-367.331 -38.5133 3483
-359.002 -38.5133 3483
-350.673 -38.5133 3483
-341.656 -38.4359 3476
-332.577 -38.3475 3468
-324.284 -38.3475 3468
-314.715 -38.1927 3454
-305.214 -38.0379 3440
-295.779 -37.883 3426
-287.586 -37.883 3426
-278.823 -37.8056 3419
-270.647 -37.8056 3419
-261.934 -37.7282 3412
-253.775 -37.7282 3412
-245.111 -37.6508 3405
-236.969 -37.6508 3405
-228.827 -37.6508 3405
-220.684 -37.6508 3405
-210.357 -37.2638 3370
-198.697 -36.6004 3310
-125.535 -24.0833 2178
-120.327 -24.0833 2178
-114.22 -23.8953 2161
-109.053 -23.8953 2161
-103.597 -23.8289 2155
-98.4435 -23.8289 2155
-93.2036 -23.8068 2153
-87.6871 -23.7073 2144
-82.3676 -23.652 2139
-77.2526 -23.652 2139
-71.9352 -23.5857 2133
-66.4899 -23.464 2122
-61.2708 -23.4088 2117
-56.2085 -23.4088 2117
-51.0736 -23.3756 2114
-45.9095 -23.3203 2109
-40.5562 -23.1434 2093
-35.2455 -22.9443 2075
-30.2835 -22.9443 2075
-25.1996 -22.8338 2065
-20.134 -22.69 2052
-15.0934 -22.491 2034
-10.2295 -22.491 2034
-5.34715 -22.4136 2027
-0.500723 -22.4468 2030
4.35791 -22.4689 2032
9.22611 -22.491 2034
14.09 -22.491 2034
18.9819 -22.5242 2037
23.9935 -22.6569 2049
28.9779 -22.7232 2055
33.892 -22.7232 2055
38.9006 -22.7785 2060
43.9756 -22.8559 2067
49.0367 -22.9112 2072
53.9915 -22.9112 2072
59.0316 -22.9443 2075
64.1478 -22.9996 2080
69.3875 -23.0881 2088
74.3806 -23.0881 2088
79.3736 -23.0881 2088
84.5687 -23.1434 2093
89.7021 -23.1766 2096
94.7142 -23.1766 2096
99.7264 -23.1766 2096
104.739 -23.1766 2096
109.751 -23.1766 2096
115.037 -23.2318 2101
120.061 -23.2318 2101
125.264 -23.265 2104
130.295 -23.265 2104
135.326 -23.265 2104
140.357 -23.265 2104
145.734 -23.3203 2109
150.992 -23.3535 2112
156.042 -23.3535 2112
161.093 -23.3535 2112
166.301 -23.3756 2114
171.842 -23.4419 2120
176.912 -23.4419 2120
181.981 -23.4419 2120
187.227 -23.464 2122
192.574 -23.4972 2125
197.655 -23.4972 2125
202.737 -23.4972 2125
207.818 -23.4972 2125
213.2 -23.5304 2128
218.597 -23.5636 2131
223.693 -23.5636 2131
228.788 -23.5636 2131
237.506 -23.9285 2164
242.681 -23.9285 2164
378.312 -36.523 3303
386.211 -36.523 3303
394.109 -36.523 3303
402.007 -36.523 3303
409.906 -36.523 3303
407.432 -35.6163 3221
413.459 -35.4725 3208
420.343 -35.4062 3202
428 -35.4062 3202
434.024 -35.2735 3190
437.499 -34.9417 3160
441.675 -34.6764 3136
441.726 -34.1014 3084
449.101 -34.1014 3084
450.555 -33.6591 3044
453.773 -33.3605 3017
456.862 -33.062 2990
464.012 -33.062 2990
468.641 -32.8851 2974
474.793 -32.8187 2968
479.455 -32.6528 2953
486.516 -32.6528 2953
490.904 -32.4759 2937
496.231 -32.3653 2927
502.371 -32.3101 2922
506.569 -32.1331 2906
513.519 -32.1331 2906
519.572 -32.0779 2901
526.509 -32.0779 2901
533.447 -32.0779 2901
540.384 -32.0779 2901
547.321 -32.0779 2901
554.258 -32.0779 2901
561.195 -32.0779 2901
568.132 -32.0779 2901
575.07 -32.0779 2901
582.007 -32.0779 2901
587.929 -32.0226 2896
594.854 -32.0226 2896
601.779 -32.0226 2896
607.654 -31.9673 2891
614.567 -31.9673 2891
621.48 -31.9673 2891
628.393 -31.9673 2891
635.307 -31.9673 2891
642.22 -31.9673 2891
648.01 -31.912 2886
654.912 -31.912 2886
661.813 -31.912 2886
668.714 -31.912 2886
675.616 -31.912 2886
682.517 -31.912 2886
689.418 -31.912 2886
696.32 -31.912 2886
702.003 -31.8567 2881
708.892 -31.8567 2881
715.781 -31.8567 2881
722.671 -31.8567 2881
729.56 -31.8567 2881
736.449 -31.8567 2881
743.339 -31.8567 2881
750.228 -31.8567 2881
757.117 -31.8567 2881
764.007 -31.8567 2881
770.896 -31.8567 2881
776.435 -31.8014 2876
783.313 -31.8014 2876
790.19 -31.8014 2876
797.068 -31.8014 2876
803.945 -31.8014 2876
810.822 -31.8014 2876
817.7 -31.8014 2876
824.577 -31.8014 2876
831.455 -31.8014 2876
839.789 -31.8567 2881
846.679 -31.8567 2881
855.049 -31.912 2886
861.951 -31.912 2886
868.852 -31.912 2886
875.753 -31.912 2886
882.655 -31.912 2886
889.556 -31.912 2886
899.563 -32.0226 2896
913.062 -32.2548 2917
927.923 -32.5312 2942
934.958 -32.5312 2942
943.594 -32.5865 2947
962.576 -32.9956 2984
982.061 -33.4158 3022
989.288 -33.4158 3022
998.493 -33.4822 3028
1009.39 -33.6038 3039
1029.7 -34.035 3078
1037.06 -34.035 3078
1066.14 -34.7427 3142
1096.2 -35.4725 3208
1121.08 -36.0254 3258
1128.87 -36.0254 3258
1150.27 -36.4566 3297
1179.23 -37.1201 3357
1199.28 -37.496 3391
1207.39 -37.496 3391
1223.03 -37.7282 3412
1231.19 -37.7282 3412
1239.35 -37.7282 3412
1247.5 -37.7282 3412
1253.09 -37.6508 3405
1253.45 -37.4186 3384
1279.81 -37.9605 3433
1288.02 -37.9605 3433
1301.52 -38.1153 3447
1309.76 -38.1153 3447
1318 -38.1153 3447
1326.24 -38.1153 3447
1331.78 -38.0379 3440
1337.28 -37.9605 3433
1337.26 -37.7282 3412
1345.41 -37.7282 3412
1345.24 -37.496 3391
1336.99 -37.0427 3350
1342.19 -36.9653 3343
1350.18 -36.9653 3343
1355.74 -36.8989 3337
1363.72 -36.8989 3337
1374.17 -36.9653 3343
1382.16 -36.9653 3343
1390.15 -36.9653 3343
1401.08 -37.0427 3350
1409.09 -37.0427 3350
1417.1 -37.0427 3350
1425.11 -37.0427 3350
1427.56 -36.8989 3337
1426.93 -36.6778 3317
1434.87 -36.6778 3317
1442.8 -36.6778 3317
1441.98 -36.4566 3297
1446.79 -36.3792 3290
1454.66 -36.3792 3290
1468.3 -36.523 3303
1476.2 -36.523 3303
1493.08 -36.7441 3323
1507.35 -36.8989 3337
1515.33 -36.8989 3337
1523.31 -36.8989 3337
1531.29 -36.8989 3337
1539.27 -36.8989 3337
1556.53 -37.1201 3357
1564.55 -37.1201 3357
1572.58 -37.1201 3357
1580.61 -37.1201 3357
1588.64 -37.1201 3357
1602.85 -37.2638 3370
1610.91 -37.2638 3370
1618.97 -37.2638 3370
1627.02 -37.2638 3370
1645.27 -37.496 3391
1653.38 -37.496 3391
1664.92 -37.5734 3398
1673.05 -37.5734 3398
1681.17 -37.5734 3398
1689.3 -37.5734 3398
1679.94 -37.1864 3363
1674.93 -36.8989 3337
1682.91 -36.8989 3337
1683.8 -36.7441 3323
1701.92 -36.9653 3343
1713.5 -37.0427 3350
1721.51 -37.0427 3350
1729.52 -37.0427 3350
1727.16 -36.8215 3330
1724.7 -36.6004 3310
1725.81 -36.4566 3297
1744.21 -36.6778 3317
1752.14 -36.6778 3317
1760.08 -36.6778 3317
1768.01 -36.6778 3317
1775.94 -36.6778 3317
1780.11 -36.6004 3310
1777.22 -36.3792 3290
1774.78 -36.1691 3271
1782.6 -36.1691 3271
1763.05 -35.6163 3221
1753.71 -35.2735 3190
1751.4 -35.0744 3172
1752.33 -34.9417 3160
1759.89 -34.9417 3160
1747.31 -34.5437 3124
1735.12 -34.1567 3089
1723.33 -33.7807 3055
1730.63 -33.7807 3055
1685.6 -32.7634 2963
1654.41 -32.0226 2896
1647 -31.7461 2871
1645.8 -31.5913 2857
1652.63 -31.5913 2857
1647.84 -31.3702 2837
1646.46 -31.2154 2823
1645.01 -31.0606 2809
1651.73 -31.0606 2809
1652.54 -30.95 2799
1653.9 -30.8505 2790
1652.24 -30.6957 2776
1658.88 -30.6957 2776
1662.52 -30.6404 2771
1666.73 -30.5961 2767
1673.35 -30.5961 2767
1679.97 -30.5961 2767
1686.59 -30.5961 2767
1690.14 -30.5409 2762
1693.68 -30.4856 2757
1700.27 -30.4856 2757
1706.86 -30.4856 2757
1707.86 -30.3861 2748
1714.43 -30.3861 2748
1718.5 -30.3418 2744
1725.06 -30.3418 2744
1731.62 -30.3418 2744
1738.18 -30.3418 2744
1741.57 -30.2865 2739
1748.12 -30.2865 2739
1754.67 -30.2865 2739
1761.21 -30.2865 2739
1761.96 -30.187 2730
1765.89 -30.1428 2726
1772.41 -30.1428 2726
1773.06 -30.0433 2717
1771.04 -29.8995 2704
1774.22 -29.8442 2699
1780.67 -29.8442 2699
1773.22 -29.612 2678
1776.3 -29.5567 2673
1782.7 -29.5567 2673
1789.09 -29.5567 2673
1787.42 -29.4241 2661
1787.72 -29.3245 2652
1794.06 -29.3245 2652
1800.4 -29.3245 2652
1806.74 -29.3245 2652
1813.08 -29.3245 2652
1819.42 -29.3245 2652
1820.26 -29.2361 2644
1826.58 -29.2361 2644
1832.9 -29.2361 2644
1839.23 -29.2361 2644
1845.55 -29.2361 2644
1851.87 -29.2361 2644
1858.19 -29.2361 2644
1864.52 -29.2361 2644
1870.84 -29.2361 2644
1880 -29.2803 2648
1886.33 -29.2803 2648
1892.67 -29.2803 2648
1899 -29.2803 2648
1902.45 -29.2361 2644
1908.77 -29.2361 2644
1915.1 -29.2361 2644
1921.42 -29.2361 2644
1924.83 -29.1918 2640
1931.14 -29.1918 2640
1937.45 -29.1918 2640
1940.08 -29.1366 2635
1946.38 -29.1366 2635
1952.69 -29.1366 2635
1958.99 -29.1366 2635
1965.29 -29.1366 2635
1968.6 -29.0923 2631
1971.89 -29.0481 2627
1978.17 -29.0481 2627
1984.45 -29.0481 2627
1987.7 -29.0039 2623
1990.93 -28.9596 2619
1997.19 -28.9596 2619
1997.34 -28.8712 2611
-2074.72 -24.0024 2771
-2068.09 -24.0024 2771
-2061.46 -24.0024 2771
-2054.84 -24.0024 2771
-2048.21 -24.0024 2771
-2041.58 -24.0024 2771
-2034.96 -24.0024 2771
-2018.08 -23.8812 2757
-2011.49 -23.8812 2757
-2004.9 -23.8812 2757
-1998.31 -23.8812 2757
-1985.21 -23.8032 2748
-1975.76 -23.7685 2744
-1965.61 -23.7252 2739
-1959.06 -23.7252 2739
-1946.09 -23.6473 2730
-1923.94 -23.4567 2708
-1936.58 -23.6906 2735
-2022.48 -24.8253 2866
-2015.63 -24.8253 2866
-2008.78 -24.8253 2866
-2001.92 -24.8253 2866
-1995.07 -24.8253 2866
-2255.67 -28.5586 3297
-2279.15 -28.9571 3343
-2294.26 -29.2516 3377
-2286.18 -29.2516 3377
-2315.88 -29.7367 3433
-2366.15 -30.4903 3520
-2362.43 -30.5509 3527
-2353.99 -30.5509 3527
-2350.21 -30.6115 3534
-2366.94 -30.9407 3572
-2358.4 -30.9407 3572
-2349.86 -30.9407 3572
-2346.56 -31.01 3580
-2338 -31.01 3580
-2329.44 -31.01 3580
-2320.88 -31.01 3580
-2322.01 -31.1399 3595
-2318.56 -31.2092 3603
-2325.33 -31.4171 3627
-2316.65 -31.4171 3627
-2307.98 -31.4171 3627
-2299.31 -31.4171 3627
-2300.11 -31.547 3642
-2291.4 -31.547 3642
-2282.69 -31.547 3642
-2273.98 -31.547 3642
-2265.27 -31.547 3642
-2247.27 -31.4171 3627
-2228.72 -31.2785 3611
-2210.25 -31.1399 3595
-2201.65 -31.1399 3595
-2183.9 -31.01 3580
-2184.46 -31.1399 3595
-2175.86 -31.1399 3595
-2167.26 -31.1399 3595
-2158.67 -31.1399 3595
-2150.07 -31.1399 3595
-2146.24 -31.2092 3603
-2137.62 -31.2092 3603
-2129.01 -31.2092 3603
-2125.1 -31.2785 3611
-2116.46 -31.2785 3611
-2107.83 -31.2785 3611
-2099.19 -31.2785 3611
-2090.56 -31.2785 3611
-2081.92 -31.2785 3611
-2073.29 -31.2785 3611
-2064.65 -31.2785 3611
-2056.02 -31.2785 3611
-2042.85 -31.2092 3603
-2038.75 -31.2785 3611
-2030.11 -31.2785 3611
-2021.48 -31.2785 3611
-2012.84 -31.2785 3611
-2004.21 -31.2785 3611
-1986.73 -31.1399 3595
-1974.28 -31.0793 3588
-1965.7 -31.0793 3588
-1957.12 -31.0793 3588
-1948.54 -31.0793 3588
-1939.96 -31.0793 3588
-1927.08 -31.01 3580
-1918.52 -31.01 3580
-1905.69 -30.9407 3572
-1897.15 -30.9407 3572
-1884.9 -30.8801 3565
-1876.38 -30.8801 3565
-1863.66 -30.8108 3557
-1843.16 -30.6115 3534
-1834.71 -30.6115 3534
-1834.01 -30.7415 3549
-1825.52 -30.7415 3549
-1817.04 -30.7415 3549
-1808.55 -30.7415 3549
-1800.06 -30.7415 3549
-1788.04 -30.6808 3542
-1775.55 -30.6115 3534
-1767.1 -30.6115 3534
-1758.65 -30.6115 3534
-1754.16 -30.6808 3542
-1745.69 -30.6808 3542
-1737.22 -30.6808 3542
-1728.75 -30.6808 3542
-1723.68 -30.7415 3549
-1715.2 -30.7415 3549
-1706.71 -30.7415 3549
-1698.22 -30.7415 3549
-1689.74 -30.7415 3549
-1681.25 -30.7415 3549
-1680.3 -30.8801 3565
-1675.06 -30.9407 3572
-1666.52 -30.9407 3572
-1657.98 -30.9407 3572
-1649.44 -30.9407 3572
-1640.89 -30.9407 3572
-1632.35 -30.9407 3572
-1623.81 -30.9407 3572
-1622.5 -31.0793 3588
-1613.92 -31.0793 3588
-1605.34 -31.0793 3588
-1596.76 -31.0793 3588
-1588.18 -31.0793 3588
-1579.6 -31.0793 3588
-1571.02 -31.0793 3588
-1552.43 -30.8801 3565
-1540.44 -30.8108 3557
-1528.49 -30.7415 3549
-1520 -30.7415 3549
-1499.16 -30.4903 3520
-1484.39 -30.3603 3505
-1472.64 -30.291 3497
-1464.28 -30.291 3497
-1450.09 -30.1698 3483
-1432.65 -29.9792 3461
-1409.97 -29.676 3426
-1401.78 -29.676 3426
-1390.74 -29.6154 3419
-1359.92 -29.1303 3363
-1330.57 -28.6712 3310
-1289.49 -27.9523 3227
-1281.77 -27.9523 3227
-1257.08 -27.5798 3184
-1235.34 -27.268 3148
-1218.45 -27.0601 3124
-1210.98 -27.0601 3124
-1188.1 -26.7136 3084
-1176.13 -26.6097 3072
-1156.23 -26.3238 3039
-1148.96 -26.3238 3039
-1125.17 -25.9427 2995
-1112.03 -25.8041 2979
-1100.83 -25.7088 2968
-1095.94 -25.7608 2974
-1090.66 -25.8041 2979
-1083.54 -25.8041 2979
-1076.41 -25.8041 2979
-1067.49 -25.7608 2974
-1060.38 -25.7608 2974
-1051.15 -25.7088 2968
-1042.29 -25.6655 2963
-1035.2 -25.6655 2963
-1028.12 -25.6655 2963
-1019.31 -25.6222 2958
-1008.47 -25.5269 2947
-1001.43 -25.5269 2947
-994.378 -25.5269 2947
-985.656 -25.4836 2942
-976.957 -25.4403 2937
-969.934 -25.4403 2937
-962.911 -25.4403 2937
-954.26 -25.397 2932
-947.249 -25.397 2932
-940.237 -25.397 2932
-933.226 -25.397 2932
-926.215 -25.397 2932
-919.204 -25.397 2932
-910.637 -25.3537 2927
-903.637 -25.3537 2927
-895.106 -25.3104 2922
-888.119 -25.3104 2922
-879.624 -25.2671 2917
-874.144 -25.3104 2922
-867.157 -25.3104 2922
-860.169 -25.3104 2922
-851.722 -25.2671 2917
-844.747 -25.2671 2917
-837.771 -25.2671 2917
-829.087 -25.2151 2911
-822.126 -25.2151 2911
-815.165 -25.2151 2911
-808.204 -25.2151 2911
-801.243 -25.2151 2911
-794.282 -25.2151 2911
-785.968 -25.1718 2906
-779.019 -25.1718 2906
-772.07 -25.1718 2906
-763.804 -25.1285 2901
-756.867 -25.1285 2901
-749.93 -25.1285 2901
-742.993 -25.1285 2901
-734.787 -25.0852 2896
-727.862 -25.0852 2896
-720.937 -25.0852 2896
-712.779 -25.0419 2891
-705.865 -25.0419 2891
-697.743 -24.9986 2886
-690.842 -24.9986 2886
-681.571 -24.9119 2876
-673.52 -24.8686 2871
-666.655 -24.8686 2871
-659.79 -24.8686 2871
-652.924 -24.8686 2871
-647.184 -24.9119 2876
-640.306 -24.9119 2876
-634.53 -24.9552 2881
-627.641 -24.9552 2881
-621.829 -24.9986 2886
-617.058 -25.0852 2896
-613.293 -25.2151 2911
-606.332 -25.2151 2911
-603.695 -25.397 2932
-608.487 -25.8994 2990
-612.197 -26.3671 3044
-604.918 -26.3671 3044
-610.008 -26.9129 3107
-619.839 -27.6838 3196
-632.693 -28.6106 3303
-624.794 -28.6106 3303
-624.366 -28.9571 3343
-621.35 -29.191 3370
-618.387 -29.4335 3398
-610.262 -29.4335 3398
-604.617 -29.5548 3412
-597.682 -29.6154 3419
-590.713 -29.676 3426
-582.52 -29.676 3426
-576.674 -29.7973 3440
-569.605 -29.8579 3447
-561.362 -29.8579 3447
-553.119 -29.8579 3447
-545.983 -29.9186 3454
-537.723 -29.9186 3454
-531.61 -30.0398 3468
-523.317 -30.0398 3468
-515.024 -30.0398 3468
-508.923 -30.1698 3483
-502.606 -30.291 3497
-494.243 -30.291 3497
-485.881 -30.291 3497
-476.563 -30.2304 3490
-468.217 -30.2304 3490
-459.871 -30.2304 3490
-451.526 -30.2304 3490
-443.18 -30.2304 3490
-434.835 -30.2304 3490
-425.633 -30.1698 3483
-416.466 -30.1091 3476
-408.154 -30.1091 3476
-399.842 -30.1091 3476
-390.628 -30.0398 3468
-382.335 -30.0398 3468
-374.905 -30.1091 3476
-367.331 -30.1698 3483
-359.002 -30.1698 3483
-350.673 -30.1698 3483
-341.656 -30.1091 3476
-332.577 -30.0398 3468
-324.284 -30.0398 3468
-314.715 -29.9186 3454
-305.214 -29.7973 3440
-295.779 -29.676 3426
-287.586 -29.676 3426
-278.823 -29.6154 3419
-270.647 -29.6154 3419
-261.934 -29.5548 3412
-253.775 -29.5548 3412
-245.111 -29.4941 3405
-236.969 -29.4941 3405
-228.827 -29.4941 3405
-220.684 -29.4941 3405
-210.357 -29.191 3370
-130.744 -18.8659 2178
-125.535 -18.8659 2178
-120.327 -18.8659 2178
-114.22 -18.7186 2161
-109.053 -18.7186 2161
-103.597 -18.6666 2155
-98.4435 -18.6666 2155
-93.2036 -18.6493 2153
-87.6871 -18.5713 2144
-82.3676 -18.528 2139
-77.2526 -18.528 2139
-71.8678 -18.4587 2131
-66.3332 -18.3375 2117
-61.2708 -18.3375 2117
-56.2085 -18.3375 2117
-51.0253 -18.2942 2112
-45.8007 -18.2249 2104
-40.4012 -18.0603 2085
-35.1096 -17.9044 2067
-30.1668 -17.9044 2067
-25.0775 -17.8004 2055
-20.0064 -17.6618 2039
-15.0415 -17.5579 2027
-10.1943 -17.5579 2027
-5.33396 -17.5146 2022
-0.49949 -17.5406 2025
4.35362 -17.5839 2030
9.21704 -17.6012 2032
14.0762 -17.6012 2032
18.9819 -17.6445 2037
23.9701 -17.7311 2047
28.9356 -17.7744 2052
33.8425 -17.7744 2052
38.9006 -17.8437 2060
43.9756 -17.9044 2067
49.0367 -17.9477 2072
53.9915 -17.9477 2072
59.0316 -17.9737 2075
64.1478 -18.017 2080
69.3875 -18.0863 2088
74.3806 -18.0863 2088
79.3736 -18.0863 2088
84.5687 -18.1296 2093
89.7021 -18.1556 2096
94.7142 -18.1556 2096
99.7264 -18.1556 2096
104.739 -18.1556 2096
109.751 -18.1556 2096
115.037 -18.1989 2101
120.061 -18.1989 2101
125.085 -18.1989 2101
130.295 -18.2249 2104
135.326 -18.2249 2104
140.357 -18.2249 2104
145.527 -18.2422 2106
150.992 -18.2942 2112
156.042 -18.2942 2112
161.093 -18.2942 2112
166.301 -18.3115 2114
171.842 -18.3635 2120
176.912 -18.3635 2120
181.981 -18.3635 2120
187.227 -18.3808 2122
192.302 -18.3808 2122
197.655 -18.4068 2125
202.737 -18.4068 2125
207.818 -18.4068 2125
213.2 -18.4328 2128
218.289 -18.4328 2128
223.378 -18.4328 2128
228.466 -18.4328 2128
378.312 -28.6106 3303
386.211 -28.6106 3303
394.109 -28.6106 3303
402.007 -28.6106 3303
409.906 -28.6106 3303
407.432 -27.9003 3221
413.459 -27.7877 3208
420.343 -27.7357 3202
428 -27.7357 3202
434.024 -27.6318 3190
437.499 -27.3719 3160
441.675 -27.1641 3136
441.726 -26.7136 3084
449.101 -26.7136 3084
450.555 -26.3671 3044
453.773 -26.1333 3017
456.862 -25.8994 2990
464.012 -25.8994 2990
468.641 -25.7608 2974
474.793 -25.7088 2968
479.455 -25.5789 2953
486.516 -25.5789 2953
490.904 -25.4403 2937
496.231 -25.3537 2927
502.371 -25.3104 2922
506.569 -25.1718 2906
