-1852.38 443.668 2922
-1854.86 445.946 2937
-1864.2 449.893 2963
-1857.11 449.893 2963
-1850.03 449.893 2963
-1842.94 449.893 2963
-1835.86 449.893 2963
-1828.77 449.893 2963
-1834.6 453.082 2984
-1844 457.181 3011
-1860.59 463.103 3050
-1853.29 463.103 3050
-1856.29 465.684 3067
-1851.97 466.444 3072
-1844.62 466.444 3072
-1837.28 466.444 3072
-1833.51 467.355 3078
-1878.36 480.716 3166
-1874.33 481.627 3172
-1884.4 486.182 3202
-1894.91 490.889 3233
-1924.54 500.607 3297
-1916.66 500.607 3297
-1931.93 506.68 3337
-1963.16 517.005 3405
-1963.05 519.131 3419
-1954.88 519.131 3419
-1966.63 524.445 3454
-1970.84 527.786 3476
-1966.48 528.849 3483
-1958.15 528.849 3483
-1949.82 528.849 3483
-1941.49 528.849 3483
-1945.38 532.189 3505
-1936.99 532.189 3505
-1928.61 532.189 3505
-1924.07 533.252 3512
-1920.03 534.467 3520
-1911.62 534.467 3520
-1906.98 535.529 3527
-1906.62 537.807 3542
-1906.19 540.085 3557
-1897.69 540.085 3557
-1893.43 541.299 3565
-1884.9 541.299 3565
-1876.38 541.299 3565
-1867.85 541.299 3565
-1862.98 542.362 3572
-1858.59 543.577 3580
-1854.16 544.791 3588
-1845.58 544.791 3588
-1844.68 547.069 3603
-1836.07 547.069 3603
-1831.51 548.284 3611
-1822.87 548.284 3611
-1818.26 549.498 3619
-1809.6 549.498 3619
-1804.93 550.713 3627
-1796.26 550.713 3627
-1798.92 554.205 3650
-1794.12 555.42 3658
-1797.57 559.216 3683
-1788.76 559.216 3683
-1779.96 559.216 3683
-1775 560.431 3691
-1785.79 566.656 3732
-1776.86 566.656 3732
-1792.1 574.4 3783
-1799.55 579.714 3818
-1811.05 586.395 3862
-1801.82 586.395 3862
-1813.47 593.227 3907
-1812.44 595.961 3925
-1811.78 598.845 3944
-1802.35 598.845 3944
-1792.92 598.845 3944
-1792.08 601.73 3963
-1782.6 601.73 3963
-1773.13 601.73 3963
-1763.65 601.73 3963
-1754.17 601.73 3963
-1744.7 601.73 3963
-1706.76 591.861 3898
-1677.84 585.028 3853
-1627.05 570.452 3757
-1586.2 559.216 3683
-1577.39 559.216 3683
-1544.73 550.713 3627
-1525.9 547.069 3603
-1504.23 542.362 3572
-1495.68 542.362 3572
-1462.16 533.252 3512
-1447.56 530.974 3497
-1427.26 526.571 3468
-1418.97 526.571 3468
-1390.74 519.131 3419
-1371.24 514.88 3391
-1346.65 508.654 3350
-1327.85 504.555 3323
-1319.91 504.555 3323
-1294.19 497.722 3278
-1281.25 495.748 3265
-1270.71 494.685 3258
-1262.92 494.685 3258
-1252.82 493.774 3252
-1237.77 490.889 3233
-1222.81 488.004 3214
-1215.13 488.004 3214
-1202.93 486.182 3202
-1186.32 482.538 3178
-1167.59 477.983 3148
-1160.06 477.983 3148
-1139.35 472.517 3112
-1125.73 469.936 3095
-1108.21 465.684 3067
-1100.88 465.684 3067
-1087.48 463.103 3050
-1078.06 462.192 3044
-1069.02 461.433 3039
-1051.97 457.181 3011
-1044.77 457.181 3011
-1037.57 457.181 3011
-1024.9 454.752 2995
-1010.6 451.563 2974
-1003.49 451.563 2974
-983.98 445.946 2937
-970.304 442.909 2917
-961.348 441.998 2911
-954.386 441.998 2911
-947.425 441.998 2911
-940.464 441.998 2911
-933.503 441.998 2911
-926.542 441.998 2911
-914.843 439.72 2896
-907.917 439.72 2896
-913.748 445.946 2937
-918.147 451.563 2974
-911.036 451.563 2974
-903.924 451.563 2974
-896.812 451.563 2974
-889.701 451.563 2974
-882.589 451.563 2974
-875.477 451.563 2974
-877.709 456.422 3006
-870.521 456.422 3006
-863.332 456.422 3006
-856.144 456.422 3006
-845.849 454.752 2995
-838.687 454.752 2995
-827.083 452.323 2979
-819.959 452.323 2979
-811.471 451.563 2974
-797.057 447.464 2947
-790.01 447.464 2947
-778.978 445.186 2932
-775.916 447.464 2947
-768.868 447.464 2947
-761.821 447.464 2947
-754.774 447.464 2947
-747.727 447.464 2947
-733.14 442.909 2917
-726.164 442.909 2917
-719.189 442.909 2917
-712.214 442.909 2917
-705.238 442.909 2917
-698.263 442.909 2917
-686.31 439.72 2896
-675.866 437.443 2881
-672.46 439.72 2896
-668.982 441.998 2911
-662.021 441.998 2911
-664.511 448.375 2953
-658.563 449.134 2958
-652.591 449.893 2963
-645.505 449.893 2963
-644.237 453.993 2990
-643.906 458.852 3022
-643.631 463.862 3055
-636.326 463.862 3055
-634.992 468.266 3084
-629.855 469.936 3095
-623.661 470.847 3101
-616.246 470.847 3101
-608.83 470.847 3101
-601.415 470.847 3101
-596.106 472.517 3112
-588.665 472.517 3112
-583.464 474.339 3124
-580.419 477.983 3148
-573.983 478.894 3154
-566.441 478.894 3154
-562.088 481.627 3172
-556.601 483.449 3184
-551.056 485.271 3196
-543.413 485.271 3196
-535.771 485.271 3196
-531.102 488.004 3214
-524.557 489.067 3221
-516.854 489.067 3221
-510.1 489.978 3227
-521.533 508.654 3350
-513.522 508.654 3350
-505.511 508.654 3350
-519.331 530.974 3497
-515.352 535.529 3527
-516.691 545.854 3595
-508.094 545.854 3595
-502.832 549.498 3619
-496.363 551.928 3635
-487.67 551.928 3635
-478.978 551.928 3635
-470.285 551.928 3635
-463.498 554.205 3650
-456.888 556.787 3667
-448.119 556.787 3667
-440.308 558.001 3675
-436.335 564.227 3716
-429.289 566.656 3732
-420.365 566.656 3732
-412.322 567.871 3740
-405.212 570.452 3757
-397.177 571.818 3766
-388.172 571.818 3766
-381.784 575.766 3792
-374.387 578.347 3809
-366.909 580.929 3826
-357.76 580.929 3826
-350.251 583.662 3844
-341.058 583.662 3844
-331.866 583.662 3844
-322.674 583.662 3844
-314.95 586.395 3862
-305.715 586.395 3862
-296.479 586.395 3862
-287.244 586.395 3862
-278.009 586.395 3862
-269.4 587.761 3871
-260.143 587.761 3871
-250.887 587.761 3871
-240.506 585.028 3853
-228.111 576.981 3800
-217.064 571.818 3766
-208.059 571.818 3766
-196.833 565.441 3724
-187.07 562.86 3707
-178.206 562.86 3707
-169.341 562.86 3707
-97.5759 342.241 2254
-92.1859 342.241 2254
-86.7959 342.241 2254
-81.2976 341.785 2251
-75.7124 340.874 2245
-70.1559 339.963 2239
-64.715 339.508 2236
-59.368 339.508 2236
-53.5137 336.319 2215
-48.1734 336.015 2213
-42.649 334.193 2201
-37.3857 334.193 2201
-32.1225 334.193 2201
-26.8226 333.738 2198
-21.4291 331.612 2184
-16.2065 331.612 2184
-10.9085 329.335 2169
-5.71647 329.031 2167
-0.533776 328.575 2164
4.641 328.575 2164
9.76589 326.905 2153
14.8728 325.994 2147
19.9324 324.78 2139
25.0122 324.324 2136
30.1201 324.324 2136
35.2279 324.324 2136
40.3357 324.324 2136
45.4435 324.324 2136
50.5514 324.324 2136
55.581 323.868 2133
60.6817 323.868 2133
65.7823 323.868 2133
70.883 323.868 2133
75.9836 323.868 2133
81.0843 323.868 2133
86.1849 323.868 2133
91.2856 323.868 2133
96.3862 323.868 2133
101.63 324.324 2136
106.887 324.78 2139
112.421 325.994 2147
117.555 325.994 2147
122.861 326.45 2150
128.836 328.575 2164
134.01 328.575 2164
139.185 328.575 2164
144.36 328.575 2164
149.328 328.12 2161
154.495 328.12 2161
482.631 458.092 3017
489.846 458.092 3017
497.061 458.092 3017
502.437 456.422 3006
506.912 453.993 2990
516.813 456.422 3006
524.873 457.181 3011
532.073 457.181 3011
539.273 457.181 3011
546.474 457.181 3011
551.651 455.511 3000
558.825 455.511 3000
564.112 453.993 2990
570.116 453.082 2984
577.251 453.082 2984
584.387 453.082 2984
591.523 453.082 2984
598.658 453.082 2984
604.779 452.323 2979
611.903 452.323 2979
619.026 452.323 2979
626.15 452.323 2979
632.211 451.563 2974
639.323 451.563 2974
644.043 449.893 2963
651.129 449.893 2963
654.66 447.464 2947
661.707 447.464 2947
667.62 446.705 2942
673.508 445.946 2937
679.373 445.186 2932
686.384 445.186 2932
694.578 445.946 2937
701.601 445.946 2937
708.625 445.946 2937
715.648 445.946 2937
722.671 445.946 2937
728.452 445.186 2932
735.463 445.186 2932
741.208 444.427 2927
748.208 444.427 2927
753.917 443.668 2922
760.904 443.668 2922
766.578 442.909 2917
773.553 442.909 2917
780.529 442.909 2917
788.854 443.668 2922
795.841 443.668 2922
804.203 444.427 2927
812.588 445.186 2932
819.599 445.186 2932
828.02 445.946 2937
837.886 447.464 2947
846.654 448.375 2953
853.715 448.375 2953
860.777 448.375 2953
864.606 446.705 2942
871.641 446.705 2942
877.183 445.946 2937
881.195 444.427 2927
888.195 444.427 2927
903.146 448.375 2953
910.207 448.375 2953
918.822 449.134 2958
927.461 449.893 2963
981.541 472.517 3112
988.983 472.517 3112
1004.11 476.161 3136
1011.61 476.161 3136
1040.56 486.182 3202
1048.21 486.182 3202
1068.07 491.8 3239
1086.44 496.659 3271
1134.41 514.88 3391
1142.52 514.88 3391
1167.26 522.32 3440
1190.17 528.849 3483
1213.64 535.529 3527
1222.08 535.529 3527
1235.75 537.807 3542
1244.22 537.807 3542
1252.69 537.807 3542
1261.16 537.807 3542
1266.76 536.592 3534
1275.21 536.592 3534
1286.57 537.807 3542
1295.04 537.807 3542
1309.03 540.085 3557
1326.05 543.577 3580
1334.61 543.577 3580
1343.17 543.577 3580
1354.75 544.791 3588
1363.33 544.791 3588
1371.91 544.791 3588
1380.49 544.791 3588
1389.07 544.791 3588
1391.42 542.362 3572
1399.96 542.362 3572
1396.68 537.807 3542
1393.24 533.252 3512
1395.66 530.974 3497
1381.13 522.32 3440
1389.36 522.32 3440
1383.37 517.005 3405
1371.89 509.717 3357
1371.7 506.68 3337
1379.68 506.68 3337
1379.34 503.644 3317
1378.91 500.607 3297
1381.32 498.633 3284
1383.68 496.659 3271
1391.5 496.659 3271
1396.76 495.748 3265
1407.14 496.659 3271
1414.97 496.659 3271
1422.79 496.659 3271
1430.61 496.659 3271
1444.15 498.633 3284
1454.66 499.544 3290
1465.63 500.607 3297
1473.52 500.607 3297
1487.24 502.581 3310
1495.16 502.581 3310
1503.07 502.581 3310
1505.05 500.607 3297
1512.94 500.607 3297
1514.83 498.633 3284
1522.68 498.633 3284
1521.68 495.748 3265
1520.58 492.863 3246
1519.4 489.978 3227
1515.29 486.182 3202
1522.94 486.182 3202
1522 483.449 3184
1515.2 478.894 3154
1502.46 472.517 3112
1509.9 472.517 3112
1492.48 464.773 3061
1483.63 459.763 3028
1458.87 449.893 2963
1461.01 448.375 2953
1468.07 448.375 2953
1449.15 440.479 2901
1451.07 438.961 2891
1450.42 436.683 2876
1457.3 436.683 2876
1461.63 435.924 2871
1465.94 435.165 2866
1470.73 434.558 2862
1477.58 434.558 2862
1481.83 433.799 2857
1488.66 433.799 2857
1492.88 433.039 2852
1497.07 432.28 2847
1503.87 432.28 2847
1508.03 431.521 2842
1514.83 431.521 2842
1518.94 430.762 2837
1525.73 430.762 2837
1529.81 430.003 2832
1534.41 429.395 2828
1538.45 428.636 2823
1545.2 428.636 2823
1549.2 427.877 2818
1553.18 427.118 2813
1552.15 424.992 2799
1558.84 424.992 2799
1565.53 424.992 2799
1572.23 424.992 2799
1578.92 424.992 2799
1588.44 425.751 2804
1595.15 425.751 2804
1601.85 425.751 2804
1611.43 426.51 2809
1618.15 426.51 2809
1624.86 426.51 2809
1631.58 426.51 2809
1640.63 427.118 2813
1647.36 427.118 2813
1654.08 427.118 2813
1660.81 427.118 2813
1667.54 427.118 2813
1677.24 427.877 2818
1686.97 428.636 2823
1693.72 428.636 2823
1700.47 428.636 2823
1707.22 428.636 2823
1713.97 428.636 2823
1720.72 428.636 2823
1727.47 428.636 2823
1734.22 428.636 2823
1737.89 427.877 2818
1744.63 427.877 2818
1751.36 427.877 2818
1758.1 427.877 2818
1764.84 427.877 2818
1771.58 427.877 2818
1778.32 427.877 2818
1781.89 427.118 2813
1782.9 425.751 2804
1789.6 425.751 2804
1793.1 424.992 2799
1799.8 424.992 2799
1806.49 424.992 2799
1807.35 423.625 2790
1814.02 423.625 2790
1817.43 422.866 2785
1820.82 422.107 2780
1827.47 422.107 2780
1834.11 422.107 2780
1838.11 421.5 2776
1841.43 420.741 2771
1848.05 420.741 2771
1854.68 420.741 2771
1861.31 420.741 2771
1867.93 420.741 2771
1871.85 420.133 2767
1878.47 420.133 2767
1885.09 420.133 2767
1884.87 418.615 2757
1891.46 418.615 2757
1898.05 418.615 2757
1904.65 418.615 2757
1911.24 418.615 2757
1915.05 418.008 2753
1921.63 418.008 2753
1928.22 418.008 2753
1934.8 418.008 2753
1937.86 417.248 2748
1947.97 418.008 2753
1957.39 418.615 2757
1963.98 418.615 2757
1970.57 418.615 2757
1977.17 418.615 2757
1983.76 418.615 2757
1990.35 418.615 2757
1990.43 417.248 2748
1987.55 415.274 2735
1994.09 415.274 2735
2007.21 416.641 2744
2013.78 416.641 2744
2020.34 416.641 2744
2029.85 417.248 2748
2036.43 417.248 2748
2043 417.248 2748
2049.57 417.248 2748
2056.14 417.248 2748
2062.71 417.248 2748
2055.73 414.515 2730
2049.41 411.934 2713
2058.93 412.541 2717
2065.43 412.541 2717
2071.93 412.541 2717
2031.76 403.279 2656
-2153.33 443.573 2876
-2146.45 443.573 2876
-2132.14 442.031 2866
-2118.61 440.643 2857
-2111.78 440.643 2857
-2111.58 442.031 2866
-2104.72 442.031 2866
-2097.87 442.031 2866
-2091.02 442.031 2866
-2077.62 440.643 2857
-2070.79 440.643 2857
-2060.34 439.871 2852
-2053.52 439.871 2852
-2039.53 438.329 2842
-2032.73 438.329 2842
-2022.37 437.558 2837
-2033.35 441.414 2862
-2029.34 442.031 2866
-2022.48 442.031 2866
-2015.63 442.031 2866
-2008.78 442.031 2866
-1999.13 441.414 2862
-1992.28 441.414 2862
-1971.57 438.329 2842
-1971.68 439.871 2852
-1964.86 439.871 2852
-1958.04 439.871 2852
-1951.22 439.871 2852
-1944.4 439.871 2852
-1934.19 439.1 2847
-1927.38 439.1 2847
-1920.57 439.1 2847
-1913.76 439.1 2847
-1910.3 439.871 2852
-1910.16 441.414 2862
-1903.31 441.414 2862
-1902.43 442.802 2871
-1895.57 442.802 2871
-1888.7 442.802 2871
-1881.84 442.802 2871
-1874.97 442.802 2871
-1874.61 444.344 2881
-1870.96 445.115 2886
-1864.06 445.115 2886
-1863.6 446.658 2896
-1859.88 447.429 2901
-1859.33 448.971 2911
-1852.37 448.971 2911
-1852.38 450.668 2922
-1854.86 452.981 2937
-1867.34 457.762 2968
-1860.25 457.762 2968
-1853.15 457.762 2968
-1846.05 457.762 2968
-1842.67 458.688 2974
-1835.56 458.688 2974
-1834.6 460.23 2984
-1867.88 470.409 3050
-1877.67 474.728 3078
-1870.31 474.728 3078
-1873.24 477.35 3095
-1865.84 477.35 3095
-1858.44 477.35 3095
-1851.03 477.35 3095
-1850.78 479.201 3107
-1889.03 491.077 3184
-1881.42 491.077 3184
-1891.46 495.704 3214
-1902.53 500.639 3246
-1932.13 510.51 3310
-1924.21 510.51 3310
-1935.4 515.6 3343
-1967.19 526.242 3412
-1967.07 528.401 3426
-1958.88 528.401 3426
-1970.61 533.799 3461
-1974.81 537.192 3483
-1970.43 538.272 3490
-1962.09 538.272 3490
-1953.74 538.272 3490
-1953.76 540.585 3505
-1945.38 540.585 3505
-1936.99 540.585 3505
-1932.47 541.665 3512
-1928.45 542.899 3520
-1923.85 543.978 3527
-1915.42 543.978 3527
-1910.77 545.058 3534
-1906.62 546.292 3542
-1906.19 548.605 3557
-1897.69 548.605 3557
-1893.43 549.839 3565
-1884.9 549.839 3565
-1876.38 549.839 3565
-1867.85 549.839 3565
-1862.98 550.919 3572
-1858.59 552.153 3580
-1854.16 553.387 3588
-1845.58 553.387 3588
-1844.68 555.7 3603
-1836.07 555.7 3603
-1831.51 556.934 3611
-1822.87 556.934 3611
-1818.26 558.168 3619
-1813.61 559.402 3627
-1804.93 559.402 3627
-1796.26 559.402 3627
-1798.92 562.949 3650
-1794.12 564.183 3658
-1797.57 568.039 3683
-1788.76 568.039 3683
-1779.96 568.039 3683
-1775 569.273 3691
-1785.79 575.596 3732
-1776.86 575.596 3732
-1792.1 583.462 3783
-1799.55 588.86 3818
-1811.05 595.646 3862
-1801.82 595.646 3862
-1813.47 602.587 3907
-1812.44 605.363 3925
-1811.78 608.293 3944
-1802.35 608.293 3944
-1792.92 608.293 3944
-1792.08 611.224 3963
-1782.6 611.224 3963
-1773.13 611.224 3963
-1763.65 611.224 3963
-1754.17 611.224 3963
-1744.7 611.224 3963
-1706.76 601.199 3898
-1677.84 594.258 3853
-1627.05 579.452 3757
-1586.2 568.039 3683
-1577.39 568.039 3683
-1544.73 559.402 3627
-1525.9 555.7 3603
-1504.23 550.919 3572
-1495.68 550.919 3572
-1465.49 542.899 3520
-1450.87 540.585 3505
-1436.31 538.272 3490
-1427.97 538.272 3490
-1402.13 531.64 3447
-1379.73 526.242 3412
-1349.47 517.759 3357
-1330.65 513.595 3330
-1322.69 513.595 3330
-1294.19 505.574 3278
-1283.61 504.495 3271
-1270.71 502.49 3258
-1262.92 502.49 3258
-1255.13 502.49 3258
-1245.04 501.564 3252
-1225.47 496.783 3221
-1217.77 496.783 3221
-1205.19 494.778 3208
-1186.32 490.151 3178
-1167.59 485.524 3148
-1160.06 485.524 3148
-1143.75 481.823 3124
-1131.91 479.972 3112
-1112.18 474.728 3078
-1104.82 474.728 3078
-1089.26 471.181 3055
-1080.19 470.409 3050
-1070.78 469.484 3044
-1055.82 466.091 3022
-1048.59 466.091 3022
-1039.64 465.32 3017
-1032.43 465.32 3017
-1012.3 459.459 2979
-1005.18 459.459 2979
-982.305 452.21 2932
-966.645 448.2 2906
-961.348 448.971 2911
-954.386 448.971 2911
-947.425 448.971 2911
-940.464 448.971 2911
-928.693 446.658 2896
-921.768 446.658 2896
-910.104 444.344 2881
-903.215 444.344 2881
-900.992 446.658 2896
-906.725 452.981 2937
-899.701 452.981 2937
-892.678 452.981 2937
-885.655 452.981 2937
-878.632 452.981 2937
-870.125 452.21 2932
-872.239 456.991 2963
-879.169 464.394 3011
-871.969 464.394 3011
-864.768 464.394 3011
-856.144 463.623 3006
-844.437 461.155 2990
-837.287 461.155 2990
-825.695 458.688 2974
-818.583 458.688 2974
-809.834 457.762 2968
-795.705 453.752 2942
-788.67 453.752 2942
-778.978 452.21 2932
-774.599 453.752 2942
-768.868 454.523 2947
-761.821 454.523 2947
-754.774 454.523 2947
-746.458 453.752 2942
-733.14 449.896 2917
-726.164 449.896 2917
-719.189 449.896 2917
-712.214 449.896 2917
-705.238 449.896 2917
-698.263 449.896 2917
-686.31 446.658 2896
-674.693 443.573 2876
-671.299 445.886 2891
-667.833 448.2 2906
-660.884 448.2 2906
-665.636 456.22 2958
-660.789 457.762 2968
-653.692 457.762 2968
-646.594 457.762 2968
-645.315 461.927 2995
-645.184 467.016 3028
-646.16 473.031 3067
-638.826 473.031 3067
-638.492 478.275 3101
-633.315 479.972 3112
-625.873 479.972 3112
-618.432 479.972 3112
-610.99 479.972 3112
-603.548 479.972 3112
-598.405 481.823 3124
-590.935 481.823 3124
-586.826 484.599 3142
-581.525 486.45 3154
-577.259 489.226 3172
-569.673 489.226 3172
-566.341 492.927 3196
-558.698 492.927 3196
-554.159 495.704 3214
-546.474 495.704 3214
-544.153 500.639 3246
-536.39 500.639 3246
-533.84 505.574 3278
-526.001 505.574 3278
-518.162 505.574 3278
-521.533 516.679 3350
-536.055 539.351 3497
-527.693 539.351 3497
-523.786 543.978 3527
-518.566 547.371 3549
-517.841 555.7 3603
-509.225 555.7 3603
-503.944 559.402 3627
-496.363 560.635 3635
-487.67 560.635 3635
-478.978 560.635 3635
-470.285 560.635 3635
-462.482 561.715 3642
-455.766 564.183 3658
-447.019 564.183 3658
-439.35 565.571 3667
-435.278 571.74 3707
-428.369 574.362 3724
-419.464 574.362 3724
-412.322 576.83 3740
-404.35 578.218 3749
-397.177 580.84 3766
-388.172 580.84 3766
-379.972 582.074 3774
-374.387 587.472 3809
-366.909 590.094 3826
-357.76 590.094 3826
-348.611 590.094 3826
-341.058 592.87 3844
-331.866 592.87 3844
-322.674 592.87 3844
-313.482 592.87 3844
-305.002 594.258 3853
-295.788 594.258 3853
-286.575 594.258 3853
-276.713 592.87 3844
-267.521 592.87 3844
-258.329 592.87 3844
-247.97 590.094 3826
-238.322 588.86 3818
-226.55 582.074 3774
-216.085 578.218 3749
-207.12 578.218 3749
-195.935 571.74 3707
-187.07 571.74 3707
-176.283 565.571 3667
-167.514 565.571 3667
-97.4461 347.178 2251
-92.0632 347.178 2251
-86.6804 347.178 2251
-81.2976 347.178 2251
-75.8136 346.715 2248
-70.1559 345.327 2239
-64.8018 345.327 2239
-59.4477 345.327 2239
-53.5862 342.088 2218
-48.217 341.625 2215
-42.8234 340.854 2210
-37.5386 340.854 2210
-32.1662 339.929 2204
-26.8226 339.003 2198
-21.3997 336.381 2181
-16.1843 336.381 2181
-10.9085 334.53 2169
-5.71647 334.222 2167
-0.533036 333.297 2161
4.63457 333.297 2161
9.75228 331.6 2150
14.8728 331.137 2147
19.9324 329.904 2139
25.0474 329.904 2139
30.1624 329.904 2139
35.2279 329.441 2136
40.3357 329.441 2136
45.4435 329.441 2136
50.5514 329.441 2136
55.581 328.978 2133
60.6817 328.978 2133
65.7823 328.978 2133
70.883 328.978 2133
75.9836 328.978 2133
81.0843 328.978 2133
86.1849 328.978 2133
91.2856 328.978 2133
96.3862 328.978 2133
101.63 329.441 2136
106.887 329.904 2139
112.421 331.137 2147
117.555 331.137 2147
123.032 332.063 2153
128.836 333.759 2164
134.196 334.222 2167
139.378 334.222 2167
144.56 334.222 2167
481.89 457.762 2968
490.8 459.459 2979
499.762 461.155 2990
506.912 461.155 2990
516.813 463.623 3006
524.001 463.623 3006
532.073 464.394 3011
539.273 464.394 3011
546.474 464.394 3011
551.651 462.698 3000
558.825 462.698 3000
564.112 461.155 2990
570.116 460.23 2984
577.251 460.23 2984
584.387 460.23 2984
591.523 460.23 2984
598.658 460.23 2984
605.794 460.23 2984
612.93 460.23 2984
620.065 460.23 2984
626.15 459.459 2979
633.274 459.459 2979
640.397 459.459 2979
645.13 457.762 2968
651.129 456.991 2963
654.66 454.523 2947
661.707 454.523 2947
667.62 453.752 2942
673.508 452.981 2937
680.531 452.981 2937
686.384 452.21 2932
693.396 452.21 2932
700.407 452.21 2932
708.625 452.981 2937
715.648 452.981 2937
722.671 452.981 2937
728.452 452.21 2932
735.463 452.21 2932
741.208 451.439 2927
748.208 451.439 2927
755.207 451.439 2927
760.904 450.668 2922
767.892 450.668 2922
774.879 450.668 2922
780.529 449.896 2917
790.204 451.439 2927
798.565 452.21 2932
805.576 452.21 2932
815.359 453.752 2942
822.394 453.752 2942
832.531 455.449 2953
842.435 456.991 2963
850.954 457.762 2968
858.052 457.762 2968
865.149 457.762 2968
869.308 456.22 2958
876.381 456.22 2958
883.455 456.22 2958
890.528 456.22 2958
899.119 456.991 2963
912.627 460.23 2984
919.763 460.23 2984
942.119 467.787 3033
974.1 479.972 3112
994.788 486.45 3154
1002.33 486.45 3154
1013.72 488.3 3166
1029.03 492.002 3190
1050.63 498.634 3233
1058.36 498.634 3233
1078.62 504.495 3271
1099.4 510.51 3310
1141.44 526.242 3412
1149.6 526.242 3412
1176.76 534.879 3468
1194.96 539.351 3497
1211.24 542.899 3520
1219.65 542.899 3520
1235.75 546.292 3542
1244.22 546.292 3542
1252.69 546.292 3542
1261.16 546.292 3542
1266.76 545.058 3534
1275.21 545.058 3534
1283.66 545.058 3534
1292.11 545.058 3534
1306.08 547.371 3549
1317.53 548.605 3557
1331.63 550.919 3572
1340.17 550.919 3572
1351.73 552.153 3580
1360.29 552.153 3580
1368.86 552.153 3580
1377.42 552.153 3580
1382.88 550.919 3572
1388.69 549.839 3565
1397.22 549.839 3565
1390.76 543.978 3527
1390.47 540.585 3505
1387.27 536.112 3476
1378.32 529.48 3433
1386.53 529.48 3433
1369.15 519.764 3370
1366.17 515.6 3343
1365.94 512.515 3323
1373.89 512.515 3323
1376.43 510.51 3310
1378.91 508.505 3297
1378.8 505.574 3278
1381.14 503.569 3265
1388.95 503.569 3265
1391.19 501.564 3252
1401.55 502.49 3258
1412.37 503.569 3265
1422.79 504.495 3271
1430.61 504.495 3271
1438.43 504.495 3271
1452 506.5 3284
1462.52 507.425 3290
1470.39 507.425 3290
1478.26 507.425 3290
1486.12 507.425 3290
1493.99 507.425 3290
1501.86 507.425 3290
1506.97 506.5 3284
1512.06 505.574 3278
1519.9 505.574 3278
1515.62 501.564 3252
1520.58 500.639 3246
1519.4 497.709 3227
1515.29 493.853 3202
1522.94 493.853 3202
1522 491.077 3184
1518.08 487.375 3160
1500.05 479.201 3107
1507.48 479.201 3107
1495.41 473.031 3067
1486.08 467.787 3033
1461.33 457.762 2968
1465.95 456.991 2963
1473.04 456.991 2963
1451.65 448.2 2906
1451.07 445.886 2891
1450.42 443.573 2876
1457.3 443.573 2876
1461.63 442.802 2871
1465.94 442.031 2866
1470.73 441.414 2862
1477.58 441.414 2862
1484.42 441.414 2862
1488.66 440.643 2857
1492.88 439.871 2852
1497.07 439.1 2847
1503.87 439.1 2847
1510.68 439.1 2847
1514.83 438.329 2842
1521.62 438.329 2842
1528.42 438.329 2842
1532.51 437.558 2837
1536.58 436.787 2832
1541.18 436.17 2828
1547.94 436.17 2828
1551.95 435.399 2823
1553.18 433.856 2813
1554.92 432.468 2804
1561.62 432.468 2804
1565.53 431.697 2799
1569.42 430.926 2794
1576.1 430.926 2794
1588.44 432.468 2804
1595.15 432.468 2804
1601.85 432.468 2804
1608.56 432.468 2804
1618.15 433.239 2809
1624.86 433.239 2809
1631.58 433.239 2809
1638.3 433.239 2809
1645.01 433.239 2809
1654.08 433.856 2813
1660.81 433.856 2813
1667.54 433.856 2813
1674.26 433.856 2813
1683.98 434.627 2818
1690.72 434.627 2818
1697.46 434.627 2818
1707.22 435.399 2823
1713.97 435.399 2823
1720.72 435.399 2823
1727.47 435.399 2823
1734.22 435.399 2823
1737.89 434.627 2818
1744.63 434.627 2818
1751.36 434.627 2818
1758.1 434.627 2818
1761.71 433.856 2813
1768.44 433.856 2813
1775.16 433.856 2813
1779.36 433.239 2809
1782.9 432.468 2804
1789.6 432.468 2804
1793.1 431.697 2799
1799.8 431.697 2799
1806.49 431.697 2799
1807.35 430.309 2790
1814.02 430.309 2790
1820.7 430.309 2790
1824.09 429.538 2785
1827.47 428.767 2780
1834.11 428.767 2780
1838.11 428.15 2776
1841.43 427.379 2771
1848.05 427.379 2771
1854.68 427.379 2771
1861.31 427.379 2771
1867.93 427.379 2771
1871.85 426.762 2767
1878.47 426.762 2767
1885.09 426.762 2767
1884.87 425.219 2757
1891.46 425.219 2757
1898.05 425.219 2757
1904.65 425.219 2757
1911.24 425.219 2757
1915.05 424.602 2753
1921.63 424.602 2753
1928.22 424.602 2753
1934.8 424.602 2753
1937.86 423.831 2748
1947.97 424.602 2753
1957.39 425.219 2757
1963.98 425.219 2757
1970.57 425.219 2757
1977.17 425.219 2757
1983.76 425.219 2757
1990.35 425.219 2757
1990.43 423.831 2748
1983.92 421.055 2730
1994.09 421.826 2735
2007.21 423.214 2744
2013.78 423.214 2744
2020.34 423.214 2744
2026.9 423.214 2744
2033.46 423.214 2744
2036.31 422.443 2739
2042.86 422.443 2739
2049.41 422.443 2739
2055.96 422.443 2739
2042.93 418.433 2713
2035.82 415.657 2695
2012.71 409.642 2656
2019.06 409.642 2656
2025.41 409.642 2656
2031.76 409.642 2656
-2153.33 450.462 2876
-2146.45 450.462 2876
-2132.14 448.896 2866
-2118.61 447.486 2857
-2111.78 447.486 2857
-2108.63 448.27 2862
-2101.79 448.27 2862
-2094.94 448.27 2862
-2088.1 448.27 2862
-2073.98 446.703 2852
-2067.16 446.703 2852
-2056.73 445.92 2847
-2046.32 445.137 2842
-2032.35 443.571 2832
-2029.15 444.354 2837
-2022.37 444.354 2837
-2033.35 448.27 2862
-2029.34 448.896 2866
-2022.48 448.896 2866
-2015.63 448.896 2866
-2008.78 448.896 2866
-1999.13 448.27 2862
-1992.28 448.27 2862
-1971.57 445.137 2842
-1971.68 446.703 2852
-1964.86 446.703 2852
-1958.04 446.703 2852
-1951.22 446.703 2852
-1944.4 446.703 2852
-1934.19 445.92 2847
-1927.38 445.92 2847
-1920.57 445.92 2847
-1910.4 445.137 2842
-1903.6 445.137 2842
-1910.16 448.27 2862
-1903.31 448.27 2862
-1896.47 448.27 2862
-1895.57 449.679 2871
-1888.7 449.679 2871
-1881.84 449.679 2871
-1871.71 448.896 2866
-1868.11 449.679 2871
-1870.96 452.029 2886
-1864.06 452.029 2886
-1863.6 453.595 2896
-1859.88 454.378 2901
-1859.33 455.944 2911
-1852.37 455.944 2911
-1852.38 457.667 2922
-1854.86 460.017 2937
-1867.34 464.872 2968
-1860.25 464.872 2968
-1853.15 464.872 2968
-1846.05 464.872 2968
-1842.67 465.812 2974
-1835.56 465.812 2974
-1834.6 467.378 2984
-1867.88 477.716 3050
-1877.67 482.101 3078
-1870.31 482.101 3078
-1873.24 484.764 3095
-1865.84 484.764 3095
-1858.44 484.764 3095
-1851.03 484.764 3095
-1850.78 486.644 3107
-1889.03 498.704 3184
-1881.42 498.704 3184
-1891.46 503.403 3214
-1902.53 508.415 3246
-1932.13 518.439 3310
-1924.21 518.439 3310
-1935.4 523.608 3343
-1967.19 534.415 3412
-1967.07 536.608 3426
-1958.88 536.608 3426
-1970.61 542.09 3461
-1974.81 545.536 3483
-1970.43 546.632 3490
-1962.09 546.632 3490
-1953.74 546.632 3490
-1953.76 548.982 3505
-1945.38 548.982 3505
-1936.99 548.982 3505
-1932.47 550.078 3512
-1928.45 551.331 3520
-1923.85 552.427 3527
-1915.42 552.427 3527
-1910.77 553.524 3534
-1906.62 554.777 3542
-1906.19 557.126 3557
-1897.69 557.126 3557
-1893.43 558.379 3565
-1884.9 558.379 3565
-1876.38 558.379 3565
-1867.85 558.379 3565
-1859.33 558.379 3565
-1858.59 560.729 3580
-1854.16 561.982 3588
-1845.58 561.982 3588
-1840.59 563.078 3595
-1836.07 564.331 3603
-1831.51 565.584 3611
-1822.87 565.584 3611
-1818.26 566.837 3619
-1813.61 568.09 3627
-1804.93 568.09 3627
-1796.26 568.09 3627
-1791.53 569.343 3635
-1794.12 572.946 3658
-1793.67 575.608 3675
-1784.88 575.608 3675
-1779.96 576.861 3683
-1771.15 576.861 3683
-1770 579.367 3699
-1761.15 579.367 3699
-1779.78 588.452 3757
-1783.05 592.524 3783
-1790.42 598.006 3818
-1781.29 598.006 3818
-1796.76 606.307 3871
-1804.13 611.946 3907
-1794.79 611.946 3907
-1785.44 611.946 3907
-1784.28 614.765 3925
-1779.42 616.332 3935
-1778.11 619.151 3953
-1768.65 619.151 3953
-1759.2 619.151 3953
-1749.75 619.151 3953
-1740.29 619.151 3953
-1706.76 610.536 3898
-1673.92 602.078 3844
-1627.05 588.452 3757
-1579.31 574.355 3667
-1570.54 574.355 3667
-1544.73 568.09 3627
-1529.28 565.584 3611
-1504.23 559.476 3572
-1495.68 559.476 3572
-1468.41 552.427 3527
-1457.08 551.331 3520
-1439.19 547.728 3497
-1430.83 547.728 3497
-1404.98 540.993 3454
-1382.56 535.511 3419
-1360.32 530.029 3384
-1352.23 530.029 3384
-1325.47 522.668 3337
-1309.59 519.535 3317
-1286.35 513.427 3278
-1275.79 512.331 3271
-1267.96 512.331 3271
-1255.13 510.294 3258
-1247.34 510.294 3258
-1237.27 509.355 3252
-1229.49 509.355 3252
-1210.07 504.499 3221
-1193.03 500.583 3196
-1178.72 497.764 3178
-1171.12 497.764 3178
-1150.34 492.125 3142
-1136.28 489.306 3124
-1124.47 487.427 3112
-1117.03 487.427 3112
-1095.32 481.162 3072
-1080.19 477.716 3050
-1070.78 476.776 3044
-1055.82 473.33 3022
-1048.59 473.33 3022
-1041.36 473.33 3022
-1034.14 473.33 3022
-1012.3 466.595 2979
-1005.18 466.595 2979
-982.305 459.234 2932
-966.645 455.161 2906
-961.348 455.944 2911
-954.386 455.944 2911
-947.425 455.944 2911
-940.464 455.944 2911
-928.693 453.595 2896
-921.768 453.595 2896
-910.104 451.246 2881
-903.215 451.246 2881
-900.992 453.595 2896
-906.725 460.017 2937
-899.701 460.017 2937
-892.678 460.017 2937
-885.655 460.017 2937
-878.632 460.017 2937
-870.125 459.234 2932
-872.239 464.089 2963
-879.169 471.607 3011
-871.969 471.607 3011
-864.768 471.607 3011
-857.568 471.607 3011
-844.437 468.318 2990
-837.287 468.318 2990
-825.695 465.812 2974
-818.583 465.812 2974
-809.834 464.872 2968
-795.705 460.8 2942
-788.67 460.8 2942
-778.978 459.234 2932
-774.599 460.8 2942
-768.868 461.583 2947
-761.821 461.583 2947
-754.774 461.583 2947
-746.458 460.8 2942
-734.396 457.667 2922
-727.409 457.667 2922
-719.189 456.884 2917
-712.214 456.884 2917
-705.238 456.884 2917
-698.263 456.884 2917
-687.495 454.378 2901
-674.693 450.462 2876
-671.299 452.812 2891
-667.833 455.161 2906
-660.884 455.161 2906
-665.636 463.306 2958
-660.789 464.872 2968
-653.692 464.872 2968
-646.594 464.872 2968
-645.315 469.101 2995
-645.184 474.27 3028
-646.16 480.378 3067
-638.826 480.378 3067
-640.757 487.427 3112
-633.315 487.427 3112
-631.907 492.125 3142
-624.393 492.125 3142
-616.88 492.125 3142
-609.366 492.125 3142
-601.853 492.125 3142
-594.339 492.125 3142
-589.067 494.005 3154
-588.163 499.644 3190
-586.176 504.499 3221
-578.474 504.499 3221
-575.201 508.415 3246
-569.537 510.294 3258
-561.746 510.294 3258
-553.955 510.294 3258
-546.164 510.294 3258
-536.39 508.415 3246
-533.84 513.427 3278
-526.001 513.427 3278
-518.162 513.427 3278
-544.418 547.728 3497
-540.654 552.427 3527
-532.22 552.427 3527
-527.053 555.873 3549
-520.904 558.379 3565
-520.14 566.837 3619
-511.486 566.837 3619
-503.944 568.09 3627
-496.363 569.343 3635
-487.67 569.343 3635
-478.978 569.343 3635
-470.285 569.343 3635
-462.482 570.44 3642
-455.766 572.946 3658
-447.019 572.946 3658
-439.35 574.355 3667
-435.278 580.62 3707
-428.369 583.283 3724
-419.464 583.283 3724
-412.322 585.789 3740
-404.35 587.199 3749
-397.177 589.861 3766
-388.172 589.861 3766
-379.972 591.114 3774
-374.387 596.596 3809
-366.909 599.259 3826
-357.76 599.259 3826
-348.611 599.259 3826
-341.058 602.078 3844
-331.866 602.078 3844
-322.674 602.078 3844
-313.482 602.078 3844
-305.002 603.488 3853
-295.788 603.488 3853
-286.575 603.488 3853
-276.713 602.078 3844
-267.521 602.078 3844
-258.329 602.078 3844
-247.97 599.259 3826
-238.322 598.006 3818
-226.55 591.114 3774
-216.085 587.199 3749
-207.12 587.199 3749
-195.935 580.62 3707
-187.07 580.62 3707
-176.283 574.355 3667
-167.514 574.355 3667
-97.4461 352.57 2251
-92.0632 352.57 2251
-86.6804 352.57 2251
-81.2976 352.57 2251
-75.8136 352.1 2248
-70.1559 350.69 2239
-64.8018 350.69 2239
-59.4477 350.69 2239
-53.5862 347.401 2218
-48.217 346.931 2215
-42.8234 346.148 2210
-37.5386 346.148 2210
-32.1662 345.208 2204
-26.8226 344.269 2198
-21.3997 341.606 2181
-16.1843 341.606 2181
-10.9085 339.726 2169
-5.71647 339.413 2167
-0.533036 338.473 2161
4.63457 338.473 2161
9.75228 336.75 2150
14.8728 336.281 2147
19.9324 335.027 2139
25.0474 335.027 2139
30.1624 335.027 2139
35.2774 335.027 2139
40.3924 335.027 2139
45.4435 334.558 2136
50.5514 334.558 2136
55.6592 334.558 2136
60.767 334.558 2136
65.8748 334.558 2136
70.9827 334.558 2136
76.0905 334.558 2136
81.1983 334.558 2136
86.3061 334.558 2136
91.414 334.558 2136
96.5218 334.558 2136
101.772 335.027 2139
106.887 335.027 2139
112.578 336.75 2150
117.72 336.75 2150
123.49 338.473 2161
129.133 339.726 2169
134.506 340.196 2172
139.7 340.196 2172
144.894 340.196 2172
481.89 464.872 2968
490.8 466.595 2979
499.762 468.318 2990
506.912 468.318 2990
516.813 470.824 3006
524.001 470.824 3006
532.073 471.607 3011
539.273 471.607 3011
546.474 471.607 3011
551.651 469.884 3000
558.825 469.884 3000
564.112 468.318 2990
570.116 467.378 2984
577.251 467.378 2984
584.387 467.378 2984
591.523 467.378 2984
598.658 467.378 2984
605.794 467.378 2984
612.93 467.378 2984
620.065 467.378 2984
626.15 466.595 2979
633.274 466.595 2979
640.397 466.595 2979
646.434 465.812 2974
651.129 464.089 2963
654.66 461.583 2947
661.707 461.583 2947
667.62 460.8 2942
673.508 460.017 2937
680.531 460.017 2937
686.384 459.234 2932
693.396 459.234 2932
700.407 459.234 2932
709.831 460.8 2942
716.866 460.8 2942
723.901 460.8 2942
728.452 459.234 2932
735.463 459.234 2932
742.475 459.234 2932
749.486 459.234 2932
756.497 459.234 2932
762.207 458.45 2927
767.892 457.667 2922
776.205 458.45 2927
783.205 458.45 2927
791.554 459.234 2932
801.289 460.8 2942
809.698 461.583 2947
818.408 462.523 2953
825.469 462.523 2953
835.35 464.089 2963
846.985 466.595 2979
854.108 466.595 2979
861.232 466.595 2979
866.898 465.812 2974
874.01 465.812 2974
881.122 465.812 2974
888.233 465.812 2974
900.162 468.318 2990
913.684 471.607 3011
927.613 475.053 3033
934.866 475.053 3033
948.952 478.499 3055
991.002 495.885 3166
1006.14 499.644 3190
1013.77 499.644 3190
1027.16 502.463 3208
1040.96 505.439 3227
1062.98 512.331 3271
1070.8 512.331 3271
1091.48 518.439 3310
1108.37 522.668 3337
1157.83 542.09 3461
1166.1 542.09 3461
1186.6 547.728 3497
1202.82 551.331 3520
1211.24 551.331 3520
1219.65 551.331 3520
1230.51 552.427 3527
1238.95 552.427 3527
1247.38 552.427 3527
1255.81 552.427 3527
1261.74 551.331 3520
1270.16 551.331 3520
1278.57 551.331 3520
1286.99 551.331 3520
1300.56 553.524 3534
1314.57 555.873 3549
1326.04 557.126 3557
1334.54 557.126 3557
1346.07 558.379 3565
1357.25 559.476 3572
1365.8 559.476 3572
1374.34 559.476 3572
1380.17 558.379 3565
1382.46 555.873 3549
1390.95 555.873 3549
1388 551.331 3520
1384.52 546.632 3490
1378.49 540.993 3454
1372.7 535.511 3419
1380.88 535.511 3419
1363.86 525.801 3357
1363.72 522.668 3337
1365.94 520.475 3323
1373.89 520.475 3323
1373.52 517.343 3303
1375.98 515.306 3290
1375.86 512.331 3271
1375.64 509.355 3252
1383.42 509.355 3252
1388.63 508.415 3246
1398.97 509.355 3252
1409.34 510.294 3258
1417.13 510.294 3258
1424.92 510.294 3258
1435.79 511.391 3265
1446.25 512.331 3271
1457.19 513.427 3278
1465.03 513.427 3278
1472.87 513.427 3278
1480.7 513.427 3278
1488.54 513.427 3278
1496.38 513.427 3278
1504.22 513.427 3278
1506.06 511.391 3265
1513.87 511.391 3265
1512.82 508.415 3246
1520.58 508.415 3246
1522.23 506.379 3233
1518.13 502.463 3208
1525.8 502.463 3208
1527.73 500.583 3196
1523.85 496.824 3172
1511.15 490.246 3130
1518.64 490.246 3130
1506.13 483.824 3089
1494.41 477.716 3050
1472.16 468.318 2990
1465.95 464.089 2963
1473.04 464.089 2963
1451.65 455.161 2906
1451.07 452.812 2891
1450.42 450.462 2876
1457.3 450.462 2876
1461.63 449.679 2871
1465.94 448.896 2866
1470.73 448.27 2862
1477.58 448.27 2862
1484.42 448.27 2862
1488.66 447.486 2857
1492.88 446.703 2852
1497.07 445.92 2847
1503.87 445.92 2847
1510.68 445.92 2847
1517.49 445.92 2847
1521.62 445.137 2842
1528.42 445.137 2842
1532.51 444.354 2837
1536.58 443.571 2832
1541.18 442.944 2828
1547.94 442.944 2828
1551.95 442.161 2823
1555.94 441.378 2818
1554.92 439.185 2804
1561.62 439.185 2804
1565.53 438.402 2799
1569.42 437.619 2794
1576.1 437.619 2794
1585.61 438.402 2799
1595.15 439.185 2804
1601.85 439.185 2804
1608.56 439.185 2804
1618.15 439.968 2809
1624.86 439.968 2809
1631.58 439.968 2809
1638.3 439.968 2809
1645.01 439.968 2809
1654.08 440.595 2813
1660.81 440.595 2813
1667.54 440.595 2813
1674.26 440.595 2813
1680.99 440.595 2813
1690.72 441.378 2818
1697.46 441.378 2818
1707.22 442.161 2823
1713.97 442.161 2823
1720.72 442.161 2823
1727.47 442.161 2823
1734.22 442.161 2823
1737.89 441.378 2818
1744.63 441.378 2818
1748.26 440.595 2813
1754.98 440.595 2813
1761.71 440.595 2813
1768.44 440.595 2813
1772.64 439.968 2809
1776.19 439.185 2804
1782.9 439.185 2804
1789.6 439.185 2804
1793.1 438.402 2799
1799.8 438.402 2799
1803.26 437.619 2794
1807.35 436.992 2790
1814.02 436.992 2790
1820.7 436.992 2790
1824.09 436.209 2785
1827.47 435.426 2780
1834.11 435.426 2780
1838.11 434.8 2776
1841.43 434.016 2771
1848.05 434.016 2771
1854.68 434.016 2771
1861.31 434.016 2771
1867.93 434.016 2771
1871.85 433.39 2767
1878.47 433.39 2767
1885.09 433.39 2767
1884.87 431.824 2757
1891.46 431.824 2757
1898.05 431.824 2757
1904.65 431.824 2757
1911.24 431.824 2757
1915.05 431.197 2753
1921.63 431.197 2753
1928.22 431.197 2753
1934.8 431.197 2753
1937.86 430.414 2748
1944.43 430.414 2748
1957.39 431.824 2757
1963.98 431.824 2757
1970.57 431.824 2757
1977.17 431.824 2757
1983.76 431.824 2757
1990.35 431.824 2757
1990.43 430.414 2748
1990.46 429.004 2739
1997.01 429.004 2739
2007.21 429.788 2744
2013.78 429.788 2744
2020.34 429.788 2744
2026.9 429.788 2744
2033.46 429.788 2744
2040.02 429.788 2744
2046.58 429.788 2744
2053.15 429.788 2744
2059.71 429.788 2744
2052.72 426.968 2726
2035.82 422.113 2695
2032.41 420.077 2682
2031.98 418.667 2673
2038.37 418.667 2673
2044.77 418.667 2673
-2149.59 456.557 2871
-2142.72 456.557 2871
-2132.14 455.762 2866
-2118.61 454.33 2857
-2111.78 454.33 2857
-2104.95 454.33 2857
-2098.11 454.33 2857
-2091.28 454.33 2857
-2084.45 454.33 2857
-2066.71 451.945 2842
-2059.91 451.945 2842
-2053.12 451.945 2842
-2042.72 451.15 2837
-2025.89 448.924 2823
-2022.72 449.719 2828
-2015.95 449.719 2828
-2029.79 454.33 2857
-2029.34 455.762 2866
-2022.48 455.762 2866
-2015.63 455.762 2866
-2008.78 455.762 2866
-1999.13 455.126 2862
-1992.28 455.126 2862
-1971.57 451.945 2842
-1964.77 451.945 2842
-1964.86 453.535 2852
-1958.04 453.535 2852
-1951.22 453.535 2852
-1940.99 452.74 2847
-1934.19 452.74 2847
-1927.38 452.74 2847
-1920.57 452.74 2847
-1910.4 451.945 2842
-1903.6 451.945 2842
-1900.15 452.74 2847
-1893.34 452.74 2847
-1896.47 455.126 2862
-1889.62 455.126 2862
-1882.78 455.126 2862
-1875.94 455.126 2862
-1869.09 455.126 2862
-1862.25 455.126 2862
-1870.96 458.942 2886
-1864.06 458.942 2886
-1860.38 459.737 2891
-1856.67 460.532 2896
-1866.35 464.667 2922
-1859.37 464.667 2922
-1855.55 465.462 2927
-1871.28 471.187 2963
-1867.34 471.982 2968
-1860.25 471.982 2968
-1853.15 471.982 2968
-1849.78 472.936 2974
-1848.87 474.526 2984
-1841.73 474.526 2984
-1875.18 485.022 3050
-1885.03 489.475 3078
-1902.07 495.836 3118
-1894.61 495.836 3118
-1890.79 496.79 3124
-1883.32 496.79 3124
-1875.85 496.79 3124
-1868.38 496.79 3124
-1868.06 498.698 3136
-1899.71 509.194 3202
-1892.06 509.194 3202
-1895.58 512.215 3221
-1906.05 517.145 3252
-1932.13 526.368 3310
-1924.21 526.368 3310
-1935.4 531.616 3343
-1967.19 542.589 3412
-1971.09 545.928 3433
-1962.88 545.928 3433
-1970.61 550.381 3461
-1978.78 554.992 3490
-1974.39 556.106 3497
-1966.02 556.106 3497
-1957.66 556.106 3497
-1953.76 557.378 3505
-1949.26 558.491 3512
-1940.86 558.491 3512
-1936.87 559.763 3520
-1932.28 560.876 3527
-1923.85 560.876 3527
-1915.42 560.876 3527
-1910.77 561.989 3534
-1906.62 563.262 3542
-1906.19 565.647 3557
-1897.69 565.647 3557
-1893.43 566.919 3565
-1884.9 566.919 3565
-1876.38 566.919 3565
-1867.85 566.919 3565
-1859.33 566.919 3565
-1858.59 569.305 3580
-1854.16 570.577 3588
-1845.58 570.577 3588
-1840.59 571.69 3595
-1836.07 572.962 3603
-1827.45 572.962 3603
-1818.84 572.962 3603
-1818.26 575.506 3619
-1813.61 576.779 3627
-1804.93 576.779 3627
-1796.26 576.779 3627
-1791.53 578.051 3635
-1794.12 581.708 3658
-1793.67 584.412 3675
-1784.88 584.412 3675
-1779.96 585.684 3683
-1771.15 585.684 3683
-1773.83 589.501 3707
-1764.96 589.501 3707
-1779.78 597.452 3757
-1778.81 600.155 3774
-1778.23 603.018 3792
-1769.16 603.018 3792
-1796.76 615.58 3871
-1791.66 617.012 3880
-1794.79 621.305 3907
-1785.44 621.305 3907
-1780.19 622.736 3916
-1779.42 625.758 3935
-1778.11 628.62 3953
-1768.65 628.62 3953
-1759.2 628.62 3953
-1749.75 628.62 3953
-1740.29 628.62 3953
-1706.76 619.874 3898
-1673.92 611.287 3844
-1627.05 597.452 3757
-1579.31 583.14 3667
-1570.54 583.14 3667
-1544.73 576.779 3627
-1529.28 574.234 3611
-1504.23 568.032 3572
-1495.68 568.032 3572
-1468.41 560.876 3527
-1457.08 559.763 3520
-1439.19 556.106 3497
-1430.83 556.106 3497
-1404.98 549.268 3454
-1382.56 543.702 3419
-1360.32 538.136 3384
-1352.23 538.136 3384
-1325.47 530.662 3337
-1309.59 527.481 3317
-1286.35 521.279 3278
-1275.79 520.166 3271
-1267.96 520.166 3271
-1255.13 518.099 3258
-1247.34 518.099 3258
-1237.27 517.145 3252
-1229.49 517.145 3252
-1210.07 512.215 3221
-1193.03 508.239 3196
-1178.72 505.377 3178
-1171.12 505.377 3178
-1150.34 499.652 3142
-1136.28 496.79 3124
-1124.47 494.881 3112
-1117.03 494.881 3112
-1095.32 488.521 3072
-1080.19 485.022 3050
-1070.78 484.068 3044
-1055.82 480.569 3022
-1048.59 480.569 3022
-1041.36 480.569 3022
-1034.14 480.569 3022
-1012.3 473.731 2979
-1005.18 473.731 2979
-980.63 465.462 2927
-966.645 462.123 2906
-959.696 462.123 2906
-952.747 462.123 2906
-945.798 462.123 2906
-929.157 457.352 2876
-902.094 464.667 2922
-895.106 464.667 2922
-889.639 465.462 2927
-882.639 465.462 2927
-875.64 465.462 2927
-865.673 463.872 2917
-866.057 467.847 2942
-879.169 478.82 3011
-871.969 478.82 3011
-864.768 478.82 3011
-857.568 478.82 3011
-842.743 474.526 2984
-835.607 474.526 2984
-825.695 472.936 2974
-818.583 472.936 2974
-807.106 470.392 2958
-791.648 465.462 2927
-785.989 466.257 2932
-778.978 466.257 2932
-774.599 467.847 2942
-767.564 467.847 2942
-760.529 467.847 2942
-753.494 467.847 2942
-745.19 467.052 2937
-734.396 464.667 2922
-727.409 464.667 2922
-719.189 463.872 2917
-712.214 463.872 2917
-705.238 463.872 2917
-698.263 463.872 2917
-687.495 461.327 2901
-674.693 457.352 2876
-667.816 457.352 2876
-660.939 457.352 2876
-665.636 470.392 2958
-660.789 471.982 2968
-653.692 471.982 2968
-646.594 471.982 2968
-645.315 476.276 2995
-645.184 481.523 3028
-646.16 487.725 3067
-638.826 487.725 3067
-640.757 494.881 3112
-633.315 494.881 3112
-631.907 499.652 3142
-624.393 499.652 3142
-616.88 499.652 3142
-609.366 499.652 3142
-601.853 499.652 3142
-594.339 499.652 3142
-589.067 501.56 3154
-588.163 507.285 3190
-586.176 512.215 3221
-578.474 512.215 3221
-575.201 516.191 3246
-569.537 518.099 3258
-561.746 518.099 3258
-553.955 518.099 3258
-546.164 518.099 3258
-536.39 516.191 3246
-533.84 521.279 3278
-526.001 521.279 3278
-518.162 521.279 3278
-544.418 556.106 3497
-540.654 560.876 3527
-532.22 560.876 3527
-527.053 564.375 3549
-520.904 566.919 3565
-520.14 575.506 3619
-511.486 575.506 3619
-503.944 576.779 3627
-495.27 576.779 3627
-486.597 576.779 3627
-477.924 576.779 3627
-469.25 576.779 3627
-462.482 579.164 3642
-453.773 579.164 3642
-445.064 579.164 3642
-438.272 581.708 3658
-433.399 586.956 3691
-426.413 589.501 3707
-417.549 589.501 3707
-410.558 592.204 3724
-402.516 593.476 3732
-395.385 596.18 3749
-386.42 596.18 3749
-378.26 597.452 3757
-371.831 601.586 3783
-365.278 605.721 3809
-356.17 605.721 3809
-347.882 607.152 3818
-338.752 607.152 3818
-329.622 607.152 3818
-320.492 607.152 3818
-311.362 607.152 3818
-302.232 607.152 3818
-293.102 607.152 3818
-283.972 607.152 3818
-275.418 608.424 3826
-266.268 608.424 3826
-257.119 608.424 3826
-247.452 607.152 3818
-236.699 603.018 3792
-225.53 597.452 3757
-214.644 592.204 3724
-205.738 592.204 3724
-195.512 588.228 3699
-185.052 583.14 3667
-97.4461 357.962 2251
-92.0632 357.962 2251
-86.6804 357.962 2251
-81.2976 357.962 2251
-75.8136 357.485 2248
-70.1559 356.054 2239
-64.8018 356.054 2239
-59.4477 356.054 2239
-53.5862 352.714 2218
-48.217 352.237 2215
-42.8234 351.442 2210
-37.5386 351.442 2210
-32.1662 350.488 2204
-26.8226 349.534 2198
-21.3997 346.831 2181
-16.1843 346.831 2181
-10.9085 344.922 2169
-5.71647 344.604 2167
-0.533036 343.65 2161
4.63457 343.65 2161
9.75228 341.901 2150
14.8728 341.424 2147
19.9324 340.151 2139
25.0474 340.151 2139
30.1624 340.151 2139
35.2774 340.151 2139
40.3924 340.151 2139
45.4435 339.674 2136
50.5514 339.674 2136
55.6592 339.674 2136
60.767 339.674 2136
65.8748 339.674 2136
70.9827 339.674 2136
76.0905 339.674 2136
81.1983 339.674 2136
86.3061 339.674 2136
91.414 339.674 2136
96.5218 339.674 2136
101.772 340.151 2139
106.887 340.151 2139
112.578 341.901 2150
117.72 341.901 2150
123.49 343.65 2161
129.133 344.922 2169
134.506 345.399 2172
139.7 345.399 2172
144.894 345.399 2172
488.988 471.982 2968
499.762 475.481 2990
506.912 475.481 2990
516.813 478.025 3006
524.001 478.025 3006
531.19 478.025 3006
538.378 478.025 3006
545.566 478.025 3006
551.651 477.071 3000
558.825 477.071 3000
564.112 475.481 2990
570.116 474.526 2984
577.251 474.526 2984
585.562 475.481 2990
592.712 475.481 2990
599.862 475.481 2990
605.794 474.526 2984
612.93 474.526 2984
620.065 474.526 2984
627.201 474.526 2984
634.337 474.526 2984
641.472 474.526 2984
647.521 473.731 2979
651.129 471.187 2963
654.66 468.643 2947
661.707 468.643 2947
667.62 467.847 2942
673.508 467.052 2937
680.531 467.052 2937
686.384 466.257 2932
693.396 466.257 2932
700.407 466.257 2932
709.831 467.847 2942
716.866 467.847 2942
723.901 467.847 2942
729.694 467.052 2937
736.718 467.052 2937
743.741 467.052 2937
750.764 467.052 2937
757.787 467.052 2937
764.811 467.052 2937
770.52 466.257 2932
777.531 466.257 2932
784.542 466.257 2932
794.253 467.847 2942
804.285 469.597 2953
812.72 470.392 2958
821.179 471.187 2963
828.265 471.187 2963
841.27 474.526 2984
851.534 476.276 2995
858.696 476.276 2995
865.858 476.276 2995
873.019 476.276 2995
880.181 476.276 2995
890.602 478.025 3006
897.791 478.025 3006
908.291 479.774 3017
927.036 485.817 3055
934.342 485.817 3055
941.647 485.817 3055
963.241 493.132 3101
1002.27 509.194 3202
1015.92 512.215 3221
1023.62 512.215 3221
1035.17 514.123 3233
1053.22 519.212 3265
1075.65 526.368 3310
1083.57 526.368 3310
1100.39 530.662 3337
1108.37 530.662 3337
1167.53 554.992 3490
1175.88 554.992 3490
1194.4 559.763 3520
1212.73 564.375 3549
1221.21 564.375 3549
1229.7 564.375 3549
1238.19 564.375 3549
1246.67 564.375 3549
1255.16 564.375 3549
1258.31 561.989 3534
1266.76 561.989 3534
1270.16 559.763 3520
1283.66 561.989 3534
1292.11 561.989 3534
1303.51 563.262 3542
1317.53 565.647 3557
1329.02 566.919 3565
1337.54 566.919 3565
1348.71 568.032 3572
1360.29 569.305 3580
1368.86 569.305 3580
1377.42 569.305 3580
1380.17 566.919 3565
1382.46 564.375 3549
1390.95 564.375 3549
1393.52 561.989 3534
1387.29 556.106 3497
1387.27 552.766 3476
1381.13 547.041 3440
1389.36 547.041 3440
1374.83 538.136 3384
1371.89 533.842 3357
1365.94 528.435 3323
1373.89 528.435 3323
1373.52 525.255 3303
1375.98 523.188 3290
1378.8 521.279 3278
1378.18 518.099 3258
1385.97 518.099 3258
1388.63 516.191 3246
1398.97 517.145 3252
1409.34 518.099 3258
1417.13 518.099 3258
1424.92 518.099 3258
1435.79 519.212 3265
1446.25 520.166 3271
1457.19 521.279 3278
1465.03 521.279 3278
1472.87 521.279 3278
1480.7 521.279 3278
1488.54 521.279 3278
1496.38 521.279 3278
1504.22 521.279 3278
1506.06 519.212 3265
1513.87 519.212 3265
1512.82 516.191 3246
1520.58 516.191 3246
1522.23 514.123 3233
1518.13 510.148 3208
1525.8 510.148 3208
1527.73 508.239 3196
1523.85 504.423 3172
1511.15 497.744 3130
1518.64 497.744 3130
1506.13 491.224 3089
1494.41 485.022 3050
1474.62 476.276 2995
1465.95 471.187 2963
1473.04 471.187 2963
1451.65 462.123 2906
1451.07 459.737 2891
1450.42 457.352 2876
1457.3 457.352 2876
1461.63 456.557 2871
1465.94 455.762 2866
1470.73 455.126 2862
1477.58 455.126 2862
1484.42 455.126 2862
1488.66 454.33 2857
1492.88 453.535 2852
1497.07 452.74 2847
1503.87 452.74 2847
1510.68 452.74 2847
1517.49 452.74 2847
1521.62 451.945 2842
1528.42 451.945 2842
1532.51 451.15 2837
1536.58 450.355 2832
1541.18 449.719 2828
1547.94 449.719 2828
1551.95 448.924 2823
1555.94 448.129 2818
1554.92 445.902 2804
1561.62 445.902 2804
1568.33 445.902 2804
1572.23 445.107 2799
1576.1 444.312 2794
1585.61 445.107 2799
1595.15 445.902 2804
1601.85 445.902 2804
1611.43 446.697 2809
1618.15 446.697 2809
1627.18 447.333 2813
1633.9 447.333 2813
1640.63 447.333 2813
1647.36 447.333 2813
1654.08 447.333 2813
