1054.01 1110.21 2673
1060.4 1110.21 2673
1060.01 1103.15 2656
1066.36 1103.15 2656
1074.73 1105.23 2661
1082.72 1106.89 2665
1089.1 1106.89 2665
1095.47 1106.89 2665
1101.84 1106.89 2665
1104.47 1103.15 2656
1110.82 1103.15 2656
1115.49 1101.49 2652
1121.83 1101.49 2652
1128.17 1101.49 2652
1134.52 1101.49 2652
1140.86 1101.49 2652
1147.2 1101.49 2652
1155.28 1103.15 2656
1161.63 1103.15 2656
1167.98 1103.15 2656
1174.34 1103.15 2656
1171.35 1094.43 2635
1177.65 1094.43 2635
1180.36 1091.11 2627
1186.64 1091.11 2627
1192.92 1091.11 2627
1195.55 1087.78 2619
1201.82 1087.78 2619
1206.23 1086.12 2615
1210.63 1084.46 2611
1215.01 1082.8 2607
1221.25 1082.8 2607
1225.6 1081.14 2603
1231.82 1081.14 2603
1238.05 1081.14 2603
1244.27 1081.14 2603
1248.57 1079.48 2599
1248.51 1074.08 2586
1254.7 1074.08 2586
1260.88 1074.08 2586
1257.75 1066.19 2567
1261.92 1064.52 2563
1272.01 1067.85 2571
1279.65 1069.09 2574
1285.8 1069.09 2574
1291.96 1069.09 2574
1302.15 1072.42 2582
1312.38 1075.74 2590
1320.61 1077.4 2594
1326.81 1077.4 2594
1333.01 1077.4 2594
1337.15 1075.74 2590
1345.42 1077.4 2594
1351.62 1077.4 2594
1357.83 1077.4 2594
1364.03 1077.4 2594
1372.87 1079.48 2599
1379.09 1079.48 2599
1393.83 1086.12 2615
1404.37 1089.44 2623
1414.94 1092.77 2631
1421.23 1092.77 2631
1427.53 1092.77 2631
1433.82 1092.77 2631
1447.22 1098.17 2644
1460.14 1103.15 2656
1466.5 1103.15 2656
1487.26 1113.95 2682
1493.68 1113.95 2682
1500.09 1113.95 2682
1504.26 1112.29 2678
1505.59 1108.55 2669
1511.97 1108.55 2669
1533.14 1119.35 2695
1539.59 1119.35 2695
1546.03 1119.35 2695
1542.68 1112.29 2678
1549.09 1112.29 2678
1555.49 1112.29 2678
1554.31 1106.89 2665
1560.68 1106.89 2665
1574.7 1112.29 2678
1588.78 1117.69 2691
1595.22 1117.69 2691
1606.41 1121.01 2699
1612.87 1121.01 2699
1619.32 1121.01 2699
1623.36 1119.35 2695
1616.5 1110.21 2673
1628.36 1113.95 2682
1656.11 1128.49 2717
1662.61 1128.49 2717
1671.56 1130.15 2721
1678.07 1130.15 2721
1684.57 1130.15 2721
1688.59 1128.49 2717
1689.48 1124.75 2708
1693.45 1123.09 2704
1699.91 1123.09 2704
1684.29 1108.55 2669
1685.61 1105.23 2661
1675.44 1094.43 2635
1569.55 1002.64 2414
1579.89 1005.55 2421
1585.68 1005.55 2421
1598.7 1010.11 2432
1611.78 1014.68 2443
1624.24 1018.84 2453
1630.11 1018.84 2453
1635.97 1018.84 2453
-1566.19 1005.5 2407
-1560.43 1005.5 2407
-1554.68 1005.5 2407
-1548.92 1005.5 2407
-1543.17 1005.5 2407
-1535.49 1004.24 2404
-1529.75 1004.24 2404
-1524 1004.24 2404
-1518.25 1004.24 2404
-1512.5 1004.24 2404
-1513.02 1008.42 2414
-1507.25 1008.42 2414
-1517.02 1018.86 2439
-1513.67 1020.54 2443
-1507.83 1020.54 2443
-1501.98 1020.54 2443
-1502.27 1024.71 2453
-1496.4 1024.71 2453
-1490.54 1024.71 2453
-1484.67 1024.71 2453
-1478.8 1024.71 2453
-1486.15 1033.9 2475
-1482.62 1035.57 2479
-1476.69 1035.57 2479
-1474.92 1038.5 2486
-1468.97 1038.5 2486
-1463.03 1038.5 2486
-1457.08 1038.5 2486
-1444.72 1033.9 2475
-1434.73 1030.98 2468
-1428.83 1030.98 2468
-1410.24 1021.79 2446
-1396.36 1015.94 2432
-1384.25 1011.35 2421
-1378.46 1011.35 2421
-1367 1007.17 2411
-1355.03 1002.57 2400
-1359.41 1010.09 2418
-1357.54 1013.02 2425
-1361.78 1020.54 2443
-1355.94 1020.54 2443
-1363.91 1030.98 2468
-1358.01 1030.98 2468
-1353.75 1032.23 2471
-1347.84 1032.23 2471
-1341.93 1032.23 2471
-1336.02 1032.23 2471
-1330.11 1032.23 2471
-1324.21 1032.23 2471
-1307.09 1023.46 2450
-1287.96 1013.02 2425
-1295.38 1023.46 2450
-1289.52 1023.46 2450
-1287.33 1026.38 2457
-1283.54 1028.05 2461
-1277.65 1028.05 2461
-1271.77 1028.05 2461
-1260.22 1023.46 2450
-1252.32 1021.79 2446
-1246.47 1021.79 2446
-1233.52 1015.94 2432
-1172.21 998.395 2390
-1166.49 998.395 2390
-1167.58 1004.24 2404
-1184.06 1023.46 2450
-1192.15 1035.57 2479
-1186.22 1035.57 2479
-1188.86 1043.09 2497
-1191.89 1051.03 2516
-1191.53 1056.04 2528
-1185.49 1056.04 2528
-1179.44 1056.04 2528
-1173.4 1056.04 2528
-1170.58 1058.97 2535
-1164.52 1058.97 2535
-1158.46 1058.97 2535
-1147.4 1054.37 2524
-1141.36 1054.37 2524
-1133.53 1052.7 2520
-1134.21 1058.97 2535
-1135.27 1065.65 2551
-1132.71 1068.99 2559
-1126.59 1068.99 2559
-1120.47 1068.99 2559
-1114.35 1068.99 2559
-1108.23 1068.99 2559
-1100.39 1067.32 2555
-1092.57 1065.65 2551
-1084.76 1063.98 2547
-1078.67 1063.98 2547
-1070.9 1062.31 2543
-1061.47 1058.97 2535
-1054.16 1057.71 2532
-1051 1060.64 2539
-1044.93 1060.64 2539
-1040.49 1062.31 2543
-1036.04 1063.98 2547
-1036.42 1070.66 2563
-1030.29 1070.66 2563
-1027.36 1074.01 2571
-1021.21 1074.01 2571
-1015.06 1074.01 2571
-1007.34 1072.33 2567
-996.524 1067.32 2555
-990.414 1067.32 2555
-984.305 1067.32 2555
-973.601 1062.31 2543
-965.998 1060.64 2539
-958.414 1058.97 2535
-956.86 1063.98 2547
-952.263 1065.65 2551
-946.162 1065.65 2551
-940.062 1065.65 2551
-933.962 1065.65 2551
-927.862 1065.65 2551
-921.762 1065.65 2551
-914.226 1063.98 2547
-906.709 1062.31 2543
-900.628 1062.31 2543
-893.14 1060.64 2539
-887.068 1060.64 2539
-880.996 1060.64 2539
-874.925 1060.64 2539
-868.853 1060.64 2539
-862.782 1060.64 2539
-855.361 1058.97 2535
-849.299 1058.97 2535
-840.908 1056.04 2528
-836.184 1057.71 2532
-830.129 1057.71 2532
-824.075 1057.71 2532
-818.02 1057.71 2532
-810.682 1056.04 2528
-798.59 1048.11 2509
-792.59 1048.11 2509
-786.59 1048.11 2509
-782.768 1051.03 2516
-776.752 1051.03 2516
-775.636 1057.71 2532
-769.582 1057.71 2532
-775.287 1074.01 2571
-769.139 1074.01 2571
-762.991 1074.01 2571
-738.399 1074.01 2571
-732.251 1074.01 2571
-726.103 1074.01 2571
-719.955 1074.01 2571
-713.807 1074.01 2571
-707.659 1074.01 2571
-702.329 1075.26 2574
-696.174 1075.26 2574
-691.091 1076.93 2578
-685.989 1078.6 2582
-679.815 1078.6 2582
-673.64 1078.6 2582
-667.466 1078.6 2582
-663.341 1081.94 2590
-657.147 1081.94 2590
-650.954 1081.94 2590
-644.76 1081.94 2590
-638.567 1081.94 2590
-631.397 1080.27 2586
-623.279 1076.93 2578
-615.438 1074.01 2571
-609.29 1074.01 2571
-602.204 1072.33 2567
-604.425 1087.37 2603
-600.039 1090.72 2611
-593.795 1090.72 2611
-587.551 1090.72 2611
-578.636 1085.7 2599
-573.302 1087.37 2603
-569.691 1092.39 2615
-563.438 1092.39 2615
-557.185 1092.39 2615
-550.932 1092.39 2615
-544.678 1092.39 2615
-533.278 1081.94 2590
-526.27 1080.27 2586
-514.656 1068.99 2559
-508.537 1068.99 2559
-500.061 1063.98 2547
-493.971 1063.98 2547
-490.179 1068.99 2559
-486.329 1074.01 2571
-480.181 1074.01 2571
-474.033 1074.01 2571
-467.885 1074.01 2571
-461.737 1074.01 2571
-455.589 1074.01 2571
-448.742 1072.33 2567
-442.603 1072.33 2567
-435.785 1070.66 2563
-429.656 1070.66 2563
-422.866 1068.99 2559
-417.398 1070.66 2563
-411.269 1070.66 2563
-405.14 1070.66 2563
-399.011 1070.66 2563
-393.496 1072.33 2567
-387.961 1074.01 2571
-383.446 1078.6 2582
-377.272 1078.6 2582
-371.098 1078.6 2582
-364.923 1078.6 2582
-358.749 1078.6 2582
-352.575 1078.6 2582
-346.4 1078.6 2582
-341.28 1081.94 2590
-335.087 1081.94 2590
-328.893 1081.94 2590
-322.201 1080.27 2586
-316.017 1080.27 2586
-309.833 1080.27 2586
-303.18 1078.6 2582
-297.005 1078.6 2582
-289.93 1075.26 2574
-283.775 1075.26 2574
-277.62 1075.26 2574
-272.73 1080.27 2586
-267.371 1083.61 2594
-262.074 1087.37 2603
-255.849 1087.37 2603
-250.008 1089.04 2607
-244.896 1094.06 2619
-238.998 1095.73 2623
-233.08 1097.4 2627
-226.798 1097.4 2627
-220.516 1097.4 2627
-214.234 1097.4 2627
-207.952 1097.4 2627
-201.67 1097.4 2627
-195.091 1095.73 2623
-188.243 1092.39 2615
-181.989 1092.39 2615
-174.93 1087.37 2603
-167.863 1081.94 2590
-159.984 1070.66 2563
-153.855 1070.66 2563
-147.726 1070.66 2563
-140.05 1058.97 2535
-126.324 998.395 2390
-117.733 974.584 2333
-112.154 974.584 2333
-105.981 969.153 2320
-100.173 966.647 2314
-94.6399 966.647 2314
-89.1064 966.647 2314
-83.4646 965.394 2311
-77.4998 959.963 2298
-71.9106 958.71 2295
-66.4226 958.71 2295
-60.7487 955.786 2288
-55.2049 954.533 2285
-49.6755 953.279 2282
-44.1022 950.773 2276
-38.6596 950.773 2276
-33.217 950.773 2276
-27.7012 948.267 2270
-22.273 948.267 2270
-16.8447 948.267 2270
-11.4014 947.013 2267
-5.98027 947.013 2267
-0.559182 947.013 2267
4.8619 947.013 2267
10.2694 945.76 2264
15.6833 945.76 2264
21.0972 945.76 2264
26.5111 945.76 2264
31.8263 942.836 2257
37.1245 940.33 2251
42.3374 936.57 2242
47.6987 936.57 2242
53.06 936.57 2242
58.4213 936.57 2242
63.868 937.823 2245
69.2364 937.823 2245
74.7046 939.076 2248
80.0802 939.076 2248
85.4559 939.076 2248
90.8315 939.076 2248
96.3356 940.33 2251
101.718 940.33 2251
107.101 940.33 2251
112.634 941.583 2254
118.024 941.583 2254
123.414 941.583 2254
128.975 942.836 2257
134.611 944.507 2261
140.203 945.76 2264
145.617 945.76 2264
152.032 952.026 2279
157.896 954.533 2285
163.575 955.786 2288
169.046 955.786 2288
174.517 955.786 2288
180.303 957.457 2292
186.27 959.963 2298
191.766 959.963 2298
197.776 962.47 2304
204.697 969.153 2320
214.414 988.369 2366
220.072 988.369 2366
227.733 997.142 2387
234.419 1001.32 2397
241.553 1007.17 2411
247.319 1007.17 2411
254.869 1014.27 2428
263.788 1026.38 2457
272.078 1035.57 2479
278.006 1035.57 2479
284.393 1037.24 2483
293.721 1049.36 2512
300.683 1052.7 2520
306.709 1052.7 2520
315.589 1062.31 2543
323.694 1068.99 2559
332.262 1076.93 2578
338.427 1076.93 2578
345.661 1080.27 2586
354.158 1087.37 2603
360.936 1089.04 2607
367.17 1089.04 2607
378.131 1102.83 2640
386.192 1107.84 2652
393.866 1111.6 2661
400.229 1111.6 2661
406.592 1111.6 2661
415.594 1118.7 2678
423.258 1122.05 2686
429.681 1122.05 2686
436.104 1122.05 2686
441.209 1118.7 2678
447.613 1118.7 2678
449.609 1107.84 2652
455.951 1107.84 2652
463.861 1111.6 2661
470.932 1113.27 2665
477.304 1113.27 2665
483.677 1113.27 2665
490.05 1113.27 2665
496.423 1113.27 2665
502.041 1111.6 2661
506.685 1107.84 2652
511.479 1104.5 2644
507.226 1081.94 2590
513.42 1081.94 2590
518.811 1080.27 2586
526.619 1083.61 2594
532.822 1083.61 2594
539.025 1083.61 2594
544.387 1081.94 2590
548.88 1078.6 2582
554.194 1076.93 2578
560.359 1076.93 2578
566.524 1076.93 2578
572.689 1076.93 2578
578.853 1076.93 2578
585.018 1076.93 2578
590.266 1075.26 2574
595.726 1074.01 2571
598.128 1067.32 2555
604.238 1067.32 2555
611.303 1068.99 2559
617.423 1068.99 2559
624.517 1070.66 2563
631.63 1072.33 2567
638.762 1074.01 2571
644.91 1074.01 2571
651.818 1075.26 2574
657.973 1075.26 2574
664.128 1075.26 2574
670.283 1075.26 2574
676.439 1075.26 2574
683.655 1076.93 2578
689.819 1076.93 2578
695.984 1076.93 2578
706.507 1083.61 2594
712.71 1083.61 2594
720.299 1085.7 2599
726.514 1085.7 2599
732.729 1085.7 2599
784.719 1080.27 2586
790.903 1080.27 2586
797.086 1080.27 2586
802.028 1078.6 2582
806.95 1076.93 2578
811.853 1075.26 2574
818.009 1075.26 2574
824.164 1075.26 2574
830.319 1075.26 2574
836.474 1075.26 2574
842.629 1075.26 2574
846.476 1072.33 2567
851.286 1070.66 2563
860.091 1074.01 2571
866.24 1074.01 2571
872.388 1074.01 2571
878.536 1074.01 2571
885.716 1075.26 2574
891.871 1075.26 2574
898.026 1075.26 2574
904.182 1075.26 2574
911.751 1076.93 2578
920.765 1080.27 2586
926.949 1080.27 2586
933.133 1080.27 2586
940.769 1081.94 2590
951.716 1087.37 2603
959.413 1089.04 2607
965.647 1089.04 2607
973.372 1090.72 2611
981.116 1092.39 2615
987.37 1092.39 2615
993.623 1092.39 2615
1004.46 1097.4 2627
1013.82 1100.74 2635
1031.74 1113.27 2665
1038.11 1113.27 2665
1047.62 1116.62 2673
1054.01 1116.62 2673
1060.4 1116.62 2673
1060.01 1109.51 2656
1066.36 1109.51 2656
1074.73 1111.6 2661
1082.72 1113.27 2665
1089.1 1113.27 2665
1095.47 1113.27 2665
1101.84 1113.27 2665
1104.47 1109.51 2656
1110.82 1109.51 2656
1115.49 1107.84 2652
1121.83 1107.84 2652
1128.17 1107.84 2652
1138.37 1111.6 2661
1144.73 1111.6 2661
1154.55 1114.94 2669
1160.94 1114.94 2669
1167.32 1114.94 2669
1173.7 1114.94 2669
1176.55 1111.6 2661
1171.35 1100.74 2635
1177.65 1100.74 2635
1182.16 1099.07 2631
1186.64 1097.4 2627
1192.92 1097.4 2627
1195.55 1094.06 2619
1201.82 1094.06 2619
1206.23 1092.39 2615
1210.63 1090.72 2611
1215.01 1089.04 2607
1221.25 1089.04 2607
1225.6 1087.37 2603
1231.82 1087.37 2603
1238.05 1087.37 2603
1244.27 1087.37 2603
1248.57 1085.7 2599
1248.51 1080.27 2586
1250.81 1076.93 2578
1256.98 1076.93 2578
1253.83 1068.99 2559
1259.95 1068.99 2559
1272.01 1074.01 2571
1279.65 1075.26 2574
1285.8 1075.26 2574
1291.96 1075.26 2574
1298.12 1075.26 2574
1308.32 1078.6 2582
1314.5 1078.6 2582
1320.67 1078.6 2582
1326.85 1078.6 2582
1330.96 1076.93 2578
1339.2 1078.6 2582
1345.37 1078.6 2582
1353.64 1080.27 2586
1359.82 1080.27 2586
1370.23 1083.61 2594
1379.09 1085.7 2599
1385.3 1085.7 2599
1393.66 1087.37 2603
1406.34 1092.39 2615
1412.59 1092.39 2615
1418.84 1092.39 2615
1425.1 1092.39 2615
1433.54 1094.06 2619
1446.4 1099.07 2631
1452.69 1099.07 2631
1461.2 1100.74 2635
1467.5 1100.74 2635
1473.8 1100.74 2635
1477.86 1099.07 2631
1498.25 1109.51 2656
1507.44 1111.6 2661
1516.07 1113.27 2665
1522.45 1113.27 2665
1528.82 1113.27 2665
1535.19 1113.27 2665
1541.57 1113.27 2665
1540.39 1107.84 2652
1527.48 1094.06 2619
1536.09 1095.73 2623
1547.06 1099.07 2631
1561.03 1104.5 2644
1567.35 1104.5 2644
1576.06 1106.17 2648
1592.55 1113.27 2665
1598.92 1113.27 2665
1605.29 1113.27 2665
1611.67 1113.27 2665
1622.9 1116.62 2673
1634.77 1120.37 2682
1641.19 1120.37 2682
1647.6 1120.37 2682
1662.03 1125.81 2695
1668.48 1125.81 2695
1674.92 1125.81 2695
1681.37 1125.81 2695
1679.67 1120.37 2682
1686.08 1120.37 2682
1679.24 1111.6 2661
1669.14 1100.74 2635
1665.26 1094.06 2619
1658.76 1085.7 2599
1664.98 1085.7 2599
1563.78 1008.42 2414
1581.26 1015.94 2432
1587.07 1015.94 2432
1592.89 1015.94 2432
1615.14 1026.38 2457
1621.01 1026.38 2457
1626.89 1026.38 2457
1632.76 1026.38 2457
1638.64 1026.38 2457
1641.84 1024.71 2453
1647.7 1024.71 2453
-1566.19 1011.26 2407
-1560.43 1011.26 2407
-1554.68 1011.26 2407
-1548.92 1011.26 2407
-1543.17 1011.26 2407
-1535.49 1010 2404
-1529.75 1010 2404
-1524 1010 2404
-1518.25 1010 2404
-1512.5 1010 2404
-1517.41 1017.14 2421
-1511.62 1017.14 2421
-1517.02 1024.71 2439
-1518.01 1029.33 2450
-1514 1030.59 2453
-1508.13 1030.59 2453
-1518.19 1041.51 2479
-1512.26 1041.51 2479
-1506.33 1041.51 2479
-1500.41 1041.51 2479
-1483.63 1033.95 2461
-1486.15 1039.83 2475
-1482.62 1041.51 2479
-1476.69 1041.51 2479
-1474.92 1044.45 2486
-1468.97 1044.45 2486
-1463.03 1044.45 2486
-1457.08 1044.45 2486
-1444.72 1039.83 2475
-1434.73 1036.89 2468
-1428.83 1036.89 2468
-1410.24 1027.65 2446
-1396.36 1021.77 2432
-1384.25 1017.14 2421
-1378.46 1017.14 2421
-1367 1012.94 2411
-1357.28 1010 2404
-1359.41 1015.88 2418
-1357.54 1018.83 2425
-1361.78 1026.39 2443
-1355.94 1026.39 2443
-1363.91 1036.89 2468
-1358.01 1036.89 2468
-1353.75 1038.15 2471
-1347.84 1038.15 2471
-1341.93 1038.15 2471
-1336.02 1038.15 2471
-1330.11 1038.15 2471
-1324.21 1038.15 2471
-1312.96 1033.95 2461
-1307.08 1033.95 2461
-1308.59 1039.83 2475
-1302.68 1039.83 2475
-1296.76 1039.83 2475
-1290.84 1039.83 2475
-1284.92 1039.83 2475
-1276.93 1038.15 2471
-1261.77 1030.59 2453
-1252.32 1027.65 2446
-1246.47 1027.65 2446
-1239.1 1026.39 2443
-1172.21 1004.12 2390
-1166.49 1004.12 2390
-1167.58 1010 2404
-1184.06 1029.33 2450
-1192.15 1041.51 2479
-1186.22 1041.51 2479
-1188.86 1049.07 2497
-1191.89 1057.06 2516
-1191.53 1062.1 2528
-1185.49 1062.1 2528
-1179.44 1062.1 2528
-1173.4 1062.1 2528
-1170.58 1065.04 2535
-1164.52 1065.04 2535
-1158.46 1065.04 2535
-1147.4 1060.42 2524
-1141.36 1060.42 2524
-1133.53 1058.74 2520
-1134.21 1065.04 2535
-1135.27 1071.76 2551
-1132.71 1075.12 2559
-1126.59 1075.12 2559
-1120.47 1075.12 2559
-1114.35 1075.12 2559
-1108.23 1075.12 2559
-1100.39 1073.44 2555
-1092.57 1071.76 2551
-1084.76 1070.08 2547
-1078.67 1070.08 2547
-1070.9 1068.4 2543
-1061.47 1065.04 2535
-1054.16 1063.78 2532
-1051 1066.72 2539
-1044.93 1066.72 2539
-1040.49 1068.4 2543
-1036.04 1070.08 2547
-1036.42 1076.8 2563
-1030.29 1076.8 2563
-1027.36 1080.16 2571
-1021.21 1080.16 2571
-1015.06 1080.16 2571
-1007.34 1078.48 2567
-996.524 1073.44 2555
-990.414 1073.44 2555
-984.305 1073.44 2555
-973.601 1068.4 2543
-964.476 1065.04 2535
-958.414 1065.04 2535
-953.855 1066.72 2539
-950.769 1070.08 2547
-944.679 1070.08 2547
-938.588 1070.08 2547
-932.498 1070.08 2547
-926.407 1070.08 2547
-920.316 1070.08 2547
-911.354 1066.72 2539
-903.856 1065.04 2535
-897.794 1065.04 2535
-891.732 1065.04 2535
-884.622 1063.78 2532
-878.568 1063.78 2532
-872.513 1063.78 2532
-866.458 1063.78 2532
-859.044 1062.1 2528
-852.999 1062.1 2528
-846.954 1062.1 2528
-839.578 1060.42 2524
-834.863 1062.1 2528
-828.818 1062.1 2528
-822.773 1062.1 2528
-816.727 1062.1 2528
-804.589 1054.12 2509
-796.043 1050.76 2501
-790.063 1050.76 2501
-784.082 1050.76 2501
-779.346 1052.44 2505
-773.356 1052.44 2505
-767.365 1052.44 2505
-761.375 1052.44 2505
-755.385 1052.44 2505
-749.395 1052.44 2505
-743.404 1052.44 2505
-736.237 1050.76 2501
-730.256 1050.76 2501
-729.778 1058.74 2520
-737.25 1078.48 2567
-731.112 1078.48 2567
-724.973 1078.48 2567
-718.835 1078.48 2567
-712.696 1078.48 2567
-706.558 1078.48 2567
-700.419 1078.48 2567
-694.281 1078.48 2567
-690.019 1081.43 2574
-683.864 1081.43 2574
-677.708 1081.43 2574
-671.553 1081.43 2574
-665.398 1081.43 2574
-659.243 1081.43 2574
-653.088 1081.43 2574
-647.938 1083.11 2578
-641.773 1083.11 2578
-635.608 1083.11 2578
-629.443 1083.11 2578
-620.619 1078.48 2567
-612.566 1075.12 2559
-606.446 1075.12 2559
-600.327 1075.12 2559
-595.136 1076.8 2563
-597.281 1091.93 2599
-591.066 1091.93 2599
-584.851 1091.93 2599
-576.632 1088.15 2590
-569.558 1086.47 2586
-563.374 1086.47 2586
-553.096 1078.48 2567
-546.957 1078.48 2567
-540.819 1078.48 2567
-534.68 1078.48 2567
-528.542 1078.48 2567
-519.147 1071.76 2551
-512.243 1070.08 2547
-506.152 1070.08 2547
-497.116 1063.78 2532
-492.419 1066.72 2539
-486.348 1066.72 2539
-480.276 1066.72 2539
-474.205 1066.72 2539
-468.133 1066.72 2539
-462.79 1068.4 2543
-456.709 1068.4 2543
-450.627 1068.4 2543
-444.546 1068.4 2543
-438.465 1068.4 2543
-432.384 1068.4 2543
-426.303 1068.4 2543
-419.561 1066.72 2539
-413.49 1066.72 2539
-407.418 1066.72 2539
-401.979 1068.4 2543
-395.898 1068.4 2543
-390.43 1070.08 2547
-384.339 1070.08 2547
-380.625 1076.8 2563
-374.496 1076.8 2563
-368.367 1076.8 2563
-362.238 1076.8 2563
-356.109 1076.8 2563
-349.98 1076.8 2563
-344.388 1078.48 2567
-338.249 1078.48 2567
-332.111 1078.48 2567
-325.972 1078.48 2567
-319.834 1078.48 2567
-313.695 1078.48 2567
-307.557 1078.48 2567
-301.418 1078.48 2567
-295.28 1078.48 2567
-289.142 1078.48 2567
-283.444 1080.16 2571
-277.296 1080.16 2571
-271.464 1081.43 2574
-266.134 1084.79 2582
-261.168 1089.83 2594
-254.964 1089.83 2594
-249.625 1093.61 2603
-243.774 1095.29 2607
-238.269 1098.65 2615
-232.725 1102.01 2623
-226.453 1102.01 2623
-220.181 1102.01 2623
-213.908 1102.01 2623
-207.636 1102.01 2623
-200.749 1098.65 2615
-194.496 1098.65 2615
-187.379 1093.61 2603
-181.154 1093.61 2603
-174.325 1089.83 2594
-166.826 1081.43 2574
-158.985 1070.08 2547
-152.894 1070.08 2547
-146.112 1065.04 2535
-132.979 1011.26 2407
-126.324 1004.12 2390
-117.733 980.173 2333
-112.154 980.173 2333
-105.981 974.711 2320
-100.173 972.19 2314
-94.6399 972.19 2314
-89.1064 972.19 2314
-83.4646 970.93 2311
-77.4998 965.468 2298
-71.9106 964.208 2295
-66.4226 964.208 2295
-60.8549 962.947 2292
-55.2049 960.006 2285
-49.6755 958.746 2282
-44.1022 956.225 2276
-38.6596 956.225 2276
-33.1733 954.965 2273
-27.7012 953.704 2270
-22.2435 952.444 2267
-16.8224 952.444 2267
-11.4014 952.444 2267
-5.97235 951.184 2264
-0.558442 951.184 2264
4.85547 951.184 2264
10.2558 949.923 2261
15.6625 949.923 2261
21.032 948.243 2257
26.4291 948.243 2257
31.7417 945.722 2251
37.0751 944.461 2248
42.3374 941.941 2242
47.6987 941.941 2242
52.847 938.159 2233
58.1868 938.159 2233
63.7826 941.941 2242
69.1439 941.941 2242
74.5052 941.941 2242
79.8665 941.941 2242
85.2278 941.941 2242
90.5891 941.941 2242
95.9504 941.941 2242
101.312 941.941 2242
106.958 944.461 2248
112.484 945.722 2251
117.867 945.722 2251
123.25 945.722 2251
128.804 946.982 2254
134.373 948.243 2257
140.203 951.184 2264
145.617 951.184 2264
151.832 956.225 2276
157.689 958.746 2282
163.36 960.006 2285
168.824 960.006 2285
174.517 961.267 2288
179.989 961.267 2288
185.784 962.947 2292
191.265 962.947 2292
197.518 966.729 2301
205.315 977.652 2327
214.142 992.777 2363
219.792 992.777 2363
227.351 1001.18 2383
234.028 1005.38 2393
240.451 1008.32 2400
246.19 1008.32 2400
254.869 1020.09 2428
263.359 1030.59 2453
270.432 1035.21 2464
276.324 1035.21 2464
284.393 1043.19 2483
291.616 1047.81 2494
299.728 1055.38 2512
305.735 1055.38 2512
313.231 1060.42 2524
322.176 1070.08 2547
330.844 1078.48 2567
336.983 1078.48 2567
344.057 1081.43 2574
350.212 1081.43 2574
358.029 1086.47 2586
364.213 1086.47 2586
372.259 1091.93 2599
378.474 1091.93 2599
387.057 1098.65 2615
393.31 1098.65 2615
400.175 1100.33 2619
408.3 1105.37 2631
415.222 1107.05 2635
421.523 1107.05 2635
427.824 1107.05 2635
433.466 1105.37 2631
439.757 1105.37 2631
445.371 1103.69 2627
451.653 1103.69 2627
457.935 1103.69 2627
468.634 1114.2 2652
474.976 1114.2 2652
482.044 1115.88 2656
488.395 1115.88 2656
494.746 1115.88 2656
500.343 1114.2 2652
505.921 1112.52 2648
511.479 1110.83 2644
504.093 1081.43 2574
510.248 1081.43 2574
515.801 1080.16 2571
522.558 1081.43 2574
528.714 1081.43 2574
534.869 1081.43 2574
541.024 1081.43 2574
545.691 1078.48 2567
551.83 1078.48 2567
557.968 1078.48 2567
564.107 1078.48 2567
571.134 1080.16 2571
577.282 1080.16 2571
583.43 1080.16 2571
589.578 1080.16 2571
592.945 1075.12 2559
597.192 1071.76 2551
602.346 1070.08 2547
610.348 1073.44 2555
616.458 1073.44 2555
623.542 1075.12 2559
631.63 1078.48 2567
637.768 1078.48 2567
643.907 1078.48 2567
651.058 1080.16 2571
657.206 1080.16 2571
664.128 1081.43 2574
670.283 1081.43 2574
676.439 1081.43 2574
683.655 1083.11 2578
689.819 1083.11 2578
695.984 1083.11 2578
704.328 1086.47 2586
712.71 1089.83 2594
720.299 1091.93 2599
726.514 1091.93 2599
732.729 1091.93 2599
784.719 1086.47 2586
790.903 1086.47 2586
797.086 1086.47 2586
799.543 1081.43 2574
804.759 1080.16 2571
807.122 1075.12 2559
813.242 1075.12 2559
818.08 1073.44 2555
824.19 1073.44 2555
827.7 1070.08 2547
833.791 1070.08 2547
839.881 1070.08 2547
843.315 1066.72 2539
850.724 1068.4 2543
856.806 1068.4 2543
862.887 1068.4 2543
868.968 1068.4 2543
875.049 1068.4 2543
881.13 1068.4 2543
887.211 1068.4 2543
893.292 1068.4 2543
903.617 1073.44 2555
911.151 1075.12 2559
917.271 1075.12 2559
923.39 1075.12 2559
929.509 1075.12 2559
942.575 1083.11 2578
948.74 1083.11 2578
954.905 1083.11 2578
964.052 1086.47 2586
970.236 1086.47 2586
977.93 1088.15 2590
984.124 1088.15 2590
999.876 1098.65 2615
1009.21 1102.01 2623
1025.16 1112.52 2648
1031.49 1112.52 2648
1040.96 1115.88 2656
1047.31 1115.88 2656
1053.66 1115.88 2656
1058.42 1114.2 2652
1063.15 1112.52 2648
1069.48 1112.52 2648
1075.82 1112.52 2648
1085.42 1115.88 2656
1091.77 1115.88 2656
1098.12 1115.88 2656
1099.48 1110.83 2644
1105.8 1110.83 2644
1112.13 1110.83 2644
1121.83 1114.2 2652
1128.17 1114.2 2652
1138.37 1117.98 2661
1144.73 1117.98 2661
1154.55 1121.34 2669
1160.94 1121.34 2669
1167.32 1121.34 2669
1173.7 1121.34 2669
1176.55 1117.98 2661
1173.57 1109.15 2640
1179.89 1109.15 2640
1182.16 1105.37 2631
1186.64 1103.69 2627
1192.92 1103.69 2627
1195.55 1100.33 2619
1201.82 1100.33 2619
1206.23 1098.65 2615
1210.63 1096.97 2611
1213.15 1093.61 2603
1219.37 1093.61 2603
1225.6 1093.61 2603
1231.82 1093.61 2603
1236.14 1091.93 2599
1242.36 1091.93 2599
1246.17 1089.83 2594
1248.51 1086.47 2586
1250.81 1083.11 2578
1256.98 1083.11 2578
1253.83 1075.12 2559
1259.95 1075.12 2559
1272.01 1080.16 2571
1279.65 1081.43 2574
1285.8 1081.43 2574
1291.96 1081.43 2574
1298.12 1081.43 2574
1308.32 1084.79 2582
1314.5 1084.79 2582
1320.67 1084.79 2582
1326.85 1084.79 2582
1330.96 1083.11 2578
1339.2 1084.79 2582
1345.37 1084.79 2582
1353.64 1086.47 2586
1359.82 1086.47 2586
1370.23 1089.83 2594
1379.09 1091.93 2599
1385.3 1091.93 2599
1393.66 1093.61 2603
1406.34 1098.65 2615
1412.59 1098.65 2615
1418.84 1098.65 2615
1425.1 1098.65 2615
1433.54 1100.33 2619
1446.4 1105.37 2631
1452.69 1105.37 2631
1461.2 1107.05 2635
1467.5 1107.05 2635
1473.8 1107.05 2635
1477.86 1105.37 2631
1498.25 1115.88 2656
1507.44 1117.98 2661
1516.07 1119.66 2665
1522.45 1119.66 2665
1528.82 1119.66 2665
1535.19 1119.66 2665
1541.57 1119.66 2665
1540.39 1114.2 2652
1527.48 1100.33 2619
1536.09 1102.01 2623
1547.06 1105.37 2631
1561.03 1110.83 2644
1567.35 1110.83 2644
1576.06 1112.52 2648
1592.55 1119.66 2665
1598.92 1119.66 2665
1605.29 1119.66 2665
1611.67 1119.66 2665
1622.9 1123.02 2673
1634.77 1126.8 2682
1641.19 1126.8 2682
1647.6 1126.8 2682
1662.03 1132.26 2695
1668.48 1132.26 2695
1674.92 1132.26 2695
1681.37 1132.26 2695
1679.67 1126.8 2682
1686.08 1126.8 2682
1679.24 1117.98 2661
1669.14 1107.05 2635
1665.26 1100.33 2619
1663.87 1095.29 2607
1670.1 1095.29 2607
1667.98 1089.83 2594
1594.8 1038.15 2471
1600.71 1038.15 2471
1606.61 1038.15 2471
1594.25 1026.39 2443
1600.09 1026.39 2443
1615.14 1032.27 2457
1621.01 1032.27 2457
1629.54 1033.95 2461
1635.42 1033.95 2461
1641.31 1033.95 2461
1644.51 1032.27 2457
1650.39 1032.27 2457
1656.27 1032.27 2457
-1564.24 1015.76 2404
-1558.49 1015.76 2404
-1552.74 1015.76 2404
-1546.99 1015.76 2404
-1536.75 1012.8 2397
-1532.94 1014.07 2400
-1527.2 1014.07 2400
-1521.46 1014.07 2400
-1518.25 1015.76 2404
-1512.5 1015.76 2404
-1517.41 1022.94 2421
-1511.62 1022.94 2421
-1517.02 1030.55 2439
-1518.01 1035.2 2450
-1514 1036.47 2453
-1508.13 1036.47 2453
-1518.19 1047.45 2479
-1512.26 1047.45 2479
-1506.33 1047.45 2479
-1500.41 1047.45 2479
-1483.63 1039.85 2461
-1486.15 1045.76 2475
-1482.62 1047.45 2479
-1476.69 1047.45 2479
-1474.92 1050.41 2486
-1468.97 1050.41 2486
-1463.03 1050.41 2486
-1457.08 1050.41 2486
-1444.72 1045.76 2475
-1434.73 1042.8 2468
-1428.83 1042.8 2468
-1410.24 1033.51 2446
-1396.36 1027.59 2432
-1384.25 1022.94 2421
-1378.46 1022.94 2421
-1367 1018.72 2411
-1357.28 1015.76 2404
-1353.22 1017.03 2407
-1357.54 1024.63 2425
-1357.32 1028.86 2435
-1351.5 1028.86 2435
-1361.7 1041.11 2464
-1358.01 1042.8 2468
-1352.11 1042.8 2468
-1346.2 1042.8 2468
-1340.3 1042.8 2468
-1336.02 1044.07 2471
-1330.11 1044.07 2471
-1324.21 1044.07 2471
-1312.96 1039.85 2461
-1307.08 1039.85 2461
-1308.59 1045.76 2475
-1302.68 1045.76 2475
-1296.76 1045.76 2475
-1290.84 1045.76 2475
-1284.92 1045.76 2475
-1276.93 1044.07 2471
-1261.77 1036.47 2453
-1252.32 1033.51 2446
-1246.47 1033.51 2446
-1239.1 1032.24 2443
-1160.44 999.705 2366
-1154.78 999.705 2366
-1152.52 1002.66 2373
-1161.83 1015.76 2404
-1178.2 1035.2 2450
-1172.34 1035.2 2450
-1175.05 1042.8 2468
-1182.89 1055.06 2497
-1178.8 1056.75 2501
-1172.82 1056.75 2501
-1166.84 1056.75 2501
-1159.01 1055.06 2497
-1159.96 1061.39 2512
-1153.95 1061.39 2512
-1147.95 1061.39 2512
-1141.94 1061.39 2512
-1135.93 1061.39 2512
-1121.83 1053.79 2494
-1123.92 1061.39 2512
-1128.15 1071.11 2535
-1129.17 1077.87 2551
-1123.07 1077.87 2551
-1118.72 1079.56 2555
-1112.61 1079.56 2555
-1106.5 1079.56 2555
-1098.67 1077.87 2551
-1089.14 1074.49 2543
-1081.36 1072.8 2539
-1075.29 1072.8 2539
-1067.53 1071.11 2535
-1056.86 1066.46 2524
-1049.16 1064.77 2520
-1044.79 1066.46 2524
-1038.75 1066.46 2524
-1035.99 1069.84 2532
-1032.78 1072.8 2539
-1026.71 1072.8 2539
-1020.64 1072.8 2539
-1020.96 1079.56 2555
-1014.85 1079.56 2555
-1008.74 1079.56 2555
-1002.63 1079.56 2555
-996.524 1079.56 2555
-987.313 1076.18 2547
-981.223 1076.18 2547
-972.069 1072.8 2539
-964.476 1071.11 2535
-958.414 1071.11 2535
-953.855 1072.8 2539
-950.769 1076.18 2547
-944.679 1076.18 2547
-938.588 1076.18 2547
-932.498 1076.18 2547
-926.407 1076.18 2547
-920.316 1076.18 2547
-911.354 1072.8 2539
-903.856 1071.11 2535
-897.794 1071.11 2535
-891.732 1071.11 2535
-884.622 1069.84 2532
-878.568 1069.84 2532
-872.513 1069.84 2532
-866.458 1069.84 2532
-859.044 1068.15 2528
-852.999 1068.15 2528
-846.954 1068.15 2528
-839.578 1066.46 2524
-834.863 1068.15 2528
-828.818 1068.15 2528
-822.773 1068.15 2528
-816.727 1068.15 2528
-804.589 1060.13 2509
-796.043 1056.75 2501
-790.063 1056.75 2501
-784.082 1056.75 2501
-779.346 1058.44 2505
-773.356 1058.44 2505
-767.365 1058.44 2505
-761.375 1058.44 2505
-755.385 1058.44 2505
-749.395 1058.44 2505
-743.404 1058.44 2505
-736.237 1056.75 2501
-730.256 1056.75 2501
-729.778 1064.77 2520
-737.25 1084.63 2567
-731.112 1084.63 2567
-724.973 1084.63 2567
-718.835 1084.63 2567
-712.696 1084.63 2567
-706.558 1084.63 2567
-700.419 1084.63 2567
-694.281 1084.63 2567
-690.019 1087.59 2574
-683.864 1087.59 2574
-677.708 1087.59 2574
-671.553 1087.59 2574
-665.398 1087.59 2574
-659.243 1087.59 2574
-653.088 1087.59 2574
-647.938 1089.28 2578
-641.773 1089.28 2578
-635.608 1089.28 2578
-629.443 1089.28 2578
-620.619 1084.63 2567
-612.566 1081.25 2559
-606.446 1081.25 2559
-600.327 1081.25 2559
-595.136 1082.94 2563
-597.281 1098.15 2599
-591.066 1098.15 2599
-584.851 1098.15 2599
-576.632 1094.35 2590
-569.558 1092.66 2586
-563.374 1092.66 2586
-553.096 1084.63 2567
-546.957 1084.63 2567
-540.819 1084.63 2567
-534.68 1084.63 2567
-528.542 1084.63 2567
-519.147 1077.87 2551
-512.243 1076.18 2547
-506.152 1076.18 2547
-497.116 1069.84 2532
-492.419 1072.8 2539
-486.348 1072.8 2539
-480.276 1072.8 2539
-474.205 1072.8 2539
-468.133 1072.8 2539
-462.79 1074.49 2543
-456.709 1074.49 2543
-450.627 1074.49 2543
-444.546 1074.49 2543
-438.465 1074.49 2543
-432.384 1074.49 2543
-426.303 1074.49 2543
-419.561 1072.8 2539
-413.49 1072.8 2539
-407.418 1072.8 2539
-401.979 1074.49 2543
-395.898 1074.49 2543
-390.43 1076.18 2547
-384.339 1076.18 2547
-380.625 1082.94 2563
-374.496 1082.94 2563
-368.367 1082.94 2563
-362.238 1082.94 2563
-356.109 1082.94 2563
-349.98 1082.94 2563
-344.388 1084.63 2567
-338.249 1084.63 2567
-332.111 1084.63 2567
-325.972 1084.63 2567
-319.834 1084.63 2567
-313.695 1084.63 2567
-307.557 1084.63 2567
-301.418 1084.63 2567
-295.28 1084.63 2567
-289.142 1084.63 2567
-283.444 1086.32 2571
-277.296 1086.32 2571
-271.148 1086.32 2571
-265 1086.32 2571
-259.959 1090.97 2582
-254.964 1096.04 2594
-248.761 1096.04 2594
-243.4 1099.84 2603
-237.54 1101.53 2607
-231.661 1103.22 2611
-225.417 1103.22 2611
-219.173 1103.22 2611
-212.93 1103.22 2611
-206.686 1103.22 2611
-200.135 1101.53 2607
-193.603 1099.84 2603
-186.731 1096.04 2594
-180.528 1096.04 2594
-173.25 1089.28 2578
-165.854 1081.25 2559
-158.735 1074.49 2543
-152.654 1074.49 2543
-142.884 1047.45 2479
-132.979 1017.03 2407
-125.426 1002.66 2373
-117.077 980.269 2320
-111.529 980.269 2320
-105.57 976.466 2311
-100.043 976.466 2311
-94.5172 976.466 2311
-88.9909 976.466 2311
-83.3201 974.776 2307
-77.3987 969.705 2295
-71.9106 969.705 2295
-66.4226 969.705 2295
-60.8549 968.438 2292
-55.2049 965.48 2285
-49.6755 964.213 2282
-44.1022 961.677 2276
-38.6596 961.677 2276
-33.1295 959.142 2270
-27.6646 957.875 2267
-22.2435 957.875 2267
-16.8224 957.875 2267
-11.3863 956.607 2264
-5.95389 953.649 2257
-0.556715 953.649 2257
4.84046 953.649 2257
10.2104 951.114 2251
15.5932 951.114 2251
20.9761 951.114 2251
26.3589 951.114 2251
31.6571 948.579 2245
36.9761 947.311 2242
42.0541 940.973 2227
47.3796 940.973 2227
52.563 938.438 2221
57.7959 937.171 2218
63.3559 940.973 2227
68.6813 940.973 2227
74.0067 940.973 2227
79.3322 940.973 2227
84.6576 940.973 2227
89.983 940.973 2227
95.6936 944.776 2236
101.041 944.776 2236
106.388 944.776 2236
111.884 946.044 2239
117.239 946.044 2239
122.593 946.044 2239
128.633 951.114 2251
134.015 951.114 2251
140.017 955.339 2261
145.424 955.339 2261
151.231 957.875 2267
157.481 962.945 2279
163.146 964.213 2282
168.603 964.213 2282
174.288 965.48 2285
179.989 966.748 2288
185.784 968.438 2292
191.265 968.438 2292
197.518 972.241 2301
205.844 985.762 2333
214.414 999.705 2366
220.072 999.705 2366
227.351 1006.89 2383
234.028 1011.11 2393
240.451 1014.07 2400
246.19 1014.07 2400
254.869 1025.9 2428
261.856 1030.55 2439
269.225 1036.47 2453
275.091 1036.47 2453
284.393 1049.14 2483
291.149 1052.1 2490
297.58 1053.79 2494
303.544 1053.79 2494
312.735 1064.77 2520
321.164 1072.8 2539
328.782 1077.87 2551
334.883 1077.87 2551
342.587 1082.94 2563
349.804 1086.32 2571
356.368 1087.59 2574
362.523 1087.59 2574
370.397 1092.66 2586
377.746 1096.04 2594
384.689 1098.15 2599
390.904 1098.15 2599
398.341 1101.53 2607
405.817 1104.91 2615
412.7 1106.6 2619
418.963 1106.6 2619
425.226 1106.6 2619
430.83 1104.91 2615
437.083 1104.91 2615
442.658 1103.22 2611
448.902 1103.22 2611
455.146 1103.22 2611
463.51 1108.3 2623
474.26 1118.86 2648
481.318 1120.55 2652
487.66 1120.55 2652
494.001 1120.55 2652
500.343 1120.55 2652
505.921 1118.86 2648
511.479 1117.17 2644
503.505 1086.32 2571
509.653 1086.32 2571
511.789 1077.87 2551
518.701 1079.56 2555
524.811 1079.56 2555
530.921 1079.56 2555
537.03 1079.56 2555
543.14 1079.56 2555
549.25 1079.56 2555
555.36 1079.56 2555
561.469 1079.56 2555
570.245 1084.63 2567
576.383 1084.63 2567
582.522 1084.63 2567
586.826 1081.25 2559
591.092 1077.87 2551
594.383 1072.8 2539
600.454 1072.8 2539
607.481 1074.49 2543
613.562 1074.49 2543
621.593 1077.87 2551
629.661 1081.25 2559
636.774 1082.94 2563
642.903 1082.94 2563
651.058 1086.32 2571
657.206 1086.32 2571
663.354 1086.32 2571
668.461 1084.63 2567
674.599 1084.63 2567
682.594 1087.59 2574
688.749 1087.59 2574
694.904 1087.59 2574
701.06 1087.59 2574
707.215 1087.59 2574
713.37 1087.59 2574
719.525 1087.59 2574
714.685 1071.11 2535
780.167 1086.32 2571
786.315 1086.32 2571
792.463 1086.32 2571
798.611 1086.32 2571
798.499 1077.87 2551
803.337 1076.18 2547
809.428 1076.18 2547
811.676 1071.11 2535
817.738 1071.11 2535
821.526 1068.15 2528
827.571 1068.15 2528
833.616 1068.15 2528
838.333 1066.46 2524
845.706 1068.15 2528
851.752 1068.15 2528
857.797 1068.15 2528
863.842 1068.15 2528
869.887 1068.15 2528
874.547 1066.46 2524
880.582 1066.46 2524
886.618 1066.46 2524
895.483 1069.84 2532
902.606 1071.11 2535
908.668 1071.11 2535
914.73 1071.11 2535
925.15 1076.18 2547
935.629 1081.25 2559
947.268 1087.59 2574
953.423 1087.59 2574
959.578 1087.59 2574
967.234 1089.28 2578
976.42 1092.66 2586
982.604 1092.66 2586
988.788 1092.66 2586
998.05 1096.04 2594
1015.48 1108.3 2623
1021.75 1108.3 2623
1032.73 1113.37 2635
1042.58 1117.17 2644
1048.9 1117.17 2644
1055.22 1117.17 2644
1056.33 1111.68 2631
1064.23 1113.37 2635
1070.53 1113.37 2635
1080.51 1117.17 2644
1086.84 1117.17 2644
1093.16 1117.17 2644
1094.08 1111.68 2631
1100.37 1111.68 2631
1106.66 1111.68 2631
1118.45 1117.17 2644
1128.17 1120.55 2652
1138.37 1124.35 2661
1144.73 1124.35 2661
1154.55 1127.73 2669
1160.94 1127.73 2669
1167.32 1127.73 2669
1173.7 1127.73 2669
1176.55 1124.35 2661
1173.57 1115.48 2640
1179.89 1115.48 2640
1182.16 1111.68 2631
1186.64 1109.99 2627
1192.92 1109.99 2627
1193.73 1104.91 2615
1199.98 1104.91 2615
1204.39 1103.22 2611
1208.78 1101.53 2607
1211.28 1098.15 2599
1217.5 1098.15 2599
1223.71 1098.15 2599
1229.93 1098.15 2599
1233.77 1096.04 2594
1239.97 1096.04 2594
1242.33 1092.66 2586
1246.58 1090.97 2582
1247.42 1086.32 2571
1243.81 1077.87 2551
1251.87 1079.56 2555
1257.98 1079.56 2555
1268.05 1082.94 2563
1274.18 1082.94 2563
1282.31 1084.63 2567
1288.45 1084.63 2567
1294.59 1084.63 2567
1300.72 1084.63 2567
1306.86 1084.63 2567
1313 1084.63 2567
1319.14 1084.63 2567
1323.21 1082.94 2563
1329.34 1082.94 2563
1335.47 1082.94 2563
1343.69 1084.63 2567
1355.62 1089.28 2578
1366.01 1092.66 2586
1374.31 1094.35 2590
1380.51 1094.35 2590
1391.52 1098.15 2599
1397.73 1098.15 2599
1403.95 1098.15 2599
1410.16 1098.15 2599
1416.38 1098.15 2599
1422.59 1098.15 2599
1435.41 1103.22 2611
1441.65 1103.22 2611
1452.33 1106.6 2619
1458.59 1106.6 2619
1467.09 1108.3 2623
1473.36 1108.3 2623
1481.89 1109.99 2627
1490.44 1111.68 2631
1508.68 1120.55 2652
1515.02 1120.55 2652
1521.36 1120.55 2652
1508.69 1106.6 2619
1514.96 1106.6 2619
1516.57 1103.22 2611
1520.48 1101.53 2607
1526.72 1101.53 2607
1540.01 1106.6 2619
1553.36 1111.68 2631
1559.65 1111.68 2631
1568.32 1113.37 2635
1580 1117.17 2644
1586.32 1117.17 2644
1592.64 1117.17 2644
1598.97 1117.17 2644
1622.9 1129.42 2673
1629.29 1129.42 2673
1635.68 1129.42 2673
1642.07 1129.42 2673
1648.46 1129.42 2673
1654.86 1129.42 2673
1658.76 1127.73 2669
1652.04 1118.86 2648
1658.38 1118.86 2648
1664.71 1118.86 2648
1671.04 1118.86 2648
1669.14 1113.37 2635
1665.26 1106.6 2619
1663.87 1101.53 2607
1670.1 1101.53 2607
1667.98 1096.04 2594
1594.8 1044.07 2471
1600.71 1044.07 2471
1606.61 1044.07 2471
1594.25 1032.24 2443
1600.09 1032.24 2443
1615.14 1038.16 2457
1621.01 1038.16 2457
1629.54 1039.85 2461
1635.42 1039.85 2461
1641.31 1039.85 2461
1644.51 1038.16 2457
1650.39 1038.16 2457
1656.27 1038.16 2457
-1557.08 1016.85 2393
-1551.36 1016.85 2393
-1545.64 1016.85 2393
-1539.91 1016.85 2393
-1534.19 1016.85 2393
-1532.94 1019.82 2400
-1527.2 1019.82 2400
-1521.46 1019.82 2400
-1518.25 1021.52 2404
-1512.5 1021.52 2404
-1519.91 1030.44 2425
-1514.11 1030.44 2425
-1517.02 1036.39 2439
-1518.01 1041.07 2450
-1514 1042.34 2453
-1508.13 1042.34 2453
-1518.19 1053.39 2479
-1512.26 1053.39 2479
-1506.33 1053.39 2479
-1500.41 1053.39 2479
-1483.63 1045.74 2461
-1486.15 1051.69 2475
-1480.23 1051.69 2475
-1474.31 1051.69 2475
-1474.92 1056.36 2486
-1468.97 1056.36 2486
-1463.03 1056.36 2486
-1457.08 1056.36 2486
-1444.72 1051.69 2475
-1434.73 1048.72 2468
-1428.83 1048.72 2468
-1408.51 1038.09 2443
-1390.04 1028.74 2421
-1380.25 1025.77 2414
-1368.78 1021.52 2404
-1363.03 1021.52 2404
-1357.28 1021.52 2404
-1351.54 1021.52 2404
-1347.47 1022.79 2407
-1351.74 1030.44 2425
-1345.95 1030.44 2425
-1365.57 1049.99 2471
-1359.66 1049.99 2471
-1353.75 1049.99 2471
-1347.84 1049.99 2471
-1341.93 1049.99 2471
-1338.19 1051.69 2475
-1332.27 1051.69 2475
-1326.35 1051.69 2475
-1316.7 1048.72 2468
-1310.79 1048.72 2468
-1314.41 1056.36 2486
-1308.46 1056.36 2486
-1302.52 1056.36 2486
-1295.01 1055.09 2483
-1289.07 1055.09 2483
-1283.14 1055.09 2483
-1267.42 1047.02 2464
-1255.9 1042.34 2453
-1250.03 1042.34 2453
-1242.65 1041.07 2450
-1236.79 1041.07 2450
-1164.62 1004.1 2363
-1160.44 1005.37 2366
-1154.78 1005.37 2366
-1152.52 1008.35 2373
-1153.61 1014.3 2387
-1156.08 1021.52 2404
-1150.33 1021.52 2404
-1164.58 1039.37 2446
-1160.63 1041.07 2450
-1156.18 1042.34 2453
-1150.31 1042.34 2453
-1152.85 1049.99 2471
-1153.9 1056.36 2486
-1147.96 1056.36 2486
-1142.01 1056.36 2486
-1136.07 1056.36 2486
-1130.12 1056.36 2486
-1124.18 1056.36 2486
-1116.88 1055.09 2483
-1112.29 1056.36 2486
-1116.58 1066.14 2509
-1115.45 1070.81 2520
-1109.42 1070.81 2520
-1106.9 1074.21 2528
-1100.85 1074.21 2528
-1094.81 1074.21 2528
-1088.76 1074.21 2528
-1079.29 1070.81 2520
-1071.56 1069.11 2516
-1065.54 1069.11 2516
-1057.84 1067.41 2512
-1050.58 1066.14 2509
-1041.25 1062.74 2501
-1038.58 1066.14 2509
-1032.58 1066.14 2509
-1027.81 1067.41 2512
-1021.8 1067.41 2512
-1017.41 1069.11 2516
-1011.4 1069.11 2516
-1012.97 1077.19 2535
-1006.91 1077.19 2535
-1000.85 1077.19 2535
-994.786 1077.19 2535
-988.724 1077.19 2535
-979.948 1074.21 2528
-973.903 1074.21 2528
-967.858 1074.21 2528
-960.291 1072.51 2524
-951.231 1069.11 2516
-949.722 1074.21 2528
-946.29 1077.19 2535
-940.228 1077.19 2535
-934.166 1077.19 2535
-928.104 1077.19 2535
-922.042 1077.19 2535
-914.896 1075.91 2532
-908.841 1075.91 2532
-899.934 1072.51 2524
-893.899 1072.51 2524
-886.456 1070.81 2520
-879.032 1069.11 2516
-873.016 1069.11 2516
-866.999 1069.11 2516
-860.983 1069.11 2516
-853.607 1067.41 2512
-847.6 1067.41 2512
-841.593 1067.41 2512
-833.258 1064.44 2505
-825.946 1062.74 2501
-819.966 1062.74 2501
-813.985 1062.74 2501
-806.712 1061.04 2497
-798.496 1058.06 2490
-789.041 1053.39 2479
-783.113 1053.39 2479
-771.542 1045.74 2461
-765.657 1045.74 2461
-759.772 1045.74 2461
-754.806 1047.02 2464
-753.473 1053.39 2479
-747.545 1053.39 2479
-747.001 1061.04 2497
-742.217 1062.74 2501
-736.237 1062.74 2501
-730.256 1062.74 2501
-729.778 1070.81 2520
-723.752 1070.81 2520
-720.004 1074.21 2528
-713.959 1074.21 2528
-709.034 1075.91 2532
-706.033 1080.58 2543
-701.053 1082.28 2547
-694.962 1082.28 2547
-692.117 1087.38 2559
-685.998 1087.38 2559
-679.878 1087.38 2559
-673.759 1087.38 2559
-667.64 1087.38 2559
-661.52 1087.38 2559
-655.401 1087.38 2559
-649.282 1087.38 2559
-643.162 1087.38 2559
-637.043 1087.38 2559
-630.924 1087.38 2559
-624.804 1087.38 2559
-616.751 1083.98 2551
-608.736 1080.58 2543
-602.655 1080.58 2543
-595.635 1078.88 2539
-587.938 1075.91 2532
-579.126 1070.81 2520
-573.1 1070.81 2520
-565.273 1067.41 2512
-561.047 1070.81 2520
-556.783 1074.21 2528
-550.738 1074.21 2528
-544.693 1074.21 2528
-540.139 1077.19 2535
-534.077 1077.19 2535
-528.015 1077.19 2535
-521.953 1077.19 2535
-515.891 1077.19 2535
-504.6 1066.14 2509
-498.601 1066.14 2509
-491.815 1064.44 2505
-485.825 1064.44 2505
-479.835 1064.44 2505
-474.601 1066.14 2509
-469.909 1069.11 2516
-463.893 1069.11 2516
-459.332 1072.51 2524
-454.015 1074.21 2528
-447.969 1074.21 2528
-441.924 1074.21 2528
-435.879 1074.21 2528
-430.514 1075.91 2532
-424.459 1075.91 2532
-418.404 1075.91 2532
-412.35 1075.91 2532
-406.295 1075.91 2532
-400.24 1075.91 2532
-394.185 1075.91 2532
-388.59 1077.19 2535
-383.132 1078.88 2539
-378.248 1082.28 2547
-372.158 1082.28 2547
-366.642 1083.98 2551
-360.542 1083.98 2551
-354.997 1085.68 2555
-348.888 1085.68 2555
-343.315 1087.38 2559
-337.195 1087.38 2559
-331.076 1087.38 2559
-324.956 1087.38 2559
-318.339 1085.68 2555
-312.229 1085.68 2555
-306.119 1085.68 2555
-300.009 1085.68 2555
-293.9 1085.68 2555
-287.339 1083.98 2551
-281.68 1085.68 2555
-275.57 1085.68 2555
-270.304 1089.08 2563
-265 1092.48 2571
-259.959 1097.16 2582
-254.964 1102.26 2594
-248.761 1102.26 2594
-243.4 1106.08 2603
-237.54 1107.78 2607
-231.661 1109.48 2611
-225.417 1109.48 2611
-219.173 1109.48 2611
-212.93 1109.48 2611
-206.686 1109.48 2611
-200.135 1107.78 2607
-193.603 1106.08 2603
-186.731 1102.26 2594
-180.528 1102.26 2594
-173.25 1095.46 2578
-165.854 1087.38 2559
-158.735 1080.58 2543
-152.654 1080.58 2543
-142.884 1053.39 2479
-132.979 1022.79 2407
-125.584 1009.62 2376
-117.077 985.826 2320
-111.529 985.826 2320
-105.57 982.002 2311
-100.043 982.002 2311
-94.5172 982.002 2311
-88.9909 982.002 2311
-83.3201 980.302 2307
-77.3987 975.203 2295
-71.9106 975.203 2295
-66.4226 975.203 2295
-60.8549 973.928 2292
-55.2049 970.954 2285
-49.6755 969.679 2282
-44.1022 967.13 2276
-38.6596 967.13 2276
-33.1295 964.58 2270
-27.6646 963.305 2267
-22.2435 963.305 2267
-16.8224 963.305 2267
-11.3863 962.03 2264
-5.95389 959.056 2257
-0.556715 959.056 2257
4.84046 959.056 2257
10.2104 956.506 2251
15.5932 956.506 2251
20.9761 956.506 2251
26.3589 956.506 2251
31.6571 953.957 2245
36.9761 952.682 2242
42.0541 946.308 2227
47.3796 946.308 2227
52.563 943.759 2221
57.7959 942.484 2218
63.3559 946.308 2227
68.6813 946.308 2227
74.0067 946.308 2227
79.3322 946.308 2227
84.6576 946.308 2227
89.983 946.308 2227
95.6936 950.133 2236
101.041 950.133 2236
106.388 950.133 2236
111.884 951.407 2239
117.239 951.407 2239
122.593 951.407 2239
128.633 956.506 2251
134.015 956.506 2251
140.017 960.756 2261
145.424 960.756 2261
151.231 963.305 2267
157.481 968.404 2279
163.146 969.679 2282
168.603 969.679 2282
174.288 970.954 2285
179.989 972.229 2288
185.784 973.928 2292
191.265 973.928 2292
197.518 977.753 2301
206.462 994.325 2340
214.414 1005.37 2366
220.072 1005.37 2366
227.351 1012.6 2383
234.028 1016.85 2393
240.451 1019.82 2400
246.19 1019.82 2400
254.869 1031.72 2428
261.856 1036.39 2439
269.225 1042.34 2453
275.091 1042.34 2453
284.393 1055.09 2483
291.149 1058.06 2490
297.58 1059.76 2494
303.544 1059.76 2494
312.735 1070.81 2520
321.164 1078.88 2539
328.782 1083.98 2551
334.883 1083.98 2551
342.587 1089.08 2563
349.804 1092.48 2571
356.368 1093.76 2574
362.523 1093.76 2574
370.397 1098.86 2586
377.746 1102.26 2594
384.689 1104.38 2599
390.904 1104.38 2599
398.341 1107.78 2607
405.817 1111.18 2615
412.7 1112.88 2619
418.963 1112.88 2619
425.226 1112.88 2619
430.83 1111.18 2615
437.083 1111.18 2615
440.624 1104.38 2599
444.604 1098.86 2586
450.788 1098.86 2586
459.976 1106.08 2603
474.26 1125.2 2648
480.592 1125.2 2648
486.924 1125.2 2648
493.256 1125.2 2648
499.588 1125.2 2648
505.921 1125.2 2648
511.479 1123.5 2644
499.588 1083.98 2551
505.689 1083.98 2551
510.184 1080.58 2543
517.077 1082.28 2547
523.168 1082.28 2547
529.258 1082.28 2547
535.349 1082.28 2547
539.739 1078.88 2539
545.81 1078.88 2539
551.882 1078.88 2539
559.711 1082.28 2547
565.802 1082.28 2547
571.893 1082.28 2547
577.983 1082.28 2547
584.074 1082.28 2547
588.311 1078.88 2539
592.744 1075.91 2532
597.853 1074.21 2528
605.57 1077.19 2535
611.632 1077.19 2535
618.669 1078.88 2539
624.74 1078.88 2539
631.805 1080.58 2543
637.887 1080.58 2543
645.993 1083.98 2551
652.094 1083.98 2551
658.194 1083.98 2551
663.253 1082.28 2547
669.343 1082.28 2547
679.677 1089.08 2563
685.806 1089.08 2563
691.935 1089.08 2563
698.064 1089.08 2563
704.192 1089.08 2563
710.321 1089.08 2563
716.45 1089.08 2563
714.685 1077.19 2535
718.757 1074.21 2528
724.802 1074.21 2528
730.847 1074.21 2528
736.893 1074.21 2528
740.587 1070.81 2520
768.332 1075.91 2532
776.528 1078.88 2539
782.6 1078.88 2539
788.671 1078.88 2539
794.743 1078.88 2539
799.553 1077.19 2535
805.615 1077.19 2535
810.716 1075.91 2532
815.48 1074.21 2528
820.226 1072.51 2524
826.261 1072.51 2524
830.978 1070.81 2520
837.004 1070.81 2520
844.368 1072.51 2524
850.404 1072.51 2524
856.44 1072.51 2524
862.475 1072.51 2524
867.134 1070.81 2520
871.775 1069.11 2516
879.187 1070.81 2520
885.213 1070.81 2520
892.654 1072.51 2524
900.113 1074.21 2528
907.592 1075.91 2532
913.647 1075.91 2532
920.792 1077.19 2535
931.241 1082.28 2547
940.276 1085.68 2555
946.386 1085.68 2555
953.987 1087.38 2559
961.607 1089.08 2563
967.736 1089.08 2563
973.864 1089.08 2563
983.052 1092.48 2571
994.972 1098.86 2586
1004.25 1102.26 2594
1010.46 1102.26 2594
1024.89 1111.18 2615
1031.14 1111.18 2615
1037.4 1111.18 2615
1043.65 1111.18 2615
1048.3 1109.48 2611
1057.77 1112.88 2619
1064.03 1112.88 2619
1071.93 1114.58 2623
1078.2 1114.58 2623
1084.48 1114.58 2623
1090.75 1114.58 2623
1100.37 1117.98 2631
1106.66 1117.98 2631
1114.64 1119.68 2635
1124.77 1123.5 2644
1136.23 1128.6 2656
1142.58 1128.6 2656
1148.93 1128.6 2656
1157.46 1130.73 2661
1163.82 1130.73 2661
1170.18 1130.73 2661
1174.34 1128.6 2656
1173.57 1121.8 2640
1179.89 1121.8 2640
1180.36 1116.28 2627
1184.83 1114.58 2623
1191.11 1114.58 2623
1193.73 1111.18 2615
1199.98 1111.18 2615
1202.54 1107.78 2607
1208.78 1107.78 2607
1211.28 1104.38 2599
1217.5 1104.38 2599
1221.36 1102.26 2594
1227.56 1102.26 2594
1233.77 1102.26 2594
1239.97 1102.26 2594
1240.41 1097.16 2582
1244.65 1095.46 2578
1247.42 1092.48 2571
1243.81 1083.98 2551
1249.91 1083.98 2551
1256.01 1083.98 2551
1266.07 1087.38 2559
1272.19 1087.38 2559
1278.31 1087.38 2559
1284.43 1087.38 2559
1290.55 1087.38 2559
1294.64 1085.68 2555
1300.75 1085.68 2555
1306.86 1085.68 2555
1308.86 1082.28 2547
1312.89 1080.58 2543
1318.97 1080.58 2543
1322.96 1078.88 2539
1329.04 1078.88 2539
1339.31 1082.28 2547
1345.41 1082.28 2547
1351.5 1082.28 2547
1357.59 1082.28 2547
1372.24 1089.08 2563
1378.37 1089.08 2563
1384.5 1089.08 2563
1390.63 1089.08 2563
1396.76 1089.08 2563
1400.7 1087.38 2559
1409.02 1089.08 2563
1415.15 1089.08 2563
1429.59 1095.46 2578
1440.21 1098.86 2586
1450.87 1102.26 2594
1457.07 1102.26 2594
1468.35 1106.08 2603
1479.11 1109.48 2611
1485.35 1109.48 2611
1491.6 1109.48 2611
1497.84 1109.48 2611
1504.09 1109.48 2611
1510.33 1109.48 2611
1499.73 1097.16 2582
1503.57 1095.46 2578
1516.76 1100.56 2590
1530.6 1106.08 2603
1541.55 1109.48 2611
1547.79 1109.48 2611
1561.18 1114.58 2623
1572.23 1117.98 2631
1578.52 1117.98 2631
1584.81 1117.98 2631
1586.27 1114.58 2623
1599.83 1119.68 2635
1626.85 1134.13 2669
1633.23 1134.13 2669
1639.62 1134.13 2669
1643.53 1132.43 2665
1649.9 1132.43 2665
1632.66 1116.28 2627
1636.45 1114.58 2623
1653.37 1121.8 2640
1659.68 1121.8 2640
1665.99 1121.8 2640
1672.3 1121.8 2640
1667.81 1114.58 2623
