-423.788 261.37 3844
-418.479 263.818 3880
-409.2 263.818 3880
-399.922 263.818 3880
-217.69 154.347 2270
-212.262 154.347 2270
-206.834 154.347 2270
-201.139 154.143 2267
-195.718 154.143 2267
-186.939 151.423 2227
-180.88 150.811 2218
-174.468 149.859 2204
-169.197 149.859 2204
-163.481 149.451 2198
-157.793 149.043 2192
-151.368 147.888 2175
-146.167 147.888 2175
-140.577 147.48 2169
-135.39 147.48 2169
-129.723 146.936 2161
-124.383 146.732 2158
-119.222 146.732 2158
-113.903 146.528 2155
-108.498 146.188 2150
-103.212 145.984 2147
-98.078 145.984 2147
-92.814 145.78 2144
-87.4826 145.44 2139
-82.252 145.236 2136
-77.1442 145.236 2136
-71.9352 145.032 2133
-66.8346 145.032 2133
-61.676 144.896 2131
-56.5802 144.896 2131
-51.4843 144.896 2131
-46.3884 144.896 2131
-41.3313 145.032 2133
-36.2816 145.236 2136
-31.1738 145.236 2136
-26.1026 145.44 2139
-21.017 145.644 2142
-15.8949 145.644 2142
-10.7828 145.78 2144
-5.6558 145.78 2144
-0.528842 145.78 2144
4.60455 145.984 2147
9.75228 146.188 2150
14.8936 146.188 2150
20.0628 146.392 2153
25.2347 146.528 2155
30.4303 146.732 2158
35.5907 146.732 2158
40.7512 146.732 2158
46.0392 147.14 2164
51.214 147.14 2164
56.3888 147.14 2164
61.6489 147.344 2167
66.8309 147.344 2167
72.0128 147.344 2167
77.1948 147.344 2167
82.3767 147.344 2167
87.5587 147.344 2167
92.7407 147.344 2167
97.9226 147.344 2167
103.105 147.344 2167
108.287 147.344 2167
113.468 147.344 2167
118.65 147.344 2167
123.661 147.14 2164
128.836 147.14 2164
134.01 147.14 2164
139.185 147.14 2164
144.36 147.14 2164
149.328 146.936 2161
154.495 146.936 2161
159.663 146.936 2161
164.83 146.936 2161
169.998 146.936 2161
175.166 146.936 2161
180.333 146.936 2161
185.501 146.936 2161
190.404 146.732 2158
195.564 146.732 2158
201.004 146.936 2161
206.171 146.936 2161
211.339 146.936 2161
216.807 147.14 2164
221.982 147.14 2164
227.157 147.14 2164
232.653 147.344 2167
238.055 147.48 2169
243.578 147.684 2172
248.772 147.684 2172
253.966 147.684 2172
258.802 147.48 2169
263.989 147.48 2169
269.175 147.48 2169
274.741 147.684 2172
280.322 147.888 2175
285.523 147.888 2175
290.724 147.888 2175
295.925 147.888 2175
301.126 147.888 2175
306.327 147.888 2175
311.529 147.888 2175
316.293 147.684 2172
470.308 209.286 3078
477.669 209.286 3078
485.029 209.286 3078
488.71 207.723 3055
492.444 206.227 3033
499.697 206.227 3033
501.434 203.983 3000
505.895 202.895 2984
509.42 201.467 2963
514.762 200.787 2953
521.824 200.787 2953
528.885 200.787 2953
534.858 200.379 2947
543.008 200.787 2953
550.07 200.787 2953
557.132 200.787 2953
564.193 200.787 2953
570.094 200.379 2947
577.141 200.379 2947
582.206 199.699 2937
589.229 199.699 2937
595.237 199.359 2932
602.249 199.359 2932
609.26 199.359 2932
616.271 199.359 2932
623.283 199.359 2932
630.294 199.359 2932
637.305 199.359 2932
644.316 199.359 2932
651.328 199.359 2932
658.339 199.359 2932
665.35 199.359 2932
671.215 199.019 2927
677.056 198.679 2922
684.043 198.679 2922
691.031 198.679 2922
698.018 198.679 2922
705.005 198.679 2922
711.993 198.679 2922
718.98 198.679 2922
725.968 198.679 2922
732.955 198.679 2922
739.942 198.679 2922
746.93 198.679 2922
753.917 198.679 2922
760.904 198.679 2922
767.892 198.679 2922
774.879 198.679 2922
781.867 198.679 2922
788.854 198.679 2922
794.48 198.339 2917
801.455 198.339 2917
808.43 198.339 2917
815.406 198.339 2917
822.381 198.339 2917
829.357 198.339 2917
836.332 198.339 2917
843.308 198.339 2917
848.534 197.931 2911
855.495 197.931 2911
862.456 197.931 2911
867.924 197.591 2906
874.873 197.591 2906
881.822 197.591 2906
888.771 197.591 2906
895.721 197.591 2906
901.117 197.251 2901
908.054 197.251 2901
914.991 197.251 2901
921.928 197.251 2901
933.988 198.339 2917
940.964 198.339 2917
947.939 198.339 2917
954.915 198.339 2917
958.263 197.591 2906
975.508 199.699 2937
982.532 199.699 2937
989.555 199.699 2937
996.578 199.699 2937
1368.69 261.37 3844
1377.88 261.37 3844
1387.07 261.37 3844
1389.72 260.146 3826
1383.15 257.222 3783
1385.94 256.066 3766
1388.65 254.911 3749
1397.61 254.911 3749
1403.2 254.299 3740
1403.08 252.667 3716
1405.51 251.511 3699
1414.36 251.511 3699
1420.12 250.967 3691
1419.66 249.335 3667
1424.92 248.723 3658
1433.67 248.723 3658
1436.11 247.635 3642
1442.04 247.159 3635
1444.35 246.071 3619
1424.9 241.312 3549
1433.38 241.312 3549
1415.06 236.824 3483
1394.37 231.996 3412
1385.26 229.141 3370
1393.32 229.141 3370
1384.75 226.421 3330
1375.98 223.701 3290
1367.86 221.117 3252
1370.14 220.233 3239
1383.42 221.117 3252
1391.19 221.117 3252
1426.93 225.537 3317
1452.17 228.257 3357
1481.07 231.521 3405
1489.22 231.521 3405
1509.67 233.424 3433
1527.17 234.852 3454
1535.43 234.852 3454
1543.69 234.852 3454
1555.09 235.328 3461
1563.37 235.328 3461
1571.64 235.328 3461
1409.27 201.467 2963
1416.36 201.467 2963
1423.44 201.467 2963
1420.39 200.039 2942
1417.72 198.679 2922
1424.71 198.679 2922
1429.24 198.339 2917
1436.22 198.339 2917
1443.19 198.339 2917
1450.17 198.339 2917
1457.15 198.339 2917
1458.6 197.591 2906
1452.94 195.892 2881
1459.83 195.892 2881
1464.17 195.552 2876
1471.05 195.552 2876
1475.36 195.212 2871
1482.22 195.212 2871
1486.5 194.872 2866
1493.35 194.872 2866
1500.2 194.872 2866
1507.06 194.872 2866
1513.91 194.872 2866
1518.64 194.6 2862
1525.49 194.6 2862
1529.65 194.26 2857
1536.48 194.26 2857
1540.62 193.92 2852
1547.44 193.92 2852
1551.53 193.58 2847
1558.34 193.58 2847
1565.15 193.58 2847
1571.95 193.58 2847
1578.76 193.58 2847
1588.36 193.92 2852
1595.18 193.92 2852
1602 193.92 2852
1608.82 193.92 2852
1612.8 193.58 2847
1619.61 193.58 2847
1626.42 193.58 2847
1633.23 193.58 2847
1640.04 193.58 2847
1646.84 193.58 2847
1653.65 193.58 2847
1660.46 193.58 2847
1664.34 193.24 2842
1671.14 193.24 2842
1677.93 193.24 2842
1681.76 192.9 2837
1685.57 192.56 2832
1692.34 192.56 2832
1699.12 192.56 2832
1705.89 192.56 2832
1710.24 192.288 2828
1713.97 191.948 2823
1720.72 191.948 2823
1724.41 191.608 2818
1728.08 191.268 2813
1734.8 191.268 2813
1741.53 191.268 2813
1748.26 191.268 2813
1754.98 191.268 2813
1759.21 190.996 2809
1765.92 190.996 2809
1769.48 190.656 2804
1769.86 189.976 2794
1776.54 189.976 2794
1783.22 189.976 2794
1789.9 189.976 2794
1794.01 189.704 2790
1800.68 189.704 2790
1807.35 189.704 2790
1814.02 189.704 2790
1820.7 189.704 2790
1824.09 189.364 2785
1830.75 189.364 2785
1837.41 189.364 2785
1840.76 189.024 2780
1847.41 189.024 2780
1854.06 189.024 2780
1860.7 189.024 2780
1867.35 189.024 2780
1871.3 188.752 2776
1877.94 188.752 2776
1884.58 188.752 2776
1887.81 188.412 2771
1894.44 188.412 2771
1901.06 188.412 2771
1907.69 188.412 2771
1914.32 188.412 2771
1918.17 188.14 2767
1921.31 187.8 2762
1927.91 187.8 2762
1934.52 187.8 2762
1941.12 187.8 2762
1947.73 187.8 2762
1950.8 187.46 2757
1957.39 187.46 2757
1961.13 187.188 2753
1964.14 186.848 2748
1967.84 186.576 2744
1974.41 186.576 2744
1974.47 185.964 2735
1981.01 185.964 2735
1990.46 186.236 2739
2000.65 186.576 2744
2007.21 186.576 2744
2013.78 186.576 2744
2020.34 186.576 2744
2026.9 186.576 2744
2033.46 186.576 2744
2036.31 186.236 2739
2036.14 185.624 2730
2042.67 185.624 2730
2049.2 185.624 2730
2045.94 184.74 2717
2049.41 184.468 2713
2061.96 185.012 2721
2079.11 185.964 2735
2092.52 186.576 2744
2099.08 186.576 2744
-2095.68 197.021 2799
-2092.72 197.373 2804
-2089.73 197.725 2809
-2083.02 197.725 2809
-2082.95 198.358 2818
-2076.21 198.358 2818
-2069.47 198.358 2818
-2062.73 198.358 2818
-2052.35 198.006 2813
-2039.08 197.373 2804
-2032.37 197.373 2804
-2022.05 197.021 2799
-2005.28 196.036 2785
-1992.16 195.402 2776
-1991.96 196.036 2785
-1985.3 196.036 2785
-1995.69 197.725 2809
-1991.81 198.006 2813
-1985.08 198.006 2813
-1978.35 198.006 2813
-1975.13 198.358 2818
-1971.89 198.71 2823
-1971.4 199.344 2832
-1964.63 199.344 2832
-1957.86 199.344 2832
-1951.08 199.344 2832
-1944.31 199.344 2832
-1937.54 199.344 2832
-1928.04 199.062 2828
-1901.58 197.021 2799
-1894.88 197.021 2799
-2123.98 251.995 3580
-2115.42 251.995 3580
-2106.86 251.995 3580
-2098.29 251.995 3580
-2094.4 252.559 3588
-2085.82 252.559 3588
-2085.93 253.614 3603
-2081.92 254.178 3611
-2073.29 254.178 3611
-2064.65 254.178 3611
-2051.46 253.614 3603
-2034.34 252.559 3588
-2025.76 252.559 3588
-1999.76 250.376 3557
-1999.65 251.432 3572
-2000.02 252.559 3588
-1991.44 252.559 3588
-1982.86 252.559 3588
-1969.88 251.995 3580
-1969.54 253.051 3595
-1965.31 253.614 3603
-1956.69 253.614 3603
-1948.07 253.614 3603
-1935.15 253.051 3595
-1926.56 253.051 3595
-1917.96 253.051 3595
-1901.4 251.995 3580
-1888.6 251.432 3572
-1884.27 251.995 3580
-1875.71 251.995 3580
-1867.15 251.995 3580
-1862.74 252.559 3588
-1854.16 252.559 3588
-1845.58 252.559 3588
-1840.59 253.051 3595
-1836.07 253.614 3603
-1827.45 253.614 3603
-1818.84 253.614 3603
-1802.68 252.559 3588
-1553.95 249.813 3549
-1545.46 249.813 3549
-1536.97 249.813 3549
-1525.47 249.321 3542
-1517 249.321 3542
-1480.42 244.675 3476
-1465.76 243.619 3461
-1439.8 240.663 3419
-1431.62 240.663 3419
-1391.8 235.313 3343
-1381.32 234.891 3337
-1370.46 234.398 3330
-1359.64 233.905 3323
-1351.69 233.905 3323
-1341.32 233.483 3317
-1327.76 232.497 3303
-1317.46 232.075 3297
-1309.58 232.075 3297
-1301.69 232.075 3297
-1286.35 230.738 3278
-1270.71 229.33 3258
-1262.92 229.33 3258
-1252.82 228.908 3252
-1240.07 227.993 3239
-1213.68 224.543 3190
-1206.05 224.543 3190
-1184.9 222.009 3154
-1172.88 221.165 3142
-1102.07 214.689 3050
-1096.57 215.041 3055
-1089.26 215.041 3055
-1081.96 215.041 3055
-1072.89 214.689 3050
-1065.6 214.689 3050
-1058.31 214.689 3050
-1047.22 213.915 3039
-1039.95 213.915 3039
-1034.39 214.267 3044
-1029.13 214.689 3050
-1021.84 214.689 3050
-1014.55 214.689 3050
-1007.25 214.689 3050
-999.958 214.689 3050
-983.552 212.718 3022
-974.71 212.366 3017
-963.968 211.592 3006
-956.78 211.592 3006
-949.591 211.592 3006
-938.955 210.817 2995
-931.793 210.817 2995
-924.631 210.817 2995
-911.036 209.339 2974
-903.924 209.339 2974
-893.495 208.565 2963
-886.41 208.565 2963
-877.84 208.213 2958
-866.057 207.087 2942
-857.562 206.735 2937
-850.539 206.735 2937
-842.079 206.383 2932
-832.22 205.679 2922
-825.232 205.679 2922
-815.165 204.905 2911
-808.204 204.905 2911
-798.49 204.201 2901
-791.553 204.201 2901
-784.616 204.201 2901
-777.679 204.201 2901
-770.741 204.201 2901
-762.488 203.849 2896
-755.563 203.849 2896
-749.93 204.201 2901
-742.993 204.201 2901
-736.056 204.201 2901
-729.118 204.201 2901
-722.181 204.201 2901
-715.244 204.201 2901
-707.086 203.849 2896
-698.952 203.497 2891
-695.629 204.553 2906
-688.68 204.553 2906
-681.731 204.553 2906
-674.782 204.553 2906
-667.833 204.553 2906
-659.747 204.201 2901
-652.81 204.201 2901
-644.759 203.849 2896
-637.834 203.849 2896
-629.82 203.497 2891
-620.752 202.793 2881
-612.797 202.441 2876
-605.919 202.441 2876
-599.042 202.441 2876
-591.135 202.089 2871
-616.965 278.955 3963
-607.489 278.955 3963
-602.237 280.926 3991
-597 282.967 4020
-587.387 282.967 4020
-577.774 282.967 4020
-568.161 282.967 4020
-558.548 282.967 4020
-548.935 282.967 4020
-529.126 277.617 3944
-518.508 276.984 3935
-507.805 276.28 3925
-497.276 275.646 3916
-487.912 275.646 3916
-475.248 273.746 3889
-460.557 270.578 3844
-449.251 269.311 3826
-440.102 269.311 3826
-430.953 269.311 3826
-423.788 270.578 3844
-418.479 273.112 3880
-409.2 273.112 3880
-399.922 273.112 3880
-217.403 159.574 2267
-211.981 159.574 2267
-206.56 159.574 2267
-200.607 159.151 2261
-195.2 159.151 2261
-186.939 156.758 2227
-180.88 156.125 2218
-174.468 155.139 2204
-169.197 155.139 2204
-163.481 154.717 2198
-157.793 154.294 2192
-151.159 152.887 2172
-145.965 152.887 2172
-140.577 152.675 2169
-135.39 152.675 2169
-129.723 152.112 2161
-124.383 151.901 2158
-119.222 151.901 2158
-113.903 151.69 2155
-108.498 151.338 2150
-103.212 151.127 2147
-98.078 151.127 2147
-92.814 150.916 2144
-87.4826 150.564 2139
-82.252 150.353 2136
-77.1442 150.353 2136
-71.9352 150.141 2133
-66.8346 150.141 2133
-61.676 150.001 2131
-56.5802 150.001 2131
-51.4843 150.001 2131
-46.3884 150.001 2131
-41.3313 150.141 2133
-36.2816 150.353 2136
-31.1738 150.353 2136
-26.1026 150.564 2139
-21.017 150.775 2142
-15.8949 150.775 2142
-10.7828 150.916 2144
-5.6558 150.916 2144
-0.528842 150.916 2144
4.60455 151.127 2147
9.75228 151.338 2150
14.8936 151.338 2150
20.0628 151.549 2153
25.2347 151.69 2155
30.4303 151.901 2158
35.5907 151.901 2158
40.7512 151.901 2158
46.0392 152.323 2164
51.214 152.323 2164
56.3888 152.323 2164
61.6489 152.535 2167
66.8309 152.535 2167
72.0128 152.535 2167
77.1948 152.535 2167
82.3767 152.535 2167
87.5587 152.535 2167
92.7407 152.535 2167
97.9226 152.535 2167
103.105 152.535 2167
108.287 152.535 2167
113.468 152.535 2167
118.65 152.535 2167
123.661 152.323 2164
128.836 152.323 2164
134.01 152.323 2164
139.185 152.323 2164
144.36 152.323 2164
149.328 152.112 2161
154.495 152.112 2161
159.663 152.112 2161
164.83 152.112 2161
169.998 152.112 2161
175.166 152.112 2161
180.333 152.112 2161
185.501 152.112 2161
190.404 151.901 2158
195.564 151.901 2158
201.004 152.112 2161
206.171 152.112 2161
211.339 152.112 2161
216.807 152.323 2164
221.982 152.323 2164
227.157 152.323 2164
232.653 152.535 2167
237.835 152.535 2167
243.242 152.675 2169
248.428 152.675 2169
253.615 152.675 2169
258.563 152.535 2167
263.745 152.535 2167
268.927 152.535 2167
274.109 152.535 2167
279.291 152.535 2167
284.736 152.675 2169
289.922 152.675 2169
295.109 152.675 2169
300.711 152.887 2172
305.905 152.887 2172
311.099 152.887 2172
316.293 152.887 2172
467.711 215.463 3061
475.031 215.463 3061
482.35 215.463 3061
488.71 215.041 3055
489.846 212.366 3017
497.061 212.366 3017
501.434 211.169 3000
505.047 209.691 2979
509.42 208.565 2963
514.762 207.861 2953
521.824 207.861 2953
528.885 207.861 2953
534.858 207.439 2947
543.008 207.861 2953
550.07 207.861 2953
557.132 207.861 2953
564.193 207.861 2953
570.094 207.439 2947
577.141 207.439 2947
582.206 206.735 2937
589.229 206.735 2937
595.237 206.383 2932
602.249 206.383 2932
609.26 206.383 2932
616.271 206.383 2932
623.283 206.383 2932
630.294 206.383 2932
637.305 206.383 2932
644.316 206.383 2932
651.328 206.383 2932
658.339 206.383 2932
665.35 206.383 2932
671.215 206.031 2927
677.056 205.679 2922
684.043 205.679 2922
691.031 205.679 2922
698.018 205.679 2922
705.005 205.679 2922
711.993 205.679 2922
718.98 205.679 2922
725.968 205.679 2922
732.955 205.679 2922
739.942 205.679 2922
746.93 205.679 2922
753.917 205.679 2922
760.904 205.679 2922
767.892 205.679 2922
774.879 205.679 2922
781.867 205.679 2922
788.854 205.679 2922
794.48 205.327 2917
801.455 205.327 2917
808.43 205.327 2917
815.406 205.327 2917
822.381 205.327 2917
829.357 205.327 2917
836.332 205.327 2917
843.308 205.327 2917
848.534 204.905 2911
855.495 204.905 2911
862.456 204.905 2911
867.924 204.553 2906
874.873 204.553 2906
881.822 204.553 2906
888.771 204.553 2906
895.721 204.553 2906
901.117 204.201 2901
906.489 203.849 2896
914.991 204.201 2901
921.928 204.201 2901
930.466 204.553 2906
937.415 204.553 2906
944.364 204.553 2906
951.314 204.553 2906
956.614 204.201 2901
965.212 204.553 2906
982.532 206.735 2937
989.555 206.735 2937
996.578 206.735 2937
1368.69 270.578 3844
1377.88 270.578 3844
1387.07 270.578 3844
1389.72 269.311 3826
1383.15 266.285 3783
1385.94 265.088 3766
1388.65 263.891 3749
1397.61 263.891 3749
1403.2 263.258 3740
1403.08 261.568 3716
1405.51 260.372 3699
1414.36 260.372 3699
1420.12 259.809 3691
1419.66 258.119 3667
1428.43 258.119 3667
1437.2 258.119 3667
1442.42 257.486 3658
1447.99 256.923 3650
1447.54 255.304 3627
1431.32 250.94 3565
1439.84 250.94 3565
1420.74 246.153 3497
1400.09 241.155 3426
1396.77 239.184 3398
1404.9 239.184 3398
1395.98 236.299 3357
1389.78 233.905 3323
1375.86 230.245 3271
1370.14 227.993 3239
1385.97 229.33 3258
1393.76 229.33 3258
1432.53 234.398 3330
1463.85 238.199 3384
1493.25 241.648 3433
1501.46 241.648 3433
1534.74 245.66 3490
1543.08 245.66 3490
1551.43 245.66 3490
1559.78 245.66 3490
1564.98 245.168 3483
1573.3 245.168 3483
1581.63 245.168 3483
1402.18 208.565 2963
1409.27 208.565 2963
1416.36 208.565 2963
1423.44 208.565 2963
1420.39 207.087 2942
1417.72 205.679 2922
1424.71 205.679 2922
1429.24 205.327 2917
1436.22 205.327 2917
1443.19 205.327 2917
1450.17 205.327 2917
1451.65 204.553 2906
1456.09 204.201 2901
1455.46 203.145 2886
1462.36 203.145 2886
1464.17 202.441 2876
1471.05 202.441 2876
1475.36 202.089 2871
1482.22 202.089 2871
1486.5 201.737 2866
1493.35 201.737 2866
1500.2 201.737 2866
1507.06 201.737 2866
1513.91 201.737 2866
1518.64 201.456 2862
1525.49 201.456 2862
1529.65 201.104 2857
1536.48 201.104 2857
1540.62 200.752 2852
1547.44 200.752 2852
1551.53 200.4 2847
1558.34 200.4 2847
1565.15 200.4 2847
1571.95 200.4 2847
1578.76 200.4 2847
1588.36 200.752 2852
1595.18 200.752 2852
1602 200.752 2852
1608.82 200.752 2852
1612.8 200.4 2847
1619.61 200.4 2847
1626.42 200.4 2847
1633.23 200.4 2847
1640.04 200.4 2847
1646.84 200.4 2847
1653.65 200.4 2847
1660.46 200.4 2847
1664.34 200.048 2842
1671.14 200.048 2842
1677.93 200.048 2842
1681.76 199.696 2837
1688.55 199.696 2837
1695.33 199.696 2837
1702.12 199.696 2837
1705.89 199.344 2832
1712.66 199.344 2832
1717 199.062 2828
1723.77 199.062 2828
1724.41 198.358 2818
1731.15 198.358 2818
1734.8 198.006 2813
1741.53 198.006 2813
1748.26 198.006 2813
1754.98 198.006 2813
1759.21 197.725 2809
1765.92 197.725 2809
1769.48 197.373 2804
1769.86 196.669 2794
1776.54 196.669 2794
1783.22 196.669 2794
1789.9 196.669 2794
1794.01 196.387 2790
1800.68 196.387 2790
1807.35 196.387 2790
1814.02 196.387 2790
1820.7 196.387 2790
1824.09 196.036 2785
1830.75 196.036 2785
1837.41 196.036 2785
1840.76 195.684 2780
1847.41 195.684 2780
1854.06 195.684 2780
1860.7 195.684 2780
1867.35 195.684 2780
1871.3 195.402 2776
1877.94 195.402 2776
1884.58 195.402 2776
1887.81 195.05 2771
1894.44 195.05 2771
1901.06 195.05 2771
1907.69 195.05 2771
1914.32 195.05 2771
1920.94 195.05 2771
1921.31 194.417 2762
1927.91 194.417 2762
1934.52 194.417 2762
1941.12 194.417 2762
1947.73 194.417 2762
1954.33 194.417 2762
1960.94 194.417 2762
1963.98 194.065 2757
1967.71 193.783 2753
1967.84 193.15 2744
1974.41 193.15 2744
1977.36 192.798 2739
1981.01 192.516 2735
1990.46 192.798 2739
2003.57 193.431 2748
2010.14 193.431 2748
2016.71 193.431 2748
2023.28 193.431 2748
2029.85 193.431 2748
2036.43 193.431 2748
2040.02 193.15 2744
2039.87 192.516 2735
2042.67 192.164 2730
2049.2 192.164 2730
2045.94 191.249 2717
2052.44 191.249 2717
2065.75 191.883 2726
2079.11 192.516 2735
2092.52 193.15 2744
2099.08 193.15 2744
-2099.42 204.09 2804
-2092.72 204.09 2804
-2092.71 204.745 2813
-2085.98 204.745 2813
-2082.95 205.109 2818
-2076.21 205.109 2818
-2069.47 205.109 2818
-2062.73 205.109 2818
-2056 205.109 2818
-2042.71 204.454 2809
-2036 204.454 2809
-2025.67 204.09 2804
-2005.28 202.707 2785
-1995.03 202.343 2780
-1991.96 202.707 2785
-1985.3 202.707 2785
-1995.69 204.454 2809
-1991.81 204.745 2813
-1985.08 204.745 2813
-1978.35 204.745 2813
-1975.13 205.109 2818
-1978.17 206.128 2832
-1978.36 206.856 2842
-1971.57 206.856 2842
-1964.77 206.856 2842
-1957.97 206.856 2842
-1951.18 206.856 2842
-1944.38 206.856 2842
-1934.18 206.492 2837
-1930.79 206.856 2842
-1923.99 206.856 2842
-1917.2 206.856 2842
-2002.49 216.827 2979
-1995.37 216.827 2979
-2006.27 218.793 3006
-1999.08 218.793 3006
-1991.89 218.793 3006
-2123.98 260.571 3580
-2115.42 260.571 3580
-2106.86 260.571 3580
-2098.29 260.571 3580
-2089.73 260.571 3580
-2081.17 260.571 3580
-2072.61 260.571 3580
-2064.05 260.571 3580
-2055.49 260.571 3580
-2046.93 260.571 3580
-2033.81 259.989 3572
-2016.77 258.897 3557
-2008.26 258.897 3557
-1986.82 257.223 3534
-1986.77 258.315 3549
-1978.28 258.315 3549
-1969.8 258.315 3549
-1961.31 258.315 3549
-1952.82 258.315 3549
-1948.72 258.897 3557
-1952.76 260.571 3580
-1944.2 260.571 3580
-1935.64 260.571 3580
-1927.08 260.571 3580
-1918.52 260.571 3580
-1909.96 260.571 3580
-1897.15 259.989 3572
-1888.6 259.989 3572
-1880.06 259.989 3572
-1871.52 259.989 3572
-1862.98 259.989 3572
-1862.74 261.154 3588
-1854.16 261.154 3588
-1845.58 261.154 3588
-1844.68 262.245 3603
-1836.07 262.245 3603
-1827.45 262.245 3603
-1818.84 262.245 3603
-1802.68 261.154 3588
-1567.52 260.571 3580
-1558.96 260.571 3580
-1550.4 260.571 3580
-1528.49 258.315 3549
-1520 258.315 3549
-1486.39 254.021 3490
-1472.11 253.002 3476
-1439.8 248.853 3419
-1431.62 248.853 3419
-1397.63 244.34 3357
-1383.81 243.321 3343
-1373.34 242.885 3337
-1362.5 242.375 3330
-1354.54 242.375 3330
-1341.32 241.429 3317
-1330.57 240.919 3310
-1319.86 240.41 3303
-1311.96 240.41 3303
-1301.69 239.973 3297
-1286.35 238.59 3278
-1270.71 237.134 3258
-1262.92 237.134 3258
-1252.82 236.698 3252
-1240.07 235.752 3239
-1213.68 232.185 3190
-1206.05 232.185 3190
-1182.64 229.128 3148
-1172.88 228.691 3142
-1102.07 221.995 3050
-1100.88 223.232 3067
-1093.54 223.232 3067
-1086.21 223.232 3067
-1078.87 223.232 3067
-1067.35 222.359 3055
-1060.04 222.359 3055
-1051.01 221.995 3050
-1043.72 221.995 3050
-1036.43 221.995 3050
-1030.82 222.359 3055
-1023.51 222.359 3055
-1016.21 222.359 3055
-1008.9 222.359 3055
-1001.6 222.359 3055
-987.132 220.758 3033
-974.71 219.593 3017
-967.495 219.593 3017
-960.281 219.593 3017
-949.591 218.793 3006
-937.387 217.628 2990
-928.37 217.191 2984
-921.235 217.191 2984
-909.198 216.027 2968
-902.1 216.027 2968
-893.495 215.663 2963
-886.41 215.663 2963
-874.576 214.498 2947
-864.585 213.77 2937
-856.102 213.406 2932
-849.091 213.406 2932
-842.079 213.406 2932
-832.22 212.679 2922
-823.82 212.315 2917
-813.765 211.514 2906
-806.815 211.514 2906
-795.738 210.422 2891
-790.189 210.786 2896
-783.263 210.786 2896
-776.338 210.786 2896
-769.413 210.786 2896
-765.121 211.514 2906
-758.172 211.514 2906
-751.222 211.514 2906
-744.273 211.514 2906
-737.324 211.514 2906
-727.862 210.786 2896
-720.937 210.786 2896
-714.011 210.786 2896
-707.086 210.786 2896
-698.952 210.422 2891
-694.433 211.15 2901
-687.495 211.15 2901
-680.558 211.15 2901
-673.621 211.15 2901
-666.684 211.15 2901
-659.747 211.15 2901
-651.684 210.786 2896
-643.646 210.422 2891
-636.733 210.422 2891
-629.82 210.422 2891
-619.674 209.331 2876
-612.797 209.331 2876
-605.919 209.331 2876
-599.042 209.331 2876
-591.135 208.967 2871
-616.965 288.448 3963
-607.489 288.448 3963
-598.012 288.448 3963
-597 292.597 4020
-587.387 292.597 4020
-577.774 292.597 4020
-568.161 292.597 4020
-557.158 291.869 4010
-547.569 291.869 4010
-535.431 290.486 3991
-519.694 287.065 3944
-509.099 286.41 3935
-498.419 285.682 3925
-489.033 285.682 3925
-475.248 283.062 3889
-460.557 279.787 3844
-449.251 278.477 3826
-440.102 278.477 3826
-430.953 278.477 3826
-421.803 278.477 3826
-412.654 278.477 3826
-403.505 278.477 3826
-391.676 276.584 3800
-216.827 164.568 2261
-211.42 164.568 2261
-206.014 164.568 2261
-200.252 164.276 2257
-194.855 164.276 2257
-187.947 162.966 2239
-180.88 161.438 2218
-174.943 160.855 2210
-169.658 160.855 2210
-163.481 159.982 2198
-158.009 159.764 2195
-151.159 158.09 2172
-145.965 158.09 2172
-140.577 157.871 2169
-135.265 157.726 2167
-129.723 157.289 2161
-124.21 156.852 2155
-119.056 156.852 2155
-113.903 156.852 2155
-108.498 156.488 2150
-103.212 156.27 2147
-98.078 156.27 2147
-92.814 156.052 2144
-87.4826 155.688 2139
-82.252 155.469 2136
-77.1442 155.469 2136
-71.9352 155.251 2133
-66.8346 155.251 2133
-61.676 155.105 2131
-56.5802 155.105 2131
-51.4843 155.105 2131
-46.3884 155.105 2131
-41.3313 155.251 2133
-36.2816 155.469 2136
-31.1738 155.469 2136
-26.1026 155.688 2139
-21.017 155.906 2142
-15.9097 156.052 2144
-10.7828 156.052 2144
-5.6558 156.052 2144
-0.529582 156.27 2147
4.60455 156.27 2147
9.76589 156.707 2153
14.9144 156.707 2153
20.0815 156.852 2155
25.2699 157.071 2158
30.5149 157.507 2164
35.6897 157.507 2164
40.8645 157.507 2164
46.1031 157.726 2167
51.285 157.726 2167
56.467 157.726 2167
61.7058 157.871 2169
66.8926 157.871 2169
72.0793 157.871 2169
77.266 157.871 2169
82.4528 157.871 2169
87.5587 157.726 2167
92.8262 157.871 2169
98.013 157.871 2169
103.2 157.871 2169
108.386 157.871 2169
113.573 157.871 2169
118.76 157.871 2169
123.832 157.726 2167
129.014 157.726 2167
134.196 157.726 2167
139.378 157.726 2167
144.36 157.507 2164
149.535 157.507 2164
154.71 157.507 2164
159.663 157.289 2161
164.83 157.289 2161
169.998 157.289 2161
175.166 157.289 2161
180.333 157.289 2161
185.501 157.289 2161
190.668 157.289 2161
195.836 157.289 2161
201.004 157.289 2161
206.171 157.289 2161
211.632 157.507 2164
216.807 157.507 2164
222.29 157.726 2167
227.471 157.726 2167
232.653 157.726 2167
237.835 157.726 2167
243.242 157.871 2169
248.428 157.871 2169
253.615 157.871 2169
258.563 157.726 2167
263.745 157.726 2167
268.927 157.726 2167
274.109 157.726 2167
279.291 157.726 2167
284.473 157.726 2167
289.922 157.871 2169
295.109 157.871 2169
300.296 157.871 2169
305.482 157.871 2169
310.669 157.871 2169
315.856 157.871 2169
466.794 222.359 3055
474.099 222.359 3055
481.405 222.359 3055
487.91 221.995 3050
488.872 219.157 3011
496.072 219.157 3011
501.434 218.356 3000
505.047 216.827 2979
509.42 215.663 2963
515.634 215.299 2958
522.708 215.299 2958
528.885 214.935 2953
535.947 214.935 2953
543.008 214.935 2953
550.07 214.935 2953
557.132 214.935 2953
564.193 214.935 2953
570.094 214.498 2947
577.141 214.498 2947
582.206 213.77 2937
589.229 213.77 2937
596.252 213.77 2937
603.276 213.77 2937
609.26 213.406 2932
616.271 213.406 2932
623.283 213.406 2932
630.294 213.406 2932
637.305 213.406 2932
644.316 213.406 2932
651.328 213.406 2932
658.339 213.406 2932
665.35 213.406 2932
671.215 213.043 2927
678.214 213.043 2927
685.214 213.043 2927
692.213 213.043 2927
698.018 212.679 2922
705.005 212.679 2922
711.993 212.679 2922
718.98 212.679 2922
725.968 212.679 2922
732.955 212.679 2922
739.942 212.679 2922
746.93 212.679 2922
753.917 212.679 2922
760.904 212.679 2922
767.892 212.679 2922
774.879 212.679 2922
781.867 212.679 2922
788.854 212.679 2922
795.841 212.679 2922
802.829 212.679 2922
809.816 212.679 2922
815.406 212.315 2917
822.381 212.315 2917
829.357 212.315 2917
836.332 212.315 2917
843.308 212.315 2917
848.534 211.878 2911
855.495 211.878 2911
862.456 211.878 2911
869.417 211.878 2911
874.873 211.514 2906
881.822 211.514 2906
888.771 211.514 2906
895.721 211.514 2906
901.117 211.15 2901
906.489 210.786 2896
914.991 211.15 2901
921.928 211.15 2901
930.466 211.514 2906
937.415 211.514 2906
944.364 211.514 2906
951.314 211.514 2906
956.614 211.15 2901
963.551 211.15 2901
970.488 211.15 2901
977.425 211.15 2901
1368.69 279.787 3844
1377.88 279.787 3844
1387.07 279.787 3844
1389.72 278.477 3826
1386.44 276.002 3792
1388.88 274.692 3774
1391.61 273.454 3757
1400.6 273.454 3757
1403.2 272.217 3740
1403.08 270.47 3716
1405.51 269.233 3699
1414.36 269.233 3699
1420.12 268.651 3691
1419.66 266.904 3667
1428.43 266.904 3667
1437.2 266.904 3667
1442.42 266.249 3658
1447.99 265.666 3650
1447.54 263.992 3627
1431.32 259.48 3565
1439.84 259.48 3565
1420.74 254.53 3497
1400.09 249.362 3426
1396.77 247.324 3398
1404.9 247.324 3398
1395.98 244.34 3357
1389.78 241.866 3323
1375.86 238.081 3271
1370.14 235.752 3239
1385.97 237.134 3258
1393.76 237.134 3258
1432.53 242.375 3330
1463.85 246.305 3384
1493.25 249.872 3433
1501.46 249.872 3433
1534.74 254.021 3490
1543.08 254.021 3490
1551.43 254.021 3490
1559.78 254.021 3490
1564.98 253.511 3483
1573.3 253.511 3483
1581.63 253.511 3483
1402.18 215.663 2963
1409.27 215.663 2963
1416.36 215.663 2963
1418.64 214.935 2953
1417.97 213.77 2937
1417.72 212.679 2922
1424.71 212.679 2922
1429.24 212.315 2917
1436.22 212.315 2917
1440.23 211.878 2911
1447.19 211.878 2911
1451.65 211.514 2906
1456.09 211.15 2901
1455.46 210.058 2886
1462.36 210.058 2886
1464.17 209.331 2876
1471.05 209.331 2876
1475.36 208.967 2871
1482.22 208.967 2871
1486.5 208.603 2866
1493.35 208.603 2866
1500.2 208.603 2866
1504.95 208.312 2862
1511.8 208.312 2862
1518.64 208.312 2862
1525.49 208.312 2862
1526.98 207.584 2852
1533.8 207.584 2852
1540.62 207.584 2852
1547.44 207.584 2852
1551.53 207.22 2847
1558.34 207.22 2847
1562.4 206.856 2842
1571.95 207.22 2847
1578.76 207.22 2847
1585.57 207.22 2847
1592.38 207.22 2847
1599.19 207.22 2847
1606 207.22 2847
1612.8 207.22 2847
1619.61 207.22 2847
1626.42 207.22 2847
1630.36 206.856 2842
1637.16 206.856 2842
1643.95 206.856 2842
1650.75 206.856 2842
1657.54 206.856 2842
1664.34 206.856 2842
1671.14 206.856 2842
1674.98 206.492 2837
1681.76 206.492 2837
1688.55 206.492 2837
1695.33 206.492 2837
1702.12 206.492 2837
1705.89 206.128 2832
1712.66 206.128 2832
1717 205.837 2828
1723.77 205.837 2828
1724.41 205.109 2818
1731.15 205.109 2818
1734.8 204.745 2813
1741.53 204.745 2813
1748.26 204.745 2813
1752.49 204.454 2809
1759.21 204.454 2809
1765.92 204.454 2809
1766.33 203.726 2799
1769.86 203.362 2794
1776.54 203.362 2794
1783.22 203.362 2794
1789.9 203.362 2794
1794.01 203.071 2790
1800.68 203.071 2790
1807.35 203.071 2790
1814.02 203.071 2790
1820.7 203.071 2790
1824.09 202.707 2785
1830.75 202.707 2785
1837.41 202.707 2785
1840.76 202.343 2780
1847.41 202.343 2780
1854.06 202.343 2780
1860.7 202.343 2780
1867.35 202.343 2780
1871.3 202.052 2776
1877.94 202.052 2776
1884.58 202.052 2776
1887.81 201.688 2771
1894.44 201.688 2771
1901.06 201.688 2771
1907.69 201.688 2771
1914.32 201.688 2771
1920.94 201.688 2771
1921.31 201.033 2762
1927.91 201.033 2762
1934.52 201.033 2762
1941.12 201.033 2762
1947.73 201.033 2762
1954.33 201.033 2762
1960.94 201.033 2762
1963.98 200.669 2757
1967.71 200.378 2753
1967.84 199.723 2744
1974.41 199.723 2744
1977.36 199.359 2739
1981.01 199.068 2735
1990.46 199.359 2739
2003.57 200.014 2748
2010.14 200.014 2748
2016.71 200.014 2748
2023.28 200.014 2748
2029.85 200.014 2748
2036.43 200.014 2748
2040.02 199.723 2744
2039.87 199.068 2735
2042.67 198.704 2730
2049.2 198.704 2730
2045.94 197.758 2717
2052.44 197.758 2717
2065.75 198.413 2726
2079.11 199.068 2735
2092.52 199.723 2744
2099.08 199.723 2744
-2099.42 210.807 2804
-2099.44 211.484 2813
-2096.43 211.859 2818
-2089.69 211.859 2818
-2082.95 211.859 2818
-2079.9 212.235 2823
-2073.15 212.235 2823
-2066.39 212.235 2823
-2056 211.859 2818
-2045.62 211.484 2813
-2038.89 211.484 2813
-2025.67 210.807 2804
-2008.88 209.754 2790
-1995.03 209.003 2780
-1995.54 209.754 2790
-1988.87 209.754 2790
-1995.69 211.183 2809
-1991.81 211.484 2813
-1992.14 212.235 2823
-1985.39 212.235 2823
-1978.64 212.235 2823
-1985.16 213.664 2842
-1981.84 214.04 2847
-1975.03 214.04 2847
-1975.14 214.792 2857
-1968.31 214.792 2857
-1961.48 214.792 2857
-1954.64 214.792 2857
-1944.4 214.416 2852
-1940.98 214.792 2857
-2016.74 223.964 2979
-2009.62 223.964 2979
-2009.89 224.791 2990
-2013.45 225.993 3006
-2016.94 227.196 3022
-2009.72 227.196 3022
-2017.07 228.85 3044
-2017.05 229.677 3055
-2009.75 229.677 3055
-2002.44 229.677 3055
-2132.54 269.147 3580
-2123.98 269.147 3580
-2115.42 269.147 3580
-2106.86 269.147 3580
-2098.29 269.147 3580
-2089.73 269.147 3580
-2081.17 269.147 3580
-2072.61 269.147 3580
-2064.05 269.147 3580
-2055.49 269.147 3580
-2046.93 269.147 3580
-2033.81 268.546 3572
-2021.3 268.02 3565
-2012.78 268.02 3565
-1986.82 265.689 3534
-1986.77 266.817 3549
-1978.28 266.817 3549
-1969.8 266.817 3549
-1961.31 266.817 3549
-1952.82 266.817 3549
-1948.72 267.418 3557
-1952.76 269.147 3580
-1944.2 269.147 3580
-1935.64 269.147 3580
-1922.77 268.546 3572
-1914.23 268.546 3572
-1905.69 268.546 3572
-1889.18 267.418 3557
-1880.67 267.418 3557
-1876.38 268.02 3565
-1867.85 268.02 3565
-1859.33 268.02 3565
-1858.59 269.147 3580
-1857.78 270.275 3595
-1849.18 270.275 3595
-1848.78 271.478 3611
-1840.14 271.478 3611
-1831.51 271.478 3611
-1822.87 271.478 3611
-1628.47 278.094 3699
-1619.63 278.094 3699
-1610.78 278.094 3699
-1591.54 276.289 3675
-1541.84 269.147 3580
-1533.28 269.147 3580
-1492.77 263.509 3505
-1475.08 261.855 3483
-1445.69 258.096 3433
-1437.48 258.096 3433
-1397.63 252.382 3357
-1389.6 252.382 3357
-1375.81 251.329 3343
-1365.37 250.878 3337
-1357.39 250.878 3337
-1349.41 250.878 3337
-1333.39 249.375 3317
-1325.45 249.375 3317
-1317.52 249.375 3317
-1304.06 248.322 3303
-1293.81 247.871 3297
-1273.44 245.465 3265
-1265.64 245.465 3265
-1252.82 244.488 3252
-1237.77 243.06 3233
-1211.4 239.376 3184
-1203.78 239.376 3184
-1180.39 236.218 3142
-1172.88 236.218 3142
-1158.69 234.865 3124
-1151.22 234.865 3124
-1100.88 230.58 3067
-1093.54 230.58 3067
-1086.21 230.58 3067
-1080.63 230.955 3072
-1073.29 230.955 3072
-1065.94 230.955 3072
-1056.87 230.58 3067
-1043.72 229.301 3050
-1036.43 229.301 3050
-1038.58 231.407 3078
-1031.22 231.407 3078
-1023.86 231.407 3078
-1016.5 231.407 3078
-1009.14 231.407 3078
-989.085 228.474 3039
-976.325 227.196 3022
-969.099 227.196 3022
-961.872 227.196 3022
-949.591 225.993 3006
-937.387 224.791 2990
-926.815 223.964 2979
-919.691 223.964 2979
-907.666 222.761 2963
-900.581 222.761 2963
-888.67 221.558 2947
-881.623 221.558 2947
-874.576 221.558 2947
-867.529 221.558 2947
-857.562 220.806 2937
-850.539 220.806 2937
-843.515 220.806 2937
-836.492 220.806 2937
-825.232 219.678 2922
-815.165 218.851 2911
-808.204 218.851 2911
-798.49 218.1 2901
-792.917 218.475 2906
-785.968 218.475 2906
-779.019 218.475 2906
-772.07 218.475 2906
-766.437 218.851 2911
-761.042 219.302 2917
-754.066 219.302 2917
-747.091 219.302 2917
-738.593 218.851 2911
-730.375 218.475 2906
-723.426 218.475 2906
-715.244 218.1 2901
-707.086 217.724 2896
-698.952 217.348 2891
-694.433 218.1 2901
-687.495 218.1 2901
-680.558 218.1 2901
-673.621 218.1 2901
-666.684 218.1 2901
-658.61 217.724 2896
-650.559 217.348 2891
-643.646 217.348 2891
-636.733 217.348 2891
-629.82 217.348 2891
-619.674 216.22 2876
-612.797 216.22 2876
-605.919 216.22 2876
-599.042 216.22 2876
-592.165 216.22 2876
-566.747 301.475 4010
-557.158 301.475 4010
-547.569 301.475 4010
-535.431 300.047 3991
-520.88 297.19 3953
-510.263 296.513 3944
-498.419 295.085 3925
-489.033 295.085 3925
-478.547 294.408 3916
-463.792 291.025 3871
-451.364 288.995 3844
-442.172 288.995 3844
-430.953 287.642 3826
-421.803 287.642 3826
-412.654 287.642 3826
-403.505 287.642 3826
-394.356 287.642 3826
-218.266 171.112 2276
-212.823 171.112 2276
-207.38 171.112 2276
-200.607 169.984 2261
-195.2 169.984 2261
-188.702 169.006 2248
-182.348 168.104 2236
-175.576 166.751 2218
-170.272 166.751 2218
-164.15 165.924 2207
-158.009 165.022 2195
-151.577 163.744 2178
-146.368 163.744 2178
-140.771 163.293 2172
-135.265 162.917 2167
-129.723 162.466 2161
-124.21 162.015 2155
-119.056 162.015 2155
-113.798 161.864 2153
-108.346 161.413 2147
-103.068 161.188 2144
-97.941 161.188 2144
-92.814 161.188 2144
-87.3599 160.586 2136
-82.252 160.586 2136
-77.1442 160.586 2136
-71.9352 160.361 2133
-66.7719 160.21 2131
-61.676 160.21 2131
-56.5802 160.21 2131
-51.4843 160.21 2131
-46.3884 160.21 2131
-41.3313 160.361 2133
-36.2816 160.586 2136
-31.1738 160.586 2136
-26.1026 160.812 2139
-21.017 161.037 2142
-15.9097 161.188 2144
-10.7828 161.188 2144
-5.6558 161.188 2144
-0.529582 161.413 2147
4.61098 161.639 2150
9.76589 161.864 2153
14.9144 161.864 2153
20.1094 162.24 2158
25.305 162.466 2161
30.5149 162.691 2164
35.6897 162.691 2164
40.9211 162.917 2167
46.2094 163.293 2172
51.4034 163.293 2172
56.5973 163.293 2172
61.7912 163.293 2172
66.9851 163.293 2172
72.2787 163.518 2175
77.4798 163.518 2175
82.6809 163.518 2175
87.8819 163.518 2175
93.083 163.518 2175
98.1485 163.293 2172
103.342 163.293 2172
108.536 163.293 2172
113.73 163.293 2172
118.924 163.293 2172
124.118 163.293 2172
129.133 163.067 2169
134.32 163.067 2169
139.378 162.917 2167
144.56 162.917 2167
149.535 162.691 2164
154.71 162.691 2164
159.884 162.691 2164
165.059 162.691 2164
170.234 162.691 2164
175.409 162.691 2164
180.584 162.691 2164
185.501 162.466 2161
190.668 162.466 2161
195.836 162.466 2161
201.004 162.466 2161
206.171 162.466 2161
211.632 162.691 2164
216.807 162.691 2164
222.29 162.917 2167
227.471 162.917 2167
232.653 162.917 2167
237.835 162.917 2167
243.242 163.067 2169
248.428 163.067 2169
253.615 163.067 2169
258.563 162.917 2167
263.745 162.917 2167
268.927 162.917 2167
274.109 162.917 2167
279.291 162.917 2167
284.473 162.917 2167
289.922 163.067 2169
295.109 163.067 2169
300.296 163.067 2169
305.482 163.067 2169
310.669 163.067 2169
315.856 163.067 2169
457.082 228.474 3039
465.113 228.85 3044
472.392 228.85 3044
479.672 228.85 3044
486.151 228.474 3039
487.086 225.542 3000
494.26 225.542 3000
500.598 225.167 2995
505.047 223.964 2979
509.42 222.761 2963
515.634 222.385 2958
522.708 222.385 2958
529.781 222.385 2958
536.854 222.385 2958
543.928 222.385 2958
551.001 222.385 2958
558.075 222.385 2958
564.193 222.009 2953
570.094 221.558 2947
577.141 221.558 2947
582.206 220.806 2937
589.229 220.806 2937
596.252 220.806 2937
603.276 220.806 2937
609.26 220.43 2932
616.271 220.43 2932
623.283 220.43 2932
630.294 220.43 2932
637.305 220.43 2932
644.316 220.43 2932
651.328 220.43 2932
658.339 220.43 2932
665.35 220.43 2932
672.362 220.43 2932
678.214 220.054 2927
685.214 220.054 2927
692.213 220.054 2927
698.018 219.678 2922
705.005 219.678 2922
711.993 219.678 2922
718.98 219.678 2922
725.968 219.678 2922
732.955 219.678 2922
739.942 219.678 2922
746.93 219.678 2922
753.917 219.678 2922
760.904 219.678 2922
767.892 219.678 2922
774.879 219.678 2922
781.867 219.678 2922
788.854 219.678 2922
795.841 219.678 2922
802.829 219.678 2922
809.816 219.678 2922
815.406 219.302 2917
823.791 219.678 2922
830.778 219.678 2922
837.766 219.678 2922
843.308 219.302 2917
850.283 219.302 2917
857.259 219.302 2917
864.234 219.302 2917
869.417 218.851 2911
874.873 218.475 2906
881.822 218.475 2906
888.771 218.475 2906
894.179 218.1 2901
901.117 218.1 2901
908.054 218.1 2901
914.991 218.1 2901
921.928 218.1 2901
932.067 218.851 2911
939.028 218.851 2911
945.989 218.851 2911
952.95 218.851 2911
956.614 218.1 2901
963.551 218.1 2901
970.488 218.1 2901
977.425 218.1 2901
1286.88 283.131 3766
1295.88 283.131 3766
1319.79 286.364 3809
1328.9 286.364 3809
1350.3 288.995 3844
1359.49 288.995 3844
1368.69 288.995 3844
1377.88 288.995 3844
1387.07 288.995 3844
1389.72 287.642 3826
1386.44 285.086 3792
1388.88 283.732 3774
1391.61 282.454 3757
1400.6 282.454 3757
1403.2 281.176 3740
1403.08 279.372 3716
1405.51 278.094 3699
1414.36 278.094 3699
1420.12 277.492 3691
1419.66 275.688 3667
1428.43 275.688 3667
1437.2 275.688 3667
1445.97 275.688 3667
1454.73 275.688 3667
1447.54 272.681 3627
1434.13 268.546 3572
1442.67 268.546 3572
1426.84 264.035 3512
1402.95 258.096 3433
1399.65 255.991 3405
1407.79 255.991 3405
1395.98 252.382 3357
1389.78 249.826 3323
1378.8 246.443 3278
1378.18 244.939 3258
1391.5 245.916 3271
1399.32 245.916 3271
1449.73 253.359 3370
1475.96 256.517 3412
1508.48 260.727 3468
1516.77 260.727 3468
1534.74 262.381 3490
1543.08 262.381 3490
1551.43 262.381 3490
1559.78 262.381 3490
1564.98 261.855 3483
1573.3 261.855 3483
1581.63 261.855 3483
1417.7 226.369 3011
1424.9 226.369 3011
1432.1 226.369 3011
1416.36 222.761 2963
1410.95 220.806 2937
1415.56 220.43 2932
1415.29 219.302 2917
1422.27 219.302 2917
1429.24 219.302 2917
1436.22 219.302 2917
1440.23 218.851 2911
1447.19 218.851 2911
1454.15 218.851 2911
1458.6 218.475 2906
1455.46 216.972 2886
1462.36 216.972 2886
1464.17 216.22 2876
1471.05 216.22 2876
1475.36 215.844 2871
1482.22 215.844 2871
1486.5 215.468 2866
1493.35 215.468 2866
1500.2 215.468 2866
1504.95 215.167 2862
1511.8 215.167 2862
1518.64 215.167 2862
1522.82 214.792 2857
1526.98 214.416 2852
1533.8 214.416 2852
1540.62 214.416 2852
1544.72 214.04 2847
1548.81 213.664 2842
1555.6 213.664 2842
1559.65 213.288 2837
1569.19 213.664 2842
1575.99 213.664 2842
1585.57 214.04 2847
1592.38 214.04 2847
1599.19 214.04 2847
1606 214.04 2847
1612.8 214.04 2847
1619.61 214.04 2847
1626.42 214.04 2847
1630.36 213.664 2842
1637.16 213.664 2842
1643.95 213.664 2842
1650.75 213.664 2842
1657.54 213.664 2842
1664.34 213.664 2842
1671.14 213.664 2842
1674.98 213.288 2837
1681.76 213.288 2837
1688.55 213.288 2837
1695.33 213.288 2837
1702.12 213.288 2837
1708.9 213.288 2837
1712.66 212.912 2832
1719.43 212.912 2832
1726.2 212.912 2832
1724.41 211.859 2818
1731.15 211.859 2818
1734.8 211.484 2813
1741.53 211.484 2813
1748.26 211.484 2813
1752.49 211.183 2809
1759.21 211.183 2809
1765.92 211.183 2809
1766.33 210.431 2799
1773.02 210.431 2799
1776.54 210.055 2794
1783.22 210.055 2794
1789.9 210.055 2794
1794.01 209.754 2790
1800.68 209.754 2790
1807.35 209.754 2790
1814.02 209.754 2790
1817.43 209.379 2785
1824.09 209.379 2785
1827.47 209.003 2780
1834.11 209.003 2780
1840.76 209.003 2780
1847.41 209.003 2780
1851.39 208.702 2776
1858.03 208.702 2776
1864.67 208.702 2776
1871.3 208.702 2776
1877.94 208.702 2776
1884.58 208.702 2776
1887.81 208.326 2771
1894.44 208.326 2771
1901.06 208.326 2771
1907.69 208.326 2771
1914.32 208.326 2771
1920.94 208.326 2771
1921.31 207.649 2762
1927.91 207.649 2762
1938.02 208.025 2767
1944.64 208.025 2767
1951.25 208.025 2767
1954.33 207.649 2762
1960.94 207.649 2762
1963.98 207.273 2757
1967.71 206.973 2753
1970.71 206.597 2748
1977.28 206.597 2748
1980.97 206.296 2744
1983.91 205.92 2739
1994.09 206.296 2744
2003.57 206.597 2748
2010.14 206.597 2748
2016.71 206.597 2748
2026.96 206.973 2753
2033.55 206.973 2753
2040.13 206.973 2753
2040.02 206.296 2744
2042.86 205.92 2739
2042.67 205.244 2730
2049.2 205.244 2730
2048.95 204.567 2721
2055.46 204.567 2721
2068.78 205.244 2730
2085.96 206.296 2744
2092.52 206.296 2744
2099.08 206.296 2744
-2099.42 217.524 2804
-2099.44 218.222 2813
-2096.43 218.61 2818
-2089.69 218.61 2818
-2082.95 218.61 2818
-2079.9 218.998 2823
-2073.15 218.998 2823
-2066.39 218.998 2823
-2056 218.61 2818
-2045.62 218.222 2813
-2038.89 218.222 2813
-2025.67 217.524 2804
-2008.88 216.438 2790
-1995.03 215.662 2780
-1995.54 216.438 2790
-1988.87 216.438 2790
-1995.69 217.912 2809
-1991.81 218.222 2813
-1992.14 218.998 2823
-1985.39 218.998 2823
-1978.64 218.998 2823
-1985.16 220.472 2842
-1981.84 220.86 2847
-1975.03 220.86 2847
-1975.14 221.636 2857
-1968.31 221.636 2857
-1961.48 221.636 2857
-1954.64 221.636 2857
-1944.4 221.248 2852
-1940.98 221.636 2857
-2016.74 231.1 2979
-2009.62 231.1 2979
-2009.89 231.953 2990
-2013.45 233.194 3006
-2016.94 234.436 3022
-2009.72 234.436 3022
-2017.07 236.142 3044
-2017.05 236.996 3055
-2009.75 236.996 3055
-2002.44 236.996 3055
-2132.13 276.56 3565
-2132.54 277.723 3580
-2123.98 277.723 3580
-2115.42 277.723 3580
-2106.86 277.723 3580
-2098.29 277.723 3580
-2089.73 277.723 3580
-2081.17 277.723 3580
-2072.61 277.723 3580
-2059.44 277.103 3572
-2050.9 277.103 3572
-2042.36 277.103 3572
-2033.81 277.103 3572
-2021.3 276.56 3565
-2012.78 276.56 3565
-1982.89 273.612 3527
-1982.85 274.775 3542
-1974.38 274.775 3542
-1965.91 274.775 3542
-1957.44 274.775 3542
-1944.57 274.155 3534
-1944.34 275.318 3549
-1948.4 277.103 3572
-1939.85 277.103 3572
-1931.31 277.103 3572
-1922.77 277.103 3572
-1914.23 277.103 3572
-1905.69 277.103 3572
-1889.18 275.939 3557
-1880.67 275.939 3557
-1876.38 276.56 3565
-1867.85 276.56 3565
-1862.98 277.103 3572
-1858.59 277.723 3580
-1861.92 279.507 3603
-1853.3 279.507 3603
-1852.88 280.749 3619
-1844.22 280.749 3619
-1835.57 280.749 3619
-1826.91 280.749 3619
-1814.24 280.128 3611
-1682.02 294.79 3800
-1672.94 294.79 3800
-1663.85 294.79 3800
-1647.36 293.471 3783
-1595.01 285.714 3683
-1541.84 277.723 3580
-1533.28 277.723 3580
-1502.14 273.612 3527
-1481.01 271.284 3497
-1451.59 267.406 3447
-1443.34 267.406 3447
-1408.87 262.518 3384
-1389.6 260.424 3357
-1381.58 260.424 3357
-1373.55 260.424 3357
-1362.67 259.881 3350
-1354.66 259.881 3350
-1346.65 259.881 3350
-1338.64 259.881 3350
-1330.63 259.881 3350
-1317.49 258.872 3337
-1296.16 256.235 3303
-1278.52 254.295 3278
-1270.68 254.295 3278
-1255.13 252.744 3258
-1237.77 250.804 3233
-1213.68 247.468 3190
-1206.05 247.468 3190
-1180.39 243.745 3142
-1172.88 243.745 3142
-1158.69 242.348 3124
-1151.22 242.348 3124
-1120.68 237.461 3061
-1100.88 237.927 3067
-1093.54 237.927 3067
-1086.21 237.927 3067
-1080.63 238.314 3072
-1073.29 238.314 3072
-1065.94 238.314 3072
-1058.59 238.314 3072
-1049.54 237.927 3067
-1036.43 236.608 3050
-1038.58 238.78 3078
-1031.22 238.78 3078
-1023.86 238.78 3078
-1016.5 238.78 3078
-1009.14 238.78 3078
-989.085 235.754 3039
-976.325 234.436 3022
-969.099 234.436 3022
-961.872 234.436 3022
-949.591 233.194 3006
-937.387 231.953 2990
-926.815 231.1 2979
-919.691 231.1 2979
-907.666 229.859 2963
-900.581 229.859 2963
-888.67 228.617 2947
-881.623 228.617 2947
-874.576 228.617 2947
-867.529 228.617 2947
-860.482 228.617 2947
-853.435 228.617 2947
-846.387 228.617 2947
-837.916 228.23 2942
-830.881 228.23 2942
-816.845 226.29 2917
-809.87 226.29 2917
-799.866 225.437 2906
-794.282 225.825 2911
-787.32 225.825 2911
-780.359 225.825 2911
-773.398 225.825 2911
-769.333 226.678 2922
-762.346 226.678 2922
-755.359 226.678 2922
-748.371 226.678 2922
-740.115 226.29 2917
-731.632 225.825 2911
-724.671 225.825 2911
-716.477 225.437 2906
-708.307 225.049 2901
-698.952 224.273 2891
-694.433 225.049 2901
-687.495 225.049 2901
-680.558 225.049 2901
-673.621 225.049 2901
-666.684 225.049 2901
-658.61 224.661 2896
-650.559 224.273 2891
-643.646 224.273 2891
-636.733 224.273 2891
-629.82 224.273 2891
-619.674 223.109 2876
-612.797 223.109 2876
-605.919 223.109 2876
-599.042 223.109 2876
-592.165 223.109 2876
-566.747 311.081 4010
-557.158 311.081 4010
-547.569 311.081 4010
-535.431 309.607 3991
-522.198 307.435 3963
-510.263 305.961 3944
-499.689 305.263 3935
-490.279 305.263 3935
-478.547 303.789 3916
-464.87 300.996 3880
-452.421 298.902 3853
-443.208 298.902 3853
-430.953 296.807 3826
-421.803 296.807 3826
-412.654 296.807 3826
-403.505 296.807 3826
-394.356 296.807 3826
-385.207 296.807 3826
-218.266 176.564 2276
-212.823 176.564 2276
-207.38 176.564 2276
-201.938 176.564 2276
-196.495 176.564 2276
-188.702 174.392 2248
-182.348 173.461 2236
-175.576 172.064 2218
-170.272 172.064 2218
-164.15 171.211 2207
-158.009 170.28 2195
-151.577 168.961 2178
-146.368 168.961 2178
-140.771 168.496 2172
-135.265 168.108 2167
-129.723 167.642 2161
-124.21 167.177 2155
-119.056 167.177 2155
-113.798 167.022 2153
-108.346 166.556 2147
-103.068 166.324 2144
-97.941 166.324 2144
-92.814 166.324 2144
-87.3599 165.703 2136
-82.252 165.703 2136
-77.1442 165.703 2136
-71.9352 165.47 2133
-66.7719 165.315 2131
-61.676 165.315 2131
-56.5802 165.315 2131
-51.4843 165.315 2131
-46.3884 165.315 2131
-41.3313 165.47 2133
-36.2816 165.703 2136
-31.1738 165.703 2136
-26.1026 165.936 2139
-21.017 166.168 2142
-15.9097 166.324 2144
-10.7978 166.556 2147
-5.66371 166.556 2147
-0.529582 166.556 2147
4.61741 167.022 2153
9.76589 167.022 2153
14.9144 167.022 2153
20.1374 167.642 2161
25.3401 167.875 2164
30.5572 168.108 2167
35.7392 168.108 2167
41.0155 168.496 2172
46.2733 168.728 2175
51.4744 168.728 2175
56.6754 168.728 2175
61.8765 168.728 2175
67.0776 168.728 2175
72.2787 168.728 2175
77.4798 168.728 2175
82.6809 168.728 2175
87.8819 168.728 2175
93.083 168.728 2175
98.2841 168.728 2175
103.485 168.728 2175
108.686 168.728 2175
113.887 168.728 2175
119.088 168.728 2175
124.118 168.496 2172
129.312 168.496 2172
134.506 168.496 2172
139.507 168.263 2169
144.694 168.263 2169
149.742 168.108 2167
154.924 168.108 2167
159.884 167.875 2164
165.059 167.875 2164
170.234 167.875 2164
175.409 167.875 2164
180.584 167.875 2164
185.758 167.875 2164
190.668 167.642 2161
195.836 167.642 2161
201.004 167.642 2161
206.171 167.642 2161
211.632 167.875 2164
216.807 167.875 2164
222.29 168.108 2167
227.471 168.108 2167
232.653 168.108 2167
237.835 168.108 2167
243.242 168.263 2169
248.428 168.263 2169
253.615 168.263 2169
258.563 168.108 2167
263.745 168.108 2167
268.927 168.108 2167
274.109 168.108 2167
279.291 168.108 2167
284.473 168.108 2167
289.922 168.263 2169
295.109 168.263 2169
300.296 168.263 2169
305.482 168.263 2169
310.669 168.263 2169
315.856 168.263 2169
457.082 235.754 3039
465.113 236.142 3044
