-2599.81 -1716.96 3800
-2632.99 -1744.97 3862
-2623.75 -1744.97 3862
-2614.52 -1744.97 3862
-1406.24 -1782.02 3944
-1410.26 -1799.19 3982
-1403.91 -1803.26 3991
-1394.36 -1803.26 3991
-1404.94 -1829.46 4049
-1409.05 -1847.54 4089
-1399.27 -1847.54 4089
-1389.49 -1847.54 4089
-1379.71 -1847.54 4089
-1369.93 -1847.54 4089
-1360.16 -1847.54 4089
-128.014 -1003.52 2221
-122.703 -1003.52 2221
-117.392 -1003.52 2221
-111.778 -1000.81 2215
-105.808 -994.48 2201
-100.545 -994.48 2201
-94.8919 -990.414 2192
-89.4048 -987.703 2186
-83.9849 -985.444 2181
-78.7694 -985.444 2181
-73.3517 -982.733 2175
-67.8059 -977.763 2164
-62.5443 -976.407 2161
-57.3767 -976.407 2161
-52.1366 -975.052 2158
-46.802 -971.437 2150
-41.5445 -968.726 2144
-36.4175 -968.726 2144
-31.1738 -965.111 2136
-26.0294 -963.756 2133
-20.8797 -961.497 2128
-15.7465 -958.786 2122
-10.6721 -958.786 2122
-5.58457 -956.527 2117
-0.521442 -955.171 2114
4.53377 -955.171 2114
9.58899 -955.171 2114
14.6303 -954.267 2112
19.6062 -950.653 2104
24.661 -951.556 2106
29.7393 -952.912 2109
34.7826 -952.912 2109
39.8259 -952.912 2109
44.8691 -952.912 2109
49.9834 -954.267 2112
55.0338 -954.267 2112
60.0842 -954.267 2112
65.1347 -954.267 2112
70.1851 -954.267 2112
75.2355 -954.267 2112
80.286 -954.267 2112
85.2152 -952.912 2109
90.2584 -952.912 2109
95.3017 -952.912 2109
100.345 -952.912 2109
105.388 -952.912 2109
110.431 -952.912 2109
115.475 -952.912 2109
120.518 -952.912 2109
125.74 -954.267 2112
130.914 -955.171 2114
135.969 -955.171 2114
141.025 -955.171 2114
146.08 -955.171 2114
151.135 -955.171 2114
156.19 -955.171 2114
160.864 -952.912 2109
165.671 -951.556 2106
170.545 -950.653 2104
175.577 -950.653 2104
180.093 -947.942 2098
185.374 -949.297 2101
190.399 -949.297 2101
195.423 -949.297 2101
1477.41 -1652.8 3658
1486.15 -1652.8 3658
1494.9 -1652.8 3658
1503.65 -1652.8 3658
1512.4 -1652.8 3658
1521.14 -1652.8 3658
1526.54 -1649.18 3650
1535.27 -1649.18 3650
1544 -1649.18 3650
1542.94 -1638.79 3627
1544.77 -1631.56 3611
1536.63 -1613.94 3572
1545.17 -1613.94 3572
1534.14 -1593.61 3527
-2765.66 -1692.57 3766
-2756.66 -1692.57 3766
-2760.05 -1700.21 3783
-2751.01 -1700.21 3783
-2748.49 -1704.26 3792
-2751.7 -1711.9 3809
-2742.59 -1711.9 3809
-2733.48 -1711.9 3809
-2724.37 -1711.9 3809
-2715.26 -1711.9 3809
-2706.16 -1711.9 3809
-2690.68 -1707.86 3800
-2663.24 -1696.17 3774
-2648.59 -1692.57 3766
-2639.58 -1692.57 3766
-2630.58 -1692.57 3766
-2633.41 -1700.21 3783
-2624.36 -1700.21 3783
-2615.31 -1700.21 3783
-2606.27 -1700.21 3783
-2608.89 -1707.86 3800
-2599.81 -1707.86 3800
-2632.99 -1735.72 3862
-2623.75 -1735.72 3862
-2614.52 -1735.72 3862
-1406.24 -1772.57 3944
-1410.26 -1789.65 3982
-1403.91 -1793.7 3991
-1394.36 -1793.7 3991
-1404.94 -1819.76 4049
-1409.05 -1837.74 4089
-1399.27 -1837.74 4089
-1389.49 -1837.74 4089
-1379.71 -1837.74 4089
-1369.93 -1837.74 4089
-1360.16 -1837.74 4089
-127.841 -996.848 2218
-122.537 -996.848 2218
-117.233 -996.848 2218
-111.778 -995.5 2215
-105.808 -989.208 2201
-100.545 -989.208 2201
-94.8919 -985.163 2192
-89.4048 -982.466 2186
-84.1004 -981.567 2184
-78.8778 -981.567 2184
-73.4528 -978.871 2178
-67.8059 -972.579 2164
-62.5443 -971.23 2161
-57.3767 -971.23 2161
-52.1366 -969.882 2158
-46.802 -966.287 2150
-41.5445 -963.59 2144
-36.4175 -963.59 2144
-31.1738 -959.995 2136
-26.0294 -958.646 2133
-20.9091 -957.747 2131
-15.7687 -955.051 2125
-10.6872 -955.051 2125
-5.59248 -952.804 2120
-0.522182 -951.455 2117
4.53377 -950.107 2114
9.58899 -950.107 2114
14.6303 -949.208 2112
19.6249 -946.511 2106
24.6375 -945.613 2104
29.697 -946.511 2106
34.7331 -946.511 2106
39.7692 -946.511 2106
44.8053 -946.511 2106
49.8414 -946.511 2106
54.8775 -946.511 2106
59.9989 -947.86 2109
65.0421 -947.86 2109
70.0854 -947.86 2109
75.1287 -947.86 2109
80.1719 -947.86 2109
85.2152 -947.86 2109
90.2584 -947.86 2109
95.3017 -947.86 2109
100.345 -947.86 2109
105.388 -947.86 2109
110.431 -947.86 2109
115.475 -947.86 2109
120.518 -947.86 2109
125.561 -947.86 2109
130.79 -949.208 2112
135.969 -950.107 2114
141.025 -950.107 2114
146.08 -950.107 2114
150.992 -949.208 2112
156.042 -949.208 2112
160.864 -947.86 2109
165.671 -946.511 2106
170.707 -946.511 2106
175.743 -946.511 2106
180.608 -945.613 2104
185.374 -944.264 2101
190.399 -944.264 2101
195.423 -944.264 2101
1477.41 -1644.04 3658
1486.15 -1644.04 3658
1498.58 -1648.08 3667
1507.35 -1648.08 3667
1516.12 -1648.08 3667
1521.14 -1644.04 3658
1529.89 -1644.04 3658
1538.64 -1644.04 3658
1547.39 -1644.04 3658
1552.73 -1640.44 3650
1544.77 -1622.91 3611
1549.97 -1619.32 3603
1558.58 -1619.32 3603
1534.14 -1585.16 3527
1539.51 -1582.01 3520
-2722.33 -1657.18 3707
-2720.06 -1661.2 3716
-2741.08 -1679.53 3757
-2732.1 -1679.53 3757
-2735.44 -1687.13 3774
-2739.42 -1695.18 3792
-2730.35 -1695.18 3792
-2721.28 -1695.18 3792
-2717.94 -1698.75 3800
-2708.85 -1698.75 3800
-2699.76 -1698.75 3800
-2685.01 -1695.18 3792
-2675.94 -1695.18 3792
-2672.5 -1698.75 3800
-2676.03 -1706.8 3818
-2666.9 -1706.8 3818
-2657.77 -1706.8 3818
-2642.4 -1702.78 3809
-2633.29 -1702.78 3809
-2624.18 -1702.78 3809
-2632.92 -1714.4 3835
-2642.22 -1726.47 3862
-2657.53 -1742.56 3898
-2648.21 -1742.56 3898
-2657.17 -1754.63 3925
-2647.78 -1754.63 3925
-2638.4 -1754.63 3925
-1406.24 -1763.13 3944
-1396.81 -1763.13 3944
-1400.74 -1780.11 3982
-1391.22 -1780.11 3982
-1394.88 -1797.1 4020
-1398.71 -1814.54 4059
-1392.42 -1819.01 4069
-1382.69 -1819.01 4069
-1372.96 -1819.01 4069
-1363.23 -1819.01 4069
-1353.5 -1819.01 4069
-127.841 -991.535 2218
-122.537 -991.535 2218
-117.233 -991.535 2218
-111.778 -990.194 2215
-105.808 -983.935 2201
-100.545 -983.935 2201
-94.8919 -979.912 2192
-89.4048 -977.23 2186
-84.1004 -976.336 2184
-78.8778 -976.336 2184
-73.4528 -973.653 2178
-67.8059 -967.395 2164
-62.5443 -966.054 2161
-57.3767 -966.054 2161
-52.1366 -964.713 2158
-46.802 -961.136 2150
-41.5445 -958.454 2144
-36.4175 -958.454 2144
-31.1738 -954.878 2136
-26.066 -954.878 2136
-20.9091 -952.643 2131
-15.7687 -949.96 2125
-10.6872 -949.96 2125
-5.59248 -947.725 2120
-0.522182 -946.384 2117
4.54021 -946.384 2117
9.6026 -946.384 2117
14.6442 -945.043 2114
19.6249 -941.466 2106
24.6375 -940.572 2104
29.697 -941.466 2106
34.7331 -941.466 2106
39.7692 -941.466 2106
44.8053 -941.466 2106
49.8414 -941.466 2106
54.8775 -941.466 2106
59.9989 -942.808 2109
65.0421 -942.808 2109
70.0854 -942.808 2109
75.1287 -942.808 2109
80.1719 -942.808 2109
85.2152 -942.808 2109
90.2584 -942.808 2109
95.3017 -942.808 2109
100.345 -942.808 2109
105.388 -942.808 2109
110.431 -942.808 2109
115.475 -942.808 2109
120.518 -942.808 2109
125.561 -942.808 2109
130.79 -944.149 2112
135.969 -945.043 2114
141.025 -945.043 2114
146.08 -945.043 2114
150.992 -944.149 2112
156.042 -944.149 2112
160.864 -942.808 2109
165.671 -941.466 2106
170.707 -941.466 2106
175.743 -941.466 2106
180.78 -941.466 2106
185.639 -940.572 2104
190.67 -940.572 2104
195.702 -940.572 2104
1477.41 -1635.27 3658
1486.15 -1635.27 3658
1498.58 -1639.3 3667
1507.35 -1639.3 3667
1516.12 -1639.3 3667
1521.14 -1635.27 3658
1529.89 -1635.27 3658
1538.64 -1635.27 3658
1547.39 -1635.27 3658
1552.73 -1631.7 3650
1544.77 -1614.26 3611
1549.97 -1610.69 3603
1558.58 -1610.69 3603
1534.14 -1576.71 3527
1539.51 -1573.58 3520
-2701.76 -1641.18 3691
-2711.17 -1652.3 3716
-2702.29 -1652.3 3716
-2729.64 -1674.53 3766
-2732.92 -1682.09 3783
-2723.87 -1682.09 3783
-2714.82 -1682.09 3783
-2712.21 -1686.09 3792
-2703.15 -1686.09 3792
-2699.76 -1689.65 3800
-2690.68 -1689.65 3800
-2681.59 -1689.65 3800
-2685.16 -1697.65 3818
-2681.64 -1701.21 3826
-2672.49 -1701.21 3826
-2663.34 -1701.21 3826
-2660.43 -1705.21 3835
-2651.26 -1705.21 3835
-2642.09 -1705.21 3835
-2651.46 -1717.22 3862
-2660.7 -1729.22 3889
-2663.67 -1737.23 3907
-2654.32 -1737.23 3907
-2663.94 -1749.68 3935
-2660.6 -1753.68 3944
-2651.17 -1753.68 3944
-2641.74 -1753.68 3944
-1406.24 -1753.68 3944
-1396.81 -1753.68 3944
-1400.74 -1770.57 3982
-1391.22 -1770.57 3982
-1394.88 -1787.47 4020
-1398.71 -1804.81 4059
-1392.42 -1809.26 4069
-1382.69 -1809.26 4069
-1372.96 -1809.26 4069
-1363.23 -1809.26 4069
-1353.5 -1809.26 4069
-127.207 -981.331 2207
-121.929 -981.331 2207
-116.652 -981.331 2207
-111.374 -981.331 2207
-105.808 -978.663 2201
-100.545 -978.663 2201
-94.8919 -974.661 2192
-89.4048 -971.993 2186
-84.1004 -971.104 2184
-78.8778 -971.104 2184
-73.4528 -968.436 2178
-67.8059 -962.211 2164
-62.5443 -960.877 2161
-57.3767 -960.877 2161
-52.0641 -958.209 2155
-46.7367 -954.652 2147
-41.5445 -953.318 2144
-36.4175 -953.318 2144
-31.1738 -949.761 2136
-26.066 -949.761 2136
-20.9091 -947.538 2131
-15.7687 -944.87 2125
-10.6872 -944.87 2125
-5.59248 -942.647 2120
-0.522182 -941.313 2117
4.54021 -941.313 2117
9.6026 -941.313 2117
14.6442 -939.979 2114
19.6249 -936.422 2106
24.6375 -935.532 2104
29.6688 -935.532 2104
34.6507 -934.198 2101
39.7692 -936.422 2106
44.8053 -936.422 2106
49.8414 -936.422 2106
54.8775 -936.422 2106
59.9989 -937.755 2109
65.0421 -937.755 2109
70.0854 -937.755 2109
75.1287 -937.755 2109
80.1719 -937.755 2109
85.094 -936.422 2106
90.1301 -936.422 2106
95.1661 -936.422 2106
100.202 -936.422 2106
105.238 -936.422 2106
110.274 -936.422 2106
115.475 -937.755 2109
120.518 -937.755 2109
125.561 -937.755 2109
130.79 -939.089 2112
135.841 -939.089 2112
140.891 -939.089 2112
145.942 -939.089 2112
150.992 -939.089 2112
156.042 -939.089 2112
160.864 -937.755 2109
165.671 -936.422 2106
170.707 -936.422 2106
175.743 -936.422 2106
180.78 -936.422 2106
185.639 -935.532 2104
190.67 -935.532 2104
195.702 -935.532 2104
1477.41 -1626.51 3658
1486.15 -1626.51 3658
1498.58 -1630.51 3667
1507.35 -1630.51 3667
1516.12 -1630.51 3667
1521.14 -1626.51 3658
1529.89 -1626.51 3658
1538.64 -1626.51 3658
1547.39 -1626.51 3658
1552.73 -1622.95 3650
1544.77 -1605.61 3611
1549.97 -1602.05 3603
1558.58 -1602.05 3603
1543.71 -1578.04 3549
1539.51 -1565.15 3520
-2701.76 -1632.34 3691
-2711.17 -1643.4 3716
-2702.29 -1643.4 3716
-2729.64 -1665.51 3766
-2732.92 -1673.03 3783
-2723.87 -1673.03 3783
-2714.82 -1673.03 3783
-2712.21 -1677.01 3792
-2703.15 -1677.01 3792
-2706.16 -1684.53 3809
-2697.05 -1684.53 3809
-2687.94 -1684.53 3809
-2685.16 -1688.51 3818
-2681.64 -1692.05 3826
-2672.49 -1692.05 3826
-2663.34 -1692.05 3826
-2660.43 -1696.03 3835
-2651.26 -1696.03 3835
-2642.09 -1696.03 3835
-2657.64 -1711.95 3871
-2666.85 -1723.89 3898
-2663.67 -1727.87 3907
-2654.32 -1727.87 3907
-2663.94 -1740.25 3935
-2660.6 -1744.23 3944
-2669.99 -1756.61 3972
-2660.49 -1756.61 3972
-2650.99 -1756.61 3972
-1403.03 -1740.25 3935
-1393.62 -1740.25 3935
-1384.21 -1740.25 3935
-1374.8 -1740.25 3935
-1384.82 -1765.02 3991
-1385.27 -1777.84 4020
-1389 -1795.09 4059
-1379.3 -1795.09 4059
-1372.96 -1799.51 4069
-1363.23 -1799.51 4069
-1353.5 -1799.51 4069
-131.404 -968.083 2189
-127.034 -974.717 2204
-121.764 -974.717 2204
-116.493 -974.717 2204
-111.071 -973.39 2201
-105.52 -970.737 2195
-100.271 -970.737 2195
-94.6322 -966.757 2186
-89.323 -965.872 2184
-83.9849 -964.545 2181
-78.7694 -964.545 2181
-73.4528 -963.219 2178
-67.7119 -955.7 2161
-62.3707 -953.047 2155
-57.2174 -953.047 2155
-52.0158 -952.162 2153
-46.7367 -949.509 2147
-41.5445 -948.182 2144
-36.4175 -948.182 2144
-31.1738 -944.644 2136
-26.066 -944.644 2136
-20.9091 -942.433 2131
-15.7687 -939.779 2125
-10.6872 -939.779 2125
-5.59248 -937.568 2120
-0.522182 -936.241 2117
4.54021 -936.241 2117
9.6026 -936.241 2117
14.6442 -934.915 2114
19.6249 -931.377 2106
24.661 -931.377 2106
29.697 -931.377 2106
34.6507 -929.165 2101
39.7314 -930.492 2104
44.8053 -931.377 2106
49.8414 -931.377 2106
54.8775 -931.377 2106
59.9135 -931.377 2106
65.0421 -932.703 2109
70.0854 -932.703 2109
75.1287 -932.703 2109
80.0579 -931.377 2106
85.0132 -930.492 2104
90.0445 -930.492 2104
95.0758 -930.492 2104
100.107 -930.492 2104
105.138 -930.492 2104
110.17 -930.492 2104
115.201 -930.492 2104
120.232 -930.492 2104
125.264 -930.492 2104
130.605 -932.703 2109
135.841 -934.03 2112
140.891 -934.03 2112
145.942 -934.03 2112
150.992 -934.03 2112
156.042 -934.03 2112
160.864 -932.703 2109
165.907 -932.703 2109
170.707 -931.377 2106
175.743 -931.377 2106
180.78 -931.377 2106
185.816 -931.377 2106
190.852 -931.377 2106
195.888 -931.377 2106
1477.41 -1617.75 3658
1486.15 -1617.75 3658
1494.9 -1617.75 3658
1503.65 -1617.75 3658
1512.4 -1617.75 3658
1521.14 -1617.75 3658
1529.89 -1617.75 3658
1535.27 -1614.21 3650
1544 -1614.21 3650
1546.35 -1607.58 3635
1544.77 -1596.96 3611
1546.53 -1589.89 3595
1555.12 -1589.89 3595
1543.71 -1569.54 3549
1536.01 -1553.18 3512
-2701.76 -1623.5 3691
-2698.77 -1627.02 3699
-2689.92 -1627.02 3699
-2729.64 -1656.49 3766
-2732.92 -1663.97 3783
-2723.87 -1663.97 3783
-2714.82 -1663.97 3783
-2705.78 -1663.97 3783
-2703.15 -1667.92 3792
-2706.16 -1675.4 3809
-2697.05 -1675.4 3809
-2687.94 -1675.4 3809
-2685.16 -1679.36 3818
-2681.64 -1682.88 3826
-2672.49 -1682.88 3826
-2663.34 -1682.88 3826
-2660.43 -1686.84 3835
-2651.26 -1686.84 3835
-2642.09 -1686.84 3835
-2657.64 -1702.67 3871
-2666.85 -1714.55 3898
-2663.67 -1718.51 3907
-2654.32 -1718.51 3907
-2663.94 -1730.82 3935
-2660.6 -1734.78 3944
-2669.99 -1747.1 3972
-2660.49 -1747.1 3972
-2650.99 -1747.1 3972
-1396.25 -1722.47 3916
-1386.89 -1722.47 3916
-1380.69 -1726.43 3925
-1371.3 -1726.43 3925
-1391.41 -1763.81 4010
-1385.27 -1768.21 4020
-1389 -1785.37 4059
-1379.3 -1785.37 4059
-1369.59 -1785.37 4059
-1353.18 -1776.57 4039
-1343.52 -1776.57 4039
-132.124 -968.118 2201
-126.861 -968.118 2201
-121.598 -968.118 2201
-116.017 -965.479 2195
-110.769 -965.479 2195
-105.087 -961.52 2186
-99.8596 -961.52 2186
-94.5456 -960.64 2184
-89.2003 -959.321 2181
-83.9849 -959.321 2181
-78.7694 -959.321 2181
-73.4528 -958.001 2178
-67.7119 -950.524 2161
-62.3707 -947.885 2155
-57.2174 -947.885 2155
-52.0158 -947.005 2153
-46.7367 -944.366 2147
-41.5445 -943.046 2144
-36.4175 -943.046 2144
-31.1738 -939.527 2136
-26.066 -939.527 2136
-20.9091 -937.328 2131
-15.7687 -934.689 2125
-10.6872 -934.689 2125
-5.59248 -932.49 2120
-0.522182 -931.17 2117
4.54021 -931.17 2117
9.6026 -931.17 2117
14.6442 -929.851 2114
19.6249 -926.332 2106
24.661 -926.332 2106
29.697 -926.332 2106
34.6507 -924.132 2101
39.6748 -924.132 2101
44.6989 -924.132 2101
49.8414 -926.332 2106
54.8775 -926.332 2106
59.9135 -926.332 2106
64.9496 -926.332 2106
69.9857 -926.332 2106
75.0218 -926.332 2106
79.9818 -925.452 2104
84.8919 -924.132 2101
89.9161 -924.132 2101
95.0758 -925.452 2104
100.107 -925.452 2104
105.138 -925.452 2104
110.17 -925.452 2104
115.201 -925.452 2104
120.232 -925.452 2104
125.264 -925.452 2104
130.605 -927.651 2109
135.841 -928.971 2112
140.891 -928.971 2112
145.942 -928.971 2112
150.992 -928.971 2112
156.042 -928.971 2112
160.864 -927.651 2109
165.907 -927.651 2109
170.707 -926.332 2106
175.743 -926.332 2106
180.78 -926.332 2106
186.08 -927.651 2109
191.124 -927.651 2109
196.167 -927.651 2109
1477.41 -1608.98 3658
1486.15 -1608.98 3658
1494.9 -1608.98 3658
1503.65 -1608.98 3658
1512.4 -1608.98 3658
1521.14 -1608.98 3658
1529.89 -1608.98 3658
1535.27 -1605.47 3650
1544 -1605.47 3650
1546.35 -1598.87 3635
1544.77 -1588.31 3611
1546.53 -1581.27 3595
1555.12 -1581.27 3595
1543.71 -1561.04 3549
1536.01 -1544.77 3512
-2701.76 -1614.66 3691
-2728.68 -1636.09 3740
-2719.74 -1636.09 3740
-2723.12 -1643.53 3757
-2739.42 -1658.84 3792
-2730.35 -1658.84 3792
-2721.28 -1658.84 3792
-2717.94 -1662.34 3800
-2708.85 -1662.34 3800
-2706.16 -1666.28 3809
-2697.05 -1666.28 3809
-2687.94 -1666.28 3809
-2685.16 -1670.21 3818
-2681.64 -1673.71 3826
-2672.49 -1673.71 3826
-2663.34 -1673.71 3826
-2660.43 -1677.65 3835
-2651.26 -1677.65 3835
-2642.09 -1677.65 3835
-2657.64 -1693.4 3871
-2666.85 -1705.21 3898
-2663.67 -1709.15 3907
-2654.32 -1709.15 3907
-2663.94 -1721.4 3935
-2660.6 -1725.33 3944
-2669.99 -1737.58 3972
-2660.49 -1737.58 3972
-2650.99 -1737.58 3972
-1390.08 -1717.02 3925
-1384.21 -1721.4 3935
-1374.8 -1721.4 3935
-1391.41 -1754.21 4010
-1395.26 -1771.27 4049
-1389 -1775.64 4059
-1379.3 -1775.64 4059
-1369.59 -1775.64 4059
-132.304 -964.158 2204
-127.034 -964.158 2204
-121.764 -964.158 2204
-116.335 -962.845 2201
-110.769 -960.221 2195
-105.087 -956.283 2186
-99.8596 -956.283 2186
-94.5456 -955.408 2184
-89.2003 -954.096 2181
-83.9849 -954.096 2181
-78.7694 -954.096 2181
-73.4528 -952.784 2178
-67.8059 -946.659 2164
-62.3707 -942.722 2155
-57.2174 -942.722 2155
-52.0158 -941.847 2153
-46.7367 -939.223 2147
-41.5445 -937.91 2144
-36.4175 -937.91 2144
-31.1738 -934.41 2136
-26.066 -934.41 2136
-20.9091 -932.223 2131
-15.7687 -929.598 2125
-10.6872 -929.598 2125
-5.59248 -927.411 2120
-0.522182 -926.099 2117
4.54021 -926.099 2117
9.6026 -926.099 2117
14.6442 -924.786 2114
19.6249 -921.287 2106
24.661 -921.287 2106
29.697 -921.287 2106
34.6507 -919.099 2101
39.6748 -919.099 2101
44.6989 -919.099 2101
49.8414 -921.287 2106
54.8775 -921.287 2106
59.9135 -921.287 2106
64.9496 -921.287 2106
69.9857 -921.287 2106
75.0218 -921.287 2106
79.9818 -920.412 2104
84.8919 -919.099 2101
89.9161 -919.099 2101
95.0758 -920.412 2104
100.107 -920.412 2104
105.138 -920.412 2104
110.17 -920.412 2104
115.201 -920.412 2104
120.232 -920.412 2104
125.264 -920.412 2104
130.79 -923.911 2112
135.969 -924.786 2114
141.025 -924.786 2114
146.08 -924.786 2114
151.135 -924.786 2114
156.19 -924.786 2114
160.864 -922.599 2109
165.907 -922.599 2109
170.951 -922.599 2109
175.994 -922.599 2109
181.037 -922.599 2109
186.345 -923.911 2112
191.849 -926.099 2117
196.911 -926.099 2117
201.973 -926.099 2117
1494.9 -1600.22 3658
1503.65 -1600.22 3658
1512.4 -1600.22 3658
1521.14 -1600.22 3658
1526.54 -1596.72 3650
1528.96 -1590.16 3635
1537.66 -1590.16 3635
1542.94 -1586.66 3627
1544.77 -1579.66 3611
1536.63 -1562.6 3572
1545.17 -1562.6 3572
1543.71 -1552.54 3549
-2737.63 -1627.13 3740
-2735.25 -1631.05 3749
-2726.28 -1631.05 3749
-2723.12 -1634.53 3757
-2739.42 -1649.76 3792
-2730.35 -1649.76 3792
-2721.28 -1649.76 3792
-2717.94 -1653.24 3800
-2708.85 -1653.24 3800
-2706.16 -1657.15 3809
-2697.05 -1657.15 3809
-2687.94 -1657.15 3809
-2672.5 -1653.24 3800
-2676.03 -1661.07 3818
-2666.9 -1661.07 3818
-2657.77 -1661.07 3818
-2648.64 -1661.07 3818
-2639.51 -1661.07 3818
-2630.38 -1661.07 3818
-2626.74 -1664.55 3826
-2654.54 -1688.04 3880
-2645.26 -1688.04 3880
-2635.98 -1688.04 3880
-2638.89 -1695.87 3898
-2654.53 -1711.97 3935
-2645.12 -1711.97 3935
-2635.71 -1711.97 3935
-2626.3 -1711.97 3935
-2616.89 -1711.97 3935
-2607.48 -1711.97 3935
-1390.08 -1707.62 3925
-1384.21 -1711.97 3935
-1374.8 -1711.97 3935
-1391.41 -1744.6 4010
-1395.26 -1761.57 4049
-1389 -1765.92 4059
-1379.3 -1765.92 4059
-1369.59 -1765.92 4059
-1350.17 -1753.3 4030
-1340.53 -1753.3 4030
-1241.36 -1684.13 3871
-1232.1 -1684.13 3871
-1222.84 -1684.13 3871
-132.304 -958.878 2204
-127.034 -958.878 2204
-121.764 -958.878 2204
-116.335 -957.573 2201
-110.769 -954.962 2195
-105.087 -951.047 2186
-99.8596 -951.047 2186
-94.4157 -948.871 2181
-89.2003 -948.871 2181
-83.9849 -948.871 2181
-78.7694 -948.871 2181
-73.4528 -947.566 2178
-67.8059 -941.475 2164
-62.3707 -937.56 2155
-57.2174 -937.56 2155
-51.9433 -935.385 2150
-46.6714 -932.774 2144
-41.5445 -932.774 2144
-36.4175 -932.774 2144
-31.1738 -929.294 2136
-26.0294 -927.988 2133
-20.8797 -925.813 2128
-15.7465 -923.203 2122
-10.6721 -923.203 2122
-5.58457 -921.027 2117
-0.522182 -921.027 2117
4.53377 -919.722 2114
9.58899 -919.722 2114
14.6442 -919.722 2114
19.6249 -916.242 2106
24.661 -916.242 2106
29.697 -916.242 2106
34.6012 -912.761 2098
39.6748 -914.066 2101
44.6989 -914.066 2101
49.794 -915.372 2104
54.8253 -915.372 2104
59.8566 -915.372 2104
64.8879 -915.372 2104
69.9193 -915.372 2104
74.9505 -915.372 2104
79.8678 -914.066 2101
84.8919 -914.066 2101
89.9161 -914.066 2101
95.0758 -915.372 2104
100.107 -915.372 2104
105.138 -915.372 2104
110.17 -915.372 2104
115.201 -915.372 2104
120.061 -914.066 2101
125.264 -915.372 2104
130.79 -918.852 2112
135.969 -919.722 2114
141.025 -919.722 2114
146.08 -919.722 2114
151.135 -919.722 2114
156.19 -919.722 2114
160.635 -916.242 2106
165.671 -916.242 2106
170.951 -917.547 2109
175.994 -917.547 2109
181.037 -917.547 2109
186.345 -918.852 2112
191.849 -921.027 2117
196.911 -921.027 2117
201.973 -921.027 2117
1494.19 -1581.45 3635
1502.89 -1581.45 3635
1511.58 -1581.45 3635
1516.93 -1577.97 3627
1525.6 -1577.97 3627
1534.27 -1577.97 3627
1536.14 -1571.01 3611
1534.93 -1561 3588
1533.62 -1551 3565
1542.14 -1551 3565
1540.67 -1540.99 3542
1529.45 -1521.41 3497
-2744.21 -1622.07 3749
-2735.25 -1622.07 3749
-2726.28 -1622.07 3749
-2748.49 -1640.67 3792
-2745.2 -1644.13 3800
-2736.11 -1644.13 3800
-2727.02 -1644.13 3800
-2724.37 -1648.03 3809
-2715.26 -1648.03 3809
-2706.16 -1648.03 3809
-2697.05 -1648.03 3809
-2687.94 -1648.03 3809
-2672.5 -1644.13 3800
-2676.03 -1651.92 3818
-2666.9 -1651.92 3818
-2657.77 -1651.92 3818
-2648.64 -1651.92 3818
-2639.51 -1651.92 3818
-2630.38 -1651.92 3818
-2626.74 -1655.38 3826
-2654.54 -1678.75 3880
-2645.26 -1678.75 3880
-2635.98 -1678.75 3880
-2638.89 -1686.54 3898
-2654.53 -1702.54 3935
-2645.12 -1702.54 3935
-2635.71 -1702.54 3935
-2626.3 -1702.54 3935
-2648.15 -1722.88 3982
-2638.62 -1722.88 3982
-2629.1 -1722.88 3982
-2676.81 -1760.52 4069
-2667.08 -1760.52 4069
-2657.35 -1760.52 4069
-2647.62 -1760.52 4069
-2637.89 -1760.52 4069
-1390.08 -1698.22 3925
-1384.21 -1702.54 3935
-1374.8 -1702.54 3935
-1391.41 -1734.99 4010
-1395.26 -1751.87 4049
-1389 -1756.2 4059
-1379.3 -1756.2 4059
-1369.59 -1756.2 4059
-1350.17 -1743.65 4030
-1340.53 -1743.65 4030
-1241.36 -1674.85 3871
-1232.1 -1674.85 3871
-1222.84 -1674.85 3871
-132.665 -956.194 2210
-127.38 -956.194 2210
-122.095 -956.194 2210
-116.493 -953.598 2204
-111.071 -952.3 2201
-105.375 -948.406 2192
-100.134 -948.406 2192
-94.5456 -944.945 2184
-89.323 -944.945 2184
-84.1004 -944.945 2184
-78.8778 -944.945 2184
-73.4528 -942.349 2178
-67.8999 -937.59 2167
-62.3707 -932.398 2155
-57.2174 -932.398 2155
-51.9433 -930.234 2150
-46.6714 -927.638 2144
-41.5057 -926.773 2142
-36.3835 -926.773 2142
-31.13 -922.879 2133
-26.005 -922.014 2131
-20.8208 -918.12 2122
-15.7316 -917.254 2120
-10.662 -917.254 2120
-5.58457 -915.956 2117
-0.521442 -914.658 2114
4.53377 -914.658 2114
9.58899 -914.658 2114
14.6303 -913.793 2112
19.6528 -912.495 2109
24.661 -911.197 2106
29.697 -911.197 2106
34.6507 -909.034 2101
39.6748 -909.034 2101
44.6989 -909.034 2101
49.8414 -911.197 2106
54.8775 -911.197 2106
59.9135 -911.197 2106
64.8879 -910.332 2104
69.9193 -910.332 2104
74.9505 -910.332 2104
79.9818 -910.332 2104
84.8919 -909.034 2101
89.9161 -909.034 2101
95.0758 -910.332 2104
100.107 -910.332 2104
105.138 -910.332 2104
110.17 -910.332 2104
115.201 -910.332 2104
120.061 -909.034 2101
125.383 -911.197 2106
130.79 -913.793 2112
135.969 -914.658 2114
141.025 -914.658 2114
146.08 -914.658 2114
151.135 -914.658 2114
156.19 -914.658 2114
160.635 -911.197 2106
165.671 -911.197 2106
170.951 -912.495 2109
175.994 -912.495 2109
181.037 -912.495 2109
186.345 -913.793 2112
191.849 -915.956 2117
196.911 -915.956 2117
201.973 -915.956 2117
1491.63 -1579.23 3650
1500.36 -1579.23 3650
1509.09 -1579.23 3650
1517.82 -1579.23 3650
1520.27 -1572.74 3635
1525.6 -1569.28 3627
1534.27 -1569.28 3627
1542.94 -1569.28 3627
1534.93 -1552.41 3588
1536.63 -1545.49 3572
1545.17 -1545.49 3572
1540.67 -1532.51 3542
1536.01 -1519.53 3512
-2744.21 -1613.09 3749
-2735.25 -1613.09 3749
-2726.28 -1613.09 3749
-2748.49 -1631.59 3792
-2745.2 -1635.03 3800
-2736.11 -1635.03 3800
-2727.02 -1635.03 3800
-2724.37 -1638.9 3809
-2715.26 -1638.9 3809
-2706.16 -1638.9 3809
-2697.05 -1638.9 3809
-2687.94 -1638.9 3809
-2666.87 -1631.59 3792
-2657.81 -1631.59 3792
-2636.17 -1623.84 3774
-2621.57 -1620.4 3766
-2612.57 -1620.4 3766
-2627.07 -1635.03 3800
-2617.98 -1635.03 3800
-2608.89 -1635.03 3800
-2617.59 -1646.22 3826
-2620.72 -1653.96 3844
-2611.52 -1653.96 3844
-2608.42 -1657.84 3853
-2605.28 -1661.71 3862
-2645.12 -1693.12 3935
-2635.71 -1693.12 3935
-2626.3 -1693.12 3935
-2648.15 -1713.34 3982
-2638.62 -1713.34 3982
-2629.1 -1713.34 3982
-2676.81 -1750.78 4069
-2667.08 -1750.78 4069
-2657.35 -1750.78 4069
-2647.62 -1750.78 4069
-2637.89 -1750.78 4069
-1390.08 -1688.82 3925
-1380.69 -1688.82 3925
-1371.3 -1688.82 3925
-1375.1 -1705.17 3963
-1385.27 -1729.69 4020
-1382.16 -1737.87 4039
-1372.5 -1737.87 4039
-1362.84 -1737.87 4039
-1350.17 -1733.99 4030
-1340.53 -1733.99 4030
-1315.04 -1713.34 3982
-1305.52 -1713.34 3982
-1280.7 -1693.12 3935
-1265.15 -1684.94 3916
-1255.79 -1684.94 3916
-1240.69 -1677.2 3898
-1225.69 -1669.45 3880
-1213.59 -1665.58 3871
-1204.33 -1665.58 3871
-132.665 -950.9 2210
-127.38 -950.9 2210
-122.095 -950.9 2210
-116.81 -950.9 2210
-111.223 -948.319 2204
-105.52 -944.446 2195
-100.271 -944.446 2195
-94.8919 -943.155 2192
-89.5275 -941.864 2189
-84.2929 -941.864 2189
-79.0584 -941.864 2189
-73.6552 -939.713 2184
-67.9626 -933.259 2169
-62.4575 -928.526 2158
-57.297 -928.526 2158
-52.0158 -926.375 2153
-46.7367 -923.793 2147
-41.5057 -921.642 2142
-36.3835 -921.642 2142
-31.13 -917.769 2133
-26.0294 -917.769 2133
-20.8208 -913.036 2122
-15.7093 -910.885 2117
-10.647 -910.885 2117
-5.57666 -909.594 2114
-0.520949 -908.734 2112
4.52948 -908.734 2112
9.57992 -908.734 2112
14.6303 -908.734 2112
19.6808 -908.734 2112
24.6961 -907.443 2109
29.7393 -907.443 2109
34.7001 -905.291 2104
39.7314 -905.291 2104
44.8053 -906.152 2106
49.9124 -907.443 2109
54.9556 -907.443 2109
59.9989 -907.443 2109
64.9496 -906.152 2106
69.9857 -906.152 2106
75.0218 -906.152 2106
79.9818 -905.291 2104
85.0132 -905.291 2104
90.0445 -905.291 2104
95.0758 -905.291 2104
100.107 -905.291 2104
105.138 -905.291 2104
110.17 -905.291 2104
115.31 -906.152 2106
120.347 -906.152 2106
125.383 -906.152 2106
130.79 -908.734 2112
135.969 -909.594 2114
141.025 -909.594 2114
146.08 -909.594 2114
151.135 -909.594 2114
156.19 -909.594 2114
160.635 -906.152 2106
165.671 -906.152 2106
170.951 -907.443 2109
175.994 -907.443 2109
181.037 -907.443 2109
186.345 -908.734 2112
191.849 -910.885 2117
196.911 -910.885 2117
201.973 -910.885 2117
206.742 -909.594 2114
1472.27 -1577.81 3667
1481.04 -1577.81 3667
1489.81 -1577.81 3667
1498.58 -1577.81 3667
1500.36 -1570.49 3650
1509.09 -1570.49 3650
1517.82 -1570.49 3650
1523.2 -1567.05 3642
1531.91 -1567.05 3642
1540.62 -1567.05 3642
1542.94 -1560.59 3627
1534.93 -1543.81 3588
1536.63 -1536.93 3572
1545.17 -1536.93 3572
1540.67 -1524.02 3542
1539.51 -1514.56 3520
-2744.21 -1604.11 3749
-2741.08 -1607.53 3757
-2732.1 -1607.53 3757
-2748.49 -1622.51 3792
-2745.2 -1625.93 3800
-2736.11 -1625.93 3800
-2727.02 -1625.93 3800
-2724.37 -1629.78 3809
-2715.26 -1629.78 3809
-2706.16 -1629.78 3809
-2690.68 -1625.93 3800
-2681.59 -1625.93 3800
-2660.55 -1618.66 3783
-2651.5 -1618.66 3783
-2630.58 -1611.38 3766
-2621.57 -1611.38 3766
-2606.32 -1607.53 3757
-2597.34 -1607.53 3757
-2588.35 -1607.53 3757
-2608.89 -1625.93 3800
-2612.12 -1633.63 3818
-2614.58 -1640.9 3835
-2605.41 -1640.9 3835
-2602.33 -1644.76 3844
-2599.21 -1648.61 3853
-2608.15 -1660.16 3880
-2598.87 -1660.16 3880
-2626.3 -1683.69 3935
-2680.07 -1724.34 4030
-2683.02 -1732.47 4049
-2673.34 -1732.47 4049
-2676.81 -1741.03 4069
-2667.08 -1741.03 4069
-2657.35 -1741.03 4069
-2647.62 -1741.03 4069
-2637.89 -1741.03 4069
-2621.7 -1736.75 4059
-2612 -1736.75 4059
-1358.2 -1640.9 3835
-1361.69 -1656.31 3871
-1352.44 -1656.31 3871
-1365.39 -1683.69 3935
-1365.63 -1695.67 3963
-1356.15 -1695.67 3963
-1346.67 -1695.67 3963
-1330.79 -1687.54 3944
-1334.09 -1703.8 3982
-1324.56 -1703.8 3982
-1315.04 -1703.8 3982
-1305.52 -1703.8 3982
-1280.7 -1683.69 3935
-1265.15 -1675.56 3916
-1255.79 -1675.56 3916
-1240.69 -1667.86 3898
-1225.69 -1660.16 3880
-1213.59 -1656.31 3871
-1204.33 -1656.31 3871
-134.586 -959.298 2242
-129.224 -959.298 2242
-123.863 -959.298 2242
-117.55 -951.596 2224
-112.081 -950.313 2221
-106.097 -944.322 2207
-100.819 -944.322 2207
-95.1517 -940.472 2198
-89.8956 -940.472 2198
-84.6395 -940.472 2198
-79.3834 -940.472 2198
-73.8238 -936.621 2189
-68.2446 -931.914 2178
-62.6311 -925.924 2164
-57.4564 -925.924 2164
-52.0641 -922.073 2155
-46.802 -919.934 2150
-41.6026 -918.65 2147
-36.4685 -918.65 2147
-31.2176 -915.227 2139
-26.0294 -912.66 2133
-20.8502 -909.237 2125
-15.7316 -907.097 2120
-10.662 -907.097 2120
-5.58457 -905.814 2117
-0.521442 -904.53 2114
4.53377 -904.53 2114
9.58899 -904.53 2114
14.6442 -904.53 2114
19.6808 -903.674 2112
24.6961 -902.391 2109
29.7393 -902.391 2109
34.7001 -900.251 2104
39.7314 -900.251 2104
44.8053 -901.107 2106
49.9124 -902.391 2109
54.9556 -902.391 2109
59.9989 -902.391 2109
64.9496 -901.107 2106
69.9857 -901.107 2106
75.0218 -901.107 2106
79.9818 -900.251 2104
85.0132 -900.251 2104
90.0445 -900.251 2104
95.0758 -900.251 2104
100.107 -900.251 2104
105.138 -900.251 2104
110.17 -900.251 2104
115.31 -901.107 2106
120.347 -901.107 2106
125.383 -901.107 2106
130.79 -903.674 2112
135.969 -904.53 2114
141.025 -904.53 2114
146.08 -904.53 2114
151.135 -904.53 2114
156.19 -904.53 2114
160.635 -901.107 2106
165.671 -901.107 2106
170.951 -902.391 2109
176.244 -903.674 2112
181.295 -903.674 2112
186.345 -903.674 2112
191.849 -905.814 2117
196.911 -905.814 2117
201.973 -905.814 2117
206.742 -904.53 2114
1472.27 -1569.02 3667
1481.04 -1569.02 3667
1489.81 -1569.02 3667
1498.58 -1569.02 3667
1500.36 -1561.75 3650
1509.09 -1561.75 3650
1517.82 -1561.75 3650
1523.2 -1558.32 3642
1531.91 -1558.32 3642
1540.62 -1558.32 3642
1542.94 -1551.91 3627
1534.93 -1535.22 3588
1536.63 -1528.37 3572
1545.17 -1528.37 3572
1531.1 -1506.12 3520
1539.51 -1506.12 3520
-2744.21 -1595.13 3749
-2772.46 -1616.83 3800
-2763.37 -1616.83 3800
-2754.28 -1616.83 3800
-2745.2 -1616.83 3800
-2736.11 -1616.83 3800
-2727.02 -1616.83 3800
-2724.37 -1620.66 3809
-2715.26 -1620.66 3809
-2706.16 -1620.66 3809
-2690.68 -1616.83 3800
-2681.59 -1616.83 3800
-2672.5 -1616.83 3800
-2663.41 -1616.83 3800
-2636.17 -1605.76 3774
-2621.57 -1602.36 3766
-2606.32 -1598.53 3757
-2597.34 -1598.53 3757
-2588.35 -1598.53 3757
-2603.4 -1613.42 3792
-2612.12 -1624.48 3818
-2608.44 -1627.89 3826
-2599.3 -1627.89 3826
-2596.24 -1631.72 3835
-2599.21 -1639.38 3853
-2608.15 -1650.86 3880
-2598.87 -1650.86 3880
-2619.62 -1670.01 3925
-2692.7 -1722.77 4049
-2702.9 -1735.54 4079
-2693.14 -1735.54 4079
-2683.39 -1735.54 4079
-2667.08 -1731.28 4069
-2657.35 -1731.28 4069
-2647.62 -1731.28 4069
-2637.89 -1731.28 4069
-2621.7 -1727.03 4059
-2612 -1727.03 4059
-1367.76 -1643.21 3862
-1361.69 -1647.04 3871
-1352.44 -1647.04 3871
-1365.39 -1674.27 3935
-1365.63 -1686.18 3963
-1356.15 -1686.18 3963
-1346.67 -1686.18 3963
-1330.79 -1678.1 3944
-1334.09 -1694.26 3982
-1324.56 -1694.26 3982
-1315.04 -1694.26 3982
-1305.52 -1694.26 3982
-1280.7 -1674.27 3935
-1265.15 -1666.18 3916
-1255.79 -1666.18 3916
-1240.69 -1658.52 3898
-1225.69 -1650.86 3880
-1213.59 -1647.04 3871
-1204.33 -1647.04 3871
-134.586 -953.927 2242
-129.224 -953.927 2242
-123.863 -953.927 2242
-117.55 -946.269 2224
-112.081 -944.992 2221
-106.097 -939.036 2207
-100.819 -939.036 2207
-95.1517 -935.206 2198
-89.8956 -935.206 2198
-84.6395 -935.206 2198
-79.3834 -935.206 2198
-73.8238 -931.377 2189
-68.2446 -926.697 2178
-62.6311 -920.74 2164
-57.4564 -920.74 2164
-52.0641 -916.911 2155
-46.802 -914.783 2150
-41.6026 -913.507 2147
-36.4685 -913.507 2147
-31.2176 -910.103 2139
-26.0294 -907.55 2133
-20.8502 -904.146 2125
-15.7316 -902.019 2120
-10.662 -902.019 2120
-5.58457 -900.742 2117
-0.521442 -899.466 2114
4.53377 -899.466 2114
9.58899 -899.466 2114
14.6442 -899.466 2114
19.6808 -898.615 2112
24.6961 -897.338 2109
29.7393 -897.338 2109
34.7001 -895.211 2104
39.7314 -895.211 2104
44.8053 -896.062 2106
49.9124 -897.338 2109
54.9556 -897.338 2109
59.9989 -897.338 2109
64.9496 -896.062 2106
69.9857 -896.062 2106
75.0218 -896.062 2106
79.9818 -895.211 2104
85.0132 -895.211 2104
90.0445 -895.211 2104
95.0758 -895.211 2104
100.107 -895.211 2104
105.138 -895.211 2104
110.17 -895.211 2104
115.31 -896.062 2106
120.347 -896.062 2106
125.383 -896.062 2106
130.79 -898.615 2112
135.969 -899.466 2114
141.025 -899.466 2114
146.08 -899.466 2114
151.135 -899.466 2114
156.19 -899.466 2114
160.635 -896.062 2106
165.671 -896.062 2106
170.951 -897.338 2109
176.244 -898.615 2112
181.295 -898.615 2112
186.345 -898.615 2112
191.849 -900.742 2117
196.911 -900.742 2117
201.973 -900.742 2117
206.742 -899.466 2114
1475.48 -1563.64 3675
1484.27 -1563.64 3675
1493.06 -1563.64 3675
1498.58 -1560.24 3667
1500.36 -1553 3650
1509.09 -1553 3650
1517.82 -1553 3650
1523.2 -1549.6 3642
1531.91 -1549.6 3642
1540.62 -1549.6 3642
1542.94 -1543.22 3627
1534.93 -1526.62 3588
1536.63 -1519.82 3572
1545.17 -1519.82 3572
1537.19 -1503.65 3534
1539.51 -1497.69 3520
-2744.21 -1586.15 3749
-2772.46 -1607.72 3800
-2763.37 -1607.72 3800
-2754.28 -1607.72 3800
-2745.2 -1607.72 3800
-2736.11 -1607.72 3800
-2727.02 -1607.72 3800
-2724.37 -1611.53 3809
-2715.26 -1611.53 3809
-2706.16 -1611.53 3809
-2690.68 -1607.72 3800
-2681.59 -1607.72 3800
-2672.5 -1607.72 3800
-2663.41 -1607.72 3800
-2654.33 -1607.72 3800
-2621.57 -1593.34 3766
-2606.32 -1589.53 3757
-2597.34 -1589.53 3757
-2588.35 -1589.53 3757
-2603.4 -1604.34 3792
-2612.12 -1615.34 3818
-2608.44 -1618.72 3826
-2599.3 -1618.72 3826
-2596.24 -1622.53 3835
-2599.21 -1630.15 3853
-2608.15 -1641.57 3880
-2598.87 -1641.57 3880
-2619.62 -1660.61 3925
-2692.7 -1713.07 4049
-2702.9 -1725.76 4079
-2693.14 -1725.76 4079
-2683.39 -1725.76 4079
-2667.08 -1721.53 4069
-2657.35 -1721.53 4069
-2647.62 -1721.53 4069
-2637.89 -1721.53 4069
-2621.7 -1717.3 4059
-2612 -1717.3 4059
-1367.76 -1633.95 3862
-1361.69 -1637.76 3871
-1352.44 -1637.76 3871
-1349.43 -1645.38 3889
-1359.08 -1668.65 3944
-1349.65 -1668.65 3944
-1340.22 -1668.65 3944
-1330.79 -1668.65 3944
-1334.09 -1684.72 3982
-1324.56 -1684.72 3982
-1315.04 -1684.72 3982
-1305.52 -1684.72 3982
-1280.7 -1664.84 3935
-1262.24 -1652.99 3907
-1252.9 -1652.99 3907
-1240.69 -1649.19 3898
-1220 -1633.95 3862
-1202.3 -1622.53 3835
-1193.13 -1622.53 3835
-134.586 -948.557 2242
-129.224 -948.557 2242
-123.863 -948.557 2242
-117.55 -940.941 2224
-112.081 -939.672 2221
-106.097 -933.749 2207
-100.819 -933.749 2207
-95.4114 -932.479 2204
-89.8956 -929.941 2198
-84.6395 -929.941 2198
-79.3834 -929.941 2198
-73.8238 -926.133 2189
-68.2446 -921.479 2178
-62.6311 -915.556 2164
-57.4564 -915.556 2164
-52.1366 -913.018 2158
-46.802 -909.633 2150
-41.6026 -908.364 2147
-36.4685 -908.364 2147
-31.2176 -904.979 2139
-26.066 -903.71 2136
-20.8797 -900.325 2128
-15.7465 -897.786 2122
-10.6721 -897.786 2122
-5.58457 -895.671 2117
-0.522182 -895.671 2117
4.53377 -894.402 2114
9.58899 -894.402 2114
14.6442 -894.402 2114
19.6808 -893.556 2112
24.6961 -892.286 2109
29.7393 -892.286 2109
34.7001 -890.171 2104
39.7314 -890.171 2104
44.8053 -891.017 2106
49.9124 -892.286 2109
54.9556 -892.286 2109
59.9989 -892.286 2109
64.9496 -891.017 2106
69.9857 -891.017 2106
75.0218 -891.017 2106
79.9818 -890.171 2104
85.0132 -890.171 2104
90.0445 -890.171 2104
95.0758 -890.171 2104
100.107 -890.171 2104
105.138 -890.171 2104
110.17 -890.171 2104
115.31 -891.017 2106
120.347 -891.017 2106
125.383 -891.017 2106
130.79 -893.556 2112
136.355 -896.94 2120
141.425 -896.94 2120
146.494 -896.94 2120
151.564 -896.94 2120
156.634 -896.94 2120
161.093 -893.556 2112
165.907 -892.286 2109
171.194 -893.556 2112
176.244 -893.556 2112
181.295 -893.556 2112
186.786 -895.671 2117
191.849 -895.671 2117
196.911 -895.671 2117
201.973 -895.671 2117
207.036 -895.671 2117
1475.48 -1554.84 3675
1484.27 -1554.84 3675
1493.06 -1554.84 3675
1498.58 -1551.45 3667
1500.36 -1544.26 3650
1509.09 -1544.26 3650
1517.82 -1544.26 3650
1520.27 -1537.91 3635
1528.96 -1537.91 3635
1537.66 -1537.91 3635
1542.94 -1534.53 3627
1531.51 -1514.64 3580
1536.63 -1511.26 3572
1545.17 -1511.26 3572
1540.67 -1498.57 3542
1545.64 -1495.18 3534
-2772.46 -1598.62 3800
-2763.37 -1598.62 3800
-2754.28 -1598.62 3800
-2745.2 -1598.62 3800
-2736.11 -1598.62 3800
-2727.02 -1598.62 3800
-2724.37 -1602.41 3809
-2715.26 -1602.41 3809
-2706.16 -1602.41 3809
-2690.68 -1598.62 3800
-2681.59 -1598.62 3800
-2672.5 -1598.62 3800
-2663.41 -1598.62 3800
-2654.33 -1598.62 3800
-2615.31 -1580.53 3757
-2600.77 -1577.17 3749
-2591.81 -1577.17 3749
-2582.84 -1577.17 3749
-2591.04 -1587.68 3774
-2599.81 -1598.62 3800
-2602.99 -1606.19 3818
-2593.86 -1606.19 3818
-2590.15 -1609.56 3826
-2599.21 -1620.92 3853
-2608.15 -1632.28 3880
-2598.87 -1632.28 3880
-2589.59 -1632.28 3880
-2692.7 -1703.37 4049
-2702.9 -1715.99 4079
-2693.14 -1715.99 4079
-2683.39 -1715.99 4079
-2667.08 -1711.79 4069
-2657.35 -1711.79 4069
-2647.62 -1711.79 4069
-2637.89 -1711.79 4069
-2621.7 -1707.58 4059
-2612 -1707.58 4059
-1377.33 -1636.06 3889
-1368.03 -1636.06 3889
-1358.73 -1636.06 3889
-1352.55 -1639.85 3898
-1355.98 -1655.41 3935
-1346.57 -1655.41 3935
-1337.16 -1655.41 3935
-1324.38 -1651.21 3925
-1318.34 -1655.41 3935
-1318.24 -1667.19 3963
-1308.77 -1667.19 3963
-1299.29 -1667.19 3963
-1271.59 -1643.63 3907
-1259.34 -1639.85 3898
-1250.02 -1639.85 3898
-1229.24 -1624.7 3862
-1211.47 -1613.34 3835
-1188.82 -1595.25 3792
-1179.75 -1595.25 3792
-140.321 -945.71 2248
-134.946 -945.71 2248
-129.57 -945.71 2248
-123.863 -943.186 2242
-118.185 -940.662 2236
-112.081 -934.351 2221
-106.097 -928.462 2207
-100.819 -928.462 2207
-95.4114 -927.2 2204
-89.8956 -924.676 2198
-84.6395 -924.676 2198
-79.3834 -924.676 2198
-73.7226 -919.627 2186
-68.2446 -916.262 2178
-62.6311 -910.372 2164
-57.4564 -910.372 2164
-52.1366 -907.848 2158
-46.802 -904.482 2150
-41.6026 -903.22 2147
-36.4685 -903.22 2147
-31.2176 -899.855 2139
-26.066 -898.593 2136
-20.8797 -895.227 2128
-15.7465 -892.703 2122
-10.6721 -892.703 2122
-5.59248 -891.862 2120
-0.522182 -890.6 2117
4.53377 -889.338 2114
9.58899 -889.338 2114
14.6442 -889.338 2114
19.6808 -888.496 2112
24.6961 -887.234 2109
29.7393 -887.234 2109
34.7001 -885.131 2104
39.7314 -885.131 2104
44.7627 -885.131 2104
49.9124 -887.234 2109
54.9556 -887.234 2109
59.9989 -887.234 2109
64.9496 -885.972 2106
69.9857 -885.972 2106
75.0218 -885.972 2106
79.9818 -885.131 2104
84.8919 -883.869 2101
89.9161 -883.869 2101
95.0758 -885.131 2104
100.107 -885.131 2104
105.138 -885.131 2104
110.17 -885.131 2104
115.31 -885.972 2106
120.347 -885.972 2106
125.561 -887.234 2109
130.914 -889.338 2114
136.355 -891.862 2120
141.425 -891.862 2120
146.494 -891.862 2120
151.564 -891.862 2120
156.634 -891.862 2120
161.093 -888.496 2112
166.143 -888.496 2112
171.356 -889.338 2114
176.661 -890.6 2117
181.724 -890.6 2117
186.786 -890.6 2117
191.849 -890.6 2117
196.911 -890.6 2117
201.973 -890.6 2117
207.036 -890.6 2117
1475.48 -1546.03 3675
1484.27 -1546.03 3675
1493.06 -1546.03 3675
1498.58 -1542.67 3667
1500.36 -1535.52 3650
1509.09 -1535.52 3650
1517.82 -1535.52 3650
1523.2 -1532.15 3642
1531.91 -1532.15 3642
1540.62 -1532.15 3642
1546.35 -1529.21 3635
1534.93 -1509.43 3588
1536.63 -1502.7 3572
1545.17 -1502.7 3572
1547.19 -1496.39 3557
1549.14 -1490.08 3542
-2766.62 -1586.17 3792
-2757.55 -1586.17 3792
-2748.49 -1586.17 3792
-2745.2 -1589.52 3800
-2736.11 -1589.52 3800
-2727.02 -1589.52 3800
-2717.94 -1589.52 3800
-2708.85 -1589.52 3800
-2699.76 -1589.52 3800
-2690.68 -1589.52 3800
-2681.59 -1589.52 3800
-2672.5 -1589.52 3800
-2663.41 -1589.52 3800
-2654.33 -1589.52 3800
-2615.31 -1571.53 3757
-2600.77 -1568.18 3749
-2591.81 -1568.18 3749
-2576.64 -1564.42 3740
-2573.88 -1568.18 3749
-2582.02 -1578.64 3774
-2590.72 -1589.52 3800
-2581.63 -1589.52 3800
-2578.64 -1593.28 3809
-2575.6 -1597.05 3818
-2590 -1611.69 3853
-2580.78 -1611.69 3853
-2571.57 -1611.69 3853
-2680.07 -1685.72 4030
-2683.02 -1693.67 4049
-2673.34 -1693.67 4049
-2663.66 -1693.67 4049
-2667.08 -1702.04 4069
-2657.35 -1702.04 4069
-2647.62 -1702.04 4069
-2631.41 -1697.86 4059
-2596.51 -1681.54 4020
-2586.9 -1681.54 4020
-1377.33 -1626.75 3889
-1368.03 -1626.75 3889
-1358.73 -1626.75 3889
-1352.55 -1630.51 3898
-1352.53 -1641.8 3925
-1343.15 -1641.8 3925
-1333.76 -1641.8 3925
-1321.34 -1638.04 3916
-1311.97 -1638.04 3916
-1296.62 -1630.51 3898
-1287.3 -1630.51 3898
-1277.98 -1630.51 3898
-1256.94 -1615.45 3862
-1238.98 -1604.16 3835
-1229.81 -1604.16 3835
-1217.78 -1600.39 3826
-1195.04 -1582.41 3783
-1175.34 -1568.18 3749
-1166.37 -1568.18 3749
-140.321 -940.325 2248
-134.946 -940.325 2248
-129.57 -940.325 2248
-123.863 -937.815 2242
-118.185 -935.305 2236
-112.081 -929.031 2221
-106.097 -923.175 2207
-100.819 -923.175 2207
-95.4114 -921.92 2204
-89.8956 -919.41 2198
-84.6395 -919.41 2198
-79.3834 -919.41 2198
-73.7226 -914.391 2186
-68.2446 -911.044 2178
-62.6311 -905.188 2164
-57.4564 -905.188 2164
-52.1366 -902.678 2158
-46.802 -899.332 2150
-41.6026 -898.077 2147
-36.4685 -898.077 2147
-31.2176 -894.731 2139
-26.066 -893.476 2136
-20.8797 -890.13 2128
-15.7465 -887.62 2122
-10.6721 -887.62 2122
-5.59248 -886.783 2120
-0.522182 -885.528 2117
4.53377 -884.274 2114
9.58899 -884.274 2114
14.6442 -884.274 2114
19.6808 -883.437 2112
24.6961 -882.182 2109
29.7393 -882.182 2109
34.7001 -880.091 2104
39.7314 -880.091 2104
44.7627 -880.091 2104
49.9124 -882.182 2109
54.9556 -882.182 2109
59.9989 -882.182 2109
64.9496 -880.927 2106
69.9857 -880.927 2106
75.0218 -880.927 2106
79.9818 -880.091 2104
84.8919 -878.836 2101
89.9161 -878.836 2101
95.0758 -880.091 2104
100.107 -880.091 2104
105.138 -880.091 2104
110.274 -880.927 2106
115.475 -882.182 2109
120.518 -882.182 2109
125.74 -883.437 2112
131.286 -886.783 2120
136.484 -887.62 2122
141.558 -887.62 2122
146.633 -887.62 2122
151.564 -886.783 2120
156.634 -886.783 2120
161.474 -885.528 2117
166.301 -884.274 2114
171.356 -884.274 2114
176.661 -885.528 2117
181.724 -885.528 2117
187.227 -887.62 2122
192.302 -887.62 2122
197.376 -887.62 2122
202.45 -887.62 2122
207.036 -885.528 2117
1474.18 -1526.77 3650
1482.9 -1526.77 3650
1491.63 -1526.77 3650
1500.36 -1526.77 3650
1509.09 -1526.77 3650
1517.82 -1526.77 3650
1523.2 -1523.43 3642
1531.91 -1523.43 3642
1540.62 -1523.43 3642
1546.35 -1520.5 3635
1534.93 -1500.84 3588
1536.63 -1494.15 3572
1545.17 -1494.15 3572
1547.19 -1487.87 3557
1549.14 -1481.6 3542
-2775.69 -1577.09 3792
-2766.62 -1577.09 3792
-2757.55 -1577.09 3792
-2748.49 -1577.09 3792
-2745.2 -1580.41 3800
-2736.11 -1580.41 3800
-2727.02 -1580.41 3800
-2717.94 -1580.41 3800
-2708.85 -1580.41 3800
-2699.76 -1580.41 3800
-2690.68 -1580.41 3800
-2681.59 -1580.41 3800
-2672.5 -1580.41 3800
-2663.41 -1580.41 3800
-2654.33 -1580.41 3800
-2609.74 -1559.2 3749
-2588.98 -1552.13 3732
-2580.06 -1552.13 3732
-2560.11 -1545.48 3716
-2556.71 -1548.81 3724
-2547.81 -1548.81 3724
-2549.81 -1555.46 3740
-2540.87 -1555.46 3740
-2531.93 -1555.46 3740
-2529.05 -1559.2 3749
-2542.94 -1573.34 3783
-2533.9 -1573.34 3783
-2524.85 -1573.34 3783
-2654.13 -1659.85 3991
-2676.39 -1679.81 4039
-2666.73 -1679.81 4039
-2657.08 -1679.81 4039
-2634.96 -1671.91 4020
-2625.35 -1671.91 4020
-2615.74 -1671.91 4020
-2599.64 -1667.75 4010
-2590.05 -1667.75 4010
-2580.46 -1667.75 4010
-1377.33 -1617.43 3889
-1368.03 -1617.43 3889
-1358.73 -1617.43 3889
-1352.55 -1621.17 3898
-1352.53 -1632.4 3925
-1343.15 -1632.4 3925
-1333.76 -1632.4 3925
-1321.34 -1628.66 3916
-1311.97 -1628.66 3916
-1296.62 -1621.17 3898
-1287.3 -1621.17 3898
-1277.98 -1621.17 3898
-1256.94 -1606.2 3862
-1238.98 -1594.97 3835
-1229.81 -1594.97 3835
-1217.78 -1591.23 3826
-1195.04 -1573.34 3783
-1175.34 -1559.2 3749
-1166.37 -1559.2 3749
-140.321 -934.94 2248
-134.946 -934.94 2248
-129.57 -934.94 2248
-123.863 -932.444 2242
-118.185 -929.949 2236
-111.929 -922.463 2218
-106.097 -917.888 2207
-100.819 -917.888 2207
-95.1517 -914.145 2198
-89.6502 -911.65 2192
-84.4085 -911.65 2192
-79.1667 -911.65 2192
-73.7226 -909.154 2186
-68.1506 -904.579 2175
-62.5443 -898.757 2161
-57.3767 -898.757 2161
-52.1366 -897.509 2158
-46.802 -894.182 2150
-41.6026 -892.934 2147
-36.4685 -892.934 2147
-31.2176 -889.607 2139
-26.0294 -887.112 2133
-20.8797 -885.032 2128
-15.7465 -882.537 2122
-10.6721 -882.537 2122
-5.59248 -881.705 2120
-0.522182 -880.457 2117
4.53377 -879.209 2114
9.58899 -879.209 2114
14.6303 -878.378 2112
19.6528 -877.13 2109
24.661 -875.882 2106
29.697 -875.882 2106
34.6507 -873.803 2101
39.6748 -873.803 2101
44.7627 -875.05 2104
49.794 -875.05 2104
54.8253 -875.05 2104
59.8566 -875.05 2104
64.8879 -875.05 2104
69.9193 -875.05 2104
74.9505 -875.05 2104
79.8678 -873.803 2101
84.8919 -873.803 2101
89.9161 -873.803 2101
94.9402 -873.803 2101
99.9643 -873.803 2101
105.138 -875.05 2104
110.274 -875.882 2106
115.475 -877.13 2109
120.518 -877.13 2109
125.74 -878.378 2112
131.286 -881.705 2120
136.484 -882.537 2122
141.558 -882.537 2122
146.633 -882.537 2122
151.564 -881.705 2120
156.634 -881.705 2120
161.474 -880.457 2117
166.301 -879.209 2114
171.356 -879.209 2114
176.661 -880.457 2117
181.724 -880.457 2117
187.227 -882.537 2122
192.302 -882.537 2122
197.376 -882.537 2122
202.45 -882.537 2122
207.036 -880.457 2117
1474.18 -1518.03 3650
1482.9 -1518.03 3650
1491.63 -1518.03 3650
1500.36 -1518.03 3650
1509.09 -1518.03 3650
1517.82 -1518.03 3650
1526.54 -1518.03 3650
1535.27 -1518.03 3650
1544 -1518.03 3650
1546.35 -1511.79 3635
1537.93 -1495.16 3595
1540.07 -1488.92 3580
1548.63 -1488.92 3580
1553.71 -1485.59 3572
1555.7 -1479.35 3557
-2775.69 -1568 3792
-2766.62 -1568 3792
-2757.55 -1568 3792
-2748.49 -1568 3792
-2745.2 -1571.31 3800
-2736.11 -1571.31 3800
-2727.02 -1571.31 3800
-2717.94 -1571.31 3800
-2708.85 -1571.31 3800
-2699.76 -1571.31 3800
-2690.68 -1571.31 3800
-2681.59 -1571.31 3800
-2672.5 -1571.31 3800
-2663.41 -1571.31 3800
-2654.33 -1571.31 3800
-2609.74 -1550.22 3749
-2588.98 -1543.19 3732
-2580.06 -1543.19 3732
-2560.11 -1536.58 3716
-2556.71 -1539.89 3724
-2547.81 -1539.89 3724
-2549.81 -1546.5 3740
-2540.87 -1546.5 3740
-2531.93 -1546.5 3740
-2529.05 -1550.22 3749
-2542.94 -1564.28 3783
-2533.9 -1564.28 3783
-2524.85 -1564.28 3783
-2654.13 -1650.29 3991
-2676.39 -1670.14 4039
-2666.73 -1670.14 4039
-2657.08 -1670.14 4039
-2634.96 -1662.28 4020
-2625.35 -1662.28 4020
-2615.74 -1662.28 4020
-2599.64 -1658.15 4010
-2590.05 -1658.15 4010
-2580.46 -1658.15 4010
-1377.33 -1608.11 3889
-1368.03 -1608.11 3889
-1358.73 -1608.11 3889
-1349.43 -1608.11 3889
-1349.43 -1619.28 3916
-1340.07 -1619.28 3916
-1330.7 -1619.28 3916
-1303.12 -1596.95 3862
-1293.88 -1596.95 3862
-1284.65 -1596.95 3862
-1275.41 -1596.95 3862
-1266.18 -1596.95 3862
-1245.22 -1582.06 3826
-1225.09 -1568 3792
-1216.02 -1568 3792
-1204.09 -1564.28 3783
-1184.3 -1550.22 3749
-1175.34 -1550.22 3749
-1166.37 -1550.22 3749
-133.325 -918.39 2221
-128.014 -918.39 2221
-122.703 -918.39 2221
-117.233 -917.15 2218
-111.223 -911.361 2204
-105.375 -906.399 2192
-100.134 -906.399 2192
-94.6322 -903.918 2186
-89.4048 -903.918 2186
-84.1774 -903.918 2186
-78.95 -903.918 2186
-73.554 -901.85 2181
-68.0566 -898.129 2172
-62.4575 -892.339 2158
-57.297 -892.339 2158
-52.0158 -890.272 2153
-46.7367 -887.791 2147
-41.4476 -884.483 2139
-36.3326 -884.483 2139
-31.1738 -883.242 2136
-26.005 -881.175 2131
-20.8208 -877.453 2122
-15.7316 -876.626 2120
-10.662 -876.626 2120
-5.58457 -875.386 2117
-0.520949 -873.318 2112
4.52305 -872.078 2109
9.56631 -872.078 2109
14.6096 -872.078 2109
19.6249 -870.837 2106
24.6375 -870.01 2104
29.6688 -870.01 2104
34.6507 -868.77 2101
39.6181 -867.529 2098
44.6989 -868.77 2101
49.794 -870.01 2104
54.8253 -870.01 2104
59.8566 -870.01 2104
64.8879 -870.01 2104
69.9193 -870.01 2104
74.9505 -870.01 2104
79.8678 -868.77 2101
84.7707 -867.529 2098
89.9161 -868.77 2101
94.9402 -868.77 2101
99.9643 -868.77 2101
105.138 -870.01 2104
110.431 -872.078 2109
115.639 -873.318 2112
120.689 -873.318 2112
125.859 -874.145 2114
131.41 -877.453 2122
136.677 -878.694 2125
141.758 -878.694 2125
146.84 -878.694 2125
151.921 -878.694 2125
157.003 -878.694 2125
161.703 -876.626 2120
166.773 -876.626 2120
172.004 -877.453 2122
177.079 -877.453 2122
182.153 -877.453 2122
187.492 -878.694 2125
192.574 -878.694 2125
197.655 -878.694 2125
202.737 -878.694 2125
207.818 -878.694 2125
1485.5 -1503.08 3635
1500.36 -1509.29 3650
1509.09 -1509.29 3650
1517.82 -1509.29 3650
1533.65 -1516.32 3667
1542.42 -1516.32 3667
