-21.9982 872.121 2242
-16.6369 872.121 2242
-11.2454 869.787 2236
-5.89057 868.62 2233
-0.550055 867.453 2230
4.78255 867.453 2230
10.0879 865.119 2224
15.3646 862.785 2218
20.6406 861.618 2215
25.9373 861.618 2215
31.1213 858.506 2207
36.2999 856.172 2201
41.5065 855.005 2198
46.7626 855.005 2198
52.0187 855.005 2198
57.2748 855.005 2198
62.7015 857.339 2204
68.0645 858.506 2207
73.4418 859.673 2210
78.7266 859.673 2210
84.3155 862.785 2218
89.8618 865.119 2224
95.3085 866.286 2227
100.634 866.286 2227
105.959 866.286 2227
111.884 870.954 2239
117.553 873.288 2245
122.921 873.288 2245
128.804 876.789 2254
134.789 880.679 2264
140.575 883.013 2270
146.003 883.013 2270
152.032 886.514 2279
157.481 886.514 2279
163.36 888.848 2285
168.824 888.848 2285
174.288 888.848 2285
179.753 888.848 2285
185.217 888.848 2285
276.08 1098.13 2823
282.831 1098.13 2823
289.582 1098.13 2823
296.857 1100.07 2828
303.62 1100.07 2828
310.382 1100.07 2828
315.014 1092.68 2809
320.013 1086.84 2794
326.695 1086.84 2794
331.705 1081.4 2780
335.554 1072.45 2757
341.03 1068.95 2748
347.601 1068.95 2748
354.172 1068.95 2748
361.4 1070.9 2753
369.855 1076.34 2767
377.016 1077.9 2771
383.642 1077.9 2771
392.944 1085.29 2790
399.616 1085.29 2790
406.288 1085.29 2790
412.959 1085.29 2790
418.879 1083.34 2785
422.789 1076.34 2767
428.629 1074.4 2762
435.234 1074.4 2762
441.039 1072.45 2757
447.632 1072.45 2757
453.566 1070.9 2753
462.489 1076.34 2767
469.106 1076.34 2767
477.27 1079.84 2776
483.908 1079.84 2776
490.546 1079.84 2776
497.185 1079.84 2776
502.915 1077.9 2771
509.542 1077.9 2771
516.168 1077.9 2771
522.794 1077.9 2771
528.656 1076.34 2767
532.565 1070.9 2753
539.148 1070.9 2753
545.731 1070.9 2753
551.311 1068.95 2748
557.883 1068.95 2748
567.33 1074.4 2762
575.805 1077.9 2771
582.431 1077.9 2771
590.12 1079.84 2776
597.618 1081.4 2780
604.266 1081.4 2780
610.914 1081.4 2780
617.562 1081.4 2780
624.21 1081.4 2780
633.127 1085.29 2790
639.798 1085.29 2790
649.714 1090.73 2804
659.697 1096.18 2818
666.435 1096.18 2818
673.174 1096.18 2818
676.535 1090.73 2804
683.24 1090.73 2804
689.945 1090.73 2804
696.651 1090.73 2804
708.122 1098.13 2823
717.151 1101.63 2832
726.48 1105.52 2842
733.276 1105.52 2842
740.072 1105.52 2842
743.189 1100.07 2828
749.952 1100.07 2828
751.63 1092.68 2809
758.347 1092.68 2809
762.341 1088.79 2799
769.034 1088.79 2799
778.499 1092.68 2809
785.216 1092.68 2809
793.061 1094.24 2813
799.788 1094.24 2813
806.514 1094.24 2813
812.085 1092.68 2809
817.344 1090.73 2804
824.05 1090.73 2804
832.236 1092.68 2809
838.953 1092.68 2809
846.875 1094.24 2813
853.602 1094.24 2813
860.328 1094.24 2813
867.055 1094.24 2813
870.986 1090.73 2804
874.561 1086.84 2794
882.82 1088.79 2799
891.102 1090.73 2804
897.807 1090.73 2804
907.415 1094.24 2813
914.142 1094.24 2813
920.869 1094.24 2813
927.596 1094.24 2813
934.322 1094.24 2813
939.711 1092.68 2809
946.428 1092.68 2809
951.449 1090.73 2804
958.154 1090.73 2804
966.58 1092.68 2809
973.297 1092.68 2809
980.014 1092.68 2809
984.975 1090.73 2804
988.143 1086.84 2794
994.825 1086.84 2794
998.28 1083.34 2785
999.888 1077.9 2771
1003.25 1074.4 2762
1009.85 1074.4 2762
1016.45 1074.4 2762
1021.21 1072.45 2757
1026.31 1070.9 2753
1038.15 1076.34 2767
1044.76 1076.34 2767
1051.38 1076.34 2767
1058 1076.34 2767
1064.61 1076.34 2767
1071.23 1076.34 2767
1077.85 1076.34 2767
1080.54 1072.45 2757
1085.56 1070.9 2753
1092.14 1070.9 2753
1093.14 1065.45 2739
1098.08 1063.89 2735
1104.62 1063.89 2735
1111.16 1063.89 2735
1117.7 1063.89 2735
1124.24 1063.89 2735
1130.78 1063.89 2735
1137.32 1063.89 2735
1143.86 1063.89 2735
1150.4 1063.89 2735
1151.02 1058.45 2721
1157.53 1058.45 2721
1164.03 1058.45 2721
1164.95 1053.39 2708
1173.59 1055.34 2713
1191.38 1065.45 2739
1207.99 1074.4 2762
1214.6 1074.4 2762
1231.37 1083.34 2785
1240.25 1085.29 2790
1250.95 1088.79 2799
1257.64 1088.79 2799
1272.92 1096.18 2818
1284.2 1100.07 2828
1297.35 1105.52 2842
1304.15 1105.52 2842
1317.86 1111.35 2857
1324.69 1111.35 2857
1335.72 1114.85 2866
1342.57 1114.85 2866
1351.78 1116.8 2871
1358.65 1116.8 2871
1365.51 1116.8 2871
1365.69 1111.35 2857
1365.31 1105.52 2842
1372.11 1105.52 2842
1374.05 1101.63 2832
1380.82 1101.63 2832
1385.64 1100.07 2828
1373.69 1085.29 2790
1377.89 1083.34 2785
1384.55 1083.34 2785
1384.21 1077.9 2771
1381.81 1070.9 2753
1379.31 1063.89 2735
1385.85 1063.89 2735
1383.23 1056.89 2717
1389.72 1056.89 2717
1396.22 1056.89 2717
1404.78 1058.45 2721
1411.29 1058.45 2721
1417.8 1058.45 2721
1429.02 1061.95 2730
1435.54 1061.95 2730
1442.07 1061.95 2730
1448.6 1061.95 2730
1455.13 1061.95 2730
1461.66 1061.95 2730
1468.18 1061.95 2730
1474.71 1061.95 2730
1479.07 1060.39 2726
1470.88 1049.89 2699
1477.33 1049.89 2699
1465.09 1036.66 2665
1462.08 1030.05 2648
1472.85 1033.16 2656
1479.2 1033.16 2656
1485.55 1033.16 2656
1491.9 1033.16 2656
1503.33 1036.66 2665
1514.23 1039.78 2673
1530.87 1046.78 2691
1537.3 1046.78 2691
1553.49 1053.39 2708
1570.33 1060.39 2726
1589.58 1068.95 2748
1596.15 1068.95 2748
1616.13 1077.9 2771
1628.03 1081.4 2780
1642.91 1086.84 2794
1649.59 1086.84 2794
1667.54 1094.24 2813
1691.52 1105.52 2842
1707.28 1111.35 2857
1714.12 1111.35 2857
1720.95 1111.35 2857
1730.8 1113.3 2862
1737.65 1113.3 2862
1759.12 1122.63 2886
1766.02 1122.63 2886
1785.21 1130.41 2906
1792.16 1130.41 2906
1802.2 1132.36 2911
1809.16 1132.36 2911
1816.12 1132.36 2911
1823.09 1132.36 2911
1830.05 1132.36 2911
1837.01 1132.36 2911
1834.47 1126.52 2896
-1880.16 1015.26 2594
-1873.96 1015.26 2594
-1867.76 1015.26 2594
-1861.55 1015.26 2594
-1855.35 1015.26 2594
-1843.44 1012.13 2586
-1823.76 1004.69 2567
-1811.96 1001.56 2559
-1805.84 1001.56 2559
-1796.91 999.996 2555
-1785.19 996.865 2547
-1779.1 996.865 2547
-1773.01 996.865 2547
-1764.14 995.3 2543
-1758.06 995.3 2543
-1749.22 993.734 2539
-1743.15 993.734 2539
-1737.08 993.734 2539
-1731.01 993.734 2539
-1724.94 993.734 2539
-1708.71 987.863 2524
-1702.68 987.863 2524
-1696.64 987.863 2524
-1697.97 992.169 2535
-1699.92 996.865 2547
-1696.49 998.431 2551
-1690.39 998.431 2551
-1697.49 1006.26 2571
-1703.84 1013.69 2590
-1697.65 1013.69 2590
-1702.56 1020.35 2607
-1701.53 1023.48 2615
-1700.46 1026.61 2623
-1694.19 1026.61 2623
-1690.49 1028.18 2627
-1684.21 1028.18 2627
-1683.04 1031.31 2635
-1676.74 1031.31 2635
-1711.01 1056.36 2699
-1704.56 1056.36 2699
-1709.43 1063.4 2717
-1702.93 1063.4 2717
-1702.05 1066.92 2726
-1698.02 1068.49 2730
-1697.07 1072.01 2739
-1690.52 1072.01 2739
-1683.97 1072.01 2739
-1666.4 1064.97 2721
-1659.89 1064.97 2721
-1653.38 1064.97 2721
-1649.9 1066.92 2726
-1643.38 1066.92 2726
-1636.86 1066.92 2726
-1627.36 1064.97 2721
-1620.85 1064.97 2721
-1606.63 1059.88 2708
-1600.15 1059.88 2708
-1593.68 1059.88 2708
-1579.58 1054.79 2695
-1570.8 1053.22 2691
-1546.93 1041.48 2661
-1540.56 1041.48 2661
-1534.2 1041.48 2661
-1527.84 1041.48 2661
-1521.47 1041.48 2661
-1515.11 1041.48 2661
-1505.91 1039.53 2656
-1499.56 1039.53 2656
-1500.52 1044.61 2669
-1494.14 1044.61 2669
-1487.75 1044.61 2669
-1476.93 1041.48 2661
-1470.57 1041.48 2661
-1475.76 1049.7 2682
-1469.35 1049.7 2682
-1462.93 1049.7 2682
-1461.41 1053.22 2691
-1454.97 1053.22 2691
-1448.54 1053.22 2691
-1432.46 1046.18 2673
-1426.06 1046.18 2673
-1429.23 1053.22 2691
-1422.8 1053.22 2691
-1416.36 1053.22 2691
-1409.93 1053.22 2691
-1403.49 1053.22 2691
-1159.99 1072.01 2739
-1153.44 1072.01 2739
-1150.66 1075.53 2748
-1153.66 1084.54 2771
-1147.03 1084.54 2771
-1140.41 1084.54 2771
-1137.46 1088.06 2780
-1132.85 1090.02 2785
-1126.19 1090.02 2785
-1119.53 1090.02 2785
-1112.87 1090.02 2785
-1106.21 1090.02 2785
-1099.55 1090.02 2785
-1092.89 1090.02 2785
-1086.23 1090.02 2785
-1074.14 1084.54 2771
-1067.52 1084.54 2771
-1059.36 1082.97 2767
-1050.84 1081.01 2762
-1040.83 1077.49 2753
-1034.25 1077.49 2753
-1022.44 1072.01 2739
-1012.55 1068.49 2730
-1006.03 1068.49 2730
-999.497 1068.49 2730
-992.969 1068.49 2730
-984.995 1066.92 2726
-972.015 1059.88 2708
-965.54 1059.88 2708
-959.064 1059.88 2708
-944.849 1051.27 2686
-937.029 1049.7 2682
-930.615 1049.7 2682
-922.824 1048.14 2678
-916.42 1048.14 2678
-914.433 1053.22 2691
-907.998 1053.22 2691
-901.563 1053.22 2691
-893.465 1051.27 2686
-887.042 1051.27 2686
-879.308 1049.7 2682
-877.125 1054.79 2695
-870.681 1054.79 2695
-865.519 1056.36 2699
-859.065 1056.36 2699
-852.611 1056.36 2699
-844.902 1054.79 2695
-827.88 1041.48 2661
-818.738 1037.96 2652
-813.622 1039.53 2656
-807.27 1039.53 2656
-800.919 1039.53 2656
-794.568 1039.53 2656
-788.216 1039.53 2656
-778.333 1034.83 2644
-769.382 1031.31 2635
-763.081 1031.31 2635
-756.78 1031.31 2635
-748.2 1028.18 2627
-736.27 1020.35 2607
-731.156 1021.91 2611
-724.912 1021.91 2611
-718.669 1021.91 2611
-712.425 1021.91 2611
-704.018 1018.78 2603
-697.793 1018.78 2603
-691.568 1018.78 2603
-685.344 1018.78 2603
-679.119 1018.78 2603
-673.929 1020.35 2607
-667.695 1020.35 2607
-661.461 1020.35 2607
-656.232 1021.91 2611
-649.988 1021.91 2611
-648.675 1029.74 2631
-642.384 1029.74 2631
-636.092 1029.74 2631
-634.828 1037.96 2652
-629.434 1039.53 2656
-623.083 1039.53 2656
-616.731 1039.53 2656
-610.38 1039.53 2656
-604.029 1039.53 2656
-597.677 1039.53 2656
-593.33 1043.05 2665
-586.957 1043.05 2665
-586.248 1053.22 2691
-579.813 1053.22 2691
-573.378 1053.22 2691
-566.943 1053.22 2691
-565.091 1061.84 2713
-558.603 1061.84 2713
-557.407 1072.01 2739
-552.667 1075.53 2748
-546.096 1075.53 2748
-539.524 1075.53 2748
-532.953 1075.53 2748
-523.892 1070.45 2735
-517.352 1070.45 2735
-509.13 1066.92 2726
-500.952 1063.4 2717
-489.724 1053.22 2691
-483.289 1053.22 2691
-474.55 1048.14 2678
-468.146 1048.14 2678
-463.121 1051.27 2686
-458.229 1054.79 2695
-451.784 1054.79 2695
-446.827 1058.31 2704
-442.478 1063.4 2717
-436.622 1064.97 2721
-430.116 1064.97 2721
-423.609 1064.97 2721
-417.102 1064.97 2721
-410.596 1064.97 2721
-402.901 1061.84 2713
-396.413 1061.84 2713
-389.926 1061.84 2713
-383.438 1061.84 2713
-377.506 1063.4 2717
-371.009 1063.4 2717
-365.719 1066.92 2726
-359.2 1066.92 2726
-353.199 1068.49 2730
-346.671 1068.49 2730
-341.264 1072.01 2739
-335.814 1075.53 2748
-329.243 1075.53 2748
-322.672 1075.53 2748
-315.065 1072.01 2739
-307.051 1066.92 2726
-300.532 1066.92 2726
-293.043 1063.4 2717
-286.124 1061.84 2713
-279.121 1059.88 2708
-272.645 1059.88 2708
-266.17 1059.88 2708
-259.31 1058.31 2704
-251.161 1051.27 2686
-244.738 1051.27 2686
-237.605 1048.14 2678
-230.424 1044.61 2669
-224.378 1046.18 2673
-217.986 1046.18 2673
-211.594 1046.18 2673
-205.202 1046.18 2673
-198.81 1046.18 2673
-191.554 1041.48 2661
-185.191 1041.48 2661
-177.685 1034.83 2644
-170.52 1029.74 2631
-162.73 1020.35 2607
-156.496 1020.35 2607
-149.801 1017.22 2599
-137.343 972.99 2486
-124.897 924.85 2363
-116.925 906.846 2317
-111.384 906.846 2317
-105.387 902.932 2307
-99.7404 901.758 2304
-94.2309 901.758 2304
-88.7213 901.758 2304
-82.8867 898.235 2295
-76.9602 893.147 2282
-71.2213 889.625 2273
-65.7858 889.625 2273
-60.1911 887.277 2267
-54.6975 886.102 2264
-49.2183 884.928 2261
-43.8116 884.928 2261
-38.4049 884.928 2261
-32.9397 883.363 2257
-27.506 882.188 2254
-21.9982 877.492 2242
-16.6369 877.492 2242
-11.2605 876.318 2239
-5.89057 873.969 2233
-0.550055 872.795 2230
4.78255 872.795 2230
10.0879 870.447 2224
15.3854 869.273 2221
20.6406 866.924 2215
25.9373 866.924 2215
31.1213 863.793 2207
36.3494 862.619 2204
41.5065 860.271 2198
46.7626 860.271 2198
52.0187 860.271 2198
57.2748 860.271 2198
62.7015 862.619 2204
68.0645 863.793 2207
73.4418 864.967 2210
78.7266 864.967 2210
84.3155 868.099 2218
89.8618 870.447 2224
95.3085 871.621 2227
100.634 871.621 2227
105.959 871.621 2227
111.884 876.318 2239
117.553 878.666 2245
122.921 878.666 2245
128.804 882.188 2254
134.789 886.102 2264
140.575 888.451 2270
146.003 888.451 2270
152.032 891.973 2279
157.481 891.973 2279
163.36 894.322 2285
168.824 894.322 2285
174.288 894.322 2285
179.753 894.322 2285
185.217 894.322 2285
190.681 894.322 2285
289.069 1102.93 2818
296.857 1106.85 2828
303.62 1106.85 2828
310.382 1106.85 2828
313.893 1095.49 2799
319.555 1091.97 2790
326.227 1091.97 2790
328.961 1079.06 2757
334.459 1075.53 2748
340.533 1073.97 2744
347.095 1073.97 2744
352.497 1070.45 2735
359.037 1070.45 2735
366.78 1073.97 2744
376.471 1082.97 2767
383.642 1084.54 2771
390.268 1084.54 2771
396.895 1084.54 2771
403.521 1084.54 2771
410.147 1084.54 2771
416.172 1082.97 2767
421.261 1079.06 2757
427.853 1079.06 2757
434.446 1079.06 2757
441.039 1079.06 2757
447.632 1079.06 2757
452.742 1075.53 2748
462.489 1082.97 2767
469.106 1082.97 2767
477.27 1086.49 2776
483.908 1086.49 2776
490.546 1086.49 2776
497.185 1086.49 2776
502.915 1084.54 2771
508.806 1082.97 2767
515.423 1082.97 2767
522.04 1082.97 2767
528.656 1082.97 2767
532.565 1077.49 2753
539.148 1077.49 2753
545.731 1077.49 2753
550.509 1073.97 2744
557.071 1073.97 2744
564.454 1075.53 2748
571.025 1075.53 2748
577.597 1075.53 2748
584.168 1075.53 2748
590.739 1075.53 2748
597.311 1075.53 2748
603.882 1075.53 2748
610.453 1075.53 2748
614.105 1070.45 2735
627.907 1082.97 2767
634.524 1082.97 2767
641.141 1082.97 2767
647.758 1082.97 2767
654.374 1082.97 2767
660.991 1082.97 2767
664.23 1077.49 2753
668.62 1073.97 2744
680.841 1082.97 2767
687.458 1082.97 2767
699.844 1091.97 2790
710.061 1097.45 2804
718.044 1099.41 2809
724.762 1099.41 2809
731.479 1099.41 2809
736.882 1097.45 2804
743.587 1097.45 2804
750.292 1097.45 2804
753.218 1091.97 2790
759.89 1091.97 2790
769.034 1095.49 2799
777.113 1097.45 2804
783.818 1097.45 2804
793.061 1100.97 2813
799.788 1100.97 2813
806.514 1100.97 2813
809.194 1095.49 2799
814.43 1093.54 2794
822.58 1095.49 2799
830.755 1097.45 2804
837.46 1097.45 2804
844.165 1097.45 2804
850.871 1097.45 2804
857.576 1097.45 2804
862.74 1095.49 2799
867.88 1093.54 2794
873.309 1091.97 2790
879.981 1091.97 2790
889.513 1095.49 2799
896.206 1095.49 2799
904.512 1097.45 2804
912.842 1099.41 2809
919.559 1099.41 2809
926.277 1099.41 2809
932.994 1099.41 2809
938.038 1097.45 2804
944.744 1097.45 2804
946.698 1091.97 2790
953.37 1091.97 2790
964.859 1097.45 2804
971.564 1097.45 2804
978.27 1097.45 2804
981.462 1093.54 2794
984.96 1090.02 2785
991.62 1090.02 2785
993.262 1084.54 2771
994.836 1079.06 2757
996.707 1073.97 2744
996.688 1066.92 2726
1003.21 1066.92 2726
1009.72 1066.92 2726
1014.38 1064.97 2721
1022.76 1066.92 2726
1029.28 1066.92 2726
1035.8 1066.92 2726
1042.32 1066.92 2726
1048.84 1066.92 2726
1055.36 1066.92 2726
1061.87 1066.92 2726
1068.39 1066.92 2726
1072.94 1064.97 2721
1079.45 1064.97 2721
1082.76 1061.84 2713
1083.63 1056.36 2699
1088.47 1054.79 2695
1094.91 1054.79 2695
1101.36 1054.79 2695
1107.8 1054.79 2695
1115.9 1056.36 2699
1122.35 1056.36 2699
1128.81 1056.36 2699
1131.9 1053.22 2691
1130.72 1046.18 2673
1137.11 1046.18 2673
1143.5 1046.18 2673
1144.73 1041.48 2661
1160.18 1049.7 2682
1180.07 1061.84 2713
1197.93 1072.01 2739
1204.48 1072.01 2739
1213.24 1073.97 2744
1219.81 1073.97 2744
1234.41 1081.01 2762
1241.02 1081.01 2762
1255.75 1088.06 2780
1277.39 1100.97 2813
1284.11 1100.97 2813
1290.84 1100.97 2813
1299.87 1102.93 2818
1306.61 1102.93 2818
1313.35 1102.93 2818
1320.09 1102.93 2818
1326.83 1102.93 2818
1333.57 1102.93 2818
1340.3 1102.93 2818
1347.04 1102.93 2818
1353.78 1102.93 2818
1353.76 1097.45 2804
1358.04 1095.49 2799
1364.73 1095.49 2799
1368.98 1093.54 2794
1371.23 1090.02 2785
1370.96 1084.54 2771
1377.59 1084.54 2771
1384.21 1084.54 2771
1381.81 1077.49 2753
1379.31 1070.45 2735
1385.85 1070.45 2735
1383.23 1063.4 2717
1389.72 1063.4 2717
1396.22 1063.4 2717
1404.78 1064.97 2721
1411.29 1064.97 2721
1417.8 1064.97 2721
1429.02 1068.49 2730
1435.54 1068.49 2730
1442.07 1068.49 2730
1448.6 1068.49 2730
1455.13 1068.49 2730
1461.66 1068.49 2730
1468.18 1068.49 2730
1474.71 1068.49 2730
1479.07 1066.92 2726
1470.88 1056.36 2699
1477.33 1056.36 2699
1465.09 1043.05 2665
1462.08 1036.4 2648
1472.85 1039.53 2656
1479.2 1039.53 2656
1485.55 1039.53 2656
1491.9 1039.53 2656
1498.25 1039.53 2656
1509.7 1043.05 2665
1523.47 1048.14 2678
1529.87 1048.14 2678
1543.74 1053.22 2691
1557.66 1058.31 2704
1571.65 1063.4 2717
1578.14 1063.4 2717
1602.72 1075.53 2748
1622.76 1084.54 2771
1632.33 1086.49 2776
1638.96 1086.49 2776
1656.27 1093.54 2794
1674.26 1100.97 2813
1698.32 1112.32 2842
1705.12 1112.32 2842
1717.94 1116.24 2852
1724.76 1116.24 2852
1734.61 1118.2 2857
1753.02 1125.63 2876
1759.9 1125.63 2876
1772.92 1129.55 2886
1782.91 1131.5 2891
1799.11 1137.37 2906
1806.06 1137.37 2906
1813.01 1137.37 2906
1819.95 1137.37 2906
1826.9 1137.37 2906
1833.85 1137.37 2906
1834.47 1133.46 2896
-1880.16 1021.47 2594
-1873.96 1021.47 2594
-1867.76 1021.47 2594
-1858.68 1019.9 2590
-1852.49 1019.9 2590
-1827.05 1009.27 2563
-1812.39 1004.54 2551
-1803.46 1002.97 2547
-1797.37 1002.97 2547
-1791.28 1002.97 2547
-1782.38 1001.39 2543
-1768.62 997.06 2532
-1762.57 997.06 2532
-1756.51 997.06 2532
-1750.46 997.06 2532
-1744.4 997.06 2532
-1743.15 999.816 2539
-1737.08 999.816 2539
-1731.01 999.816 2539
-1724.94 999.816 2539
-1708.71 993.909 2524
-1702.68 993.909 2524
-1696.64 993.909 2524
-1695.96 997.06 2532
-1699.92 1002.97 2547
-1696.49 1004.54 2551
-1690.39 1004.54 2551
-1697.49 1012.42 2571
-1703.84 1019.9 2590
-1697.65 1019.9 2590
-1699.95 1025.02 2603
-1693.72 1025.02 2603
-1695.28 1029.74 2615
-1689.02 1029.74 2615
-1687.92 1032.89 2623
-1681.65 1032.89 2623
-1680.48 1036.04 2631
-1674.19 1036.04 2631
-1686.92 1047.86 2661
-1680.56 1047.86 2661
-1684.89 1054.55 2678
-1678.48 1054.55 2678
-1677.08 1057.7 2686
-1689.93 1069.91 2717
-1683.44 1069.91 2717
-1676.94 1069.91 2717
-1659.38 1062.82 2699
-1652.92 1062.82 2699
-1646.47 1062.82 2699
-1640.01 1062.82 2699
-1639.01 1066.37 2708
-1632.53 1066.37 2708
-1631.46 1069.91 2717
-1624.96 1069.91 2717
-1618.47 1069.91 2717
-1606.63 1066.37 2708
-1600.15 1066.37 2708
-1593.68 1066.37 2708
-1564.34 1051.01 2669
-1553.29 1047.86 2661
-1537.05 1041.16 2644
-1530.72 1041.16 2644
-1524.4 1041.16 2644
-1527.84 1047.86 2661
-1521.47 1047.86 2661
-1515.11 1047.86 2661
-1505.91 1045.89 2656
-1499.56 1045.89 2656
-1500.52 1051.01 2669
-1494.14 1051.01 2669
-1487.75 1051.01 2669
-1476.93 1047.86 2661
-1470.57 1047.86 2661
-1475.76 1056.13 2682
-1469.35 1056.13 2682
-1462.93 1056.13 2682
-1461.41 1059.67 2691
-1454.97 1059.67 2691
-1448.54 1059.67 2691
-1432.46 1052.58 2673
-1426.06 1052.58 2673
-1429.23 1059.67 2691
-1422.8 1059.67 2691
-1416.36 1059.67 2691
-1409.93 1059.67 2691
-1403.49 1059.67 2691
-1158.29 1077 2735
-1151.75 1077 2735
-1146.89 1078.57 2739
-1144.08 1082.12 2748
-1143.31 1087.63 2762
-1136.7 1087.63 2762
-1130.1 1087.63 2762
-1123.49 1087.63 2762
-1122.55 1093.14 2776
-1115.91 1093.14 2776
-1109.27 1093.14 2776
-1095.09 1085.66 2757
-1088.5 1085.66 2757
-1081.9 1085.66 2757
-1075.31 1085.66 2757
-1058.25 1075.03 2730
-1058.66 1082.12 2748
-1052.09 1082.12 2748
-1045.51 1082.12 2748
-1038.94 1082.12 2748
-1032.37 1082.12 2748
-1014.23 1069.91 2717
-1007.73 1069.91 2717
-1001.23 1069.91 2717
-994.737 1069.91 2717
-988.24 1069.91 2717
-977.046 1064.79 2704
-961.247 1054.55 2678
-954.843 1054.55 2678
-948.439 1054.55 2678
-936.055 1047.86 2661
-925.15 1042.74 2648
-920.206 1044.31 2652
-916.965 1047.86 2661
-910.602 1047.86 2661
-908.317 1052.58 2673
-901.925 1052.58 2673
-895.533 1052.58 2673
-885.149 1047.86 2661
-877.135 1045.89 2656
-869.472 1044.31 2652
-864.432 1045.89 2656
-858.081 1045.89 2656
-851.729 1045.89 2656
-845.378 1045.89 2656
-839.027 1045.89 2656
-831.422 1044.31 2652
-816.057 1032.89 2623
-806.08 1028.17 2611
-801.062 1029.74 2615
-794.809 1029.74 2615
-788.555 1029.74 2615
-782.302 1029.74 2615
-776.049 1029.74 2615
-767.441 1026.59 2607
-760.039 1025.02 2603
-753.814 1025.02 2603
-747.589 1025.02 2603
-741.365 1025.02 2603
-736.27 1026.59 2607
-731.156 1028.17 2611
-724.912 1028.17 2611
-718.669 1028.17 2611
-712.425 1028.17 2611
-704.018 1025.02 2603
-697.793 1025.02 2603
-691.568 1025.02 2603
-685.344 1025.02 2603
-679.119 1025.02 2603
-673.929 1026.59 2607
-667.695 1026.59 2607
-661.461 1026.59 2607
-656.232 1028.17 2611
-649.988 1028.17 2611
-648.675 1036.04 2631
-642.384 1036.04 2631
-636.092 1036.04 2631
-634.828 1044.31 2652
-629.434 1045.89 2656
-623.083 1045.89 2656
-616.731 1045.89 2656
-610.38 1045.89 2656
-604.029 1045.89 2656
-597.677 1045.89 2656
-593.33 1049.43 2665
-586.957 1049.43 2665
-586.248 1059.67 2691
-579.813 1059.67 2691
-573.378 1059.67 2691
-566.943 1059.67 2691
-565.091 1068.33 2713
-558.603 1068.33 2713
-557.407 1078.57 2739
-552.667 1082.12 2748
-546.096 1082.12 2748
-539.524 1082.12 2748
-532.953 1082.12 2748
-523.892 1077 2735
-517.352 1077 2735
-509.13 1073.45 2726
-500.952 1069.91 2717
-489.724 1059.67 2691
-483.289 1059.67 2691
-474.55 1054.55 2678
-468.146 1054.55 2678
-463.121 1057.7 2686
-458.229 1061.25 2695
-451.784 1061.25 2695
-446.827 1064.79 2704
-442.478 1069.91 2717
-436.622 1071.48 2721
-430.116 1071.48 2721
-423.609 1071.48 2721
-417.102 1071.48 2721
-410.596 1071.48 2721
-402.901 1068.33 2713
-396.413 1068.33 2713
-389.926 1068.33 2713
-383.438 1068.33 2713
-377.506 1069.91 2717
-371.009 1069.91 2717
-365.719 1073.45 2726
-359.2 1073.45 2726
-353.199 1075.03 2730
-346.671 1075.03 2730
-341.264 1078.57 2739
-335.814 1082.12 2748
-329.243 1082.12 2748
-322.672 1082.12 2748
-315.065 1078.57 2739
-307.051 1073.45 2726
-300.532 1073.45 2726
-293.043 1069.91 2717
-286.124 1068.33 2713
-279.121 1066.37 2708
-272.645 1066.37 2708
-266.17 1066.37 2708
-259.31 1064.79 2704
-251.161 1057.7 2686
-244.738 1057.7 2686
-237.605 1054.55 2678
-230.424 1051.01 2669
-224.378 1052.58 2673
-217.986 1052.58 2673
-211.594 1052.58 2673
-205.202 1052.58 2673
-198.81 1052.58 2673
-191.554 1047.86 2661
-185.191 1047.86 2661
-178.223 1044.31 2652
-170.52 1036.04 2631
-163.729 1032.89 2623
-157.457 1032.89 2623
-149.801 1023.44 2599
-137.343 978.946 2486
-124.897 930.51 2363
-116.925 912.396 2317
-111.384 912.396 2317
-105.387 908.458 2307
-99.7404 907.277 2304
-94.2309 907.277 2304
-88.7213 907.277 2304
-82.8867 903.733 2295
-76.9602 898.614 2282
-71.2213 895.07 2273
-65.7858 895.07 2273
-60.1911 892.707 2267
-54.6975 891.526 2264
-49.2183 890.344 2261
-43.8116 890.344 2261
-38.4049 890.344 2261
-32.9397 888.769 2257
-27.506 887.588 2254
-21.9982 882.863 2242
-16.6369 882.863 2242
-11.2605 881.681 2239
-5.89057 879.318 2233
-0.550055 878.137 2230
4.78255 878.137 2230
10.0879 875.774 2224
15.3854 874.593 2221
20.6406 872.23 2215
25.9373 872.23 2215
31.1636 870.261 2210
36.3989 869.08 2207
41.5632 866.717 2201
46.8264 866.717 2201
52.0897 866.717 2201
57.3529 866.717 2201
62.7015 867.899 2204
68.0645 869.08 2207
73.4418 870.261 2210
78.7266 870.261 2210
84.3155 873.412 2218
89.7406 874.593 2221
95.1801 875.774 2224
100.498 875.774 2224
105.959 876.956 2227
111.734 880.5 2236
117.553 884.044 2245
122.921 884.044 2245
128.633 886.407 2251
134.789 891.526 2264
140.575 893.888 2270
146.003 893.888 2270
151.832 896.251 2276
157.481 897.433 2279
163.36 899.795 2285
168.824 899.795 2285
174.288 899.795 2285
179.753 899.795 2285
185.217 899.795 2285
190.681 899.795 2285
195.887 898.614 2282
294.863 1106.14 2809
301.58 1106.14 2809
308.297 1106.14 2809
308.734 1084.09 2753
313.714 1078.57 2739
320.264 1078.57 2739
326.336 1077 2735
329.103 1064.79 2704
335.569 1064.79 2704
342.035 1064.79 2704
349.017 1066.37 2708
355.493 1066.37 2708
364.909 1075.03 2730
372.118 1077 2735
379.212 1078.57 2739
385.761 1078.57 2739
393.6 1082.12 2748
400.172 1082.12 2748
406.743 1082.12 2748
413.314 1082.12 2748
420.649 1084.09 2753
427.233 1084.09 2753
433.816 1084.09 2753
440.399 1084.09 2753
446.171 1082.12 2748
452.742 1082.12 2748
460.818 1085.66 2757
467.41 1085.66 2757
475.722 1089.6 2767
482.339 1089.6 2767
488.956 1089.6 2767
494.677 1087.63 2762
501.282 1087.63 2762
508.806 1089.6 2767
515.423 1089.6 2767
522.04 1089.6 2767
526.746 1085.66 2757
532.565 1084.09 2753
539.148 1084.09 2753
542.956 1078.57 2739
548.703 1077 2735
556.056 1078.57 2739
562.605 1078.57 2739
569.155 1078.57 2739
575.705 1078.57 2739
581.404 1077 2735
586.01 1073.45 2726
592.529 1073.45 2726
599.047 1073.45 2726
605.566 1073.45 2726
609.166 1068.33 2713
619.511 1075.03 2730
626.039 1075.03 2730
633.726 1077 2735
642.373 1080.54 2744
648.935 1080.54 2744
655.497 1080.54 2744
658.681 1075.03 2730
665.209 1075.03 2730
673.952 1078.57 2739
680.501 1078.57 2739
691.566 1085.66 2757
702.971 1093.14 2776
713.188 1098.66 2790
719.859 1098.66 2790
726.531 1098.66 2790
730.575 1094.72 2780
736.162 1093.14 2776
742.8 1093.14 2776
749.438 1093.14 2776
757.166 1094.72 2780
765.188 1096.69 2785
775.727 1102.2 2799
782.421 1102.2 2799
789.114 1102.2 2799
795.807 1102.2 2799
802.5 1102.2 2799
803.701 1094.72 2780
810.349 1094.72 2780
818.466 1096.69 2785
826.607 1098.66 2790
833.279 1098.66 2790
839.951 1098.66 2790
846.622 1098.66 2790
853.294 1098.66 2790
859.966 1098.66 2790
863.531 1094.72 2780
870.179 1094.72 2780
876.827 1094.72 2780
885.064 1096.69 2785
891.723 1096.69 2785
898.383 1096.69 2785
906.668 1098.66 2790
913.34 1098.66 2790
920.011 1098.66 2790
926.683 1098.66 2790
928.671 1093.14 2776
935.31 1093.14 2776
941.948 1093.14 2776
949.953 1094.72 2780
958.321 1096.69 2785
964.981 1096.69 2785
971.641 1096.69 2785
978.301 1096.69 2785
983.192 1094.72 2780
989.84 1094.72 2780
988.243 1085.66 2757
990.145 1080.54 2744
988.353 1071.48 2721
993.397 1069.91 2717
999.894 1069.91 2717
1006.39 1069.91 2717
1012.89 1069.91 2717
1019.39 1069.91 2717
1025.88 1069.91 2717
1030.86 1068.33 2713
1037.35 1068.33 2713
1041.91 1066.37 2708
1048.39 1066.37 2708
1054.86 1066.37 2708
1061.34 1066.37 2708
1067.81 1066.37 2708
1074.29 1066.37 2708
1075.58 1061.25 2695
1078.41 1057.7 2686
1084.83 1057.7 2686
1091.25 1057.7 2686
1094.41 1054.55 2678
1100.81 1054.55 2678
1107.22 1054.55 2678
1109.88 1051.01 2669
1116.26 1051.01 2669
1122.64 1051.01 2669
1123.53 1045.89 2656
1126.47 1042.74 2648
1132.81 1042.74 2648
1133.55 1037.62 2635
1145.47 1042.74 2648
1168.33 1057.7 2686
1184.38 1066.37 2708
1190.85 1066.37 2708
1201.31 1069.91 2717
1207.8 1069.91 2717
1224.13 1078.57 2739
1230.68 1078.57 2739
1245.36 1085.66 2757
1262.4 1094.72 2780
1275.44 1100.23 2794
1282.12 1100.23 2794
1293.41 1104.17 2804
1300.12 1104.17 2804
1311.02 1107.71 2813
1317.75 1107.71 2813
1324.47 1107.71 2813
1331.2 1107.71 2813
1336.02 1106.14 2809
1342.74 1106.14 2809
1347.06 1104.17 2804
1348.93 1100.23 2794
1355.61 1100.23 2794
1362.3 1100.23 2794
1364.57 1096.69 2785
1371.23 1096.69 2785
1370.96 1091.17 2771
1377.59 1091.17 2771
1384.21 1091.17 2771
1390.84 1091.17 2771
1383.85 1080.54 2744
1390.41 1080.54 2744
1381.19 1068.33 2713
1387.68 1068.33 2713
1394.17 1068.33 2713
1404.78 1071.48 2721
1411.29 1071.48 2721
1417.8 1071.48 2721
1429.02 1075.03 2730
1435.54 1075.03 2730
1442.07 1075.03 2730
1448.6 1075.03 2730
1455.13 1075.03 2730
1461.66 1075.03 2730
1468.18 1075.03 2730
1474.71 1075.03 2730
1479.07 1073.45 2726
1452.35 1049.43 2665
1456.53 1047.86 2661
1462.89 1047.86 2661
1462.08 1042.74 2648
1466.19 1041.16 2644
1476.97 1044.31 2652
1483.31 1044.31 2652
1489.65 1044.31 2652
1496 1044.31 2652
1507.44 1047.86 2661
1518.35 1051.01 2669
1524.73 1051.01 2669
1536.28 1054.55 2678
1550.17 1059.67 2691
1564.13 1064.79 2704
1570.59 1064.79 2704
1589.89 1073.45 2726
1604.02 1078.57 2739
1621.15 1085.66 2757
1627.75 1085.66 2757
1645.6 1093.14 2776
1671.88 1106.14 2809
1686.97 1111.65 2823
1693.72 1111.65 2823
1711.91 1119.13 2842
1718.71 1119.13 2842
1731.58 1123.07 2852
1741.44 1125.04 2857
1748.28 1125.04 2857
1766.78 1132.52 2876
1776.74 1134.49 2881
1799.11 1144.33 2906
1806.06 1144.33 2906
1813.01 1144.33 2906
1819.95 1144.33 2906
1826.9 1144.33 2906
1833.85 1144.33 2906
-1877.26 1026.1 2590
-1871.07 1026.1 2590
-1864.87 1026.1 2590
-1845.05 1018.58 2571
-1838.9 1018.58 2571
-1818.49 1010.65 2551
-1803.87 1005.9 2539
-1794.96 1004.31 2535
-1788.9 1004.31 2535
-1782.84 1004.31 2535
-1774.67 1003.13 2532
-1765.83 1001.54 2528
-1759.78 1001.54 2528
-1753.74 1001.54 2528
-1742.16 998.371 2520
-1741.65 1001.54 2528
-1743.15 1005.9 2539
-1737.08 1005.9 2539
-1731.01 1005.9 2539
-1724.94 1005.9 2539
-1708.71 999.956 2524
-1702.68 999.956 2524
-1693.95 998.371 2520
-1695.96 1003.13 2532
-1697.25 1007.48 2543
-1693.83 1009.07 2547
-1687.74 1009.07 2547
-1692.21 1015.41 2563
-1698.58 1022.93 2582
-1697.65 1026.1 2590
-1691.46 1026.1 2590
-1687.87 1027.69 2594
-1687.5 1031.25 2603
-1681.27 1031.25 2603
-1675.05 1031.25 2603
-1673.95 1034.42 2611
-1667.71 1034.42 2611
-1661.47 1034.42 2611
-1655.22 1034.42 2611
-1654.03 1037.59 2619
-1655.32 1042.35 2631
-1657.17 1047.5 2644
-1650.85 1047.5 2644
-1651.99 1052.25 2656
-1645.64 1052.25 2656
-1639.29 1052.25 2656
-1632.94 1052.25 2656
-1626.59 1052.25 2656
-1623.29 1054.23 2661
-1629.68 1062.55 2682
-1623.27 1062.55 2682
-1622.28 1066.12 2691
-1626.06 1072.85 2708
-1619.58 1072.85 2708
-1613.1 1072.85 2708
-1585.86 1058.99 2673
-1577.11 1057.4 2669
-1570.73 1057.4 2669
-1559.65 1054.23 2661
-1548.04 1050.67 2652
-1537.05 1047.5 2644
-1530.72 1047.5 2644
-1519.21 1043.93 2635
-1510.61 1042.35 2631
-1504.32 1042.35 2631
-1498.03 1042.35 2631
-1484.94 1037.59 2619
-1487.71 1043.93 2635
-1481.4 1043.93 2635
-1475.1 1043.93 2635
-1468.8 1043.93 2635
-1467.5 1047.5 2644
-1461.17 1047.5 2644
-1457.05 1049.08 2648
-1450.72 1049.08 2648
-1451.48 1054.23 2661
-1463.58 1067.7 2695
-1457.14 1067.7 2695
-1450.69 1067.7 2695
-1442.1 1066.12 2691
-1435.67 1066.12 2691
-1429.23 1066.12 2691
-1422.8 1066.12 2691
-1416.36 1066.12 2691
-1409.93 1066.12 2691
-1403.49 1066.12 2691
-1132.04 1058.99 2673
-1125.64 1058.99 2673
-1126.79 1066.12 2691
-1134.92 1079.98 2726
-1128.41 1079.98 2726
-1121.89 1079.98 2726
-1122.73 1087.12 2744
-1117.8 1088.7 2748
-1111.23 1088.7 2748
-1104.66 1088.7 2748
-1098.09 1088.7 2748
-1091.51 1088.7 2748
-1084.94 1088.7 2748
-1062.67 1072.85 2708
-1056.2 1072.85 2708
-1046.23 1069.29 2699
-1039.78 1069.29 2699
-1020.31 1055.82 2665
-1013.94 1055.82 2665
-1007.56 1055.82 2665
-1001.19 1055.82 2665
-989.965 1050.67 2652
-989.928 1057.4 2669
-983.546 1057.4 2669
-977.164 1057.4 2669
-970.781 1057.4 2669
-961.508 1054.23 2661
-949.043 1047.5 2644
-942.72 1047.5 2644
-934.981 1045.91 2640
-924.095 1040.76 2627
-915.018 1037.59 2619
-908.755 1037.59 2619
-903.871 1039.18 2623
-897.598 1039.18 2623
-892.685 1040.76 2627
-886.403 1040.76 2627
-880.121 1040.76 2627
-873.839 1040.76 2627
-867.557 1040.76 2627
-859.964 1039.18 2623
-854.994 1040.76 2627
-848.712 1040.76 2627
-842.43 1040.76 2627
-836.148 1040.76 2627
-829.866 1040.76 2627
-822.33 1039.18 2623
-813.568 1036.01 2615
-806.08 1034.42 2611
-799.837 1034.42 2611
-793.593 1034.42 2611
-787.349 1034.42 2611
-779.909 1032.84 2607
-773.675 1032.84 2607
-766.263 1031.25 2603
-760.039 1031.25 2603
-752.656 1029.67 2599
-746.441 1029.67 2599
-740.226 1029.67 2599
-736.27 1032.84 2607
-730.036 1032.84 2607
-723.802 1032.84 2607
-717.568 1032.84 2607
-711.334 1032.84 2607
-704.018 1031.25 2603
-697.793 1031.25 2603
-690.506 1029.67 2599
-684.291 1029.67 2599
-679.119 1031.25 2603
-672.895 1031.25 2603
-666.67 1031.25 2603
-660.446 1031.25 2603
-654.221 1031.25 2603
-647.997 1031.25 2603
-643.744 1034.42 2611
-637.501 1034.42 2611
-632.224 1036.01 2615
-627.886 1039.18 2623
-624.457 1043.93 2635
-618.156 1043.93 2635
-611.855 1043.93 2635
-605.554 1043.93 2635
-599.253 1043.93 2635
-587.551 1034.42 2611
-583.089 1037.59 2619
-576.826 1037.59 2619
-574.049 1043.93 2635
-567.747 1043.93 2635
-561.446 1043.93 2635
-555.145 1043.93 2635
-552.385 1050.67 2652
-546.043 1050.67 2652
-545.807 1062.55 2682
-541.203 1066.12 2691
-534.768 1066.12 2691
-528.333 1066.12 2691
-522.674 1067.7 2695
-516.23 1067.7 2695
-509.785 1067.7 2695
-502.594 1066.12 2691
-496.159 1066.12 2691
-486.448 1058.99 2673
-480.056 1058.99 2673
-470.651 1052.25 2656
-465.174 1054.23 2661
-460.88 1058.99 2673
-456.018 1062.55 2682
-449.605 1062.55 2682
-445.34 1067.7 2695
-438.895 1067.7 2695
-435.981 1076.42 2717
-429.483 1076.42 2717
-422.986 1076.42 2717
-415.876 1074.83 2713
-409.388 1074.83 2713
-402.901 1074.83 2713
-396.413 1074.83 2713
-389.926 1074.83 2713
-383.438 1074.83 2713
-376.95 1074.83 2713
-370.463 1074.83 2713
-365.048 1078 2721
-358.542 1078 2721
-352.682 1079.98 2726
-346.163 1079.98 2726
-340.143 1081.57 2730
-334.226 1083.55 2735
-327.685 1083.55 2735
-321.145 1083.55 2735
-314.03 1081.57 2730
-306.488 1078 2721
-299.981 1078 2721
-292.072 1072.85 2708
-285.596 1072.85 2708
-278.709 1071.27 2704
-272.242 1071.27 2704
-264.892 1067.7 2695
-258.447 1067.7 2695
-251.161 1064.14 2686
-244.738 1064.14 2686
-237.605 1060.97 2678
-230.424 1057.4 2669
-224.378 1058.99 2673
-217.986 1058.99 2673
-211.594 1058.99 2673
-205.202 1058.99 2673
-198.81 1058.99 2673
-191.554 1054.23 2661
-185.191 1054.23 2661
-178.223 1050.67 2652
-170.52 1042.35 2631
-163.729 1039.18 2623
-157.457 1039.18 2623
-149.801 1029.67 2599
-128.006 917.947 2317
-122.466 917.947 2317
-116.118 911.608 2301
-110.615 911.608 2301
-105.113 911.608 2301
-99.6106 911.608 2301
-93.9855 910.419 2298
-88.4903 910.419 2298
-82.8867 909.231 2295
-76.8591 902.892 2279
-71.2213 900.515 2273
-65.7858 900.515 2273
-60.1911 898.138 2267
-54.6251 895.761 2261
-49.1313 894.176 2257
-43.7341 894.176 2257
-38.3369 894.176 2257
-32.896 892.987 2254
-27.506 892.987 2254
-21.9982 888.233 2242
-16.6369 888.233 2242
-11.2605 887.045 2239
-5.89057 884.668 2233
-0.550055 883.479 2230
4.78255 883.479 2230
10.0879 881.102 2224
15.3854 879.914 2221
20.6406 877.536 2215
25.9373 877.536 2215
31.1636 875.556 2210
36.3989 874.367 2207
41.5632 871.99 2201
46.8264 871.99 2201
52.0897 871.99 2201
57.3529 871.99 2201
62.7015 873.178 2204
68.0645 874.367 2207
73.4418 875.556 2210
78.7266 875.556 2210
84.3155 878.725 2218
89.7406 879.914 2221
95.1801 881.102 2224
100.498 881.102 2224
105.959 882.291 2227
111.734 885.856 2236
117.553 889.422 2245
122.921 889.422 2245
128.633 891.799 2251
134.789 896.949 2264
140.575 899.326 2270
146.003 899.326 2270
151.832 901.703 2276
157.481 902.892 2279
163.36 905.269 2285
168.824 905.269 2285
174.288 905.269 2285
179.753 905.269 2285
185.217 905.269 2285
190.681 905.269 2285
195.887 904.08 2282
201.344 904.08 2282
206.801 904.08 2282
294.863 1112.87 2809
301.58 1112.87 2809
308.297 1112.87 2809
308.734 1090.68 2753
313.714 1085.13 2739
320.264 1085.13 2739
326.336 1083.55 2735
329.103 1071.27 2704
335.569 1071.27 2704
342.035 1071.27 2704
349.017 1072.85 2708
355.493 1072.85 2708
364.909 1081.57 2730
372.118 1083.55 2735
379.212 1085.13 2739
385.761 1085.13 2739
393.6 1088.7 2748
400.172 1088.7 2748
406.743 1088.7 2748
413.314 1088.7 2748
420.649 1090.68 2753
427.233 1090.68 2753
433.816 1090.68 2753
440.399 1090.68 2753
446.171 1088.7 2748
452.742 1088.7 2748
460.818 1092.27 2757
467.41 1092.27 2757
475.722 1096.23 2767
482.339 1096.23 2767
488.956 1096.23 2767
494.677 1094.25 2762
501.282 1094.25 2762
508.806 1096.23 2767
515.423 1096.23 2767
522.04 1096.23 2767
526.746 1092.27 2757
532.565 1090.68 2753
539.148 1090.68 2753
542.956 1085.13 2739
548.703 1083.55 2735
556.056 1085.13 2739
562.605 1085.13 2739
569.155 1085.13 2739
575.705 1085.13 2739
581.404 1083.55 2735
586.01 1079.98 2726
592.529 1079.98 2726
599.047 1079.98 2726
605.566 1079.98 2726
609.166 1074.83 2713
619.511 1081.57 2730
626.039 1081.57 2730
633.726 1083.55 2735
642.373 1087.12 2744
648.935 1087.12 2744
655.497 1087.12 2744
658.681 1081.57 2730
665.209 1081.57 2730
673.952 1085.13 2739
680.501 1085.13 2739
691.566 1092.27 2757
702.971 1099.79 2776
713.188 1105.34 2790
719.859 1105.34 2790
726.531 1105.34 2790
730.575 1101.38 2780
736.162 1099.79 2776
742.8 1099.79 2776
749.438 1099.79 2776
757.166 1101.38 2780
765.188 1103.36 2785
775.727 1108.91 2799
782.421 1108.91 2799
789.114 1108.91 2799
795.807 1108.91 2799
802.5 1108.91 2799
803.701 1101.38 2780
810.349 1101.38 2780
816.996 1101.38 2780
823.644 1101.38 2780
830.292 1101.38 2780
838.445 1103.36 2785
845.105 1103.36 2785
851.765 1103.36 2785
856.883 1101.38 2780
862.289 1099.79 2776
867.362 1097.81 2771
873.988 1097.81 2771
879.343 1096.23 2767
885.96 1096.23 2767
895.48 1099.79 2776
902.118 1099.79 2776
908.757 1099.79 2776
915.395 1099.79 2776
922.033 1099.79 2776
923.988 1094.25 2762
930.593 1094.25 2762
935.501 1092.27 2757
945.511 1096.23 2767
955.224 1099.79 2776
961.863 1099.79 2776
968.501 1099.79 2776
973.383 1097.81 2771
975.058 1092.27 2757
981.651 1092.27 2757
980.357 1083.55 2735
981.846 1078 2721
982.178 1071.27 2704
980.6 1062.55 2682
987.014 1062.55 2682
993.427 1062.55 2682
999.841 1062.55 2682
1012.63 1069.29 2699
1019.09 1069.29 2699
1025.54 1069.29 2699
1031.99 1069.29 2699
1038.45 1069.29 2699
1046.84 1071.27 2704
1053.3 1071.27 2704
1059.77 1071.27 2704
1061.11 1066.12 2691
1067.55 1066.12 2691
1065.2 1057.4 2669
1064.76 1050.67 2652
1071.1 1050.67 2652
1077.44 1050.67 2652
1083.78 1050.67 2652
1090.12 1050.67 2652
1096.47 1050.67 2652
1101.14 1049.08 2648
1107.48 1049.08 2648
1113.81 1049.08 2648
1112.95 1042.35 2631
1117.54 1040.76 2627
1123.82 1040.76 2627
1128.38 1039.18 2623
1138.12 1042.35 2631
1153.54 1050.67 2652
1173 1062.55 2682
1179.42 1062.55 2682
1185.83 1062.55 2682
1203.8 1072.85 2708
1214.3 1076.42 2717
1220.8 1076.42 2717
1241.3 1088.7 2748
1258.31 1097.81 2771
1267.22 1099.79 2776
1273.86 1099.79 2776
1293.41 1110.89 2804
1300.12 1110.89 2804
1306.83 1110.89 2804
1315.87 1112.87 2809
1322.59 1112.87 2809
1329.31 1112.87 2809
1333.65 1110.89 2804
1340.35 1110.89 2804
1342.25 1106.92 2794
1348.93 1106.92 2794
1355.61 1106.92 2794
1362.3 1106.92 2794
1368.98 1106.92 2794
1371.23 1103.36 2785
1377.89 1103.36 2785
1384.55 1103.36 2785
1388.71 1101.38 2780
1393.35 1099.79 2776
1388.39 1090.68 2753
1394.97 1090.68 2753
1396.97 1087.12 2744
1387.68 1074.83 2713
1394.17 1074.83 2713
1402.72 1076.42 2717
1409.22 1076.42 2717
1415.71 1076.42 2717
1426.92 1079.98 2726
1433.44 1079.98 2726
1439.96 1079.98 2726
1446.48 1079.98 2726
1453 1079.98 2726
1456.84 1078 2721
1463.34 1078 2721
1469.85 1078 2721
1476.36 1078 2721
1454.53 1057.4 2669
1456.53 1054.23 2661
1462.89 1054.23 2661
1466.5 1052.25 2656
1468.41 1049.08 2648
1474.74 1049.08 2648
1481.07 1049.08 2648
1487.41 1049.08 2648
1491.48 1047.5 2644
1497.81 1047.5 2644
1508.68 1050.67 2652
1515.02 1050.67 2652
1528.82 1055.82 2665
1539.8 1058.99 2673
1551.4 1062.55 2682
1557.81 1062.55 2682
1577.06 1071.27 2704
1591.14 1076.42 2717
1610.57 1085.13 2739
1617.12 1085.13 2739
1634.34 1092.27 2757
1654.62 1101.38 2780
1678.6 1112.87 2809
1685.32 1112.87 2809
1700.47 1118.41 2823
1707.22 1118.41 2823
1713.97 1118.41 2823
1729.25 1123.96 2837
1736.04 1123.96 2837
1755.11 1131.88 2857
1770.57 1137.43 2871
1789.82 1145.35 2891
1796.73 1145.35 2891
1803.65 1145.35 2891
1884.33 978.958 2471
1890.24 978.958 2471
-1877.26 1032.31 2590
-1871.07 1032.31 2590
-1864.87 1032.31 2590
-1845.05 1024.73 2571
-1838.9 1024.73 2571
-1818.49 1016.76 2551
-1803.87 1011.98 2539
-1794.96 1010.39 2535
-1788.9 1010.39 2535
-1782.84 1010.39 2535
-1774.67 1009.19 2532
-1765.83 1007.6 2528
-1759.78 1007.6 2528
-1753.74 1007.6 2528
-1742.16 1004.41 2520
-1741.65 1007.6 2528
-1743.15 1011.98 2539
-1737.08 1011.98 2539
-1731.01 1011.98 2539
-1724.94 1011.98 2539
-1708.71 1006 2524
-1702.68 1006 2524
-1693.95 1004.41 2520
-1695.96 1009.19 2532
-1697.25 1013.57 2543
-1693.83 1015.17 2547
-1687.74 1015.17 2547
-1692.21 1021.55 2563
-1698.58 1029.12 2582
-1697.65 1032.31 2590
-1691.46 1032.31 2590
-1687.87 1033.9 2594
-1687.5 1037.49 2603
-1681.27 1037.49 2603
-1675.05 1037.49 2603
-1673.95 1040.68 2611
-1667.71 1040.68 2611
-1661.47 1040.68 2611
-1655.22 1040.68 2611
-1654.03 1043.87 2619
-1655.32 1048.65 2631
-1657.17 1053.83 2644
-1650.85 1053.83 2644
-1651.99 1058.61 2656
-1645.64 1058.61 2656
-1639.29 1058.61 2656
-1632.94 1058.61 2656
-1626.59 1058.61 2656
-1602.55 1047.06 2627
-1598.69 1048.65 2631
-1592.4 1048.65 2631
-1588.52 1050.24 2635
-1585.22 1052.24 2640
-1586.09 1057.02 2652
-1579.75 1057.02 2652
-1578.74 1060.61 2661
-1572.38 1060.61 2661
-1566.02 1060.61 2661
-1554.38 1057.02 2652
-1543.37 1053.83 2644
-1524.84 1045.46 2623
-1518.56 1045.46 2623
-1512.29 1045.46 2623
-1506.02 1045.46 2623
-1497.46 1043.87 2619
-1491.2 1043.87 2619
-1482.67 1042.27 2615
-1478.67 1043.87 2619
-1481.4 1050.24 2635
-1475.1 1050.24 2635
-1468.8 1050.24 2635
-1467.5 1053.83 2644
-1461.17 1053.83 2644
-1457.05 1055.43 2648
-1450.72 1055.43 2648
-1451.48 1060.61 2661
-1473.36 1081.33 2713
-1471.19 1084.52 2721
-1464.69 1084.52 2721
-1472.65 1095.28 2748
-1466.08 1095.28 2748
-1459.51 1095.28 2748
-1413.28 1065.39 2673
-1137.54 1070.57 2686
-1131.12 1070.57 2686
-1124.69 1070.57 2686
-1120.35 1072.56 2691
-1115.57 1074.16 2695
-1109.13 1074.16 2695
-1108 1079.34 2708
-1101.53 1079.34 2708
-1095.05 1079.34 2708
-1083.35 1074.16 2695
-1027.73 1050.24 2635
-1029.57 1058.61 2656
-1023.21 1058.61 2656
-1016.86 1058.61 2656
-1002.52 1050.24 2635
-996.221 1050.24 2635
-989.92 1050.24 2635
-982.126 1048.65 2631
-983.623 1057.02 2652
-977.281 1057.02 2652
-970.94 1057.02 2652
-964.598 1057.02 2652
-956.811 1055.43 2648
-945.812 1050.24 2635
-939.511 1050.24 2635
-930.377 1047.06 2627
-921.281 1043.87 2619
-913.621 1042.27 2615
-908.755 1043.87 2619
-903.871 1045.46 2623
-897.598 1045.46 2623
-892.685 1047.06 2627
-886.403 1047.06 2627
-880.121 1047.06 2627
-872.509 1045.46 2623
-864.916 1043.87 2619
-859.964 1045.46 2623
-856.295 1048.65 2631
-850.004 1048.65 2631
-844.995 1050.24 2635
-838.694 1050.24 2635
-832.393 1050.24 2635
-824.838 1048.65 2631
-814.813 1043.87 2619
-807.315 1042.27 2615
-801.062 1042.27 2615
-793.593 1040.68 2611
-787.349 1040.68 2611
-781.106 1040.68 2611
-774.862 1040.68 2611
-768.618 1040.68 2611
-760.039 1037.49 2603
-753.814 1037.49 2603
-747.589 1037.49 2603
-740.226 1035.9 2599
-734.011 1035.9 2599
-730.036 1039.08 2607
-723.802 1039.08 2607
-717.568 1039.08 2607
-710.242 1037.49 2603
-704.018 1037.49 2603
-697.793 1037.49 2603
-689.177 1033.9 2594
-682.974 1033.9 2594
-675.728 1032.31 2590
-669.534 1032.31 2590
-663.341 1032.31 2590
-657.147 1032.31 2590
-650.954 1032.31 2590
-643.764 1030.71 2586
-638.567 1032.31 2590
-632.373 1032.31 2590
-627.147 1033.9 2594
-623.098 1037.49 2603
-616.874 1037.49 2603
-610.649 1037.49 2603
-604.425 1037.49 2603
-597.281 1035.9 2599
-591.066 1035.9 2599
-579.225 1025.93 2574
-573.96 1027.53 2578
-568.677 1029.12 2582
-564.245 1032.31 2590
-558.052 1032.31 2590
-551.858 1032.31 2590
-547.561 1035.9 2599
-545.512 1043.87 2619
-539.249 1043.87 2619
-535.428 1048.65 2631
-529.941 1050.24 2635
-523.64 1050.24 2635
-517.339 1050.24 2635
-512.007 1052.24 2640
-506.461 1053.83 2644
-500.895 1055.43 2648
-494.562 1055.43 2648
-488.23 1055.43 2648
-481.17 1053.83 2644
-474.848 1053.83 2644
-468.525 1053.83 2644
-462.902 1055.43 2648
-458.811 1060.61 2661
-452.448 1060.61 2661
-446.084 1060.61 2661
-441.704 1065.39 2673
-437.429 1070.57 2686
-432.45 1074.16 2695
-426.006 1074.16 2695
-419.561 1074.16 2695
-415.109 1079.34 2708
-408.634 1079.34 2708
-402.901 1081.33 2713
-396.413 1081.33 2713
-389.926 1081.33 2713
-383.438 1081.33 2713
-376.95 1081.33 2713
-369.78 1079.34 2708
-363.975 1081.33 2713
-357.487 1081.33 2713
-351 1081.33 2713
-344.512 1081.33 2713
-339.021 1084.52 2721
-333.615 1088.11 2730
-327.086 1088.11 2730
-320.558 1088.11 2730
-311.499 1079.34 2708
-303.559 1074.16 2695
-297.115 1074.16 2695
-290.67 1074.16 2695
-283.276 1070.57 2686
-276.853 1070.57 2686
-270.43 1070.57 2686
-263.614 1068.98 2682
-256.337 1065.39 2673
-248.823 1060.61 2661
-242.46 1060.61 2661
-236.097 1060.61 2661
-229.302 1058.61 2656
-222.951 1058.61 2656
-216.599 1058.61 2656
-211.277 1063.8 2669
-204.895 1063.8 2669
-198.512 1063.8 2669
-192.13 1063.8 2669
-185.748 1063.8 2669
-178.492 1058.61 2656
-170.52 1048.65 2631
-163.979 1047.06 2627
-157.697 1047.06 2627
-151.184 1045.46 2623
-128.172 924.693 2320
-122.624 924.693 2320
-116.118 917.12 2301
-110.615 917.12 2301
-105.113 917.12 2301
-99.4807 915.924 2298
-93.8628 914.728 2295
-88.3747 914.728 2295
-82.7784 913.533 2292
-76.7579 907.156 2276
-71.1273 904.764 2270
-65.699 904.764 2270
-60.1115 902.373 2264
-54.5284 899.583 2257
-49.1313 899.583 2257
-43.676 898.387 2254
-38.286 898.387 2254
-32.896 898.387 2254
-27.4694 897.191 2251
-21.9394 891.213 2236
-16.5924 891.213 2236
-11.2454 891.213 2236
-5.89057 890.017 2233
-0.548575 886.43 2224
4.76968 886.43 2224
10.0743 885.234 2221
15.3854 885.234 2221
20.6406 882.843 2215
25.9373 882.843 2215
31.1636 880.85 2210
36.3989 879.654 2207
41.5632 877.262 2201
46.8264 877.262 2201
52.0897 877.262 2201
57.3529 877.262 2201
62.7015 878.458 2204
68.0645 879.654 2207
73.3421 879.654 2207
78.6197 879.654 2207
84.0114 880.85 2210
89.6194 884.038 2218
95.0517 885.234 2221
100.363 885.234 2221
105.817 886.43 2224
111.435 888.821 2230
117.239 892.408 2239
122.593 892.408 2239
128.29 894.8 2245
134.194 898.387 2254
140.575 904.764 2270
146.003 904.764 2270
151.631 905.96 2273
157.481 908.351 2279
163.36 910.743 2285
168.824 910.743 2285
174.288 910.743 2285
179.517 909.547 2282
184.974 909.547 2282
190.43 909.547 2282
195.887 909.547 2282
201.344 909.547 2282
206.801 909.547 2282
284.295 1055.43 2648
290.627 1055.43 2648
299.762 1065.39 2673
307.185 1068.98 2682
313.599 1068.98 2682
320.012 1068.98 2682
326.426 1068.98 2682
332.343 1067.38 2678
338.747 1067.38 2678
345.666 1068.98 2682
352.08 1068.98 2682
361.434 1077.75 2704
368.444 1079.34 2708
376.166 1082.93 2717
382.663 1082.93 2717
390.449 1086.51 2726
396.968 1086.51 2726
403.487 1086.51 2726
410.005 1086.51 2726
416.524 1086.51 2726
423.043 1086.51 2726
430.979 1090.1 2735
437.52 1090.1 2735
444.06 1090.1 2735
450.6 1090.1 2735
459.313 1095.28 2748
465.885 1095.28 2748
474.003 1098.87 2757
480.596 1098.87 2757
487.189 1098.87 2757
493.782 1098.87 2757
499.648 1097.28 2753
506.232 1097.28 2753
512.815 1097.28 2753
519.398 1097.28 2753
524.262 1093.69 2744
529.857 1091.7 2739
536.406 1091.7 2739
540.379 1086.51 2726
545.895 1084.52 2721
552.401 1084.52 2721
558.908 1084.52 2721
565.415 1084.52 2721
571.922 1084.52 2721
578.428 1084.52 2721
580.206 1075.75 2699
586.66 1075.75 2699
593.114 1075.75 2699
598.68 1074.16 2695
606.022 1075.75 2699
615.653 1081.33 2713
622.141 1081.33 2713
631.641 1086.51 2726
640.266 1090.1 2735
646.807 1090.1 2735
653.347 1090.1 2735
655.544 1082.93 2717
662.041 1082.93 2717
672.967 1090.1 2735
679.508 1090.1 2735
688.305 1093.69 2744
699.425 1100.86 2762
706.03 1100.86 2762
713.925 1102.86 2767
720.542 1102.86 2767
727.158 1102.86 2767
733.775 1102.86 2767
740.392 1102.86 2767
747.009 1102.86 2767
754.715 1104.45 2771
762.715 1106.44 2776
771.847 1110.03 2785
778.507 1110.03 2785
785.167 1110.03 2785
791.827 1110.03 2785
798.487 1110.03 2785
801.099 1104.45 2771
807.725 1104.45 2771
816.996 1108.04 2780
823.644 1108.04 2780
830.292 1108.04 2780
838.445 1110.03 2785
845.105 1110.03 2785
851.765 1110.03 2785
856.883 1108.04 2780
862.289 1106.44 2776
867.362 1104.45 2771
873.988 1104.45 2771
879.343 1102.86 2767
885.96 1102.86 2767
895.48 1106.44 2776
902.118 1106.44 2776
908.757 1106.44 2776
915.395 1106.44 2776
922.033 1106.44 2776
923.988 1100.86 2762
930.593 1100.86 2762
935.501 1098.87 2757
945.511 1102.86 2767
955.224 1106.44 2776
961.863 1106.44 2776
968.501 1106.44 2776
973.383 1104.45 2771
975.058 1098.87 2757
981.651 1098.87 2757
980.357 1090.1 2735
981.846 1084.52 2721
982.178 1077.75 2704
980.6 1068.98 2682
987.014 1068.98 2682
993.427 1068.98 2682
999.841 1068.98 2682
1012.63 1075.75 2699
1019.09 1075.75 2699
1025.54 1075.75 2699
1031.99 1075.75 2699
1038.45 1075.75 2699
1046.84 1077.75 2704
1053.3 1077.75 2704
1059.77 1077.75 2704
1061.11 1072.56 2691
1067.55 1072.56 2691
1065.2 1063.8 2669
1064.76 1057.02 2652
1071.1 1057.02 2652
1077.44 1057.02 2652
1083.78 1057.02 2652
1090.12 1057.02 2652
1096.47 1057.02 2652
1101.14 1055.43 2648
1107.48 1055.43 2648
1113.81 1055.43 2648
1112.95 1048.65 2631
1117.54 1047.06 2627
1123.82 1047.06 2627
