-1560.22 1028.44 2799
-1535.77 1016.69 2767
-1529.15 1016.69 2767
-1522.53 1016.69 2767
-1235.53 1065.92 2901
-1228.59 1065.92 2901
-1221.66 1065.92 2901
-1221.42 1071.8 2917
-1214.44 1071.8 2917
-1207.47 1071.8 2917
-1198.02 1069.6 2911
-1182.88 1062.25 2891
-1175.97 1062.25 2891
-1169.05 1062.25 2891
-1164.15 1064.09 2896
-1157.22 1064.09 2896
-1150.3 1064.09 2896
-1143.37 1064.09 2896
-1001.23 998.315 2717
-999.497 1003.09 2730
-992.969 1003.09 2730
-988.247 1004.93 2735
-983.142 1006.4 2739
-976.593 1006.4 2739
-970.043 1006.4 2739
-969.825 1013.01 2757
-963.232 1013.01 2757
-956.639 1013.01 2757
-950.047 1013.01 2757
-943.454 1013.01 2757
-938.56 1014.85 2762
-933.642 1016.69 2767
-927.026 1016.69 2767
-921.739 1018.16 2771
-918.085 1021.46 2780
-911.437 1021.46 2780
-904.79 1021.46 2780
-895.234 1018.16 2771
-888.608 1018.16 2771
-888.029 1025.14 2790
-881.357 1025.14 2790
-874.686 1025.14 2790
-869.258 1026.61 2794
-862.577 1026.61 2794
-857.427 1028.44 2799
-850.734 1028.44 2799
-844.041 1028.44 2799
-835.852 1026.61 2794
-829.17 1026.61 2794
-819.84 1023.3 2785
-811.72 1021.46 2780
-805.072 1021.46 2780
-798.424 1021.46 2780
-791.777 1021.46 2780
-785.129 1021.46 2780
-773.44 1014.85 2762
-766.836 1014.85 2762
-760.231 1014.85 2762
-753.626 1014.85 2762
-750.808 1019.99 2776
-756.769 1037.26 2823
-750.018 1037.26 2823
-748.27 1044.24 2842
-741.474 1044.24 2842
-734.678 1044.24 2842
-695.867 998.315 2717
-689.37 998.315 2717
-680.611 995.008 2708
-674.135 995.008 2708
-667.66 995.008 2708
-665.579 1001.62 2726
-662.203 1006.4 2739
-655.654 1006.4 2739
-649.104 1006.4 2739
-642.554 1006.4 2739
-637.165 1008.24 2744
-633.591 1013.01 2757
-626.998 1013.01 2757
-621.531 1014.85 2762
-616.039 1016.69 2767
-610.303 1018.16 2771
-605.638 1021.46 2780
-598.99 1021.46 2780
-593.407 1023.3 2785
-589.697 1028.44 2799
-584.045 1030.28 2804
-577.34 1030.28 2804
-572.466 1033.59 2813
-565.74 1033.59 2813
-559.013 1033.59 2813
-552.286 1033.59 2813
-544.784 1032.12 2809
-536.151 1028.44 2799
-529.458 1028.44 2799
-521.831 1026.61 2794
-516.071 1028.44 2799
-509.378 1028.44 2799
-503.583 1030.28 2804
-496.877 1030.28 2804
-491.746 1033.59 2813
-488.295 1040.57 2832
-482.373 1042.41 2837
-475.589 1042.41 2837
-468.805 1042.41 2837
-461.206 1040.57 2832
-454.434 1040.57 2832
-447.662 1040.57 2832
-439.488 1037.26 2823
-402.842 1013.01 2757
-397.687 1016.69 2767
-391.07 1016.69 2767
-384.453 1016.69 2767
-377.836 1016.69 2767
-373.635 1023.3 2785
-367.634 1025.14 2790
-360.962 1025.14 2790
-354.29 1025.14 2790
-344.753 1016.69 2767
-335.325 1008.24 2744
-328.764 1008.24 2744
-318.562 996.845 2713
-307.013 980.678 2669
-300.631 980.678 2669
-294.248 980.678 2669
-287.866 980.678 2669
-281.905 982.148 2673
-275.513 982.148 2673
-270.43 986.925 2686
-264.007 986.925 2686
-258.831 991.701 2699
-252.844 993.539 2704
-246.378 993.539 2704
-239.912 993.539 2704
-234.223 996.845 2713
-227.735 996.845 2713
-221.248 996.845 2713
-214.76 996.845 2713
-208.273 996.845 2713
-203.049 1003.09 2730
-198.825 1014.85 2762
-192.22 1014.85 2762
-187.161 1023.3 2785
-180.825 1025.14 2790
-175.027 1030.28 2804
-168.322 1030.28 2804
-161.905 1032.12 2809
-155.188 1032.12 2809
-148.471 1032.12 2809
-141.753 1032.12 2809
-134.796 1030.28 2804
-127.634 1026.61 2794
-120.779 1025.14 2790
-114.108 1025.14 2790
-107.051 1021.46 2780
-36.8931 798.064 2172
-31.6992 798.064 2172
-26.5785 800.269 2178
-21.4291 802.473 2184
-16.2214 803.208 2186
-10.994 803.208 2186
-5.7745 804.311 2189
-0.539942 804.311 2189
4.69462 804.311 2189
9.91558 803.208 2186
15.143 803.208 2186
20.3238 801.371 2181
25.5743 802.473 2184
30.7969 802.473 2184
36.0195 802.473 2184
41.2421 802.473 2184
46.4647 802.473 2184
51.7347 803.208 2186
56.9621 803.208 2186
62.5308 807.617 2198
67.8795 808.72 2201
73.3421 810.924 2207
78.6197 810.924 2207
84.0114 812.027 2210
89.4982 813.864 2215
94.7949 813.864 2215
100.092 813.864 2215
105.674 816.068 2221
111.285 818.273 2227
116.767 819.375 2230
122.1 819.375 2230
127.775 821.58 2236
133.48 823.784 2242
138.841 823.784 2242
144.202 823.784 2242
149.563 823.784 2242
154.51 821.58 2236
160.072 822.682 2239
165.426 822.682 2239
170.78 822.682 2239
176.134 822.682 2239
181.488 822.682 2239
186.592 821.58 2236
191.424 819.375 2230
196.756 819.375 2230
202.089 819.375 2230
207.422 819.375 2230
212.754 819.375 2230
217.793 818.273 2227
306.196 1047.92 2852
313.016 1047.92 2852
319.836 1047.92 2852
324.938 1042.41 2837
332.892 1046.08 2847
339.7 1046.08 2847
347.116 1047.92 2852
353.936 1047.92 2852
360.756 1047.92 2852
367.576 1047.92 2852
373.74 1046.08 2847
379.88 1044.24 2842
388.036 1047.92 2852
394.856 1047.92 2852
403.085 1051.59 2862
411.218 1054.9 2871
418.083 1054.9 2871
424.949 1054.9 2871
431.814 1054.9 2871
437.304 1051.59 2862
444.148 1051.59 2862
449.416 1047.92 2852
456.236 1047.92 2852
463.868 1049.76 2857
470.7 1049.76 2857
477.532 1049.76 2857
484.364 1049.76 2857
491.196 1049.76 2857
496.285 1046.08 2847
503.093 1046.08 2847
509.901 1046.08 2847
517.616 1047.92 2852
525.356 1049.76 2857
532.188 1049.76 2857
539.02 1049.76 2857
545.852 1049.76 2857
551.716 1047.92 2852
558.536 1047.92 2852
562.383 1042.41 2837
569.167 1042.41 2837
578.996 1047.92 2852
586.843 1049.76 2857
593.675 1049.76 2857
600.507 1049.76 2857
604.15 1044.24 2842
610.946 1044.24 2842
615.569 1040.57 2832
619.265 1035.43 2818
626.003 1035.43 2818
628.476 1028.44 2799
636.304 1030.28 2804
643.009 1030.28 2804
654.117 1037.26 2823
664.145 1042.41 2837
673.294 1046.08 2847
680.102 1046.08 2847
689.323 1049.76 2857
697.373 1051.59 2862
711.352 1062.25 2891
718.266 1062.25 2891
725.179 1062.25 2891
732.092 1062.25 2891
739.005 1062.25 2891
743.339 1058.57 2881
741.374 1046.08 2847
755.803 1056.74 2876
764.007 1058.57 2881
770.896 1058.57 2881
779.135 1060.41 2886
786.036 1060.41 2886
792.938 1060.41 2886
799.839 1060.41 2886
806.74 1060.41 2886
813.642 1060.41 2886
821.965 1062.25 2891
828.878 1062.25 2891
835.791 1062.25 2891
838.332 1056.74 2876
841.095 1051.59 2862
847.939 1051.59 2862
853.289 1049.76 2857
862.831 1053.06 2866
871.202 1054.9 2871
878.067 1054.9 2871
884.932 1054.9 2871
891.798 1054.9 2871
900.228 1056.74 2876
907.106 1056.74 2876
913.983 1056.74 2876
920.861 1056.74 2876
927.738 1056.74 2876
934.615 1056.74 2876
938.219 1053.06 2866
943.754 1051.59 2862
948.937 1049.76 2857
950.751 1044.24 2842
959.231 1046.08 2847
966.039 1046.08 2847
977.973 1051.59 2862
987.914 1054.9 2871
998.244 1058.57 2881
1005.13 1058.57 2881
1012.02 1058.57 2881
1017.14 1056.74 2876
1024.02 1056.74 2876
1029.11 1054.9 2871
1030.92 1049.76 2857
1039.57 1051.59 2862
1051.53 1056.74 2876
1058.41 1056.74 2876
1065.29 1056.74 2876
1072.16 1056.74 2876
1079.04 1056.74 2876
1085.92 1056.74 2876
1092.8 1056.74 2876
1099.67 1056.74 2876
1106.55 1056.74 2876
1113.43 1056.74 2876
1118.36 1054.9 2871
1121.7 1051.59 2862
1126.57 1049.76 2857
1133.4 1049.76 2857
1132.25 1042.41 2837
1137.03 1040.57 2832
1143.8 1040.57 2832
1150.57 1040.57 2832
1157.34 1040.57 2832
1164.11 1040.57 2832
1172.95 1042.41 2837
1179.74 1042.41 2837
1186.52 1042.41 2837
1193.31 1042.41 2837
1197.98 1040.57 2832
1204.75 1040.57 2832
1213.66 1042.41 2837
1220.44 1042.41 2837
1227.23 1042.41 2837
1238.36 1046.08 2847
1249.54 1049.76 2857
1256.37 1049.76 2857
1263.21 1049.76 2857
1272.26 1051.59 2862
1287.6 1058.57 2881
1294.49 1058.57 2881
1301.38 1058.57 2881
1301.45 1053.06 2866
1308.31 1053.06 2866
1313.32 1051.59 2862
1320.17 1051.59 2862
1324.69 1049.76 2857
1333.86 1051.59 2862
1340.7 1051.59 2862
1347.54 1051.59 2862
1352.02 1049.76 2857
1358.85 1049.76 2857
1360.91 1046.08 2847
1365.31 1044.24 2842
1376.94 1047.92 2852
1386.18 1049.76 2857
1393.01 1049.76 2857
1399.85 1049.76 2857
1406.68 1049.76 2857
1411.04 1047.92 2852
1417.86 1047.92 2852
1422.18 1046.08 2847
1426.48 1044.24 2842
1430.75 1042.41 2837
1437.54 1042.41 2837
1439.74 1039.1 2828
1443.94 1037.26 2823
1450.69 1037.26 2823
1457.44 1037.26 2823
1461.6 1035.43 2818
1465.73 1033.59 2813
1470.37 1032.12 2809
1467.09 1025.14 2790
1473.77 1025.14 2790
1480.44 1025.14 2790
1487.11 1025.14 2790
1493.78 1025.14 2790
1500.45 1025.14 2790
1499.56 1019.99 2776
1501.32 1016.69 2767
1510.11 1018.16 2771
1527.14 1025.14 2790
1533.81 1025.14 2790
1540.48 1025.14 2790
1549.37 1026.61 2794
1558.84 1028.44 2799
1565.53 1028.44 2799
1572.23 1028.44 2799
1578.92 1028.44 2799
1585.61 1028.44 2799
1592.3 1028.44 2799
1593.86 1025.14 2790
1597.66 1023.3 2785
1609.5 1026.61 2794
1619.08 1028.44 2799
1625.77 1028.44 2799
1632.46 1028.44 2799
1642.09 1030.28 2804
1651.73 1032.12 2809
1658.45 1032.12 2809
1667.54 1033.59 2813
1674.26 1033.59 2813
1683.98 1035.43 2818
1690.72 1035.43 2818
1697.46 1035.43 2818
1704.19 1035.43 2818
1710.93 1035.43 2818
1709.14 1030.28 2804
1709.72 1026.61 2794
1699.82 1016.69 2767
1703.35 1014.85 2762
1724.2 1023.3 2785
1730.86 1023.3 2785
1737.52 1023.3 2785
1729.77 1014.85 2762
1736.38 1014.85 2762
1739.83 1013.01 2757
1735.02 1006.4 2739
1741.57 1006.4 2739
1748.12 1006.4 2739
1752.1 1004.93 2735
1758.64 1004.93 2735
1765.18 1004.93 2735
1771.72 1004.93 2735
1778.26 1004.93 2735
1781.54 1003.09 2730
1788.07 1003.09 2730
-1729.67 1001.5 2708
-1723.19 1001.5 2708
-1739.54 1014.81 2744
-1732.98 1014.81 2744
-1726.41 1014.81 2744
-1714.21 1011.48 2735
-1713.29 1014.81 2744
-1709.22 1016.29 2748
-1705.74 1018.14 2753
-1699.16 1018.14 2753
-1703.64 1024.79 2771
-1697.02 1024.79 2771
-1693.44 1026.64 2776
-1686.8 1026.64 2776
-1680.16 1026.64 2776
-1673.53 1026.64 2776
-1666.89 1026.64 2776
-1660.25 1026.64 2776
-1653.61 1026.64 2776
-1641.63 1023.32 2767
-1648.61 1031.82 2790
-1641.94 1031.82 2790
-1637.61 1033.3 2794
-1636.76 1037 2804
-1630.06 1037 2804
-1623.35 1037 2804
-1616.65 1037 2804
-1609.94 1037 2804
-1606.1 1038.85 2809
-1599.38 1038.85 2809
-1592.66 1038.85 2809
-1585.95 1038.85 2809
-1579.23 1038.85 2809
-1569.71 1037 2804
-1560.22 1035.15 2799
-1535.77 1023.32 2767
-1529.15 1023.32 2767
-1522.53 1023.32 2767
-1227.01 1065.48 2881
-1220.12 1065.48 2881
-1215.34 1067.32 2886
-1214.72 1072.87 2901
-1207.78 1072.87 2901
-1200.85 1072.87 2901
-1187.74 1067.32 2886
-1178.79 1065.48 2881
-1171.9 1065.48 2881
-1160.97 1061.78 2871
-1025.35 996.688 2695
-1020.42 998.167 2699
-1020.73 1004.82 2717
-1014.23 1004.82 2717
-1007.73 1004.82 2717
-996.444 1000.02 2704
-989.978 1000.02 2704
-983.512 1000.02 2704
-977.046 1000.02 2704
-981.707 1011.48 2735
-975.167 1011.48 2735
-968.626 1011.48 2735
-963.493 1012.96 2739
-956.943 1012.96 2739
-952.129 1014.81 2744
-945.567 1014.81 2744
-939.005 1014.81 2744
-932.443 1014.81 2744
-928.918 1018.14 2753
-922.335 1018.14 2753
-920.409 1023.32 2767
-913.792 1023.32 2767
-907.175 1023.32 2767
-900.559 1023.32 2767
-892.326 1021.47 2762
-885.722 1021.47 2762
-881.982 1024.79 2771
-875.355 1024.79 2771
-868.729 1024.79 2771
-859.303 1021.47 2762
-851.154 1019.62 2757
-844.561 1019.62 2757
-837.969 1019.62 2757
-831.376 1019.62 2757
-824.783 1019.62 2757
-818.19 1019.62 2757
-807.77 1014.81 2744
-799.749 1012.96 2739
-792.041 1011.48 2735
-785.5 1011.48 2735
-776.397 1008.15 2726
-769.878 1008.15 2726
-763.359 1008.15 2726
-756.841 1008.15 2726
-747.845 1004.82 2717
-743.803 1008.15 2726
-737.285 1008.15 2726
-730.766 1008.15 2726
-724.247 1008.15 2726
-717.729 1008.15 2726
-702.078 995.208 2691
-697.711 998.167 2699
-691.257 998.167 2699
-684.803 998.167 2699
-677.344 996.688 2695
-670.899 996.688 2695
-663.468 995.208 2691
-657.033 995.208 2691
-653.741 1000.02 2704
-648.233 1001.5 2708
-641.757 1001.5 2708
-640.443 1009.63 2730
-633.914 1009.63 2730
-629.454 1012.96 2739
-624.042 1014.81 2744
-617.48 1014.81 2744
-611.809 1016.29 2748
-607.22 1019.62 2757
-602.805 1023.32 2767
-596.189 1023.32 2767
-592.342 1028.12 2780
-586.747 1029.97 2785
-581.129 1031.82 2790
-574.457 1031.82 2790
-567.786 1031.82 2790
-561.918 1033.3 2794
-555.237 1033.3 2794
-548.556 1033.3 2794
-541.875 1033.3 2794
-535.193 1033.3 2794
-528.512 1033.3 2794
-521.831 1033.3 2794
-516.071 1035.15 2799
-509.378 1035.15 2799
-502.685 1035.15 2799
-495.991 1035.15 2799
-490.172 1037 2804
-485.019 1040.33 2813
-481.523 1047.35 2832
-474.75 1047.35 2832
-467.978 1047.35 2832
-458.112 1040.33 2813
-451.385 1040.33 2813
-443.236 1037 2804
-436.531 1037 2804
-421.241 1016.29 2748
-414.67 1016.29 2748
-405.425 1009.63 2730
-402.842 1019.62 2757
-397.687 1023.32 2767
-391.07 1023.32 2767
-384.453 1023.32 2767
-377.836 1023.32 2767
-371.22 1023.32 2767
-364.603 1023.32 2767
-357.986 1023.32 2767
-351.37 1023.32 2767
-341.887 1014.81 2744
-334.714 1012.96 2739
-328.165 1012.96 2739
-317.505 1000.02 2704
-306.093 984.113 2661
-299.729 984.113 2661
-294.248 987.072 2669
-287.866 987.072 2669
-281.905 988.551 2673
-275.513 988.551 2673
-270.43 993.359 2686
-264.007 993.359 2686
-258.447 996.688 2695
-252.844 1000.02 2704
-246.378 1000.02 2704
-239.912 1000.02 2704
-234.914 1006.3 2721
-228.407 1006.3 2721
-221.9 1006.3 2721
-215.393 1006.3 2721
-208.887 1006.3 2721
-203.049 1009.63 2730
-198.825 1021.47 2762
-192.22 1021.47 2762
-187.161 1029.97 2785
-180.825 1031.82 2790
-174.403 1033.3 2794
-167.722 1033.3 2794
-161.617 1037 2804
-154.912 1037 2804
-148.206 1037 2804
-141.501 1037 2804
-134.556 1035.15 2799
-127.451 1031.82 2790
-120.779 1031.82 2790
-114.108 1031.82 2790
-107.051 1028.12 2780
-37.1819 809.554 2189
-31.9473 809.554 2189
-26.7128 809.554 2189
-21.4782 809.554 2189
-16.2436 809.554 2189
-11.0091 809.554 2189
-5.7745 809.554 2189
-0.539942 809.554 2189
4.69462 809.554 2189
9.91558 808.445 2186
15.143 808.445 2186
20.3238 806.596 2181
25.5977 808.445 2186
30.8251 808.445 2186
36.0525 808.445 2186
41.2799 808.445 2186
46.4647 807.705 2184
51.7347 808.445 2186
56.9621 808.445 2186
62.5308 812.883 2198
67.8795 813.992 2201
73.4418 817.321 2210
78.7266 817.321 2210
84.0114 817.321 2210
89.4982 819.17 2215
94.9233 820.279 2218
100.227 820.279 2218
105.674 821.389 2221
111.435 824.717 2230
116.924 825.827 2233
122.264 825.827 2233
127.775 826.936 2236
133.48 829.155 2242
138.841 829.155 2242
144.202 829.155 2242
149.563 829.155 2242
154.51 826.936 2236
160.072 828.046 2239
165.426 828.046 2239
170.78 828.046 2239
176.134 828.046 2239
181.488 828.046 2239
186.842 828.046 2239
191.681 825.827 2233
196.756 824.717 2230
202.089 824.717 2230
207.422 824.717 2230
212.754 824.717 2230
217.793 823.608 2227
303.62 1045.87 2828
310.382 1045.87 2828
317.145 1045.87 2828
324.366 1047.35 2832
332.307 1051.05 2842
339.103 1051.05 2842
347.116 1054.75 2852
353.936 1054.75 2852
360.756 1054.75 2852
367.576 1054.75 2852
373.74 1052.9 2847
378.543 1047.35 2832
386.676 1051.05 2842
393.472 1051.05 2842
401.676 1054.75 2852
409.929 1058.45 2862
416.773 1058.45 2862
423.616 1058.45 2862
430.46 1058.45 2862
435.012 1052.9 2847
441.82 1052.9 2847
447.84 1051.05 2842
454.637 1051.05 2842
461.433 1051.05 2842
468.229 1051.05 2842
475.025 1051.05 2842
480.973 1049.2 2837
487.757 1049.2 2837
494.541 1049.2 2837
501.326 1049.2 2837
507.214 1047.35 2832
513.986 1047.35 2832
520.759 1047.35 2832
527.531 1047.35 2832
534.303 1047.35 2832
540.311 1045.87 2828
546.106 1044.03 2823
552.857 1044.03 2823
558.616 1042.18 2818
567.361 1045.87 2828
574.936 1047.35 2832
582.735 1049.2 2837
589.519 1049.2 2837
596.303 1049.2 2837
602.025 1047.35 2832
605.787 1042.18 2818
612.526 1042.18 2818
619.265 1042.18 2818
621.783 1035.15 2799
628.476 1035.15 2799
635.169 1035.15 2799
641.862 1035.15 2799
654.117 1044.03 2823
664.145 1049.2 2837
673.294 1052.9 2847
680.102 1052.9 2847
689.323 1056.6 2857
697.373 1058.45 2862
705.201 1059.93 2866
712.054 1059.93 2866
722.671 1065.48 2881
729.56 1065.48 2881
736.449 1065.48 2881
737.146 1056.6 2857
741.374 1052.9 2847
755.803 1063.63 2876
764.007 1065.48 2881
770.896 1065.48 2881
779.135 1067.32 2886
786.036 1067.32 2886
792.938 1067.32 2886
798.453 1065.48 2881
802.547 1061.78 2871
810.822 1063.63 2876
817.7 1063.63 2876
824.577 1063.63 2876
831.455 1063.63 2876
834.251 1058.45 2862
839.625 1056.6 2857
846.457 1056.6 2857
848.809 1051.05 2842
861.627 1058.45 2862
868.471 1058.45 2862
876.538 1059.93 2866
883.391 1059.93 2866
890.245 1059.93 2866
895.846 1058.45 2862
902.69 1058.45 2862
909.534 1058.45 2862
913.176 1054.75 2852
919.996 1054.75 2852
926.816 1054.75 2852
933.636 1054.75 2852
938.807 1052.9 2847
943.955 1051.05 2842
950.751 1051.05 2842
957.547 1051.05 2842
964.343 1051.05 2842
974.556 1054.75 2852
987.914 1061.78 2871
994.779 1061.78 2871
1001.64 1061.78 2871
1008.51 1061.78 2871
1015.38 1061.78 2871
1022.24 1061.78 2871
1024.09 1056.6 2857
1029.12 1054.75 2852
1035.94 1054.75 2852
1046.41 1058.45 2862
1053.26 1058.45 2862
1060.1 1058.45 2862
1066.94 1058.45 2862
1075.29 1059.93 2866
1082.14 1059.93 2866
1089 1059.93 2866
1095.85 1059.93 2866
1101.16 1058.45 2862
1108.01 1058.45 2862
1112.9 1056.6 2857
1119.74 1056.6 2857
1116.71 1047.35 2832
1123.48 1047.35 2832
1128.66 1045.87 2828
1133.41 1044.03 2823
1140.16 1044.03 2823
1146.91 1044.03 2823
1153.66 1044.03 2823
1164.11 1047.35 2832
1170.89 1047.35 2832
1177.66 1047.35 2832
1184.43 1047.35 2832
1191.2 1047.35 2832
1197.98 1047.35 2832
1204.75 1047.35 2832
1211.52 1047.35 2832
1218.29 1047.35 2832
1225.06 1047.35 2832
1238.36 1052.9 2847
1249.54 1056.6 2857
1256.37 1056.6 2857
1263.21 1056.6 2857
1272.26 1058.45 2862
1287.6 1065.48 2881
1294.49 1065.48 2881
1301.38 1065.48 2881
1301.45 1059.93 2866
1308.31 1059.93 2866
1313.32 1058.45 2862
1320.17 1058.45 2862
1324.69 1056.6 2857
1333.86 1058.45 2862
1340.7 1058.45 2862
1347.54 1058.45 2862
1352.02 1056.6 2857
1358.85 1056.6 2857
1360.91 1052.9 2847
1365.31 1051.05 2842
1376.94 1054.75 2852
1386.18 1056.6 2857
1393.01 1056.6 2857
1399.85 1056.6 2857
1406.68 1056.6 2857
1411.04 1054.75 2852
1417.86 1054.75 2852
1422.18 1052.9 2847
1426.48 1051.05 2842
1430.75 1049.2 2837
1437.54 1049.2 2837
1439.74 1045.87 2828
1443.94 1044.03 2823
1450.69 1044.03 2823
1457.44 1044.03 2823
1461.6 1042.18 2818
1465.73 1040.33 2813
1470.37 1038.85 2809
1467.09 1031.82 2790
1473.77 1031.82 2790
1480.44 1031.82 2790
1487.11 1031.82 2790
1493.78 1031.82 2790
1500.45 1031.82 2790
1499.56 1026.64 2776
1501.32 1023.32 2767
1510.11 1024.79 2771
1527.14 1031.82 2790
1533.81 1031.82 2790
1540.48 1031.82 2790
1549.37 1033.3 2794
1558.84 1035.15 2799
1565.53 1035.15 2799
1572.23 1035.15 2799
1578.92 1035.15 2799
1585.61 1035.15 2799
1592.3 1035.15 2799
1593.86 1031.82 2790
1600.53 1031.82 2790
1609.5 1033.3 2794
1619.08 1035.15 2799
1625.77 1035.15 2799
1635.38 1037 2804
1645.01 1038.85 2809
1651.73 1038.85 2809
1658.45 1038.85 2809
1667.54 1040.33 2813
1674.26 1040.33 2813
1683.98 1042.18 2818
1690.72 1042.18 2818
1697.46 1042.18 2818
1704.19 1042.18 2818
1710.93 1042.18 2818
1709.14 1037 2804
1709.72 1033.3 2794
1699.82 1023.32 2767
1703.35 1021.47 2762
1724.2 1029.97 2785
1730.86 1029.97 2785
1737.52 1029.97 2785
1729.77 1021.47 2762
1736.38 1021.47 2762
1739.83 1019.62 2757
1740.72 1016.29 2748
1747.29 1016.29 2748
1768.54 1024.79 2771
1775.17 1024.79 2771
1781.79 1024.79 2771
1788.42 1024.79 2771
1795.04 1024.79 2771
1801.67 1024.79 2771
1805.69 1023.32 2767
1788.07 1009.63 2730
1814.18 1009.63 2730
1832.72 1016.29 2748
1845.31 1019.62 2757
1851.9 1019.62 2757
1858.5 1019.62 2757
1865.09 1019.62 2757
1871.68 1019.62 2757
-1716.71 1007.98 2708
-1713.4 1009.84 2713
-1715.09 1014.68 2726
-1708.57 1014.68 2726
-1702.05 1014.68 2726
-1698.02 1016.17 2730
-1700.17 1021.38 2744
-1693.6 1021.38 2744
-1689.5 1022.87 2748
-1685.99 1024.73 2753
-1679.41 1024.73 2753
-1672.83 1024.73 2753
-1666.24 1024.73 2753
-1656.65 1022.87 2748
-1650.07 1022.87 2748
-1643.5 1022.87 2748
-1636.93 1022.87 2748
-1638.67 1028.08 2762
-1635.02 1029.94 2767
-1628.4 1029.94 2767
-1624.13 1031.43 2771
-1620.42 1033.29 2776
-1613.78 1033.29 2776
-1607.14 1033.29 2776
-1605.69 1036.64 2785
-1599.03 1036.64 2785
-1592.37 1036.64 2785
-1585.71 1036.64 2785
-1579.05 1036.64 2785
-1567.31 1033.29 2776
-1560.68 1033.29 2776
-1554.04 1033.29 2776
-1547.4 1033.29 2776
-1532.99 1028.08 2762
-1526.39 1028.08 2762
-1519.78 1028.08 2762
-1227.01 1072.38 2881
-1220.12 1072.38 2881
-1215.34 1074.24 2886
-1214.72 1079.82 2901
-1207.78 1079.82 2901
-1200.85 1079.82 2901
-1187.74 1074.24 2886
-1178.79 1072.38 2881
-1171.9 1072.38 2881
-1160.97 1068.65 2871
-1033.23 998.305 2682
-1026.82 998.305 2682
-1025.35 1003.14 2695
-1020.42 1004.63 2699
-1020.73 1011.33 2717
-1014.23 1011.33 2717
-1007.73 1011.33 2717
-996.444 1006.49 2704
-989.978 1006.49 2704
-983.512 1006.49 2704
-977.046 1006.49 2704
-981.707 1018.03 2735
-975.167 1018.03 2735
-968.626 1018.03 2735
-963.493 1019.52 2739
-956.943 1019.52 2739
-952.129 1021.38 2744
-945.567 1021.38 2744
-939.005 1021.38 2744
-932.443 1021.38 2744
-928.918 1024.73 2753
-922.335 1024.73 2753
-920.409 1029.94 2767
-913.792 1029.94 2767
-907.175 1029.94 2767
-900.559 1029.94 2767
-892.326 1028.08 2762
-885.722 1028.08 2762
-881.982 1031.43 2771
-875.355 1031.43 2771
-868.729 1031.43 2771
-859.303 1028.08 2762
-851.154 1026.22 2757
-844.561 1026.22 2757
-837.969 1026.22 2757
-831.376 1026.22 2757
-824.783 1026.22 2757
-818.19 1026.22 2757
-807.77 1021.38 2744
-799.749 1019.52 2739
-792.041 1018.03 2735
-785.5 1018.03 2735
-776.397 1014.68 2726
-769.878 1014.68 2726
-763.359 1014.68 2726
-756.841 1014.68 2726
-747.845 1011.33 2717
-743.803 1014.68 2726
-737.285 1014.68 2726
-730.766 1014.68 2726
-724.247 1014.68 2726
-717.729 1014.68 2726
-702.078 1001.65 2691
-697.711 1004.63 2699
-691.257 1004.63 2699
-684.803 1004.63 2699
-677.344 1003.14 2695
-670.899 1003.14 2695
-663.468 1001.65 2691
-657.033 1001.65 2691
-653.741 1006.49 2704
-648.233 1007.98 2708
-641.757 1007.98 2708
-640.443 1016.17 2730
-633.914 1016.17 2730
-629.454 1019.52 2739
-624.042 1021.38 2744
-617.48 1021.38 2744
-611.809 1022.87 2748
-607.22 1026.22 2757
-600.627 1026.22 2757
-594.034 1026.22 2757
-589.572 1029.94 2767
-584.851 1033.29 2776
-579.046 1034.78 2780
-572.398 1034.78 2780
-566.768 1036.64 2785
-561.114 1038.5 2790
-554.442 1038.5 2790
-547.771 1038.5 2790
-539.159 1034.78 2780
-532.512 1034.78 2780
-526.81 1036.64 2785
-520.15 1036.64 2785
-514.412 1038.5 2790
-508.468 1039.99 2794
-502.685 1041.85 2799
-495.991 1041.85 2799
-489.298 1041.85 2799
-483.467 1043.72 2804
-477.612 1045.58 2809
-470.895 1045.58 2809
-464.178 1045.58 2809
-456.646 1043.72 2804
-449.941 1043.72 2804
-440.232 1036.64 2785
-431.393 1031.43 2771
-421.241 1022.87 2748
-414.67 1022.87 2748
-405.425 1016.17 2730
-398.897 1016.17 2730
-394.956 1022.87 2748
-388.385 1022.87 2748
-381.813 1022.87 2748
-375.242 1022.87 2748
-368.671 1022.87 2748
-360.913 1019.52 2739
-354.364 1019.52 2739
-347.814 1019.52 2739
-340.766 1018.03 2735
-331.537 1009.84 2713
-325.049 1009.84 2713
-314.452 996.816 2678
-306.093 990.488 2661
-299.729 990.488 2661
-293.807 991.977 2665
-287.434 991.977 2665
-281.483 993.466 2669
-275.101 993.466 2669
-269.625 996.816 2678
-263.221 996.816 2678
-256.817 996.816 2678
-252.377 1004.63 2699
-246.378 1006.49 2704
-239.912 1006.49 2704
-234.914 1012.82 2721
-228.407 1012.82 2721
-221.9 1012.82 2721
-215.393 1012.82 2721
-208.887 1012.82 2721
-203.049 1016.17 2730
-198.825 1028.08 2762
-192.22 1028.08 2762
-186.22 1031.43 2771
-180.825 1038.5 2790
-174.153 1038.5 2790
-167.482 1038.5 2790
-160.81 1038.5 2790
-154.635 1041.85 2799
-147.942 1041.85 2799
-141.249 1041.85 2799
-134.315 1039.99 2794
-127.451 1038.5 2790
-120.563 1036.64 2785
-113.903 1036.64 2785
-106.358 1028.08 2762
-37.4367 820.381 2204
-32.1662 820.381 2204
-26.8958 820.381 2204
-21.5665 818.148 2198
-16.3104 818.148 2198
-11.0242 815.915 2192
-5.78242 815.915 2192
-0.540682 815.915 2192
4.70105 815.915 2192
9.92918 814.798 2189
15.1637 814.798 2189
20.3704 813.681 2186
25.5977 813.681 2186
30.8251 813.681 2186
36.0525 813.681 2186
41.2799 813.681 2186
46.5073 813.681 2186
51.8767 815.915 2192
57.1184 815.915 2192
62.5308 818.148 2198
67.972 820.381 2204
73.4418 822.615 2210
78.7266 822.615 2210
84.1254 823.732 2213
89.4982 824.476 2215
95.0517 826.709 2221
100.363 826.709 2221
105.817 827.826 2224
111.435 830.059 2230
116.924 831.176 2233
122.264 831.176 2233
127.775 832.293 2236
133.48 834.526 2242
138.841 834.526 2242
144.202 834.526 2242
149.563 834.526 2242
154.717 833.409 2239
160.286 834.526 2242
165.647 834.526 2242
171.237 835.643 2245
176.842 836.759 2248
182.218 836.759 2248
187.593 836.759 2248
192.454 834.526 2242
197.815 834.526 2242
203.448 835.643 2245
208.817 835.643 2245
214.185 835.643 2245
217.793 828.943 2227
317.145 1052.65 2828
323.908 1052.65 2828
331.138 1054.14 2832
337.91 1054.14 2832
347.116 1061.58 2852
353.936 1061.58 2852
360.756 1061.58 2852
367.576 1061.58 2852
373.74 1059.72 2847
378.543 1054.14 2832
385.995 1056 2837
392.78 1056 2837
400.268 1057.86 2842
409.212 1063.44 2857
416.044 1063.44 2857
422.876 1063.44 2857
428.956 1061.58 2852
432.72 1054.14 2832
437.32 1048.93 2818
444.059 1048.93 2818
450.797 1048.93 2818
458.348 1050.79 2823
465.098 1050.79 2823
471.849 1050.79 2823
478.6 1050.79 2823
485.35 1050.79 2823
491.229 1048.93 2818
497.968 1048.93 2818
504.707 1048.93 2818
512.353 1050.79 2823
519.104 1050.79 2823
525.854 1050.79 2823
532.605 1050.79 2823
538.4 1048.93 2818
542.431 1043.72 2804
549.136 1043.72 2804
553.859 1039.99 2794
560.54 1039.99 2794
573.109 1050.79 2823
581.708 1054.14 2832
588.48 1054.14 2832
595.252 1054.14 2832
599.049 1048.93 2818
605.787 1048.93 2818
612.526 1048.93 2818
617.287 1045.58 2809
621.783 1041.85 2799
627.353 1039.99 2794
635.169 1041.85 2799
641.862 1041.85 2799
654.117 1050.79 2823
664.145 1056 2837
673.294 1059.72 2847
680.102 1059.72 2847
689.323 1063.44 2857
697.373 1065.3 2862
704.217 1065.3 2862
711.061 1065.3 2862
717.905 1065.3 2862
724.748 1065.3 2862
731.592 1065.3 2862
735.856 1061.58 2852
741.374 1059.72 2847
755.803 1070.52 2876
764.007 1072.38 2881
770.896 1072.38 2881
779.135 1074.24 2886
786.036 1074.24 2886
792.938 1074.24 2886
798.453 1072.38 2881
802.547 1068.65 2871
809.413 1068.65 2871
814.857 1066.79 2866
821.71 1066.79 2866
828.563 1066.79 2866
832.794 1063.44 2857
835.217 1057.86 2842
842.013 1057.86 2842
845.823 1054.14 2832
855.605 1057.86 2842
866.953 1063.44 2857
873.785 1063.44 2857
880.617 1063.44 2857
887.449 1063.44 2857
892.716 1061.58 2852
899.536 1061.58 2852
906.356 1061.58 2852
913.176 1061.58 2852
919.996 1061.58 2852
926.816 1061.58 2852
930.362 1057.86 2842
935.51 1056 2837
940.633 1054.14 2832
946.067 1052.65 2828
954.177 1054.14 2832
960.95 1054.14 2832
971.139 1057.86 2842
981.376 1061.58 2852
994.779 1068.65 2871
1001.64 1068.65 2871
1008.51 1068.65 2871
1010.42 1063.44 2857
1017.26 1063.44 2857
1022.3 1061.58 2852
1023.7 1056 2837
1030.49 1056 2837
1037.27 1056 2837
1044.06 1056 2837
1050.84 1056 2837
1057.62 1056 2837
1064.41 1056 2837
1071.19 1056 2837
1077.98 1056 2837
1084.76 1056 2837
1089.62 1054.14 2832
1096.39 1054.14 2832
1099.66 1050.79 2823
1106.41 1050.79 2823
1107.64 1045.58 2809
1114.36 1045.58 2809
1115.09 1039.99 2794
1121.77 1039.99 2794
1128.45 1039.99 2794
1141.23 1045.58 2809
1147.94 1045.58 2809
1154.66 1045.58 2809
1165.1 1048.93 2818
1177.66 1054.14 2832
1184.43 1054.14 2832
1191.2 1054.14 2832
1197.98 1054.14 2832
1204.75 1054.14 2832
1211.52 1054.14 2832
1214.42 1050.79 2823
1221.17 1050.79 2823
1234.01 1056 2837
1247.36 1061.58 2852
1254.18 1061.58 2852
1263.21 1063.44 2857
1270.04 1063.44 2857
1279.11 1065.3 2862
1285.95 1065.3 2862
1292.79 1065.3 2862
1297.37 1063.44 2857
1304.2 1063.44 2857
1308.74 1061.58 2852
1313.25 1059.72 2847
1320.06 1059.72 2847
1329.2 1061.58 2852
1336.02 1061.58 2852
1342.84 1061.58 2852
1344.92 1057.86 2842
1351.72 1057.86 2842
1358.52 1057.86 2842
1365.31 1057.86 2842
1376.94 1061.58 2852
1386.18 1063.44 2857
1393.01 1063.44 2857
1399.85 1063.44 2857
1406.68 1063.44 2857
1411.04 1061.58 2852
1417.86 1061.58 2852
1422.18 1059.72 2847
1426.48 1057.86 2842
1430.75 1056 2837
1437.54 1056 2837
1439.74 1052.65 2828
1443.94 1050.79 2823
1450.69 1050.79 2823
1457.44 1050.79 2823
1461.6 1048.93 2818
1465.73 1047.07 2813
1470.37 1045.58 2809
1467.09 1038.5 2790
1473.77 1038.5 2790
1480.44 1038.5 2790
1487.11 1038.5 2790
1493.78 1038.5 2790
1500.45 1038.5 2790
1499.56 1033.29 2776
1501.32 1029.94 2767
1510.11 1031.43 2771
1527.14 1038.5 2790
1533.81 1038.5 2790
1540.48 1038.5 2790
1549.37 1039.99 2794
1558.84 1041.85 2799
1565.53 1041.85 2799
1572.23 1041.85 2799
1578.92 1041.85 2799
1585.61 1041.85 2799
1592.3 1041.85 2799
1593.86 1038.5 2790
1600.53 1038.5 2790
1609.5 1039.99 2794
1619.08 1041.85 2799
1625.77 1041.85 2799
1635.38 1043.72 2804
1645.01 1045.58 2809
1651.73 1045.58 2809
1658.45 1045.58 2809
1667.54 1047.07 2813
1674.26 1047.07 2813
1680.99 1047.07 2813
1685.32 1045.58 2809
1692.03 1045.58 2809
1698.75 1045.58 2809
1702.43 1043.72 2804
1709.14 1043.72 2804
1709.72 1039.99 2794
1699.82 1029.94 2767
1703.35 1028.08 2762
1718.62 1033.29 2776
1725.26 1033.29 2776
1731.9 1033.29 2776
1729.77 1028.08 2762
1736.38 1028.08 2762
1739.83 1026.22 2757
1740.72 1022.87 2748
1747.29 1022.87 2748
1768.54 1031.43 2771
1775.17 1031.43 2771
1781.79 1031.43 2771
1788.42 1031.43 2771
1795.04 1031.43 2771
1801.67 1031.43 2771
1805.69 1029.94 2767
1788.07 1016.17 2730
1814.18 1016.17 2730
1832.72 1022.87 2748
1845.31 1026.22 2757
1851.9 1026.22 2757
1858.5 1026.22 2757
1865.09 1026.22 2757
1871.68 1026.22 2757
1923.7 1043.72 2804
1930.41 1043.72 2804
1937.12 1043.72 2804
-1711.01 1011.1 2699
-1710.24 1014.47 2708
-1706.91 1016.34 2713
-1700.42 1016.34 2713
-1693.93 1016.34 2713
-1692.42 1019.34 2721
-1691.49 1022.71 2730
-1684.96 1022.71 2730
-1681.51 1024.58 2735
-1680.48 1027.96 2744
-1673.92 1027.96 2744
-1667.36 1027.96 2744
-1660.8 1027.96 2744
-1651.22 1026.08 2739
-1644.67 1026.08 2739
-1638.12 1026.08 2739
-1631.57 1026.08 2739
-1625.02 1026.08 2739
-1618.47 1026.08 2739
-1611.92 1026.08 2739
-1618.85 1034.7 2762
-1617.5 1038.07 2771
-1610.87 1038.07 2771
-1604.25 1038.07 2771
-1597.62 1038.07 2771
-1591 1038.07 2771
-1584.37 1038.07 2771
-1569.77 1032.83 2757
-1555.81 1027.96 2744
-1551.5 1029.45 2748
-1544.93 1029.45 2748
-1538.36 1029.45 2748
-1224.88 1077.41 2876
-1218.01 1077.41 2876
-1211.13 1077.41 2876
-1208.44 1081.15 2886
-1201.54 1081.15 2886
-1194.64 1081.15 2886
-1185.68 1079.28 2881
-1178.79 1079.28 2881
-1171.9 1079.28 2881
-1033.23 1004.73 2682
-1026.82 1004.73 2682
-1025.35 1009.6 2695
-1020.42 1011.1 2699
-1020.73 1017.84 2717
-1014.23 1017.84 2717
-1007.73 1017.84 2717
-996.444 1012.97 2704
-989.978 1012.97 2704
-983.512 1012.97 2704
-977.046 1012.97 2704
-975.246 1017.84 2717
-970.175 1019.34 2721
-963.668 1019.34 2721
-957.161 1019.34 2721
-950.655 1019.34 2721
-944.148 1019.34 2721
-936.263 1017.84 2717
-931.134 1019.34 2721
-926.327 1021.21 2726
-921.158 1022.71 2730
-914.629 1022.71 2730
-911.095 1026.08 2739
-906.196 1027.96 2744
-899.635 1027.96 2744
-893.073 1027.96 2744
-886.511 1027.96 2744
-879.949 1027.96 2744
-874.661 1029.45 2748
-868.09 1029.45 2748
-861.518 1029.45 2748
-853.702 1027.96 2744
-849.919 1031.33 2753
-843.336 1031.33 2753
-836.753 1031.33 2753
-830.169 1031.33 2753
-820.894 1027.96 2744
-814.332 1027.96 2744
-803.649 1022.71 2730
-797.121 1022.71 2730
-787.986 1019.34 2721
-781.479 1019.34 2721
-772.694 1016.34 2713
-766.207 1016.34 2713
-759.719 1016.34 2713
-753.231 1016.34 2713
-741.789 1009.6 2695
-736.436 1011.1 2699
-729.982 1011.1 2699
-723.528 1011.1 2699
-717.074 1011.1 2699
-707.197 1006.23 2686
-698.687 1003.23 2678
-694.351 1006.23 2686
-687.928 1006.23 2686
-682.773 1008.1 2691
-676.338 1008.1 2691
-669.903 1008.1 2691
-661.249 1004.73 2682
-651.662 999.859 2669
-650.598 1008.1 2691
-647.275 1012.97 2704
-640.809 1012.97 2704
-634.343 1012.97 2704
-629.967 1016.34 2713
-627.386 1022.71 2730
-620.858 1022.71 2730
-614.33 1022.71 2730
-609.805 1026.08 2739
-604.357 1027.96 2744
-598.666 1029.45 2748
-592.095 1029.45 2748
-589.572 1036.57 2767
-584.851 1039.94 2776
-579.046 1041.44 2780
-572.398 1041.44 2780
-566.768 1043.32 2785
-561.114 1045.19 2790
-554.442 1045.19 2790
-547.771 1045.19 2790
-539.159 1041.44 2780
-532.512 1041.44 2780
-526.81 1043.32 2785
-520.15 1043.32 2785
-514.412 1045.19 2790
-508.468 1046.69 2794
-502.685 1048.56 2799
-495.991 1048.56 2799
-489.298 1048.56 2799
-483.467 1050.43 2804
-477.612 1052.31 2809
-470.895 1052.31 2809
-464.178 1052.31 2809
-456.646 1050.43 2804
-449.941 1050.43 2804
-440.232 1043.32 2785
-431.393 1038.07 2771
-421.241 1029.45 2748
-414.67 1029.45 2748
-405.425 1022.71 2730
-398.897 1022.71 2730
-394.956 1029.45 2748
-388.385 1029.45 2748
-381.813 1029.45 2748
-375.242 1029.45 2748
-368.671 1029.45 2748
-360.913 1026.08 2739
-354.364 1026.08 2739
-347.814 1026.08 2739
-340.766 1024.58 2735
-331.537 1016.34 2713
-325.049 1016.34 2713
-314.452 1003.23 2678
-306.093 996.862 2661
-299.729 996.862 2661
-293.807 998.361 2665
-287.434 998.361 2665
-281.483 999.859 2669
-275.101 999.859 2669
-269.625 1003.23 2678
-263.221 1003.23 2678
-256.817 1003.23 2678
-252.377 1011.1 2699
-246.378 1012.97 2704
-239.912 1012.97 2704
-234.914 1019.34 2721
-228.407 1019.34 2721
-221.9 1019.34 2721
-215.393 1019.34 2721
-208.887 1019.34 2721
-203.049 1022.71 2730
-198.825 1034.7 2762
-192.22 1034.7 2762
-186.22 1038.07 2771
-180.825 1045.19 2790
-174.153 1045.19 2790
-167.482 1045.19 2790
-160.81 1045.19 2790
-154.635 1048.56 2799
-147.942 1048.56 2799
-141.249 1048.56 2799
-134.315 1046.69 2794
-127.451 1045.19 2790
-120.563 1043.32 2785
-113.903 1043.32 2785
-106.358 1034.7 2762
-96.2497 998.361 2665
-37.5386 827.909 2210
-32.2538 827.909 2210
-26.969 827.909 2210
-21.6254 825.661 2204
-16.3549 825.661 2204
-11.0845 825.661 2204
-5.80616 824.537 2201
-0.542902 824.537 2201
4.72036 824.537 2201
9.97001 823.413 2198
15.2053 822.29 2195
20.3983 820.042 2189
25.6329 820.042 2189
30.9097 821.166 2192
36.1515 821.166 2192
41.3932 821.166 2192
46.6349 821.166 2192
52.0187 823.413 2198
57.2748 823.413 2198
62.6162 824.537 2201
68.157 827.909 2210
73.5415 829.033 2213
78.8334 829.033 2213
84.2014 829.782 2215
89.7406 832.03 2221
95.0517 832.03 2221
100.363 832.03 2221
105.959 834.277 2227
111.585 836.525 2233
117.081 837.649 2236
122.428 837.649 2236
127.947 838.773 2239
133.48 839.897 2242
138.841 839.897 2242
144.202 839.897 2242
149.563 839.897 2242
154.925 839.897 2242
160.501 841.021 2245
165.869 841.021 2245
171.466 842.144 2248
176.842 842.144 2248
182.218 842.144 2248
187.593 842.144 2248
192.969 842.144 2248
198.345 842.144 2248
203.992 843.268 2251
209.375 843.268 2251
214.758 843.268 2251
217.793 834.277 2227
297.5 1038.07 2771
304.126 1038.07 2771
316.584 1057.55 2823
323.335 1057.55 2823
330.67 1059.42 2828
337.433 1059.42 2828
347.116 1068.41 2852
353.936 1068.41 2852
360.756 1068.41 2852
367.576 1068.41 2852
373.74 1066.54 2847
375.469 1052.31 2809
383.41 1055.68 2818
390.149 1055.68 2818
397.592 1057.55 2823
405.632 1060.92 2832
412.404 1060.92 2832
419.176 1060.92 2832
425.948 1060.92 2832
427.678 1048.56 2799
434.371 1048.56 2799
441.065 1048.56 2799
447.758 1048.56 2799
454.451 1048.56 2799
461.144 1048.56 2799
468.673 1050.43 2804
475.379 1050.43 2804
482.084 1050.43 2804
488.789 1050.43 2804
495.494 1050.43 2804
502.199 1050.43 2804
508.905 1050.43 2804
515.61 1050.43 2804
522.315 1050.43 2804
529.02 1050.43 2804
535.725 1050.43 2804
540.496 1046.69 2794
547.177 1046.69 2794
552.075 1043.32 2785
560.54 1046.69 2794
567.221 1046.69 2794
577.805 1053.8 2813
584.532 1053.8 2813
591.259 1053.8 2813
597.986 1053.8 2813
603.852 1052.31 2809
610.57 1052.31 2809
615.089 1048.56 2799
621.783 1048.56 2799
626.455 1045.19 2790
634.034 1046.69 2794
640.716 1046.69 2794
652.958 1055.68 2818
662.974 1060.92 2832
672.111 1064.67 2842
678.907 1064.67 2842
686.91 1066.54 2847
693.718 1066.54 2847
701.756 1068.41 2852
708.576 1068.41 2852
715.396 1068.41 2852
722.216 1068.41 2852
729.036 1068.41 2852
731.986 1062.8 2837
737.468 1060.92 2832
748.182 1066.54 2847
762.681 1077.41 2876
769.558 1077.41 2876
776.435 1077.41 2876
778.138 1070.29 2857
783.596 1068.41 2852
791.802 1070.29 2857
798.634 1070.29 2857
806.875 1072.16 2862
813.719 1072.16 2862
820.563 1072.16 2862
825.962 1070.29 2857
829.879 1066.54 2847
832.278 1060.92 2832
839.051 1060.92 2832
843.135 1057.55 2823
855.605 1064.67 2842
862.402 1064.67 2842
869.198 1064.67 2842
875.994 1064.67 2842
882.79 1064.67 2842
889.586 1064.67 2842
896.382 1064.67 2842
903.178 1064.67 2842
908.373 1062.8 2837
915.157 1062.8 2837
921.941 1062.8 2837
928.726 1062.8 2837
930.893 1057.55 2823
937.644 1057.55 2823
942.722 1055.68 2818
949.461 1055.68 2818
953.145 1052.31 2809
967.722 1060.92 2832
977.935 1064.67 2842
986.464 1066.54 2847
993.272 1066.54 2847
1000.08 1066.54 2847
1006.89 1066.54 2847
1013.7 1066.54 2847
1015.13 1060.92 2832
1015.04 1053.8 2813
1020.32 1052.31 2809
1027.03 1052.31 2809
1033.75 1052.31 2809
1040.47 1052.31 2809
1047.19 1052.31 2809
1053.9 1052.31 2809
1060.62 1052.31 2809
1067.34 1052.31 2809
1075.58 1053.8 2813
1082.31 1053.8 2813
1089.04 1053.8 2813
1094.21 1052.31 2809
1098.96 1050.43 2804
1101.73 1046.69 2794
1108.41 1046.69 2794
1111.5 1043.32 2785
1121.77 1046.69 2794
1128.45 1046.69 2794
1135.13 1046.69 2794
1141.81 1046.69 2794
1148.49 1046.69 2794
1161.38 1052.31 2809
1169.76 1053.8 2813
1178.58 1055.68 2818
1185.31 1055.68 2818
1194.17 1057.55 2823
1200.92 1057.55 2823
1207.67 1057.55 2823
1208.4 1052.31 2809
1221.17 1057.55 2823
1227.92 1057.55 2823
1240.8 1062.8 2837
1247.58 1062.8 2837
1254.36 1062.8 2837
1265.59 1066.54 2847
1276.87 1070.29 2857
1283.7 1070.29 2857
1290.53 1070.29 2857
1292.83 1066.54 2847
1299.63 1066.54 2847
1297.72 1059.42 2828
1304.49 1059.42 2828
1313.1 1060.92 2832
1319.87 1060.92 2832
1326.65 1060.92 2832
1333.42 1060.92 2832
1340.19 1060.92 2832
1346.96 1060.92 2832
1353.74 1060.92 2832
1360.51 1060.92 2832
1367.28 1060.92 2832
1386.18 1070.29 2857
1393.01 1070.29 2857
1399.85 1070.29 2857
1404.22 1068.41 2852
1401.14 1060.92 2832
1407.91 1060.92 2832
1405.19 1053.8 2813
1419.45 1059.42 2828
1426.21 1059.42 2828
1432.97 1059.42 2828
1437.19 1057.55 2823
1443.94 1057.55 2823
1450.69 1057.55 2823
1457.44 1057.55 2823
1461.6 1055.68 2818
1463.65 1052.31 2809
1462.52 1046.69 2794
1467.09 1045.19 2790
1473.77 1045.19 2790
1480.44 1045.19 2790
1487.11 1045.19 2790
1491.1 1043.32 2785
1497.76 1043.32 2785
1496.86 1038.07 2771
1501.32 1036.57 2767
1507.93 1036.57 2767
1524.4 1043.32 2785
1531.06 1043.32 2785
1540.48 1045.19 2790
1549.37 1046.69 2794
1556.05 1046.69 2794
1562.74 1046.69 2794
1569.42 1046.69 2794
1573.84 1045.19 2790
1580.51 1045.19 2790
1587.18 1045.19 2790
1593.86 1045.19 2790
1600.53 1045.19 2790
1609.5 1046.69 2794
1619.08 1048.56 2799
1625.77 1048.56 2799
1635.38 1050.43 2804
1645.01 1052.31 2809
1654.08 1053.8 2813
1660.81 1053.8 2813
1667.54 1053.8 2813
1674.26 1053.8 2813
1680.99 1053.8 2813
1687.72 1053.8 2813
1692.03 1052.31 2809
1695.73 1050.43 2804
1702.43 1050.43 2804
1709.14 1050.43 2804
1693.2 1036.57 2767
1696.75 1034.7 2762
1703.35 1034.7 2762
1715.53 1038.07 2771
1722.15 1038.07 2771
1728.78 1038.07 2771
1738.54 1039.94 2776
1745.18 1039.94 2776
1751.82 1039.94 2776
1749.59 1034.7 2762
1756.19 1034.7 2762
1768.54 1038.07 2771
1775.17 1038.07 2771
1781.79 1038.07 2771
1788.42 1038.07 2771
1795.04 1038.07 2771
1801.67 1038.07 2771
1805.69 1036.57 2767
1793.96 1026.08 2739
1813 1029.45 2748
1819.57 1029.45 2748
1826.14 1029.45 2748
1832.72 1029.45 2748
1845.31 1032.83 2757
1851.9 1032.83 2757
1858.5 1032.83 2757
1865.09 1032.83 2757
1884.58 1039.94 2776
1891.22 1039.94 2776
1917 1050.43 2804
1923.7 1050.43 2804
1930.41 1050.43 2804
1937.12 1050.43 2804
-1649.19 973.453 2582
-1664.01 985.894 2615
-1670.44 993.434 2635
-1685.61 1006.25 2669
-1693.07 1014.55 2691
-1686.63 1014.55 2691
-1682.7 1016.06 2695
-1676.25 1016.06 2695
-1675.38 1019.45 2704
-1668.92 1019.45 2704
-1667.98 1022.84 2713
-1661.5 1022.84 2713
-1655.01 1022.84 2713
-1648.52 1022.84 2713
-1642.03 1022.84 2713
-1630.12 1019.45 2704
-1626.06 1020.96 2708
-1619.58 1020.96 2708
-1613.1 1020.96 2708
-1611.97 1024.35 2717
-1616.11 1031.14 2735
-1609.57 1031.14 2735
-1603.03 1031.14 2735
-1596.49 1031.14 2735
-1589.95 1031.14 2735
-1580.51 1029.25 2730
-1561.3 1020.96 2708
-1554.82 1020.96 2708
-1548.35 1020.96 2708
-1541.87 1020.96 2708
-1511.02 1004.74 2665
-1474.16 984.386 2611
-1188.93 1046.59 2776
-1216.79 1077.13 2857
-1209.96 1077.13 2857
-1206.92 1080.52 2866
-1208.44 1088.07 2886
-1201.54 1088.07 2886
-1194.64 1088.07 2886
-1033.23 1011.15 2682
-1026.82 1011.15 2682
-1025.35 1016.06 2695
-1020.42 1017.56 2699
-1015.84 1019.45 2704
-1009.38 1019.45 2704
-1002.91 1019.45 2704
-996.444 1019.45 2704
-989.978 1019.45 2704
-981.693 1017.56 2699
-975.239 1017.56 2699
-970.58 1019.45 2704
-968.749 1024.35 2717
-962.251 1024.35 2717
-955.754 1024.35 2717
-949.257 1024.35 2717
-942.76 1024.35 2717
-933.161 1020.96 2708
-926.686 1020.96 2708
-923.268 1024.35 2717
-918.121 1025.86 2721
-911.614 1025.86 2721
-906.771 1027.74 2726
-903.224 1031.14 2735
-896.684 1031.14 2735
-890.144 1031.14 2735
-880.696 1027.74 2726
-874.177 1027.74 2726
-871.796 1032.64 2739
-865.246 1032.64 2739
-858.697 1032.64 2739
-852.147 1032.64 2739
-847.141 1034.53 2744
-840.579 1034.53 2744
-834.017 1034.53 2744
-827.456 1034.53 2744
-816.706 1029.25 2730
-810.177 1029.25 2730
-801 1025.86 2721
-792.157 1022.84 2713
-785.669 1022.84 2713
-779.182 1022.84 2713
-772.694 1022.84 2713
-766.207 1022.84 2713
-758.319 1020.96 2708
-751.843 1020.96 2708
-740.688 1014.55 2691
-729.342 1007.76 2673
-722.95 1007.76 2673
-716.558 1007.76 2673
-710.166 1007.76 2673
-703.774 1007.76 2673
-687.468 993.434 2635
-682.46 995.319 2640
-676.146 995.319 2640
-669.833 995.319 2640
-664.526 996.827 2644
-659.199 998.336 2648
-653.853 999.844 2652
-647.511 999.844 2652
-643.345 1003.24 2661
-636.982 1003.24 2661
-634.648 1009.65 2678
-628.244 1009.65 2678
-623.697 1012.66 2686
-620.262 1017.56 2699
-617.901 1024.35 2717
-611.404 1024.35 2717
-605.798 1025.86 2721
-599.291 1025.86 2721
-595.834 1031.14 2735
-589.294 1031.14 2735
-585.524 1036.04 2748
-583.798 1044.71 2771
-578.213 1046.59 2776
-571.575 1046.59 2776
-564.937 1046.59 2776
-559.103 1048.1 2780
-552.455 1048.1 2780
-545.807 1048.1 2780
-537.414 1044.71 2771
-528.106 1039.43 2757
-523.405 1043.2 2767
-516.788 1043.2 2767
-510.171 1043.2 2767
-503.554 1043.2 2767
-496.938 1043.2 2767
-490.321 1043.2 2767
-482.83 1041.32 2762
-477.087 1043.2 2767
-470.471 1043.2 2767
-463.854 1043.2 2767
-457.237 1043.2 2767
-449.806 1041.32 2762
-443.201 1041.32 2762
-435.806 1039.43 2757
-427.19 1034.53 2744
-418.482 1029.25 2730
-411.954 1029.25 2730
-405.425 1029.25 2730
-398.897 1029.25 2730
-392.369 1029.25 2730
-385.841 1029.25 2730
-380.563 1032.64 2739
-374.013 1032.64 2739
-367.463 1032.64 2739
-360.386 1031.14 2735
-353.846 1031.14 2735
-347.306 1031.14 2735
-338.523 1024.35 2717
-330.926 1020.96 2708
-324.45 1020.96 2708
-314.452 1009.65 2678
-305.057 999.844 2652
-298.716 999.844 2652
-292.815 1001.35 2656
-286.464 1001.35 2656
-281.483 1006.25 2669
-275.101 1006.25 2669
-269.625 1009.65 2678
-263.221 1009.65 2678
-256.817 1009.65 2678
-250.413 1009.65 2678
-245.558 1016.06 2695
-239.114 1016.06 2695
-234.223 1022.84 2713
-227.735 1022.84 2713
-221.248 1022.84 2713
-214.76 1022.84 2713
-208.273 1022.84 2713
-202.38 1025.86 2721
-196.881 1031.14 2735
-190.341 1031.14 2735
-185.615 1041.32 2762
-179.01 1041.32 2762
-172.967 1044.71 2771
-166.641 1046.59 2776
-160.003 1046.59 2776
-153.365 1046.59 2776
-146.726 1046.59 2776
-140.088 1046.59 2776
-133.21 1044.71 2771
-126.172 1041.32 2762
-119.567 1041.32 2762
-112.963 1041.32 2762
-106.358 1041.32 2762
-96.2497 1004.74 2665
-37.5386 833.203 2210
-32.2538 833.203 2210
-26.969 833.203 2210
-21.6254 830.941 2204
-16.3549 830.941 2204
-11.0845 830.941 2204
-5.80616 829.81 2201
-0.542902 829.81 2201
4.72036 829.81 2201
9.97001 828.679 2198
15.2053 827.548 2195
20.3983 825.286 2189
25.6329 825.286 2189
30.9097 826.417 2192
36.1515 826.417 2192
41.3932 826.417 2192
46.6349 826.417 2192
52.0187 828.679 2198
57.2748 828.679 2198
62.6162 829.81 2201
68.157 833.203 2210
73.5415 834.334 2213
78.8334 834.334 2213
84.2014 835.088 2215
89.7406 837.35 2221
95.0517 837.35 2221
100.363 837.35 2221
105.959 839.612 2227
111.585 841.874 2233
117.239 844.136 2239
122.593 844.136 2239
128.118 845.267 2242
133.658 846.398 2245
139.027 846.398 2245
144.395 846.398 2245
149.764 846.398 2245
155.132 846.398 2245
160.501 846.398 2245
165.869 846.398 2245
171.695 848.661 2251
177.078 848.661 2251
182.461 848.661 2251
187.844 848.661 2251
192.969 847.53 2248
198.345 847.53 2248
203.992 848.661 2251
209.375 848.661 2251
214.758 848.661 2251
217.793 839.612 2227
287.515 1032.64 2739
297.5 1044.71 2771
304.126 1044.71 2771
316.584 1064.31 2823
323.335 1064.31 2823
330.67 1066.2 2828
337.433 1066.2 2828
347.116 1075.25 2852
353.936 1075.25 2852
360.756 1075.25 2852
367.576 1075.25 2852
373.74 1073.36 2847
375.469 1059.03 2809
383.41 1062.43 2818
390.149 1062.43 2818
397.592 1064.31 2823
405.632 1067.71 2832
412.404 1067.71 2832
419.176 1067.71 2832
425.948 1067.71 2832
427.678 1055.26 2799
434.371 1055.26 2799
441.065 1055.26 2799
447.758 1055.26 2799
454.451 1055.26 2799
461.144 1055.26 2799
468.673 1057.15 2804
475.379 1057.15 2804
482.084 1057.15 2804
488.789 1057.15 2804
495.494 1057.15 2804
502.199 1057.15 2804
508.905 1057.15 2804
515.61 1057.15 2804
522.315 1057.15 2804
529.02 1057.15 2804
535.725 1057.15 2804
540.496 1053.38 2794
547.177 1053.38 2794
552.075 1049.99 2785
560.54 1053.38 2794
567.221 1053.38 2794
577.805 1060.54 2813
584.532 1060.54 2813
591.259 1060.54 2813
597.986 1060.54 2813
603.852 1059.03 2809
610.57 1059.03 2809
615.089 1055.26 2799
621.783 1055.26 2799
626.455 1051.87 2790
634.034 1053.38 2794
640.716 1053.38 2794
652.958 1062.43 2818
662.974 1067.71 2832
672.111 1071.48 2842
678.907 1071.48 2842
686.91 1073.36 2847
693.718 1073.36 2847
701.756 1075.25 2852
708.576 1075.25 2852
715.396 1075.25 2852
722.216 1075.25 2852
729.036 1075.25 2852
731.986 1069.59 2837
737.468 1067.71 2832
748.182 1073.36 2847
762.681 1084.29 2876
769.558 1084.29 2876
776.435 1084.29 2876
778.138 1077.13 2857
783.596 1075.25 2852
791.802 1077.13 2857
798.634 1077.13 2857
806.875 1079.02 2862
813.719 1079.02 2862
820.563 1079.02 2862
825.962 1077.13 2857
829.879 1073.36 2847
832.278 1067.71 2832
839.051 1067.71 2832
843.135 1064.31 2823
855.605 1071.48 2842
862.402 1071.48 2842
869.198 1071.48 2842
875.994 1071.48 2842
882.79 1071.48 2842
889.586 1071.48 2842
896.382 1071.48 2842
903.178 1071.48 2842
908.373 1069.59 2837
915.157 1069.59 2837
921.941 1069.59 2837
928.726 1069.59 2837
930.893 1064.31 2823
937.644 1064.31 2823
942.722 1062.43 2818
949.461 1062.43 2818
953.145 1059.03 2809
967.722 1067.71 2832
977.935 1071.48 2842
986.464 1073.36 2847
993.272 1073.36 2847
1000.08 1073.36 2847
1006.89 1073.36 2847
1013.7 1073.36 2847
1015.13 1067.71 2832
1015.04 1060.54 2813
1020.32 1059.03 2809
1027.03 1059.03 2809
1033.75 1059.03 2809
1040.47 1059.03 2809
1047.19 1059.03 2809
1053.9 1059.03 2809
1060.62 1059.03 2809
1067.34 1059.03 2809
1075.58 1060.54 2813
1082.31 1060.54 2813
1089.04 1060.54 2813
1094.21 1059.03 2809
1095.04 1053.38 2794
1098.18 1049.99 2785
1104.84 1049.99 2785
1107.9 1046.59 2776
1114.54 1046.59 2776
1121.18 1046.59 2776
1127.82 1046.59 2776
1134.46 1046.59 2776
1141.1 1046.59 2776
1155.18 1053.38 2794
1161.86 1053.38 2794
1168.54 1053.38 2794
1175.22 1053.38 2794
1181.9 1053.38 2794
1186.88 1051.87 2790
1193.55 1051.87 2790
1200.22 1051.87 2790
1212.95 1057.15 2804
1219.66 1057.15 2804
1228.55 1059.03 2809
1235.27 1059.03 2809
1241.98 1059.03 2809
1248.7 1059.03 2809
1257.21 1060.54 2813
1263.93 1060.54 2813
1270.66 1060.54 2813
1277.39 1060.54 2813
1284.11 1060.54 2813
1280.29 1051.87 2790
1286.96 1051.87 2790
1297.8 1055.26 2799
1304.49 1055.26 2799
1311.19 1055.26 2799
1317.88 1055.26 2799
1322.21 1053.38 2794
1328.89 1053.38 2794
1335.57 1053.38 2794
1340.33 1051.87 2790
1356.18 1059.03 2809
