-1871.26 903.762 3357
-1863.23 903.762 3357
-1847.47 899.992 3343
-1832.32 896.493 3330
-1820.52 894.608 3323
-1849.67 912.915 3391
-1841.56 912.915 3391
-1833.45 912.915 3391
-1825.34 912.915 3391
-1817.23 912.915 3391
-1769.64 892.993 3317
-1751.09 887.609 3297
-1760.65 896.493 3330
-1752.69 896.493 3330
-1744.73 896.493 3330
-1736.76 896.493 3330
-1725.17 894.608 3323
-1731.17 901.877 3350
-1729.85 905.377 3363
-1721.81 905.377 3363
-1731.6 914.799 3398
-1751.88 929.876 3454
-1750.69 933.645 3468
-1742.39 933.645 3468
-1741.6 937.683 3483
-1736.76 939.567 3490
-1728.41 939.567 3490
-1720.06 939.567 3490
-1708.29 937.683 3483
-1678.97 926.107 3440
-1688.23 935.798 3476
-1679.92 935.798 3476
-1678.34 939.567 3490
-1673.34 941.452 3497
-1668.79 943.606 3505
-1660.41 943.606 3505
-1652.02 943.606 3505
-1639.89 941.452 3497
-1631.53 941.452 3497
-1494.73 939.567 3490
-1486.39 939.567 3490
-1478.04 939.567 3490
-1448.64 926.107 3440
-1440.41 926.107 3440
-1432.19 926.107 3440
-1418.17 922.338 3426
-1407.09 920.453 3419
-1398.92 920.453 3419
-1387.89 918.568 3412
-1357.49 903.762 3357
-1335.8 894.608 3323
-1333.45 898.377 3337
-1330.63 901.877 3350
-1322.62 901.877 3350
-1314.61 901.877 3350
-1303.87 899.992 3343
-1295.87 899.992 3343
-1280.17 894.608 3323
-1272.23 894.608 3323
-1259.34 891.108 3310
-1251.42 891.108 3310
-1243.5 891.108 3310
-1240.44 894.608 3323
-1242.51 901.877 3350
-1252.19 914.799 3398
-1244.06 914.799 3398
-1235.94 914.799 3398
-1210.47 901.877 3350
-1202.46 901.877 3350
-1191.95 899.992 3343
-1196 909.146 3377
-1187.92 909.146 3377
-1179.85 909.146 3377
-1171.77 909.146 3377
-1036.14 1004.72 3732
-1027.22 1004.72 3732
-1018.3 1004.72 3732
-998.282 993.68 3691
-972.299 976.45 3627
-951.139 963.797 3580
-942.578 963.797 3580
-934.017 963.797 3580
-927.525 965.951 3588
-918.945 965.951 3588
-910.365 965.951 3588
-901.785 965.951 3588
-891.213 963.797 3580
-882.652 963.797 3580
-874.091 963.797 3580
-865.53 963.797 3580
-855.055 961.643 3572
-649.007 947.644 3520
-640.59 947.644 3520
-632.172 947.644 3520
-623.755 947.644 3520
-616.561 949.528 3527
-611.92 955.451 3549
-603.434 955.451 3549
-594.947 955.451 3549
-586.46 955.451 3549
-581.719 961.643 3572
-573.177 961.643 3572
-564.636 961.643 3572
-556.094 961.643 3572
-547.552 961.643 3572
-535.54 955.451 3549
-527.053 955.451 3549
-520.904 959.759 3565
-513.385 961.643 3572
-504.843 961.643 3572
-496.302 961.643 3572
-490.901 967.835 3595
-483.377 969.989 3603
-474.761 969.989 3603
-468.215 974.296 3619
-459.561 974.296 3619
-451.904 976.45 3627
-443.231 976.45 3627
-434.557 976.45 3627
-421.305 965.951 3588
-413.53 967.835 3595
-404.933 967.835 3595
-397.219 969.989 3603
-389.465 972.143 3611
-380.831 972.143 3611
-372.195 972.143 3611
-362.755 969.989 3603
-276.596 969.989 3603
-267.981 969.989 3603
-259.365 969.989 3603
-249.705 965.951 3588
-240.587 963.797 3580
-232.026 963.797 3580
-222.03 957.605 3557
-213.044 955.451 3549
-203.692 951.413 3534
-195.242 951.413 3534
-185.258 943.606 3505
-176.119 939.567 3490
-167.437 937.683 3483
-159.108 937.683 3483
-150.779 937.683 3483
-142.164 935.798 3476
-133.852 935.798 3476
-125.54 935.798 3476
-116.722 931.76 3461
-108.007 927.991 3447
-99.3589 924.222 3433
-91.1496 924.222 3433
-82.9402 924.222 3433
-74.1214 916.684 3405
-65.7077 912.915 3391
-57.1232 905.377 3363
-49.0812 905.377 3363
-40.9661 903.762 3357
-32.9385 903.762 3357
-24.9109 903.762 3357
-16.8833 903.762 3357
-8.85565 903.762 3357
-0.824589 899.992 3343
9.76589 579.624 2153
14.9144 579.624 2153
20.0628 579.624 2153
25.2113 579.624 2153
30.3598 579.624 2153
35.4588 578.817 2150
40.449 576.663 2142
45.5712 576.663 2142
50.6934 576.663 2142
55.8155 576.663 2142
60.9377 576.663 2142
66.1216 577.201 2144
71.2485 577.201 2144
76.3755 577.201 2144
81.5024 577.201 2144
86.5486 576.663 2142
91.6707 576.663 2142
96.6573 575.855 2139
101.772 575.855 2139
106.887 575.855 2139
112.421 578.009 2147
117.555 578.009 2147
122.861 578.817 2150
128.3 580.163 2155
133.639 580.97 2158
138.799 580.97 2158
144.56 583.393 2167
150.71 587.162 2181
156.282 588.508 2186
161.51 588.508 2186
167.424 590.931 2195
172.909 591.739 2198
178.408 592.547 2201
183.921 593.354 2204
189.192 593.354 2204
195.256 595.777 2213
203.176 603.585 2242
209.096 605.2 2248
215.33 607.623 2257
221.412 609.507 2264
227.126 610.315 2267
233.163 611.93 2273
238.598 611.93 2273
244.034 611.93 2273
249.469 611.93 2273
254.905 611.93 2273
259.996 611.123 2270
264.372 608.7 2261
665.455 852.341 3166
678.128 858.802 3190
685.756 858.802 3190
693.385 858.802 3190
701.013 858.802 3190
709.974 860.418 3196
718.964 862.033 3202
726.621 862.033 3202
735.654 863.648 3208
743.325 863.648 3208
750.996 863.648 3208
752.992 857.187 3184
757.739 853.956 3172
765.324 853.956 3172
775.833 857.187 3184
783.447 857.187 3184
791.061 857.187 3184
798.675 857.187 3184
809.328 860.418 3196
816.97 860.418 3196
824.613 860.418 3196
832.256 860.418 3196
833.591 853.956 3172
841.176 853.956 3172
847.156 852.341 3166
857.967 855.572 3178
868.834 858.802 3190
881.408 863.648 3208
889.08 863.648 3208
896.751 863.648 3208
908.087 867.148 3221
920.907 871.994 3239
928.653 871.994 3239
941.891 877.109 3258
953.471 880.609 3271
972.755 891.108 3310
980.67 891.108 3310
994.559 896.493 3330
1006.44 899.992 3343
1014.43 899.992 3343
1022.42 899.992 3343
1034.73 903.762 3357
1057.67 916.684 3405
1065.81 916.684 3405
1073.96 916.684 3405
1086.55 920.453 3419
1094.72 920.453 3419
1102.9 920.453 3419
1111.07 920.453 3419
1121.54 922.338 3426
1134.35 926.107 3440
1142.58 926.107 3440
1155.49 929.876 3454
1163.75 929.876 3454
1172.01 929.876 3454
1180.27 929.876 3454
1190.93 931.76 3461
1199.21 931.76 3461
1209.93 933.645 3468
1221.03 935.798 3476
1229.34 935.798 3476
1237.66 935.798 3476
1250.99 939.567 3490
1264.74 943.606 3505
1273.13 943.606 3505
1281.51 943.606 3505
1289.89 943.606 3505
1295.31 941.452 3497
1303.67 941.452 3497
1304.15 935.798 3476
1309.44 933.645 3468
1317.74 933.645 3468
1326.03 933.645 3468
1334.32 933.645 3468
1339.91 931.76 3461
1337.28 924.222 3433
1329.02 912.915 3391
1337.13 912.915 3391
1342.47 911.03 3384
1350.56 911.03 3384
1345 901.877 3350
1353.01 901.877 3350
1352.9 896.493 3330
1358 894.608 3323
1363.48 892.993 3317
1371.41 892.993 3317
1376.43 891.108 3310
1378.91 887.609 3297
1386.79 887.609 3297
1397.22 889.224 3303
1405.11 889.224 3303
1413.01 889.224 3303
1420.91 889.224 3303
1423.19 885.724 3290
1431.05 885.724 3290
1436.3 884.109 3284
1438.43 880.609 3271
1443.6 878.994 3265
1451.41 878.994 3265
1459.22 878.994 3265
1467.02 878.994 3265
1471.67 877.109 3258
1479.46 877.109 3258
1484.51 875.494 3252
1492.29 875.494 3252
1500.07 875.494 3252
1507.84 875.494 3252
1509.56 871.994 3239
1517.31 871.994 3239
1525.05 871.994 3239
1532.8 871.994 3239
1540.54 871.994 3239
1548.29 871.994 3239
1550.27 868.763 3227
1551.71 865.263 3214
1559.39 865.263 3214
1567.08 865.263 3214
1568.89 862.033 3202
1573.59 860.418 3196
1581.23 860.418 3196
1585.89 858.802 3190
1584.53 853.956 3172
1586.09 850.726 3160
1593.65 850.726 3160
1586 842.649 3130
1584.32 837.803 3112
1583.07 833.227 3095
1569.91 822.458 3055
1577.22 822.458 3055
1559.11 809.266 3006
1532.95 792.036 2942
1521.14 782.345 2906
1528.09 782.345 2906
1516.55 772.922 2871
1513.34 767.807 2852
1512.16 763.769 2837
1511.45 760 2823
1518.2 760 2823
1517.39 756.231 2809
1518.68 753.538 2799
1522.65 752.192 2794
1529.33 752.192 2794
1536.01 752.192 2794
1540.48 751.115 2790
1544.38 749.769 2785
1553.83 751.115 2790
1562.74 752.192 2794
1569.42 752.192 2794
1581.74 754.885 2804
1591.28 756.231 2809
1597.99 756.231 2809
1604.71 756.231 2809
1613.72 757.307 2813
1620.45 757.307 2813
1627.18 757.307 2813
1614.74 748.423 2780
2014.48 929.876 3454
2047.92 941.452 3497
2056.28 941.452 3497
2064.65 941.452 3497
2077.75 943.606 3505
2086.13 943.606 3505
2094.51 943.606 3505
2102.9 943.606 3505
2111.28 943.606 3505
2119.66 943.606 3505
2128.04 943.606 3505
2136.42 943.606 3505
2144.8 943.606 3505
2153.19 943.606 3505
2148 937.683 3483
2125.37 924.222 3433
2133.58 924.222 3433
2141.79 924.222 3433
2150 924.222 3433
2145.01 918.568 3412
2131.08 909.146 3377
2134.72 907.261 3370
2142.78 907.261 3370
2120.84 894.608 3323
2095.48 880.609 3271
2099.44 878.994 3265
2107.25 878.994 3265
2115.06 878.994 3265
2118.31 877.109 3258
2113.7 871.994 3239
2126.03 873.878 3246
2141.68 877.109 3258
2149.48 877.109 3258
2165.87 880.609 3271
2182.33 884.109 3284
2220.87 896.493 3330
2228.83 896.493 3330
2245.52 899.992 3343
2253.52 899.992 3343
2261.51 899.992 3343
2269.51 899.992 3343
2268.64 896.493 3330
2276.61 896.493 3330
2284.57 896.493 3330
2283.58 892.993 3317
2291.52 892.993 3317
2294.6 891.108 3310
2293.47 887.609 3297
2301.35 887.609 3297
2309.24 887.609 3297
2312.2 885.724 3290
2306.67 880.609 3271
2314.49 880.609 3271
2313.08 877.109 3258
2312.33 873.878 3246
2310.8 870.379 3233
2318.53 870.379 3233
2312.59 865.263 3214
2311.61 862.033 3202
2297.54 853.956 3172
2292.04 849.11 3154
2299.58 849.11 3154
2307.13 849.11 3154
2319.07 850.726 3160
2326.63 850.726 3160
2334.18 850.726 3160
2341.74 850.726 3160
2349.3 850.726 3160
2352.38 849.11 3154
2359.92 849.11 3154
2362.96 847.495 3148
2370.49 847.495 3148
2382.55 849.11 3154
2394.64 850.726 3160
2402.19 850.726 3160
2409.75 850.726 3160
2417.31 850.726 3160
-2463.3 893.605 3290
-2455.44 893.605 3290
-2447.57 893.605 3290
-2439.7 893.605 3290
-2427.4 891.976 3284
-2419.55 891.976 3284
-2392.6 884.914 3258
-2384.81 884.914 3258
-2395.99 891.976 3284
-2401.95 897.136 3303
-2394.05 897.136 3303
-2400.6 902.568 3323
-2392.66 902.568 3323
-2384.71 902.568 3323
-2217.11 883.284 3252
-2218.17 886.815 3265
-2210.36 886.815 3265
-2202.55 886.815 3265
-2173.23 878.123 3233
-2165.5 878.123 3233
-2153.77 876.494 3227
-2158.68 881.654 3246
-2163.51 886.815 3265
-2155.7 886.815 3265
-2147.9 886.815 3265
-2169.58 899.037 3310
-2161.67 899.037 3310
-2192.8 915.334 3370
-2184.74 915.334 3370
-2176.68 915.334 3370
-2168.62 915.334 3370
-2183 924.841 3405
-2174.86 924.841 3405
-2197.9 938.15 3454
-2208.02 946.026 3483
-2204.11 947.928 3490
-2195.77 947.928 3490
-2196.82 952.002 3505
-2220.91 966.126 3557
-2221.73 970.2 3572
-2213.19 970.2 3572
-2204.65 970.2 3572
-2201.03 972.373 3580
-2192.46 972.373 3580
-2183.9 972.373 3580
-2189.32 978.62 3603
-2180.7 978.62 3603
-2172.09 978.62 3603
-2163.47 978.62 3603
-2150.07 976.447 3595
-2114.07 963.953 3549
-2115.08 968.299 3565
-2106.55 968.299 3565
-2098.03 968.299 3565
-2089.5 968.299 3565
-2080.98 968.299 3565
-2067.8 966.126 3557
-2020.51 947.928 3490
-2012.16 947.928 3490
-2003.82 947.928 3490
-1995.47 947.928 3490
-1983.14 946.026 3483
-1958.37 938.15 3454
-1950.11 938.15 3454
-1902.49 919.137 3384
-1890.48 917.235 3377
-1871.26 911.803 3357
-1863.23 911.803 3357
-1847.47 908.001 3343
-1832.32 904.47 3330
-1820.52 902.568 3323
-1849.67 921.038 3391
-1841.56 921.038 3391
-1833.45 921.038 3391
-1825.34 921.038 3391
-1817.23 921.038 3391
-1769.64 900.939 3317
-1751.09 895.506 3297
-1746.38 897.136 3303
-1745.85 900.939 3317
-1737.92 900.939 3317
-1729.98 900.939 3317
-1718.42 899.037 3310
-1720.84 904.47 3330
-1723.16 909.902 3350
-1715.15 909.902 3350
-1728.03 921.038 3391
-1730.58 926.742 3412
-1743.62 938.15 3454
-1735.36 938.15 3454
-1734.1 941.952 3468
-1725.81 941.952 3468
-1717.51 941.952 3468
-1676.9 928.643 3419
-1678.97 934.347 3440
-1670.74 934.347 3440
-1662.52 934.347 3440
-1671.6 944.125 3476
-1663.29 944.125 3476
-1664.98 949.829 3497
-1656.62 949.829 3497
-1648.25 949.829 3497
-1639.89 949.829 3497
-1631.53 949.829 3497
-1450.94 930.544 3426
-1448.64 934.347 3440
-1440.41 934.347 3440
-1432.19 934.347 3440
-1418.17 930.544 3426
-1404.21 926.742 3412
-1396.05 926.742 3412
-1387.89 926.742 3412
-1343.74 902.568 3323
-1335.8 902.568 3323
-1327.85 902.568 3323
-1325.47 906.371 3337
-1317.49 906.371 3337
-1309.51 906.371 3337
-1298.8 904.47 3330
-1290.83 904.47 3330
-1280.17 902.568 3323
-1264.57 897.136 3303
-1256.67 897.136 3303
-1248.77 897.136 3303
-1240.88 897.136 3303
-1240.44 902.568 3323
-1255.12 919.137 3384
-1257.35 926.742 3412
-1249.19 926.742 3412
-1241.03 926.742 3412
-1232.87 926.742 3412
-1224.71 926.742 3412
-1175.55 895.506 3297
-1160.93 890.346 3278
-1155.21 891.976 3284
-1147.35 891.976 3284
-1139.5 891.976 3284
-1024.76 1002.52 3691
-1015.93 1002.52 3691
-1007.11 1002.52 3691
-972.318 976.447 3595
-953.534 966.126 3557
-941.043 962.052 3542
-932.573 962.052 3542
-910.536 947.928 3490
-902.191 947.928 3490
-903.321 957.977 3527
-896.663 959.879 3534
-891.983 963.953 3549
-883.496 963.953 3549
-875.009 963.953 3549
-866.522 963.953 3549
-858.036 963.953 3549
-847.873 962.052 3542
-646.241 952.002 3505
-637.86 952.002 3505
-629.478 952.002 3505
-621.097 952.002 3505
-613.939 953.903 3512
-608.127 957.977 3527
-599.693 957.977 3527
-593.773 962.052 3542
-586.46 963.953 3549
-577.973 963.953 3549
-569.487 963.953 3549
-561 963.953 3549
-552.513 963.953 3549
-544.026 963.953 3549
-535.54 963.953 3549
-527.053 963.953 3549
-520.904 968.299 3565
-513.385 970.2 3572
-504.843 970.2 3572
-496.302 970.2 3572
-490.901 976.447 3595
-483.377 978.62 3603
-474.761 978.62 3603
-468.215 982.966 3619
-459.561 982.966 3619
-451.904 985.139 3627
-443.231 985.139 3627
-434.557 985.139 3627
-276.596 978.62 3603
-267.981 978.62 3603
-259.365 978.62 3603
-249.705 974.546 3588
-240.587 972.373 3580
-232.026 972.373 3580
-221.531 963.953 3549
-212.143 959.879 3534
-202.886 956.076 3520
-194.468 956.076 3520
-184.835 949.829 3497
-175.766 946.026 3483
-166.38 940.051 3461
-158.103 940.051 3461
-149.827 940.051 3461
-141.551 940.051 3461
-133.274 940.051 3461
-124.998 940.051 3461
-116.25 936.248 3447
-107.568 932.446 3433
-99.1563 930.544 3426
-90.9637 930.544 3426
-82.7711 930.544 3426
-74.1214 924.841 3405
-65.4364 917.235 3377
-57.0213 911.803 3357
-49.0812 913.433 3363
-41.0393 913.433 3363
-32.9973 913.433 3363
-25.0593 917.235 3377
-16.9838 917.235 3377
-8.90841 917.235 3377
-0.824589 908.001 3343
9.76589 584.782 2153
14.9144 584.782 2153
20.0815 585.325 2155
25.2347 585.325 2155
30.388 585.325 2155
35.5083 584.782 2153
40.449 581.794 2142
45.6137 582.337 2144
50.7407 582.337 2144
55.8676 582.337 2144
60.9946 582.337 2144
66.1216 582.337 2144
71.2485 582.337 2144
76.3755 582.337 2144
81.5024 582.337 2144
86.5486 581.794 2142
91.6707 581.794 2142
96.6573 580.979 2139
101.772 580.979 2139
106.887 580.979 2139
112.264 582.337 2144
117.391 582.337 2144
122.689 583.152 2147
128.3 585.325 2155
133.639 586.14 2158
138.799 586.14 2158
144.56 588.584 2167
150.71 592.387 2181
156.282 593.745 2186
161.51 593.745 2186
167.424 596.19 2195
173.145 597.819 2201
178.408 597.819 2201
183.921 598.634 2204
189.192 598.634 2204
195.256 601.078 2213
203.448 609.77 2245
208.817 609.77 2245
215.33 613.029 2257
221.412 614.931 2264
227.727 617.375 2273
233.778 619.005 2279
239.228 619.005 2279
244.678 619.005 2279
250.128 619.005 2279
255.577 619.005 2279
260.684 618.19 2276
265.425 616.56 2270
665.455 859.925 3166
675.577 863.185 3178
685.756 866.444 3190
693.385 866.444 3190
701.013 866.444 3190
708.641 866.444 3190
716.269 866.444 3190
723.898 866.444 3190
730.15 864.814 3184
737.764 864.814 3184
745.378 864.814 3184
747.316 858.296 3160
756.306 859.925 3166
763.876 859.925 3166
771.447 859.925 3166
777.542 858.296 3160
785.098 858.296 3160
797.17 863.185 3178
804.77 863.185 3178
812.369 863.185 3178
819.969 863.185 3178
826.006 861.555 3172
828.861 856.666 3154
836.403 856.666 3154
843.945 856.666 3154
854.727 859.925 3166
865.566 863.185 3178
876.463 866.444 3190
884.091 866.444 3190
896.751 871.333 3208
906.114 872.963 3214
917.495 876.494 3227
925.212 876.494 3227
941.891 884.914 3258
949.682 884.914 3258
963.351 890.346 3278
971.189 890.346 3278
988.585 899.037 3310
1002.52 904.47 3330
1010.48 904.47 3330
1018.45 904.47 3330
1026.41 904.47 3330
1042.76 911.803 3357
1052.67 913.433 3363
1060.71 913.433 3363
1079.87 922.939 3398
1088 922.939 3398
1100.64 926.742 3412
1108.8 926.742 3412
1116.96 926.742 3412
1127.43 928.643 3419
1140.25 932.446 3433
1150.8 934.347 3440
1159.03 934.347 3440
1167.26 934.347 3440
1175.48 934.347 3440
1186.12 936.248 3447
1194.36 936.248 3447
1207.49 940.051 3461
1215.76 940.051 3461
1224.04 940.051 3461
1232.32 940.051 3461
1245.97 944.125 3476
1259.33 947.928 3490
1267.68 947.928 3490
1276.02 947.928 3490
1284.37 947.928 3490
1287.53 944.125 3476
1295.84 944.125 3476
1288.02 932.446 3433
1296.23 932.446 3433
1315.08 940.051 3461
1323.35 940.051 3461
1331.63 940.051 3461
1329.07 932.446 3433
1326.37 924.841 3405
1320.79 915.334 3370
1328.85 915.334 3370
1336.91 915.334 3370
1336.99 909.902 3350
1345 909.902 3350
1353.01 909.902 3350
1352.9 904.47 3330
1358 902.568 3323
1363.48 900.939 3317
1371.41 900.939 3317
1376.43 899.037 3310
1378.91 895.506 3297
1386.79 895.506 3297
1397.22 897.136 3303
1405.11 897.136 3303
1413.01 897.136 3303
1420.91 897.136 3303
1423.19 893.605 3290
1431.05 893.605 3290
1436.3 891.976 3284
1438.43 888.445 3271
1443.6 886.815 3265
1451.41 886.815 3265
1459.22 886.815 3265
1467.02 886.815 3265
1471.67 884.914 3258
1479.46 884.914 3258
1484.51 883.284 3252
1492.29 883.284 3252
1500.07 883.284 3252
1507.84 883.284 3252
1509.56 879.753 3239
1517.31 879.753 3239
1525.05 879.753 3239
1532.8 879.753 3239
1540.54 879.753 3239
1548.29 879.753 3239
1550.27 876.494 3227
1551.71 872.963 3214
1559.39 872.963 3214
1567.08 872.963 3214
1568.89 869.703 3202
1573.59 868.074 3196
1581.23 868.074 3196
1585.89 866.444 3190
1584.53 861.555 3172
1586.09 858.296 3160
1593.65 858.296 3160
1586 850.147 3130
1584.32 845.258 3112
1583.07 840.641 3095
1569.91 829.776 3055
1577.22 829.776 3055
1559.11 816.467 3006
1532.95 799.084 2942
1521.14 789.306 2906
1528.09 789.306 2906
1516.55 779.8 2871
1513.34 774.639 2852
1512.16 770.565 2837
1511.45 766.762 2823
1518.2 766.762 2823
1517.39 762.96 2809
1518.68 760.243 2799
1522.65 758.885 2794
1529.33 758.885 2794
1536.01 758.885 2794
1540.48 757.799 2790
1544.38 756.441 2785
1553.83 757.799 2790
1562.74 758.885 2794
1569.42 758.885 2794
1581.74 761.602 2804
1591.28 762.96 2809
1597.99 762.96 2809
1604.71 762.96 2809
1613.72 764.046 2813
1620.45 764.046 2813
1627.18 764.046 2813
2014.48 938.15 3454
2039.72 946.026 3483
2048.05 946.026 3483
2056.38 946.026 3483
2064.71 946.026 3483
2073.04 946.026 3483
2081.37 946.026 3483
2098.1 949.829 3497
2106.46 949.829 3497
2114.82 949.829 3497
2123.18 949.829 3497
2131.55 949.829 3497
2135.62 947.928 3490
2143.97 947.928 3490
2143.68 944.125 3476
2116.71 928.643 3419
2124.88 928.643 3419
2133.06 928.643 3419
2141.23 928.643 3419
2140.61 924.841 3405
2131.08 917.235 3377
2134.72 915.334 3370
2142.78 915.334 3370
2120.84 902.568 3323
2095.48 888.445 3271
2099.44 886.815 3265
2107.25 886.815 3265
2115.06 886.815 3265
2118.31 884.914 3258
2113.7 879.753 3239
2121.45 879.753 3239
2141.68 884.914 3258
2149.48 884.914 3258
2157.27 884.914 3258
2178.35 890.346 3278
2220.87 904.47 3330
2228.83 904.47 3330
2245.52 908.001 3343
2253.52 908.001 3343
2261.51 908.001 3343
2269.51 908.001 3343
2268.64 904.47 3330
2262.93 899.037 3310
2270.85 899.037 3310
2273.95 897.136 3303
2272.86 893.605 3290
2280.73 893.605 3290
2288.6 893.605 3290
2296.47 893.605 3290
2286.82 886.815 3265
2294.63 886.815 3265
2302.44 886.815 3265
2310.25 886.815 3265
2304.56 881.654 3246
2303.07 878.123 3233
2302.22 874.864 3221
2309.92 874.864 3221
2312.59 872.963 3214
2311.61 869.703 3202
2297.54 861.555 3172
2292.04 856.666 3154
2299.58 856.666 3154
2307.13 856.666 3154
2319.07 858.296 3160
2326.63 858.296 3160
2334.18 858.296 3160
2341.74 858.296 3160
2349.3 858.296 3160
2352.38 856.666 3154
2359.92 856.666 3154
2367.46 856.666 3154
2375.01 856.666 3154
2382.55 856.666 3154
2394.64 858.296 3160
2402.19 858.296 3160
2409.75 858.296 3160
2417.31 858.296 3160
-2463.3 901.486 3290
-2455.44 901.486 3290
-2447.57 901.486 3290
-2439.7 901.486 3290
-2427.4 899.842 3284
-2419.55 899.842 3284
-2388.19 891.074 3252
-2380.42 891.074 3252
-2395.99 899.842 3284
-2401.95 905.049 3303
-2394.05 905.049 3303
-2386.15 905.049 3303
-2204.16 885.868 3233
-2218.17 894.636 3265
-2210.36 894.636 3265
-2202.55 894.636 3265
-2169.2 884.224 3227
-2161.48 884.224 3227
-2153.77 884.224 3227
-2158.68 889.43 3246
-2158.87 892.718 3258
-2151.08 892.718 3258
-2143.29 892.718 3258
-2131.57 891.074 3252
-2129.53 903.404 3297
-2138.37 910.529 3323
-2147.74 917.927 3350
-2139.73 917.927 3350
-2162.26 931.079 3398
-2189.64 946.424 3454
-2195.27 952.452 3476
-2186.96 952.452 3476
-2187.42 956.288 3490
-2206.55 968.344 3534
-2221.73 978.757 3572
-2213.19 978.757 3572
-2204.65 978.757 3572
-2196.11 978.757 3572
-2187.57 978.757 3572
-2179.02 978.757 3572
-2175.34 980.949 3580
-2175.86 985.059 3595
-2167.26 985.059 3595
-2158.67 985.059 3595
-2132.13 976.839 3565
-2114.07 972.455 3549
-2110.33 974.647 3557
-2101.83 974.647 3557
-2098.03 976.839 3565
-2089.5 976.839 3565
-2080.98 976.839 3565
-2067.8 974.647 3557
-2020.51 956.288 3490
-2012.16 956.288 3490
-2003.82 956.288 3490
-1995.47 956.288 3490
-1970.61 948.342 3461
-1942.49 938.752 3426
-1934.3 938.752 3426
-1894.62 923.407 3370
-1879.29 919.845 3357
-1856.21 912.447 3330
-1848.25 912.447 3330
-1833.1 908.885 3317
-1825.17 908.885 3317
-1813.4 906.967 3310
-1838.21 923.407 3370
-1830.15 923.407 3370
-1822.1 923.407 3370
-1814.04 923.407 3370
-1805.98 923.407 3370
-1762.17 905.049 3303
-1744.18 899.842 3284
-1746.38 905.049 3303
-1745.85 908.885 3317
-1737.92 908.885 3317
-1729.98 908.885 3317
-1718.42 906.967 3310
-1720.84 912.447 3330
-1723.16 917.927 3350
-1715.15 917.927 3350
-1728.03 929.161 3391
-1730.58 934.915 3412
-1743.62 946.424 3454
-1735.36 946.424 3454
-1734.1 950.26 3468
-1725.81 950.26 3468
-1717.51 950.26 3468
-1676.9 936.833 3419
-1678.97 942.588 3440
-1670.74 942.588 3440
-1662.52 942.588 3440
-1671.6 952.452 3476
-1663.29 952.452 3476
-1664.98 958.206 3497
-1656.62 958.206 3497
-1648.25 958.206 3497
-1639.89 958.206 3497
-1631.53 958.206 3497
-1450.94 938.752 3426
-1448.64 942.588 3440
-1440.41 942.588 3440
-1432.19 942.588 3440
-1418.17 938.752 3426
-1404.21 934.915 3412
-1396.05 934.915 3412
-1387.89 934.915 3412
-1343.74 910.529 3323
-1335.8 910.529 3323
-1327.85 910.529 3323
-1325.47 914.365 3337
-1317.49 914.365 3337
-1309.51 914.365 3337
-1298.8 912.447 3330
-1290.83 912.447 3330
-1280.17 910.529 3323
-1264.57 905.049 3303
-1256.67 905.049 3303
-1248.77 905.049 3303
-1240.88 905.049 3303
-1240.44 910.529 3323
-1255.12 927.243 3384
-1257.35 934.915 3412
-1249.19 934.915 3412
-1241.03 934.915 3412
-1232.87 934.915 3412
-1224.71 934.915 3412
-1175.55 903.404 3297
-1160.93 898.198 3278
-1155.21 899.842 3284
-1147.35 899.842 3284
-1139.5 899.842 3284
-1024.76 1011.36 3691
-1015.93 1011.36 3691
-1007.11 1011.36 3691
-972.318 985.059 3595
-953.534 974.647 3557
-941.043 970.536 3542
-932.573 970.536 3542
-910.536 956.288 3490
-902.191 956.288 3490
-903.321 966.426 3527
-896.663 968.344 3534
-891.983 972.455 3549
-883.496 972.455 3549
-875.009 972.455 3549
-866.522 972.455 3549
-858.036 972.455 3549
-847.873 970.536 3542
-646.241 960.398 3505
-637.86 960.398 3505
-629.478 960.398 3505
-621.097 960.398 3505
-613.939 962.316 3512
-608.127 966.426 3527
-599.693 966.426 3527
-593.773 970.536 3542
-586.46 972.455 3549
-577.973 972.455 3549
-569.487 972.455 3549
-561 972.455 3549
-552.513 972.455 3549
-544.026 972.455 3549
-535.54 972.455 3549
-527.053 972.455 3549
-520.904 976.839 3565
-513.385 978.757 3572
-504.843 978.757 3572
-496.302 978.757 3572
-490.901 985.059 3595
-483.377 987.251 3603
-474.761 987.251 3603
-468.215 991.635 3619
-459.561 991.635 3619
-450.907 991.635 3619
-442.253 991.635 3619
-276.596 987.251 3603
-267.981 987.251 3603
-259.365 987.251 3603
-249.705 983.141 3588
-240.05 978.757 3572
-231.508 978.757 3572
-220.594 968.344 3534
-212.143 968.344 3534
-202.021 960.398 3505
-193.639 960.398 3505
-184.095 954.37 3483
-174.656 948.342 3461
-165.707 944.506 3447
-157.464 944.506 3447
-149.221 944.506 3447
-140.978 944.506 3447
-132.735 944.506 3447
-124.493 944.506 3447
-115.778 940.67 3433
-107.568 940.67 3433
-99.3589 940.67 3433
-91.1496 940.67 3433
-82.9402 940.67 3433
-74.2737 934.915 3412
-65.5721 927.243 3384
-57.1232 921.489 3363
-49.2856 925.325 3377
-41.2101 925.325 3377
-33.2034 927.243 3384
-25.1112 927.243 3384
-17.019 927.243 3384
-8.92687 927.243 3384
9.77496 590.487 2155
14.9282 590.487 2155
20.0815 590.487 2155
25.2347 590.487 2155
30.388 590.487 2155
35.5413 590.487 2155
40.449 586.925 2142
45.6137 587.473 2144
50.7407 587.473 2144
55.8676 587.473 2144
60.9946 587.473 2144
66.2141 588.295 2147
71.3482 588.295 2147
76.4823 588.295 2147
81.6165 588.295 2147
86.5486 586.925 2142
91.6707 586.925 2142
96.6573 586.103 2139
101.772 586.103 2139
106.887 586.103 2139
112.264 587.473 2144
117.391 587.473 2144
122.689 588.295 2147
128.181 589.939 2153
133.639 591.309 2158
138.799 591.309 2158
144.56 593.775 2167
150.502 596.789 2178
156.139 598.434 2184
161.362 598.434 2184
167.195 600.626 2192
173.145 603.092 2201
178.408 603.092 2201
183.921 603.914 2204
189.192 603.914 2204
195.256 606.38 2213
203.448 615.148 2245
208.817 615.148 2245
215.33 618.436 2257
221.999 621.998 2270
228.329 624.464 2279
234.086 625.286 2282
239.543 625.286 2282
245 625.286 2282
250.457 625.286 2282
255.914 625.286 2282
261.371 625.286 2282
266.126 623.642 2276
657.888 857.645 3130
673.026 867.509 3166
680.597 867.509 3166
688.168 867.509 3166
695.739 867.509 3166
704.642 869.154 3172
712.228 869.154 3172
719.813 869.154 3172
727.398 869.154 3172
734.983 869.154 3172
742.568 869.154 3172
744.478 862.577 3148
752.006 862.577 3148
759.534 862.577 3148
769.985 865.865 3160
777.542 865.865 3160
786.589 867.509 3166
797.17 870.798 3178
804.77 870.798 3178
813.903 872.442 3184
821.517 872.442 3184
829.131 872.442 3184
833.591 869.154 3172
841.176 869.154 3172
848.761 869.154 3172
857.967 870.798 3178
865.566 870.798 3178
876.463 874.086 3190
884.091 874.086 3190
891.719 874.086 3190
904.422 879.018 3208
915.79 882.58 3221
923.492 882.58 3221
936.398 887.512 3239
949.682 892.718 3258
961.293 896.28 3271
969.115 896.28 3271
984.703 903.404 3297
996.5 906.967 3310
1008.36 910.529 3323
1016.31 910.529 3323
1024.25 910.529 3323
1032.2 910.529 3323
1050.79 919.845 3357
1058.82 919.845 3357
1068.75 921.489 3363
1079.03 923.407 3370
1087.09 923.407 3370
1097.43 925.325 3377
1105.5 925.325 3377
1113.58 925.325 3377
1123.98 927.243 3384
1132.07 927.243 3384
1140.16 927.243 3384
1148.25 927.243 3384
1156.35 927.243 3384
1166.85 929.161 3391
1174.96 929.161 3391
1183.06 929.161 3391
1191.17 929.161 3391
1199.28 929.161 3391
1202.41 925.325 3377
1215.5 929.161 3391
1233.71 936.833 3419
1241.89 936.833 3419
1250.06 936.833 3419
1258.24 936.833 3419
1258.64 931.079 3398
1266.76 931.079 3398
1272.26 929.161 3391
1267.53 919.845 3357
1288.48 929.161 3391
1296.59 929.161 3391
1304.7 929.161 3391
1312.81 929.161 3391
1312.74 923.407 3370
1315.7 919.845 3357
1323.73 919.845 3357
1328.98 917.927 3350
1336.99 917.927 3350
1339.78 914.365 3337
1347.76 914.365 3337
1352.9 912.447 3330
1358 910.529 3323
1363.48 908.885 3317
1371.41 908.885 3317
1376.43 906.967 3310
1378.91 903.404 3297
1386.79 903.404 3297
1397.22 905.049 3303
1405.11 905.049 3303
1413.01 905.049 3303
1420.91 905.049 3303
1423.19 901.486 3290
1431.05 901.486 3290
1436.3 899.842 3284
1441.51 898.198 3278
1443.6 894.636 3265
1451.41 894.636 3265
1459.22 894.636 3265
1467.02 894.636 3265
1471.67 892.718 3258
1479.46 892.718 3258
1484.51 891.074 3252
1489.54 889.43 3246
1497.3 889.43 3246
1505.06 889.43 3246
1509.56 887.512 3239
1517.31 887.512 3239
1525.05 887.512 3239
1532.8 887.512 3239
1540.54 887.512 3239
1548.29 887.512 3239
1553.15 885.868 3233
1555.09 882.58 3221
1562.79 882.58 3221
1567.08 880.662 3214
1568.89 877.374 3202
1573.59 875.73 3196
1581.23 875.73 3196
1585.89 874.086 3190
1584.53 869.154 3172
1586.09 865.865 3160
1593.65 865.865 3160
1586 857.645 3130
1584.32 852.713 3112
1586.14 849.699 3101
1578.65 841.753 3072
1586 841.753 3072
1564.82 826.682 3017
1541.29 810.516 2958
1532.13 802.022 2927
1539.13 802.022 2927
1529.76 793.527 2896
1520.76 785.307 2866
1520.16 781.471 2852
1516.27 775.991 2832
1523.04 775.991 2832
1524.95 773.525 2823
1526.28 770.785 2813
1530.82 769.689 2809
1537.54 769.689 2809
1541.51 768.319 2804
1548.21 768.319 2804
1552.15 766.948 2799
1558.84 766.948 2799
1571.12 769.689 2809
1577.84 769.689 2809
1586.82 770.785 2813
1602.04 774.895 2828
1608.8 774.895 2828
1615.57 774.895 2828
1622.33 774.895 2828
1620.45 770.785 2813
1627.18 770.785 2813
2035.62 952.452 3476
2043.94 952.452 3476
2052.25 952.452 3476
2064.71 954.37 3483
2073.04 954.37 3483
2081.37 954.37 3483
2098.1 958.206 3497
2106.46 958.206 3497
2114.82 958.206 3497
2123.18 958.206 3497
2131.55 958.206 3497
2131.34 954.37 3483
2139.67 954.37 3483
2134.43 948.342 3461
2112.37 934.915 3412
2120.53 934.915 3412
2124.32 932.997 3405
2132.47 932.997 3405
2131.81 929.161 3391
2131.08 925.325 3377
2126.49 919.845 3357
2134.51 919.845 3357
2117.01 908.885 3317
2099.96 898.198 3278
2099.44 894.636 3265
2107.25 894.636 3265
2115.06 894.636 3265
2118.31 892.718 3258
2109.79 885.868 3233
2117.52 885.868 3233
2137.74 891.074 3252
2145.52 891.074 3252
2153.29 891.074 3252
2173.7 896.28 3271
2207.53 906.967 3310
2215.44 906.967 3310
2232.09 910.529 3323
2240.04 910.529 3323
2247.98 910.529 3323
2255.93 910.529 3323
2255.02 906.967 3310
2258.15 905.049 3303
2266.05 905.049 3303
2265 901.486 3290
2272.86 901.486 3290
2276.57 899.842 3284
2271.21 894.636 3265
2279.02 894.636 3265
2281.92 892.718 3258
2285.49 891.074 3252
2289.04 889.43 3246
2296.8 889.43 3246
2295.33 885.868 3233
2303.07 885.868 3233
2302.22 882.58 3221
2309.92 882.58 3221
2312.59 880.662 3214
2311.61 877.374 3202
2297.54 869.154 3172
2292.04 864.221 3154
2299.58 864.221 3154
2307.13 864.221 3154
2319.07 865.865 3160
2326.63 865.865 3160
2334.18 865.865 3160
2341.74 865.865 3160
2349.3 865.865 3160
2352.38 864.221 3154
2359.92 864.221 3154
2367.46 864.221 3154
2375.01 864.221 3154
2378.02 862.577 3148
2394.64 865.865 3160
2402.19 865.865 3160
2409.75 865.865 3160
2417.31 865.865 3160
-2449.08 904.116 3271
-2455.44 909.368 3290
-2447.57 909.368 3290
-2439.7 909.368 3290
-2417.79 904.116 3271
-2409.97 904.116 3271
-2388.19 898.864 3252
-2380.42 898.864 3252
-2395.99 907.709 3284
-2388.13 907.709 3284
-2380.28 907.709 3284
-2154.03 895.271 3239
-2154.9 898.864 3252
-2147.12 898.864 3252
-2139.34 898.864 3252
-2121.13 907.709 3284
-2113.28 907.709 3284
-2134.92 920.424 3330
-2126.95 920.424 3330
-2136.17 927.887 3357
-2176.32 948.893 3433
-2172.53 950.828 3440
-2164.31 950.828 3440
-2178.65 960.779 3476
-2206.55 976.81 3534
-2212.4 983.167 3557
-2203.9 983.167 3557
-2195.39 983.167 3557
-2186.88 983.167 3557
-2178.38 983.167 3557
-2169.87 983.167 3557
-2161.37 983.167 3557
-2152.86 983.167 3557
-2144.36 983.167 3557
-2135.85 983.167 3557
-2127.34 983.167 3557
-2114.07 980.956 3549
-2105.59 980.956 3549
-2097.1 980.956 3549
-2088.61 980.956 3549
-2080.13 980.956 3549
-2071.64 980.956 3549
-2054.43 976.81 3534
-2020.51 964.648 3490
-1995.44 956.633 3461
-1987.17 956.633 3461
-1978.89 956.633 3461
-1966.63 954.698 3454
-1914.71 933.415 3377
-1906.63 933.415 3377
-1872.14 920.424 3330
-1845.7 911.302 3297
-1837.81 911.302 3297
-1829.93 911.302 3297
-1822.05 911.302 3297
-1803.71 906.051 3278
-1809.57 912.961 3303
-1801.67 912.961 3303
-1801.37 916.831 3317
-1793.44 916.831 3317
-1785.51 916.831 3317
-1756.68 906.051 3278
-1748.84 906.051 3278
-1734.09 902.458 3265
-1733.16 906.051 3278
-1731.64 909.368 3290
-1730.58 912.961 3303
-1722.68 912.961 3303
-1718.42 914.896 3310
-1714.12 916.831 3317
-1716.48 922.359 3337
-1708.5 922.359 3337
-1728.03 937.284 3391
-1730.58 943.089 3412
-1722.42 943.089 3412
-1714.26 943.089 3412
-1668.72 945.024 3419
-1660.54 945.024 3419
-1652.37 945.024 3419
-1654.29 950.828 3440
-1646.07 950.828 3440
-1644.5 954.698 3454
-1636.24 954.698 3454
-1627.99 954.698 3454
-1619.73 954.698 3454
-1611.47 954.698 3454
-1343.68 907.709 3284
-1343.56 912.961 3303
-1335.66 912.961 3303
-1330.57 914.896 3310
-1325.45 916.831 3317
-1319.91 918.489 3323
-1311.96 918.489 3323
-1304.01 918.489 3323
-1293.73 916.831 3317
-1285.79 916.831 3317
-1277.86 916.831 3317
-1262.27 911.302 3297
-1254.39 911.302 3297
-1246.51 911.302 3297
-1238.62 911.302 3297
-1232.98 912.961 3303
-1255.12 935.35 3384
-1257.35 943.089 3412
-1249.19 943.089 3412
-1241.03 943.089 3412
-1232.87 943.089 3412
-1224.71 943.089 3412
-1159.5 898.864 3252
-1149.6 897.206 3246
-1141.84 897.206 3246
-1134.08 897.206 3246
-1121.8 893.613 3233
-979.052 983.167 3557
-970.546 983.167 3557
-962.04 983.167 3557
-943.616 972.94 3520
-919.523 956.633 3461
-911.247 956.633 3461
-904.797 958.568 3468
-896.504 958.568 3468
-895.638 966.583 3497
-894.887 974.875 3527
-888.213 976.81 3534
-879.762 976.81 3534
-871.311 976.81 3534
-862.86 976.81 3534
-854.409 976.81 3534
-844.283 974.875 3527
-631.676 946.959 3426
-631.126 958.568 3468
-622.833 958.568 3468
-621.097 968.794 3505
-612.715 968.794 3505
-606.92 972.94 3520
-598.503 972.94 3520
-591.259 974.875 3527
-585.303 979.021 3542
-576.833 979.021 3542
-568.363 979.021 3542
-561 980.956 3549
-552.513 980.956 3549
-544.026 980.956 3549
-535.54 980.956 3549
-526.013 979.021 3542
-519.735 983.167 3557
-511.229 983.167 3557
-502.723 983.167 3557
-496.302 987.313 3572
-490.901 993.671 3595
-483.377 995.882 3603
-474.761 995.882 3603
-468.215 1000.3 3619
-459.561 1000.3 3619
-450.907 1000.3 3619
-442.253 1000.3 3619
-276.596 995.882 3603
-267.981 995.882 3603
-259.365 995.882 3603
-249.705 991.736 3588
-240.05 987.313 3572
-231.508 987.313 3572
-220.594 976.81 3534
-212.143 976.81 3534
-202.021 968.794 3505
-193.639 968.794 3505
-184.095 962.714 3483
-174.656 956.633 3461
-165.707 952.763 3447
-157.464 952.763 3447
-149.221 952.763 3447
-140.978 952.763 3447
-132.735 952.763 3447
-124.493 952.763 3447
-115.778 948.893 3433
-107.568 948.893 3433
-99.3589 948.893 3433
-91.1496 948.893 3433
-82.9402 948.893 3433
-74.2737 943.089 3412
-65.5721 935.35 3384
-57.1232 929.545 3363
-49.2856 933.415 3377
-41.2101 933.415 3377
-33.2034 935.35 3384
-25.1112 935.35 3384
-17.019 935.35 3384
-8.92687 935.35 3384
9.77496 595.65 2155
14.9282 595.65 2155
20.0815 595.65 2155
25.2347 595.65 2155
30.388 595.65 2155
35.5413 595.65 2155
40.449 592.056 2142
45.6137 592.609 2144
50.7407 592.609 2144
55.8676 592.609 2144
60.9946 592.609 2144
66.3066 594.268 2150
71.4479 594.268 2150
76.5892 594.268 2150
81.7305 594.268 2150
86.5486 592.056 2142
91.6707 592.056 2142
96.7929 592.056 2142
101.772 591.227 2139
106.887 591.227 2139
112.264 592.609 2144
117.391 592.609 2144
122.689 593.438 2147
128.181 595.097 2153
133.639 596.479 2158
138.799 596.479 2158
144.56 598.966 2167
150.502 602.007 2178
156.139 603.665 2184
161.362 603.665 2184
167.195 605.877 2192
173.145 608.364 2201
178.408 608.364 2201
183.921 609.193 2204
189.192 609.193 2204
195.256 611.681 2213
203.448 620.526 2245
208.817 620.526 2245
215.33 623.843 2257
222.879 629.924 2279
229.23 632.411 2288
234.702 632.411 2288
240.173 632.411 2288
245.644 632.411 2288
251.116 632.411 2288
256.25 631.582 2285
261.715 631.582 2285
266.477 629.924 2279
657.888 865.143 3130
673.026 875.094 3166
680.597 875.094 3166
688.168 875.094 3166
695.739 875.094 3166
704.642 876.752 3172
712.228 876.752 3172
719.813 876.752 3172
727.398 876.752 3172
734.983 876.752 3172
742.568 876.752 3172
748.735 875.094 3166
752.006 870.118 3148
759.534 870.118 3148
769.985 873.435 3160
777.542 873.435 3160
786.589 875.094 3166
797.17 878.41 3178
809.328 883.386 3196
816.97 883.386 3196
824.613 883.386 3196
832.256 883.386 3196
838.321 881.727 3190
845.95 881.727 3190
851.972 880.069 3184
857.967 878.41 3178
865.566 878.41 3178
873.166 878.41 3178
880.765 878.41 3178
891.719 881.727 3190
899.347 881.727 3190
913.799 888.361 3214
921.485 888.361 3214
934.664 893.613 3233
946.184 897.206 3246
957.473 900.523 3258
965.264 900.523 3258
976.937 904.116 3271
986.867 906.051 3278
994.705 906.051 3278
1002.54 906.051 3278
1010.38 906.051 3278
1025.99 912.961 3303
1040.15 918.489 3323
1048.09 918.489 3323
1056.04 918.489 3323
1070.39 924.017 3343
1080.64 925.952 3350
1090.93 927.887 3357
1098.95 927.887 3357
1106.98 927.887 3357
1119.33 931.48 3370
1127.39 931.48 3370
1135.44 931.48 3370
1143.5 931.48 3370
1156.35 935.35 3384
1164.44 935.35 3384
1172.53 935.35 3384
1180.62 935.35 3384
1186.26 933.415 3377
1194.33 933.415 3377
1199.91 931.48 3370
1210.48 933.415 3377
1223.61 937.284 3391
1234.26 939.219 3398
1242.39 939.219 3398
1250.51 939.219 3398
1256.04 937.284 3391
1264.15 937.284 3391
1259.51 927.887 3357
1264.89 925.952 3350
1275.56 927.887 3357
1291.24 933.415 3377
1299.31 933.415 3377
1307.39 933.415 3377
1307.67 927.887 3357
1312.96 925.952 3350
1320.97 925.952 3350
1328.98 925.952 3350
1336.99 925.952 3350
1342.19 924.017 3343
1350.18 924.017 3343
1358.18 924.017 3343
1360.86 920.424 3330
1365.94 918.489 3323
1373.89 918.489 3323
1376.43 914.896 3310
1381.42 912.961 3303
1389.32 912.961 3303
1397.22 912.961 3303
1405.11 912.961 3303
1413.01 912.961 3303
1420.91 912.961 3303
1423.19 909.368 3290
1431.05 909.368 3290
1436.3 907.709 3284
1441.51 906.051 3278
1443.6 902.458 3265
1451.41 902.458 3265
1459.22 902.458 3265
1463.88 900.523 3258
1471.67 900.523 3258
1479.46 900.523 3258
1481.77 897.206 3246
1489.54 897.206 3246
1497.3 897.206 3246
1505.06 897.206 3246
1509.56 895.271 3239
1517.31 895.271 3239
1525.05 895.271 3239
1532.8 895.271 3239
1540.54 895.271 3239
1548.29 895.271 3239
1553.15 893.613 3233
1555.09 890.296 3221
1562.79 890.296 3221
1567.08 888.361 3214
1568.89 885.044 3202
1573.59 883.386 3196
1581.23 883.386 3196
1585.89 881.727 3190
1584.53 876.752 3172
1586.09 873.435 3160
1593.65 873.435 3160
1586 865.143 3130
1584.32 860.168 3112
1586.14 857.127 3101
1578.65 849.112 3072
1586 849.112 3072
1564.82 833.909 3017
1541.29 817.602 2958
1532.13 809.033 2927
1539.13 809.033 2927
1532.4 801.847 2901
1526.07 794.937 2876
1522.82 789.685 2857
1524.3 786.921 2847
1531.11 786.921 2847
1524.95 780.287 2823
1531.7 780.287 2823
1538.45 780.287 2823
1545.2 780.287 2823
1549.2 778.905 2818
1555.94 778.905 2818
1554.92 775.036 2804
1564.41 776.418 2809
1578.96 780.287 2823
1585.71 780.287 2823
1600.35 784.157 2837
1615.64 788.303 2852
1633.26 793.555 2871
1640.13 793.555 2871
1647 793.555 2871
2022.74 954.698 3454
2031 954.698 3454
2043.39 956.633 3461
2060.56 960.779 3476
2068.87 960.779 3476
2077.19 960.779 3476
2089.7 962.714 3483
2102.24 964.648 3490
2110.59 964.648 3490
2118.93 964.648 3490
2123.01 962.714 3483
2127.06 960.779 3476
2135.37 960.779 3476
2134.43 956.633 3461
2095.04 935.35 3384
2111.83 939.219 3398
2119.96 939.219 3398
2128.08 939.219 3398
2131.81 937.284 3391
2131.08 933.415 3377
2126.49 927.887 3357
2134.51 927.887 3357
2117.01 916.831 3317
2099.96 906.051 3278
2099.44 902.458 3265
2107.25 902.458 3265
2115.06 902.458 3265
2118.31 900.523 3258
2109.79 893.613 3233
2117.52 893.613 3233
2125.25 893.613 3233
2132.98 893.613 3233
2144.69 895.271 3239
2165.06 900.523 3258
2202.86 912.961 3303
2210.76 912.961 3303
2223.36 914.896 3310
2231.27 914.896 3310
2239.19 914.896 3310
2247.1 914.896 3310
2250.25 912.961 3303
2245.16 907.709 3284
2253.01 907.709 3284
2260.87 907.709 3284
2268.72 907.709 3284
2263.4 902.458 3265
2266.34 900.523 3258
2274.13 900.523 3258
2277.72 898.864 3252
2281.28 897.206 3246
2279.87 893.613 3233
2287.6 893.613 3233
2286.81 890.296 3221
2294.52 890.296 3221
2297.22 888.361 3214
2304.9 888.361 3214
2312.59 888.361 3214
2311.61 885.044 3202
2297.54 876.752 3172
2292.04 871.777 3154
2299.58 871.777 3154
2307.13 871.777 3154
2319.07 873.435 3160
2326.63 873.435 3160
2334.18 873.435 3160
2341.74 873.435 3160
2349.3 873.435 3160
2352.38 871.777 3154
2364.41 873.435 3160
2371.97 873.435 3160
2379.52 873.435 3160
2387.08 873.435 3160
2394.64 873.435 3160
2402.19 873.435 3160
2409.75 873.435 3160
2417.31 873.435 3160
-2449.08 911.952 3271
-2441.26 911.952 3271
-2433.43 911.952 3271
-2425.61 911.952 3271
-2417.79 911.952 3271
-2409.97 911.952 3271
-2378.65 903.03 3239
-2370.9 903.03 3239
-2363.16 903.03 3239
-2355.41 903.03 3239
-2105.42 915.576 3284
-2097.57 915.576 3284
-2136.17 935.928 3357
-2154.13 947.359 3398
-2168.11 957.117 3433
-2159.9 957.117 3433
-2156.08 959.069 3440
-2202.18 983.324 3527
-2203.07 987.506 3542
-2194.6 987.506 3542
-2186.13 987.506 3542
-2172.74 985.276 3534
-2164.29 985.276 3534
-2151.57 983.324 3527
-2147.39 985.276 3534
-2152.86 991.688 3557
-2144.36 991.688 3557
-2135.85 991.688 3557
-2118.37 987.506 3542
-2096.8 981.373 3520
-2088.38 981.373 3520
-2079.96 981.373 3520
-2079.78 985.276 3534
-2071.33 985.276 3534
-2062.88 985.276 3534
-2046.29 981.373 3520
-1995.61 961.02 3447
-1983.33 959.069 3440
-1975.11 959.069 3440
-1958.88 955.166 3426
-1942.71 951.262 3412
-1892.03 930.352 3337
-1884.05 930.352 3337
-1842.9 913.903 3278
-1827.78 910.279 3265
-1819.98 910.279 3265
-1812.17 910.279 3265
-1797.18 906.655 3252
-1786.1 904.982 3246
-1788.75 910.279 3265
-1784.21 911.952 3271
-1780.19 913.903 3278
-1772.35 913.903 3278
-1764.51 913.903 3278
-1742.74 906.655 3252
-1734.97 906.655 3252
-1713.91 899.685 3227
-1709.37 901.357 3233
-1714.79 908.327 3258
-1710.67 910.279 3265
-1702.86 910.279 3265
-1695.06 910.279 3265
-1653.74 949.311 3405
-1645.6 949.311 3405
-1637.46 949.311 3405
-1629.32 949.311 3405
-1621.17 949.311 3405
-1613.03 949.311 3405
-1601.59 947.359 3398
-1333.04 908.327 3258
-1341.11 919.201 3297
-1333.23 919.201 3297
-1330.57 922.825 3310
-1325.45 924.776 3317
-1319.91 926.449 3323
-1311.96 926.449 3323
-1304.01 926.449 3323
-1293.73 924.776 3317
-1285.79 924.776 3317
-1277.86 924.776 3317
-1262.27 919.201 3297
-1254.39 919.201 3297
-1248.77 920.873 3303
-1240.88 920.873 3303
-1232.98 920.873 3303
-1225.08 920.873 3303
-1247.03 943.456 3384
-1238.94 943.456 3384
-1230.84 943.456 3384
-1175.06 906.655 3252
-1167.28 906.655 3252
-1157.36 904.982 3246
-1149.6 904.982 3246
-1139.38 903.03 3239
-1131.63 903.03 3239
-895.638 974.96 3497
-889.305 977.191 3505
-888.213 985.276 3534
-879.762 985.276 3534
-871.311 985.276 3534
-862.86 985.276 3534
-854.409 985.276 3534
-844.283 983.324 3527
-631.676 955.166 3426
-626.031 959.069 3440
-617.805 959.069 3440
-613.3 964.924 3461
-605.024 964.924 3461
-604.334 977.191 3505
-595.952 977.191 3505
-588.744 979.142 3512
-581.668 981.373 3520
-573.251 981.373 3520
-564.833 981.373 3520
-557.522 983.324 3527
-549.088 983.324 3527
-540.654 983.324 3527
-531.164 981.373 3520
-524.825 985.276 3534
-518.566 989.458 3549
-511.229 991.688 3557
-502.723 991.688 3557
-495.329 993.919 3565
-488.852 998.101 3580
-482.304 1002.28 3595
-473.707 1002.28 3595
-467.18 1006.74 3611
-458.545 1006.74 3611
-449.91 1006.74 3611
-439.32 1002.28 3595
-245.947 985.276 3534
-237.496 985.276 3534
-229.045 985.276 3534
-220.594 985.276 3534
-211.723 983.324 3527
-202.021 977.191 3505
-193.639 977.191 3505
-184.095 971.057 3483
-174.656 964.924 3461
-165.707 961.02 3447
-157.464 961.02 3447
-149.221 961.02 3447
-140.978 961.02 3447
-132.735 961.02 3447
-124.493 961.02 3447
-115.305 953.214 3419
-107.13 953.214 3419
-99.3589 957.117 3433
-91.1496 957.117 3433
-82.9402 957.117 3433
-74.2737 951.262 3412
-65.5721 943.456 3384
-57.1232 937.601 3363
-49.2856 941.504 3377
-41.2101 941.504 3377
-33.2034 943.456 3384
-25.1112 943.456 3384
-17.019 943.456 3384
-8.92687 943.456 3384
9.77496 600.812 2155
14.9282 600.812 2155
20.0815 600.812 2155
25.2347 600.812 2155
30.388 600.812 2155
35.5413 600.812 2155
40.449 597.188 2142
45.6137 597.745 2144
50.7407 597.745 2144
55.8676 597.745 2144
60.9946 597.745 2144
66.3066 599.418 2150
71.4479 599.418 2150
76.5892 599.418 2150
81.7305 599.418 2150
86.5486 597.188 2142
91.6707 597.188 2142
96.7929 597.188 2142
101.772 596.351 2139
106.887 596.351 2139
112.159 597.188 2142
117.282 597.188 2142
122.518 597.745 2144
128.181 600.254 2153
133.639 601.648 2158
138.799 601.648 2158
144.36 603.321 2164
150.502 607.224 2178
156.139 608.897 2184
161.362 608.897 2184
167.195 611.128 2192
173.145 613.637 2201
178.408 613.637 2201
183.671 613.637 2201
188.934 613.637 2201
195.256 616.982 2213
203.448 625.904 2245
208.817 625.904 2245
215.33 629.249 2257
222.879 635.383 2279
229.23 637.892 2288
234.702 637.892 2288
240.173 637.892 2288
245.644 637.892 2288
251.116 637.892 2288
256.25 637.056 2285
261.715 637.056 2285
266.477 635.383 2279
657.888 872.641 3130
669.2 877.659 3148
680.597 882.678 3166
688.168 882.678 3166
695.739 882.678 3166
703.31 882.678 3166
710.88 882.678 3166
718.451 882.678 3166
726.022 882.678 3166
733.593 882.678 3166
741.164 882.678 3166
748.735 882.678 3166
752.006 877.659 3148
758.086 875.987 3142
767.061 877.659 3148
774.589 877.659 3148
786.589 882.678 3166
797.17 886.023 3178
809.328 891.042 3196
818.504 892.715 3202
826.161 892.715 3202
833.818 892.715 3202
838.321 889.369 3190
845.95 889.369 3190
851.972 887.696 3184
859.586 887.696 3184
865.566 886.023 3178
873.166 886.023 3178
880.765 886.023 3178
891.719 889.369 3190
899.347 889.369 3190
913.799 896.06 3214
921.485 896.06 3214
934.664 901.357 3233
946.184 904.982 3246
957.473 908.327 3258
965.264 908.327 3258
976.937 911.952 3271
986.867 913.903 3278
994.705 913.903 3278
1002.54 913.903 3278
1010.38 913.903 3278
1025.99 920.873 3303
1040.15 926.449 3323
1048.09 926.449 3323
1056.04 926.449 3323
1070.39 932.025 3343
1080.64 933.977 3350
1090.93 935.928 3357
1098.95 935.928 3357
1106.98 935.928 3357
1119.33 939.553 3370
1127.39 939.553 3370
1135.44 939.553 3370
1143.5 939.553 3370
1156.35 943.456 3384
1164.44 943.456 3384
1172.53 943.456 3384
1180.62 943.456 3384
1186.26 941.504 3377
1194.33 941.504 3377
1199.91 939.553 3370
1210.48 941.504 3377
1223.61 945.408 3391
1234.26 947.359 3398
1242.39 947.359 3398
1250.51 947.359 3398
1256.04 945.408 3391
1264.15 945.408 3391
1259.51 935.928 3357
1264.89 933.977 3350
1283.16 941.504 3377
1291.24 941.504 3377
1299.31 941.504 3377
1307.39 941.504 3377
1312.74 939.553 3370
1315.7 935.928 3357
1323.73 935.928 3357
1331.75 935.928 3357
1339.78 935.928 3357
1345 933.977 3350
1353.01 933.977 3350
1358.18 932.025 3343
1366.17 932.025 3343
1371.7 930.352 3337
1379.68 930.352 3337
1379.34 924.776 3317
1384.35 922.825 3310
1389.32 920.873 3303
1397.22 920.873 3303
1405.11 920.873 3303
1413.01 920.873 3303
1420.91 920.873 3303
1423.19 917.249 3290
1431.05 917.249 3290
1436.3 915.576 3284
1441.51 913.903 3278
1443.6 910.279 3265
1451.41 910.279 3265
1459.22 910.279 3265
1463.88 908.327 3258
1471.67 908.327 3258
1479.46 908.327 3258
1481.77 904.982 3246
1489.54 904.982 3246
1497.3 904.982 3246
1505.06 904.982 3246
1509.56 903.03 3239
1517.31 903.03 3239
1525.05 903.03 3239
1532.8 903.03 3239
1540.54 903.03 3239
1548.29 903.03 3239
1553.15 901.357 3233
1555.09 898.012 3221
1562.79 898.012 3221
1567.08 896.06 3214
1568.89 892.715 3202
1573.59 891.042 3196
1581.23 891.042 3196
1585.89 889.369 3190
1584.53 884.351 3172
1586.09 881.005 3160
1593.65 881.005 3160
1586 872.641 3130
1587.38 869.295 3118
1586.14 864.556 3101
1581.73 858.143 3078
1589.09 858.143 3078
1567.41 842.531 3022
1557.96 833.609 2990
1542.6 821.621 2947
1549.65 821.621 2947
1540.85 813.257 2917
1528.72 803.22 2881
1527.62 799.038 2866
1524.3 793.741 2847
1531.11 793.741 2847
1532.51 790.953 2837
1534.41 788.444 2828
1541.18 788.444 2828
1547.94 788.444 2828
1551.95 787.05 2823
1558.7 787.05 2823
1562.68 785.656 2818
1572.2 787.05 2823
1586.79 790.953 2837
1593.57 790.953 2837
1616.71 799.038 2866
1637.73 806.008 2891
1650.33 808.796 2901
1657.27 808.796 2901
1664.21 808.796 2901
2022.74 962.972 3454
2031 962.972 3454
2043.39 964.924 3461
2060.56 969.106 3476
2068.87 969.106 3476
2077.19 969.106 3476
2089.7 971.057 3483
2102.24 973.009 3490
2110.59 973.009 3490
2118.93 973.009 3490
2123.01 971.057 3483
2127.06 969.106 3476
2135.37 969.106 3476
2134.43 964.924 3461
2095.04 943.456 3384
2111.83 947.359 3398
