1902.83 -234.5 2535
1911.9 -234.87 2539
1917.97 -234.87 2539
1924.05 -234.87 2539
1936.2 -235.61 2547
1942.29 -235.61 2547
1948.38 -235.61 2547
-2348.68 -298.893 3317
-2340.74 -298.893 3317
-2332.81 -298.893 3317
-2319.97 -298.262 3310
-2312.06 -298.262 3310
-2295.09 -297.09 3297
-2314.96 -300.695 3337
-2324.95 -303.038 3363
-2345.85 -306.822 3405
-2337.71 -306.822 3405
-2329.56 -306.822 3405
-2321.42 -306.822 3405
-2313.28 -306.822 3405
-2305.14 -306.822 3405
-2296.99 -306.822 3405
-2288.85 -306.822 3405
-2280.71 -306.822 3405
-2272.57 -306.822 3405
-2264.42 -306.822 3405
-2260.92 -307.453 3412
-2266.63 -309.345 3433
-2258.42 -309.345 3433
-2250.21 -309.345 3433
-2242 -309.345 3433
-2242.9 -310.607 3447
-2234.66 -310.607 3447
-2254.19 -314.481 3490
-2269.65 -317.816 3527
-2265.7 -318.446 3534
-2257.25 -318.446 3534
-2248.8 -318.446 3534
-2240.35 -318.446 3534
-2266 -323.312 3588
-2257.42 -323.312 3588
-2268.27 -326.106 3619
-2273.98 -328.178 3642
-2270.25 -328.899 3650
-2261.52 -328.899 3650
-2283.03 -333.314 3699
-2299.4 -337.009 3740
-2295.96 -337.82 3749
-2287 -337.82 3749
-2278.03 -337.82 3749
-1923.53 -338.541 3757
-1914.55 -338.541 3757
-1905.56 -338.541 3757
-1892.54 -337.82 3749
-1866.99 -334.846 3716
-1849.61 -333.314 3699
-1840.76 -333.314 3699
-1827.95 -332.593 3691
-1823.07 -333.314 3699
-1814.23 -333.314 3699
-1805.38 -333.314 3699
-810.774 -254.379 2823
-804.023 -254.379 2823
-797.273 -254.379 2823
-787.722 -253.477 2813
-780.995 -253.477 2813
-771.791 -252.667 2804
-761.266 -251.405 2790
-753.242 -250.954 2785
-746.582 -250.954 2785
-736.203 -249.693 2771
-724.837 -248.071 2753
-706.514 -244.016 2708
-710.378 -247.62 2748
-703.807 -247.62 2748
-697.236 -247.62 2748
-690.664 -247.62 2748
-684.093 -247.62 2748
-677.522 -247.62 2748
-668.753 -246.809 2739
-668.973 -249.332 2767
-662.356 -249.332 2767
-655.739 -249.332 2767
-711.023 -300.695 3337
-703.044 -300.695 3337
-695.064 -300.695 3337
-691.202 -302.497 3357
-685.82 -303.668 3370
-681.985 -305.561 3391
-673.876 -305.561 3391
-669.89 -307.453 3412
-663.088 -308.084 3419
-654.913 -308.084 3419
-646.737 -308.084 3419
-639.868 -308.714 3426
-631.676 -308.714 3426
-623.483 -308.714 3426
-615.29 -308.714 3426
-607.098 -308.714 3426
-597.682 -308.084 3419
-589.506 -308.084 3419
-581.33 -308.084 3419
-571.98 -307.453 3412
-562.665 -306.822 3405
-554.522 -306.822 3405
-546.38 -306.822 3405
-538.237 -306.822 3405
-530.095 -306.822 3405
-523.026 -307.453 3412
-514.867 -307.453 3412
-506.707 -307.453 3412
-498.548 -307.453 3412
-490.389 -307.453 3412
-482.23 -307.453 3412
-476.016 -308.714 3426
-467.824 -308.714 3426
-459.631 -308.714 3426
-451.438 -308.714 3426
-443.246 -308.714 3426
-432.386 -306.822 3405
-424.244 -306.822 3405
-415.246 -306.191 3398
-407.121 -306.191 3398
-398.173 -305.561 3391
-388.454 -304.299 3377
-380.378 -304.299 3377
-371.531 -303.668 3370
-362.07 -302.497 3357
-351.933 -300.695 3337
-343.954 -300.695 3337
-334.564 -299.433 3323
-200.708 -184.003 2042
-196.017 -184.183 2044
-191.129 -184.183 2044
-186.241 -184.183 2044
-181.62 -184.454 2047
-176.725 -184.454 2047
-171.83 -184.454 2047
-166.935 -184.454 2047
-162.04 -184.454 2047
-157.298 -184.634 2049
-153.217 -185.625 2060
-148.291 -185.625 2060
-143.713 -186.076 2065
-138.909 -186.256 2067
-134.161 -186.526 2070
-129.211 -186.526 2070
-124.381 -186.706 2072
-119.599 -186.977 2075
-114.637 -186.977 2075
-109.675 -186.977 2075
-104.713 -186.977 2075
-100.135 -187.698 2083
-95.2458 -187.878 2085
-90.2599 -187.878 2085
-85.3967 -188.148 2088
-80.5192 -188.419 2091
-75.6996 -188.869 2096
-70.6874 -188.869 2096
-65.7379 -189.049 2098
-60.8946 -189.59 2104
-55.9164 -189.77 2106
-50.8803 -189.77 2106
-45.8442 -189.77 2106
-40.8081 -189.77 2106
-35.7721 -189.77 2106
-30.736 -189.77 2106
-25.6999 -189.77 2106
-20.6638 -189.77 2106
-15.6277 -189.77 2106
-10.5916 -189.77 2106
-5.55555 -189.77 2106
-0.519469 -189.77 2106
4.51662 -189.77 2106
9.5527 -189.77 2106
14.5888 -189.77 2106
19.6062 -189.59 2104
24.6375 -189.59 2104
29.6688 -189.59 2104
34.6507 -189.32 2101
39.7314 -189.59 2104
44.7627 -189.59 2104
49.794 -189.59 2104
54.8253 -189.59 2104
59.8566 -189.59 2104
64.8879 -189.59 2104
69.9193 -189.59 2104
74.9505 -189.59 2104
80.1719 -190.041 2109
85.2152 -190.041 2109
90.2584 -190.041 2109
95.3017 -190.041 2109
100.488 -190.311 2112
105.638 -190.491 2114
110.693 -190.491 2114
116.077 -191.032 2120
121.147 -191.032 2120
126.335 -191.212 2122
131.967 -192.023 2131
137.063 -192.023 2131
142.159 -192.023 2131
147.6 -192.473 2136
152.922 -192.744 2139
158.259 -193.014 2142
163.381 -193.014 2142
168.661 -193.194 2144
174.274 -193.735 2150
179.666 -194.005 2153
184.814 -194.005 2153
190.139 -194.186 2155
195.564 -194.456 2158
201.562 -195.267 2167
206.744 -195.267 2167
212.708 -195.988 2175
218.51 -196.528 2181
224.546 -197.249 2189
229.781 -197.249 2189
235.337 -197.52 2192
240.579 -197.52 2192
247.503 -198.871 2207
252.781 -198.871 2207
258.994 -199.592 2215
264.648 -199.862 2218
272.143 -201.484 2236
277.49 -201.484 2236
282.837 -201.484 2236
426.966 -264.201 2932
433.977 -264.201 2932
453.773 -271.86 3017
460.988 -271.86 3017
468.202 -271.86 3017
471.162 -269.427 2990
473.193 -266.543 2958
477.669 -265.102 2942
478.773 -261.858 2906
485.722 -261.858 2906
490.128 -260.506 2891
496.182 -260.055 2886
500.468 -258.704 2871
507.334 -258.704 2871
514.199 -258.704 2871
521.065 -258.704 2871
527.93 -258.704 2871
534.795 -258.704 2871
539.02 -257.442 2857
545.852 -257.442 2857
550.749 -256.541 2847
557.557 -256.541 2847
562.383 -255.64 2837
567.361 -254.829 2828
572.094 -253.928 2818
577.805 -253.477 2813
584.532 -253.477 2813
591.259 -253.477 2813
597.986 -253.477 2813
604.712 -253.477 2813
611.439 -253.477 2813
618.166 -253.477 2813
624.893 -253.477 2813
631.619 -253.477 2813
638.346 -253.477 2813
645.073 -253.477 2813
651.799 -253.477 2813
658.526 -253.477 2813
665.253 -253.477 2813
671.98 -253.477 2813
679.913 -253.928 2818
686.651 -253.928 2818
693.39 -253.928 2818
700.129 -253.928 2818
706.868 -253.928 2818
714.872 -254.379 2823
721.623 -254.379 2823
731.986 -255.64 2837
738.77 -255.64 2837
745.554 -255.64 2837
753.664 -256.091 2842
760.46 -256.091 2842
767.256 -256.091 2842
774.052 -256.091 2842
780.849 -256.091 2842
787.645 -256.091 2842
794.441 -256.091 2842
797.29 -254.829 2828
804.052 -254.829 2828
810.815 -254.829 2828
817.578 -254.829 2828
822.883 -254.379 2823
829.633 -254.379 2823
837.865 -254.829 2828
844.628 -254.829 2828
855.605 -256.091 2842
881.822 -261.858 2906
888.771 -261.858 2906
895.721 -261.858 2906
891.798 -258.704 2871
889.586 -256.091 2842
896.382 -256.091 2842
898.729 -254.829 2828
902.29 -253.928 2818
909.028 -253.928 2818
915.767 -253.928 2818
922.506 -253.928 2818
1175.57 -321.24 3565
1186.42 -321.87 3572
1194.96 -321.87 3572
1206.2 -322.591 3580
1217.47 -323.312 3588
1236.65 -326.106 3619
1245.3 -326.106 3619
1253.96 -326.106 3619
1265.4 -326.826 3627
1276.88 -327.547 3635
1288.05 -328.178 3642
1296.76 -328.178 3642
1305.47 -328.178 3642
1311.65 -327.547 3635
1320.35 -327.547 3635
1326.11 -326.826 3627
1331.84 -326.106 3619
1337.53 -325.385 3611
1346.17 -325.385 3611
1351.8 -324.664 3603
1363.44 -325.385 3611
1372.07 -325.385 3611
1380.71 -325.385 3611
1389.34 -325.385 3611
1397.98 -325.385 3611
1403.5 -324.664 3603
1415.25 -325.385 3611
1423.88 -325.385 3611
1432.52 -325.385 3611
1441.15 -325.385 3611
1446.58 -324.664 3603
1455.19 -324.664 3603
1463.81 -324.664 3603
1475.69 -325.385 3611
1484.33 -325.385 3611
1492.96 -325.385 3611
1501.6 -325.385 3611
1506.89 -324.664 3603
1515.5 -324.664 3603
1524.12 -324.664 3603
1519.55 -321.87 3572
1531.51 -322.591 3580
1540.07 -322.591 3580
1548.63 -322.591 3580
1557.19 -322.591 3580
1559.19 -321.24 3565
1557.61 -319.167 3542
1556.35 -317.185 3520
1564.77 -317.185 3520
1553.52 -313.22 3476
1526.78 -306.191 3398
1499.46 -243.656 2704
1505.93 -243.656 2704
1512.4 -243.656 2704
1518.86 -243.656 2704
1510.66 -241.313 2678
1517.07 -241.313 2678
1523.47 -241.313 2678
1529.87 -241.313 2678
1536.28 -241.313 2678
1542.68 -241.313 2678
1549.09 -241.313 2678
1535.74 -238.249 2644
1539.73 -237.889 2640
1546.04 -237.889 2640
1552.36 -237.889 2640
1565.75 -238.97 2652
1572.1 -238.97 2652
1578.44 -238.97 2652
1584.78 -238.97 2652
1591.12 -238.97 2652
1584.81 -237.078 2631
1591.11 -237.078 2631
1597.4 -237.078 2631
1603.69 -237.078 2631
1609.98 -237.078 2631
1608.9 -235.996 2619
1620.1 -236.717 2627
1636.9 -238.249 2644
1643.23 -238.249 2644
1649.55 -238.249 2644
1655.87 -238.249 2644
1654.02 -237.078 2631
1671.04 -238.609 2648
1677.37 -238.609 2648
1683.7 -238.609 2648
1687.48 -238.249 2644
1693.81 -238.249 2644
1694.34 -237.438 2635
1698.06 -237.078 2631
1693.99 -235.636 2615
1700.24 -235.636 2615
1706.49 -235.636 2615
1712.75 -235.636 2615
1719 -235.636 2615
1730.53 -236.357 2623
1739.45 -236.717 2627
1745.73 -236.717 2627
1752.02 -236.717 2627
1755.62 -236.357 2623
1761.89 -236.357 2623
1751.99 -234.194 2599
1758.2 -234.194 2599
1764.42 -234.194 2599
1770.63 -234.194 2599
1776.85 -234.194 2599
1779.63 -233.744 2594
1780.33 -233.023 2586
1809.31 -235.996 2619
1815.57 -235.996 2619
1824.62 -236.357 2623
1845.55 -238.249 2644
1851.87 -238.249 2644
1858.19 -238.249 2644
1852.53 -236.717 2627
1853.15 -235.996 2619
1850.89 -234.915 2607
1857.13 -234.915 2607
1863.36 -234.915 2607
1866.73 -234.555 2603
1872.95 -234.555 2603
1879.18 -234.555 2603
1885.4 -234.555 2603
1888.72 -234.194 2599
1907.24 -232.662 2582
1913.41 -232.662 2582
1919.58 -232.662 2582
1922.78 -232.302 2578
1914.72 -230.59 2559
1917.84 -230.229 2555
1923.95 -230.229 2555
1927.04 -229.869 2551
1924.05 -228.788 2539
1936.2 -229.508 2547
1942.29 -229.508 2547
1948.38 -229.508 2547
-2348.68 -290.947 3317
-2340.74 -290.947 3317
-2332.81 -290.947 3317
-2319.97 -290.333 3310
-2312.06 -290.333 3310
-2295.09 -289.192 3297
-2310.1 -292.087 3330
-2324.95 -294.982 3363
-2336.2 -297.438 3391
-2328.09 -297.438 3391
-2329.56 -298.665 3405
-2321.42 -298.665 3405
-2313.28 -298.665 3405
-2300.4 -298.051 3398
-2287.55 -297.438 3391
-2279.44 -297.438 3391
-2276.02 -298.051 3398
-2267.89 -298.051 3398
-2264.42 -298.665 3405
-2260.92 -299.279 3412
-2266.63 -301.121 3433
-2258.42 -301.121 3433
-2250.21 -301.121 3433
-2242 -301.121 3433
-2242.9 -302.349 3447
-2234.66 -302.349 3447
-2254.19 -306.121 3490
-2269.65 -309.367 3527
-2265.7 -309.981 3534
-2257.25 -309.981 3534
-2248.8 -309.981 3534
-2240.35 -309.981 3534
-2266 -314.717 3588
-2257.42 -314.717 3588
-2268.27 -317.436 3619
-2273.98 -319.454 3642
-2270.25 -320.155 3650
-2261.52 -320.155 3650
-2283.03 -324.453 3699
-2299.4 -328.05 3740
-2295.96 -328.839 3749
-2287 -328.839 3749
-2278.03 -328.839 3749
-1923.53 -329.541 3757
-1914.55 -329.541 3757
-1905.56 -329.541 3757
-1892.54 -328.839 3749
-1866.99 -325.944 3716
-1849.61 -324.453 3699
-1840.76 -324.453 3699
-1827.95 -323.752 3691
-1823.07 -324.453 3699
-1814.23 -324.453 3699
-1805.38 -324.453 3699
-810.774 -247.616 2823
-804.023 -247.616 2823
-797.273 -247.616 2823
-787.722 -246.739 2813
-780.995 -246.739 2813
-771.791 -245.949 2804
-761.266 -244.721 2790
-753.242 -244.283 2785
-746.582 -244.283 2785
-736.203 -243.055 2771
-724.837 -241.476 2753
-706.514 -237.529 2708
-710.378 -241.038 2748
-703.807 -241.038 2748
-697.236 -241.038 2748
-690.664 -241.038 2748
-684.093 -241.038 2748
-677.522 -241.038 2748
-668.753 -240.248 2739
-668.973 -242.704 2767
-662.356 -242.704 2767
-655.739 -242.704 2767
-706.762 -290.947 3317
-698.83 -290.947 3317
-690.898 -290.947 3317
-689.761 -293.841 3350
-685.82 -295.595 3370
-681.985 -297.438 3391
-673.876 -297.438 3391
-669.89 -299.279 3412
-663.088 -299.893 3419
-654.913 -299.893 3419
-646.737 -299.893 3419
-639.868 -300.507 3426
-631.676 -300.507 3426
-623.483 -300.507 3426
-615.29 -300.507 3426
-607.098 -300.507 3426
-597.682 -299.893 3419
-589.506 -299.893 3419
-581.33 -299.893 3419
-571.98 -299.279 3412
-562.665 -298.665 3405
-554.522 -298.665 3405
-546.38 -298.665 3405
-538.237 -298.665 3405
-530.095 -298.665 3405
-521.953 -298.665 3405
-513.81 -298.665 3405
-506.707 -299.279 3412
-498.548 -299.279 3412
-490.389 -299.279 3412
-480.251 -298.051 3398
-474.071 -299.279 3412
-467.824 -300.507 3426
-459.631 -300.507 3426
-451.438 -300.507 3426
-440.529 -298.665 3405
-431.497 -298.051 3398
-423.372 -298.051 3398
-414.391 -297.438 3391
-406.282 -297.438 3391
-396.529 -296.21 3377
-387.648 -295.595 3370
-379.59 -295.595 3370
-371.531 -295.595 3370
-362.07 -294.455 3357
-351.933 -292.701 3337
-343.954 -292.701 3337
-334.564 -291.473 3323
-196.017 -179.287 2044
-191.129 -179.287 2044
-186.241 -179.287 2044
-181.62 -179.55 2047
-176.725 -179.55 2047
-171.83 -179.55 2047
-166.935 -179.55 2047
-162.04 -179.55 2047
-157.298 -179.726 2049
-153.217 -180.69 2060
-148.291 -180.69 2060
-143.713 -181.129 2065
-138.909 -181.304 2067
-134.161 -181.568 2070
-129.211 -181.568 2070
-124.381 -181.743 2072
-119.599 -182.006 2075
-114.637 -182.006 2075
-109.675 -182.006 2075
-104.713 -182.006 2075
-100.135 -182.708 2083
-95.2458 -182.883 2085
-90.2599 -182.883 2085
-85.3967 -183.146 2088
-80.5192 -183.41 2091
-75.6996 -183.848 2096
-70.6874 -183.848 2096
-65.7379 -184.024 2098
-60.8946 -184.55 2104
-55.9164 -184.725 2106
-50.8803 -184.725 2106
-45.8442 -184.725 2106
-40.8081 -184.725 2106
-35.7721 -184.725 2106
-30.736 -184.725 2106
-25.6999 -184.725 2106
-20.6638 -184.725 2106
-15.6277 -184.725 2106
-10.5916 -184.725 2106
-5.55555 -184.725 2106
-0.519469 -184.725 2106
4.51233 -184.55 2104
9.54363 -184.55 2104
14.5749 -184.55 2104
19.6062 -184.55 2104
24.6375 -184.55 2104
29.6688 -184.55 2104
34.6507 -184.287 2101
39.7314 -184.55 2104
44.7627 -184.55 2104
49.794 -184.55 2104
54.8253 -184.55 2104
59.8566 -184.55 2104
64.8879 -184.55 2104
69.9193 -184.55 2104
74.9505 -184.55 2104
80.1719 -184.988 2109
85.2152 -184.988 2109
90.2584 -184.988 2109
95.3017 -184.988 2109
100.488 -185.252 2112
105.638 -185.427 2114
110.693 -185.427 2114
116.077 -185.953 2120
121.147 -185.953 2120
126.335 -186.129 2122
131.967 -186.918 2131
137.063 -186.918 2131
142.159 -186.918 2131
147.6 -187.357 2136
152.922 -187.62 2139
158.259 -187.883 2142
163.381 -187.883 2142
168.661 -188.058 2144
174.274 -188.585 2150
179.666 -188.848 2153
184.814 -188.848 2153
190.139 -189.023 2155
195.564 -189.286 2158
201.562 -190.076 2167
206.744 -190.076 2167
212.708 -190.778 2175
218.51 -191.304 2181
224.546 -192.006 2189
229.781 -192.006 2189
235.015 -192.006 2189
240.579 -192.269 2192
247.503 -193.584 2207
252.781 -193.584 2207
258.994 -194.286 2215
264.648 -194.549 2218
272.143 -196.128 2236
277.49 -196.128 2236
282.837 -196.128 2236
426.966 -257.177 2932
433.977 -257.177 2932
449.712 -262.264 2990
456.862 -262.264 2990
464.012 -262.264 2990
466.12 -259.457 2958
471.434 -258.493 2947
475.233 -256.738 2927
477.949 -254.458 2901
484.886 -254.458 2901
489.28 -253.142 2886
493.603 -251.826 2871
500.468 -251.826 2871
507.334 -251.826 2871
514.199 -251.826 2871
521.065 -251.826 2871
527.93 -251.826 2871
534.795 -251.826 2871
539.02 -250.598 2857
545.852 -250.598 2857
550.749 -249.721 2847
557.557 -249.721 2847
562.383 -248.844 2837
567.361 -248.055 2828
572.094 -247.177 2818
577.805 -246.739 2813
584.532 -246.739 2813
591.259 -246.739 2813
597.986 -246.739 2813
604.712 -246.739 2813
611.439 -246.739 2813
618.166 -246.739 2813
624.893 -246.739 2813
631.619 -246.739 2813
638.346 -246.739 2813
645.073 -246.739 2813
651.799 -246.739 2813
658.526 -246.739 2813
665.253 -246.739 2813
671.98 -246.739 2813
679.913 -247.177 2818
686.651 -247.177 2818
693.39 -247.177 2818
700.129 -247.177 2818
705.613 -246.739 2813
713.606 -247.177 2818
720.345 -247.177 2818
728.374 -247.616 2823
735.124 -247.616 2823
743.189 -248.055 2828
753.664 -249.283 2842
760.46 -249.283 2842
767.256 -249.283 2842
774.052 -249.283 2842
780.849 -249.283 2842
787.645 -249.283 2842
793.043 -248.844 2837
797.29 -248.055 2828
804.052 -248.055 2828
810.815 -248.055 2828
817.578 -248.055 2828
822.883 -247.616 2823
829.633 -247.616 2823
837.865 -248.055 2828
844.628 -248.055 2828
855.605 -249.283 2842
863.919 -249.721 2847
870.727 -249.721 2847
877.535 -249.721 2847
882.79 -249.283 2842
888.021 -248.844 2837
894.805 -248.844 2837
898.729 -248.055 2828
902.29 -247.177 2818
909.028 -247.177 2818
915.767 -247.177 2818
922.506 -247.177 2818
1186.42 -313.314 3572
1194.96 -313.314 3572
1206.2 -314.015 3580
1217.47 -314.717 3588
1236.65 -317.436 3619
1245.3 -317.436 3619
1253.96 -317.436 3619
1265.4 -318.138 3627
1276.88 -318.84 3635
1288.05 -319.454 3642
1296.76 -319.454 3642
1305.47 -319.454 3642
1311.65 -318.84 3635
1320.35 -318.84 3635
1326.11 -318.138 3627
1331.84 -317.436 3619
1337.53 -316.735 3611
1346.17 -316.735 3611
1351.8 -316.033 3603
1363.44 -316.735 3611
1372.07 -316.735 3611
1380.71 -316.735 3611
1389.34 -316.735 3611
1397.98 -316.735 3611
1403.5 -316.033 3603
1415.25 -316.735 3611
1423.88 -316.735 3611
1432.52 -316.735 3611
1441.15 -316.735 3611
1446.58 -316.033 3603
1455.19 -316.033 3603
1463.81 -316.033 3603
1475.69 -316.735 3611
1484.33 -316.735 3611
1492.96 -316.735 3611
1501.6 -316.735 3611
1506.89 -316.033 3603
1515.5 -316.033 3603
1524.12 -316.033 3603
1519.55 -313.314 3572
1531.51 -314.015 3580
1540.07 -314.015 3580
1548.63 -314.015 3580
1557.19 -314.015 3580
1559.19 -312.7 3565
1557.61 -310.682 3542
1556.35 -308.753 3520
1564.77 -308.753 3520
1553.52 -304.893 3476
1526.78 -298.051 3398
1499.46 -237.178 2704
1505.93 -237.178 2704
1512.4 -237.178 2704
1518.86 -237.178 2704
1507.84 -234.459 2673
1514.23 -234.459 2673
1520.63 -234.459 2673
1527.02 -234.459 2673
1531.11 -234.108 2669
1530.01 -232.968 2656
1536.36 -232.968 2656
1535.74 -231.915 2644
1539.73 -231.564 2640
1546.04 -231.564 2640
1552.36 -231.564 2640
1565.75 -232.617 2652
1572.1 -232.617 2652
1578.44 -232.617 2652
1584.78 -232.617 2652
1591.12 -232.617 2652
1584.81 -230.775 2631
1591.11 -230.775 2631
1597.4 -230.775 2631
1603.69 -230.775 2631
1609.98 -230.775 2631
1608.9 -229.722 2619
1620.1 -230.424 2627
1636.9 -231.915 2644
1643.23 -231.915 2644
1649.55 -231.915 2644
1655.87 -231.915 2644
1654.02 -230.775 2631
1668.52 -231.915 2644
1674.84 -231.915 2644
1681.16 -231.915 2644
1687.48 -231.915 2644
1693.81 -231.915 2644
1691.77 -230.775 2631
1692.9 -230.073 2623
1693.99 -229.372 2615
1700.24 -229.372 2615
1706.49 -229.372 2615
1712.75 -229.372 2615
1719 -229.372 2615
1727.89 -229.722 2619
1736.8 -230.073 2623
1743.08 -230.073 2623
1749.35 -230.073 2623
1752.94 -229.722 2619
1759.21 -229.722 2619
1751.99 -227.968 2599
1758.2 -227.968 2599
1764.42 -227.968 2599
1770.63 -227.968 2599
1776.85 -227.968 2599
1779.63 -227.53 2594
1780.33 -226.828 2586
1809.31 -229.722 2619
1815.57 -229.722 2619
1824.62 -230.073 2623
1845.55 -231.915 2644
1851.87 -231.915 2644
1858.19 -231.915 2644
1852.53 -230.424 2627
1853.15 -229.722 2619
1850.89 -228.67 2607
1857.13 -228.67 2607
1863.36 -228.67 2607
1866.73 -228.319 2603
1872.95 -228.319 2603
1879.18 -228.319 2603
1885.4 -228.319 2603
1888.72 -227.968 2599
1907.24 -226.477 2582
1913.41 -226.477 2582
1919.58 -226.477 2582
1922.78 -226.126 2578
1914.72 -224.46 2559
1917.84 -224.109 2555
1923.95 -224.109 2555
1927.04 -223.758 2551
1924.05 -222.705 2539
1936.2 -223.407 2547
1942.29 -223.407 2547
1948.38 -223.407 2547
-2343.72 -282.404 3310
-2335.8 -282.404 3310
-2327.89 -282.404 3310
-2319.97 -282.404 3310
-2312.06 -282.404 3310
-2290.22 -280.697 3290
-2301.08 -283.001 3317
-2311.13 -285.219 3343
-2321.73 -287.523 3370
-2313.68 -287.523 3370
-2305.62 -287.523 3370
-2297.56 -287.523 3370
-2289.5 -287.523 3370
-2272.64 -286.414 3357
-2278.1 -288.12 3377
-2274.73 -288.717 3384
-2276.02 -289.912 3398
-2267.89 -289.912 3398
-2264.42 -290.509 3405
-2265.56 -291.703 3419
-2266.63 -292.898 3433
-2258.42 -292.898 3433
-2250.21 -292.898 3433
-2246.57 -293.495 3440
-2270.88 -297.761 3490
-2262.53 -297.761 3490
-2282.61 -301.515 3534
-2279.3 -302.197 3542
-2275.32 -302.795 3549
-2266.83 -302.795 3549
-2258.35 -302.795 3549
-2269.51 -305.439 3580
-2285.58 -308.767 3619
-2276.93 -308.767 3619
-2282.69 -310.729 3642
-2278.98 -311.412 3650
-2275.22 -312.094 3658
-2266.48 -312.094 3658
-2293.53 -317.043 3716
-2304.93 -319.858 3749
-2311.27 -321.991 3774
-2302.25 -321.991 3774
-2293.22 -321.991 3774
-1986.46 -327.964 3844
-1977.26 -327.964 3844
-1968.07 -327.964 3844
-1936.46 -324.21 3800
-1927.37 -324.21 3800
-1892.54 -319.858 3749
-1866.99 -317.043 3716
-1849.61 -315.592 3699
-1840.76 -315.592 3699
-1827.95 -314.91 3691
-1823.07 -315.592 3699
-1814.23 -315.592 3699
-1805.38 -315.592 3699
-828.819 -244.181 2862
-821.975 -244.181 2862
-815.131 -244.181 2862
-802.639 -242.475 2842
-790.522 -240.854 2823
-783.772 -240.854 2823
-774.268 -240 2813
-765.086 -239.232 2804
-754.594 -238.038 2790
-747.923 -238.038 2790
-741.251 -238.038 2790
-729.577 -236.417 2771
-718.254 -234.881 2753
-717.617 -236.844 2776
-710.978 -236.844 2776
-704.34 -236.844 2776
-697.702 -236.844 2776
-691.063 -236.844 2776
-684.425 -236.844 2776
-676.566 -236.417 2771
-671.149 -236.844 2776
-672.41 -239.659 2809
-665.693 -239.659 2809
-658.976 -239.659 2809
-649.936 -238.806 2799
-643.243 -238.806 2799
-692.501 -274.213 3214
-702.5 -281.294 3297
-698.83 -283.001 3317
-690.898 -283.001 3317
-685.643 -284.11 3330
-685.82 -287.523 3370
-681.985 -289.314 3391
-673.876 -289.314 3391
-669.89 -291.106 3412
-663.088 -291.703 3419
-654.913 -291.703 3419
-646.737 -291.703 3419
-639.868 -292.3 3426
-631.676 -292.3 3426
-623.483 -292.3 3426
-614.033 -291.703 3419
-605.857 -291.703 3419
-597.682 -291.703 3419
-589.506 -291.703 3419
-581.33 -291.703 3419
-571.98 -291.106 3412
-562.665 -290.509 3405
-554.522 -290.509 3405
-546.38 -290.509 3405
-538.237 -290.509 3405
-530.095 -290.509 3405
-521.953 -290.509 3405
-513.81 -290.509 3405
-505.668 -290.509 3405
-497.525 -290.509 3405
-489.383 -290.509 3405
-480.251 -289.912 3398
-473.098 -290.509 3405
-464.956 -290.509 3405
-456.814 -290.509 3405
-448.671 -290.509 3405
-438.717 -289.314 3391
-430.609 -289.314 3391
-422.5 -289.314 3391
-411.825 -287.523 3370
-403.766 -287.523 3370
-395.707 -287.523 3370
-387.648 -287.523 3370
-379.59 -287.523 3370
-371.531 -287.523 3370
-362.07 -286.414 3357
-351.933 -284.707 3337
-343.954 -284.707 3337
-334.564 -283.513 3323
-190.475 -173.793 2037
-185.604 -173.793 2037
-181.62 -174.647 2047
-176.725 -174.647 2047
-171.83 -174.647 2047
-166.935 -174.647 2047
-162.04 -174.647 2047
-157.529 -175.073 2052
-153.589 -176.182 2065
-148.651 -176.182 2065
-143.852 -176.353 2067
-139.111 -176.609 2070
-134.29 -176.779 2072
-129.335 -176.779 2072
-124.561 -177.035 2075
-119.599 -177.035 2075
-114.637 -177.035 2075
-109.675 -177.035 2075
-104.965 -177.462 2080
-100.232 -177.889 2085
-95.3828 -178.145 2088
-90.3898 -178.145 2088
-85.5194 -178.401 2091
-80.5962 -178.571 2093
-75.6996 -178.827 2096
-70.6874 -178.827 2096
-65.7379 -178.998 2098
-60.9525 -179.68 2106
-55.9164 -179.68 2106
-50.8803 -179.68 2106
-45.9095 -179.936 2109
-40.8663 -179.936 2109
-35.823 -179.936 2109
-30.7798 -179.936 2109
-25.6999 -179.68 2106
-20.6638 -179.68 2106
-15.6277 -179.68 2106
-10.5916 -179.68 2106
-5.55555 -179.68 2106
-0.519469 -179.68 2106
4.51233 -179.51 2104
9.54363 -179.51 2104
14.5749 -179.51 2104
19.6062 -179.51 2104
24.6375 -179.51 2104
29.6688 -179.51 2104
34.6507 -179.254 2101
39.7314 -179.51 2104
44.7627 -179.51 2104
49.794 -179.51 2104
54.8253 -179.51 2104
59.8566 -179.51 2104
64.8879 -179.51 2104
69.9193 -179.51 2104
74.9505 -179.51 2104
80.0579 -179.68 2106
85.2152 -179.936 2109
90.2584 -179.936 2109
95.3017 -179.936 2109
100.488 -180.192 2112
105.638 -180.363 2114
110.693 -180.363 2114
116.077 -180.875 2120
121.147 -180.875 2120
126.335 -181.045 2122
131.967 -181.813 2131
137.063 -181.813 2131
142.159 -181.813 2131
147.6 -182.24 2136
152.922 -182.496 2139
158.407 -182.922 2144
163.534 -182.922 2144
168.897 -183.178 2147
174.517 -183.69 2153
179.832 -183.861 2155
184.986 -183.861 2155
190.404 -184.117 2158
195.836 -184.373 2161
201.562 -184.885 2167
206.744 -184.885 2167
212.708 -185.567 2175
218.51 -186.079 2181
224.546 -186.762 2189
229.781 -186.762 2189
235.015 -186.762 2189
240.579 -187.018 2192
246.83 -187.786 2201
252.093 -187.786 2201
258.409 -188.553 2210
264.648 -189.236 2218
272.143 -190.772 2236
277.49 -190.772 2236
282.837 -190.772 2236
406.465 -246.229 2886
415.515 -247.508 2901
426.966 -250.153 2932
433.977 -250.153 2932
440.989 -250.153 2932
448 -250.153 2932
455.011 -250.153 2932
462.023 -250.153 2932
468.234 -249.727 2927
471.012 -247.508 2901
476.302 -246.655 2891
483.215 -246.655 2891
487.585 -245.375 2876
493.603 -244.949 2871
498.899 -244.181 2862
505.743 -244.181 2862
512.587 -244.181 2862
519.431 -244.181 2862
526.275 -244.181 2862
533.119 -244.181 2862
539.963 -244.181 2862
545.852 -243.754 2857
552.683 -243.754 2857
559.515 -243.754 2857
564.365 -242.901 2847
569.167 -242.048 2837
574.124 -241.28 2828
579.859 -240.854 2823
586.61 -240.854 2823
593.361 -240.854 2823
600.111 -240.854 2823
606.862 -240.854 2823
613.613 -240.854 2823
619.265 -240.427 2818
626.003 -240.427 2818
632.742 -240.427 2818
639.481 -240.427 2818
646.219 -240.427 2818
652.958 -240.427 2818
659.697 -240.427 2818
666.435 -240.427 2818
673.174 -240.427 2818
679.913 -240.427 2818
686.651 -240.427 2818
693.39 -240.427 2818
700.129 -240.427 2818
705.613 -240 2813
713.606 -240.427 2818
720.345 -240.427 2818
728.374 -240.854 2823
735.124 -240.854 2823
743.189 -241.28 2828
749.952 -241.28 2828
757.785 -241.621 2832
764.557 -241.621 2832
771.329 -241.621 2832
778.101 -241.621 2832
784.873 -241.621 2832
789.13 -240.854 2823
797.29 -241.28 2828
804.052 -241.28 2828
810.815 -241.28 2828
817.578 -241.28 2828
822.883 -240.854 2823
829.633 -240.854 2823
837.865 -241.28 2828
844.628 -241.28 2828
855.605 -242.475 2842
862.402 -242.475 2842
869.198 -242.475 2842
875.994 -242.475 2842
882.79 -242.475 2842
886.456 -241.621 2832
893.228 -241.621 2832
898.729 -241.28 2828
902.29 -240.427 2818
909.028 -240.427 2818
915.767 -240.427 2818
922.506 -240.427 2818
927.596 -240 2813
1206.2 -305.439 3580
1217.47 -306.122 3588
1236.65 -308.767 3619
1245.3 -308.767 3619
1253.96 -308.767 3619
1268.19 -310.132 3635
1279.34 -310.729 3642
1288.05 -310.729 3642
1296.76 -310.729 3642
1305.47 -310.729 3642
1314.18 -310.729 3642
1322.89 -310.729 3642
1329.04 -310.132 3635
1334.79 -309.449 3627
1340.5 -308.767 3619
1349.15 -308.767 3619
1354.8 -308.084 3611
1366.46 -308.767 3619
1375.11 -308.767 3619
1383.77 -308.767 3619
1392.42 -308.767 3619
1397.98 -308.084 3611
1406.61 -308.084 3611
1418.38 -308.767 3619
1427.04 -308.767 3619
1435.69 -308.767 3619
1444.35 -308.767 3619
1446.58 -307.402 3603
1455.19 -307.402 3603
1463.81 -307.402 3603
1475.69 -308.084 3611
1484.33 -308.084 3611
1492.96 -308.084 3611
1501.6 -308.084 3611
1506.89 -307.402 3603
1515.5 -307.402 3603
1524.12 -307.402 3603
1519.55 -304.757 3572
1531.51 -305.439 3580
1540.07 -305.439 3580
1548.63 -305.439 3580
1557.19 -305.439 3580
1559.19 -304.16 3565
1547.93 -300.32 3520
1552.81 -299.638 3512
1561.21 -299.638 3512
1553.52 -296.566 3476
1526.78 -289.912 3398
1501.68 -231.042 2708
1508.16 -231.042 2708
1514.63 -231.042 2708
1518.86 -230.701 2704
1507.84 -228.056 2673
1511.97 -227.715 2669
1523.47 -228.482 2678
1529.87 -228.482 2678
1536.28 -228.482 2678
1532.89 -227.032 2661
1539.25 -227.032 2661
1535.74 -225.582 2644
1542.06 -225.582 2644
1553.07 -226.264 2652
1559.41 -226.264 2652
1573.43 -227.373 2665
1579.8 -227.373 2665
1586.18 -227.373 2665
1592.55 -227.373 2665
1598.92 -227.373 2665
1599.87 -226.605 2656
1603.81 -226.264 2652
1610.15 -226.264 2652
1616.49 -226.264 2652
1612.43 -224.814 2635
1618.73 -224.814 2635
1630.58 -225.582 2644
1636.9 -225.582 2644
1648.2 -226.264 2652
1654.54 -226.264 2652
1660.88 -226.264 2652
1664.71 -225.923 2648
1671.04 -225.923 2648
1677.37 -225.923 2648
1683.7 -225.923 2648
1690.04 -225.923 2648
1696.37 -225.923 2648
1697.56 -225.24 2640
1698.06 -224.472 2631
1699.17 -223.79 2623
1705.44 -223.79 2623
1711.71 -223.79 2623
1712.75 -223.107 2615
1719 -223.107 2615
1727.89 -223.449 2619
1734.16 -223.449 2619
1740.42 -223.449 2619
1746.68 -223.449 2619
1750.27 -223.107 2615
1756.52 -223.107 2615
1751.99 -221.742 2599
1754.82 -221.316 2594
1761.02 -221.316 2594
1767.23 -221.316 2594
1770.69 -220.974 2590
1776.89 -220.974 2590
1780.33 -220.633 2586
1806.55 -223.107 2615
1812.8 -223.107 2615
1824.62 -223.79 2623
1833.68 -224.131 2627
1839.96 -224.131 2627
1846.25 -224.131 2627
1849.71 -223.79 2623
1853.15 -223.449 2619
1850.89 -222.425 2607
1857.13 -222.425 2607
1863.36 -222.425 2607
1866.73 -222.084 2603
1872.95 -222.084 2603
1879.18 -222.084 2603
1885.4 -222.084 2603
1888.72 -221.742 2599
1891.29 -221.316 2594
1897.49 -221.316 2594
1900.76 -220.974 2590
1906.95 -220.974 2590
1913.14 -220.974 2590
1919.34 -220.974 2590
1925.53 -220.974 2590
1922.78 -219.951 2578
1917.72 -218.671 2563
1920.84 -218.329 2559
1926.96 -218.329 2559
1930.06 -217.988 2555
1936.17 -217.988 2555
1942.28 -217.988 2555
1948.39 -217.988 2555
1954.5 -217.988 2555
-2329.56 -272.816 3290
-2321.69 -272.816 3290
-2313.82 -272.816 3290
-2305.96 -272.816 3290
-2298.09 -272.816 3290
-2281.87 -271.821 3278
-2296.23 -274.474 3310
-2297.3 -275.552 3323
-2307.96 -277.791 3350
-2299.94 -277.791 3350
-2300.83 -278.869 3363
-2292.79 -278.869 3363
-2284.74 -278.869 3363
-2272.64 -278.372 3357
-2278.1 -280.03 3377
-2284.15 -281.772 3398
-2285.4 -282.933 3412
-2277.24 -282.933 3412
-2273.73 -283.513 3419
-2270.2 -284.093 3426
-2271.25 -285.254 3440
-2263.02 -285.254 3440
-2254.8 -285.254 3440
-2255.71 -286.415 3454
-2294.95 -292.469 3527
-2286.52 -292.469 3527
-2287.77 -293.712 3542
-2283.81 -294.293 3549
-2275.32 -294.293 3549
-2266.83 -294.293 3549
-2258.35 -294.293 3549
-2269.51 -296.864 3580
-2285.58 -300.098 3619
-2276.93 -300.098 3619
-2282.69 -302.005 3642
-2278.98 -302.668 3650
-2275.22 -303.332 3658
-2266.48 -303.332 3658
-2298.46 -308.804 3724
-2304.93 -310.878 3749
-2311.27 -312.951 3774
-2302.25 -312.951 3774
-2293.22 -312.951 3774
-2117.17 -300.761 3627
-2108.5 -300.761 3627
-2099.82 -300.761 3627
-2091.15 -300.761 3627
-2082.48 -300.761 3627
-2115.15 -318.755 3844
-2105.95 -318.755 3844
-2106.58 -320.248 3862
-2097.35 -320.248 3862
-2088.11 -320.248 3862
-2088.56 -321.74 3880
-2079.29 -321.74 3880
-2070.01 -321.74 3880
-2032.05 -317.263 3826
-2080.53 -326.301 3935
-2071.12 -326.301 3935
-2061.71 -326.301 3935
-2037.7 -323.979 3907
-2009.67 -320.994 3871
-2000.41 -320.994 3871
-1991.15 -320.994 3871
-1968.07 -318.755 3844
-1936.46 -315.107 3800
-1927.37 -315.107 3800
-1892.54 -310.878 3749
-1862.47 -307.395 3707
-1845.61 -306.068 3691
-1836.78 -306.068 3691
-1820.03 -304.741 3675
-1823.07 -306.731 3699
-1814.23 -306.731 3699
-1805.38 -306.731 3699
-1198.78 -248.768 3000
-1191.61 -248.768 3000
-1184.44 -248.768 3000
-917.79 -237.325 2862
-910.946 -237.325 2862
-904.102 -237.325 2862
-898.512 -237.657 2866
-891.659 -237.657 2866
-884.805 -237.657 2866
-877.952 -237.657 2866
-868.768 -238.901 2881
-861.879 -238.901 2881
-854.989 -238.901 2881
-848.1 -238.901 2881
-839.751 -238.486 2876
-829.977 -237.657 2866
-823.124 -237.657 2866
-815.131 -237.325 2862
-805.463 -236.496 2852
-798.643 -236.496 2852
-791.823 -236.496 2852
-777.021 -234.091 2823
-770.27 -234.091 2823
-762.167 -233.676 2818
-755.429 -233.676 2818
-746.299 -232.93 2809
-735.632 -231.686 2794
-726.603 -230.94 2785
-719.943 -230.94 2785
-713.283 -230.94 2785
-710.176 -232.101 2799
-703.482 -232.101 2799
-696.789 -232.101 2799
-690.096 -232.101 2799
-685.844 -232.93 2809
-679.127 -232.93 2809
-672.41 -232.93 2809
-665.693 -232.93 2809
-659.914 -233.262 2813
-657.599 -234.837 2832
-650.827 -234.837 2832
-644.055 -234.837 2832
-644.033 -237.325 2862
-637.19 -237.325 2862
-630.346 -237.325 2862
-692.501 -266.514 3214
-692.912 -269.665 3252
-687.875 -270.743 3265
-680.067 -270.743 3265
-682.966 -275.055 3317
-675.034 -275.055 3317
-677.761 -279.45 3370
-669.703 -279.45 3370
-663.018 -280.03 3377
-661.731 -282.933 3412
-653.572 -282.933 3412
-645.413 -282.933 3412
-638.561 -283.513 3419
-630.385 -283.513 3419
-622.209 -283.513 3419
-612.776 -282.933 3412
-604.617 -282.933 3412
-596.458 -282.933 3412
-588.299 -282.933 3412
-580.14 -282.933 3412
-570.807 -282.352 3405
-560.351 -281.191 3391
-552.242 -281.191 3391
-544.133 -281.191 3391
-536.024 -281.191 3391
-527.916 -281.191 3391
-519.807 -281.191 3391
-511.698 -281.191 3391
-503.589 -281.191 3391
-495.48 -281.191 3391
-487.371 -281.191 3391
-478.273 -280.611 3384
-469.208 -280.03 3377
-463.044 -281.191 3391
-454.935 -281.191 3391
-446.826 -281.191 3391
-436.906 -280.03 3377
-427.942 -279.45 3370
-419.883 -279.45 3370
-410.969 -278.869 3363
-402.927 -278.869 3363
-394.181 -278.372 3357
-387.648 -279.45 3370
-379.59 -279.45 3370
-371.531 -279.45 3370
-362.07 -278.372 3357
-351.933 -276.713 3337
-343.954 -276.713 3337
-333.96 -275.055 3317
-196.305 -169.743 2047
-191.41 -169.743 2047
-186.515 -169.743 2047
-181.797 -169.909 2049
-176.897 -169.909 2049
-171.998 -169.909 2049
-167.098 -169.909 2049
-162.198 -169.909 2049
-157.759 -170.406 2055
-153.737 -171.401 2067
-148.795 -171.401 2067
-144.2 -171.816 2072
-139.245 -171.816 2072
-134.29 -171.816 2072
-129.335 -171.816 2072
-124.741 -172.314 2078
-119.772 -172.314 2078
-114.803 -172.314 2078
-109.833 -172.314 2078
-104.965 -172.479 2080
-100.376 -173.143 2088
-95.5199 -173.392 2091
-90.5196 -173.392 2091
-85.6012 -173.557 2093
-80.7117 -173.806 2096
-75.7718 -173.972 2098
-70.7549 -173.972 2098
-65.8319 -174.221 2101
-60.9525 -174.635 2106
-55.9164 -174.635 2106
-50.8803 -174.635 2106
-45.9095 -174.884 2109
-40.8663 -174.884 2109
-35.823 -174.884 2109
-30.7798 -174.884 2109
-25.6999 -174.635 2106
-20.6638 -174.635 2106
-15.6277 -174.635 2106
-10.5916 -174.635 2106
-5.55555 -174.635 2106
-0.519469 -174.635 2106
4.51662 -174.635 2106
9.5527 -174.635 2106
14.5749 -174.47 2104
19.6062 -174.47 2104
24.6375 -174.47 2104
29.6688 -174.47 2104
34.6507 -174.221 2101
39.6748 -174.221 2101
44.6989 -174.221 2101
49.723 -174.221 2101
54.7472 -174.221 2101
59.7713 -174.221 2101
64.7954 -174.221 2101
69.9193 -174.47 2104
74.9505 -174.47 2104
80.0579 -174.635 2106
85.094 -174.635 2106
90.2584 -174.884 2109
95.3017 -174.884 2109
100.488 -175.133 2112
105.638 -175.299 2114
110.693 -175.299 2114
116.077 -175.796 2120
121.147 -175.796 2120
126.335 -175.962 2122
131.967 -176.708 2131
137.063 -176.708 2131
142.159 -176.708 2131
147.6 -177.123 2136
152.922 -177.372 2139
158.407 -177.786 2144
163.534 -177.786 2144
168.897 -178.035 2147
174.517 -178.533 2153
179.832 -178.699 2155
184.986 -178.699 2155
190.404 -178.947 2158
195.836 -179.196 2161
201.562 -179.694 2167
206.744 -179.694 2167
212.708 -180.357 2175
218.21 -180.606 2178
224.239 -181.269 2186
229.466 -181.269 2186
235.015 -181.518 2189
240.25 -181.518 2189
246.83 -182.513 2201
252.093 -182.513 2201
258.409 -183.259 2210
264.052 -183.508 2213
269.952 -183.923 2218
275.256 -183.923 2218
280.56 -183.923 2218
394.703 -240.559 2901
401.64 -240.559 2901
408.577 -240.559 2901
415.515 -240.559 2901
422.452 -240.559 2901
429.389 -240.559 2901
436.326 -240.559 2901
443.263 -240.559 2901
450.201 -240.559 2901
457.138 -240.559 2901
464.075 -240.559 2901
469.388 -239.73 2891
473.83 -238.486 2876
480.708 -238.486 2876
486.737 -238.071 2871
492.743 -237.657 2866
498.899 -237.325 2862
505.743 -237.325 2862
512.587 -237.325 2862
519.431 -237.325 2862
526.275 -237.325 2862
533.119 -237.325 2862
539.963 -237.325 2862
545.852 -236.91 2857
552.683 -236.91 2857
559.515 -236.91 2857
565.356 -236.496 2852
571.173 -236.081 2847
575.951 -235.252 2837
582.735 -235.252 2837
589.519 -235.252 2837
596.303 -235.252 2837
603.088 -235.252 2837
609.872 -235.252 2837
616.656 -235.252 2837
622.341 -234.837 2832
629.113 -234.837 2832
635.885 -234.837 2832
642.658 -234.837 2832
648.513 -234.506 2828
655.275 -234.506 2828
662.038 -234.506 2828
668.8 -234.506 2828
675.563 -234.506 2828
681.119 -234.091 2823
687.87 -234.091 2823
694.62 -234.091 2823
701.371 -234.091 2823
706.868 -233.676 2818
714.872 -234.091 2823
721.623 -234.091 2823
728.374 -234.091 2823
735.124 -234.091 2823
741.875 -234.091 2823
749.952 -234.506 2828
756.714 -234.506 2828
763.477 -234.506 2828
770.239 -234.506 2828
777.002 -234.506 2828
783.765 -234.506 2828
789.13 -234.091 2823
795.88 -234.091 2823
802.631 -234.091 2823
809.382 -234.091 2823
816.132 -234.091 2823
822.883 -234.091 2823
829.633 -234.091 2823
837.865 -234.506 2828
844.628 -234.506 2828
855.605 -235.667 2842
862.402 -235.667 2842
869.198 -235.667 2842
875.994 -235.667 2842
879.684 -234.837 2832
885.204 -234.506 2828
891.966 -234.506 2828
897.14 -234.091 2823
900.689 -233.262 2813
907.415 -233.262 2813
914.142 -233.262 2813
920.869 -233.262 2813
927.596 -233.262 2813
934.322 -233.262 2813
1233.91 -299.434 3611
1250.81 -301.424 3635
1259.5 -301.424 3635
1270.63 -302.005 3642
1282.15 -302.668 3650
1290.88 -302.668 3650
1299.61 -302.668 3650
1308.34 -302.668 3650
1317.07 -302.668 3650
1325.79 -302.668 3650
1329.04 -301.424 3635
1337.73 -301.424 3635
1340.5 -300.098 3619
1349.15 -300.098 3619
1357.81 -300.098 3619
1366.46 -300.098 3619
1375.11 -300.098 3619
1383.77 -300.098 3619
1392.42 -300.098 3619
1401.08 -300.098 3619
1406.61 -299.434 3611
1418.38 -300.098 3619
1427.04 -300.098 3619
1435.69 -300.098 3619
1444.35 -300.098 3619
1446.58 -298.771 3603
1455.19 -298.771 3603
1463.81 -298.771 3603
1472.42 -298.771 3603
1481.04 -298.771 3603
1489.66 -298.771 3603
1498.27 -298.771 3603
1506.89 -298.771 3603
1509.19 -297.527 3588
1517.77 -297.527 3588
1519.55 -296.2 3572
1528.09 -296.2 3572
1536.63 -296.2 3572
1545.17 -296.2 3572
1547.19 -294.956 3557
1542.58 -292.469 3527
1544.41 -291.225 3512
1536.89 -288.24 3476
1545.21 -288.24 3476
1546.81 -286.996 3461
1526.78 -281.772 3398
1501.68 -224.555 2708
1508.16 -224.555 2708
1514.63 -224.555 2708
1518.86 -224.223 2704
1515.17 -222.731 2686
1517.07 -222.067 2678
1530.87 -223.145 2691
1537.3 -223.145 2691
1543.74 -223.145 2691
1547.29 -222.731 2686
1553.71 -222.731 2686
1550.26 -221.321 2669
1556.64 -221.321 2669
1565.37 -221.653 2673
1571.76 -221.653 2673
1585.83 -222.731 2686
1592.25 -222.731 2686
1598.67 -222.731 2686
1605.1 -222.731 2686
1611.52 -222.731 2686
1615.53 -222.399 2682
1619.53 -222.067 2678
1622.9 -221.653 2673
1629.29 -221.653 2673
1625.28 -220.243 2656
1629.17 -219.911 2652
1641.06 -220.658 2661
1649.9 -220.989 2665
1656.28 -220.989 2665
1662.65 -220.989 2665
1669.02 -220.989 2665
1675.4 -220.989 2665
1676.09 -220.243 2656
1682.44 -220.243 2656
1688.79 -220.243 2656
1695.14 -220.243 2656
1701.49 -220.243 2656
1702.7 -219.58 2648
1703.87 -218.916 2640
1704.35 -218.17 2631
1710.64 -218.17 2631
1714.33 -217.838 2627
1715.37 -217.175 2619
1721.63 -217.175 2619
1730.53 -217.506 2623
1736.8 -217.506 2623
1743.08 -217.506 2623
1749.35 -217.506 2623
1750.27 -216.843 2615
1756.52 -216.843 2615
1757.38 -216.18 2607
1758.2 -215.516 2599
1761.02 -215.102 2594
1767.23 -215.102 2594
1770.69 -214.77 2590
1776.89 -214.77 2590
1780.33 -214.438 2586
1801.02 -216.18 2607
1807.25 -216.18 2607
1819.05 -216.843 2615
1833.68 -217.838 2627
1839.96 -217.838 2627
1846.25 -217.838 2627
1846.89 -217.175 2619
1853.15 -217.175 2619
1850.89 -216.18 2607
1857.13 -216.18 2607
1863.36 -216.18 2607
1866.73 -215.848 2603
1866.48 -215.102 2594
1872.68 -215.102 2594
1878.88 -215.102 2594
1885.08 -215.102 2594
1891.29 -215.102 2594
1897.49 -215.102 2594
1900.76 -214.77 2590
1906.95 -214.77 2590
1913.14 -214.77 2590
1919.34 -214.77 2590
1925.53 -214.77 2590
1922.78 -213.775 2578
1917.72 -212.531 2563
1923.85 -212.531 2563
1929.97 -212.531 2563
1933.08 -212.199 2559
1939.2 -212.199 2559
1948.36 -212.531 2563
1957.54 -212.863 2567
1963.68 -212.863 2567
-2024.55 -217.746 2704
-2027.79 -218.793 2717
-2021.29 -218.793 2717
-2014.79 -218.793 2717
-2329.56 -264.935 3290
-2321.69 -264.935 3290
-2313.82 -264.935 3290
-2305.96 -264.935 3290
-2298.09 -264.935 3290
-2281.87 -263.968 3278
-2296.23 -266.545 3310
-2297.3 -267.592 3323
-2312.78 -270.33 3357
-2304.75 -270.33 3357
-2300.83 -270.813 3363
-2292.79 -270.813 3363
-2284.74 -270.813 3363
-2276.7 -270.813 3363
-2278.1 -271.941 3377
-2284.15 -273.632 3398
-2285.4 -274.759 3412
-2277.24 -274.759 3412
-2273.73 -275.323 3419
-2270.2 -275.886 3426
-2271.25 -277.014 3440
-2263.02 -277.014 3440
-2254.8 -277.014 3440
-2255.71 -278.141 3454
-2294.95 -284.02 3527
-2286.52 -284.02 3527
-2297.46 -286.436 3557
-2294.1 -287.08 3565
-2285.58 -287.08 3565
-2277.05 -287.08 3565
-2268.53 -287.08 3565
-2269.51 -288.288 3580
-2295.69 -292.717 3635
-2286.99 -292.717 3635
-2287.7 -293.925 3650
-2283.97 -294.569 3658
-2275.22 -294.569 3658
-2266.48 -294.569 3658
-2303.4 -300.528 3732
-2315.38 -303.266 3766
-2311.27 -303.91 3774
-2302.25 -303.91 3774
-2293.22 -303.91 3774
-2258.78 -300.528 3732
-2249.85 -300.528 3732
-2125.84 -292.072 3627
-2117.17 -292.072 3627
-2108.5 -292.072 3627
-2099.82 -292.072 3627
-2091.15 -292.072 3627
-2082.48 -292.072 3627
-2069.23 -291.428 3619
-2084.75 -301.172 3740
-2090.24 -303.266 3766
-2081.23 -303.266 3766
-2115.15 -309.547 3844
-2105.95 -309.547 3844
-2106.58 -310.996 3862
-2097.35 -310.996 3862
-2088.11 -310.996 3862
-2088.56 -312.446 3880
-2079.29 -312.446 3880
-2070.01 -312.446 3880
-2032.05 -308.097 3826
-2080.53 -316.875 3935
-2071.12 -316.875 3935
-2061.71 -316.875 3935
-2037.7 -314.62 3907
-2009.67 -311.721 3871
-2000.41 -311.721 3871
-1991.15 -311.721 3871
-1968.07 -309.547 3844
-1936.46 -306.004 3800
-1927.37 -306.004 3800
-1892.54 -301.897 3749
-1862.47 -298.515 3707
-1845.61 -297.226 3691
-1836.78 -297.226 3691
-1820.03 -295.938 3675
-1823.07 -297.87 3699
-1814.23 -297.87 3699
-1805.38 -297.87 3699
-1205.96 -241.582 3000
-1198.78 -241.582 3000
-1191.61 -241.582 3000
-1184.44 -241.582 3000
-1177.26 -241.582 3000
-917.79 -230.469 2862
-910.946 -230.469 2862
-904.102 -230.469 2862
-898.512 -230.791 2866
-891.659 -230.791 2866
-884.805 -230.791 2866
-879.483 -231.194 2871
-872.618 -231.194 2871
-868.768 -231.999 2881
-861.879 -231.999 2881
-854.989 -231.999 2881
-848.1 -231.999 2881
-839.751 -231.596 2876
-829.977 -230.791 2866
-823.124 -230.791 2866
-815.131 -230.469 2862
-806.875 -230.066 2857
-798.643 -229.664 2852
-791.823 -229.664 2852
-783.627 -229.261 2847
-776.819 -229.261 2847
-770.011 -229.261 2847
-763.203 -229.261 2847
-755.066 -228.859 2842
-743.268 -227.328 2823
-736.517 -227.328 2823
-731.059 -227.731 2828
-724.296 -227.731 2828
-718.549 -228.053 2832
-711.776 -228.053 2832
-705.004 -228.053 2832
-698.232 -228.053 2832
-691.46 -228.053 2832
-687.105 -228.859 2842
-681.506 -229.261 2847
-674.698 -229.261 2847
-667.89 -229.261 2847
-658.76 -228.456 2837
-657.721 -230.469 2862
-650.877 -230.469 2862
-644.033 -230.469 2862
-639.193 -231.194 2871
-632.328 -231.194 2871
-625.462 -231.194 2871
-692.501 -258.815 3214
-692.912 -261.875 3252
-687.875 -262.922 3265
-680.067 -262.922 3265
-682.966 -267.109 3317
-675.034 -267.109 3317
-677.761 -271.377 3370
-669.703 -271.377 3370
-663.018 -271.941 3377
-661.731 -274.759 3412
-653.572 -274.759 3412
-645.413 -274.759 3412
-638.561 -275.323 3419
-630.385 -275.323 3419
-622.209 -275.323 3419
-612.776 -274.759 3412
-604.617 -274.759 3412
-596.458 -274.759 3412
-588.299 -274.759 3412
-580.14 -274.759 3412
-570.807 -274.195 3405
-560.351 -273.068 3391
-552.242 -273.068 3391
-544.133 -273.068 3391
-536.024 -273.068 3391
-527.916 -273.068 3391
-519.807 -273.068 3391
-511.698 -273.068 3391
-503.589 -273.068 3391
-495.48 -273.068 3391
-487.371 -273.068 3391
-478.273 -272.504 3384
-469.208 -271.941 3377
-463.044 -273.068 3391
-454.935 -273.068 3391
-446.826 -273.068 3391
-436.906 -271.941 3377
-427.942 -271.377 3370
-419.883 -271.377 3370
-410.969 -270.813 3363
-402.927 -270.813 3363
-394.181 -270.33 3357
-387.648 -271.377 3370
-379.59 -271.377 3370
-371.531 -271.377 3370
-362.07 -270.33 3357
-351.933 -268.72 3337
-343.954 -268.72 3337
-333.96 -267.109 3317
-196.305 -164.839 2047
-191.41 -164.839 2047
-186.515 -164.839 2047
-181.797 -165 2049
-176.897 -165 2049
-172.25 -165.242 2052
-167.343 -165.242 2052
-162.436 -165.242 2052
-157.913 -165.645 2057
-153.961 -166.691 2070
-149.011 -166.691 2070
-144.2 -166.853 2072
-139.245 -166.853 2072
-134.29 -166.853 2072
-129.335 -166.853 2072
-124.741 -167.336 2078
-119.887 -167.497 2080
-114.913 -167.497 2080
-109.939 -167.497 2080
-105.117 -167.738 2083
-100.52 -168.383 2091
-95.6112 -168.544 2093
-90.6062 -168.544 2093
-85.7239 -168.785 2096
-80.7888 -168.946 2098
-75.8801 -169.188 2101
-70.856 -169.188 2101
-65.8319 -169.188 2101
-60.9525 -169.59 2106
-55.996 -169.832 2109
-50.9528 -169.832 2109
-45.9095 -169.832 2109
-40.8663 -169.832 2109
-35.823 -169.832 2109
-30.7798 -169.832 2109
-25.6999 -169.59 2106
-20.6638 -169.59 2106
-15.6277 -169.59 2106
-10.5916 -169.59 2106
-5.55555 -169.59 2106
-0.519469 -169.59 2106
4.51662 -169.59 2106
9.5527 -169.59 2106
14.5749 -169.429 2104
19.6062 -169.429 2104
24.6375 -169.429 2104
29.6688 -169.429 2104
34.6507 -169.188 2101
39.6748 -169.188 2101
44.6989 -169.188 2101
49.723 -169.188 2101
54.7472 -169.188 2101
59.7713 -169.188 2101
64.7954 -169.188 2101
69.9193 -169.429 2104
74.9505 -169.429 2104
80.0579 -169.59 2106
85.094 -169.59 2106
90.2584 -169.832 2109
95.3017 -169.832 2109
100.488 -170.074 2112
105.638 -170.235 2114
110.693 -170.235 2114
116.077 -170.718 2120
121.147 -170.718 2120
126.335 -170.879 2122
131.967 -171.604 2131
137.063 -171.604 2131
142.159 -171.604 2131
147.6 -172.006 2136
152.922 -172.248 2139
158.407 -172.65 2144
163.534 -172.65 2144
168.897 -172.892 2147
174.517 -173.375 2153
179.832 -173.536 2155
184.986 -173.536 2155
190.404 -173.778 2158
195.836 -174.019 2161
201.562 -174.503 2167
206.744 -174.503 2167
212.708 -175.147 2175
218.21 -175.388 2178
224.239 -176.033 2186
229.466 -176.033 2186
235.015 -176.274 2189
240.25 -176.274 2189
246.83 -177.241 2201
252.093 -177.241 2201
258.409 -177.965 2210
264.052 -178.207 2213
269.952 -178.609 2218
275.256 -178.609 2218
280.56 -178.609 2218
387.766 -233.61 2901
394.703 -233.61 2901
401.64 -233.61 2901
408.577 -233.61 2901
415.515 -233.61 2901
422.452 -233.61 2901
429.389 -233.61 2901
436.326 -233.61 2901
443.263 -233.61 2901
450.201 -233.61 2901
457.138 -233.61 2901
464.075 -233.61 2901
469.388 -232.804 2891
473.83 -231.596 2876
480.708 -231.596 2876
486.737 -231.194 2871
492.743 -230.791 2866
498.899 -230.469 2862
505.743 -230.469 2862
512.587 -230.469 2862
519.431 -230.469 2862
526.275 -230.469 2862
533.119 -230.469 2862
539.963 -230.469 2862
545.852 -230.066 2857
552.683 -230.066 2857
559.515 -230.066 2857
565.356 -229.664 2852
571.173 -229.261 2847
576.966 -228.859 2842
583.762 -228.859 2842
589.519 -228.456 2837
596.303 -228.456 2837
603.088 -228.456 2837
609.872 -228.456 2837
616.656 -228.456 2837
623.44 -228.456 2837
630.224 -228.456 2837
637.008 -228.456 2837
643.792 -228.456 2837
649.43 -228.053 2832
656.202 -228.053 2832
662.038 -227.731 2828
668.8 -227.731 2828
675.563 -227.731 2828
682.326 -227.731 2828
689.088 -227.731 2828
695.851 -227.731 2828
701.371 -227.328 2823
708.122 -227.328 2823
714.872 -227.328 2823
721.623 -227.328 2823
728.374 -227.328 2823
735.124 -227.328 2823
741.875 -227.328 2823
749.952 -227.731 2828
756.714 -227.731 2828
763.477 -227.731 2828
770.239 -227.731 2828
777.002 -227.731 2828
783.765 -227.731 2828
789.13 -227.328 2823
795.88 -227.328 2823
802.631 -227.328 2823
809.382 -227.328 2823
816.132 -227.328 2823
822.883 -227.328 2823
829.633 -227.328 2823
837.865 -227.731 2828
844.628 -227.731 2828
855.605 -228.859 2842
862.402 -228.859 2842
869.198 -228.859 2842
875.994 -228.859 2842
879.684 -228.053 2832
885.204 -227.731 2828
891.966 -227.731 2828
897.14 -227.328 2823
900.689 -226.523 2813
907.415 -226.523 2813
914.142 -226.523 2813
924.143 -227.328 2823
930.893 -227.328 2823
937.644 -227.328 2823
944.394 -227.328 2823
951.145 -227.328 2823
956.199 -226.926 2818
1233.91 -290.784 3611
1250.81 -292.717 3635
1259.5 -292.717 3635
1273.43 -293.925 3650
1284.96 -294.569 3658
1293.71 -294.569 3658
1302.46 -294.569 3658
1311.21 -294.569 3658
