-1742.62 759.669 3588
-1737.43 761.151 3595
-1740.37 766.232 3619
-1739.37 769.62 3635
-1730.68 769.62 3635
-1725.31 771.102 3642
-1724.14 774.489 3658
-1730.87 781.476 3691
-1722.04 781.476 3691
-1720.64 784.864 3707
-1731.17 793.756 3749
-1733.69 799.049 3774
-1724.66 799.049 3774
-1723.82 802.86 3792
-1714.75 802.86 3792
-1705.69 802.86 3792
-1696.62 802.86 3792
-1695.12 806.46 3809
-1686.01 806.46 3809
-1676.9 806.46 3809
-1663.85 804.554 3800
-1647.36 800.955 3783
-1623.59 793.756 3749
-1607.3 790.157 3732
-1598.38 790.157 3732
-1586.05 788.463 3724
-1549.19 774.489 3658
-1527.39 767.926 3627
-1518.71 767.926 3627
-1493.8 759.669 3588
-1475.7 754.799 3565
-1454.42 748.235 3534
-1445.97 748.235 3534
-1428.57 743.578 3512
-1417.34 742.095 3505
-1408.96 742.095 3505
-1406.57 745.271 3520
-1398.15 745.271 3520
-1389.74 745.271 3520
-1381.32 745.271 3520
-1372.9 745.271 3520
-1364.48 745.271 3520
-1367.24 751.411 3549
-1361.82 753.105 3557
-1362.06 757.975 3580
-1353.5 757.975 3580
-1344.94 757.975 3580
-1344.96 762.844 3603
-1339.31 764.538 3611
-1330.68 764.538 3611
-1327.9 767.926 3627
-1322.14 769.62 3635
-1313.45 769.62 3635
-1304.75 769.62 3635
-1304.26 774.489 3658
-1295.52 774.489 3658
-1286.77 774.489 3658
-1278.02 774.489 3658
-1269.27 774.489 3658
-1260.53 774.489 3658
-1249.04 772.796 3650
-1240.31 772.796 3650
-1228.89 771.102 3642
-1220.18 771.102 3642
-1214.13 772.796 3650
-1205.4 772.796 3650
-1196.67 772.796 3650
-1190.55 774.489 3658
-1187.29 778.089 3675
-1181.07 779.782 3683
-1172.26 779.782 3683
-1171.04 784.864 3707
-1164.99 786.769 3716
-1156.11 786.769 3716
-1147.22 786.769 3716
-1138.34 786.769 3716
-1129.45 786.769 3716
-1120.56 786.769 3716
-1111.68 786.769 3716
-1105.16 788.463 3724
-1105.97 795.45 3757
-1107.21 802.86 3792
-1098.14 802.86 3792
-1091.37 804.554 3800
-1084.85 806.46 3809
-1075.74 806.46 3809
-1066.63 806.46 3809
-1055.02 804.554 3800
-1043.73 802.86 3792
-1034.67 802.86 3792
-1025.6 802.86 3792
-1016.53 802.86 3792
-1002.68 799.049 3774
-993.656 799.049 3774
-980.196 795.45 3757
-971.212 795.45 3757
-962.228 795.45 3757
-955.528 797.356 3766
-946.522 797.356 3766
-937.516 797.356 3766
-928.511 797.356 3766
-919.505 797.356 3766
-910.499 797.356 3766
-899.339 795.45 3757
-890.355 795.45 3757
-881.371 795.45 3757
-868.439 791.851 3740
-859.496 791.851 3740
-850.552 791.851 3740
-841.609 791.851 3740
-832.666 791.851 3740
-823.722 791.851 3740
-813.036 790.157 3732
-804.111 790.157 3732
-795.187 790.157 3732
-786.263 790.157 3732
-779.005 791.851 3740
-771.914 793.756 3749
-762.949 793.756 3749
-753.984 793.756 3749
-745.019 793.756 3749
-736.054 793.756 3749
-727.089 793.756 3749
-716.4 791.851 3740
-705.944 790.157 3732
-695.525 788.463 3724
-686.62 788.463 3724
-676.259 786.769 3716
-667.373 786.769 3716
-654.057 781.476 3691
-645.23 781.476 3691
-633.645 778.089 3675
-621.967 774.489 3658
-613.219 774.489 3658
-604.472 774.489 3658
-593.119 771.102 3642
-583.286 769.62 3635
-573.33 767.926 3627
-563.411 766.232 3619
-554.757 766.232 3619
-546.103 766.232 3619
-536.26 764.538 3611
-526.456 762.844 3603
-517.841 762.844 3603
-507.105 759.669 3588
-498.525 759.669 3588
-489.945 759.669 3588
-481.365 759.669 3588
-472.785 759.669 3588
-464.205 759.669 3588
-455.625 759.669 3588
-447.045 759.669 3588
-438.465 759.669 3588
-429.885 759.669 3588
-421.305 759.669 3588
-412.725 759.669 3588
-404.145 759.669 3588
-395.565 759.669 3588
-386.985 759.669 3588
-378.405 759.669 3588
-369.825 759.669 3588
-360.439 757.975 3580
-351.092 756.281 3572
-342.55 756.281 3572
-332.606 753.105 3557
-324.1 753.105 3557
-316.304 754.799 3565
-307.779 754.799 3565
-299.842 756.281 3572
-291.3 756.281 3572
-283.392 757.975 3580
-274.831 757.975 3580
-266.27 757.975 3580
-257.709 757.975 3580
-249.148 757.975 3580
-240.05 756.281 3572
-231.508 756.281 3572
-222.529 754.799 3565
-213.524 753.105 3557
-205.018 753.105 3557
-196.512 753.105 3557
-187.584 751.411 3549
-179.097 751.411 3549
-170.995 753.105 3557
-162.854 754.799 3565
-154.329 754.799 3565
-145.804 754.799 3565
-137.279 754.799 3565
-128.754 754.799 3565
-119.959 753.105 3557
-111.203 751.411 3549
-102.514 749.929 3542
-94.0436 749.929 3542
-85.2112 746.753 3527
-50.1544 487.814 2304
-44.6448 487.814 2304
-39.1352 487.814 2304
-33.6257 487.814 2304
-28.1527 488.449 2307
-22.6752 489.296 2311
-17.1489 489.296 2311
-11.6226 489.296 2311
-6.09634 489.296 2311
-0.570035 489.296 2311
4.95627 489.296 2311
10.4826 489.296 2311
15.9812 488.449 2307
21.4979 488.449 2307
27.0146 488.449 2307
32.5314 488.449 2307
37.9986 487.814 2304
43.4515 487.179 2301
49.0178 487.814 2304
54.5273 487.814 2304
60.1151 488.449 2307
65.6318 488.449 2307
71.1485 488.449 2307
76.6653 488.449 2307
82.182 488.449 2307
87.5847 487.814 2304
93.0943 487.814 2304
98.4754 487.179 2301
103.707 485.908 2295
108.862 484.426 2288
113.733 481.886 2276
119.176 481.886 2276
124.454 481.25 2273
129.547 479.98 2267
134.373 477.863 2257
139.77 477.863 2257
144.202 474.687 2242
149.363 474.052 2239
154.717 474.052 2239
160.072 474.052 2239
165.426 474.052 2239
170.551 473.417 2236
175.898 473.417 2236
181.245 473.417 2236
185.841 471.511 2227
190.651 470.241 2221
195.698 469.606 2218
201.001 469.606 2218
206.026 468.97 2215
211.323 468.97 2215
216.424 468.547 2213
221.716 468.547 2213
227.008 468.547 2213
231.985 467.912 2210
237.27 467.912 2210
241.896 466.641 2204
247.167 466.641 2204
252.437 466.641 2204
257.357 466.006 2201
262.62 466.006 2201
267.883 466.006 2201
272.774 465.371 2198
525.455 817.681 3862
534.69 817.681 3862
543.925 817.681 3862
549.293 811.965 3835
555.988 808.365 3818
563.786 806.46 3809
572.894 806.46 3809
590.101 817.681 3862
599.336 817.681 3862
609.99 819.587 3871
619.246 819.587 3871
629.964 821.492 3880
639.243 821.492 3880
650.025 823.398 3889
660.851 825.303 3898
670.172 825.303 3898
679.493 825.303 3898
688.815 825.303 3898
699.748 827.209 3907
710.724 829.114 3916
720.089 829.114 3916
732.992 833.137 3935
742.402 833.137 3935
751.812 833.137 3935
761.221 833.137 3935
770.631 833.137 3935
780.041 833.137 3935
789.451 833.137 3935
798.86 833.137 3935
808.27 833.137 3935
815.602 831.02 3925
813.638 819.587 3871
822.895 819.587 3871
828.282 815.776 3853
837.495 815.776 3853
846.709 815.776 3853
855.923 815.776 3853
865.137 815.776 3853
868.223 810.059 3826
877.372 810.059 3826
886.521 810.059 3826
889.584 804.554 3800
894.651 800.955 3783
895.575 793.756 3749
904.54 793.756 3749
901.321 783.17 3699
908.198 781.476 3691
908.826 774.489 3658
917.573 774.489 3658
926.321 774.489 3658
930.978 771.102 3642
935.817 767.926 3627
944.49 767.926 3627
953.164 767.926 3627
961.837 767.926 3627
970.51 767.926 3627
977.024 766.232 3619
985.678 766.232 3619
992.134 764.538 3611
998.552 762.844 3603
1002.97 759.669 3588
1011.55 759.669 3588
1020.13 759.669 3588
1026.42 757.975 3580
1034.98 757.975 3580
1043.54 757.975 3580
1049.75 756.281 3572
1051.48 751.411 3549
1057.88 749.929 3542
1063.94 748.235 3534
1072.39 748.235 3534
1078.7 746.753 3527
1084.97 745.271 3520
1086.25 740.402 3497
1094.61 740.402 3497
1100.76 738.92 3490
1106.89 737.438 3483
1115.21 737.438 3483
1123.54 737.438 3483
1131.87 737.438 3483
1137.91 735.955 3476
1143.58 734.262 3468
1151.88 734.262 3468
1160.17 734.262 3468
1168.46 734.262 3468
1176.76 734.262 3468
1182.66 732.78 3461
1190.93 732.78 3461
1199.21 732.78 3461
1209.93 734.262 3468
1221.03 735.955 3476
1236.77 740.402 3497
1245.13 740.402 3497
1258.87 743.578 3512
1278.1 749.929 3542
1294.92 754.799 3565
1303.44 754.799 3565
1320.43 759.669 3588
1331.61 761.151 3595
1346.17 764.538 3611
1354.8 764.538 3611
1375.14 771.102 3642
1383.85 771.102 3642
1392.56 771.102 3642
1401.27 771.102 3642
1409.98 771.102 3642
1403.5 762.844 3603
1412.11 762.844 3603
1411.66 757.975 3580
1417.05 756.281 3572
1413.62 749.929 3542
1413.25 745.271 3520
1421.67 745.271 3520
1415.06 737.438 3483
1408.67 729.815 3447
1399.65 720.923 3405
1407.79 720.923 3405
1395.98 710.76 3357
1389.78 703.562 3323
1392.26 700.809 3310
1400.18 700.809 3310
1388.95 691.281 3265
1396.76 691.281 3265
1396.39 687.259 3246
1401.12 685.777 3239
1408.87 685.777 3239
1413.99 684.506 3233
1416.44 681.966 3221
1424.15 681.966 3221
1434.52 683.236 3227
1442.23 683.236 3227
1449.95 683.236 3227
1457.67 683.236 3227
1465.38 683.236 3227
1473.1 683.236 3227
1480.82 683.236 3227
1488.53 683.236 3227
1496.25 683.236 3227
1503.97 683.236 3227
1511.68 683.236 3227
1519.4 683.236 3227
1524.28 681.966 3221
1531.98 681.966 3221
1536.34 680.484 3214
1535.38 676.672 3196
1537.22 674.132 3184
1544.84 674.132 3184
1540.75 669.05 3160
1542.43 666.51 3148
1544.05 663.969 3136
1551.55 663.969 3136
1547.11 658.888 3112
1543.07 654.018 3089
1522.34 642.161 3033
1521.53 638.774 3017
1528.74 638.774 3017
1514.07 629.67 2974
1494.58 618.66 2922
1495.91 616.331 2911
1502.88 616.331 2911
1496.87 611.038 2886
1493.35 606.803 2866
1495.49 604.898 2857
1497.07 602.781 2847
1503.87 602.781 2847
1505.38 600.663 2837
1512.16 600.663 2837
1516.27 599.605 2832
1523.04 599.605 2832
1524.95 597.699 2823
1526.28 595.582 2813
1530.82 594.735 2809
1537.54 594.735 2809
1538.76 592.618 2799
1540.48 590.712 2790
1547.15 590.712 2790
1553.83 590.712 2790
1560.5 590.712 2790
1561.55 588.595 2780
1568.2 588.595 2780
1574.85 588.595 2780
1592.3 592.618 2799
1599 592.618 2799
1605.69 592.618 2799
1631.39 599.605 2832
1638.17 599.605 2832
1644.94 599.605 2832
2034.95 723.887 3419
2043.12 723.887 3419
2116.1 746.753 3527
2124.53 746.753 3527
2146.27 751.411 3549
2154.76 751.411 3549
2177.26 756.281 3572
2190.7 757.975 3580
2199.26 757.975 3580
2207.82 757.975 3580
2216.38 757.975 3580
2224.94 757.975 3580
2242.86 761.151 3595
2256.47 762.844 3603
2265.08 762.844 3603
2278.75 764.538 3611
2287.38 764.538 3611
2296.02 764.538 3611
2151.55 698.057 3297
2159.44 698.057 3297
2167.32 698.057 3297
2175.21 698.057 3297
2153.29 688.529 3252
2135.82 680.484 3214
2143.5 680.484 3214
2151.19 680.484 3214
2158.87 680.484 3214
2162.52 679.213 3208
2170.19 679.213 3208
2177.86 679.213 3208
2202.56 684.506 3233
2210.29 684.506 3233
2218.02 684.506 3233
2225.75 684.506 3233
2220.36 680.484 3214
2203.09 672.861 3178
2235.73 680.484 3214
2243.42 680.484 3214
2251.1 680.484 3214
2276.36 685.777 3239
2284.1 685.777 3239
2291.85 685.777 3239
2277.58 679.213 3208
2255.34 670.321 3166
2258.62 669.05 3160
2266.18 669.05 3160
2273.73 669.05 3160
2259.63 662.699 3130
2237.42 654.018 3089
2241.17 652.959 3084
2248.55 652.959 3084
2234.71 646.819 3055
2238.34 645.761 3050
2225.02 639.832 3022
2232.25 639.832 3022
2215.76 633.057 2990
2222.91 633.057 2990
2258.4 641.103 3028
2277.62 644.49 3044
2314.92 652.959 3084
2322.29 652.959 3084
2355.35 660.158 3118
2371.9 662.699 3130
2420.44 674.132 3184
2428.05 674.132 3184
2435.67 674.132 3184
-2680.43 766.551 3580
-2671.87 766.551 3580
-2686.37 773.188 3611
-2677.74 773.188 3611
-2669.1 773.188 3611
-2660.47 773.188 3611
-2645.96 771.475 3603
-2620.51 766.551 3580
-2611.95 766.551 3580
-2603.39 766.551 3580
-2605.7 769.763 3595
-2597.1 769.763 3595
-2588.5 769.763 3595
-2579.91 769.763 3595
-2571.31 769.763 3595
-2557.72 768.264 3588
-2549.14 768.264 3588
-2512.95 759.913 3549
-2504.46 759.913 3549
-2485.43 756.701 3534
-2476.98 756.701 3534
-2463.63 755.202 3527
-2424.57 745.781 3483
-2411.39 744.282 3476
-2403.07 744.282 3476
-2389.25 742.569 3468
-2380.96 742.569 3468
-2387.72 747.28 3490
-2384.14 748.779 3497
-2375.78 748.779 3497
-2367.42 748.779 3497
-2359.06 748.779 3497
-2350.69 748.779 3497
-2337.64 747.28 3490
-2329.3 747.28 3490
-2320.95 747.28 3490
-2307.97 745.781 3483
-2304.26 747.28 3490
-2295.91 747.28 3490
-2292.16 748.779 3497
-2293.59 751.991 3512
-2290.4 753.703 3520
-2281.98 753.703 3520
-2278.08 755.202 3527
-2269.65 755.202 3527
-2265.7 756.701 3534
-2257.25 756.701 3534
-2248.8 756.701 3534
-2240.35 756.701 3534
-2231.9 756.701 3534
-2219.05 755.202 3527
-2206.22 753.703 3520
-2202.18 755.202 3527
-2193.74 755.202 3527
-2185.31 755.202 3527
-2181.19 756.701 3534
-2177.66 758.414 3542
-2169.19 758.414 3542
-2160.72 758.414 3542
-2152.25 758.414 3542
-2138.94 756.701 3534
-2130.49 756.701 3534
-2122.04 756.701 3534
-2109.4 755.202 3527
-2100.97 755.202 3527
-2092.53 755.202 3527
-2079.96 753.703 3520
-2066.84 751.991 3512
-2045.54 747.28 3490
-2037.2 747.28 3490
-2007.93 739.572 3454
-1987.51 735.075 3433
-1975.26 733.576 3426
-1967.07 733.576 3426
-1950.87 730.578 3412
-1938.73 729.08 3405
-1922.65 726.082 3391
-1914.54 726.082 3391
-1902.49 724.583 3384
-1890.48 723.084 3377
-1886.31 724.583 3384
-1878.22 724.583 3384
-1870.13 724.583 3384
-1862.03 724.583 3384
-1853.94 724.583 3384
-1849.67 726.082 3391
-1841.56 726.082 3391
-1841.02 729.08 3405
-1836.65 730.578 3412
-1839.74 735.075 3433
-1831.53 735.075 3433
-1834.47 739.572 3454
-1837.85 744.282 3476
-1840.59 748.779 3497
-1832.23 748.779 3497
-1831.69 751.991 3512
-1827.44 753.703 3520
-1822.64 755.202 3527
-1814.21 755.202 3527
-1817.04 759.913 3549
-1812.63 761.626 3557
-1804.12 761.626 3557
-1795.61 761.626 3557
-1787.11 761.626 3557
-1786.1 764.838 3572
-1785.52 768.264 3588
-1776.94 768.264 3588
-1768.36 768.264 3588
-1759.78 768.264 3588
-1751.2 768.264 3588
-1742.62 768.264 3588
-1737.43 769.763 3595
-1740.37 774.901 3619
-1739.37 778.327 3635
-1730.68 778.327 3635
-1725.31 779.826 3642
-1724.14 783.252 3658
-1734.62 792.031 3699
-1725.77 792.031 3699
-1728.53 797.384 3724
-1731.17 802.737 3749
-1737.82 810.017 3783
-1728.78 810.017 3783
-1727.46 813.657 3800
-1726.51 817.511 3818
-1717.38 817.511 3818
-1708.25 817.511 3818
-1702.68 819.224 3826
-1693.53 819.224 3826
-1684.38 819.224 3826
-1667.79 815.584 3809
-1651.28 811.944 3792
-1627.05 804.45 3757
-1607.3 799.097 3732
-1598.38 799.097 3732
-1586.05 797.384 3724
-1549.19 783.252 3658
-1527.39 776.614 3627
-1518.71 776.614 3627
-1493.8 768.264 3588
-1475.7 763.339 3565
-1454.42 756.701 3534
-1445.97 756.701 3534
-1428.57 751.991 3512
-1417.34 750.492 3505
-1408.96 750.492 3505
-1406.57 753.703 3520
-1398.15 753.703 3520
-1389.74 753.703 3520
-1381.32 753.703 3520
-1372.9 753.703 3520
-1364.48 753.703 3520
-1367.24 759.913 3549
-1361.82 761.626 3557
-1362.06 766.551 3580
-1353.5 766.551 3580
-1344.94 766.551 3580
-1344.96 771.475 3603
-1339.31 773.188 3611
-1330.68 773.188 3611
-1327.9 776.614 3627
-1322.14 778.327 3635
-1313.45 778.327 3635
-1304.75 778.327 3635
-1304.26 783.252 3658
-1295.52 783.252 3658
-1286.77 783.252 3658
-1278.02 783.252 3658
-1269.27 783.252 3658
-1260.53 783.252 3658
-1249.04 781.539 3650
-1240.31 781.539 3650
-1228.89 779.826 3642
-1220.18 779.826 3642
-1214.13 781.539 3650
-1205.4 781.539 3650
-1196.67 781.539 3650
-1190.55 783.252 3658
-1187.29 786.892 3675
-1181.07 788.605 3683
-1172.26 788.605 3683
-1171.04 793.744 3707
-1164.99 795.671 3716
-1156.11 795.671 3716
-1147.22 795.671 3716
-1138.34 795.671 3716
-1129.45 795.671 3716
-1120.56 795.671 3716
-1111.68 795.671 3716
-1105.16 797.384 3724
-1105.97 804.45 3757
-1107.21 811.944 3792
-1098.14 811.944 3792
-1091.37 813.657 3800
-1084.85 815.584 3809
-1075.74 815.584 3809
-1066.63 815.584 3809
-1055.02 813.657 3800
-1043.73 811.944 3792
-1034.67 811.944 3792
-1025.6 811.944 3792
-1016.53 811.944 3792
-1002.68 808.09 3774
-993.656 808.09 3774
-980.196 804.45 3757
-971.212 804.45 3757
-962.228 804.45 3757
-955.528 806.377 3766
-946.522 806.377 3766
-937.516 806.377 3766
-928.511 806.377 3766
-919.505 806.377 3766
-910.499 806.377 3766
-897.424 802.737 3749
-886.326 800.81 3740
-877.383 800.81 3740
-866.582 799.097 3732
-855.819 797.384 3724
-846.914 797.384 3724
-838.009 797.384 3724
-829.103 797.384 3724
-820.198 797.384 3724
-811.293 797.384 3724
-802.388 797.384 3724
-795.187 799.097 3732
-786.263 799.097 3732
-779.005 800.81 3740
-771.914 802.737 3749
-762.949 802.737 3749
-753.984 802.737 3749
-745.019 802.737 3749
-736.054 802.737 3749
-727.089 802.737 3749
-718.124 802.737 3749
-709.159 802.737 3749
-698.513 800.81 3740
-689.57 800.81 3740
-680.627 800.81 3740
-668.81 797.384 3724
-656.892 793.744 3707
-648.027 793.744 3707
-633.645 786.892 3675
-624.857 786.892 3675
-613.219 783.252 3658
-604.472 783.252 3658
-595.725 783.252 3658
-585.693 781.539 3650
-573.33 776.614 3627
-563.411 774.901 3619
-554.757 774.901 3619
-546.103 774.901 3619
-536.26 773.188 3611
-525.288 769.763 3595
-516.691 769.763 3595
-507.105 768.264 3588
-498.525 768.264 3588
-489.945 768.264 3588
-481.365 768.264 3588
-472.785 768.264 3588
-463.17 766.551 3580
-455.625 768.264 3588
-447.045 768.264 3588
-438.465 768.264 3588
-429.885 768.264 3588
-421.305 768.264 3588
-412.725 768.264 3588
-404.145 768.264 3588
-394.683 766.551 3580
-386.122 766.551 3580
-377.561 766.551 3580
-369 766.551 3580
-360.439 766.551 3580
-351.092 764.838 3572
-342.55 764.838 3572
-332.606 761.626 3557
-324.1 761.626 3557
-315.594 761.626 3557
-307.779 763.339 3565
-299.254 763.339 3565
-290.729 763.339 3565
-282.758 764.838 3572
-274.217 764.838 3572
-265.675 764.838 3572
-257.133 764.838 3572
-248.591 764.838 3572
-239.042 761.626 3557
-230.536 761.626 3557
-221.531 759.913 3549
-213.044 759.913 3549
-204.557 759.913 3549
-196.07 759.913 3549
-187.214 758.414 3542
-178.744 758.414 3542
-170.61 759.913 3549
-162.489 761.626 3557
-153.983 761.626 3557
-145.477 761.626 3557
-136.971 761.626 3557
-128.465 761.626 3557
-119.69 759.913 3549
-110.984 758.414 3542
-102.079 755.202 3527
-93.6454 755.202 3527
-85.0421 753.703 3520
-50.1544 493.333 2304
-44.6448 493.333 2304
-39.1352 493.333 2304
-33.6257 493.333 2304
-28.1527 493.976 2307
-22.6752 494.832 2311
-17.1489 494.832 2311
-11.6226 494.832 2311
-6.09634 494.832 2311
-0.570035 494.832 2311
4.95627 494.832 2311
10.4826 494.832 2311
16.0089 494.832 2311
21.4979 493.976 2307
27.0146 493.976 2307
32.5314 493.976 2307
38.0481 493.976 2307
43.4515 492.691 2301
49.0178 493.333 2304
54.5273 493.333 2304
60.1151 493.976 2307
65.7456 494.832 2311
71.2719 494.832 2311
76.7982 494.832 2311
82.3245 494.832 2311
87.6987 493.976 2307
93.2155 493.976 2307
98.6038 493.333 2304
103.842 492.048 2298
109.052 490.764 2292
114.033 488.623 2282
119.49 488.623 2282
124.619 487.338 2276
129.89 486.695 2273
134.789 484.768 2264
140.203 484.768 2264
144.588 481.342 2248
149.563 480.058 2242
154.925 480.058 2242
160.286 480.058 2242
165.647 480.058 2242
171.009 480.058 2242
176.134 479.415 2239
181.488 479.415 2239
186.091 477.488 2230
191.166 476.846 2227
196.227 476.204 2224
201.545 476.204 2224
206.305 474.919 2218
211.323 474.276 2215
216.62 474.276 2215
221.716 473.848 2213
227.008 473.848 2213
231.985 473.206 2210
236.948 472.564 2207
241.896 471.921 2204
247.167 471.921 2204
252.437 471.921 2204
257.357 471.279 2201
262.62 471.279 2201
267.883 471.279 2201
272.774 470.636 2198
529.706 819.224 3826
538.855 819.224 3826
548.004 819.224 3826
555.988 817.511 3818
563.786 815.584 3809
572.894 815.584 3809
591.476 828.86 3871
600.733 828.86 3871
614.244 834.641 3898
623.566 834.641 3898
632.887 834.641 3898
642.208 834.641 3898
650.025 832.714 3889
660.851 834.641 3898
670.172 834.641 3898
679.493 834.641 3898
688.815 834.641 3898
698.136 834.641 3898
709.091 836.568 3907
718.434 836.568 3907
732.992 842.563 3935
744.1 844.491 3944
755.251 846.418 3953
764.703 846.418 3953
774.156 846.418 3953
781.825 844.491 3944
791.256 844.491 3944
800.688 844.491 3944
810.119 844.491 3944
815.602 840.422 3925
813.638 828.86 3871
822.895 828.86 3871
828.282 825.006 3853
837.495 825.006 3853
846.709 825.006 3853
855.923 825.006 3853
865.137 825.006 3853
874.35 825.006 3853
877.372 819.224 3826
886.521 819.224 3826
891.691 815.584 3809
894.651 810.017 3783
899.636 806.377 3766
908.641 806.377 3766
901.321 792.031 3699
906.23 788.605 3683
908.826 783.252 3658
915.567 781.539 3650
924.295 781.539 3650
930.978 779.826 3642
935.817 776.614 3627
944.49 776.614 3627
953.164 776.614 3627
961.837 776.614 3627
968.369 774.901 3619
974.864 773.188 3611
983.499 773.188 3611
992.134 773.188 3611
998.552 771.475 3603
1002.97 768.264 3588
1011.55 768.264 3588
1017.86 766.551 3580
1024.13 764.838 3572
1032.67 764.838 3572
1041.21 764.838 3572
1047.7 763.339 3565
1053.85 761.626 3557
1057.88 758.414 3542
1066.35 758.414 3542
1074.82 758.414 3542
1080.84 756.701 3534
1084.97 753.703 3520
1090.91 751.991 3512
1099.31 751.991 3512
1102.97 748.779 3497
1111.33 748.779 3497
1119.7 748.779 3497
1128.06 748.779 3497
1134.15 747.28 3490
1140.2 745.781 3483
1146.22 744.282 3476
1154.53 744.282 3476
1162.85 744.282 3476
1171.16 744.282 3476
1179.47 744.282 3476
1187.78 744.282 3476
1196.09 744.282 3476
1201.64 742.569 3468
1212.72 744.282 3476
1223.49 745.781 3483
1236.77 748.779 3497
1245.13 748.779 3497
1258.87 751.991 3512
1278.1 758.414 3542
1294.92 763.339 3565
1303.44 763.339 3565
1323.01 769.763 3595
1331.61 769.763 3595
1346.17 773.188 3611
1354.8 773.188 3611
1375.14 779.826 3642
1383.85 779.826 3642
1392.56 779.826 3642
1401.27 779.826 3642
1409.98 779.826 3642
1403.5 771.475 3603
1412.11 771.475 3603
1411.66 766.551 3580
1417.05 764.838 3572
1413.62 758.414 3542
1413.25 753.703 3520
1421.67 753.703 3520
1415.06 745.781 3483
1408.67 738.073 3447
1399.65 729.08 3405
1407.79 729.08 3405
1395.98 718.802 3357
1389.78 711.522 3323
1392.26 708.738 3310
1400.18 708.738 3310
1388.95 699.103 3265
1396.76 699.103 3265
1396.39 695.035 3246
1401.12 693.536 3239
1408.87 693.536 3239
1413.99 692.251 3233
1416.44 689.682 3221
1424.15 689.682 3221
1434.52 690.966 3227
1442.23 690.966 3227
1449.95 690.966 3227
1457.67 690.966 3227
1465.38 690.966 3227
1473.1 690.966 3227
1480.82 690.966 3227
1488.53 690.966 3227
1496.25 690.966 3227
1503.97 690.966 3227
1511.68 690.966 3227
1519.4 690.966 3227
1527.12 690.966 3227
1534.83 690.966 3227
1539.68 689.682 3221
1541.14 686.898 3208
1540.12 683.044 3190
1547.75 683.044 3190
1543.68 677.905 3166
1548.31 676.62 3160
1547 672.766 3142
1554.51 672.766 3142
1556.06 670.197 3130
1549.06 663.987 3101
1533.39 654.138 3055
1529.6 649.427 3033
1536.85 649.427 3033
1527.3 642.361 3000
1502.25 628.871 2937
1499 624.589 2917
1505.97 624.589 2917
1499.46 619.022 2891
1493.35 613.669 2866
1495.49 611.742 2857
1497.07 609.601 2847
1503.87 609.601 2847
1505.38 607.459 2837
1509.5 606.389 2832
1516.27 606.389 2832
1523.04 606.389 2832
1524.95 604.462 2823
1524.1 601.464 2809
1528.1 600.393 2804
1534.8 600.393 2804
1538.76 599.323 2799
1540.48 597.396 2790
1544.38 596.325 2785
1551.04 596.325 2785
1557.7 596.325 2785
1561.55 595.254 2780
1568.2 595.254 2780
1574.85 595.254 2780
1589.46 598.252 2794
1596.14 598.252 2794
1605.69 599.323 2799
1631.39 606.389 2832
1638.17 606.389 2832
1644.94 606.389 2832
2039.11 733.576 3426
2047.31 733.576 3426
2116.1 755.202 3527
2124.53 755.202 3527
2146.27 759.913 3549
2154.76 759.913 3549
2177.26 764.838 3572
2190.7 766.551 3580
2199.26 766.551 3580
2207.82 766.551 3580
2216.38 766.551 3580
2224.94 766.551 3580
2242.86 769.763 3595
2251.46 769.763 3595
2260.05 769.763 3595
2273.7 771.475 3603
2282.32 771.475 3603
2290.93 771.475 3603
2265.08 759.913 3549
2199.19 721.585 3370
2207.25 721.585 3370
2215.31 721.585 3370
2188.4 710.237 3317
2196.33 710.237 3317
2173.7 700.388 3271
2181.52 700.388 3271
2180.64 697.604 3258
2184.4 696.319 3252
2192.18 696.319 3252
2199.95 696.319 3252
2207.73 696.319 3252
2215.51 696.319 3252
2232.17 699.103 3265
2239.98 699.103 3265
2247.78 699.103 3265
2237.63 693.536 3239
2241.22 692.251 3233
2235.73 688.183 3214
2243.42 688.183 3214
2251.1 688.183 3214
2276.36 693.536 3239
2284.1 693.536 3239
2291.85 693.536 3239
2277.58 686.898 3208
2255.34 677.905 3166
2258.62 676.62 3160
2266.18 676.62 3160
2273.73 676.62 3160
2259.63 670.197 3130
2237.42 661.418 3089
2241.17 660.347 3084
2248.55 660.347 3084
2234.71 654.138 3055
2238.34 653.067 3050
2225.02 647.072 3022
2232.25 647.072 3022
2215.76 640.22 2990
2222.91 640.22 2990
2258.4 648.356 3028
2277.62 651.782 3044
2314.92 660.347 3084
2322.29 660.347 3084
2355.35 667.627 3118
2371.9 670.197 3130
2420.44 681.759 3184
2428.05 681.759 3184
2435.67 681.759 3184
-2680.43 775.127 3580
-2671.87 775.127 3580
-2686.37 781.839 3611
-2677.74 781.839 3611
-2669.1 781.839 3611
-2660.47 781.839 3611
-2645.96 780.107 3603
-2620.51 775.127 3580
-2611.95 775.127 3580
-2603.39 775.127 3580
-2605.7 778.374 3595
-2597.1 778.374 3595
-2588.5 778.374 3595
-2579.91 778.374 3595
-2571.31 778.374 3595
-2557.72 776.859 3588
-2549.14 776.859 3588
-2512.95 768.415 3549
-2504.46 768.415 3549
-2485.43 765.167 3534
-2476.98 765.167 3534
-2463.63 763.651 3527
-2424.57 754.125 3483
-2411.39 752.609 3476
-2403.07 752.609 3476
-2389.25 750.877 3468
-2380.96 750.877 3468
-2387.72 755.64 3490
-2384.14 757.156 3497
-2375.78 757.156 3497
-2367.42 757.156 3497
-2359.06 757.156 3497
-2350.69 757.156 3497
-2337.64 755.64 3490
-2329.3 755.64 3490
-2320.95 755.64 3490
-2307.97 754.125 3483
-2304.26 755.64 3490
-2295.91 755.64 3490
-2292.16 757.156 3497
-2293.59 760.404 3512
-2290.4 762.136 3520
-2281.98 762.136 3520
-2278.08 763.651 3527
-2269.65 763.651 3527
-2265.7 765.167 3534
-2257.25 765.167 3534
-2248.8 765.167 3534
-2240.35 765.167 3534
-2231.9 765.167 3534
-2219.05 763.651 3527
-2206.22 762.136 3520
-2202.18 763.651 3527
-2193.74 763.651 3527
-2185.31 763.651 3527
-2181.19 765.167 3534
-2177.66 766.899 3542
-2169.19 766.899 3542
-2160.72 766.899 3542
-2152.25 766.899 3542
-2138.94 765.167 3534
-2130.49 765.167 3534
-2122.04 765.167 3534
-2109.4 763.651 3527
-2100.97 763.651 3527
-2092.53 763.651 3527
-2079.96 762.136 3520
-2066.84 760.404 3512
-2045.54 755.64 3490
-2037.2 755.64 3490
-2007.93 747.846 3454
-1987.51 743.299 3433
-1975.26 741.783 3426
-1967.07 741.783 3426
-1950.87 738.752 3412
-1938.73 737.236 3405
-1922.65 734.205 3391
-1914.54 734.205 3391
-1902.49 732.69 3384
-1890.48 731.174 3377
-1886.31 732.69 3384
-1878.22 732.69 3384
-1870.13 732.69 3384
-1862.03 732.69 3384
-1853.94 732.69 3384
-1845.85 732.69 3384
-1837.76 732.69 3384
-1833.45 734.205 3391
-1836.65 738.752 3412
-1832.24 740.268 3419
-1824.06 740.268 3419
-1827.04 744.814 3440
-1826.21 747.846 3454
-1833.22 754.125 3483
-1824.89 754.125 3483
-1823.86 757.156 3497
-1819.65 758.888 3505
-1819.02 762.136 3520
-1810.61 762.136 3520
-1809.36 765.167 3534
-1804.98 766.899 3542
-1796.51 766.899 3542
-1788.04 766.899 3542
-1783.09 768.415 3549
-1778.6 770.147 3557
-1777.56 773.395 3572
-1769.02 773.395 3572
-1760.48 773.395 3572
-1751.94 773.395 3572
-1743.39 773.395 3572
-1734.85 773.395 3572
-1737.43 778.374 3595
-1740.37 783.571 3619
-1739.37 787.035 3635
-1730.68 787.035 3635
-1725.31 788.551 3642
-1724.14 792.015 3658
-1734.62 800.892 3699
-1725.77 800.892 3699
-1728.53 806.305 3724
-1731.17 811.718 3749
-1737.82 819.079 3783
-1728.78 819.079 3783
-1727.46 822.76 3800
-1726.51 826.657 3818
-1717.38 826.657 3818
-1708.25 826.657 3818
-1702.68 828.39 3826
-1693.53 828.39 3826
-1684.38 828.39 3826
-1667.79 824.709 3809
-1651.28 821.028 3792
-1627.05 813.45 3757
-1603.86 806.305 3724
-1594.95 806.305 3724
-1568.58 797.428 3683
-1539.45 787.035 3635
-1524.02 783.571 3619
-1515.36 783.571 3619
-1493.8 776.859 3588
-1472.39 770.147 3557
-1454.42 765.167 3534
-1445.97 765.167 3534
-1428.57 760.404 3512
-1417.34 758.888 3505
-1408.96 758.888 3505
-1403.38 760.404 3512
-1394.98 760.404 3512
-1389.74 762.136 3520
-1381.32 762.136 3520
-1372.9 762.136 3520
-1364.48 762.136 3520
-1361.46 765.167 3534
-1361.82 770.147 3557
-1359.02 773.395 3572
-1350.48 773.395 3572
-1344.94 775.127 3580
-1344.96 780.107 3603
-1339.31 781.839 3611
-1330.68 781.839 3611
-1327.9 785.303 3627
-1322.14 787.035 3635
-1313.45 787.035 3635
-1304.75 787.035 3635
-1304.26 792.015 3658
-1295.52 792.015 3658
-1286.77 792.015 3658
-1278.02 792.015 3658
-1269.27 792.015 3658
-1260.53 792.015 3658
-1249.04 790.283 3650
-1240.31 790.283 3650
-1228.89 788.551 3642
-1220.18 788.551 3642
-1211.47 788.551 3642
-1205.4 790.283 3650
-1196.67 790.283 3650
-1190.55 792.015 3658
-1184.71 793.964 3667
-1181.07 797.428 3683
-1172.26 797.428 3683
-1168.51 800.892 3699
-1162.17 802.624 3707
-1156.11 804.573 3716
-1147.22 804.573 3716
-1138.34 804.573 3716
-1126.71 802.624 3707
-1117.85 802.624 3707
-1108.98 802.624 3707
-1100.12 802.624 3707
-1100.97 809.769 3740
-1096.99 813.45 3757
-1088.01 813.45 3757
-1086.49 819.079 3783
-1080.01 821.028 3792
-1070.94 821.028 3792
-1061.87 821.028 3792
-1050.3 819.079 3783
-1041.26 819.079 3783
-1032.21 819.079 3783
-1020.73 817.131 3774
-1011.71 817.131 3774
-1000.56 815.399 3766
-991.55 815.399 3766
-980.196 813.45 3757
-969.144 811.718 3749
-957.874 809.769 3740
-951.214 811.718 3749
-942.249 811.718 3749
-933.284 811.718 3749
-926.292 813.45 3757
-917.308 813.45 3757
-908.323 813.45 3757
-897.424 811.718 3749
-886.326 809.769 3740
-877.383 809.769 3740
-866.582 808.037 3732
-855.819 806.305 3724
-846.914 806.305 3724
-838.009 806.305 3724
-829.103 806.305 3724
-820.198 806.305 3724
-811.293 806.305 3724
-802.388 806.305 3724
-795.187 808.037 3732
-786.263 808.037 3732
-779.005 809.769 3740
-771.914 811.718 3749
-762.949 811.718 3749
-753.984 811.718 3749
-746.609 813.45 3757
-737.625 813.45 3757
-728.641 813.45 3757
-719.657 813.45 3757
-710.673 813.45 3757
-700.194 811.718 3749
-691.229 811.718 3749
-682.264 811.718 3749
-671.683 809.769 3740
-656.892 802.624 3707
-648.027 802.624 3707
-635.025 797.428 3683
-624.857 795.696 3675
-616.069 795.696 3675
-607.281 795.696 3675
-595.725 792.015 3658
-585.693 790.283 3650
-573.33 785.303 3627
-563.411 783.571 3619
-554.757 783.571 3619
-546.103 783.571 3619
-536.26 781.839 3611
-525.288 778.374 3595
-516.691 778.374 3595
-507.105 776.859 3588
-498.525 776.859 3588
-489.945 776.859 3588
-481.365 776.859 3588
-472.785 776.859 3588
-463.17 775.127 3580
-455.625 776.859 3588
-447.045 776.859 3588
-438.465 776.859 3588
-429.885 776.859 3588
-421.305 776.859 3588
-412.725 776.859 3588
-404.145 776.859 3588
-394.683 775.127 3580
-386.122 775.127 3580
-377.561 775.127 3580
-369 775.127 3580
-360.439 775.127 3580
-351.092 773.395 3572
-342.55 773.395 3572
-332.606 770.147 3557
-324.1 770.147 3557
-315.594 770.147 3557
-307.779 771.879 3565
-299.254 771.879 3565
-290.729 771.879 3565
-282.758 773.395 3572
-274.217 773.395 3572
-265.675 773.395 3572
-257.133 773.395 3572
-248.591 773.395 3572
-239.042 770.147 3557
-230.536 770.147 3557
-221.531 768.415 3549
-213.044 768.415 3549
-204.557 768.415 3549
-196.07 768.415 3549
-187.214 766.899 3542
-178.744 766.899 3542
-170.61 768.415 3549
-162.489 770.147 3557
-153.983 770.147 3557
-145.477 770.147 3557
-136.971 770.147 3557
-128.465 770.147 3557
-119.69 768.415 3549
-110.984 766.899 3542
-102.079 763.651 3527
-93.6454 763.651 3527
-85.0421 762.136 3520
-50.1544 498.852 2304
-44.6448 498.852 2304
-39.1352 498.852 2304
-33.6257 498.852 2304
-28.1527 499.502 2307
-22.6752 500.368 2311
-17.1489 500.368 2311
-11.6226 500.368 2311
-6.09634 500.368 2311
-0.570775 501.018 2314
4.9627 501.018 2314
10.4962 501.018 2314
16.0089 500.368 2311
21.5352 500.368 2311
27.0615 500.368 2311
32.5314 499.502 2307
38.0481 499.502 2307
43.5082 498.852 2304
49.0178 498.852 2304
54.5273 498.852 2304
60.2193 500.368 2311
65.7456 500.368 2311
71.2719 500.368 2311
76.7982 500.368 2311
82.3245 500.368 2311
87.8508 500.368 2311
93.3771 500.368 2311
98.7322 499.502 2307
103.978 498.203 2301
109.337 497.553 2298
114.183 494.739 2285
119.647 494.739 2285
124.783 493.44 2279
130.061 492.79 2276
134.789 490.192 2264
140.203 490.192 2264
144.781 487.377 2251
149.764 486.078 2245
155.132 486.078 2245
160.501 486.078 2245
165.869 486.078 2245
171.237 486.078 2245
176.37 485.428 2242
181.731 485.428 2242
186.091 482.83 2230
191.166 482.181 2227
196.492 482.181 2227
201.817 482.181 2227
206.584 480.882 2221
211.609 480.232 2218
216.62 479.583 2215
221.716 479.15 2213
227.008 479.15 2213
231.985 478.5 2210
236.948 477.85 2207
241.896 477.201 2204
247.167 477.201 2204
252.437 477.201 2204
257.708 477.201 2204
263.336 477.85 2207
268.614 477.85 2207
273.891 477.85 2207
529.706 828.39 3826
538.855 828.39 3826
548.004 828.39 3826
555.988 826.657 3818
563.786 824.709 3809
572.894 824.709 3809
591.476 838.133 3871
600.733 838.133 3871
614.244 843.979 3898
623.566 843.979 3898
632.887 843.979 3898
642.208 843.979 3898
650.025 842.03 3889
660.851 843.979 3898
670.172 843.979 3898
679.493 843.979 3898
688.815 843.979 3898
698.136 843.979 3898
709.091 845.927 3907
718.434 845.927 3907
732.992 851.99 3935
745.798 855.887 3953
755.251 855.887 3953
764.703 855.887 3953
774.156 855.887 3953
783.609 855.887 3953
793.062 855.887 3953
800.688 853.938 3944
810.119 853.938 3944
815.602 849.825 3925
813.638 838.133 3871
822.895 838.133 3871
828.282 834.235 3853
837.495 834.235 3853
850.665 838.133 3871
859.921 838.133 3871
869.178 838.133 3871
874.35 834.235 3853
879.436 830.338 3835
888.607 830.338 3835
893.798 826.657 3818
898.671 822.76 3800
903.697 819.079 3783
912.743 819.079 3783
899.372 799.16 3691
902.293 793.964 3667
908.826 792.015 3658
915.567 790.283 3650
924.295 790.283 3650
930.978 788.551 3642
935.817 785.303 3627
944.49 785.303 3627
953.164 785.303 3627
959.715 783.571 3619
968.369 783.571 3619
974.864 781.839 3611
983.499 781.839 3611
989.936 780.107 3603
998.552 780.107 3603
1002.97 776.859 3588
1011.55 776.859 3588
1015.59 773.395 3572
1024.13 773.395 3572
1032.67 773.395 3572
1041.21 773.395 3572
1047.7 771.879 3565
1053.85 770.147 3557
1057.88 766.899 3542
1066.35 766.899 3542
1074.82 766.899 3542
1080.84 765.167 3534
1084.97 762.136 3520
1090.91 760.404 3512
1099.31 760.404 3512
1102.97 757.156 3497
1111.33 757.156 3497
1119.7 757.156 3497
1128.06 757.156 3497
1134.15 755.64 3490
1140.2 754.125 3483
1148.53 754.125 3483
1156.86 754.125 3483
1162.85 752.609 3476
1171.16 752.609 3476
1179.47 752.609 3476
1187.78 752.609 3476
1196.09 752.609 3476
1201.64 750.877 3468
1212.72 752.609 3476
1223.49 754.125 3483
1236.77 757.156 3497
1245.13 757.156 3497
1258.87 760.404 3512
1278.1 766.899 3542
1297.46 773.395 3572
1306 773.395 3572
1323.01 778.374 3595
1334.57 780.107 3603
1346.17 781.839 3611
1354.8 781.839 3611
1372.5 787.035 3635
1383.85 788.551 3642
1392.56 788.551 3642
1401.27 788.551 3642
1407.27 787.035 3635
1403.5 780.107 3603
1412.11 780.107 3603
1411.66 775.127 3580
1411.1 770.147 3557
1407.63 763.651 3527
1407.23 758.888 3505
1415.61 758.888 3505
1406.12 749.361 3461
1402.95 743.299 3433
1391.02 732.69 3384
1399.11 732.69 3384
1387.66 722.513 3337
1387.27 718.183 3317
1386.79 713.853 3297
1394.68 713.853 3297
1388.95 706.924 3265
1393.76 705.409 3258
1396.39 702.81 3246
1401.12 701.295 3239
1408.87 701.295 3239
1411.37 698.697 3227
1416.44 697.397 3221
1426.8 698.697 3227
1434.52 698.697 3227
1442.23 698.697 3227
1449.95 698.697 3227
1460.38 699.996 3233
1468.11 699.996 3233
1475.84 699.996 3233
1483.57 699.996 3233
1491.3 699.996 3233
1499.03 699.996 3233
1506.76 699.996 3233
1514.49 699.996 3233
1519.4 698.697 3227
1527.12 698.697 3227
1534.83 698.697 3227
1542.55 698.697 3227
1541.14 694.583 3208
1545.91 693.284 3202
1553.57 693.284 3202
1546.6 686.788 3172
1551.25 685.489 3166
1555.86 684.19 3160
1563.42 684.19 3160
1559.04 678.994 3136
1552.06 672.715 3107
1536.4 662.755 3061
1532.62 657.992 3039
1539.89 657.992 3039
1532.9 651.929 3011
1502.25 635.907 2937
1499 631.577 2917
1505.97 631.577 2917
1499.46 625.947 2891
1493.35 620.534 2866
1495.49 618.586 2857
1497.07 616.421 2847
1503.87 616.421 2847
1505.38 614.255 2837
1509.5 613.173 2832
1514.13 612.307 2828
1520.89 612.307 2828
1522.25 610.142 2818
1524.1 608.193 2809
1528.1 607.11 2804
1534.8 607.11 2804
1538.76 606.028 2799
1537.72 602.997 2785
1544.38 602.997 2785
1551.04 602.997 2785
1554.9 601.914 2780
1561.55 601.914 2780
1565.94 601.048 2776
1574.85 601.914 2780
1587.18 604.079 2790
1593.86 604.079 2790
1605.69 606.028 2799
1626.21 611.224 2823
1632.96 611.224 2823
1639.71 611.224 2823
2039.11 741.783 3426
2047.31 741.783 3426
2111.9 762.136 3520
2128.75 765.167 3534
2146.27 768.415 3549
2154.76 768.415 3549
2168.12 770.147 3557
2181.52 771.879 3565
2190.04 771.879 3565
2198.57 771.879 3565
2197.19 768.415 3549
2205.68 768.415 3549
2219.15 770.147 3557
2227.66 770.147 3557
2236.17 770.147 3557
2239.62 768.415 3549
2253.18 770.147 3557
2266.77 771.879 3565
2275.29 771.879 3565
2283.82 771.879 3565
2292.34 771.879 3565
2300.87 771.879 3565
2294.5 766.899 3542
2232.09 743.299 3433
2235.74 741.783 3426
2243.93 741.783 3426
2215.31 729.658 3370
2210.17 725.328 3350
2196.33 718.183 3317
2186.32 712.337 3290
2194.19 712.337 3290
2194.03 709.739 3278
2201.86 709.739 3278
2200.94 706.924 3265
2217.54 709.739 3278
2225.38 709.739 3278
2233.22 709.739 3278
2241.06 709.739 3278
2248.9 709.739 3278
2256.73 709.739 3278
2259.74 708.223 3271
2258.55 705.409 3258
2262.16 704.109 3252
2283.2 708.223 3271
2291.03 708.223 3271
2298.85 708.223 3271
2306.67 708.223 3271
2314.49 708.223 3271
2295.33 699.996 3233
2259.61 686.788 3172
2275.77 689.386 3184
2283.39 689.386 3184
2291 689.386 3184
2281.29 684.19 3160
2250.46 672.715 3107
2244.81 668.817 3089
2252.19 668.817 3089
2255.92 667.735 3084
2242.01 661.456 3055
2225.02 654.311 3022
2232.25 654.311 3022
2239.48 654.311 3022
2251.16 655.61 3028
2258.4 655.61 3028
2277.62 659.074 3044
2314.92 667.735 3084
2347.9 675.096 3118
2364.42 677.695 3130
2394.64 684.19 3160
2448.56 697.397 3221
2456.27 697.397 3221
2463.97 697.397 3221
-2680.43 783.703 3580
-2671.87 783.703 3580
-2692.33 792.24 3619
-2683.67 792.24 3619
-2675.02 792.24 3619
-2666.36 792.24 3619
-2645.96 788.738 3603
-2637.34 788.738 3603
-2628.73 788.738 3603
-2620.11 788.738 3603
-2617.29 790.489 3611
-2608.66 790.489 3611
-2600.02 790.489 3611
-2585.65 788.738 3603
-2577.03 788.738 3603
-2562.71 786.986 3595
-2554.12 786.986 3595
-2518.61 778.668 3557
-2504.46 776.916 3549
-2485.43 773.633 3534
-2476.98 773.633 3534
-2463.63 772.1 3527
-2424.57 762.468 3483
-2411.39 760.936 3476
-2403.07 760.936 3476
-2389.25 759.185 3468
-2380.96 759.185 3468
-2387.72 764.001 3490
-2379.37 764.001 3490
-2371.02 764.001 3490
-2362.68 764.001 3490
-2354.33 764.001 3490
-2345.99 764.001 3490
-2337.64 764.001 3490
-2329.3 764.001 3490
-2320.95 764.001 3490
-2303.33 760.936 3476
-2308.88 765.533 3497
-2300.52 765.533 3497
-2297.4 767.284 3505
-2293.59 768.817 3512
-2294.95 772.1 3527
-2286.52 772.1 3527
-2278.08 772.1 3527
-2274.15 773.633 3534
-2265.7 773.633 3534
-2257.25 773.633 3534
-2248.8 773.633 3534
-2240.35 773.633 3534
-2231.9 773.633 3534
-2223.45 773.633 3534
-2206.22 770.568 3520
-2202.18 772.1 3527
-2193.74 772.1 3527
-2185.31 772.1 3527
-2181.19 773.633 3534
-2177.66 775.384 3542
-2169.19 775.384 3542
-2160.72 775.384 3542
-2152.25 775.384 3542
-2143.78 775.384 3542
-2135.31 775.384 3542
-2122.04 773.633 3534
-2109.4 772.1 3527
-2100.97 772.1 3527
-2092.53 772.1 3527
-2079.96 770.568 3520
-2066.84 768.817 3512
-2045.54 764.001 3490
-2037.2 764.001 3490
-2016.06 759.185 3468
-1987.51 751.523 3433
-1975.26 749.99 3426
-1967.07 749.99 3426
-1954.88 748.458 3419
-1942.71 746.925 3412
-1922.65 742.328 3391
-1914.54 742.328 3391
-1906.43 742.328 3391
-1898.32 742.328 3391
-1886.31 740.796 3384
-1882.1 742.328 3391
-1873.99 742.328 3391
-1865.89 742.328 3391
-1857.78 742.328 3391
-1853.49 743.861 3398
-1845.36 743.861 3398
-1841.02 745.393 3405
-1836.65 746.925 3412
-1828.49 746.925 3412
-1820.33 746.925 3412
-1827.04 753.055 3440
-1826.21 756.12 3454
-1829.53 760.936 3476
-1821.22 760.936 3476
-1816.56 762.468 3483
-1815.5 765.533 3497
-1811.27 767.284 3505
-1802.89 767.284 3505
-1802.19 770.568 3520
-1797.34 772.1 3527
-1788.9 772.1 3527
-1780.47 772.1 3527
-1779.57 775.384 3542
-1774.6 776.916 3549
-1774.08 780.419 3565
-1765.55 780.419 3565
-1760.48 781.951 3572
-1751.94 781.951 3572
-1743.39 781.951 3572
-1734.85 781.951 3572
-1741.29 788.738 3603
-1740.37 792.24 3619
-1739.37 795.743 3635
-1730.68 795.743 3635
-1732.88 800.778 3658
-1728.38 802.748 3667
-1734.62 809.753 3699
-1725.77 809.753 3699
-1728.53 815.226 3724
-1734.86 822.45 3757
-1741.96 830.112 3792
-1732.89 830.112 3792
-1731.55 833.833 3809
-1726.51 835.803 3818
-1717.38 835.803 3818
-1708.25 835.803 3818
-1702.68 837.555 3826
-1693.53 837.555 3826
-1684.38 837.555 3826
-1675.23 837.555 3826
-1658.68 833.833 3809
-1642.21 830.112 3792
-1610.75 818.728 3740
-1601.8 818.728 3740
-1571.99 808.002 3691
-1536.06 793.991 3627
-1520.65 790.489 3611
-1512.01 790.489 3611
-1490.47 783.703 3580
-1469.08 776.916 3549
-1451.54 772.1 3527
-1443.11 772.1 3527
-1422.47 765.533 3497
-1411.28 764.001 3490
-1400.12 762.468 3483
-1397.38 765.533 3497
-1389.02 765.533 3497
-1380.66 765.533 3497
-1372.29 765.533 3497
-1369.78 768.817 3512
-1361.38 768.817 3512
-1358.76 772.1 3527
-1358.75 776.916 3549
-1356.35 780.419 3565
-1347.83 780.419 3565
-1344.94 783.703 3580
-1341.98 786.986 3595
-1339.31 790.489 3611
-1330.68 790.489 3611
-1324.97 792.24 3619
-1322.14 795.743 3635
-1313.45 795.743 3635
-1304.75 795.743 3635
-1301.41 799.026 3650
-1295.52 800.778 3658
-1286.77 800.778 3658
-1278.02 800.778 3658
-1269.27 800.778 3658
-1260.53 800.778 3658
-1249.04 799.026 3650
-1240.31 799.026 3650
-1226.52 795.743 3635
-1220.18 797.275 3642
-1211.47 797.275 3642
-1205.4 799.026 3650
-1196.67 799.026 3650
-1187.94 799.026 3650
-1181.8 800.778 3658
-1178.5 804.499 3675
-1169.72 804.499 3675
-1163.45 806.25 3683
-1159.66 809.753 3699
-1150.82 809.753 3699
-1141.97 809.753 3699
-1133.13 809.753 3699
-1124.28 809.753 3699
-1115.44 809.753 3699
-1106.59 809.753 3699
-1100.12 811.504 3707
-1096.26 815.226 3724
-1094.65 820.699 3749
-1085.69 820.699 3749
-1081.61 824.42 3766
-1077.44 828.142 3783
-1068.4 828.142 3783
-1059.35 828.142 3783
-1050.3 828.142 3783
-1038.78 826.171 3774
-1029.76 826.171 3774
-1018.57 824.42 3766
-1009.56 824.42 3766
-998.165 822.45 3757
-989.181 822.45 3757
-978.109 820.699 3749
-966.818 818.728 3740
-955.825 816.977 3732
-948.931 818.728 3740
-939.987 818.728 3740
-931.044 818.728 3740
-922.1 818.728 3740
-913.157 818.728 3740
-904.213 818.728 3740
-893.355 816.977 3732
-882.535 815.226 3724
-871.753 813.474 3716
-862.867 813.474 3716
-853.98 813.474 3716
-843.048 811.504 3707
-838.009 815.226 3724
-829.103 815.226 3724
-820.198 815.226 3724
-811.293 815.226 3724
-802.388 815.226 3724
-793.482 815.226 3724
-784.577 815.226 3724
-777.338 816.977 3732
-771.914 820.699 3749
-762.949 820.699 3749
-753.984 820.699 3749
-746.609 822.45 3757
-737.625 822.45 3757
-728.641 822.45 3757
-719.657 822.45 3757
-710.673 822.45 3757
-700.194 820.699 3749
-691.229 820.699 3749
-682.264 820.699 3749
-671.683 818.728 3740
-656.892 811.504 3707
-648.027 811.504 3707
-635.025 806.25 3683
-624.857 804.499 3675
-616.069 804.499 3675
-607.281 804.499 3675
-595.725 800.778 3658
-585.693 799.026 3650
-573.33 793.991 3627
-563.411 792.24 3619
-554.757 792.24 3619
-544.895 790.489 3611
-536.26 790.489 3611
-525.288 786.986 3595
-516.691 786.986 3595
-507.105 785.454 3588
-498.525 785.454 3588
-488.852 783.703 3580
-480.292 783.703 3580
-471.731 783.703 3580
-463.17 783.703 3580
-455.625 785.454 3588
-447.045 785.454 3588
-438.465 785.454 3588
-429.885 785.454 3588
-421.305 785.454 3588
-412.725 785.454 3588
-404.145 785.454 3588
-394.683 783.703 3580
-386.122 783.703 3580
-377.561 783.703 3580
-369 783.703 3580
-360.439 783.703 3580
-351.092 781.951 3572
-342.55 781.951 3572
-332.606 778.668 3557
-324.1 778.668 3557
-315.594 778.668 3557
-307.089 778.668 3557
-298.583 778.668 3557
-290.077 778.668 3557
-282.204 780.419 3565
-273.679 780.419 3565
-265.154 780.419 3565
-256.629 780.419 3565
-247.547 778.668 3557
-238.034 775.384 3542
-229.564 775.384 3542
-221.094 775.384 3542
-212.624 775.384 3542
-204.154 775.384 3542
-195.684 775.384 3542
-186.791 773.633 3534
-177.987 772.1 3527
-170.274 775.384 3542
-162.123 776.916 3549
-153.637 776.916 3549
-145.15 776.916 3549
-136.663 776.916 3549
-128.176 776.916 3549
-119.454 775.384 3542
-110.733 773.633 3534
-102.079 772.1 3527
-93.6454 772.1 3527
-85.0421 770.568 3520
-50.1544 504.372 2304
-44.6448 504.372 2304
-39.1352 504.372 2304
-33.6257 504.372 2304
-28.1527 505.028 2307
-22.6752 505.904 2311
-17.1489 505.904 2311
-11.6226 505.904 2311
-6.09634 505.904 2311
-0.570775 506.561 2314
4.9627 506.561 2314
10.4962 506.561 2314
16.0089 505.904 2311
21.5352 505.904 2311
27.0615 505.904 2311
32.5314 505.028 2307
38.0481 505.028 2307
43.5082 504.372 2304
49.0178 504.372 2304
54.5273 504.372 2304
60.2193 505.904 2311
65.7456 505.904 2311
71.2719 505.904 2311
76.7982 505.904 2311
82.3245 505.904 2311
87.8508 505.904 2311
93.3771 505.904 2311
98.7322 505.028 2307
103.978 503.715 2301
109.337 503.058 2298
114.183 500.212 2285
119.647 500.212 2285
124.783 498.899 2279
130.061 498.242 2276
134.789 495.615 2264
140.203 495.615 2264
144.781 492.769 2251
149.764 491.456 2245
155.132 491.456 2245
160.501 491.456 2245
165.869 491.456 2245
171.237 491.456 2245
176.37 490.799 2242
181.731 490.799 2242
186.091 488.172 2230
191.166 487.516 2227
196.492 487.516 2227
201.817 487.516 2227
206.584 486.202 2221
211.609 485.545 2218
216.62 484.889 2215
221.716 484.451 2213
227.008 484.451 2213
231.985 483.794 2210
236.948 483.137 2207
241.896 482.481 2204
247.167 482.481 2204
252.437 482.481 2204
257.708 482.481 2204
263.336 483.137 2207
268.614 483.137 2207
273.891 483.137 2207
537.728 835.803 3818
546.858 835.803 3818
555.988 835.803 3818
562.454 831.863 3800
571.541 831.863 3800
591.476 847.406 3871
600.733 847.406 3871
615.662 855.287 3907
625.005 855.287 3907
634.348 855.287 3907
643.691 855.287 3907
650.025 851.346 3889
657.799 849.376 3880
667.077 849.376 3880
676.356 849.376 3880
685.634 849.376 3880
694.912 849.376 3880
709.091 855.287 3907
718.434 855.287 3907
732.992 861.416 3935
745.798 865.357 3953
755.251 865.357 3953
764.703 865.357 3953
774.156 865.357 3953
783.609 865.357 3953
793.062 865.357 3953
800.688 863.386 3944
810.119 863.386 3944
815.602 859.227 3925
813.638 847.406 3871
822.895 847.406 3871
828.282 843.465 3853
837.495 843.465 3853
850.665 847.406 3871
859.921 847.406 3871
869.178 847.406 3871
876.393 845.436 3862
885.628 845.436 3862
894.863 845.436 3862
897.777 839.525 3835
902.928 835.803 3818
903.697 828.142 3783
912.743 828.142 3783
899.372 808.002 3691
904.262 804.499 3675
908.826 800.778 3658
915.567 799.026 3650
924.295 799.026 3650
930.978 797.275 3642
935.817 793.991 3627
944.49 793.991 3627
953.164 793.991 3627
961.837 793.991 3627
968.369 792.24 3619
974.864 790.489 3611
983.499 790.489 3611
989.936 788.738 3603
998.552 788.738 3603
1002.97 785.454 3588
1011.55 785.454 3588
1015.59 781.951 3572
1024.13 781.951 3572
1032.67 781.951 3572
1041.21 781.951 3572
1047.7 780.419 3565
1053.85 778.668 3557
1057.88 775.384 3542
1066.35 775.384 3542
1074.82 775.384 3542
1080.84 773.633 3534
1084.97 770.568 3520
1090.91 768.817 3512
1099.31 768.817 3512
1102.97 765.533 3497
1111.33 765.533 3497
1119.7 765.533 3497
1128.06 765.533 3497
1134.15 764.001 3490
1140.2 762.468 3483
1148.53 762.468 3483
1156.86 762.468 3483
1162.85 760.936 3476
1171.16 760.936 3476
1179.47 760.936 3476
1187.78 760.936 3476
1196.09 760.936 3476
1201.64 759.185 3468
1212.72 760.936 3476
1223.49 762.468 3483
1236.77 765.533 3497
1245.13 765.533 3497
1258.87 768.817 3512
1278.1 775.384 3542
1297.46 781.951 3572
1306 781.951 3572
1323.01 786.986 3595
1334.57 788.738 3603
1346.17 790.489 3611
1354.8 790.489 3611
1372.5 795.743 3635
1383.85 797.275 3642
1392.56 797.275 3642
1401.27 797.275 3642
1407.27 795.743 3635
1403.5 788.738 3603
1412.11 788.738 3603
1411.66 783.703 3580
1411.1 778.668 3557
1410.42 773.633 3534
1407.23 767.284 3505
1415.61 767.284 3505
1406.12 757.652 3461
1402.95 751.523 3433
1393.9 742.328 3391
1402 742.328 3391
1387.66 730.507 3337
1387.27 726.129 3317
1386.79 721.751 3297
1394.68 721.751 3297
1388.95 714.745 3265
1393.76 713.213 3258
1396.39 710.586 3246
1401.12 709.054 3239
1408.87 709.054 3239
1411.37 706.427 3227
1416.44 705.113 3221
1426.8 706.427 3227
1434.52 706.427 3227
1442.23 706.427 3227
1449.95 706.427 3227
1460.38 707.74 3233
1468.11 707.74 3233
1475.84 707.74 3233
1483.57 707.74 3233
1491.3 707.74 3233
