-1152.66 -1334.79 3853
-130.384 -752.443 2172
-125.19 -752.443 2172
-119.996 -752.443 2172
-114.643 -751.404 2169
-109.204 -749.672 2164
-103.741 -747.593 2158
-98.5805 -747.593 2158
-93.4201 -747.593 2158
-88.2596 -747.593 2158
-83.0992 -747.593 2158
-77.9388 -747.593 2158
-72.6772 -746.554 2155
-67.1792 -742.743 2144
-61.9076 -741.011 2139
-56.7926 -741.011 2139
-51.6776 -741.011 2139
-46.4973 -739.972 2136
-41.3313 -738.933 2133
-36.2307 -738.933 2133
-31.0133 -736.161 2125
-25.8707 -734.429 2120
-20.7423 -732.35 2114
-15.65 -730.618 2109
-10.6067 -730.618 2109
-5.55028 -728.886 2104
-0.517496 -726.807 2098
4.49517 -726.115 2096
9.50734 -726.115 2096
14.5195 -726.115 2096
19.5037 -725.075 2093
24.4853 -724.383 2091
29.4855 -724.383 2091
34.3868 -722.304 2085
39.2782 -720.572 2080
44.2521 -720.572 2080
49.226 -720.572 2080
54.2 -720.572 2080
59.2592 -721.611 2083
64.302 -722.304 2085
69.5537 -725.075 2093
74.5587 -725.075 2093
79.7538 -726.807 2098
85.0132 -728.886 2104
90.3868 -731.658 2112
95.5276 -732.35 2114
100.583 -732.35 2114
105.788 -733.39 2117
110.85 -733.39 2117
115.913 -733.39 2117
120.975 -733.39 2117
126.514 -736.161 2125
131.781 -737.2 2128
136.87 -737.2 2128
141.959 -737.2 2128
147.255 -738.24 2131
152.493 -738.933 2133
157.816 -739.972 2136
162.923 -739.972 2136
168.031 -739.972 2136
173.139 -739.972 2136
178.247 -739.972 2136
183.355 -739.972 2136
188.463 -739.972 2136
192.574 -736.161 2125
197.655 -736.161 2125
202.737 -736.161 2125
208.405 -738.24 2131
213.501 -738.24 2131
218.597 -738.24 2131
647.017 -1341.03 3871
670.175 -1369.43 3953
681.347 -1372.9 3963
690.824 -1372.9 3963
700.301 -1372.9 3963
718.195 -1389.18 4010
733.048 -1399.23 4039
742.706 -1399.23 4039
756.09 -1406.15 4059
765.796 -1406.15 4059
775.503 -1406.15 4059
781.825 -1366.31 3944
800.686 -1382.6 3991
810.229 -1382.6 3991
819.773 -1382.6 3991
829.317 -1382.6 3991
838.86 -1382.6 3991
848.404 -1382.6 3991
857.948 -1382.6 3991
867.491 -1382.6 3991
877.035 -1382.6 3991
886.579 -1382.6 3991
891.856 -1376.02 3972
905.666 -1382.6 3991
915.21 -1382.6 3991
924.754 -1382.6 3991
934.297 -1382.6 3991
941.713 -1379.48 3982
933.318 -1353.5 3907
956.173 -1372.9 3963
965.649 -1372.9 3963
975.126 -1372.9 3963
984.603 -1372.9 3963
994.08 -1372.9 3963
1467.45 -1337.91 3862
1476.68 -1337.91 3862
1485.92 -1337.91 3862
1495.15 -1337.91 3862
1497.38 -1331.67 3844
1506.57 -1331.67 3844
1512.21 -1328.55 3835
1514.64 -1322.66 3818
1516.58 -1316.43 3800
1525.67 -1316.43 3800
1524.26 -1307.42 3774
1523.12 -1298.76 3749
1528.41 -1295.64 3740
1534.07 -1292.87 3732
1542.99 -1292.87 3732
1541.52 -1284.21 3707
1543.69 -1278.67 3691
1552.52 -1278.67 3691
1561.34 -1278.67 3691
1559.96 -1270.35 3667
1561.46 -1264.46 3650
1566.74 -1261.69 3642
1575.45 -1261.69 3642
-2902.99 -1359.96 3953
-2893.54 -1359.96 3953
-2884.09 -1359.96 3953
-2868.09 -1356.87 3944
-2852.13 -1353.77 3935
-2829 -1347.23 3916
-2826.11 -1350.33 3925
-2816.73 -1350.33 3925
-2807.34 -1350.33 3925
-2797.96 -1350.33 3925
-2788.57 -1350.33 3925
-2721.83 -1322.46 3844
-2706.29 -1319.37 3835
-2690.79 -1316.27 3826
-2681.64 -1316.27 3826
-2672.49 -1316.27 3826
-2657.77 -1313.52 3818
-2642.4 -1310.42 3809
-2633.29 -1310.42 3809
-2612.47 -1304.57 3792
-2591.04 -1298.38 3774
-2570.39 -1292.53 3757
-2567.54 -1295.63 3766
-2558.53 -1295.63 3766
-2549.53 -1295.63 3766
-2540.52 -1295.63 3766
-2531.52 -1295.63 3766
-2511.12 -1289.78 3749
-2502.16 -1289.78 3749
-2504.5 -1295.63 3766
-2495.49 -1295.63 3766
-2486.49 -1295.63 3766
-2499.85 -1307.33 3800
-2490.76 -1307.33 3800
-2481.68 -1307.33 3800
-1358.53 -1328.66 3862
-1349.29 -1328.66 3862
-1361.92 -1350.33 3925
-1352.53 -1350.33 3925
-1343.15 -1350.33 3925
-1333.76 -1350.33 3925
-1315.26 -1341.04 3898
-1296.9 -1331.75 3871
-1287.64 -1331.75 3871
-1287.3 -1341.04 3898
-1277.98 -1341.04 3898
-1271.59 -1344.14 3907
-1274.2 -1356.87 3944
-1264.77 -1356.87 3944
-1255.34 -1356.87 3944
-1234.22 -1344.14 3907
-1224.87 -1344.14 3907
-1215.53 -1344.14 3907
-1195.07 -1331.75 3871
-1185.82 -1331.75 3871
-1171.09 -1325.56 3853
-1161.88 -1325.56 3853
-1152.66 -1325.56 3853
-130.384 -747.24 2172
-125.19 -747.24 2172
-119.996 -747.24 2172
-114.643 -746.208 2169
-109.204 -744.488 2164
-103.741 -742.424 2158
-98.5805 -742.424 2158
-93.2902 -741.392 2155
-88.1369 -741.392 2155
-82.9837 -741.392 2155
-77.8304 -741.392 2155
-72.6772 -741.392 2155
-67.1166 -736.919 2142
-61.9076 -735.887 2139
-56.7926 -735.887 2139
-51.6051 -734.855 2136
-46.432 -733.823 2133
-41.2344 -732.103 2128
-36.1457 -732.103 2128
-30.9695 -730.039 2122
-25.8341 -728.318 2117
-20.7227 -726.598 2112
-15.6129 -723.846 2104
-10.5816 -723.846 2104
-5.53445 -721.782 2098
-0.517003 -721.094 2096
4.48873 -720.062 2093
9.49373 -720.062 2093
14.4987 -720.062 2093
19.4851 -719.374 2091
24.4502 -718.341 2088
29.4432 -718.341 2088
34.3538 -716.621 2083
39.2405 -714.901 2078
44.2521 -715.589 2080
49.226 -715.589 2080
54.2 -715.589 2080
59.1739 -715.589 2080
64.2403 -716.621 2083
69.4872 -719.374 2091
74.4874 -719.374 2091
79.6777 -721.094 2096
84.7707 -721.782 2098
90.0445 -723.846 2104
95.5276 -727.286 2114
100.583 -727.286 2114
105.788 -728.318 2117
110.85 -728.318 2117
115.913 -728.318 2117
120.975 -728.318 2117
126.216 -729.35 2120
131.286 -729.35 2120
136.677 -731.071 2125
141.758 -731.071 2125
147.047 -732.103 2128
152.35 -733.135 2131
157.816 -734.855 2136
162.923 -734.855 2136
168.031 -734.855 2136
173.139 -734.855 2136
178.247 -734.855 2136
183.355 -734.855 2136
188.463 -734.855 2136
192.574 -731.071 2125
197.655 -731.071 2125
202.737 -731.071 2125
208.405 -733.135 2131
213.501 -733.135 2131
218.597 -733.135 2131
607.153 -1325.56 3853
616.367 -1325.56 3853
625.581 -1325.56 3853
630.346 -1316.27 3826
647.017 -1331.75 3871
667.124 -1353.77 3935
679.628 -1359.96 3953
689.081 -1359.96 3953
700.301 -1363.4 3963
714.792 -1373.04 3991
731.414 -1386.45 4030
741.051 -1386.45 4030
750.688 -1386.45 4030
760.325 -1386.45 4030
769.962 -1386.45 4030
781.825 -1356.87 3944
791.256 -1356.87 3944
800.688 -1356.87 3944
810.119 -1356.87 3944
819.55 -1356.87 3944
821.205 -1344.14 3907
840.326 -1359.96 3953
849.779 -1359.96 3953
859.232 -1359.96 3953
864.729 -1353.77 3935
874.139 -1353.77 3935
883.548 -1353.77 3935
901.355 -1366.5 3972
910.853 -1366.5 3972
920.351 -1366.5 3972
925.401 -1359.96 3953
923.976 -1344.14 3907
933.318 -1344.14 3907
956.173 -1363.4 3963
965.649 -1363.4 3963
975.126 -1363.4 3963
984.603 -1363.4 3963
994.08 -1363.4 3963
1467.45 -1328.66 3862
1476.68 -1328.66 3862
1485.92 -1328.66 3862
1495.15 -1328.66 3862
1497.38 -1322.46 3844
1506.57 -1322.46 3844
1512.21 -1319.37 3835
1514.64 -1313.52 3818
1520.18 -1310.42 3809
1529.28 -1310.42 3809
1524.26 -1298.38 3774
1523.12 -1289.78 3749
1528.41 -1286.68 3740
1534.07 -1283.93 3732
1542.99 -1283.93 3732
1548.59 -1281.18 3724
1547.04 -1272.58 3699
1555.88 -1272.58 3699
1564.73 -1272.58 3699
1559.96 -1261.57 3667
1568.73 -1261.57 3667
-2875.82 -1337.85 3916
-2880.36 -1344.34 3935
-2870.95 -1344.34 3935
-2861.54 -1344.34 3935
-2852.13 -1344.34 3935
-2829 -1337.85 3916
-2826.11 -1340.93 3925
-2816.73 -1340.93 3925
-2807.34 -1340.93 3925
-2797.96 -1340.93 3925
-2788.57 -1340.93 3925
-2721.83 -1313.26 3844
-2706.29 -1310.18 3835
-2690.79 -1307.11 3826
-2681.64 -1307.11 3826
-2672.49 -1307.11 3826
-2657.77 -1304.37 3818
-2642.4 -1301.3 3809
-2633.29 -1301.3 3809
-2612.47 -1295.49 3792
-2585.55 -1286.61 3766
-2570.39 -1283.53 3757
-2567.54 -1286.61 3766
-2558.53 -1286.61 3766
-2549.53 -1286.61 3766
-2540.52 -1286.61 3766
-2531.52 -1286.61 3766
-2505.1 -1277.73 3740
-2502.16 -1280.8 3749
-2504.5 -1286.61 3766
-2495.49 -1286.61 3766
-2486.49 -1286.61 3766
-2499.85 -1298.22 3800
-2490.76 -1298.22 3800
-2481.68 -1298.22 3800
-1371.63 -1350.49 3953
-1362.18 -1350.49 3953
-1352.73 -1350.49 3953
-1343.28 -1350.49 3953
-1318.3 -1334.78 3907
-1305.94 -1331.7 3898
-1296.62 -1331.7 3898
-1287.3 -1331.7 3898
-1277.98 -1331.7 3898
-1283.63 -1347.42 3944
-1277.11 -1350.49 3953
-1267.65 -1350.49 3953
-1258.2 -1350.49 3953
-1245.9 -1347.42 3944
-1227.69 -1337.85 3916
-1218.33 -1337.85 3916
-1203.41 -1331.7 3898
-1185.82 -1322.48 3871
-1176.56 -1322.48 3871
-1167.3 -1322.48 3871
-1152.66 -1316.33 3853
-130.384 -742.037 2172
-125.19 -742.037 2172
-119.996 -742.037 2172
-114.643 -741.012 2169
-108.75 -736.229 2155
-103.597 -736.229 2155
-98.4435 -736.229 2155
-93.0738 -734.521 2150
-88.0551 -735.546 2153
-82.9067 -735.546 2153
-77.7582 -735.546 2153
-72.3062 -732.471 2144
-67.0226 -730.763 2139
-61.7339 -728.713 2133
-56.6333 -728.713 2133
-51.4118 -727.005 2128
-46.3231 -727.005 2128
-41.1182 -724.955 2122
-35.9589 -723.247 2117
-30.8965 -723.247 2117
-25.7731 -721.539 2112
-20.6442 -718.806 2104
-15.5684 -716.756 2098
-10.5514 -716.756 2098
-5.52917 -716.073 2096
-0.516263 -715.048 2093
4.48445 -714.365 2091
9.48466 -714.365 2091
14.4849 -714.365 2091
19.4571 -713.34 2088
24.415 -712.315 2085
29.4009 -712.315 2085
34.3043 -710.607 2080
39.2405 -709.923 2078
44.2096 -709.923 2078
49.1787 -709.923 2078
54.1478 -709.923 2078
59.117 -709.923 2078
64.2403 -711.631 2083
69.4872 -714.365 2091
74.4874 -714.365 2091
79.6777 -716.073 2096
84.7707 -716.756 2098
90.0445 -718.806 2104
95.4373 -721.539 2112
100.488 -721.539 2112
105.538 -721.539 2112
110.589 -721.539 2112
115.639 -721.539 2112
120.689 -721.539 2112
125.859 -722.222 2114
131.1 -723.247 2117
136.355 -724.272 2120
141.425 -724.272 2120
146.633 -724.955 2122
152.136 -727.005 2128
157.446 -728.03 2131
162.542 -728.03 2131
168.031 -729.738 2136
173.139 -729.738 2136
178.247 -729.738 2136
183.355 -729.738 2136
188.021 -728.03 2131
192.574 -725.98 2125
197.655 -725.98 2125
202.45 -724.955 2122
207.329 -724.272 2120
211.798 -722.222 2114
216.853 -722.222 2114
550.263 -1334.78 3907
563.616 -1344.34 3935
573.026 -1344.34 3935
582.436 -1344.34 3935
593.199 -1347.42 3944
602.63 -1347.42 3944
612.062 -1347.42 3944
621.493 -1347.42 3944
625.005 -1334.78 3907
634.348 -1334.78 3907
634.794 -1316.33 3853
642.504 -1313.26 3844
651.696 -1313.26 3844
665.53 -1322.48 3871
674.787 -1322.48 3871
685.634 -1325.55 3880
699.748 -1334.78 3907
719.254 -1353.91 3963
728.731 -1353.91 3963
738.208 -1353.91 3963
747.685 -1353.91 3963
757.161 -1353.91 3963
781.825 -1347.42 3944
791.256 -1347.42 3944
800.688 -1347.42 3944
808.27 -1344.34 3935
811.862 -1334.78 3907
817.421 -1328.63 3889
830.547 -1334.78 3907
839.89 -1334.78 3907
849.233 -1334.78 3907
864.729 -1344.34 3935
874.139 -1344.34 3935
883.548 -1344.34 3935
897.043 -1350.49 3953
906.496 -1350.49 3953
915.949 -1350.49 3953
925.401 -1350.49 3953
923.976 -1334.78 3907
933.318 -1334.78 3907
956.173 -1353.91 3963
965.649 -1353.91 3963
975.126 -1353.91 3963
984.603 -1353.91 3963
994.08 -1353.91 3963
1464.03 -1316.33 3853
1473.24 -1316.33 3853
1482.45 -1316.33 3853
1491.67 -1316.33 3853
1497.38 -1313.26 3844
1506.57 -1313.26 3844
1512.21 -1310.18 3835
1514.64 -1304.37 3818
1520.18 -1301.3 3809
1529.28 -1301.3 3809
1524.26 -1289.34 3774
1523.12 -1280.8 3749
1528.41 -1277.73 3740
1530.78 -1272.26 3724
1539.68 -1272.26 3724
1548.59 -1272.26 3724
1547.04 -1263.72 3699
1555.88 -1263.72 3699
1564.73 -1263.72 3699
1563.36 -1255.52 3675
1568.73 -1252.79 3667
-2893.54 -1341.02 3953
-2884.09 -1341.02 3953
-2874.63 -1341.02 3953
-2865.18 -1341.02 3953
-2842.72 -1334.92 3935
-2833.31 -1334.92 3935
-2823.9 -1334.92 3935
-2800.9 -1328.47 3916
-2791.54 -1328.47 3916
-2782.18 -1328.47 3916
-2734.58 -1310.15 3862
-2718.99 -1307.1 3853
-2697.12 -1300.99 3835
-2687.95 -1300.99 3835
-2672.49 -1297.94 3826
-2657.77 -1295.23 3818
-2630.6 -1286.41 3792
-2621.54 -1286.41 3792
-2606.27 -1283.35 3783
-2585.55 -1277.59 3766
-2558.76 -1268.77 3740
-2549.81 -1268.77 3740
-2540.87 -1268.77 3740
-2531.93 -1268.77 3740
-2522.98 -1268.77 3740
-2514.04 -1268.77 3740
-2494.38 -1263.34 3724
-2496.15 -1268.77 3740
-2498.51 -1274.53 3757
-2495.49 -1277.59 3766
-2486.49 -1277.59 3766
-2477.48 -1277.59 3766
-2468.48 -1277.59 3766
-2459.47 -1277.59 3766
-1381.7 -1350.86 3982
-1372.17 -1350.86 3982
-1362.65 -1350.86 3982
-1343.28 -1341.02 3953
-1318.3 -1325.42 3907
-1308.96 -1325.42 3907
-1296.62 -1322.37 3898
-1287.3 -1322.37 3898
-1277.98 -1322.37 3898
-1286.56 -1341.02 3953
-1280.34 -1344.42 3963
-1270.86 -1344.42 3963
-1261.38 -1344.42 3963
-1248.75 -1341.02 3953
-1236.47 -1337.97 3944
-1227.04 -1337.97 3944
-1206.19 -1325.42 3907
-1185.82 -1313.21 3871
-1176.56 -1313.21 3871
-1167.3 -1313.21 3871
-130.384 -736.834 2172
-125.19 -736.834 2172
-119.996 -736.834 2172
-114.643 -735.816 2169
-108.75 -731.067 2155
-103.597 -731.067 2155
-98.4435 -731.067 2155
-93.0738 -729.371 2150
-88.0551 -730.388 2153
-82.9067 -730.388 2153
-77.7582 -730.388 2153
-72.3062 -727.335 2144
-67.0226 -725.639 2139
-61.7339 -723.604 2133
-56.6333 -723.604 2133
-51.4118 -721.907 2128
-46.3231 -721.907 2128
-41.1182 -719.872 2122
-35.9589 -718.176 2117
-30.8965 -718.176 2117
-25.7731 -716.48 2112
-20.6442 -713.766 2104
-15.5684 -711.73 2098
-10.5514 -711.73 2098
-5.52917 -711.052 2096
-0.516263 -710.034 2093
4.48445 -709.355 2091
9.48466 -709.355 2091
14.4849 -709.355 2091
19.4571 -708.338 2088
24.415 -707.32 2085
29.4009 -707.32 2085
34.3043 -705.624 2080
39.2405 -704.945 2078
44.2096 -704.945 2078
49.1787 -704.945 2078
54.1478 -704.945 2078
59.117 -704.945 2078
64.2403 -706.642 2083
69.4872 -709.355 2091
74.4874 -709.355 2091
79.6777 -711.052 2096
84.7707 -711.73 2098
90.0445 -713.766 2104
95.4373 -716.48 2112
100.488 -716.48 2112
105.538 -716.48 2112
110.589 -716.48 2112
115.639 -716.48 2112
120.689 -716.48 2112
125.859 -717.158 2114
131.1 -718.176 2117
136.355 -719.194 2120
141.425 -719.194 2120
146.633 -719.872 2122
152.136 -721.907 2128
157.446 -722.925 2131
162.542 -722.925 2131
168.031 -724.621 2136
173.139 -724.621 2136
178.247 -724.621 2136
183.355 -724.621 2136
188.021 -722.925 2131
192.574 -720.89 2125
197.655 -720.89 2125
202.45 -719.872 2122
207.329 -719.194 2120
211.798 -717.158 2114
216.853 -717.158 2114
551.53 -1328.47 3916
563.616 -1334.92 3935
573.026 -1334.92 3935
583.768 -1337.97 3944
593.199 -1337.97 3944
602.63 -1337.97 3944
612.062 -1337.97 3944
621.493 -1337.97 3944
627.885 -1331.53 3925
637.271 -1331.53 3925
640.725 -1319.31 3889
644.008 -1307.1 3853
653.222 -1307.1 3853
665.53 -1313.21 3871
674.787 -1313.21 3871
685.634 -1316.26 3880
699.748 -1325.42 3907
719.254 -1344.42 3963
728.731 -1344.42 3963
738.208 -1344.42 3963
747.685 -1344.42 3963
757.161 -1344.42 3963
781.825 -1337.97 3944
791.256 -1337.97 3944
800.688 -1337.97 3944
810.119 -1337.97 3944
817.68 -1334.92 3935
819.313 -1322.37 3898
832.461 -1328.47 3916
841.825 -1328.47 3916
851.189 -1328.47 3916
864.729 -1334.92 3935
874.139 -1334.92 3935
883.548 -1334.92 3935
897.043 -1341.02 3953
906.496 -1341.02 3953
915.949 -1341.02 3953
925.401 -1341.02 3953
923.976 -1325.42 3907
933.318 -1325.42 3907
956.173 -1344.42 3963
965.649 -1344.42 3963
975.126 -1344.42 3963
984.603 -1344.42 3963
994.08 -1344.42 3963
1464.03 -1307.1 3853
1473.24 -1307.1 3853
1482.45 -1307.1 3853
1491.67 -1307.1 3853
1497.38 -1304.05 3844
1506.57 -1304.05 3844
1512.21 -1300.99 3835
1514.64 -1295.23 3818
1520.18 -1292.17 3809
1529.28 -1292.17 3809
1524.26 -1280.3 3774
1523.12 -1271.82 3749
1528.41 -1268.77 3740
1530.78 -1263.34 3724
1539.68 -1263.34 3724
1548.59 -1263.34 3724
1547.04 -1254.86 3699
1555.88 -1254.86 3699
1564.73 -1254.86 3699
1563.36 -1246.72 3675
1568.73 -1244 3667
-2928.67 -1347.72 4001
-2919.11 -1347.72 4001
-2909.54 -1347.72 4001
-2878.95 -1337.96 3972
-2855.73 -1331.56 3953
-2846.27 -1331.56 3953
-2823.9 -1325.49 3935
-2800.9 -1319.09 3916
-2791.54 -1319.09 3916
-2782.18 -1319.09 3916
-2740.95 -1303.93 3871
-2718.99 -1297.87 3853
-2697.12 -1291.81 3835
-2687.95 -1291.81 3835
-2672.49 -1288.78 3826
-2657.77 -1286.08 3818
-2630.6 -1277.32 3792
-2621.54 -1277.32 3792
-2606.27 -1274.29 3783
-2579.37 -1265.53 3757
-2553.28 -1257.11 3732
-2549.81 -1259.81 3740
-2540.87 -1259.81 3740
-2531.93 -1259.81 3740
-2522.98 -1259.81 3740
-2514.04 -1259.81 3740
-2489.02 -1251.72 3716
-2485.47 -1254.42 3724
-2498.51 -1265.53 3757
-2489.53 -1265.53 3757
-2480.55 -1265.53 3757
-2477.48 -1268.56 3766
-2468.48 -1268.56 3766
-2459.47 -1268.56 3766
-1381.7 -1341.32 3982
-1372.17 -1341.32 3982
-1362.65 -1341.32 3982
-1346.67 -1334.92 3963
-1324.38 -1322.12 3925
-1308.96 -1316.06 3907
-1299.62 -1316.06 3907
-1287.3 -1313.03 3898
-1277.98 -1313.03 3898
-1286.56 -1331.56 3953
-1280.34 -1334.92 3963
-1270.86 -1334.92 3963
-1261.38 -1334.92 3963
-1248.75 -1331.56 3953
-1236.47 -1328.52 3944
-1227.04 -1328.52 3944
-1206.19 -1316.06 3907
-1185.82 -1303.93 3871
-1176.56 -1303.93 3871
-1167.3 -1303.93 3871
-124.21 -725.905 2155
-119.056 -725.905 2155
-113.903 -725.905 2155
-108.498 -724.22 2150
-103.212 -723.21 2147
-98.078 -723.21 2147
-92.814 -722.199 2144
-87.6053 -721.526 2142
-82.4831 -721.526 2142
-77.3609 -721.526 2142
-72.0364 -719.505 2136
-66.8346 -718.494 2133
-61.5024 -715.799 2125
-56.4209 -715.799 2125
-51.2669 -714.789 2122
-46.1925 -714.789 2122
-40.9632 -712.094 2114
-35.874 -711.42 2112
-30.8235 -711.42 2112
-25.6999 -709.399 2106
-20.5853 -706.704 2098
-15.5535 -706.031 2096
-10.5413 -706.031 2096
-5.52126 -705.02 2093
-0.515769 -704.346 2091
4.47801 -703.336 2088
9.47105 -703.336 2088
14.4641 -703.336 2088
19.4292 -702.325 2085
24.3916 -701.652 2083
29.3727 -701.652 2083
34.2713 -699.967 2078
39.2405 -699.967 2078
44.2096 -699.967 2078
49.1787 -699.967 2078
54.1478 -699.967 2078
59.117 -699.967 2078
64.1478 -700.641 2080
69.3875 -703.336 2088
74.4874 -704.346 2091
79.4877 -704.346 2091
84.6899 -706.031 2096
90.0445 -708.725 2104
95.3017 -710.41 2109
100.345 -710.41 2109
105.388 -710.41 2109
110.431 -710.41 2109
115.475 -710.41 2109
120.518 -710.41 2109
125.561 -710.41 2109
130.914 -712.094 2114
135.969 -712.094 2114
141.025 -712.094 2114
146.494 -714.115 2120
151.707 -714.789 2122
157.446 -717.82 2131
162.542 -717.82 2131
167.638 -717.82 2131
172.734 -717.82 2131
177.83 -717.82 2131
182.926 -717.82 2131
187.492 -715.799 2125
192.12 -714.115 2120
197.19 -714.115 2120
201.973 -713.104 2117
206.742 -712.094 2114
211.798 -712.094 2114
216.853 -712.094 2114
551.53 -1319.09 3916
563.616 -1325.49 3935
573.026 -1325.49 3935
583.768 -1328.52 3944
593.199 -1328.52 3944
602.63 -1328.52 3944
612.062 -1328.52 3944
621.493 -1328.52 3944
627.885 -1322.12 3925
637.271 -1322.12 3925
640.725 -1310 3889
644.008 -1297.87 3853
653.222 -1297.87 3853
662.435 -1297.87 3853
670.08 -1294.84 3844
679.272 -1294.84 3844
694.912 -1306.97 3880
709.091 -1316.06 3907
718.434 -1316.06 3907
734.669 -1328.52 3944
744.1 -1328.52 3944
753.531 -1328.52 3944
781.825 -1328.52 3944
791.256 -1328.52 3944
800.688 -1328.52 3944
810.119 -1328.52 3944
817.68 -1325.49 3935
819.313 -1313.03 3898
832.461 -1319.09 3916
841.825 -1319.09 3916
851.189 -1319.09 3916
864.729 -1325.49 3935
874.139 -1325.49 3935
883.548 -1325.49 3935
895.001 -1328.52 3944
904.432 -1328.52 3944
913.863 -1328.52 3944
916.74 -1319.09 3916
923.976 -1316.06 3907
933.318 -1316.06 3907
951.588 -1328.52 3944
961.02 -1328.52 3944
970.451 -1328.52 3944
1464.03 -1297.87 3853
1473.24 -1297.87 3853
1482.45 -1297.87 3853
1488.18 -1294.84 3844
1490.36 -1288.78 3826
1499.51 -1288.78 3826
1505.51 -1286.08 3818
1511.07 -1283.05 3809
1506.21 -1271.26 3774
1515.23 -1271.26 3774
1517.39 -1265.53 3757
1519.47 -1259.81 3740
1521.87 -1254.42 3724
1523.79 -1248.69 3707
1532.65 -1248.69 3707
1541.52 -1248.69 3707
1543.69 -1243.3 3691
1552.52 -1243.3 3691
1561.34 -1243.3 3691
1563.36 -1237.91 3675
1568.73 -1235.22 3667
-2942.58 -1344.49 4020
-2932.97 -1344.49 4020
-2923.36 -1344.49 4020
-2913.74 -1344.49 4020
-2876.68 -1331.78 3982
-2867.16 -1331.78 3982
-2836.82 -1322.09 3953
-2814.49 -1316.07 3935
-2805.08 -1316.07 3935
-2795.67 -1316.07 3935
-2753.69 -1300.68 3889
-2731.69 -1294.66 3871
-2709.78 -1288.64 3853
-2700.56 -1288.64 3853
-2678.77 -1282.62 3835
-2657.77 -1276.93 3818
-2630.6 -1268.24 3792
-2621.54 -1268.24 3792
-2606.27 -1265.23 3783
-2579.37 -1256.53 3757
-2553.28 -1248.17 3732
-2549.81 -1250.85 3740
-2540.87 -1250.85 3740
-2531.93 -1250.85 3740
-2522.98 -1250.85 3740
-2514.04 -1250.85 3740
-2489.02 -1242.82 3716
-2485.47 -1245.5 3724
-2498.51 -1256.53 3757
-2489.53 -1256.53 3757
-2480.55 -1256.53 3757
-2477.48 -1259.54 3766
-2468.48 -1259.54 3766
-2459.47 -1259.54 3766
-1381.7 -1331.78 3982
-1372.17 -1331.78 3982
-1362.65 -1331.78 3982
-1346.67 -1325.43 3963
-1324.38 -1312.72 3925
-1308.96 -1306.7 3907
-1299.62 -1306.7 3907
-1287.3 -1303.69 3898
-1277.98 -1303.69 3898
-1286.56 -1322.09 3953
-1280.34 -1325.43 3963
-1270.86 -1325.43 3963
-1261.38 -1325.43 3963
-1248.75 -1322.09 3953
-1236.47 -1319.08 3944
-1227.04 -1319.08 3944
-1206.19 -1306.7 3907
-123.576 -717.063 2144
-118.449 -717.063 2144
-113.322 -717.063 2144
-108.195 -717.063 2144
-103.068 -717.063 2144
-97.941 -717.063 2144
-92.5976 -715.391 2139
-87.3599 -714.388 2136
-82.1365 -713.384 2133
-77.0359 -713.384 2133
-71.9352 -713.384 2133
-66.5839 -710.709 2125
-61.4156 -709.705 2122
-56.3412 -709.705 2122
-51.1461 -708.033 2117
-46.0184 -707.03 2114
-40.8663 -705.358 2109
-35.7721 -704.354 2106
-30.736 -704.354 2106
-25.6023 -701.679 2098
-20.5657 -701.01 2096
-15.5313 -700.006 2093
-10.5263 -700.006 2093
-5.50807 -698.334 2088
-0.515029 -698.334 2088
4.47158 -697.331 2085
9.45744 -697.331 2085
14.4433 -697.331 2085
19.3826 -695.659 2080
24.3565 -695.659 2080
29.3304 -695.659 2080
34.2219 -693.986 2075
39.1838 -693.986 2075
44.1458 -693.986 2075
49.1077 -693.986 2075
54.0697 -693.986 2075
59.117 -694.99 2078
64.0861 -694.99 2078
69.2878 -697.331 2085
74.3806 -698.334 2088
79.3736 -698.334 2088
84.4879 -699.337 2091
89.9161 -702.682 2101
95.0758 -703.685 2104
100.107 -703.685 2104
105.138 -703.685 2104
110.17 -703.685 2104
115.201 -703.685 2104
120.061 -702.682 2101
125.264 -703.685 2104
130.605 -705.358 2109
135.841 -706.361 2112
140.891 -706.361 2112
145.942 -706.361 2112
151.349 -708.033 2117
156.781 -709.705 2122
161.856 -709.705 2122
167.166 -710.709 2125
172.247 -710.709 2125
177.329 -710.709 2125
182.411 -710.709 2125
187.492 -710.709 2125
191.395 -706.361 2112
196.446 -706.361 2112
201.496 -706.361 2112
206.253 -705.358 2109
211.297 -705.358 2109
216.34 -705.358 2109
551.53 -1309.71 3916
563.616 -1316.07 3935
573.026 -1316.07 3935
583.768 -1319.08 3944
593.199 -1319.08 3944
602.63 -1319.08 3944
612.062 -1319.08 3944
621.493 -1319.08 3944
630.924 -1319.08 3944
640.356 -1319.08 3944
640.725 -1300.68 3889
644.008 -1288.64 3853
653.222 -1288.64 3853
662.435 -1288.64 3853
668.511 -1282.62 3835
677.682 -1282.62 3835
688.465 -1285.63 3844
709.091 -1306.7 3907
718.434 -1306.7 3907
731.129 -1312.72 3925
740.515 -1312.72 3925
749.901 -1312.72 3925
781.825 -1319.08 3944
791.256 -1319.08 3944
800.688 -1319.08 3944
810.119 -1319.08 3944
817.68 -1316.07 3935
821.205 -1306.7 3907
832.461 -1309.71 3916
841.825 -1309.71 3916
851.189 -1309.71 3916
864.729 -1316.07 3935
874.139 -1316.07 3935
883.548 -1316.07 3935
892.958 -1316.07 3935
902.368 -1316.07 3935
911.778 -1316.07 3935
916.74 -1309.71 3916
926.104 -1309.71 3916
929.018 -1300.68 3889
951.588 -1319.08 3944
961.02 -1319.08 3944
970.451 -1319.08 3944
1460.61 -1285.63 3844
1469.8 -1285.63 3844
1478.99 -1285.63 3844
1481.21 -1279.61 3826
1470.11 -1262.22 3774
1479.13 -1262.22 3774
1488.16 -1262.22 3774
1497.18 -1262.22 3774
1503.01 -1259.54 3766
1512.02 -1259.54 3766
1514.16 -1253.86 3749
1512.97 -1245.5 3724
1514.93 -1239.81 3707
1520.5 -1237.14 3699
1529.35 -1237.14 3699
1534.87 -1234.46 3691
1543.69 -1234.46 3691
1549.15 -1231.78 3683
1557.96 -1231.78 3683
1559.96 -1226.43 3667
1564.88 -1223.42 3658
-2942.58 -1334.86 4020
-2932.97 -1334.86 4020
-2923.36 -1334.86 4020
-2913.74 -1334.86 4020
-2876.68 -1322.25 3982
-2867.16 -1322.25 3982
-2836.82 -1312.62 3953
-2814.49 -1306.64 3935
-2805.08 -1306.64 3935
-2795.67 -1306.64 3935
-2753.69 -1291.36 3889
-2731.69 -1285.39 3871
-2709.78 -1279.41 3853
-2700.56 -1279.41 3853
-2678.77 -1273.43 3835
-2651.51 -1264.8 3809
-2630.6 -1259.16 3792
-2621.54 -1259.16 3792
-2600.07 -1253.18 3774
-2579.37 -1247.53 3757
-2553.28 -1239.23 3732
-2544.36 -1239.23 3732
-2535.43 -1239.23 3732
-2526.51 -1239.23 3732
-2517.59 -1239.23 3732
-2508.66 -1239.23 3732
-2489.02 -1233.92 3716
-2485.47 -1236.58 3724
-2493.19 -1244.88 3749
-2489.53 -1247.53 3757
-2480.55 -1247.53 3757
-2471.56 -1247.53 3757
-2457.33 -1244.88 3749
-2448.37 -1244.88 3749
-1384.82 -1325.23 3991
-1375.28 -1325.23 3991
-1365.73 -1325.23 3991
-1356.19 -1325.23 3991
-1340.23 -1318.93 3972
-1314.99 -1303.32 3925
-1305.6 -1303.32 3925
-1290.27 -1297.34 3907
-1280.93 -1297.34 3907
-1289.81 -1315.94 3963
-1283.24 -1318.93 3972
-1273.75 -1318.93 3972
-1264.25 -1318.93 3972
-1251.91 -1315.94 3963
-1224.87 -1297.34 3907
-1215.53 -1297.34 3907
-123.576 -711.927 2144
-118.449 -711.927 2144
-113.322 -711.927 2144
-107.943 -710.267 2139
-102.828 -710.267 2139
-97.7126 -710.267 2139
-92.3378 -708.275 2133
-87.1554 -707.611 2131
-82.0595 -707.611 2131
-76.9636 -707.611 2131
-71.7666 -706.615 2128
-66.4899 -704.622 2122
-61.2708 -702.962 2117
-56.2085 -702.962 2117
-51.0736 -701.966 2114
-45.9095 -700.305 2109
-40.8081 -699.309 2106
-35.6871 -697.649 2101
-30.663 -697.649 2101
-25.6023 -696.653 2098
-20.5166 -694.328 2091
-15.4942 -693.332 2088
-10.5011 -693.332 2088
-5.50016 -692.336 2085
-0.514289 -692.336 2085
4.46729 -691.672 2083
9.44837 -691.672 2083
14.4295 -691.672 2083
19.3826 -690.676 2080
24.3331 -690.012 2078
29.3022 -690.012 2078
34.2219 -689.016 2075
39.1838 -689.016 2075
44.1458 -689.016 2075
49.1077 -689.016 2075
54.0697 -689.016 2075
59.117 -690.012 2078
64.0861 -690.012 2078
69.1217 -690.676 2080
74.2737 -692.336 2085
79.2596 -692.336 2085
84.4879 -694.328 2091
89.7021 -695.989 2096
95.0758 -698.645 2104
100.107 -698.645 2104
105.138 -698.645 2104
110.17 -698.645 2104
115.201 -698.645 2104
120.061 -697.649 2101
125.085 -697.649 2101
130.295 -698.645 2104
135.326 -698.645 2104
140.357 -698.645 2104
145.527 -699.309 2106
150.992 -701.302 2112
156.412 -702.962 2117
161.474 -702.962 2117
167.166 -705.618 2125
172.247 -705.618 2125
177.329 -705.618 2125
182.411 -705.618 2125
187.492 -705.618 2125
191.577 -701.966 2114
196.632 -701.966 2114
201.496 -701.302 2112
206.253 -700.305 2109
210.495 -697.649 2101
215.519 -697.649 2101
220.019 -695.989 2096
551.53 -1300.33 3916
560.895 -1300.33 3916
570.259 -1300.33 3916
579.623 -1300.33 3916
593.199 -1309.63 3944
602.63 -1309.63 3944
612.062 -1309.63 3944
621.493 -1309.63 3944
630.924 -1309.63 3944
640.356 -1309.63 3944
640.725 -1291.36 3889
644.008 -1279.41 3853
653.222 -1279.41 3853
662.435 -1279.41 3853
668.511 -1273.43 3835
674.678 -1267.79 3818
686.853 -1273.43 3835
712.358 -1303.32 3925
721.743 -1303.32 3925
732.992 -1306.64 3935
742.402 -1306.64 3935
751.812 -1306.64 3935
791.256 -1309.63 3944
800.688 -1309.63 3944
810.119 -1309.63 3944
817.68 -1306.64 3935
821.205 -1297.34 3907
832.461 -1300.33 3916
841.825 -1300.33 3916
851.189 -1300.33 3916
862.531 -1303.32 3925
871.917 -1303.32 3925
881.303 -1303.32 3925
890.689 -1303.32 3925
900.075 -1303.32 3925
909.461 -1303.32 3925
918.847 -1303.32 3925
926.104 -1300.33 3916
1434.01 -1253.18 3774
1443.03 -1253.18 3774
1452.06 -1253.18 3774
1461.08 -1253.18 3774
1463.49 -1247.53 3757
1476 -1250.52 3766
1485 -1250.52 3766
1494.01 -1250.52 3766
1499.42 -1247.53 3757
1508.41 -1247.53 3757
1514.16 -1244.88 3749
1506.06 -1230.93 3707
1514.93 -1230.93 3707
1520.5 -1228.27 3699
1529.35 -1228.27 3699
1531.54 -1222.96 3683
1540.35 -1222.96 3683
1549.15 -1222.96 3683
1557.96 -1222.96 3683
1559.96 -1217.65 3667
1564.88 -1214.66 3658
-2949.9 -1328.53 4030
-2940.26 -1328.53 4030
-2930.63 -1328.53 4030
-2920.99 -1328.53 4030
-2911.35 -1328.53 4030
-2901.72 -1328.53 4030
-2864.09 -1315.67 3991
-2827.37 -1303.15 3953
-2805.08 -1297.21 3935
-2795.67 -1297.21 3935
-2766.44 -1287.98 3907
-2744.39 -1282.05 3889
-2722.43 -1276.11 3871
-2713.18 -1276.11 3871
-2678.77 -1264.25 3835
-2657.77 -1258.64 3818
-2636.15 -1252.71 3800
-2627.07 -1252.71 3800
-2600.07 -1244.14 3774
-2579.37 -1238.53 3757
-2553.28 -1230.29 3732
-2544.36 -1230.29 3732
-2535.43 -1230.29 3732
-2526.51 -1230.29 3732
-2517.59 -1230.29 3732
-2508.66 -1230.29 3732
-2494.38 -1227.65 3724
-2485.47 -1227.65 3724
-2487.21 -1232.93 3740
-2484.23 -1235.9 3749
-2475.26 -1235.9 3749
-2466.3 -1235.9 3749
-2457.33 -1235.9 3749
-2448.37 -1235.9 3749
-1398.35 -1328.53 4030
-1388.72 -1328.53 4030
-1379.08 -1328.53 4030
-1359.59 -1318.97 4001
-1346.64 -1315.67 3991
-1324.37 -1303.15 3953
-1314.92 -1303.15 3953
-1302.49 -1300.18 3944
-1293.06 -1300.18 3944
-1292.74 -1309.41 3972
-1286.47 -1312.71 3982
-1276.95 -1312.71 3982
-1267.43 -1312.71 3982
-1254.75 -1309.41 3972
-1224.87 -1287.98 3907
-1215.53 -1287.98 3907
-123.576 -706.791 2144
-118.449 -706.791 2144
-113.322 -706.791 2144
-107.943 -705.143 2139
-102.539 -703.165 2133
-97.4385 -703.165 2133
-92.2512 -702.506 2131
-87.0327 -701.517 2128
-81.944 -701.517 2128
-76.8553 -701.517 2128
-71.4968 -698.88 2120
-66.3332 -697.891 2117
-61.1261 -696.242 2112
-56.0757 -696.242 2112
-50.8803 -694.264 2106
-45.8007 -693.605 2104
-40.7113 -692.616 2101
-35.6022 -690.968 2096
-30.59 -690.968 2096
-25.5168 -689.319 2091
-20.5166 -689.319 2091
-15.4942 -688.331 2088
-10.5011 -688.331 2088
-5.50016 -687.341 2085
-0.514289 -687.341 2085
4.46729 -686.682 2083
9.44837 -686.682 2083
14.4295 -686.682 2083
19.3826 -685.693 2080
24.3331 -685.034 2078
29.3022 -685.034 2078
34.2219 -684.045 2075
39.1838 -684.045 2075
44.1458 -684.045 2075
49.1077 -684.045 2075
54.0697 -684.045 2075
59.117 -685.034 2078
64.0861 -685.034 2078
69.1217 -685.693 2080
74.2737 -687.341 2085
79.2596 -687.341 2085
84.4879 -689.319 2091
89.7021 -690.968 2096
95.0758 -693.605 2104
100.107 -693.605 2104
105.138 -693.605 2104
110.17 -693.605 2104
115.201 -693.605 2104
120.232 -693.605 2104
125.085 -692.616 2101
130.295 -693.605 2104
135.326 -693.605 2104
140.357 -693.605 2104
145.734 -695.253 2109
150.992 -696.242 2112
156.412 -697.891 2117
161.474 -697.891 2117
167.166 -700.528 2125
172.247 -700.528 2125
177.329 -700.528 2125
182.411 -700.528 2125
187.492 -700.528 2125
191.849 -697.891 2117
196.911 -697.891 2117
201.496 -696.242 2112
206.253 -695.253 2109
210.796 -693.605 2104
215.827 -693.605 2104
220.228 -691.627 2098
551.53 -1290.95 3916
560.895 -1290.95 3916
570.259 -1290.95 3916
579.623 -1290.95 3916
593.199 -1300.18 3944
602.63 -1300.18 3944
612.062 -1300.18 3944
621.493 -1300.18 3944
630.924 -1300.18 3944
640.356 -1300.18 3944
640.725 -1282.05 3889
644.008 -1270.18 3853
653.222 -1270.18 3853
662.435 -1270.18 3853
668.511 -1264.25 3835
674.678 -1258.64 3818
686.853 -1264.25 3835
714.172 -1297.21 3935
723.582 -1297.21 3935
732.992 -1297.21 3935
742.402 -1297.21 3935
751.812 -1297.21 3935
791.256 -1300.18 3944
800.688 -1300.18 3944
810.119 -1300.18 3944
817.68 -1297.21 3935
821.205 -1287.98 3907
832.461 -1290.95 3916
841.825 -1290.95 3916
851.189 -1290.95 3916
862.531 -1293.92 3925
871.917 -1293.92 3925
881.303 -1293.92 3925
890.689 -1293.92 3925
900.075 -1293.92 3925
909.461 -1293.92 3925
918.847 -1293.92 3925
926.104 -1290.95 3916
1418.57 -1238.53 3757
1434.01 -1244.14 3774
1443.03 -1244.14 3774
1452.06 -1244.14 3774
1461.08 -1244.14 3774
1463.49 -1238.53 3757
1476 -1241.5 3766
1485 -1241.5 3766
1494.01 -1241.5 3766
1499.42 -1238.53 3757
1508.41 -1238.53 3757
1514.16 -1235.9 3749
1512.97 -1227.65 3724
1514.93 -1222.05 3707
1520.5 -1219.41 3699
1529.35 -1219.41 3699
1538.19 -1219.41 3699
1547.04 -1219.41 3699
1552.52 -1216.78 3691
1561.34 -1216.78 3691
1566.77 -1214.14 3683
1568.73 -1208.86 3667
-2963.81 -1325.09 4049
-2954.13 -1325.09 4049
-2944.44 -1325.09 4049
-2934.76 -1325.09 4049
-2911.35 -1318.88 4030
-2901.72 -1318.88 4030
-2884.9 -1315.6 4020
-2854.55 -1306.11 3991
-2811.5 -1290.73 3944
-2802.07 -1290.73 3944
-2779.18 -1284.51 3925
-2750.74 -1275.68 3898
-2728.76 -1269.79 3880
-2719.49 -1269.79 3880
-2691.35 -1260.95 3853
-2663.34 -1252.11 3826
-2642.4 -1246.55 3809
-2633.29 -1246.55 3809
-2617.98 -1243.61 3800
-2591.04 -1235.1 3774
-2570.39 -1229.53 3757
-2561.4 -1229.53 3757
-2552.42 -1229.53 3757
-2543.43 -1229.53 3757
-2534.45 -1229.53 3757
-2525.47 -1229.53 3757
-2516.48 -1229.53 3757
-2496.15 -1223.97 3740
-2487.21 -1223.97 3740
-2478.26 -1223.97 3740
-2469.32 -1223.97 3740
-2460.38 -1223.97 3740
-2451.43 -1223.97 3740
-2442.49 -1223.97 3740
-1408.41 -1328.37 4059
-1398.71 -1328.37 4059
-1389 -1328.37 4059
-1375.9 -1325.09 4049
-1353.06 -1312.33 4010
-1334.09 -1303.17 3982
-1324.56 -1303.17 3982
-1311.74 -1299.9 3972
-1302.24 -1299.9 3972
-1298.93 -1306.11 3991
-1298.75 -1315.6 4020
-1289.14 -1315.6 4020
-1279.53 -1315.6 4020
-1257.91 -1303.17 3982
-1224.87 -1278.62 3907
-1215.53 -1278.62 3907
-123.576 -701.655 2144
-118.449 -701.655 2144
-113.322 -701.655 2144
-107.943 -700.019 2139
-102.539 -698.056 2133
-97.4385 -698.056 2133
-92.2512 -697.401 2131
-87.0327 -696.419 2128
-81.944 -696.419 2128
-76.8553 -696.419 2128
-71.4968 -693.801 2120
-66.3332 -692.819 2117
-61.1261 -691.183 2112
-56.0757 -691.183 2112
-50.8803 -689.219 2106
-45.8007 -688.565 2104
-40.7113 -687.583 2101
-35.6022 -685.947 2096
-30.59 -685.947 2096
-25.5168 -684.31 2091
-20.4872 -683.329 2088
-15.4719 -682.347 2085
-10.486 -682.347 2085
-5.48697 -680.711 2080
-0.513056 -680.711 2080
4.46085 -680.711 2080
9.43476 -680.711 2080
14.4087 -680.711 2080
19.3639 -680.056 2078
24.2979 -679.074 2075
29.2599 -679.074 2075
34.1724 -678.092 2072
39.1272 -678.092 2072
44.1458 -679.074 2075
49.1077 -679.074 2075
54.0697 -679.074 2075
59.117 -680.056 2078
64.0861 -680.056 2078
69.1217 -680.711 2080
74.2025 -681.692 2083
79.1836 -681.692 2083
84.4879 -684.31 2091
89.7021 -685.947 2096
95.0758 -688.565 2104
100.107 -688.565 2104
105.138 -688.565 2104
110.17 -688.565 2104
115.201 -688.565 2104
120.232 -688.565 2104
125.085 -687.583 2101
130.109 -687.583 2101
135.326 -688.565 2104
140.357 -688.565 2104
145.734 -690.201 2109
150.992 -691.183 2112
156.19 -691.838 2114
161.245 -691.838 2114
166.93 -694.456 2122
172.247 -695.437 2125
177.329 -695.437 2125
182.411 -695.437 2125
187.227 -694.456 2122
191.849 -692.819 2117
196.911 -692.819 2117
201.496 -691.183 2112
206.253 -690.201 2109
210.796 -688.565 2104
215.827 -688.565 2104
220.228 -686.601 2098
543.925 -1263.9 3862
559.606 -1278.62 3907
568.948 -1278.62 3907
578.291 -1278.62 3907
588.988 -1281.57 3916
602.63 -1290.73 3944
612.062 -1290.73 3944
621.493 -1290.73 3944
623.566 -1275.68 3898
632.887 -1275.68 3898
636.277 -1263.9 3862
640.999 -1255.06 3835
642.88 -1240.99 3792
651.948 -1240.99 3792
661.016 -1240.99 3792
670.083 -1240.99 3792
686.853 -1255.06 3835
714.172 -1287.79 3935
723.582 -1287.79 3935
732.992 -1287.79 3935
742.402 -1287.79 3935
751.812 -1287.79 3935
787.444 -1284.51 3925
796.83 -1284.51 3925
806.216 -1284.51 3925
815.602 -1284.51 3925
819.313 -1275.68 3898
832.461 -1281.57 3916
841.825 -1281.57 3916
851.189 -1281.57 3916
862.531 -1284.51 3925
871.917 -1284.51 3925
881.303 -1284.51 3925
890.689 -1284.51 3925
900.075 -1284.51 3925
909.461 -1284.51 3925
918.847 -1284.51 3925
917.59 -1269.79 3880
1418.57 -1229.53 3757
1427.55 -1229.53 3757
1436.53 -1229.53 3757
1445.52 -1229.53 3757
1454.5 -1229.53 3757
1463.49 -1229.53 3757
1472.47 -1229.53 3757
1481.45 -1229.53 3757
1490.44 -1229.53 3757
1499.42 -1229.53 3757
1508.41 -1229.53 3757
1514.16 -1226.92 3749
1512.97 -1218.73 3724
1514.93 -1213.17 3707
1520.5 -1210.55 3699
1529.35 -1210.55 3699
1538.19 -1210.55 3699
1547.04 -1210.55 3699
1552.52 -1207.93 3691
1561.34 -1207.93 3691
1566.77 -1205.32 3683
1568.73 -1200.08 3667
-2973.49 -1315.4 4049
-2971.13 -1318.64 4059
-2961.42 -1318.64 4059
-2951.72 -1318.64 4059
-2934.76 -1315.4 4049
-2911.35 -1309.22 4030
-2901.72 -1309.22 4030
-2884.9 -1305.97 4020
-2861.7 -1299.8 4001
-2811.5 -1281.28 3944
-2802.07 -1281.28 3944
-2779.18 -1275.11 3925
-2750.74 -1266.34 3898
-2728.76 -1260.49 3880
-2719.49 -1260.49 3880
-2691.35 -1251.72 3853
-2663.34 -1242.95 3826
-2642.4 -1237.43 3809
-2633.29 -1237.43 3809
-2617.98 -1234.5 3800
-2591.04 -1226.06 3774
-2570.39 -1220.53 3757
-2567.54 -1223.46 3766
-2558.53 -1223.46 3766
-2549.53 -1223.46 3766
-2540.52 -1223.46 3766
-2531.52 -1223.46 3766
-2522.51 -1223.46 3766
-2502.16 -1217.93 3749
-2493.19 -1217.93 3749
-2484.23 -1217.93 3749
-2475.26 -1217.93 3749
-2460.38 -1215.01 3740
-2451.43 -1215.01 3740
-2442.49 -1215.01 3740
-1408.41 -1318.64 4059
-1398.71 -1318.64 4059
-1389 -1318.64 4059
-1375.9 -1315.4 4049
-1353.06 -1302.73 4010
-1334.09 -1293.63 3982
-1324.56 -1293.63 3982
-1311.74 -1290.38 3972
-1302.24 -1290.38 3972
-1298.93 -1296.55 3991
-1298.75 -1305.97 4020
-1289.14 -1305.97 4020
-1279.53 -1305.97 4020
-1257.91 -1293.63 3982
-1216.41 -1260.49 3880
-1207.13 -1260.49 3880
-123.288 -694.895 2139
-118.173 -694.895 2139
-113.058 -694.895 2139
-107.539 -692.296 2131
-102.443 -692.296 2131
-97.3471 -692.296 2131
-91.9915 -690.347 2125
-86.7873 -689.372 2122
-81.5204 -687.748 2117
-76.458 -687.748 2117
-71.3956 -687.748 2117
-66.0826 -685.149 2109
-60.9525 -684.174 2106
-55.9164 -684.174 2106
-50.7595 -682.55 2101
-45.7354 -682.55 2101
-40.6144 -680.926 2096
-35.5173 -679.301 2091
-30.5171 -679.301 2091
-25.4802 -678.327 2088
-20.4381 -676.703 2083
-15.4348 -675.728 2080
-10.4609 -675.728 2080
-5.47378 -674.104 2075
-0.511823 -674.104 2075
4.45657 -675.078 2078
9.42569 -675.078 2078
14.3948 -675.078 2078
19.336 -674.104 2075
24.2979 -674.104 2075
29.2599 -674.104 2075
34.1724 -673.129 2072
39.1272 -673.129 2072
44.0819 -673.129 2072
49.0367 -673.129 2072
53.9915 -673.129 2072
59.117 -675.078 2078
64.0861 -675.078 2078
69.1217 -675.728 2080
74.2025 -676.703 2083
79.1836 -676.703 2083
84.4879 -679.301 2091
89.7021 -680.926 2096
95.0758 -683.525 2104
100.107 -683.525 2104
105.138 -683.525 2104
110.17 -683.525 2104
115.201 -683.525 2104
120.232 -683.525 2104
125.085 -682.55 2101
130.109 -682.55 2101
135.455 -684.174 2106
140.491 -684.174 2106
145.734 -685.149 2109
150.992 -686.124 2112
156.19 -686.773 2114
161.245 -686.773 2114
166.773 -688.723 2120
172.004 -689.372 2122
177.079 -689.372 2122
182.153 -689.372 2122
187.051 -688.723 2120
191.849 -687.748 2117
196.911 -687.748 2117
201.973 -687.748 2117
206.547 -686.124 2112
210.796 -683.525 2104
215.827 -683.525 2104
220.543 -682.55 2101
538.855 -1242.95 3826
548.004 -1242.95 3826
557.153 -1242.95 3826
570.298 -1251.72 3853
582.219 -1257.57 3871
595.602 -1266.34 3898
604.923 -1266.34 3898
614.244 -1266.34 3898
622.126 -1263.42 3889
631.426 -1263.42 3889
631.829 -1245.87 3835
633.812 -1231.9 3792
641.354 -1228.98 3783
650.4 -1228.98 3783
659.447 -1228.98 3783
668.493 -1228.98 3783
698.136 -1266.34 3898
714.172 -1278.36 3935
723.582 -1278.36 3935
732.992 -1278.36 3935
742.402 -1278.36 3935
751.812 -1278.36 3935
782.028 -1266.34 3898
791.349 -1266.34 3898
800.67 -1266.34 3898
806.251 -1260.49 3880
804.179 -1242.95 3826
826.721 -1263.42 3889
836.021 -1263.42 3889
849.233 -1269.26 3907
858.576 -1269.26 3907
867.919 -1269.26 3907
877.261 -1269.26 3907
886.604 -1269.26 3907
895.947 -1269.26 3907
905.29 -1269.26 3907
910.419 -1263.42 3889
917.59 -1260.49 3880
909.908 -1237.43 3809
919.016 -1237.43 3809
928.125 -1237.43 3809
937.233 -1237.43 3809
1418.57 -1220.53 3757
1427.55 -1220.53 3757
1436.53 -1220.53 3757
1445.52 -1220.53 3757
1454.5 -1220.53 3757
1463.49 -1220.53 3757
1472.47 -1220.53 3757
1481.45 -1220.53 3757
1490.44 -1220.53 3757
1499.42 -1220.53 3757
1508.41 -1220.53 3757
1517.39 -1220.53 3757
1516.22 -1212.41 3732
1525.14 -1212.41 3732
1530.78 -1209.81 3724
1539.68 -1209.81 3724
1548.59 -1209.81 3724
1550.38 -1204.29 3707
1559.25 -1204.29 3707
1568.11 -1204.29 3707
1573.57 -1201.69 3699
1575.57 -1196.49 3683
1577.5 -1191.3 3667
1586.27 -1191.3 3667
-2973.49 -1305.7 4049
-2971.13 -1308.92 4059
-2961.42 -1308.92 4059
-2951.72 -1308.92 4059
-2934.76 -1305.7 4049
-2911.35 -1299.57 4030
-2901.72 -1299.57 4030
-2884.9 -1296.34 4020
-2861.7 -1290.22 4001
-2811.5 -1271.84 3944
-2802.07 -1271.84 3944
-2779.18 -1265.71 3925
-2750.74 -1257 3898
-2728.76 -1251.2 3880
-2719.49 -1251.2 3880
-2691.35 -1242.49 3853
-2663.34 -1233.78 3826
-2642.4 -1228.3 3809
-2633.29 -1228.3 3809
-2617.98 -1225.4 3800
-2591.04 -1217.02 3774
-2570.39 -1211.53 3757
-2567.54 -1214.44 3766
-2558.53 -1214.44 3766
-2549.53 -1214.44 3766
-2540.52 -1214.44 3766
-2531.52 -1214.44 3766
-2522.51 -1214.44 3766
-2502.16 -1208.95 3749
-2493.19 -1208.95 3749
-2484.23 -1208.95 3749
-2475.26 -1208.95 3749
-2460.38 -1206.05 3740
-2451.43 -1206.05 3740
-2442.49 -1206.05 3740
-1408.41 -1308.92 4059
-1398.71 -1308.92 4059
-1389 -1308.92 4059
-1375.9 -1305.7 4049
-1353.06 -1293.12 4010
-1337.1 -1286.99 3991
-1327.56 -1286.99 3991
-1311.74 -1280.87 3972
-1302.24 -1280.87 3972
-1305.11 -1293.12 4010
-1298.75 -1296.34 4020
-1289.14 -1296.34 4020
-1279.53 -1296.34 4020
-1266.75 -1293.12 4010
-1216.41 -1251.2 3880
-1207.13 -1251.2 3880
-135.003 -671.713 2083
-130.022 -671.713 2083
-125.041 -671.713 2083
-121.27 -678.485 2104
-116.515 -680.097 2109
-111.472 -680.097 2109
-106.429 -680.097 2109
-101.385 -680.097 2109
-96.3421 -680.097 2109
-91.0824 -678.485 2104
-86.0511 -678.485 2104
-81.0198 -678.485 2104
-75.9885 -678.485 2104
-70.856 -677.517 2101
-65.5812 -674.937 2093
-60.4315 -673.325 2088
-55.4385 -673.325 2088
-50.4454 -673.325 2088
-45.4524 -673.325 2088
-40.3625 -671.713 2083
-35.3814 -671.713 2083
-30.4003 -671.713 2083
-25.3216 -669.133 2075
-20.3596 -669.133 2075
-15.3754 -668.165 2072
-10.4206 -668.165 2072
-5.46059 -667.521 2070
-0.510589 -667.521 2070
4.4437 -668.165 2072
9.39848 -668.165 2072
14.3533 -668.165 2072
19.2894 -667.521 2070
24.2394 -667.521 2070
29.1894 -667.521 2070
34.1394 -667.521 2070
39.0894 -667.521 2070
44.0819 -668.165 2072
49.0367 -668.165 2072
53.9915 -668.165 2072
59.117 -670.1 2078
64.0861 -670.1 2078
69.1217 -670.745 2080
74.2025 -671.713 2083
79.1836 -671.713 2083
84.4879 -674.292 2091
89.7021 -675.905 2096
95.0758 -678.485 2104
100.107 -678.485 2104
105.138 -678.485 2104
110.17 -678.485 2104
115.201 -678.485 2104
120.232 -678.485 2104
125.085 -677.517 2101
130.109 -677.517 2101
135.455 -679.13 2106
140.491 -679.13 2106
145.734 -680.097 2109
150.992 -681.064 2112
156.19 -681.709 2114
161.245 -681.709 2114
166.773 -683.644 2120
172.004 -684.289 2122
177.079 -684.289 2122
182.153 -684.289 2122
187.051 -683.644 2120
191.849 -682.677 2117
196.911 -682.677 2117
201.973 -682.677 2117
206.547 -681.064 2112
210.796 -678.485 2104
215.827 -678.485 2104
220.543 -677.517 2101
538.855 -1233.78 3826
548.004 -1233.78 3826
557.153 -1233.78 3826
566.302 -1233.78 3826
580.866 -1245.39 3862
594.227 -1254.1 3889
603.526 -1254.1 3889
612.826 -1254.1 3889
622.126 -1254.1 3889
631.426 -1254.1 3889
631.829 -1236.69 3835
633.812 -1222.82 3792
641.354 -1219.92 3783
650.4 -1219.92 3783
659.447 -1219.92 3783
668.493 -1219.92 3783
698.136 -1257 3898
714.172 -1268.93 3935
723.582 -1268.93 3935
732.992 -1268.93 3935
742.402 -1268.93 3935
751.812 -1268.93 3935
771.194 -1239.59 3844
780.386 -1239.59 3844
789.578 -1239.59 3844
795.03 -1233.78 3826
804.179 -1233.78 3826
822.895 -1248.3 3871
832.151 -1248.3 3871
841.408 -1248.3 3871
852.643 -1251.2 3880
861.921 -1251.2 3880
871.199 -1251.2 3880
880.477 -1251.2 3880
889.756 -1251.2 3880
899.034 -1251.2 3880
897.777 -1236.69 3835
902.928 -1231.2 3818
909.908 -1228.3 3809
919.016 -1228.3 3809
928.125 -1228.3 3809
937.233 -1228.3 3809
1418.57 -1211.53 3757
1427.55 -1211.53 3757
1436.53 -1211.53 3757
1445.52 -1211.53 3757
1454.5 -1211.53 3757
1463.49 -1211.53 3757
1472.47 -1211.53 3757
1481.45 -1211.53 3757
1494.01 -1214.44 3766
1503.01 -1214.44 3766
1512.02 -1214.44 3766
1521.03 -1214.44 3766
1526.37 -1211.53 3757
1535.36 -1211.53 3757
1537.35 -1206.05 3740
1546.3 -1206.05 3740
1555.24 -1206.05 3740
1564.19 -1206.05 3740
1566.4 -1200.89 3724
1575.3 -1200.89 3724
1584.21 -1200.89 3724
1593.11 -1200.89 3724
1587.82 -1190.25 3691
1596.65 -1190.25 3691
-2980.83 -1299.2 4059
-2971.13 -1299.2 4059
-2961.42 -1299.2 4059
-2951.72 -1299.2 4059
-2934.76 -1296 4049
-2911.35 -1289.91 4030
-2901.72 -1289.91 4030
-2884.9 -1286.71 4020
-2861.7 -1280.63 4001
-2811.5 -1262.39 3944
-2802.07 -1262.39 3944
-2779.18 -1256.31 3925
-2750.74 -1247.66 3898
-2722.43 -1239.02 3871
-2713.18 -1239.02 3871
-2685.06 -1230.38 3844
-2657.77 -1222.06 3818
-2642.4 -1219.18 3809
-2633.29 -1219.18 3809
-2617.98 -1216.3 3800
-2591.04 -1207.97 3774
-2570.39 -1202.53 3757
-2567.54 -1205.41 3766
-2558.53 -1205.41 3766
-2549.53 -1205.41 3766
-2540.52 -1205.41 3766
-2531.52 -1205.41 3766
-2522.51 -1205.41 3766
-2507.5 -1202.53 3757
-2493.19 -1199.97 3749
-2484.23 -1199.97 3749
-2475.26 -1199.97 3749
-2460.38 -1197.09 3740
-1401.47 -1292.8 4039
-1391.82 -1292.8 4039
-1382.16 -1292.8 4039
-1369.44 -1289.91 4030
-1353.06 -1283.51 4010
-1337.1 -1277.43 3991
-1327.56 -1277.43 3991
-1311.74 -1271.35 3972
-1302.24 -1271.35 3972
-1305.11 -1283.51 4010
-1298.75 -1286.71 4020
-1289.14 -1286.71 4020
-1279.53 -1286.71 4020
-1266.75 -1283.51 4010
-1216.41 -1241.9 3880
-1207.13 -1241.9 3880
-135.003 -666.723 2083
-130.022 -666.723 2083
-125.041 -666.723 2083
-120.809 -670.884 2096
-115.907 -671.524 2098
-110.89 -671.524 2098
-105.874 -671.524 2098
-100.76 -670.884 2096
-95.7483 -670.884 2096
-90.7361 -670.884 2096
-85.6012 -669.924 2093
-80.5192 -669.283 2091
-75.519 -669.283 2091
-70.4176 -668.323 2088
-65.3306 -667.363 2085
-60.2868 -666.723 2083
-55.3057 -666.723 2083
-50.3246 -666.723 2083
-45.2783 -665.763 2080
-40.2075 -664.162 2075
-35.2455 -664.162 2075
-30.2835 -664.162 2075
-25.285 -663.202 2072
-20.3302 -663.202 2072
-15.3383 -661.602 2067
-10.3955 -661.602 2067
-5.45267 -661.602 2067
-0.509849 -661.602 2067
4.43297 -661.602 2067
9.3758 -661.602 2067
14.3186 -661.602 2067
19.2614 -661.602 2067
24.1808 -660.961 2065
29.1189 -660.961 2065
34.0569 -660.961 2065
39.0894 -662.562 2070
44.0819 -663.202 2072
49.0367 -663.202 2072
53.9915 -663.202 2072
59.0316 -664.162 2075
64.0861 -665.122 2078
69.0552 -665.122 2078
74.0956 -665.763 2080
79.0695 -665.763 2080
84.3667 -668.323 2088
89.5737 -669.924 2093
94.9402 -672.484 2101
99.9643 -672.484 2101
104.988 -672.484 2101
110.013 -672.484 2101
115.037 -672.484 2101
120.061 -672.484 2101
125.085 -672.484 2101
130.109 -672.484 2101
135.455 -674.085 2106
140.491 -674.085 2106
145.734 -675.045 2109
150.992 -676.005 2112
156.19 -676.645 2114
161.245 -676.645 2114
166.773 -678.566 2120
172.004 -679.206 2122
177.079 -679.206 2122
182.153 -679.206 2122
187.051 -678.566 2120
191.849 -677.605 2117
196.911 -677.605 2117
201.973 -677.605 2117
206.547 -676.005 2112
210.796 -673.444 2104
215.827 -673.444 2104
220.543 -672.484 2101
538.855 -1224.62 3826
548.004 -1224.62 3826
557.153 -1224.62 3826
566.302 -1224.62 3826
580.866 -1236.14 3862
594.227 -1244.78 3889
603.526 -1244.78 3889
612.826 -1244.78 3889
622.126 -1244.78 3889
631.426 -1244.78 3889
631.829 -1227.5 3835
633.812 -1213.74 3792
641.354 -1210.86 3783
650.4 -1210.86 3783
659.447 -1210.86 3783
668.493 -1210.86 3783
698.136 -1247.66 3898
714.172 -1259.51 3935
723.582 -1259.51 3935
732.992 -1259.51 3935
742.402 -1259.51 3935
751.812 -1259.51 3935
730.076 -1207.97 3774
760.218 -1227.5 3835
771.194 -1230.38 3844
780.386 -1230.38 3844
789.578 -1230.38 3844
795.03 -1224.62 3826
804.179 -1224.62 3826
822.895 -1239.02 3871
832.151 -1239.02 3871
841.408 -1239.02 3871
852.643 -1241.9 3880
861.921 -1241.9 3880
871.199 -1241.9 3880
880.477 -1241.9 3880
889.756 -1241.9 3880
899.034 -1241.9 3880
897.777 -1227.5 3835
902.928 -1222.06 3818
909.908 -1219.18 3809
919.016 -1219.18 3809
928.125 -1219.18 3809
937.233 -1219.18 3809
1418.57 -1202.53 3757
1427.55 -1202.53 3757
1436.53 -1202.53 3757
1445.52 -1202.53 3757
1454.5 -1202.53 3757
1463.49 -1202.53 3757
1472.47 -1202.53 3757
1481.45 -1202.53 3757
1494.01 -1205.41 3766
1503.01 -1205.41 3766
1512.02 -1205.41 3766
1521.03 -1205.41 3766
1530.03 -1205.41 3766
1535.36 -1202.53 3757
1544.34 -1202.53 3757
1553.33 -1202.53 3757
1562.31 -1202.53 3757
1567.95 -1199.97 3749
1576.91 -1199.97 3749
1585.88 -1199.97 3749
1587.61 -1194.53 3732
1593.11 -1191.97 3724
1602.02 -1191.97 3724
