571.081 1082.93 2717
576.728 1081.33 2713
578.486 1072.56 2691
584.921 1072.56 2691
587.4 1065.39 2673
589.127 1057.02 2652
595.469 1057.02 2652
601.811 1057.02 2652
608.152 1057.02 2652
614.494 1057.02 2652
619.9 1055.43 2648
626.232 1055.43 2648
632.564 1055.43 2648
638.896 1055.43 2648
643.279 1052.24 2640
649.592 1052.24 2640
655.905 1052.24 2640
650.045 1023.14 2567
669.476 1043.87 2619
684.253 1057.02 2652
690.595 1057.02 2652
696.937 1057.02 2652
710.173 1067.38 2678
724.605 1079.34 2708
731.08 1079.34 2708
737.556 1079.34 2708
744.032 1079.34 2708
750.507 1079.34 2708
752.231 1072.56 2691
758.666 1072.56 2691
762.542 1068.98 2682
772.683 1074.16 2695
779.127 1074.16 2695
785.572 1074.16 2695
792.016 1074.16 2695
798.461 1074.16 2695
804.905 1074.16 2695
802.318 1062.2 2665
803.533 1055.43 2648
809.865 1055.43 2648
816.197 1055.43 2648
822.529 1055.43 2648
826.357 1052.24 2640
832.67 1052.24 2640
838.983 1052.24 2640
845.296 1052.24 2640
851.609 1052.24 2640
856.297 1050.24 2635
862.599 1050.24 2635
868.9 1050.24 2635
879.519 1055.43 2648
888.527 1058.61 2656
896.563 1060.61 2661
902.926 1060.61 2661
915.099 1067.38 2678
924.255 1070.57 2686
930.678 1070.57 2686
937.101 1070.57 2686
951.252 1079.34 2708
957.728 1079.34 2708
964.204 1079.34 2708
970.679 1079.34 2708
972.464 1074.16 2695
978.909 1074.16 2695
991.934 1081.33 2713
1006.52 1090.1 2735
1013.06 1090.1 2735
1021.09 1091.7 2739
1031.02 1095.28 2748
1037.59 1095.28 2748
1044.16 1095.28 2748
1050.73 1095.28 2748
1053.84 1091.7 2739
1060.39 1091.7 2739
1066.94 1091.7 2739
1073.49 1091.7 2739
1076.49 1088.11 2730
1083.02 1088.11 2730
1082.76 1081.33 2713
1085.64 1077.75 2704
1088.47 1074.16 2695
1094.91 1074.16 2695
1101.36 1074.16 2695
1107.8 1074.16 2695
1123.34 1082.93 2717
1129.84 1082.93 2717
1136.33 1082.93 2717
1142.83 1082.93 2717
1141.71 1075.75 2699
1135.41 1063.8 2669
1141.79 1063.8 2669
1135.7 1052.24 2640
1131.19 1042.27 2615
1139.19 1043.87 2619
1150.7 1048.65 2631
1156.99 1048.65 2631
1163.28 1048.65 2631
1169.57 1048.65 2631
1185.25 1057.02 2652
1205.07 1068.98 2682
1211.49 1068.98 2682
1221.99 1072.56 2691
1228.42 1072.56 2691
1252.75 1088.11 2730
1259.28 1088.11 2730
1269.98 1091.7 2739
1287.25 1100.86 2762
1293.86 1100.86 2762
1300.46 1100.86 2762
1307.06 1100.86 2762
1311.29 1098.87 2757
1322.66 1102.86 2767
1329.28 1102.86 2767
1344.59 1110.03 2785
1358.04 1115.61 2799
1364.73 1115.61 2799
1371.43 1115.61 2799
1378.12 1115.61 2799
1384.81 1115.61 2799
1391.51 1115.61 2799
1393.7 1112.02 2790
1388.83 1102.86 2767
1381.33 1091.7 2739
1387.88 1091.7 2739
1394.43 1091.7 2739
1398.93 1090.1 2735
1405.47 1090.1 2735
1398.07 1079.34 2708
1404.55 1079.34 2708
1390.7 1063.8 2669
1392.9 1060.61 2661
1399.26 1060.61 2661
1405.62 1060.61 2661
1411.99 1060.61 2661
1418.35 1060.61 2661
1424.71 1060.61 2661
1431.08 1060.61 2661
1430.42 1055.43 2648
1427.53 1048.65 2631
1427.28 1043.87 2619
1429.16 1040.68 2611
1435.41 1040.68 2611
1441.65 1040.68 2611
1450.11 1042.27 2615
1463.05 1047.06 2627
1469.33 1047.06 2627
1475.61 1047.06 2627
1486.41 1050.24 2635
1514.23 1065.39 2673
1533.14 1074.16 2695
1539.59 1074.16 2695
1548.32 1075.75 2699
1557.66 1077.75 2704
1566.44 1079.34 2708
1572.91 1079.34 2708
1592.22 1088.11 2730
1601.68 1090.1 2735
1608.22 1090.1 2735
1614.76 1090.1 2735
1626.63 1093.69 2744
1638.55 1097.28 2753
1647.53 1098.87 2757
1654.12 1098.87 2757
1660.71 1098.87 2757
1675.77 1104.45 2771
1682.4 1104.45 2771
1692.07 1106.44 2776
1698.71 1106.44 2776
1707.8 1108.04 2780
1720.62 1112.02 2790
1735.96 1117.6 2804
1742.66 1117.6 2804
1749.37 1117.6 2804
1756.07 1117.6 2804
1762.78 1117.6 2804
1766.33 1115.61 2799
1767.32 1112.02 2790
1765.09 1106.44 2776
1771.73 1106.44 2776
1766.2 1098.87 2757
1764.43 1093.69 2744
1770.99 1093.69 2744
1783.38 1097.28 2753
1789.97 1097.28 2753
1796.55 1097.28 2753
1788.07 1088.11 2730
1794.6 1088.11 2730
1816.3 1097.28 2753
1822.88 1097.28 2753
1829.47 1097.28 2753
1836.05 1097.28 2753
1842.63 1097.28 2753
1849.22 1097.28 2753
1846.36 1091.7 2739
1852.91 1091.7 2739
1859.46 1091.7 2739
1863.29 1090.1 2735
1869.83 1090.1 2735
1879.11 1091.7 2739
1911.13 1106.44 2776
1917.77 1106.44 2776
1924.41 1106.44 2776
1931.05 1106.44 2776
1918.14 1095.28 2748
1924.71 1095.28 2748
1884.9 1068.98 2682
1876.5 1060.61 2661
1855.98 1045.46 2623
1862.25 1045.46 2623
1842.17 1030.71 2586
-1579.42 1026.08 2559
-1573.3 1026.08 2559
-1567.18 1026.08 2559
-1561.06 1026.08 2559
-1554.94 1026.08 2559
-1548.83 1026.08 2559
-1542.71 1026.08 2559
-1536.59 1026.08 2559
-1530.47 1026.08 2559
-1524.35 1026.08 2559
-1515.86 1024.48 2555
-1509.75 1024.48 2555
-1503.64 1024.48 2555
-1492.84 1021.27 2547
-1486.75 1021.27 2547
-1487.63 1026.08 2559
-1481.51 1026.08 2559
-1475.39 1026.08 2559
-1466.98 1024.48 2555
-1456.29 1021.27 2547
-1450.2 1021.27 2547
-1444.11 1021.27 2547
-1442.54 1024.48 2555
-1436.43 1024.48 2555
-1430.32 1024.48 2555
-1421.98 1022.87 2551
-1415.88 1022.87 2551
-1409.78 1022.87 2551
-1403.68 1022.87 2551
-1393.2 1019.67 2543
-1348.71 1013.65 2528
-1344.79 1015.26 2532
-1338.73 1015.26 2532
-1336.36 1018.06 2539
-1330.29 1018.06 2539
-1324.22 1018.06 2539
-1314.51 1015.26 2532
-1308.46 1015.26 2532
-1300.34 1013.65 2528
-1295.9 1019.67 2543
-1289.82 1019.67 2543
-1293.83 1027.69 2563
-1287.7 1027.69 2563
-1285.57 1030.89 2571
-1279.43 1030.89 2571
-1276.75 1033.7 2578
-1272.55 1035.3 2582
-1266.38 1035.3 2582
-1260.2 1035.3 2582
-1254.03 1035.3 2582
-1247.85 1035.3 2582
-1241.68 1035.3 2582
-1233.59 1033.7 2578
-1227.43 1033.7 2578
-1223.16 1035.3 2582
-1218.87 1036.91 2586
-1212.68 1036.91 2586
-1208.37 1038.51 2590
-1202.17 1038.51 2590
-1195.98 1038.51 2590
-968.506 1033.7 2578
-965.328 1036.91 2586
-959.144 1036.91 2586
-957.751 1042.12 2599
-960.322 1051.74 2623
-954.05 1051.74 2623
-955.366 1060.16 2644
-961.247 1073.8 2678
-954.843 1073.8 2678
-948.439 1073.8 2678
-946.608 1079.01 2691
-942.968 1082.22 2699
-947.271 1094.65 2730
-940.742 1094.65 2730
-939.005 1100.26 2744
-933.803 1101.87 2748
-927.231 1101.87 2748
-920.66 1101.87 2748
-912.758 1100.26 2744
-903.224 1096.65 2735
-896.684 1096.65 2735
-890.144 1096.65 2735
-883.604 1096.65 2735
-874.177 1093.04 2726
-857.792 1080.61 2695
-851.347 1080.61 2695
-842.081 1077.01 2686
-834.413 1075.4 2682
-828 1075.4 2682
-821.586 1075.4 2682
-807.27 1064.98 2656
-797.3 1060.16 2644
-784.695 1051.74 2623
-778.423 1051.74 2623
-770.973 1050.14 2619
-764.71 1050.14 2619
-757.289 1048.54 2615
-751.036 1048.54 2615
-744.783 1048.54 2615
-737.4 1046.93 2611
-732.276 1048.54 2615
-726.023 1048.54 2615
-719.77 1048.54 2615
-715.699 1051.74 2623
-710.509 1053.35 2627
-704.227 1053.35 2627
-697.945 1053.35 2627
-692.716 1054.95 2631
-686.424 1054.95 2631
-680.133 1054.95 2631
-672.817 1053.35 2627
-666.535 1053.35 2627
-663.52 1058.56 2640
-660.195 1063.37 2652
-653.853 1063.37 2652
-647.511 1063.37 2652
-641.169 1063.37 2652
-633.87 1061.77 2648
-627.538 1061.77 2648
-619.329 1058.56 2640
-613.016 1058.56 2640
-606.703 1058.56 2640
-600.39 1058.56 2640
-592.052 1054.95 2631
-583.089 1050.14 2619
-576.826 1050.14 2619
-574.049 1056.56 2635
-567.747 1056.56 2635
-561.446 1056.56 2635
-554.303 1054.95 2631
-548.011 1054.95 2631
-540.072 1051.74 2623
-533.8 1051.74 2623
-528.332 1053.35 2627
-522.05 1053.35 2627
-515.768 1053.35 2627
-509.486 1053.35 2627
-503.204 1053.35 2627
-496.922 1053.35 2627
-490.64 1053.35 2627
-484.358 1053.35 2627
-476.621 1050.14 2619
-470.358 1050.14 2619
-462.677 1046.93 2611
-456.434 1046.93 2611
-450.88 1048.54 2615
-444.626 1048.54 2615
-438.373 1048.54 2615
-431.459 1046.93 2611
-423.261 1042.12 2599
-417.046 1042.12 2599
-411.463 1043.72 2603
-405.239 1043.72 2603
-399.014 1043.72 2603
-392.789 1043.72 2603
-386.565 1043.72 2603
-380.34 1043.72 2603
-374.116 1043.72 2603
-367.891 1043.72 2603
-362.778 1046.93 2611
-356.534 1046.93 2611
-350.827 1048.54 2615
-347.21 1056.56 2635
-342.073 1060.16 2644
-335.75 1060.16 2644
-329.428 1060.16 2644
-323.105 1060.16 2644
-316.782 1060.16 2644
-309.403 1056.56 2635
-303.102 1056.56 2635
-297.815 1060.16 2644
-291.933 1061.77 2648
-285.601 1061.77 2648
-282.433 1073.8 2678
-276.029 1073.8 2678
-269.625 1073.8 2678
-263.221 1073.8 2678
-256.817 1073.8 2678
-249.197 1068.59 2665
-242.825 1068.59 2665
-236.097 1066.98 2661
-229.734 1066.98 2661
-223.37 1066.98 2661
-217.007 1066.98 2661
-209.615 1061.77 2648
-201.978 1054.95 2631
-196.355 1058.56 2640
-190.618 1061.77 2648
-184.564 1063.37 2652
-178.223 1063.37 2652
-171.881 1063.37 2652
-92.1859 903.786 2254
-86.7959 903.786 2254
-81.4059 903.786 2254
-75.6112 898.975 2242
-70.0619 896.569 2236
-64.6282 895.366 2233
-59.2884 895.366 2233
-53.8036 892.96 2227
-48.5435 894.163 2230
-43.2109 894.163 2230
-37.8783 894.163 2230
-32.5457 894.163 2230
-27.2131 894.163 2230
-21.7333 888.149 2215
-16.4366 888.149 2215
-11.1298 887.347 2213
-5.83782 887.347 2213
-0.546355 888.149 2215
4.76968 891.757 2224
10.0879 891.757 2224
15.4062 891.757 2224
20.7804 894.163 2230
26.1832 896.569 2236
31.5302 896.569 2236
36.9266 897.772 2239
42.2807 897.772 2239
47.6987 898.975 2242
53.06 898.975 2242
58.5776 901.381 2248
64.124 903.786 2254
69.6065 904.989 2257
75.0037 904.989 2257
80.4008 904.989 2257
86.0641 907.796 2264
91.478 907.796 2264
97.0203 908.999 2267
102.441 908.999 2267
107.863 908.999 2267
113.284 908.999 2267
118.862 910.202 2270
124.29 910.202 2270
129.718 910.202 2270
135.147 910.202 2270
140.761 911.405 2273
146.196 911.405 2273
152.432 916.216 2285
157.896 916.216 2285
163.36 916.216 2285
168.824 916.216 2285
174.288 916.216 2285
179.753 916.216 2285
185.46 917.419 2288
190.931 917.419 2288
197.261 921.429 2298
202.756 921.429 2298
208.251 921.429 2298
250.249 1051.74 2623
256.521 1051.74 2623
262.793 1051.74 2623
269.066 1051.74 2623
274.918 1050.14 2619
284.724 1063.37 2652
291.066 1063.37 2652
297.407 1063.37 2652
304.207 1064.98 2656
311.611 1068.59 2665
317.984 1068.59 2665
324.357 1068.59 2665
330.729 1068.59 2665
337.102 1068.59 2665
341.284 1061.77 2648
345.385 1054.95 2631
351.676 1054.95 2631
359.192 1058.56 2640
369.52 1070.19 2669
375.903 1070.19 2669
383.574 1073.8 2678
391.143 1077.01 2686
397.566 1077.01 2686
403.989 1077.01 2686
408.426 1071.79 2673
414.197 1070.19 2669
420.579 1070.19 2669
426.962 1070.19 2669
433.344 1070.19 2669
439.726 1070.19 2669
446.109 1070.19 2669
452.491 1070.19 2669
458.874 1070.19 2669
465.256 1070.19 2669
475.526 1079.01 2691
481.961 1079.01 2691
489.122 1080.61 2695
495.566 1080.61 2695
502.011 1080.61 2695
508.456 1080.61 2695
512.416 1075.4 2682
518.056 1073.8 2678
524.46 1073.8 2678
535.027 1082.22 2699
541.481 1082.22 2699
547.935 1082.22 2699
554.389 1082.22 2699
560.843 1082.22 2699
567.297 1082.22 2699
572.051 1079.01 2691
574.616 1071.79 2673
581.008 1071.79 2673
582.786 1063.37 2652
586.462 1058.56 2640
592.775 1058.56 2640
599.995 1060.16 2644
606.318 1060.16 2644
612.641 1060.16 2644
615.92 1054.95 2631
622.211 1054.95 2631
628.503 1054.95 2631
634.794 1054.95 2631
643.279 1058.56 2640
649.592 1058.56 2640
655.905 1058.56 2640
645.663 1032.1 2574
650.045 1029.29 2567
669.476 1050.14 2619
676.771 1051.74 2623
683.043 1051.74 2623
691.418 1054.95 2631
703.279 1063.37 2652
716.577 1073.8 2678
722.981 1073.8 2678
731.564 1077.01 2686
737.987 1077.01 2686
744.41 1077.01 2686
749.715 1075.4 2682
756.128 1075.4 2682
761.405 1073.8 2678
767.809 1073.8 2678
774.213 1073.8 2678
780.616 1073.8 2678
785.551 1071.79 2673
791.943 1071.79 2673
795.945 1068.59 2665
794.792 1058.56 2640
798.374 1054.95 2631
804.665 1054.95 2631
810.957 1054.95 2631
817.248 1054.95 2631
822.288 1053.35 2627
828.57 1053.35 2627
834.852 1053.35 2627
841.134 1053.35 2627
844.835 1050.14 2619
851.098 1050.14 2619
857.361 1050.14 2619
862.305 1048.54 2615
869.886 1050.14 2619
878.826 1053.35 2627
889.487 1058.56 2640
895.801 1058.56 2640
904.847 1061.77 2648
912.556 1063.37 2652
918.898 1063.37 2652
928.379 1066.98 2661
934.742 1066.98 2661
941.106 1066.98 2661
947.469 1066.98 2661
953.832 1066.98 2661
958.391 1064.98 2656
960.384 1060.16 2644
974.385 1068.59 2665
983.701 1071.79 2673
990.093 1071.79 2673
1009.53 1085.83 2708
1016.01 1085.83 2708
1022.48 1085.83 2708
1028.96 1085.83 2708
1033.91 1084.22 2704
1040.37 1084.22 2704
1046.84 1084.22 2704
1043.18 1073.8 2678
1047.62 1071.79 2673
1052.44 1070.19 2669
1058.82 1070.19 2669
1065.2 1070.19 2669
1071.58 1070.19 2669
1079.58 1071.79 2673
1085.97 1071.79 2673
1094.41 1073.8 2678
1100.81 1073.8 2678
1108.87 1075.4 2682
1122.35 1082.22 2699
1128.81 1082.22 2699
1135.26 1082.22 2699
1134.52 1075.4 2682
1128.17 1063.37 2652
1134.52 1063.37 2652
1133.55 1056.56 2635
1129.46 1046.93 2611
1135.71 1046.93 2611
1143.7 1048.54 2615
1153.47 1051.74 2623
1159.74 1051.74 2623
1167.8 1053.35 2627
1175.86 1054.95 2631
1183.95 1056.56 2635
1190.25 1056.56 2635
1204.28 1063.37 2652
1220.2 1071.79 2673
1244.95 1087.83 2713
1251.44 1087.83 2713
1263.95 1093.04 2726
1270.47 1093.04 2726
1276.99 1093.04 2726
1283.51 1093.04 2726
1290.03 1093.04 2726
1296.55 1093.04 2726
1317.88 1105.47 2757
1324.48 1105.47 2757
1342.17 1114.7 2780
1353.67 1118.71 2790
1362.3 1120.31 2794
1368.98 1120.31 2794
1375.66 1120.31 2794
1380.36 1118.71 2790
1387.03 1118.71 2790
1388.71 1114.7 2780
1388.83 1109.48 2767
1379.31 1096.65 2735
1385.85 1096.65 2735
1392.39 1096.65 2735
1398.93 1096.65 2735
1405.47 1096.65 2735
1396.01 1084.22 2704
1402.47 1084.22 2704
1390.7 1070.19 2669
1392.9 1066.98 2661
1399.26 1066.98 2661
1405.62 1066.98 2661
1411.99 1066.98 2661
1415.68 1064.98 2656
1417.75 1061.77 2648
1424.09 1061.77 2648
1428.26 1060.16 2644
1423.19 1051.74 2623
1427.28 1050.14 2619
1431.35 1048.54 2615
1437.6 1048.54 2615
1441.65 1046.93 2611
1452.33 1050.14 2619
1463.05 1053.35 2627
1471.57 1054.95 2631
1477.86 1054.95 2631
1486.41 1056.56 2635
1500.07 1061.77 2648
1528.02 1077.01 2686
1534.44 1077.01 2686
1548.32 1082.22 2699
1559.96 1085.83 2708
1566.44 1085.83 2708
1572.91 1085.83 2708
1592.22 1094.65 2730
1601.68 1096.65 2735
1613.51 1100.26 2744
1620.07 1100.26 2744
1626.63 1100.26 2744
1638.55 1103.87 2753
1647.53 1105.47 2757
1654.12 1105.47 2757
1660.71 1105.47 2757
1675.77 1111.09 2771
1682.4 1111.09 2771
1692.07 1113.09 2776
1698.71 1113.09 2776
1707.8 1114.7 2780
1723.09 1120.31 2794
1735.96 1124.32 2804
1742.66 1124.32 2804
1749.37 1124.32 2804
1756.07 1124.32 2804
1762.78 1124.32 2804
1766.33 1122.32 2799
1767.32 1118.71 2790
1765.09 1113.09 2776
1771.73 1113.09 2776
1766.2 1105.47 2757
1764.43 1100.26 2744
1770.99 1100.26 2744
1783.38 1103.87 2753
1789.97 1103.87 2753
1796.55 1103.87 2753
1793.96 1098.26 2739
1803.8 1100.26 2744
1818.94 1105.47 2757
1825.53 1105.47 2757
1832.12 1105.47 2757
1836.05 1103.87 2753
1842.63 1103.87 2753
1849.22 1103.87 2753
1846.36 1098.26 2739
1852.91 1098.26 2739
1859.46 1098.26 2739
1863.29 1096.65 2735
1869.83 1096.65 2735
1879.11 1098.26 2739
1911.13 1113.09 2776
1917.77 1113.09 2776
1924.41 1113.09 2776
1931.05 1113.09 2776
1918.14 1101.87 2748
1924.71 1101.87 2748
1884.9 1075.4 2682
1876.5 1066.98 2661
1855.98 1051.74 2623
1862.25 1051.74 2623
1842.17 1036.91 2586
-1543.62 1008.82 2501
-1537.64 1008.82 2501
-1543.3 1016.48 2520
-1539.71 1018.09 2524
-1533.68 1018.09 2524
-1527.64 1018.09 2524
-1521.61 1018.09 2524
-1515.57 1018.09 2524
-1509.53 1018.09 2524
-1503.5 1018.09 2524
-1497.46 1018.09 2524
-1491.43 1018.09 2524
-1491.87 1022.53 2535
-1485.8 1022.53 2535
-1486.75 1027.37 2547
-1482.98 1028.99 2551
-1476.88 1028.99 2551
-1470.78 1028.99 2551
-1464.68 1028.99 2551
-1454.01 1025.76 2543
-1450.2 1027.37 2547
-1444.11 1027.37 2547
-1442.54 1030.6 2555
-1436.43 1030.6 2555
-1430.32 1030.6 2555
-1421.98 1028.99 2551
-1415.88 1028.99 2551
-1409.78 1028.99 2551
-1403.68 1028.99 2551
-1393.2 1025.76 2543
-1348.71 1019.71 2528
-1344.79 1021.32 2532
-1338.73 1021.32 2532
-1332.68 1021.32 2532
-1326.62 1021.32 2532
-1320.57 1021.32 2532
-1314.51 1021.32 2532
-1308.46 1021.32 2532
-1300.34 1019.71 2528
-1295.9 1025.76 2543
-1289.82 1025.76 2543
-1291.81 1032.21 2559
-1287.7 1033.83 2563
-1283.57 1035.44 2567
-1277.44 1035.44 2567
-1274.76 1038.26 2574
-1270.58 1039.88 2578
-1266.38 1041.49 2582
-1260.2 1041.49 2582
-1254.03 1041.49 2582
-1245.92 1039.88 2578
-1239.76 1039.88 2578
-1231.68 1038.26 2574
-1224.09 1037.05 2571
-1217.95 1037.05 2571
-1213.21 1038.26 2574
-1207.06 1038.26 2574
-1200.9 1038.26 2574
-1194.75 1038.26 2574
-1188.59 1038.26 2574
-965.876 1037.05 2571
-962.341 1039.88 2578
-956.177 1039.88 2578
-954.434 1044.72 2590
-955.929 1053.19 2611
-951.14 1054.8 2615
-944.887 1054.8 2615
-949.043 1066.5 2644
-945.573 1069.73 2652
-939.231 1069.73 2652
-934.296 1071.34 2656
-935.631 1080.21 2678
-939.637 1092.31 2708
-933.161 1092.31 2708
-934.214 1101.19 2730
-932.443 1106.83 2744
-925.882 1106.83 2744
-919.32 1106.83 2744
-911.095 1104.82 2739
-903.224 1103.2 2735
-896.684 1103.2 2735
-890.144 1103.2 2735
-880.696 1099.57 2726
-867.122 1090.7 2704
-857.792 1087.07 2695
-851.347 1087.07 2695
-842.081 1083.44 2686
-834.413 1081.83 2682
-828 1081.83 2682
-821.586 1081.83 2682
-807.27 1071.34 2656
-797.3 1066.5 2644
-784.695 1058.03 2623
-778.423 1058.03 2623
-770.973 1056.41 2619
-764.71 1056.41 2619
-757.289 1054.8 2615
-751.036 1054.8 2615
-744.783 1054.8 2615
-737.4 1053.19 2611
-732.276 1054.8 2615
-726.023 1054.8 2615
-719.77 1054.8 2615
-715.699 1058.03 2623
-710.509 1059.64 2627
-704.227 1059.64 2627
-697.945 1059.64 2627
-692.716 1061.25 2631
-686.424 1061.25 2631
-680.133 1061.25 2631
-672.817 1059.64 2627
-666.535 1059.64 2627
-663.52 1064.89 2640
-660.195 1069.73 2652
-653.853 1069.73 2652
-647.511 1069.73 2652
-641.169 1069.73 2652
-633.87 1068.11 2648
-627.538 1068.11 2648
-619.329 1064.89 2640
-613.016 1064.89 2640
-606.703 1064.89 2640
-600.39 1064.89 2640
-592.052 1061.25 2631
-583.089 1056.41 2619
-576.826 1056.41 2619
-574.049 1062.87 2635
-567.747 1062.87 2635
-561.446 1062.87 2635
-554.303 1061.25 2631
-548.011 1061.25 2631
-540.072 1058.03 2623
-533.8 1058.03 2623
-528.332 1059.64 2627
-522.05 1059.64 2627
-515.768 1059.64 2627
-509.486 1059.64 2627
-503.204 1059.64 2627
-496.922 1059.64 2627
-490.64 1059.64 2627
-484.358 1059.64 2627
-476.621 1056.41 2619
-470.358 1056.41 2619
-462.677 1053.19 2611
-456.434 1053.19 2611
-450.88 1054.8 2615
-444.626 1054.8 2615
-438.373 1054.8 2615
-431.459 1053.19 2611
-423.261 1048.35 2599
-417.046 1048.35 2599
-411.463 1049.96 2603
-405.239 1049.96 2603
-399.014 1049.96 2603
-392.789 1049.96 2603
-386.565 1049.96 2603
-380.34 1049.96 2603
-374.116 1049.96 2603
-367.891 1049.96 2603
-362.778 1053.19 2611
-356.534 1053.19 2611
-350.827 1054.8 2615
-347.21 1062.87 2635
-342.073 1066.5 2644
-335.75 1066.5 2644
-329.428 1066.5 2644
-323.105 1066.5 2644
-316.782 1066.5 2644
-309.403 1062.87 2635
-303.102 1062.87 2635
-297.815 1066.5 2644
-291.933 1068.11 2648
-285.601 1068.11 2648
-282.433 1080.21 2678
-276.029 1080.21 2678
-269.625 1080.21 2678
-263.221 1080.21 2678
-256.817 1080.21 2678
-249.197 1074.97 2665
-242.825 1074.97 2665
-236.097 1073.36 2661
-229.734 1073.36 2661
-223.37 1073.36 2661
-217.007 1073.36 2661
-209.615 1068.11 2648
-201.978 1061.25 2631
-196.355 1064.89 2640
-190.618 1068.11 2648
-184.564 1069.73 2652
-178.223 1069.73 2652
-171.881 1069.73 2652
-92.1859 909.186 2254
-86.7959 909.186 2254
-81.4059 909.186 2254
-75.6112 904.345 2242
-70.0619 901.925 2236
-64.6282 900.715 2233
-59.2884 900.715 2233
-53.7312 897.085 2224
-48.4782 898.295 2227
-43.2109 899.505 2230
-37.8783 899.505 2230
-32.5457 899.505 2230
-27.1765 898.295 2227
-21.7137 892.648 2213
-16.4217 892.648 2213
-11.1298 892.648 2213
-5.83782 892.648 2213
-0.546355 893.455 2215
4.76968 897.085 2224
10.0879 897.085 2224
15.4062 897.085 2224
20.7804 899.505 2230
26.1481 900.715 2233
31.4879 900.715 2233
36.8771 901.925 2236
42.2807 903.135 2239
47.6987 904.345 2242
53.06 904.345 2242
58.5776 906.766 2248
64.0386 907.976 2251
69.514 909.186 2254
74.904 909.186 2254
80.294 909.186 2254
85.798 910.396 2257
91.1952 910.396 2257
96.8919 913.22 2264
102.306 913.22 2264
107.72 913.22 2264
113.134 913.22 2264
118.705 914.43 2267
124.126 914.43 2267
129.547 914.43 2267
135.147 915.64 2270
140.761 916.85 2273
146.196 916.85 2273
151.832 918.06 2276
157.274 918.06 2276
163.146 920.48 2282
168.603 920.48 2282
174.06 920.48 2282
179.753 921.69 2285
185.46 922.9 2288
190.931 922.9 2288
197.261 926.934 2298
202.756 926.934 2298
208.251 926.934 2298
213.747 926.934 2298
244.906 1035.44 2567
251.044 1035.44 2567
257.183 1035.44 2567
263.321 1035.44 2567
268.62 1032.21 2559
276.35 1038.26 2574
282.944 1039.88 2578
289.109 1039.88 2578
297.106 1046.33 2594
306.232 1056.41 2619
312.495 1056.41 2619
318.758 1056.41 2619
325.021 1056.41 2619
331.284 1056.41 2619
337.546 1056.41 2619
343.284 1054.8 2615
349.537 1054.8 2615
357.423 1059.64 2627
364.813 1062.87 2635
371.114 1062.87 2635
378.131 1064.89 2640
384.444 1064.89 2640
390.757 1064.89 2640
396.318 1062.87 2635
402.619 1062.87 2635
407.679 1059.64 2627
413.961 1059.64 2627
420.243 1059.64 2627
426.525 1059.64 2627
432.807 1059.64 2627
439.089 1059.64 2627
445.371 1059.64 2627
451.653 1059.64 2627
459.329 1062.87 2635
467.221 1066.5 2644
474.26 1068.11 2648
480.592 1068.11 2648
486.924 1068.11 2648
493.256 1068.11 2648
499.588 1068.11 2648
505.921 1068.11 2648
511.479 1066.5 2644
520.152 1071.34 2656
526.503 1071.34 2656
532.854 1071.34 2656
542.657 1078.2 2673
552.746 1085.46 2691
559.181 1085.46 2691
565.616 1085.46 2691
568.224 1078.2 2673
568.382 1066.5 2644
574.705 1066.5 2644
578.171 1061.25 2631
583.574 1059.64 2627
589.856 1059.64 2627
597.045 1061.25 2631
603.337 1061.25 2631
609.628 1061.25 2631
614.047 1058.03 2623
620.319 1058.03 2623
626.592 1058.03 2623
632.864 1058.03 2623
640.111 1059.64 2627
646.393 1059.64 2627
652.675 1059.64 2627
645.663 1038.26 2574
650.045 1035.44 2567
658.995 1039.88 2578
673.675 1053.19 2611
679.918 1053.19 2611
688.265 1056.41 2619
697.71 1061.25 2631
707.48 1066.5 2644
713.802 1066.5 2644
729.385 1080.21 2678
735.789 1080.21 2678
742.193 1080.21 2678
748.597 1080.21 2678
755.001 1080.21 2678
761.405 1080.21 2678
767.809 1080.21 2678
770.454 1074.97 2665
776.827 1074.97 2665
783.2 1074.97 2665
789.573 1074.97 2665
794.751 1073.36 2661
792.082 1061.25 2631
797.16 1059.64 2627
803.442 1059.64 2627
809.724 1059.64 2627
814.763 1058.03 2623
819.784 1056.41 2619
826.047 1056.41 2619
832.309 1056.41 2619
838.572 1056.41 2619
843.545 1054.8 2615
848.498 1053.19 2611
854.742 1053.19 2611
860.986 1053.19 2611
867.229 1053.19 2611
876.149 1056.41 2619
882.412 1056.41 2619
888.675 1056.41 2619
899.038 1061.25 2631
908.427 1064.89 2640
914.74 1064.89 2640
921.053 1064.89 2640
927.366 1064.89 2640
933.679 1064.89 2640
939.992 1064.89 2640
946.305 1064.89 2640
950.814 1062.87 2635
957.115 1062.87 2635
966.706 1066.5 2644
980.757 1074.97 2665
987.13 1074.97 2665
994.994 1076.58 2669
1002.88 1078.2 2673
1009.27 1078.2 2673
1015.66 1078.2 2673
1022.05 1078.2 2673
1025.37 1074.97 2665
1031.74 1074.97 2665
1029.93 1066.5 2644
1034.69 1064.89 2640
1039.03 1062.87 2635
1045.33 1062.87 2635
1055.22 1066.5 2644
1061.55 1066.5 2644
1067.87 1066.5 2644
1074.19 1066.5 2644
1085.42 1071.34 2656
1091.77 1071.34 2656
1103.49 1076.58 2669
1113.62 1080.21 2678
1120.02 1080.21 2678
1126.43 1080.21 2678
1125.64 1073.36 2661
1123.07 1064.89 2640
1129.38 1064.89 2640
1126.66 1056.41 2619
1126 1049.96 2603
1133.97 1051.57 2607
1143.7 1054.8 2615
1149.95 1054.8 2615
1156.21 1054.8 2615
1162.46 1054.8 2615
1170.5 1056.41 2619
1178.56 1058.03 2623
1184.83 1058.03 2623
1191.11 1058.03 2623
1205.14 1064.89 2640
1224.76 1076.58 2669
1231.14 1076.58 2669
1241.7 1080.21 2678
1251.83 1083.44 2686
1258.25 1083.44 2686
1264.68 1083.44 2686
1269.21 1081.83 2682
1281.8 1087.07 2695
1303.07 1099.57 2726
1309.58 1099.57 2726
1333.48 1114.1 2762
1348.82 1121.36 2780
1357.91 1123.37 2785
1364.57 1123.37 2785
1371.23 1123.37 2785
1375.41 1121.36 2780
1382.06 1121.36 2780
1382.22 1116.11 2767
1379.3 1108.45 2748
1374.77 1099.57 2726
1381.29 1099.57 2726
1387.81 1099.57 2726
1394.33 1099.57 2726
1400.85 1099.57 2726
1393.43 1088.68 2699
1399.88 1088.68 2699
1388.62 1074.97 2665
1390.28 1071.34 2656
1396.63 1071.34 2656
1402.98 1071.34 2656
1409.33 1071.34 2656
1413.55 1069.73 2652
1415.61 1066.5 2644
1421.93 1066.5 2644
1426.1 1064.89 2640
1421.01 1056.41 2619
1427.28 1056.41 2619
1431.35 1054.8 2615
1437.6 1054.8 2615
1441.65 1053.19 2611
1452.33 1056.41 2619
1463.05 1059.64 2627
1471.57 1061.25 2631
1477.86 1061.25 2631
1486.41 1062.87 2635
1500.07 1068.11 2648
1528.02 1083.44 2686
1534.44 1083.44 2686
1548.32 1088.68 2699
1559.96 1092.31 2708
1566.44 1092.31 2708
1572.91 1092.31 2708
1592.22 1101.19 2730
1601.68 1103.2 2735
1613.51 1106.83 2744
1620.07 1106.83 2744
1626.63 1106.83 2744
1635.58 1108.45 2748
1647.53 1112.08 2757
1654.12 1112.08 2757
1660.71 1112.08 2757
1667.3 1112.08 2757
1673.9 1112.08 2757
1689.02 1117.73 2771
1695.65 1117.73 2771
1707.8 1121.36 2780
1723.09 1127 2794
1735.96 1131.04 2804
1742.66 1131.04 2804
1749.37 1131.04 2804
1756.07 1131.04 2804
1762.78 1131.04 2804
1766.33 1129.02 2799
1764.15 1123.37 2785
1765.09 1119.74 2776
1771.73 1119.74 2776
1763.63 1110.47 2753
1758.64 1103.2 2735
1765.18 1103.2 2735
1780.14 1108.45 2748
1786.72 1108.45 2748
1793.29 1108.45 2748
1793.96 1104.82 2739
1803.8 1106.83 2744
1818.94 1112.08 2757
1825.53 1112.08 2757
1832.12 1112.08 2757
1836.05 1110.47 2753
1842.63 1110.47 2753
1845.86 1108.45 2748
1843.67 1103.2 2735
1850.21 1103.2 2735
1856.75 1103.2 2735
1863.29 1103.2 2735
1869.83 1103.2 2735
1872.94 1101.19 2730
1901.5 1114.1 2762
1908.1 1114.1 2762
1914.7 1114.1 2762
1921.31 1114.1 2762
1915.35 1106.83 2744
1921.91 1106.83 2744
1884.9 1081.83 2682
1876.5 1073.36 2661
1855.98 1058.03 2623
1862.25 1058.03 2623
1842.17 1043.1 2586
-1535.97 1005.88 2479
-1543.62 1014.81 2501
-1537.64 1014.81 2501
-1536.56 1018.05 2509
-1532.39 1019.27 2512
-1528.82 1020.89 2516
-1522.8 1020.89 2516
-1516.78 1020.89 2516
-1515.57 1024.14 2524
-1509.53 1024.14 2524
-1503.5 1024.14 2524
-1497.46 1024.14 2524
-1496.16 1027.39 2532
-1490.1 1027.39 2532
-1484.05 1027.39 2532
-1489.08 1035.1 2551
-1485.31 1036.72 2555
-1479.2 1036.72 2555
-1473.09 1036.72 2555
-1466.98 1036.72 2555
-1460.87 1036.72 2555
-1454.76 1036.72 2555
-1448.65 1036.72 2555
-1447.05 1039.97 2563
-1440.93 1039.97 2563
-1434.8 1039.97 2563
-1428.67 1039.97 2563
-1422.54 1039.97 2563
-1411.99 1036.72 2555
-1405.88 1036.72 2555
-1397.58 1035.1 2551
-1338.14 1013.19 2497
-1348.71 1025.76 2528
-1342.66 1025.76 2528
-1336.62 1025.76 2528
-1330.57 1025.76 2528
-1324.53 1025.76 2528
-1318.48 1025.76 2528
-1312.44 1025.76 2528
-1306.39 1025.76 2528
-1267.16 1004.26 2475
-1295.9 1031.85 2543
-1289.82 1031.85 2543
-1283.74 1031.85 2543
-1279.66 1033.47 2547
-1277.57 1036.72 2555
-1271.46 1036.72 2555
-1267.34 1038.34 2559
-1263.19 1039.97 2563
-1257.06 1039.97 2563
-1250.93 1039.97 2563
-1244.8 1039.97 2563
-1238.67 1039.97 2563
-1232.54 1039.97 2563
-1226.41 1039.97 2563
-1220.29 1039.97 2563
-1214.16 1039.97 2563
-1209.91 1041.59 2567
-1203.77 1041.59 2567
-1197.64 1041.59 2567
-1191.5 1041.59 2567
-1185.36 1041.59 2567
-990.469 1024.14 2524
-984.433 1024.14 2524
-978.398 1024.14 2524
-972.362 1024.14 2524
-966.326 1024.14 2524
-964.374 1041.59 2567
-959.728 1043.21 2571
-953.58 1043.21 2571
-951.486 1047.67 2582
-948.241 1050.92 2590
-948.23 1057.82 2607
-941.996 1057.82 2607
-942.941 1065.93 2627
-936.659 1065.93 2627
-937.814 1074.46 2648
-931.482 1074.46 2648
-926.548 1076.08 2652
-929.227 1086.63 2678
-922.824 1086.63 2678
-926.686 1098.8 2708
-924.628 1104.08 2721
-918.121 1104.08 2721
-911.614 1104.08 2721
-905.107 1104.08 2721
-897.28 1102.45 2717
-890.783 1102.45 2717
-882.984 1100.83 2713
-873.588 1097.18 2704
-862.953 1091.9 2691
-853.654 1088.25 2682
-847.24 1088.25 2682
-834.243 1079.73 2661
-827.88 1079.73 2661
-819.973 1077.7 2656
-813.622 1077.7 2656
-804.839 1074.46 2648
-792.174 1065.93 2627
-782.302 1061.07 2615
-776.049 1061.07 2615
-766.263 1056.2 2603
-760.039 1056.2 2603
-752.656 1054.57 2599
-746.441 1054.57 2599
-740.226 1054.57 2599
-734.011 1054.57 2599
-727.796 1054.57 2599
-724.912 1059.44 2611
-718.669 1059.44 2611
-713.516 1061.07 2615
-708.345 1062.69 2619
-703.154 1064.31 2623
-696.882 1064.31 2623
-690.61 1064.31 2623
-683.294 1062.69 2619
-677.031 1062.69 2619
-671.792 1064.31 2623
-665.52 1064.31 2623
-660.253 1065.93 2627
-653.971 1065.93 2627
-647.689 1065.93 2627
-641.407 1065.93 2627
-635.125 1065.93 2627
-626.928 1062.69 2619
-620.665 1062.69 2619
-614.403 1062.69 2619
-607.211 1061.07 2615
-600.039 1059.44 2611
-593.795 1059.44 2611
-585.751 1056.2 2603
-579.526 1056.2 2603
-573.302 1056.2 2603
-567.077 1056.2 2603
-560.853 1056.2 2603
-554.628 1056.2 2603
-549.246 1057.82 2607
-543.012 1057.82 2607
-536.778 1057.82 2607
-530.544 1057.82 2607
-524.31 1057.82 2607
-518.076 1057.82 2607
-511.841 1057.82 2607
-507.159 1061.07 2615
-500.906 1061.07 2615
-495.409 1062.69 2619
-489.146 1062.69 2619
-482.883 1062.69 2619
-475.165 1059.44 2611
-468.921 1059.44 2611
-461.968 1057.82 2607
-455.734 1057.82 2607
-450.19 1059.44 2611
-443.946 1059.44 2611
-437.703 1059.44 2611
-429.476 1054.57 2599
-422.447 1052.54 2594
-416.244 1052.54 2594
-410.04 1052.54 2594
-403.837 1052.54 2594
-397.634 1052.54 2594
-392.186 1054.57 2599
-385.971 1054.57 2599
-379.756 1054.57 2599
-373.541 1054.57 2599
-367.326 1054.57 2599
-361.111 1054.57 2599
-354.896 1054.57 2599
-349.218 1056.2 2603
-344.574 1061.07 2615
-339.356 1064.31 2623
-333.084 1064.31 2623
-327.31 1065.93 2627
-321.028 1065.93 2627
-314.746 1065.93 2627
-307.055 1061.07 2615
-301.722 1064.31 2623
-296.35 1067.56 2631
-290.5 1069.18 2635
-284.199 1069.18 2635
-279.269 1074.46 2648
-274.689 1081.35 2665
-268.316 1081.35 2665
-261.943 1081.35 2665
-255.57 1081.35 2665
-248.823 1079.73 2661
-242.46 1079.73 2661
-235.298 1076.08 2652
-228.957 1076.08 2652
-221.943 1072.83 2644
-215.621 1072.83 2644
-208.586 1069.18 2635
-201.978 1067.56 2631
-195.686 1067.56 2631
-190.618 1074.46 2648
-184.564 1076.08 2652
-178.223 1076.08 2652
-171.881 1076.08 2652
-85.7562 903.63 2227
-80.4308 903.63 2227
-75.1054 903.63 2227
-69.7799 903.63 2227
-64.3677 902.413 2224
-59.0494 902.413 2224
-53.7312 902.413 2224
-48.4782 903.63 2227
-43.2109 904.847 2230
-37.8783 904.847 2230
-32.5457 904.847 2230
-27.1765 903.63 2227
-21.7137 897.949 2213
-16.4217 897.949 2213
-11.1298 897.949 2213
-5.83782 897.949 2213
-0.546355 898.761 2215
4.76968 902.413 2224
10.0879 902.413 2224
15.4062 902.413 2224
20.7804 904.847 2230
26.1481 906.064 2233
31.4879 906.064 2233
36.8771 907.282 2236
42.2807 908.499 2239
47.6987 909.716 2242
53.06 909.716 2242
58.5776 912.151 2248
64.0386 913.368 2251
69.514 914.585 2254
74.904 914.585 2254
80.294 914.585 2254
85.798 915.803 2257
91.1952 915.803 2257
96.8919 918.643 2264
102.306 918.643 2264
107.72 918.643 2264
113.134 918.643 2264
118.705 919.86 2267
124.126 919.86 2267
129.547 919.86 2267
135.147 921.078 2270
140.761 922.295 2273
146.196 922.295 2273
151.832 923.512 2276
157.274 923.512 2276
163.146 925.947 2282
168.603 925.947 2282
174.06 925.947 2282
179.753 927.164 2285
185.46 928.381 2288
190.931 928.381 2288
197.261 932.439 2298
202.756 932.439 2298
211.423 946.64 2333
217.002 946.64 2333
244.906 1041.59 2567
251.044 1041.59 2567
257.183 1041.59 2567
263.321 1041.59 2567
268.62 1038.34 2559
276.35 1044.43 2574
282.944 1046.05 2578
289.109 1046.05 2578
297.106 1052.54 2594
306.232 1062.69 2619
312.495 1062.69 2619
318.758 1062.69 2619
325.021 1062.69 2619
331.284 1062.69 2619
337.546 1062.69 2619
343.284 1061.07 2615
349.537 1061.07 2615
357.423 1065.93 2627
364.813 1069.18 2635
371.114 1069.18 2635
378.131 1071.21 2640
384.444 1071.21 2640
390.757 1071.21 2640
396.318 1069.18 2635
402.619 1069.18 2635
407.679 1065.93 2627
413.961 1065.93 2627
420.243 1065.93 2627
426.525 1065.93 2627
432.807 1065.93 2627
439.089 1065.93 2627
445.371 1065.93 2627
451.653 1065.93 2627
459.329 1069.18 2635
467.221 1072.83 2644
474.26 1074.46 2648
480.592 1074.46 2648
486.924 1074.46 2648
493.256 1074.46 2648
499.588 1074.46 2648
505.921 1074.46 2648
511.479 1072.83 2644
520.152 1077.7 2656
526.503 1077.7 2656
532.854 1077.7 2656
542.657 1084.6 2673
552.746 1091.9 2691
559.181 1091.9 2691
565.616 1091.9 2691
568.224 1084.6 2673
568.382 1072.83 2644
574.705 1072.83 2644
578.171 1067.56 2631
583.574 1065.93 2627
589.856 1065.93 2627
597.045 1067.56 2631
603.337 1067.56 2631
609.628 1067.56 2631
614.047 1064.31 2623
620.319 1064.31 2623
626.592 1064.31 2623
632.864 1064.31 2623
640.111 1065.93 2627
646.393 1065.93 2627
652.675 1065.93 2627
645.663 1044.43 2574
649.032 1039.97 2563
656.184 1041.59 2567
665.16 1046.05 2578
671.325 1046.05 2578
679.592 1049.3 2586
691.345 1057.82 2607
701.86 1064.31 2623
708.133 1064.31 2623
717.674 1069.18 2635
726.447 1072.83 2644
736.096 1077.7 2656
742.447 1077.7 2656
748.798 1077.7 2656
755.15 1077.7 2656
761.501 1077.7 2656
766.696 1076.08 2652
773.038 1076.08 2652
779.379 1076.08 2652
785.721 1076.08 2652
792.063 1076.08 2652
790.878 1065.93 2627
797.16 1065.93 2627
802.219 1064.31 2623
808.491 1064.31 2623
812.278 1061.07 2615
818.532 1061.07 2615
824.785 1061.07 2615
831.038 1061.07 2615
836.011 1059.44 2611
840.964 1057.82 2607
845.898 1056.2 2603
852.123 1056.2 2603
858.347 1056.2 2603
867.229 1059.44 2611
873.473 1059.44 2611
881.064 1061.07 2615
887.318 1061.07 2615
893.571 1061.07 2615
898.448 1059.44 2611
904.691 1059.44 2611
913.726 1062.69 2619
919.989 1062.69 2619
927.666 1064.31 2623
933.939 1064.31 2623
940.211 1064.31 2623
946.484 1064.31 2623
954.209 1065.93 2627
963.416 1069.18 2635
973.029 1072.83 2644
979.352 1072.83 2644
992.012 1079.73 2661
1001.38 1082.98 2669
1007.76 1082.98 2669
1014.14 1082.98 2669
1017.46 1079.73 2661
1017.29 1072.83 2644
1023.61 1072.83 2644
1026.43 1069.18 2635
1029.59 1065.93 2627
1035.87 1065.93 2627
1043.74 1067.56 2631
1050.03 1067.56 2631
1056.33 1067.56 2631
1064.23 1069.18 2635
1070.53 1069.18 2635
1078.88 1071.21 2640
1085.19 1071.21 2640
1098.12 1077.7 2656
1104.47 1077.7 2656
1110.82 1077.7 2656
1117.17 1077.7 2656
1116.76 1071.21 2640
1114.14 1062.69 2619
1120.4 1062.69 2619
1119.78 1056.2 2603
1124.27 1054.57 2599
1130.49 1054.57 2599
1138.45 1056.2 2603
1146.44 1057.82 2607
1152.67 1057.82 2607
1158.9 1057.82 2607
1165.14 1057.82 2607
1171.37 1057.82 2607
1177.61 1057.82 2607
1187.47 1061.07 2615
1197.38 1064.31 2623
1216.96 1076.08 2652
1223.3 1076.08 2652
1231.5 1077.7 2656
1237.85 1077.7 2656
1244.2 1077.7 2656
1250.55 1077.7 2656
1253.12 1074.46 2648
1263.25 1077.7 2656
1286.34 1091.9 2691
1292.77 1091.9 2691
1318.03 1107.73 2730
1340.09 1120.71 2762
1346.69 1120.71 2762
1353.3 1120.71 2762
1359.9 1120.71 2762
1364.03 1118.68 2757
1370.63 1118.68 2757
1372.72 1115.03 2748
1370.26 1107.73 2730
1370.23 1102.45 2717
1376.73 1102.45 2717
1383.23 1102.45 2717
1387.68 1100.83 2713
1389.54 1097.18 2704
1391.36 1093.53 2695
1397.81 1093.53 2695
1388.62 1081.35 2665
1390.28 1077.7 2656
1396.63 1077.7 2656
1402.98 1077.7 2656
1409.33 1077.7 2656
1413.55 1076.08 2652
1415.61 1072.83 2644
1421.93 1072.83 2644
1426.1 1071.21 2640
1423.19 1064.31 2623
1429.46 1064.31 2623
1435.73 1064.31 2623
1442 1064.31 2623
1448.27 1064.31 2623
1454.55 1064.31 2623
1465.27 1067.56 2631
1471.57 1067.56 2631
1477.86 1067.56 2631
1486.41 1069.18 2635
1500.07 1074.46 2648
1525.75 1088.25 2682
1532.16 1088.25 2682
1548.32 1095.15 2699
1559.96 1098.8 2708
1566.44 1098.8 2708
1572.91 1098.8 2708
1592.22 1107.73 2730
1601.68 1109.76 2735
1613.51 1113.41 2744
1620.07 1113.41 2744
1626.63 1113.41 2744
1635.58 1115.03 2748
1645.14 1117.06 2753
1651.72 1117.06 2753
1658.3 1117.06 2753
1661.86 1115.03 2748
1671.47 1117.06 2753
1689.02 1124.36 2771
1695.65 1124.36 2771
1707.8 1128.02 2780
1723.09 1133.7 2794
1735.96 1137.75 2804
1742.66 1137.75 2804
1749.37 1137.75 2804
1756.07 1137.75 2804
1762.78 1137.75 2804
1766.33 1135.73 2799
1764.15 1130.04 2785
1765.09 1126.39 2776
1771.73 1126.39 2776
1763.63 1117.06 2753
1758.64 1109.76 2735
1765.18 1109.76 2735
1774.31 1111.38 2739
1780.86 1111.38 2739
1787.41 1111.38 2739
1793.96 1111.38 2739
1803.8 1113.41 2744
1818.94 1118.68 2757
1825.53 1118.68 2757
1832.12 1118.68 2757
1836.05 1117.06 2753
1842.63 1117.06 2753
1845.86 1115.03 2748
1843.67 1109.76 2735
1850.21 1109.76 2735
1856.75 1109.76 2735
1863.29 1109.76 2735
1866.41 1107.73 2730
1872.94 1107.73 2730
1895.3 1117.06 2753
1901.88 1117.06 2753
1908.47 1117.06 2753
1915.05 1117.06 2753
1905.58 1107.73 2730
1912.11 1107.73 2730
1887.71 1089.87 2686
1882.15 1082.98 2669
1855.98 1064.31 2623
1862.25 1064.31 2623
1842.17 1049.3 2586
-1738.8 1005.7 2464
-1743.46 1011.82 2479
-1737.53 1011.82 2479
-1763.03 1030.19 2524
-1764.65 1034.68 2535
-1758.59 1034.68 2535
-1769.12 1044.47 2559
-1765.76 1046.11 2563
-1765.12 1049.37 2571
-1758.97 1049.37 2571
-1752.83 1049.37 2571
-1746.68 1049.37 2571
-1740.53 1049.37 2571
-1530.71 1004.47 2461
-1535.97 1011.82 2479
-1534.37 1014.68 2486
-1528.42 1014.68 2486
-1527.38 1017.94 2494
-1528.12 1022.43 2505
-1524.56 1024.06 2509
-1518.56 1024.06 2509
-1514.37 1025.29 2512
-1510.77 1026.92 2516
-1509.53 1030.19 2524
-1503.5 1030.19 2524
-1497.46 1030.19 2524
-1496.16 1033.45 2532
-1490.1 1033.45 2532
-1484.05 1033.45 2532
-1489.08 1041.21 2551
-1489.96 1046.11 2563
-1483.83 1046.11 2563
-1477.7 1046.11 2563
-1471.57 1046.11 2563
-1463.15 1044.47 2559
-1457.04 1044.47 2559
-1450.92 1044.47 2559
-1449.31 1047.74 2567
-1443.17 1047.74 2567
-1437.04 1047.74 2567
-1428.67 1046.11 2563
-1422.54 1046.11 2563
-1416.41 1046.11 2563
-1410.28 1046.11 2563
-1399.77 1042.84 2555
-1358.19 1025.29 2512
-1352.18 1025.29 2512
-1346.18 1025.29 2512
-1340.17 1025.29 2512
-1334.16 1025.29 2512
-1328.16 1025.29 2512
-1324.25 1026.92 2516
-1318.24 1026.92 2516
-1312.22 1026.92 2516
-1304.13 1025.29 2512
-1288.82 1017.94 2494
-1267.42 1005.7 2464
-1267.16 1010.19 2475
-1280.1 1025.29 2512
-1274.09 1025.29 2512
-1274.14 1030.19 2524
-1273.64 1034.68 2535
-1267.57 1034.68 2535
-1261.51 1034.68 2535
-1255.45 1034.68 2535
-1253.33 1037.94 2543
-1247.25 1037.94 2543
-1241.17 1037.94 2543
-1235.09 1037.94 2543
-1229.01 1037.94 2543
-1222.93 1037.94 2543
-1213.02 1034.68 2535
-1199.81 1028.55 2520
-1193.79 1028.55 2520
-1187.76 1028.55 2520
-1181.73 1028.55 2520
-1175.71 1028.55 2520
-985.845 1019.17 2497
-990.469 1030.19 2524
-984.433 1030.19 2524
-978.398 1030.19 2524
-972.362 1030.19 2524
-966.326 1030.19 2524
-961.368 1044.47 2559
-959.728 1049.37 2571
-953.58 1049.37 2571
-947.432 1049.37 2571
-946.776 1055.49 2586
-942.047 1057.13 2590
-935.854 1057.13 2590
-935.762 1064.06 2607
-932.38 1067.33 2615
-928.96 1070.59 2623
-922.688 1070.59 2623
-917.813 1072.23 2627
-920.206 1082.43 2652
-922.824 1093.04 2678
-916.42 1093.04 2678
-917.152 1101.61 2699
-910.698 1101.61 2699
-904.244 1101.61 2699
-897.789 1101.61 2699
-891.335 1101.61 2699
-884.881 1101.61 2699
-878.427 1101.61 2699
-866.481 1094.68 2682
-851.729 1084.06 2656
-840.286 1077.53 2640
-833.972 1077.53 2640
-824.838 1073.86 2631
-818.546 1073.86 2631
-812.255 1073.86 2631
-805.963 1073.86 2631
-796.024 1068.96 2619
-783.731 1060.8 2599
-777.516 1060.8 2599
-771.301 1060.8 2599
-757.726 1050.59 2574
-751.571 1050.59 2574
-745.416 1050.59 2574
-739.261 1050.59 2574
-732.251 1049.37 2571
-729.21 1053.86 2582
-723.035 1053.86 2582
-717.971 1055.49 2586
-711.787 1055.49 2586
-709.151 1060.8 2599
-705.099 1064.06 2607
-698.865 1064.06 2607
-692.631 1064.06 2607
-687.45 1065.7 2611
-681.206 1065.7 2611
-674.963 1065.7 2611
-667.695 1064.06 2607
-661.461 1064.06 2607
-657.237 1067.33 2615
-652.975 1070.59 2623
-646.703 1070.59 2623
-640.431 1070.59 2623
-633.191 1068.96 2619
-625.971 1067.33 2615
-619.718 1067.33 2615
-612.526 1065.7 2611
-602.335 1058.76 2594
-596.132 1058.76 2594
-589.929 1058.76 2594
-581.925 1055.49 2586
-575.741 1055.49 2586
-568.677 1053.86 2582
-562.502 1053.86 2582
-556.328 1053.86 2582
-550.154 1053.86 2582
-544.822 1055.49 2586
-538.638 1055.49 2586
-532.454 1055.49 2586
-526.27 1055.49 2586
-520.086 1055.49 2586
-513.902 1055.49 2586
-505.362 1050.59 2574
-499.983 1052.23 2578
-494.584 1053.86 2582
-488.41 1053.86 2582
-482.236 1053.86 2582
-476.061 1053.86 2582
-470.615 1055.49 2586
-465.149 1057.13 2590
-459.665 1058.76 2594
-453.462 1058.76 2594
-447.259 1058.76 2594
-441.056 1058.76 2594
-434.853 1058.76 2594
-428.65 1058.76 2594
-421.795 1057.13 2590
-415.602 1057.13 2590
-409.408 1057.13 2590
-403.215 1057.13 2590
-397.021 1057.13 2590
-391.431 1058.76 2594
-385.971 1060.8 2599
-379.756 1060.8 2599
-373.541 1060.8 2599
-367.326 1060.8 2599
-361.111 1060.8 2599
-354.896 1060.8 2599
-349.218 1062.43 2603
-344.047 1065.7 2611
-338.321 1067.33 2615
-332.068 1067.33 2615
-325.814 1067.33 2615
-319.561 1067.33 2615
-313.308 1067.33 2615
-306.585 1065.7 2611
-300.341 1065.7 2611
-294.548 1067.33 2615
-288.736 1068.96 2619
-282.473 1068.96 2619
-277.898 1075.49 2635
-272.524 1079.17 2644
-266.202 1079.17 2644
-259.879 1079.17 2644
-253.556 1079.17 2644
-247.234 1079.17 2644
-240.911 1079.17 2644
-234.234 1077.53 2640
-227.921 1077.53 2640
-220.852 1073.86 2631
-213.908 1070.59 2623
-207.636 1070.59 2623
-201.363 1070.59 2623
-195.389 1072.23 2627
-190.618 1080.8 2648
-184.286 1080.8 2648
-177.954 1080.8 2648
-171.622 1080.8 2648
-85.5252 906.516 2221
-80.2141 906.516 2221
-74.903 906.516 2221
-69.5919 906.516 2221
-64.194 905.291 2218
-58.9698 906.516 2221
-53.6587 906.516 2221
-48.4129 907.74 2224
-43.1528 908.965 2227
-37.8273 908.965 2227
-32.5019 908.965 2227
-27.1399 907.74 2224
-21.7137 903.25 2213
-16.4217 903.25 2213
-11.1298 903.25 2213
-5.83782 903.25 2213
-0.546355 904.067 2215
4.76325 906.516 2221
10.0743 906.516 2221
15.4062 907.74 2224
20.7524 908.965 2227
26.113 910.189 2230
31.4456 910.189 2230
36.8771 912.638 2236
42.2241 912.638 2236
47.6349 913.862 2239
52.989 913.862 2239
58.4995 916.311 2245
63.9533 917.536 2248
69.4215 918.76 2251
74.8043 918.76 2251
80.1871 918.76 2251
85.684 919.985 2254
91.074 919.985 2254
96.5924 921.209 2257
101.99 921.209 2257
107.387 921.209 2257
112.784 921.209 2257
118.39 922.842 2261
123.797 922.842 2261
129.204 922.842 2261
134.968 925.291 2267
140.389 925.291 2267
145.81 925.291 2267
151.631 927.74 2273
157.274 928.964 2276
162.717 928.964 2276
168.159 928.964 2276
173.602 928.964 2276
179.281 930.189 2279
185.217 932.638 2285
190.681 932.638 2285
196.746 935.495 2292
202.756 937.944 2298
211.423 952.229 2333
217.002 952.229 2333
233.076 997.126 2443
242.047 1010.19 2475
249.869 1017.94 2494
255.833 1017.94 2494
263.371 1024.06 2509
274.31 1042.84 2555
280.42 1042.84 2555
286.529 1042.84 2555
294.472 1049.37 2571
300.971 1050.59 2574
308.08 1053.86 2582
314.255 1053.86 2582
321.422 1057.13 2590
327.615 1057.13 2590
334.324 1058.76 2594
340.527 1058.76 2594
347.933 1062.43 2603
355.791 1067.33 2615
363.705 1072.23 2627
369.987 1072.23 2627
376.842 1073.86 2631
383.134 1073.86 2631
389.425 1073.86 2631
395.115 1072.23 2627
401.397 1072.23 2627
407.058 1070.59 2623
413.331 1070.59 2623
419.603 1070.59 2623
425.875 1070.59 2623
432.148 1070.59 2623
438.42 1070.59 2623
444.693 1070.59 2623
450.965 1070.59 2623
457.935 1072.23 2627
465.63 1075.49 2635
473.543 1079.17 2644
479.866 1079.17 2644
486.188 1079.17 2644
491.766 1077.53 2640
498.079 1077.53 2640
503.437 1075.49 2635
508.19 1072.23 2627
513.689 1070.59 2623
524.124 1079.17 2644
530.447 1079.17 2644
536.769 1079.17 2644
543.092 1079.17 2644
549.414 1079.17 2644
555.737 1079.17 2644
562.06 1079.17 2644
567.522 1077.53 2640
573.835 1077.53 2640
577.292 1072.23 2627
579.131 1064.06 2607
584.467 1062.43 2603
590.691 1062.43 2603
595.999 1060.8 2599
602.214 1060.8 2599
604.449 1053.86 2582
608.731 1050.59 2574
614.887 1050.59 2574
620.318 1049.37 2571
626.466 1049.37 2571
630.646 1046.11 2563
636.774 1046.11 2563
640.897 1042.84 2555
649.032 1046.11 2563
656.184 1047.74 2567
665.16 1052.23 2578
671.325 1052.23 2578
679.592 1055.49 2586
691.345 1064.06 2607
701.86 1070.59 2623
708.133 1070.59 2623
717.674 1075.49 2635
726.447 1079.17 2644
736.096 1084.06 2656
742.447 1084.06 2656
748.798 1084.06 2656
755.15 1084.06 2656
761.501 1084.06 2656
766.696 1082.43 2652
773.038 1082.43 2652
779.379 1082.43 2652
785.721 1082.43 2652
792.063 1082.43 2652
790.878 1072.23 2627
797.16 1072.23 2627
802.219 1070.59 2623
808.491 1070.59 2623
812.278 1067.33 2615
818.532 1067.33 2615
824.785 1067.33 2615
831.038 1067.33 2615
836.011 1065.7 2611
840.964 1064.06 2607
845.898 1062.43 2603
852.123 1062.43 2603
858.347 1062.43 2603
867.229 1065.7 2611
873.473 1065.7 2611
881.064 1067.33 2615
887.318 1067.33 2615
893.571 1067.33 2615
898.448 1065.7 2611
904.691 1065.7 2611
913.726 1068.96 2619
919.989 1068.96 2619
927.666 1070.59 2623
933.939 1070.59 2623
940.211 1070.59 2623
946.484 1070.59 2623
954.209 1072.23 2627
963.416 1075.49 2635
973.029 1079.17 2644
979.352 1079.17 2644
992.012 1086.1 2661
1001.38 1089.37 2669
1007.76 1089.37 2669
1014.14 1089.37 2669
1017.46 1086.1 2661
1017.29 1079.17 2644
1023.61 1079.17 2644
1026.43 1075.49 2635
1029.59 1072.23 2627
1035.87 1072.23 2627
1043.74 1073.86 2631
1050.03 1073.86 2631
1056.33 1073.86 2631
1064.23 1075.49 2635
1070.53 1075.49 2635
1078.88 1077.53 2640
1085.19 1077.53 2640
1098.12 1084.06 2656
1104.47 1084.06 2656
1110.82 1084.06 2656
1117.17 1084.06 2656
1116.76 1077.53 2640
1114.14 1068.96 2619
1120.4 1068.96 2619
1119.78 1062.43 2603
1124.27 1060.8 2599
1130.49 1060.8 2599
1138.45 1062.43 2603
1146.44 1064.06 2607
1152.67 1064.06 2607
1158.9 1064.06 2607
1165.14 1064.06 2607
1171.37 1064.06 2607
1177.61 1064.06 2607
1187.47 1067.33 2615
1197.38 1070.59 2623
1216.96 1082.43 2652
1223.3 1082.43 2652
1231.5 1084.06 2656
1237.85 1084.06 2656
1244.2 1084.06 2656
1250.55 1084.06 2656
1253.12 1080.8 2648
1263.25 1084.06 2656
1286.34 1098.35 2691
1292.77 1098.35 2691
1318.03 1114.27 2730
1340.09 1127.33 2762
1346.69 1127.33 2762
1353.3 1127.33 2762
1359.9 1127.33 2762
1364.03 1125.29 2757
1370.63 1125.29 2757
1372.72 1121.61 2748
1370.26 1114.27 2730
1370.23 1108.96 2717
1376.73 1108.96 2717
1383.23 1108.96 2717
1387.68 1107.33 2713
1389.54 1103.66 2704
1391.36 1099.98 2695
1397.81 1099.98 2695
1388.62 1087.74 2665
1390.28 1084.06 2656
1396.63 1084.06 2656
1402.98 1084.06 2656
1409.33 1084.06 2656
1413.55 1082.43 2652
1413.47 1077.53 2640
1419.78 1077.53 2640
1423.39 1075.49 2635
1423.19 1070.59 2623
1429.46 1070.59 2623
1435.73 1070.59 2623
1442 1070.59 2623
1448.27 1070.59 2623
1454.55 1070.59 2623
1465.27 1073.86 2631
1471.57 1073.86 2631
1477.86 1073.86 2631
1486.41 1075.49 2635
1500.07 1080.8 2648
1518.35 1089.37 2669
1524.73 1089.37 2669
1546.03 1099.98 2695
1559.96 1105.29 2708
1566.44 1105.29 2708
1572.91 1105.29 2708
1592.22 1114.27 2730
1601.68 1116.31 2735
1613.51 1119.98 2744
1620.07 1119.98 2744
1626.63 1119.98 2744
1635.58 1121.61 2748
1642.15 1121.61 2748
1648.72 1121.61 2748
1655.29 1121.61 2748
1656.42 1117.94 2739
1662.97 1117.94 2739
1680.49 1125.29 2757
1687.08 1125.29 2757
1705.35 1133.04 2776
1717.54 1136.72 2785
1729.77 1140.39 2794
1736.45 1140.39 2794
1746.25 1142.43 2799
1752.94 1142.43 2799
1759.64 1142.43 2799
1760.65 1138.76 2790
1760.99 1134.68 2780
1756.19 1127.33 2762
1762.79 1127.33 2762
1754.67 1117.94 2739
1744.5 1107.33 2713
1745.18 1103.66 2704
1754.23 1105.29 2708
1760.71 1105.29 2708
1767.18 1105.29 2708
1776.93 1107.33 2713
1783.42 1107.33 2713
1813 1121.61 2748
1819.57 1121.61 2748
1826.14 1121.61 2748
1830.05 1119.98 2744
1836.61 1119.98 2744
1837.13 1116.31 2735
1840.3 1114.27 2730
1846.82 1114.27 2730
1853.35 1114.27 2730
1853.75 1110.59 2721
1854.79 1107.33 2713
1870.19 1112.63 2726
1879.46 1114.27 2730
1889.45 1116.31 2735
1895.99 1116.31 2735
1902.53 1116.31 2735
1902.79 1112.63 2726
1909.3 1112.63 2726
1887.71 1096.31 2686
1882.15 1089.37 2669
1879.33 1084.06 2656
1885.68 1084.06 2656
1842.17 1055.49 2586
-1738.8 1011.6 2464
-1743.46 1017.76 2479
-1737.53 1017.76 2479
-1763.03 1036.23 2524
