598.662 -100.871 2881
604.501 -100.696 2876
611.378 -100.696 2876
618.255 -100.696 2876
625.133 -100.696 2876
632.01 -100.696 2876
638.888 -100.696 2876
644.642 -100.521 2871
652.642 -100.696 2876
659.52 -100.696 2876
666.397 -100.696 2876
673.275 -100.696 2876
680.152 -100.696 2876
687.029 -100.696 2876
693.907 -100.696 2876
699.566 -100.521 2871
706.431 -100.521 2871
713.297 -100.521 2871
720.162 -100.521 2871
727.028 -100.521 2871
733.893 -100.521 2871
740.758 -100.521 2871
746.322 -100.346 2866
753.175 -100.346 2866
760.029 -100.346 2866
765.812 -100.206 2862
772.656 -100.206 2862
779.5 -100.206 2862
786.344 -100.206 2862
793.188 -100.206 2862
800.031 -100.206 2862
806.875 -100.206 2862
812.298 -100.031 2857
819.13 -100.031 2857
825.962 -100.031 2857
831.336 -99.8559 2852
838.156 -99.8559 2852
844.976 -99.8559 2852
851.796 -99.8559 2852
858.616 -99.8559 2852
865.436 -99.8559 2852
872.256 -99.8559 2852
877.535 -99.6809 2847
884.343 -99.6809 2847
892.716 -99.8559 2852
901.113 -100.031 2857
907.945 -100.031 2857
914.777 -100.031 2857
921.609 -100.031 2857
928.441 -100.031 2857
936.91 -100.206 2862
943.754 -100.206 2862
951.926 -100.346 2866
960.452 -100.521 2871
972.372 -101.046 2886
979.273 -101.046 2886
1009.07 -103.392 2953
1016.13 -103.392 2953
1023.19 -103.392 2953
1205.04 -120.934 3454
1279.34 -127.516 3642
1288.05 -127.516 3642
1296.76 -127.516 3642
1305.47 -127.516 3642
1314.18 -127.516 3642
1331.97 -128.391 3667
1340.74 -128.391 3667
1349.51 -128.391 3667
1358.28 -128.391 3667
1373.01 -128.951 3683
1381.82 -128.951 3683
1390.62 -128.951 3683
1383.85 -127.516 3642
1392.56 -127.516 3642
1398.58 -127.271 3635
1394.88 -126.15 3603
1394.54 -125.345 3580
1403.1 -125.345 3580
1405.74 -124.82 3565
1401.97 -123.735 3534
1404.84 -123.244 3520
1407.23 -122.719 3505
1415.61 -122.719 3505
1417.9 -122.194 3490
1420.52 -121.704 3476
1422.67 -121.179 3461
1430.95 -121.179 3461
1427.58 -120.198 3433
1429.93 -119.708 3419
1426.33 -118.728 3391
1434.44 -118.728 3391
1428.09 -117.537 3357
1427.56 -116.837 3337
1426.93 -116.137 3317
1437.46 -116.347 3323
1445.41 -116.347 3323
1453.35 -116.347 3323
1461.3 -116.347 3323
1466.59 -116.137 3317
1474.53 -116.137 3317
1476.2 -115.647 3303
1484.1 -115.647 3303
1495.16 -115.892 3310
1508.98 -116.347 3323
1516.92 -116.347 3323
1543.23 -117.747 3363
1586.79 -120.443 3440
1598.26 -120.688 3447
1606.5 -120.688 3447
1621.3 -121.179 3461
1632.87 -121.424 3468
1665.77 -123.244 3520
1674.19 -123.244 3520
1682.61 -123.244 3520
1694.39 -123.489 3527
1702.82 -123.489 3527
1711.26 -123.489 3527
1719.69 -123.489 3527
1728.13 -123.489 3527
1740.01 -123.735 3534
1748.46 -123.735 3534
1756.91 -123.735 3534
1761.86 -123.489 3527
1751.73 -122.194 3490
1760.07 -122.194 3490
1761.32 -121.704 3476
1769.63 -121.704 3476
1777.95 -121.704 3476
1786.26 -121.704 3476
1768.76 -119.953 3426
1623.13 -102.482 2927
1630.13 -102.482 2927
1637.12 -102.482 2927
1635.14 -101.922 2911
1622.35 -100.696 2876
1607.14 -99.3308 2837
1613.92 -99.3308 2837
1609.85 -98.6655 2818
1608.56 -98.1753 2804
1607.2 -97.6852 2790
1613.87 -97.6852 2790
1620.54 -97.6852 2790
1624.3 -97.5101 2785
1628.03 -97.335 2780
1634.68 -97.335 2780
1630.7 -96.7048 2762
1637.3 -96.7048 2762
1638.55 -96.3897 2753
1639.76 -96.0746 2744
1646.32 -96.0746 2744
1647.46 -95.7595 2735
1654 -95.7595 2735
1657.5 -95.5844 2730
1664.03 -95.5844 2730
1670.56 -95.5844 2730
1669.1 -95.1292 2717
1675.6 -95.1292 2717
1682.1 -95.1292 2717
1686.11 -94.9892 2713
1689.48 -94.8141 2708
1695.95 -94.8141 2708
1702.43 -94.8141 2708
1708.9 -94.8141 2708
1709.68 -94.499 2699
1716.13 -94.499 2699
1720.03 -94.359 2695
1726.48 -94.359 2695
1730.35 -94.2189 2691
1736.79 -94.2189 2691
1737.39 -93.9038 2682
1743.8 -93.9038 2682
1750.22 -93.9038 2682
1754.01 -93.7638 2678
1754.5 -93.4486 2669
1760.88 -93.4486 2669
1767.26 -93.4486 2669
1768.33 -93.1685 2661
1774.69 -93.1685 2661
1781.06 -93.1685 2661
1787.42 -93.1685 2661
1790.41 -92.9935 2656
1794.06 -92.8534 2652
1800.4 -92.8534 2652
1806.74 -92.8534 2652
1813.08 -92.8534 2652
1819.42 -92.8534 2652
1823.01 -92.7134 2648
1829.34 -92.7134 2648
1835.68 -92.7134 2648
1842.01 -92.7134 2648
1848.34 -92.7134 2648
1854.67 -92.7134 2648
1855.38 -92.4333 2640
1858.17 -92.2582 2635
1864.47 -92.2582 2635
1870.77 -92.2582 2635
1877.07 -92.2582 2635
1880.52 -92.1182 2631
1881.07 -91.8381 2623
1887.34 -91.8381 2623
1893.61 -91.8381 2623
1896.99 -91.698 2619
1903.25 -91.698 2619
1906.6 -91.558 2615
1912.85 -91.558 2615
1919.11 -91.558 2615
1922.41 -91.4179 2611
1922.75 -91.1378 2603
1928.97 -91.1378 2603
1935.2 -91.1378 2603
1941.42 -91.1378 2603
1947.65 -91.1378 2603
1953.87 -91.1378 2603
1960.09 -91.1378 2603
1966.32 -91.1378 2603
1972.54 -91.1378 2603
1975.73 -90.9978 2599
1981.94 -90.9978 2599
1981.27 -90.6826 2590
-2047.76 -89.2078 2735
-2050.92 -89.6318 2748
-2051.05 -89.9253 2757
-2044.46 -89.9253 2757
-2037.86 -89.9253 2757
-2031.27 -89.9253 2757
-2024.68 -89.9253 2757
-2018.08 -89.9253 2757
-2011.49 -89.9253 2757
-2004.9 -89.9253 2757
-2005.55 -90.2515 2767
-1998.94 -90.2515 2767
-2005.28 -90.8386 2785
-2012.26 -91.4583 2804
-2011.99 -91.7519 2813
-2005.26 -91.7519 2813
-2002.09 -91.915 2818
-1995.35 -91.915 2818
-1988.61 -91.915 2818
-2206.43 -102.679 3148
-2224.05 -103.853 3184
-2216.43 -103.853 3184
-2221.31 -104.44 3202
-2239.23 -105.647 3239
-2294.18 -108.615 3330
-2286.21 -108.615 3330
-2296.72 -109.496 3357
-2288.7 -109.496 3357
-2284.74 -109.691 3363
-2276.7 -109.691 3363
-2287.55 -110.605 3391
-2288.85 -111.061 3405
-2280.71 -111.061 3405
-2272.57 -111.061 3405
-2264.42 -111.061 3405
-2247 -110.605 3391
-2252.76 -111.29 3412
-2244.6 -111.29 3412
-2236.44 -111.29 3412
-2232.85 -111.518 3419
-2252.01 -112.888 3461
-2243.73 -112.888 3461
-2245.14 -113.377 3476
-2236.83 -113.377 3476
-2233.01 -113.605 3483
-2224.68 -113.605 3483
-2225.26 -114.062 3497
-2231.48 -114.812 3520
-2236.95 -115.53 3542
-2228.48 -115.53 3542
-2229.41 -116.019 3557
-2220.91 -116.019 3557
-2212.4 -116.019 3557
-2203.9 -116.019 3557
-2190.45 -115.758 3549
-2177.66 -115.53 3542
-2173.48 -115.758 3549
-2164.99 -115.758 3549
-2170.48 -116.508 3572
-2166.78 -116.769 3580
-2158.22 -116.769 3580
-2149.66 -116.769 3580
-2141.1 -116.769 3580
-2127.77 -116.508 3572
-2119.23 -116.508 3572
-2097.1 -115.758 3549
-2088.61 -115.758 3549
-2080.13 -115.758 3549
-2076.31 -116.019 3557
-2067.8 -116.019 3557
-2059.3 -116.019 3557
-2046.18 -115.758 3549
-2037.69 -115.758 3549
-2012.62 -114.812 3520
-1991.11 -114.062 3497
-1995.79 -114.812 3520
-1999.79 -115.53 3542
-1991.32 -115.53 3542
-1986.77 -115.758 3549
-1978.28 -115.758 3549
-1969.8 -115.758 3549
-1957.44 -115.53 3542
-1944.57 -115.269 3534
-1932.28 -115.04 3527
-1935.85 -115.758 3549
-1927.36 -115.758 3549
-1931.31 -116.508 3572
-1922.77 -116.508 3572
-1914.23 -116.508 3572
-1901.95 -116.28 3565
-1881.21 -115.53 3542
-1868.51 -115.269 3534
-1860.06 -115.269 3534
-1851.61 -115.269 3534
-1828.04 -114.323 3505
-1834.71 -115.269 3534
-1830.39 -115.53 3542
-1821.92 -115.53 3542
-1813.45 -115.53 3542
-1800.91 -115.269 3534
-1792.46 -115.269 3534
-1776.94 -114.812 3520
-1764.5 -114.551 3512
-1748.6 -114.062 3497
-1729.79 -113.377 3476
-1728.41 -113.834 3490
-1720.06 -113.834 3490
-1715.15 -114.062 3497
-1706.79 -114.062 3497
-1698.43 -114.062 3497
-1686.68 -113.834 3490
-1681.7 -114.062 3497
-1677.17 -114.323 3505
-1679.26 -115.04 3527
-1670.83 -115.04 3527
-1672.76 -115.758 3549
-1671.78 -116.28 3565
-1663.25 -116.28 3565
-1654.73 -116.28 3565
-1646.2 -116.28 3565
-1630.33 -115.758 3549
-1625.5 -116.019 3557
-1616.99 -116.019 3557
-1608.49 -116.019 3557
-1613.92 -117.03 3588
-1615.63 -117.78 3611
-1607 -117.78 3611
-1598.36 -117.78 3611
-1589.73 -117.78 3611
-1581.09 -117.78 3611
-1555.48 -116.508 3572
-1546.94 -116.508 3572
-1528.49 -115.758 3549
-1520 -115.758 3549
-1511.51 -115.758 3549
-1493.71 -115.04 3527
-1472.64 -114.062 3497
-1464.28 -114.062 3497
-1435.1 -112.431 3447
-1421.06 -111.974 3433
-1354 -107.31 3290
-1317.9 -105.06 3221
-1310.2 -105.06 3221
-1287.54 -103.853 3184
-1270.27 -103.07 3160
-1243.54 -101.504 3112
-1236.1 -101.504 3112
-1199.83 -99.1234 3039
-1183.93 -98.4058 3017
-1151.76 -96.3183 2953
-1140.43 -95.9595 2942
-1133.4 -95.9595 2942
-1122.53 -95.6333 2932
-1113.62 -95.4702 2927
-1106.62 -95.4702 2927
-1099.62 -95.4702 2927
-1092.62 -95.4702 2927
-1087.47 -95.6333 2932
-1080.46 -95.6333 2932
-1073.45 -95.6333 2932
-1066.44 -95.6333 2932
-1059.43 -95.6333 2932
-1052.42 -95.6333 2932
-1045.41 -95.6333 2932
-1036.62 -95.4702 2927
-1029.63 -95.4702 2927
-1020.88 -95.3072 2922
-1013.89 -95.3072 2922
-1005.18 -95.1441 2917
-998.206 -95.1441 2917
-989.192 -94.9484 2911
-982.231 -94.9484 2911
-975.27 -94.9484 2911
-968.309 -94.9484 2911
-959.696 -94.7853 2906
-952.747 -94.7853 2906
-945.798 -94.7853 2906
-938.849 -94.7853 2906
-931.9 -94.7853 2906
-924.951 -94.7853 2906
-918.002 -94.7853 2906
-909.485 -94.6222 2901
-902.548 -94.6222 2901
-895.611 -94.6222 2901
-888.673 -94.6222 2901
-881.736 -94.6222 2901
-874.799 -94.6222 2901
-867.862 -94.6222 2901
-859.441 -94.4591 2896
-852.516 -94.4591 2896
-845.59 -94.4591 2896
-838.665 -94.4591 2896
-831.74 -94.4591 2896
-824.815 -94.4591 2896
-817.89 -94.4591 2896
-809.564 -94.296 2891
-802.651 -94.296 2891
-795.738 -94.296 2891
-787.46 -94.1329 2886
-780.559 -94.1329 2886
-773.658 -94.1329 2886
-766.756 -94.1329 2886
-759.855 -94.1329 2886
-751.649 -93.9698 2881
-744.76 -93.9698 2881
-737.87 -93.9698 2881
-730.981 -93.9698 2881
-724.092 -93.9698 2881
-717.202 -93.9698 2881
-709.08 -93.8068 2876
-702.203 -93.8068 2876
-694.117 -93.6437 2871
-687.251 -93.6437 2871
-680.386 -93.6437 2871
-672.347 -93.4806 2866
-665.494 -93.4806 2866
-658.641 -93.4806 2866
-651.787 -93.4806 2866
-644.934 -93.4806 2866
-637.19 -93.3501 2862
-631.227 -93.4806 2866
-624.373 -93.4806 2866
-620.752 -93.9698 2881
-614.928 -94.1329 2886
-610.133 -94.4591 2896
-603.208 -94.4591 2896
-603.695 -95.6333 2932
-602.992 -96.6445 2963
-601.337 -97.5251 2990
-594.187 -97.5251 2990
-587.037 -97.5251 2990
-633.221 -106.495 3265
-626.563 -106.691 3271
-618.741 -106.691 3271
-613.347 -107.115 3284
-606.6 -107.31 3290
-598.733 -107.31 3290
-590.866 -107.31 3290
-585.302 -107.734 3303
-577.403 -107.734 3303
-571.919 -108.191 3317
-563.987 -108.191 3317
-557.061 -108.387 3323
-551.428 -108.843 3337
-544.425 -109.039 3343
-536.431 -109.039 3343
-529.543 -109.267 3350
-521.533 -109.267 3350
-513.522 -109.267 3350
-505.511 -109.267 3350
-496.46 -109.039 3343
-487.59 -108.843 3337
-479.61 -108.843 3337
-471.63 -108.843 3337
-460.871 -108.191 3317
-452.939 -108.191 3317
-446.752 -108.615 3330
-438.789 -108.615 3330
-430.826 -108.615 3330
-421.974 -108.387 3323
-414.027 -108.387 3323
-406.081 -108.387 3323
-396.577 -107.963 3310
-388.662 -107.963 3310
-262.497 -74.4322 2282
-257.04 -74.4322 2282
-253.016 -74.8562 2295
-247.528 -74.8562 2295
-242.04 -74.8562 2295
-236.552 -74.8562 2295
-230.762 -74.7584 2292
-225.576 -74.8562 2295
-220.663 -75.0519 2301
-215.161 -75.0519 2301
-209.658 -75.0519 2301
-203.624 -74.8562 2295
-198.136 -74.8562 2295
-191.556 -74.4322 2282
-185.121 -74.0408 2270
-178.98 -73.7473 2261
-173.573 -73.7473 2261
-166.53 -73.0297 2239
-159.089 -72.0838 2210
-153.177 -71.7902 2201
-147.914 -71.7902 2201
-142.068 -71.4967 2192
-135.952 -71.04 2178
-130.083 -70.6812 2167
-124.556 -70.4855 2161
-119.388 -70.4855 2161
-113.903 -70.2898 2155
-108.649 -70.2246 2153
-103.356 -70.1268 2150
-98.2151 -70.1268 2150
-93.0738 -70.1268 2150
-87.8098 -70.0289 2147
-82.5601 -69.9311 2144
-77.4332 -69.9311 2144
-72.2387 -69.8658 2142
-66.9286 -69.6701 2136
-61.8208 -69.6701 2136
-56.7129 -69.6701 2136
-51.4843 -69.507 2131
-46.3231 -69.4092 2128
-41.2344 -69.4092 2128
-36.1457 -69.4092 2128
-31.0133 -69.3113 2125
-25.8951 -69.2135 2122
-20.8012 -69.1482 2120
-15.7093 -69.0504 2117
-10.647 -69.0504 2117
-5.57666 -68.9525 2114
-0.520949 -68.8873 2112
4.52948 -68.8873 2112
9.57992 -68.8873 2112
14.6303 -68.8873 2112
19.6808 -68.8873 2112
24.6961 -68.7895 2109
29.7393 -68.7895 2109
34.7331 -68.6916 2106
39.7314 -68.6264 2104
44.7627 -68.6264 2104
49.794 -68.6264 2104
54.8253 -68.6264 2104
59.8566 -68.6264 2104
64.8879 -68.6264 2104
69.9193 -68.6264 2104
74.9505 -68.6264 2104
79.9818 -68.6264 2104
85.0132 -68.6264 2104
90.0445 -68.6264 2104
95.0758 -68.6264 2104
100.107 -68.6264 2104
105.138 -68.6264 2104
110.274 -68.6916 2106
115.31 -68.6916 2106
120.347 -68.6916 2106
125.383 -68.6916 2106
130.419 -68.6916 2106
135.648 -68.7895 2109
140.691 -68.7895 2109
145.942 -68.8873 2112
150.992 -68.8873 2112
156.19 -68.9525 2114
161.245 -68.9525 2114
166.301 -68.9525 2114
171.356 -68.9525 2114
176.661 -69.0504 2117
181.724 -69.0504 2117
187.051 -69.1482 2120
192.302 -69.2135 2122
197.934 -69.4092 2128
203.023 -69.4092 2128
208.405 -69.507 2131
213.501 -69.507 2131
218.597 -69.507 2131
223.693 -69.507 2131
229.003 -69.5723 2133
234.433 -69.6701 2136
240.774 -70.0289 2147
245.909 -70.0289 2147
251.043 -70.0289 2147
256.177 -70.0289 2147
261.311 -70.0289 2147
266.445 -70.0289 2147
271.2 -69.9311 2144
408.173 -97.8513 3000
415.347 -97.8513 3000
422.521 -97.8513 3000
429.695 -97.8513 3000
436.868 -97.8513 3000
444.042 -97.8513 3000
450.464 -97.6882 2995
454.417 -97.0032 2974
461.529 -97.0032 2974
467.695 -96.8075 2968
473.193 -96.4814 2958
478.481 -96.1226 2947
483.057 -95.6333 2932
490.068 -95.6333 2932
495.384 -95.3072 2922
502.371 -95.3072 2922
509.359 -95.3072 2922
516.346 -95.3072 2922
523.333 -95.3072 2922
529.413 -95.1441 2917
533.447 -94.6222 2901
540.384 -94.6222 2901
547.321 -94.6222 2901
554.258 -94.6222 2901
560.228 -94.4591 2896
567.153 -94.4591 2896
574.078 -94.4591 2896
581.004 -94.4591 2896
585.899 -94.1329 2886
592.8 -94.1329 2886
599.701 -94.1329 2886
605.552 -93.9698 2881
611.378 -93.8068 2876
618.255 -93.8068 2876
625.133 -93.8068 2876
632.01 -93.8068 2876
638.888 -93.8068 2876
644.642 -93.6437 2871
652.642 -93.8068 2876
659.52 -93.8068 2876
666.397 -93.8068 2876
673.275 -93.8068 2876
680.152 -93.8068 2876
687.029 -93.8068 2876
693.907 -93.8068 2876
699.566 -93.6437 2871
706.431 -93.6437 2871
713.297 -93.6437 2871
720.162 -93.6437 2871
727.028 -93.6437 2871
733.893 -93.6437 2871
740.758 -93.6437 2871
747.624 -93.6437 2871
753.175 -93.4806 2866
760.029 -93.4806 2866
766.882 -93.4806 2866
773.736 -93.4806 2866
780.589 -93.4806 2866
787.443 -93.4806 2866
794.296 -93.4806 2866
800.031 -93.3501 2862
806.875 -93.3501 2862
813.719 -93.3501 2862
820.563 -93.3501 2862
825.962 -93.187 2857
832.794 -93.187 2857
839.625 -93.187 2857
846.457 -93.187 2857
851.796 -93.024 2852
858.616 -93.024 2852
865.436 -93.024 2852
872.256 -93.024 2852
879.076 -93.024 2852
887.449 -93.187 2857
894.281 -93.187 2857
901.113 -93.187 2857
907.945 -93.187 2857
914.777 -93.187 2857
923.222 -93.3501 2862
930.066 -93.3501 2862
938.219 -93.4806 2866
945.073 -93.4806 2866
956.908 -93.9698 2881
965.47 -94.1329 2886
984.501 -95.3072 2922
991.488 -95.3072 2922
1010.78 -96.4814 2958
1085.29 -102.874 3154
1092.84 -102.874 3154
1205.04 -112.659 3454
1225.95 -113.834 3490
1249.86 -115.269 3534
1258.31 -115.269 3534
1272.13 -115.758 3549
1288.92 -116.508 3572
1308.72 -117.519 3603
1317.34 -117.519 3603
1325.95 -117.519 3603
1334.57 -117.519 3603
1352.13 -118.302 3627
1360.81 -118.302 3627
1369.48 -118.302 3627
1378.15 -118.302 3627
1386.83 -118.302 3627
1383.19 -117.258 3595
1385.98 -116.769 3580
1388.69 -116.28 3565
1397.22 -116.28 3565
1393.52 -115.269 3534
1390.47 -114.323 3505
1392.86 -113.834 3490
1392.38 -113.116 3468
1400.67 -113.116 3468
1406.12 -112.888 3461
1411.53 -112.659 3454
1411.16 -111.974 3433
1419.37 -111.974 3433
1418.85 -111.29 3412
1418.22 -110.605 3391
1417.5 -109.92 3370
1425.56 -109.92 3370
1419.58 -108.843 3337
1419 -108.191 3317
1420.91 -107.734 3303
1434.87 -108.191 3317
1442.8 -108.191 3317
1450.73 -108.191 3317
1452.5 -107.734 3303
1460.4 -107.734 3303
1468.3 -107.734 3303
1470.39 -107.31 3290
1478.26 -107.31 3290
1495.16 -107.963 3310
1503.07 -107.963 3310
1510.99 -107.963 3310
1531.29 -108.843 3337
1551.27 -109.691 3363
1595.01 -112.203 3440
1603.24 -112.203 3440
1614.74 -112.431 3447
1626.28 -112.659 3454
1644.95 -113.377 3476
1653.26 -113.377 3476
1682.61 -114.812 3520
1691.03 -114.812 3520
1699.44 -114.812 3520
1707.86 -114.812 3520
1716.28 -114.812 3520
1728.13 -115.04 3527
1736.56 -115.04 3527
1744.99 -115.04 3527
1753.43 -115.04 3527
1750.87 -114.323 3505
1744.7 -113.377 3476
1753.01 -113.377 3476
1753.72 -112.888 3461
1762 -112.888 3461
1755.95 -111.974 3433
1764.16 -111.974 3433
1768.76 -111.746 3426
1741.16 -109.496 3357
1735.12 -108.615 3330
1728.95 -107.734 3303
1736.85 -107.734 3303
1737.88 -107.31 3290
1650.91 -97.5251 2990
1658.06 -97.5251 2990
1665.21 -97.5251 2990
1645.51 -95.9595 2942
1644.12 -95.4702 2927
1639.28 -94.7853 2906
1646.23 -94.7853 2906
1633.26 -93.6437 2871
1620.71 -92.5347 2837
1619.46 -92.0781 2823
1615.26 -91.4583 2804
1621.97 -91.4583 2804
1622.87 -91.1322 2794
1627.22 -91.0017 2790
1630.96 -90.8386 2785
1637.62 -90.8386 2785
1636.01 -90.382 2771
1637.3 -90.0884 2762
1643.91 -90.0884 2762
1650.51 -90.0884 2762
1648.72 -89.6318 2748
1649.87 -89.3382 2739
1656.42 -89.3382 2739
1660.54 -89.2078 2735
1667.08 -89.2078 2735
1670.56 -89.0447 2730
1677.09 -89.0447 2730
1675.6 -88.6207 2717
1682.1 -88.6207 2717
1688.59 -88.6207 2717
1695.09 -88.6207 2717
1695.95 -88.3271 2708
1702.43 -88.3271 2708
1708.9 -88.3271 2708
1715.38 -88.3271 2708
1719.31 -88.1966 2704
1722.59 -88.0335 2699
1729.04 -88.0335 2699
1735.49 -88.0335 2699
1739.37 -87.9031 2695
1743.22 -87.7726 2691
1749.66 -87.7726 2691
1756.09 -87.7726 2691
1756.63 -87.479 2682
1760.41 -87.3486 2678
1766.82 -87.3486 2678
1769.91 -87.1855 2673
1770.99 -86.9246 2665
1774.69 -86.7941 2661
1781.06 -86.7941 2661
1787.42 -86.7941 2661
1793.78 -86.7941 2661
1800.15 -86.7941 2661
1806.51 -86.7941 2661
1812.87 -86.7941 2661
1819.24 -86.7941 2661
1819.42 -86.5005 2652
1825.77 -86.5005 2652
1832.11 -86.5005 2652
1838.45 -86.5005 2652
1842.01 -86.3701 2648
1848.34 -86.3701 2648
1854.67 -86.3701 2648
1855.38 -86.1091 2640
1861.7 -86.1091 2640
1868.01 -86.1091 2640
1874.32 -86.1091 2640
1880.63 -86.1091 2640
1883.37 -85.946 2635
1883.94 -85.6851 2627
1890.22 -85.6851 2627
1896.5 -85.6851 2627
1899.89 -85.5546 2623
1906.16 -85.5546 2623
1912.43 -85.5546 2623
1918.7 -85.5546 2623
1922.04 -85.4242 2619
1925.36 -85.2937 2615
1931.61 -85.2937 2615
1937.86 -85.2937 2615
1941.14 -85.1632 2611
1947.39 -85.1632 2611
1953.63 -85.1632 2611
1959.88 -85.1632 2611
1966.12 -85.1632 2611
1972.36 -85.1632 2611
1978.61 -85.1632 2611
1978.77 -84.9023 2603
1984.99 -84.9023 2603
1984.33 -84.6087 2594
-2047.76 -82.656 2735
-2050.92 -83.0489 2748
-2048.07 -83.2 2753
-2041.49 -83.2 2753
-2034.91 -83.2 2753
-2028.32 -83.2 2753
-2021.74 -83.2 2753
-2011.5 -83.0489 2748
-2004.92 -83.0489 2748
-1998.35 -83.0489 2748
-1991.78 -83.0489 2748
-1985.21 -83.0489 2748
-1985.12 -83.3209 2757
-1985.7 -83.6231 2767
-1979.09 -83.6231 2767
-1972.47 -83.6231 2767
-1998.53 -85.0133 2813
-1991.81 -85.0133 2813
-1985.08 -85.0133 2813
-2189.61 -94.4122 3124
-2211.47 -95.6815 3166
-2203.9 -95.6815 3166
-2221.31 -96.7695 3202
-2221.95 -97.1322 3214
-2294.18 -100.638 3330
-2286.21 -100.638 3330
-2296.72 -101.454 3357
-2288.7 -101.454 3357
-2284.74 -101.635 3363
-2276.7 -101.635 3363
-2287.55 -102.481 3391
-2288.85 -102.905 3405
-2280.71 -102.905 3405
-2272.57 -102.905 3405
-2264.42 -102.905 3405
-2247 -102.481 3391
-2252.76 -103.116 3412
-2244.6 -103.116 3412
-2236.44 -103.116 3412
-2232.85 -103.328 3419
-2252.01 -104.597 3461
-2243.73 -104.597 3461
-2245.14 -105.05 3476
-2236.83 -105.05 3476
-2233.01 -105.262 3483
-2224.68 -105.262 3483
-2225.26 -105.685 3497
-2231.48 -106.38 3520
-2231.9 -106.803 3534
-2223.45 -106.803 3534
-2229.41 -107.498 3557
-2220.91 -107.498 3557
-2212.4 -107.498 3557
-2203.9 -107.498 3557
-2190.45 -107.256 3549
-2177.66 -107.045 3542
-2178.38 -107.498 3557
-2169.87 -107.498 3557
-2175.34 -108.193 3580
-2171.62 -108.435 3588
-2167.26 -108.647 3595
-2158.67 -108.647 3595
-2150.07 -108.647 3595
-2132.54 -108.193 3580
-2123.98 -108.193 3580
-2115.42 -108.193 3580
-2102.15 -107.952 3572
-2093.61 -107.952 3572
-2085.06 -107.952 3572
-2076.52 -107.952 3572
-2067.98 -107.952 3572
-2055.4 -107.74 3565
-2046.88 -107.74 3565
-2029.2 -107.256 3549
-2012.18 -106.803 3534
-2012.23 -107.256 3549
-2008.26 -107.498 3557
-1999.76 -107.498 3557
-1991.25 -107.498 3557
-1982.74 -107.498 3557
-1974.24 -107.498 3557
-1965.73 -107.498 3557
-1948.97 -107.045 3542
-1940.5 -107.045 3542
-1940.21 -107.498 3557
-1931.71 -107.498 3557
-1923.2 -107.498 3557
-1910.39 -107.256 3549
-1901.9 -107.256 3549
-1893.42 -107.256 3549
-1876.96 -106.803 3534
-1868.51 -106.803 3534
-1860.06 -106.803 3534
-1847.94 -106.592 3527
-1835.86 -106.38 3520
-1834.71 -106.803 3534
-1842.28 -107.74 3565
-1833.75 -107.74 3565
-1825.23 -107.74 3565
-1816.7 -107.74 3565
-1808.18 -107.74 3565
-1795.61 -107.498 3557
-1775.55 -106.803 3534
-1756.1 -106.138 3512
-1744.22 -105.927 3505
-1735.84 -105.927 3505
-1727.46 -105.927 3505
-1719.08 -105.927 3505
-1710.69 -105.927 3505
-1702.31 -105.927 3505
-1690.06 -105.685 3497
-1681.7 -105.685 3497
-1673.34 -105.685 3497
-1672.12 -106.138 3512
-1663.72 -106.138 3512
-1662.39 -106.592 3527
-1660.99 -107.045 3542
-1652.52 -107.045 3542
-1644.05 -107.045 3542
-1635.58 -107.045 3542
-1617.01 -106.38 3520
-1611.79 -106.592 3527
-1603.35 -106.592 3527
-1608.49 -107.498 3557
-1599.98 -107.498 3557
-1598.19 -107.952 3572
-1589.64 -107.952 3572
-1581.1 -107.952 3572
-1572.56 -107.952 3572
-1564.02 -107.952 3572
-1555.48 -107.952 3572
-1536.97 -107.256 3549
-1528.49 -107.256 3549
-1520 -107.256 3549
-1511.51 -107.256 3549
-1493.71 -106.592 3527
-1472.64 -105.685 3497
-1464.28 -105.685 3497
-1438.02 -104.385 3454
-1421.06 -103.751 3433
-1356.88 -99.6406 3297
-1322.81 -97.7064 3233
-1315.08 -97.7064 3233
-1294.81 -96.7695 3202
-1272.69 -95.6815 3166
-1248.33 -94.4122 3124
-1240.86 -94.4122 3124
-1217.6 -93.2034 3084
-1192.57 -91.8434 3039
-1170.09 -90.6648 3000
-1162.91 -90.6648 3000
-1137.63 -89.2443 2953
-1126.36 -88.9119 2942
-1115.52 -88.6097 2932
-1108.51 -88.6097 2932
-1101.5 -88.6097 2932
-1094.49 -88.6097 2932
-1089.33 -88.7608 2937
-1084.15 -88.9119 2942
-1077.11 -88.9119 2942
-1070.08 -88.9119 2942
-1063.04 -88.9119 2942
-1054.21 -88.7608 2937
-1047.19 -88.7608 2937
-1038.4 -88.6097 2932
-1031.38 -88.6097 2932
-1024.37 -88.6097 2932
-1017.36 -88.6097 2932
-1008.63 -88.4586 2927
-998.206 -88.1564 2917
-991.231 -88.1564 2917
-984.255 -88.1564 2917
-977.28 -88.1564 2917
-970.304 -88.1564 2917
-963.329 -88.1564 2917
-956.354 -88.1564 2917
-947.425 -87.975 2911
-940.464 -87.975 2911
-933.503 -87.975 2911
-926.542 -87.975 2911
-919.581 -87.975 2911
-912.62 -87.975 2911
-904.103 -87.8239 2906
-897.154 -87.8239 2906
-890.205 -87.8239 2906
-883.256 -87.8239 2906
-876.307 -87.8239 2906
-869.358 -87.8239 2906
-860.925 -87.6728 2901
-853.987 -87.6728 2901
-847.05 -87.6728 2901
-840.113 -87.6728 2901
-833.176 -87.6728 2901
-824.815 -87.5217 2896
-817.89 -87.5217 2896
-809.564 -87.3706 2891
-802.651 -87.3706 2891
-795.738 -87.3706 2891
-788.824 -87.3706 2891
-780.559 -87.2195 2886
-773.658 -87.2195 2886
-766.756 -87.2195 2886
-759.855 -87.2195 2886
-752.954 -87.2195 2886
-746.052 -87.2195 2886
-737.87 -87.0684 2881
-730.981 -87.0684 2881
-724.092 -87.0684 2881
-717.202 -87.0684 2881
-709.08 -86.9173 2876
-702.203 -86.9173 2876
-695.326 -86.9173 2876
-688.448 -86.9173 2876
-681.571 -86.9173 2876
-673.52 -86.7662 2871
-665.494 -86.6151 2866
-658.641 -86.6151 2866
-651.787 -86.6151 2866
-644.934 -86.6151 2866
-638.08 -86.6151 2866
-631.227 -86.6151 2866
-624.373 -86.6151 2866
-621.829 -87.2195 2886
-615.993 -87.3706 2891
-611.187 -87.6728 2901
-604.249 -87.6728 2901
-603.695 -88.6097 2932
-602.992 -89.5466 2963
-601.337 -90.3625 2990
-594.187 -90.3625 2990
-587.037 -90.3625 2990
-633.221 -98.6735 3265
-626.563 -98.8548 3271
-618.741 -98.8548 3271
-613.347 -99.2477 3284
-606.6 -99.429 3290
-598.733 -99.429 3290
-590.866 -99.429 3290
-585.302 -99.8219 3303
-578.627 -100.033 3310
-571.919 -100.245 3317
-563.987 -100.245 3317
-557.061 -100.426 3323
-551.428 -100.849 3337
-544.425 -101.031 3343
-536.431 -101.031 3343
-529.543 -101.242 3350
-521.533 -101.242 3350
-513.522 -101.242 3350
-505.511 -101.242 3350
-496.46 -101.031 3343
-487.59 -100.849 3337
-479.61 -100.849 3337
-471.63 -100.849 3337
-460.871 -100.245 3317
-452.939 -100.245 3317
-446.752 -100.638 3330
-438.789 -100.638 3330
-430.826 -100.638 3330
-421.974 -100.426 3323
-414.027 -100.426 3323
-406.081 -100.426 3323
-396.577 -100.033 3310
-388.662 -100.033 3310
-262.497 -68.9657 2282
-258.166 -69.2679 2292
-253.016 -69.3585 2295
-247.528 -69.3585 2295
-242.04 -69.3585 2295
-236.552 -69.3585 2295
-230.762 -69.2679 2292
-225.576 -69.3585 2295
-220.663 -69.5399 2301
-215.161 -69.5399 2301
-209.658 -69.5399 2301
-203.624 -69.3585 2295
-198.136 -69.3585 2295
-191.556 -68.9657 2282
-185.121 -68.603 2270
-179.217 -68.4217 2264
-173.804 -68.4217 2264
-166.53 -67.6661 2239
-159.089 -66.7897 2210
-153.386 -66.6084 2204
-148.116 -66.6084 2204
-142.068 -66.2457 2192
-135.952 -65.8226 2178
-130.083 -65.4902 2167
-124.728 -65.3995 2164
-119.554 -65.3995 2164
-113.903 -65.1275 2155
-108.649 -65.0671 2153
-103.501 -65.0671 2153
-98.3521 -65.0671 2153
-93.0738 -64.9764 2150
-87.8098 -64.8857 2147
-82.5601 -64.7951 2144
-77.4332 -64.7951 2144
-72.2387 -64.7346 2142
-66.9286 -64.5533 2136
-61.8208 -64.5533 2136
-56.7129 -64.5533 2136
-51.4843 -64.4022 2131
-46.3231 -64.3115 2128
-41.2344 -64.3115 2128
-36.1457 -64.3115 2128
-31.0133 -64.2209 2125
-25.8951 -64.1302 2122
-20.8012 -64.0698 2120
-15.7093 -63.9791 2117
-10.647 -63.9791 2117
-5.57666 -63.8884 2114
-0.520949 -63.828 2112
4.52948 -63.828 2112
9.57992 -63.828 2112
14.6303 -63.828 2112
19.6808 -63.828 2112
24.6961 -63.7373 2109
29.7393 -63.7373 2109
34.7331 -63.6467 2106
39.7692 -63.6467 2106
44.8053 -63.6467 2106
49.8414 -63.6467 2106
54.8775 -63.6467 2106
59.9135 -63.6467 2106
64.9496 -63.6467 2106
69.9857 -63.6467 2106
75.0218 -63.6467 2106
80.0579 -63.6467 2106
85.094 -63.6467 2106
90.1301 -63.6467 2106
95.0758 -63.5862 2104
100.107 -63.5862 2104
105.238 -63.6467 2106
110.274 -63.6467 2106
115.31 -63.6467 2106
120.347 -63.6467 2106
125.383 -63.6467 2106
130.419 -63.6467 2106
135.648 -63.7373 2109
140.691 -63.7373 2109
145.942 -63.828 2112
150.992 -63.828 2112
156.19 -63.8884 2114
161.245 -63.8884 2114
166.301 -63.8884 2114
171.599 -63.9791 2117
176.661 -63.9791 2117
181.724 -63.9791 2117
187.051 -64.0698 2120
192.302 -64.1302 2122
197.934 -64.3115 2128
203.023 -64.3115 2128
208.405 -64.4022 2131
213.701 -64.4626 2133
218.802 -64.4626 2133
223.902 -64.4626 2133
229.325 -64.5533 2136
235.092 -64.7346 2142
240.774 -64.8857 2147
245.909 -64.8857 2147
251.978 -65.1275 2155
257.131 -65.1275 2155
262.285 -65.1275 2155
267.438 -65.1275 2155
271.579 -64.8857 2147
411.982 -91.511 3028
419.223 -91.511 3028
426.464 -91.511 3028
433.705 -91.511 3028
440.946 -91.511 3028
444.93 -90.8461 3006
452.119 -90.8461 3006
457.626 -90.5136 2995
464.788 -90.5136 2995
471.162 -90.3625 2990
476.553 -90.0301 2979
481.89 -89.6977 2968
488.988 -89.6977 2968
491.739 -88.9119 2942
497.927 -88.7608 2937
504.95 -88.7608 2937
510.23 -88.4586 2927
517.229 -88.4586 2927
523.333 -88.3075 2922
529.413 -88.1564 2917
536.389 -88.1564 2917
543.364 -88.1564 2917
550.34 -88.1564 2917
557.315 -88.1564 2917
563.13 -87.975 2911
570.091 -87.975 2911
577.052 -87.975 2911
581.004 -87.5217 2896
586.914 -87.3706 2891
593.827 -87.3706 2891
599.701 -87.2195 2886
605.552 -87.0684 2881
612.441 -87.0684 2881
618.255 -86.9173 2876
625.133 -86.9173 2876
632.01 -86.9173 2876
638.888 -86.9173 2876
644.642 -86.7662 2871
652.642 -86.9173 2876
659.52 -86.9173 2876
666.397 -86.9173 2876
673.275 -86.9173 2876
680.152 -86.9173 2876
687.029 -86.9173 2876
693.907 -86.9173 2876
699.566 -86.7662 2871
706.431 -86.7662 2871
713.297 -86.7662 2871
720.162 -86.7662 2871
727.028 -86.7662 2871
733.893 -86.7662 2871
740.758 -86.7662 2871
747.624 -86.7662 2871
754.489 -86.7662 2871
761.355 -86.7662 2871
766.882 -86.6151 2866
773.736 -86.6151 2866
780.589 -86.6151 2866
787.443 -86.6151 2866
794.296 -86.6151 2866
801.15 -86.6151 2866
808.003 -86.6151 2866
813.719 -86.4942 2862
820.563 -86.4942 2862
827.407 -86.4942 2862
834.251 -86.4942 2862
839.625 -86.3431 2857
846.457 -86.3431 2857
853.289 -86.3431 2857
861.627 -86.4942 2862
868.471 -86.4942 2862
875.314 -86.4942 2862
880.617 -86.3431 2857
889.002 -86.4942 2862
897.098 -86.6151 2866
905.529 -86.7662 2871
913.983 -86.9173 2876
920.861 -86.9173 2876
932.577 -87.3706 2891
939.49 -87.3706 2891
948.04 -87.5217 2896
954.965 -87.5217 2896
963.551 -87.6728 2901
977.514 -88.3075 2922
992.924 -89.063 2947
999.971 -89.063 2947
1038.46 -91.8434 3039
1089.42 -95.6815 3166
1096.99 -95.6815 3166
1205.04 -104.385 3454
1225.95 -105.473 3490
1249.86 -106.803 3534
1258.31 -106.803 3534
1272.13 -107.256 3549
1288.92 -107.952 3572
1308.72 -108.888 3603
1317.34 -108.888 3603
1325.95 -108.888 3603
1334.57 -108.888 3603
1352.13 -109.614 3627
1360.81 -109.614 3627
1369.48 -109.614 3627
1378.15 -109.614 3627
1386.83 -109.614 3627
1383.19 -108.647 3595
1385.98 -108.193 3580
1388.69 -107.74 3565
1397.22 -107.74 3565
1393.52 -106.803 3534
1390.47 -105.927 3505
1392.86 -105.473 3490
1392.38 -104.808 3468
1400.67 -104.808 3468
1406.12 -104.597 3461
1411.53 -104.385 3454
1411.16 -103.751 3433
1419.37 -103.751 3433
1418.85 -103.116 3412
1418.22 -102.481 3391
1417.5 -101.847 3370
1425.56 -101.847 3370
1419.58 -100.849 3337
1419 -100.245 3317
1420.91 -99.8219 3303
1434.87 -100.245 3317
1442.8 -100.245 3317
1450.73 -100.245 3317
1452.5 -99.8219 3303
1460.4 -99.8219 3303
1468.3 -99.8219 3303
1470.39 -99.429 3290
1478.26 -99.429 3290
1495.16 -100.033 3310
1503.07 -100.033 3310
1510.99 -100.033 3310
1531.29 -100.849 3337
1551.27 -101.635 3363
1595.01 -103.962 3440
1603.24 -103.962 3440
1614.74 -104.174 3447
1626.28 -104.385 3454
1644.95 -105.05 3476
1653.26 -105.05 3476
1682.61 -106.38 3520
1691.03 -106.38 3520
1699.44 -106.38 3520
1707.86 -106.38 3520
1716.28 -106.38 3520
1728.13 -106.592 3527
1736.56 -106.592 3527
1744.99 -106.592 3527
1753.43 -106.592 3527
1750.87 -105.927 3505
1744.7 -105.05 3476
1753.01 -105.05 3476
1753.72 -104.597 3461
1762 -104.597 3461
1755.95 -103.751 3433
1764.16 -103.751 3433
1768.76 -103.539 3426
1741.16 -101.454 3357
1735.12 -100.638 3330
1728.95 -99.8219 3303
1736.85 -99.8219 3303
1737.88 -99.429 3290
1732.48 -98.6735 3265
1740.29 -98.6735 3265
1748.1 -98.6735 3265
1755.91 -98.6735 3265
1763.71 -98.6735 3265
1764.47 -98.2806 3252
1772.24 -98.2806 3252
1746.08 -96.4069 3190
1740.52 -95.6815 3166
1731.52 -94.7749 3136
1700.76 -92.6896 3067
1708.09 -92.6896 3067
1681.31 -90.8461 3006
1679.51 -90.3625 2990
1651.12 -88.4586 2927
1658.12 -88.4586 2927
1641.8 -87.2195 2886
1629.28 -86.192 2852
1624.62 -85.5875 2832
1626.21 -85.3155 2823
1632.96 -85.3155 2823
1628.68 -84.7413 2804
1629.55 -84.4391 2794
1630.96 -84.1671 2785
1637.62 -84.1671 2785
1638.96 -83.8951 2776
1642.64 -83.744 2771
1643.91 -83.472 2762
1650.51 -83.472 2762
1648.72 -83.0489 2748
1652.88 -82.928 2744
1656.42 -82.7769 2739
1662.97 -82.7769 2739
1669.52 -82.7769 2739
1673.62 -82.656 2735
1677.09 -82.5049 2730
1675.6 -82.1121 2717
1682.1 -82.1121 2717
1688.59 -82.1121 2717
1695.09 -82.1121 2717
1699.08 -81.9912 2713
1705.57 -81.9912 2713
1712.06 -81.9912 2713
1718.55 -81.9912 2713
1719.31 -81.7192 2704
1725.78 -81.7192 2704
1732.24 -81.7192 2704
1735.49 -81.5681 2699
1739.37 -81.4472 2695
1745.81 -81.4472 2695
1752.26 -81.4472 2695
1756.09 -81.3263 2691
1762.53 -81.3263 2691
1763.04 -81.0543 2682
1769.46 -81.0543 2682
1775.87 -81.0543 2682
1773.65 -80.6614 2669
1777.36 -80.5405 2665
1783.73 -80.5405 2665
1790.11 -80.5405 2665
1796.48 -80.5405 2665
1802.85 -80.5405 2665
1806.51 -80.4196 2661
1812.87 -80.4196 2661
1819.24 -80.4196 2661
1825.6 -80.4196 2661
1825.77 -80.1477 2652
1832.11 -80.1477 2652
1838.45 -80.1477 2652
1844.79 -80.1477 2652
1851.13 -80.1477 2652
1857.47 -80.1477 2652
1858.19 -79.9059 2644
1861.7 -79.785 2640
1868.01 -79.785 2640
1874.32 -79.785 2640
1880.63 -79.785 2640
1883.37 -79.6339 2635
1886.81 -79.513 2631
1890.22 -79.3921 2627
1896.5 -79.3921 2627
1902.78 -79.3921 2627
1909.07 -79.3921 2627
1915.35 -79.3921 2627
1921.63 -79.3921 2627
1924.98 -79.2712 2623
1928.3 -79.1503 2619
1931.61 -79.0294 2615
1937.86 -79.0294 2615
1944.12 -79.0294 2615
1950.37 -79.0294 2615
1956.62 -79.0294 2615
1962.88 -79.0294 2615
1969.13 -79.0294 2615
1975.38 -79.0294 2615
1981.64 -79.0294 2615
1984.85 -78.9086 2611
1991.09 -78.9086 2611
1988.16 -78.5459 2599
-2050.76 -76.2156 2739
-2054.66 -76.6052 2753
-2048.07 -76.6052 2753
-2041.49 -76.6052 2753
-2034.91 -76.6052 2753
-2024.64 -76.4661 2748
-2018.07 -76.4661 2748
-2011.5 -76.4661 2748
-2002.01 -76.3548 2744
-1991.81 -76.2156 2739
-1985.26 -76.2156 2739
-1975.82 -76.1043 2735
-1975.76 -76.3548 2744
-1975.66 -76.6052 2753
-1969.07 -76.6052 2753
-1962.49 -76.6052 2753
-1955.91 -76.6052 2753
-1949.32 -76.6052 2753
-1942.74 -76.6052 2753
-1913.65 -75.7148 2721
-2189.61 -86.9287 3124
-2211.47 -88.0974 3166
-2203.9 -88.0974 3166
-2221.31 -89.0991 3202
-2221.95 -89.433 3214
-2294.18 -92.6608 3330
-2286.21 -92.6608 3330
-2296.72 -93.4121 3357
-2288.7 -93.4121 3357
-2284.74 -93.5791 3363
-2276.7 -93.5791 3363
-2287.55 -94.3582 3391
-2288.85 -94.7478 3405
-2280.71 -94.7478 3405
-2272.57 -94.7478 3405
-2264.42 -94.7478 3405
-2247 -94.3582 3391
-2252.76 -94.9426 3412
-2244.6 -94.9426 3412
-2241.03 -95.1374 3419
-2232.85 -95.1374 3419
-2247.45 -96.1113 3454
-2239.19 -96.1113 3454
-2239.98 -96.5008 3468
-2236.83 -96.7234 3476
-2237.49 -97.113 3490
-2229.15 -97.113 3490
-2225.26 -97.3078 3497
-2221.97 -97.5304 3505
-2231.9 -98.3374 3534
-2223.45 -98.3374 3534
-2224.4 -98.7548 3549
-2220.91 -98.9774 3557
-2212.4 -98.9774 3557
-2203.9 -98.9774 3557
-2186.13 -98.56 3542
-2172.74 -98.3374 3534
-2178.38 -98.9774 3557
-2169.87 -98.9774 3557
-2175.34 -99.6174 3580
-2171.62 -99.84 3588
-2167.26 -100.035 3595
-2158.67 -100.035 3595
-2150.07 -100.035 3595
-2132.54 -99.6174 3580
-2123.98 -99.6174 3580
-2115.42 -99.6174 3580
-2102.15 -99.3948 3572
-2093.61 -99.3948 3572
-2085.06 -99.3948 3572
-2076.52 -99.3948 3572
-2067.98 -99.3948 3572
-2055.4 -99.2 3565
-2046.88 -99.2 3565
-2029.2 -98.7548 3549
-2012.18 -98.3374 3534
-2012.23 -98.7548 3549
-2008.26 -98.9774 3557
-1999.76 -98.9774 3557
-1991.25 -98.9774 3557
-1982.74 -98.9774 3557
-1974.24 -98.9774 3557
-1965.73 -98.9774 3557
-1948.97 -98.56 3542
-1940.5 -98.56 3542
-1940.21 -98.9774 3557
-1931.71 -98.9774 3557
-1923.2 -98.9774 3557
-1910.39 -98.7548 3549
-1901.9 -98.7548 3549
-1893.42 -98.7548 3549
-1876.96 -98.3374 3534
-1868.51 -98.3374 3534
-1860.06 -98.3374 3534
-1847.94 -98.1426 3527
-1835.86 -97.9478 3520
-1834.71 -98.3374 3534
-1842.28 -99.2 3565
-1833.75 -99.2 3565
-1825.23 -99.2 3565
-1816.7 -99.2 3565
-1808.18 -99.2 3565
-1795.61 -98.9774 3557
-1775.55 -98.3374 3534
-1756.1 -97.7252 3512
-1744.22 -97.5304 3505
-1735.84 -97.5304 3505
-1727.46 -97.5304 3505
-1719.08 -97.5304 3505
-1710.69 -97.5304 3505
-1702.31 -97.5304 3505
-1690.06 -97.3078 3497
-1681.7 -97.3078 3497
-1673.34 -97.3078 3497
-1668.79 -97.5304 3505
-1660.41 -97.5304 3505
-1655.32 -97.7252 3512
-1650.68 -97.9478 3520
-1642.26 -97.9478 3520
-1633.84 -97.9478 3520
-1625.42 -97.9478 3520
-1610.12 -97.5304 3505
-1601.73 -97.5304 3505
-1593.35 -97.5304 3505
-1594.92 -98.1426 3527
-1599.98 -98.9774 3557
-1595.05 -99.2 3565
-1586.53 -99.2 3565
-1578 -99.2 3565
-1569.48 -99.2 3565
-1560.95 -99.2 3565
-1542.41 -98.56 3542
-1536.97 -98.7548 3549
-1528.49 -98.7548 3549
-1520 -98.7548 3549
-1508.53 -98.56 3542
-1490.75 -97.9478 3520
-1472.64 -97.3078 3497
-1464.28 -97.3078 3497
-1438.02 -96.1113 3454
-1421.06 -95.5269 3433
-1356.88 -91.7426 3297
-1322.81 -89.9617 3233
-1315.08 -89.9617 3233
-1294.81 -89.0991 3202
-1272.69 -88.0974 3166
-1248.33 -86.9287 3124
-1240.86 -86.9287 3124
-1217.6 -85.8156 3084
-1192.57 -84.5635 3039
-1170.09 -83.4782 3000
-1162.91 -83.4782 3000
-1137.63 -82.1704 2953
-1126.36 -81.8643 2942
-1115.52 -81.5861 2932
-1108.51 -81.5861 2932
-1101.5 -81.5861 2932
-1094.49 -81.5861 2932
-1089.33 -81.7252 2937
-1084.15 -81.8643 2942
-1077.11 -81.8643 2942
-1070.08 -81.8643 2942
-1063.04 -81.8643 2942
-1054.21 -81.7252 2937
-1047.19 -81.7252 2937
-1038.4 -81.5861 2932
-1031.38 -81.5861 2932
-1024.37 -81.5861 2932
-1017.36 -81.5861 2932
-1008.63 -81.4469 2927
-998.206 -81.1687 2917
-991.231 -81.1687 2917
-984.255 -81.1687 2917
-977.28 -81.1687 2917
-970.304 -81.1687 2917
-963.329 -81.1687 2917
-956.354 -81.1687 2917
-947.425 -81.0017 2911
-940.464 -81.0017 2911
-933.503 -81.0017 2911
-926.542 -81.0017 2911
-919.581 -81.0017 2911
-912.62 -81.0017 2911
-904.103 -80.8626 2906
-897.154 -80.8626 2906
-890.205 -80.8626 2906
-883.256 -80.8626 2906
-876.307 -80.8626 2906
-869.358 -80.8626 2906
-860.925 -80.7234 2901
-853.987 -80.7234 2901
-847.05 -80.7234 2901
-840.113 -80.7234 2901
-833.176 -80.7234 2901
-824.815 -80.5843 2896
-817.89 -80.5843 2896
-809.564 -80.4452 2891
-802.651 -80.4452 2891
-795.738 -80.4452 2891
-788.824 -80.4452 2891
-780.559 -80.3061 2886
-773.658 -80.3061 2886
-766.756 -80.3061 2886
-759.855 -80.3061 2886
-752.954 -80.3061 2886
-746.052 -80.3061 2886
-737.87 -80.1669 2881
-730.981 -80.1669 2881
-724.092 -80.1669 2881
-717.202 -80.1669 2881
-709.08 -80.0278 2876
-702.203 -80.0278 2876
-695.326 -80.0278 2876
-688.448 -80.0278 2876
-681.571 -80.0278 2876
-673.52 -79.8887 2871
-665.494 -79.7495 2866
-658.641 -79.7495 2866
-651.787 -79.7495 2866
-644.934 -79.7495 2866
-638.08 -79.7495 2866
-631.227 -79.7495 2866
-624.373 -79.7495 2866
-621.829 -80.3061 2886
-615.993 -80.4452 2891
-611.187 -80.7234 2901
-604.249 -80.7234 2901
-602.666 -81.4469 2927
-602.992 -82.4487 2963
-601.337 -83.2 2990
-594.187 -83.2 2990
-587.037 -83.2 2990
-631.864 -90.6574 3258
-626.563 -91.0191 3271
-618.741 -91.0191 3271
-612.227 -91.2139 3278
-605.494 -91.3808 3284
-598.733 -91.5478 3290
-590.866 -91.5478 3290
-585.302 -91.9095 3303
-578.627 -92.1043 3310
-570.712 -92.1043 3310
-562.797 -92.1043 3310
-556.055 -92.2991 3317
-551.428 -92.8556 3337
-544.425 -93.0226 3343
-536.431 -93.0226 3343
-529.543 -93.2174 3350
-521.533 -93.2174 3350
-513.522 -93.2174 3350
-505.511 -93.2174 3350
-496.46 -93.0226 3343
-487.59 -92.8556 3337
-479.61 -92.8556 3337
-471.63 -92.8556 3337
-460.871 -92.2991 3317
-451.984 -92.1043 3310
-445.812 -92.4661 3323
-437.866 -92.4661 3323
-429.92 -92.4661 3323
-421.212 -92.2991 3317
-412.408 -92.1043 3310
-404.492 -92.1043 3310
-396.577 -92.1043 3310
-388.662 -92.1043 3310
-258.166 -63.7774 2292
-253.016 -63.8608 2295
-247.528 -63.8608 2295
-242.04 -63.8608 2295
-236.552 -63.8608 2295
-230.762 -63.7774 2292
-225.576 -63.8608 2295
-220.663 -64.0278 2301
-215.161 -64.0278 2301
-209.658 -64.0278 2301
-203.624 -63.8608 2295
-198.136 -63.8608 2295
-191.556 -63.4991 2282
-185.121 -63.1652 2270
-179.217 -62.9982 2264
-173.804 -62.9982 2264
-166.53 -62.3026 2239
-159.089 -61.4956 2210
-153.386 -61.3287 2204
-148.116 -61.3287 2204
-142.068 -60.9948 2192
-135.952 -60.6052 2178
-130.083 -60.2991 2167
-124.728 -60.2156 2164
-119.554 -60.2156 2164
-113.903 -59.9652 2155
-108.649 -59.9095 2153
-103.501 -59.9095 2153
-98.3521 -59.9095 2153
-93.0738 -59.8261 2150
-87.8098 -59.7426 2147
-82.5601 -59.6591 2144
-77.4332 -59.6591 2144
-72.2387 -59.6035 2142
-66.9286 -59.4365 2136
-61.8208 -59.4365 2136
-56.7129 -59.4365 2136
-51.4843 -59.2974 2131
-46.3231 -59.2139 2128
-41.2344 -59.2139 2128
-36.1457 -59.2139 2128
-31.0133 -59.1304 2125
-25.8951 -59.0469 2122
-20.8012 -58.9913 2120
-15.7093 -58.9078 2117
-10.647 -58.9078 2117
-5.57666 -58.8243 2114
-0.520949 -58.7687 2112
4.52948 -58.7687 2112
9.57992 -58.7687 2112
14.6303 -58.7687 2112
19.6528 -58.6852 2109
24.6961 -58.6852 2109
29.7393 -58.6852 2109
34.7331 -58.6017 2106
39.7692 -58.6017 2106
44.8053 -58.6017 2106
49.8414 -58.6017 2106
54.8775 -58.6017 2106
59.9135 -58.6017 2106
64.9496 -58.6017 2106
69.9857 -58.6017 2106
75.0218 -58.6017 2106
80.0579 -58.6017 2106
85.094 -58.6017 2106
90.1301 -58.6017 2106
95.0758 -58.5461 2104
100.107 -58.5461 2104
105.238 -58.6017 2106
110.274 -58.6017 2106
115.31 -58.6017 2106
120.347 -58.6017 2106
125.383 -58.6017 2106
130.419 -58.6017 2106
135.648 -58.6852 2109
140.691 -58.6852 2109
145.942 -58.7687 2112
150.992 -58.7687 2112
156.19 -58.8243 2114
161.245 -58.8243 2114
166.301 -58.8243 2114
171.599 -58.9078 2117
176.661 -58.9078 2117
181.724 -58.9078 2117
187.051 -58.9913 2120
192.302 -59.0469 2122
197.934 -59.2139 2128
203.023 -59.2139 2128
208.405 -59.2974 2131
213.701 -59.353 2133
218.802 -59.353 2133
223.902 -59.353 2133
229.325 -59.4365 2136
235.092 -59.6035 2142
240.774 -59.7426 2147
245.909 -59.7426 2147
251.978 -59.9652 2155
257.131 -59.9652 2155
262.285 -59.9652 2155
267.438 -59.9652 2155
271.579 -59.7426 2147
411.982 -84.2574 3028
419.223 -84.2574 3028
426.464 -84.2574 3028
433.705 -84.2574 3028
440.946 -84.2574 3028
444.93 -83.6452 3006
452.119 -83.6452 3006
457.626 -83.3391 2995
464.788 -83.3391 2995
471.162 -83.2 2990
476.553 -82.8939 2979
481.89 -82.5878 2968
488.988 -82.5878 2968
491.739 -81.8643 2942
497.927 -81.7252 2937
504.95 -81.7252 2937
510.23 -81.4469 2927
517.229 -81.4469 2927
522.438 -81.1687 2917
529.413 -81.1687 2917
536.389 -81.1687 2917
543.364 -81.1687 2917
550.34 -81.1687 2917
557.315 -81.1687 2917
563.13 -81.0017 2911
570.091 -81.0017 2911
577.052 -81.0017 2911
581.004 -80.5843 2896
586.914 -80.4452 2891
593.827 -80.4452 2891
599.701 -80.3061 2886
605.552 -80.1669 2881
612.441 -80.1669 2881
618.255 -80.0278 2876
625.133 -80.0278 2876
632.01 -80.0278 2876
638.888 -80.0278 2876
644.642 -79.8887 2871
651.508 -79.8887 2871
658.373 -79.8887 2871
666.397 -80.0278 2876
673.275 -80.0278 2876
680.152 -80.0278 2876
687.029 -80.0278 2876
693.907 -80.0278 2876
699.566 -79.8887 2871
706.431 -79.8887 2871
713.297 -79.8887 2871
720.162 -79.8887 2871
727.028 -79.8887 2871
733.893 -79.8887 2871
740.758 -79.8887 2871
747.624 -79.8887 2871
754.489 -79.8887 2871
761.355 -79.8887 2871
766.882 -79.7495 2866
773.736 -79.7495 2866
780.589 -79.7495 2866
787.443 -79.7495 2866
794.296 -79.7495 2866
801.15 -79.7495 2866
808.003 -79.7495 2866
813.719 -79.6382 2862
820.563 -79.6382 2862
827.407 -79.6382 2862
834.251 -79.6382 2862
839.625 -79.4991 2857
846.457 -79.4991 2857
853.289 -79.4991 2857
861.627 -79.6382 2862
868.471 -79.6382 2862
875.314 -79.6382 2862
880.617 -79.4991 2857
889.002 -79.6382 2862
897.098 -79.7495 2866
905.529 -79.8887 2871
913.983 -80.0278 2876
920.861 -80.0278 2876
932.577 -80.4452 2891
939.49 -80.4452 2891
948.04 -80.5843 2896
954.965 -80.5843 2896
963.551 -80.7234 2901
977.514 -81.3078 2922
992.924 -82.0034 2947
999.971 -82.0034 2947
1038.46 -84.5635 3039
1089.42 -88.0974 3166
1096.99 -88.0974 3166
1123.75 -89.6278 3221
1165.18 -92.2991 3317
1226.51 -96.5008 3468
1234.81 -96.5008 3468
1258.87 -97.7252 3512
1278.1 -98.56 3542
1294.92 -99.2 3565
1303.44 -99.2 3565
1314.55 -99.3948 3572
1323.09 -99.3948 3572
1340.2 -100.035 3595
1348.8 -100.035 3595
1357.4 -100.035 3595
1363.33 -99.84 3588
1371.91 -99.84 3588
1368.57 -98.9774 3557
1373.98 -98.7548 3549
1376.62 -98.3374 3534
1373.7 -97.5304 3505
1382.09 -97.5304 3505
1378.96 -96.7234 3476
1381.29 -96.3061 3461
1381.13 -95.7217 3440
1389.36 -95.7217 3440
1389.05 -95.1374 3419
1394.37 -94.9426 3412
1402.53 -94.9426 3412
1410.69 -94.9426 3412
1410.11 -94.3582 3391
1409.44 -93.7739 3370
1409.09 -93.2174 3350
1417.1 -93.2174 3350
1413.62 -92.4661 3323
1413.01 -91.9095 3303
1418.33 -91.7426 3297
1428.81 -91.9095 3303
1436.71 -91.9095 3303
1444.61 -91.9095 3303
1452.5 -91.9095 3303
1457.75 -91.7426 3297
1465.63 -91.7426 3297
1467.71 -91.3808 3284
1475.56 -91.3808 3284
1489.29 -91.7426 3297
1497.17 -91.7426 3297
1505.05 -91.7426 3297
1518.9 -92.1043 3310
1536.05 -92.6608 3330
1559.31 -93.5791 3363
1567.35 -93.5791 3363
1581.95 -93.9687 3377
1606.51 -94.9426 3412
1631.23 -95.9165 3447
1639.47 -95.9165 3447
1647.71 -95.9165 3447
1655.96 -95.9165 3447
1664.2 -95.9165 3447
1672.44 -95.9165 3447
1677.27 -95.7217 3440
1692.36 -96.1113 3454
1700.62 -96.1113 3454
1708.88 -96.1113 3454
1717.14 -96.1113 3454
1714.91 -95.5269 3433
1716.09 -95.1374 3419
1724.26 -95.1374 3419
1728.89 -94.9426 3412
1729.92 -94.553 3398
1727.31 -93.9687 3377
1735.38 -93.9687 3377
1743.46 -93.9687 3377
1741.16 -93.4121 3357
1735.12 -92.6608 3330
1728.95 -91.9095 3303
1736.85 -91.9095 3303
1737.88 -91.5478 3290
1732.48 -90.8521 3265
1740.29 -90.8521 3265
1748.1 -90.8521 3265
1755.91 -90.8521 3265
1763.71 -90.8521 3265
1764.47 -90.4904 3252
1772.24 -90.4904 3252
1746.08 -88.7652 3190
1740.52 -88.0974 3166
1731.52 -87.2626 3136
1700.76 -85.3426 3067
1708.09 -85.3426 3067
1681.31 -83.6452 3006
1679.51 -83.2 2990
1651.12 -81.4469 2927
1658.12 -81.4469 2927
1641.8 -80.3061 2886
1629.28 -79.36 2852
1624.62 -78.8035 2832
1626.21 -78.553 2823
1632.96 -78.553 2823
1628.68 -78.0243 2804
1629.55 -77.7461 2794
1630.96 -77.4956 2785
1637.62 -77.4956 2785
1638.96 -77.2452 2776
1642.64 -77.1061 2771
1643.91 -76.8556 2762
1650.51 -76.8556 2762
1648.72 -76.4661 2748
1652.88 -76.3548 2744
1656.42 -76.2156 2739
1662.97 -76.2156 2739
1669.52 -76.2156 2739
1673.62 -76.1043 2735
1677.09 -75.9652 2730
1675.6 -75.6035 2717
1682.1 -75.6035 2717
1688.59 -75.6035 2717
1695.09 -75.6035 2717
1699.08 -75.4921 2713
1705.57 -75.4921 2713
1712.06 -75.4921 2713
1718.55 -75.4921 2713
1719.31 -75.2417 2704
1725.78 -75.2417 2704
1732.24 -75.2417 2704
1735.49 -75.1026 2699
1739.37 -74.9913 2695
1745.81 -74.9913 2695
1752.26 -74.9913 2695
1756.09 -74.88 2691
1762.53 -74.88 2691
1763.04 -74.6295 2682
1769.46 -74.6295 2682
1775.87 -74.6295 2682
1773.65 -74.2678 2669
1777.36 -74.1565 2665
1783.73 -74.1565 2665
1790.11 -74.1565 2665
1796.48 -74.1565 2665
1802.85 -74.1565 2665
1806.51 -74.0452 2661
1812.87 -74.0452 2661
1819.24 -74.0452 2661
1825.6 -74.0452 2661
1825.77 -73.7948 2652
1832.11 -73.7948 2652
1838.45 -73.7948 2652
1844.79 -73.7948 2652
1851.13 -73.7948 2652
1857.47 -73.7948 2652
1858.19 -73.5722 2644
1861.7 -73.4608 2640
1868.01 -73.4608 2640
1874.32 -73.4608 2640
1880.63 -73.4608 2640
1883.37 -73.3217 2635
1886.81 -73.2104 2631
1890.22 -73.0991 2627
1896.5 -73.0991 2627
1902.78 -73.0991 2627
1909.07 -73.0991 2627
1915.35 -73.0991 2627
1921.63 -73.0991 2627
1924.98 -72.9878 2623
1928.3 -72.8765 2619
1931.61 -72.7652 2615
1937.86 -72.7652 2615
1944.12 -72.7652 2615
1950.37 -72.7652 2615
1956.62 -72.7652 2615
1962.88 -72.7652 2615
1969.13 -72.7652 2615
1975.38 -72.7652 2615
1981.64 -72.7652 2615
1984.85 -72.6539 2611
1991.09 -72.6539 2611
1988.16 -72.32 2599
-2050.76 -69.6543 2739
-2054.66 -70.0104 2753
-2048.07 -70.0104 2753
-2041.49 -70.0104 2753
-2034.91 -70.0104 2753
-2024.64 -69.8832 2748
-2018.07 -69.8832 2748
-2011.5 -69.8832 2748
-1998.36 -69.6543 2739
-1988.9 -69.5526 2735
-1982.36 -69.5526 2735
-1972.21 -69.4255 2730
-1972.16 -69.6543 2739
-1969.2 -69.7815 2744
-1962.64 -69.7815 2744
-1956.07 -69.7815 2744
-1945.96 -69.6543 2739
-1936.58 -69.5526 2735
-1930.04 -69.5526 2735
-1913.65 -69.1966 2721
-2173.49 -78.8602 3101
-2203.09 -80.208 3154
-2195.55 -80.208 3154
-2200.49 -80.6658 3172
-2221.95 -81.7338 3214
-2285.22 -84.3532 3317
-2277.29 -84.3532 3317
-2278.25 -84.6838 3330
-2288.7 -85.3704 3357
-2280.67 -85.3704 3357
-2272.64 -85.3704 3357
-2273.38 -85.701 3370
-2288.85 -86.5911 3405
-2280.71 -86.5911 3405
-2272.57 -86.5911 3405
-2264.42 -86.5911 3405
-2247 -86.2351 3391
-2252.76 -86.7691 3412
-2244.6 -86.7691 3412
-2241.03 -86.9471 3419
-2232.85 -86.9471 3419
-2242.9 -87.6592 3447
-2234.66 -87.6592 3447
-2235.45 -88.0152 3461
-2236.83 -88.3967 3476
-2237.49 -88.7527 3490
-2229.15 -88.7527 3490
-2225.26 -88.9307 3497
-2221.97 -89.1341 3505
-2231.9 -89.8716 3534
-2223.45 -89.8716 3534
-2224.4 -90.2531 3549
-2220.91 -90.4565 3557
-2212.4 -90.4565 3557
-2203.9 -90.4565 3557
-2186.13 -90.0751 3542
-2164.14 -89.5156 3520
-2178.38 -90.4565 3557
-2169.87 -90.4565 3557
-2175.34 -91.0414 3580
-2171.62 -91.2449 3588
