1424.9 300.823 3549
1433.38 300.823 3549
1426.84 297.687 3512
1417.25 293.958 3468
1414.04 291.584 3440
1422.26 291.584 3440
1415.94 288.617 3405
1401.08 283.956 3350
1383.85 278.87 3290
1373.1 275.14 3246
1380.87 275.14 3246
1388.63 275.14 3246
1412.74 278.361 3284
1428.81 279.972 3303
1442.8 281.158 3317
1450.73 281.158 3317
1464.38 282.26 3330
1472.34 282.26 3330
1480.3 282.26 3330
1488.27 282.26 3330
1472.87 277.853 3278
1466.25 275.14 3246
1474.01 275.14 3246
1467.17 272.428 3214
1455.58 268.868 3172
1414.73 259.968 3067
1422.06 259.968 3067
1429.4 259.968 3067
1420.81 257.086 3033
1428.06 257.086 3033
1422.53 254.797 3006
1429.72 254.797 3006
1421.61 252.085 2974
1408.55 248.525 2932
1405.42 246.745 2911
1402.68 245.049 2891
1409.59 245.049 2891
1416.5 245.049 2891
1423.42 245.049 2891
1430.33 245.049 2891
1437.24 245.049 2891
1444.16 245.049 2891
1446.05 244.202 2881
1445.38 242.93 2866
1452.23 242.93 2866
1457.05 242.591 2862
1463.89 242.591 2862
1468.17 242.167 2857
1475 242.167 2857
1476.64 241.32 2847
1483.45 241.32 2847
1490.26 241.32 2847
1497.07 241.32 2847
1503.87 241.32 2847
1510.68 241.32 2847
1514.83 240.896 2842
1518.94 240.472 2837
1525.73 240.472 2837
1529.81 240.048 2832
1536.58 240.048 2832
1543.36 240.048 2832
1550.13 240.048 2832
1554.7 239.709 2828
1561.46 239.709 2828
1570.44 240.048 2832
1577.22 240.048 2832
1583.99 240.048 2832
1590.76 240.048 2832
1597.53 240.048 2832
1604.31 240.048 2832
1611.08 240.048 2832
1617.85 240.048 2832
1624.62 240.048 2832
1629.09 239.709 2828
1635.85 239.709 2828
1642.62 239.709 2828
1649.38 239.709 2828
1656.14 239.709 2828
1662.9 239.709 2828
1669.67 239.709 2828
1676.43 239.709 2828
1683.19 239.709 2828
1689.95 239.709 2828
1696.72 239.709 2828
1703.48 239.709 2828
1710.24 239.709 2828
1717 239.709 2828
1723.77 239.709 2828
1727.47 239.285 2823
1731.15 238.862 2818
1737.89 238.862 2818
1744.63 238.862 2818
1745.77 238.099 2809
1752.49 238.099 2809
1759.21 238.099 2809
1765.92 238.099 2809
1769.48 237.675 2804
1773.02 237.251 2799
1776.54 236.827 2794
1783.22 236.827 2794
1789.9 236.827 2794
1794.01 236.488 2790
1797.45 236.064 2785
1804.11 236.064 2785
1810.77 236.064 2785
1814.17 235.641 2780
1818.2 235.302 2776
1821.55 234.878 2771
1828.18 234.878 2771
1834.8 234.878 2771
1841.43 234.878 2771
1848.05 234.878 2771
1854.68 234.878 2771
1861.31 234.878 2771
1865.24 234.539 2767
1871.85 234.539 2767
1878.47 234.539 2767
1881.68 234.115 2762
1888.29 234.115 2762
1894.89 234.115 2762
1901.5 234.115 2762
1908.1 234.115 2762
1914.7 234.115 2762
1921.31 234.115 2762
1927.91 234.115 2762
1934.52 234.115 2762
1941.12 234.115 2762
1944.2 233.691 2757
1950.8 233.691 2757
1957.39 233.691 2757
1963.98 233.691 2757
1970.57 233.691 2757
1977.17 233.691 2757
1983.76 233.691 2757
1983.86 232.928 2748
1987.53 232.589 2744
1994.09 232.589 2744
2000.65 232.589 2744
2010.14 232.928 2748
2016.71 232.928 2748
2026.96 233.352 2753
2033.55 233.352 2753
2040.13 233.352 2753
2043 232.928 2748
2039.87 231.826 2735
2042.67 231.403 2730
2049.2 231.403 2730
2039.16 229.538 2708
2042.62 229.199 2704
2068.78 231.403 2730
2075.31 231.403 2730
2081.84 231.403 2730
2088.37 231.403 2730
-2120.39 246.832 2832
-2113.62 246.832 2832
-2110.56 247.268 2837
-2103.78 247.268 2837
-2108.08 248.576 2852
-2101.26 248.576 2852
-2094.44 248.576 2852
-2087.62 248.576 2852
-2080.8 248.576 2852
-2073.98 248.576 2852
-2067.16 248.576 2852
-2056.73 248.14 2847
-2042.72 247.268 2837
-2039.53 247.704 2842
-2032.73 247.704 2842
-2025.93 247.704 2842
-2019.14 247.704 2842
-2012.34 247.704 2842
-2005.55 247.704 2842
-1998.75 247.704 2842
-1982.14 246.484 2828
-1999.13 249.447 2862
-1998.55 250.232 2871
-1991.68 250.232 2871
-1995.19 251.539 2886
-1988.29 251.539 2886
-1981.39 251.539 2886
-1974.48 251.539 2886
-1957.36 250.232 2871
-1950.49 250.232 2871
-1967.32 253.282 2906
-1960.37 253.282 2906
-1964.18 254.677 2922
-1960.54 255.112 2927
-1966.89 256.856 2947
-1959.84 256.856 2947
-1963.4 258.25 2963
-1963.57 259.209 2974
-1966.99 260.603 2990
-1959.84 260.603 2990
-1966.4 262.434 3011
-1959.2 262.434 3011
-1952 262.434 3011
-2078.9 302.962 3476
-2070.59 302.962 3476
-2062.28 302.962 3476
-2053.96 302.962 3476
-2053.89 304.183 3490
-2049.65 304.793 3497
-2045.95 305.49 3505
-2037.57 305.49 3505
-2029.19 305.49 3505
-2020.81 305.49 3505
-2021.04 306.797 3520
-2012.62 306.797 3520
-2004.21 306.797 3520
-1995.79 306.797 3520
-1987.37 306.797 3520
-1974.46 306.1 3512
-1978.37 308.018 3534
-1969.92 308.018 3534
-1961.47 308.018 3534
-1953.02 308.018 3534
-1944.57 308.018 3534
-1944.34 309.325 3549
-1940.21 310.022 3557
-1931.71 310.022 3557
-1927.53 310.72 3565
-1922.77 311.33 3572
-1914.23 311.33 3572
-1905.69 311.33 3572
-1897.15 311.33 3572
-1888.6 311.33 3572
-1884.27 312.027 3580
-1875.71 312.027 3580
-1879.15 314.032 3603
-1874.68 314.729 3611
-1882.07 317.431 3642
-1873.36 317.431 3642
-1872.84 318.825 3658
-1864.1 318.825 3658
-1868.03 321.004 3683
-1859.22 321.004 3683
-1862.47 323.096 3707
-1896.11 330.504 3792
-1895.5 331.986 3809
-1886.39 331.986 3809
-1877.29 331.986 3809
-1885.34 335.037 3844
-1898.11 338.959 3889
-1888.81 338.959 3889
-1919.63 346.193 3972
-1924.08 348.721 4001
-1947.05 354.647 4069
-1937.32 354.647 4069
-1937.06 356.39 4089
-1927.28 356.39 4089
-1917.5 356.39 4089
-1898.4 354.647 4069
-1888.66 354.647 4069
-1869.7 352.904 4049
-1860.02 352.904 4049
-1841.65 351.248 4030
-1832.01 351.248 4030
-1822.38 351.248 4030
-1812.74 351.248 4030
-1798.63 350.377 4020
-1789.02 350.377 4020
-1741.78 342.968 3935
-1732.37 342.968 3935
-1656.41 329.72 3783
-1618.18 323.88 3716
-1574.22 316.821 3635
-1531.93 310.022 3557
-1523.43 310.022 3557
-1505.13 308.018 3534
-1487.36 306.1 3512
-1457.48 301.655 3461
-1449.21 301.655 3461
-1411.79 295.554 3391
-1394.98 293.724 3370
-1373.34 290.847 3337
-1365.37 290.847 3337
-1362.67 291.98 3350
-1354.66 291.98 3350
-1346.65 291.98 3350
-1338.64 291.98 3350
-1330.63 291.98 3350
-1317.49 290.847 3337
-1298.91 288.494 3310
-1273.44 284.572 3265
-1265.64 284.572 3265
-1250.51 282.916 3246
-1237.77 281.783 3233
-1211.4 277.512 3184
-1203.78 277.512 3184
-1187.15 275.42 3160
-1177.36 274.897 3154
-1158.69 272.283 3124
-1151.22 272.283 3124
-1124.71 267.75 3072
-1111.18 266.269 3055
-1099.9 265.31 3044
-1090.83 264.874 3039
-1083.56 264.874 3039
-1076.29 264.874 3039
-1066.91 264.351 3033
-1059.66 264.351 3033
-1052.41 264.351 3033
-1045.15 264.351 3033
-1037.9 264.351 3033
-1028.95 263.915 3028
-1021.71 263.915 3028
-1012.46 263.393 3022
-989.265 259.209 2974
-959.696 253.282 2906
-952.747 253.282 2906
-945.798 253.282 2906
-935.618 252.411 2896
-922.279 250.667 2876
-915.402 250.667 2876
-904.102 249.447 2862
-887.853 246.832 2832
-878.281 246.048 2823
-878.939 248.14 2847
-876.726 249.447 2862
-869.882 249.447 2862
-870.276 251.539 2886
-870.853 253.718 2911
-863.892 253.718 2911
-860.169 254.677 2922
-853.182 254.677 2922
-846.195 254.677 2922
-839.207 254.677 2922
-832.22 254.677 2922
-825.232 254.677 2922
-818.245 254.677 2922
-811.258 254.677 2922
-801.243 253.718 2911
-792.917 253.282 2906
-785.968 253.282 2906
-781.968 254.241 2917
-774.992 254.241 2917
-769.333 254.677 2922
-762.346 254.677 2922
-755.359 254.677 2922
-747.091 254.241 2917
-740.115 254.241 2917
-731.632 253.718 2911
-724.671 253.718 2911
-716.477 253.282 2906
-708.307 252.846 2901
-697.743 251.539 2886
-690.842 251.539 2886
-682.756 251.103 2881
-675.866 251.103 2881
-668.977 251.103 2881
-662.088 251.103 2881
-655.198 251.103 2881
-648.309 251.103 2881
-641.42 251.103 2881
-634.53 251.103 2881
-627.641 251.103 2881
-620.752 251.103 2881
-613.862 251.103 2881
-606.973 251.103 2881
-600.084 251.103 2881
-592.165 250.667 2876
-584.27 250.232 2871
-575.594 249.447 2862
-568.75 249.447 2862
-734.361 356.39 4089
-724.583 356.39 4089
-714.805 356.39 4089
-705.027 356.39 4089
-686.748 352.033 4039
-677.089 352.033 4039
-667.431 352.033 4039
-651.584 348.721 4001
-637.363 346.193 3972
-624.861 344.537 3953
-615.408 344.537 3953
-605.956 344.537 3953
-596.503 344.537 3953
-584.377 342.968 3935
-576.282 343.753 3944
-566.851 343.753 3944
-560.105 345.409 3963
-553.268 347.065 3982
-543.746 347.065 3982
-534.224 347.065 3982
-524.701 347.065 3982
-516.344 347.849 3991
-506.8 347.849 3991
-498.502 348.721 4001
-488.935 348.721 4001
-479.367 348.721 4001
-469.799 348.721 4001
-460.232 348.721 4001
-449.538 347.849 3991
-436.907 345.409 3963
-429.48 347.065 3982
-419.958 347.065 3982
-410.435 347.065 3982
-400.913 347.065 3982
-384.904 341.312 3916
-375.54 341.312 3916
-361.126 336.606 3862
-345.513 330.504 3792
-341.058 335.037 3844
-331.866 335.037 3844
-322.674 335.037 3844
-183.816 196.455 2254
-178.426 196.455 2254
-173.036 196.455 2254
-167.2 195.932 2248
-161.824 195.932 2248
-156.448 195.932 2248
-151.073 195.932 2248
-145.308 195.409 2242
-139.76 195.148 2239
-133.865 194.363 2230
-128.533 194.363 2230
-123.2 194.363 2230
-117.709 194.102 2227
-112.383 194.102 2227
-107.058 194.102 2227
-101.458 193.579 2221
-96.0175 193.317 2218
-90.5091 192.881 2213
-85.2171 192.881 2213
-80.1058 193.317 2218
-74.8018 193.317 2218
-69.4979 193.317 2218
-64.1072 193.056 2215
-58.8105 193.056 2215
-53.5137 193.056 2215
-48.217 193.056 2215
-42.8815 192.881 2213
-37.5895 192.881 2213
-32.2976 192.881 2213
-26.8958 192.097 2204
-21.5959 191.836 2201
-16.3327 191.836 2201
-11.0392 191.313 2195
-5.78242 191.051 2192
-0.539202 190.528 2186
4.68819 190.528 2186
9.9065 190.354 2184
15.0875 189.831 2178
20.2678 189.569 2175
25.3987 189.046 2169
30.5854 189.046 2169
35.6402 188.349 2161
40.6945 187.826 2155
45.8052 187.652 2153
50.9537 187.652 2153
55.8155 186.693 2142
60.6817 185.909 2133
65.7206 185.734 2131
70.8165 185.734 2131
75.8055 185.473 2128
80.6661 184.95 2122
85.6596 184.776 2120
90.7292 184.776 2120
95.5276 184.253 2114
100.488 184.078 2112
105.538 184.078 2112
110.589 184.078 2112
115.31 183.555 2106
120.347 183.555 2106
125.383 183.555 2106
130.295 183.381 2104
135.326 183.381 2104
140.157 183.12 2101
145.181 183.12 2101
150.42 183.381 2104
155.451 183.381 2104
160.483 183.381 2104
165.671 183.555 2106
170.707 183.555 2106
175.994 183.817 2109
181.037 183.817 2109
186.345 184.078 2112
191.577 184.253 2114
196.911 184.514 2117
201.973 184.514 2117
207.036 184.514 2117
212.098 184.514 2117
217.161 184.514 2117
222.223 184.514 2117
227.822 184.95 2122
233.226 185.211 2125
238.307 185.211 2125
243.389 185.211 2125
248.47 185.211 2125
253.552 185.211 2125
258.633 185.211 2125
263.343 184.95 2122
439.291 267.315 3067
446.625 267.315 3067
453.959 267.315 3067
461.293 267.315 3067
460.071 262.434 3011
468.202 262.957 3017
475.417 262.957 3017
482.631 262.957 3017
489.846 262.957 3017
497.061 262.957 3017
502.437 261.998 3006
506.912 260.603 2990
512.171 259.645 2979
518.423 259.209 2974
525.535 259.209 2974
530.676 258.25 2963
537.762 258.25 2963
543.928 257.814 2958
551.001 257.814 2958
558.075 257.814 2958
563.047 256.856 2947
568.159 255.984 2937
575.183 255.984 2937
582.206 255.984 2937
590.232 256.42 2942
597.268 256.42 2942
604.303 256.42 2942
610.299 255.984 2937
617.322 255.984 2937
624.345 255.984 2937
631.369 255.984 2937
638.392 255.984 2937
644.316 255.548 2932
650.217 255.112 2927
657.216 255.112 2927
664.216 255.112 2927
670.068 254.677 2922
677.056 254.677 2922
684.043 254.677 2922
691.031 254.677 2922
698.018 254.677 2922
705.005 254.677 2922
711.993 254.677 2922
718.98 254.677 2922
725.968 254.677 2922
732.955 254.677 2922
739.942 254.677 2922
748.208 255.112 2927
755.207 255.112 2927
762.207 255.112 2927
767.892 254.677 2922
774.879 254.677 2922
781.867 254.677 2922
791.554 255.548 2932
798.565 255.548 2932
805.576 255.548 2932
812.588 255.548 2932
819.599 255.548 2932
825.201 255.112 2927
832.2 255.112 2927
839.199 255.112 2927
846.199 255.112 2927
853.198 255.112 2927
857.259 254.241 2917
864.234 254.241 2917
871.209 254.241 2917
876.378 253.718 2911
881.822 253.282 2906
888.771 253.282 2906
894.179 252.846 2901
899.563 252.411 2896
904.924 251.975 2891
913.414 252.411 2896
920.339 252.411 2896
927.264 252.411 2896
934.19 252.411 2896
941.115 252.411 2896
1322.97 330.504 3792
1332.03 330.504 3792
1341.1 330.504 3792
1343.76 328.936 3774
1352.79 328.936 3774
1358.92 328.238 3766
1367.93 328.238 3766
1376.94 328.238 3766
1382.63 327.454 3757
1391.61 327.454 3757
1400.6 327.454 3757
1403.2 325.972 3740
1396.67 322.399 3699
1402.47 321.701 3691
1411.3 321.701 3691
1413.97 320.307 3675
1413.08 318.128 3650
1421.81 318.128 3650
1430.53 318.128 3650
1436.11 317.431 3642
1438.87 316.123 3627
1437.96 314.032 3603
1424.9 309.325 3549
1433.38 309.325 3549
1426.84 306.1 3512
1423.38 303.573 3483
1414.04 299.825 3440
1422.26 299.825 3440
1415.94 296.774 3405
1401.08 291.98 3350
1383.85 286.751 3290
1370.14 282.306 3239
1380.87 282.916 3246
1388.63 282.916 3246
1418.33 287.361 3297
1434.87 289.104 3317
1457.15 291.98 3350
1465.16 291.98 3350
1481.97 293.724 3370
1490.03 293.724 3370
1498.09 293.724 3370
1506.14 293.724 3370
1487.24 288.494 3310
1471.67 283.962 3258
1479.46 283.962 3258
1478.58 282.306 3239
1486.32 282.306 3239
1482.54 280.127 3214
1456.84 273.852 3142
1464.35 273.852 3142
1431.11 266.269 3055
1428.06 264.351 3033
1427.74 262.957 3017
1434.95 262.957 3017
1426.39 260.081 2984
1413.35 256.42 2942
1405.42 253.718 2911
1405.1 252.411 2896
1412.03 252.411 2896
1414.05 251.539 2886
1420.96 251.539 2886
1427.86 251.539 2886
1434.76 251.539 2886
1441.66 251.539 2886
1446.05 251.103 2881
1443.36 249.447 2862
1450.2 249.447 2862
1457.05 249.447 2862
1463.89 249.447 2862
1468.17 249.011 2857
1475 249.011 2857
1476.64 248.14 2847
1483.45 248.14 2847
1490.26 248.14 2847
1497.07 248.14 2847
1503.87 248.14 2847
1510.68 248.14 2847
1514.83 247.704 2842
1518.94 247.268 2837
1525.73 247.268 2837
1529.81 246.832 2832
1536.58 246.832 2832
1543.36 246.832 2832
1550.13 246.832 2832
1554.7 246.484 2828
1561.46 246.484 2828
1570.44 246.832 2832
1577.22 246.832 2832
1583.99 246.832 2832
1590.76 246.832 2832
1597.53 246.832 2832
1604.31 246.832 2832
1611.08 246.832 2832
1617.85 246.832 2832
1622.33 246.484 2828
1629.09 246.484 2828
1635.85 246.484 2828
1642.62 246.484 2828
1649.38 246.484 2828
1656.14 246.484 2828
1662.9 246.484 2828
1669.67 246.484 2828
1676.43 246.484 2828
1683.19 246.484 2828
1689.95 246.484 2828
1696.72 246.484 2828
1703.48 246.484 2828
1710.24 246.484 2828
1717 246.484 2828
1723.77 246.484 2828
1727.47 246.048 2823
1731.15 245.612 2818
1737.89 245.612 2818
1744.63 245.612 2818
1745.77 244.828 2809
1752.49 244.828 2809
1759.21 244.828 2809
1765.92 244.828 2809
1766.33 243.956 2799
1773.02 243.956 2799
1776.54 243.52 2794
1783.22 243.52 2794
1789.9 243.52 2794
1794.01 243.172 2790
1797.45 242.736 2785
1800.87 242.3 2780
1807.52 242.3 2780
1814.17 242.3 2780
1818.2 241.952 2776
1821.55 241.516 2771
1828.18 241.516 2771
1834.8 241.516 2771
1841.43 241.516 2771
1845.39 241.167 2767
1852 241.167 2767
1858.62 241.167 2767
1865.24 241.167 2767
1871.85 241.167 2767
1878.47 241.167 2767
1881.68 240.731 2762
1888.29 240.731 2762
1894.89 240.731 2762
1901.5 240.731 2762
1908.1 240.731 2762
1914.7 240.731 2762
1921.31 240.731 2762
1927.91 240.731 2762
1934.52 240.731 2762
1941.12 240.731 2762
1947.73 240.731 2762
1954.33 240.731 2762
1960.94 240.731 2762
1967.54 240.731 2762
1974.15 240.731 2762
1977.17 240.296 2757
1983.76 240.296 2757
1987.46 239.947 2753
1990.43 239.511 2748
1994.09 239.163 2744
2000.65 239.163 2744
2010.14 239.511 2748
2016.71 239.511 2748
2026.96 239.947 2753
2033.55 239.947 2753
2040.13 239.947 2753
2046.71 239.947 2753
2039.87 238.378 2735
2042.67 237.942 2730
2049.2 237.942 2730
2039.16 236.025 2708
2038.84 235.24 2699
2068.78 237.942 2730
2075.31 237.942 2730
2081.84 237.942 2730
2088.37 237.942 2730
-2120.39 253.617 2832
-2113.62 253.617 2832
-2110.56 254.064 2837
-2103.78 254.064 2837
-2108.08 255.408 2852
-2101.26 255.408 2852
-2094.44 255.408 2852
-2087.62 255.408 2852
-2080.8 255.408 2852
-2073.98 255.408 2852
-2067.16 255.408 2852
-2056.73 254.96 2847
-2042.72 254.064 2837
-2039.53 254.512 2842
-2032.73 254.512 2842
-2025.93 254.512 2842
-2019.14 254.512 2842
-2012.34 254.512 2842
-2005.55 254.512 2842
-1998.75 254.512 2842
-1982.14 253.258 2828
-1995.64 255.855 2857
-1995.07 256.661 2866
-1988.21 256.661 2866
-1991.73 258.005 2881
-1984.84 258.005 2881
-1977.95 258.005 2881
-1971.06 258.005 2881
-1957.36 257.109 2871
-1950.49 257.109 2871
-1967.32 260.243 2906
-1960.37 260.243 2906
-1964.18 261.676 2922
-1960.54 262.124 2927
-1966.89 263.915 2947
-1959.84 263.915 2947
-1963.4 265.348 2963
-1963.57 266.333 2974
-1966.99 267.766 2990
-1959.84 267.766 2990
-1966.4 269.647 3011
-1959.2 269.647 3011
-1952 269.647 3011
-2078.9 311.289 3476
-2070.59 311.289 3476
-2062.28 311.289 3476
-2053.96 311.289 3476
-2053.89 312.543 3490
-2049.65 313.17 3497
-2045.95 313.886 3505
-2037.57 313.886 3505
-2029.19 313.886 3505
-2020.81 313.886 3505
-2021.04 315.23 3520
-2012.62 315.23 3520
-2004.21 315.23 3520
-1995.79 315.23 3520
-1987.37 315.23 3520
-1974.46 314.513 3512
-1978.37 316.483 3534
-1969.92 316.483 3534
-1961.47 316.483 3534
-1953.02 316.483 3534
-1944.57 316.483 3534
-1944.34 317.827 3549
-1940.21 318.543 3557
-1931.71 318.543 3557
-1927.53 319.259 3565
-1919 319.259 3565
-1914.23 319.886 3572
-1905.69 319.886 3572
-1897.15 319.886 3572
-1888.6 319.886 3572
-1884.27 320.603 3580
-1875.71 320.603 3580
-1879.15 322.663 3603
-1870.53 322.663 3603
-1882.07 326.155 3642
-1873.36 326.155 3642
-1872.84 327.588 3658
-1864.1 327.588 3658
-1868.03 329.827 3683
-1859.22 329.827 3683
-1862.47 331.976 3707
-1878.61 336.454 3757
-1882.56 338.782 3783
-1873.52 338.782 3783
-1877.29 341.111 3809
-1885.34 344.245 3844
-1893.72 347.469 3880
-1884.44 347.469 3880
-1915.28 354.902 3963
-1924.08 358.305 4001
-1947.05 364.395 4069
-1937.32 364.395 4069
-1932.32 365.29 4079
-1922.57 365.29 4079
-1912.81 365.29 4079
-1898.4 364.395 4069
-1884.02 363.499 4059
-1865.08 361.708 4039
-1855.42 361.708 4039
-1841.65 360.902 4030
-1832.01 360.902 4030
-1822.38 360.902 4030
-1812.74 360.902 4030
-1798.63 360.007 4020
-1789.02 360.007 4020
-1741.78 352.394 3935
-1732.37 352.394 3935
-1656.41 338.782 3783
-1618.18 332.782 3716
-1574.22 325.528 3635
-1531.93 318.543 3557
-1523.43 318.543 3557
-1505.13 316.483 3534
-1487.36 314.513 3512
-1457.48 309.946 3461
-1449.21 309.946 3461
-1411.79 303.677 3391
-1394.98 301.796 3370
-1373.34 298.841 3337
-1365.37 298.841 3337
-1362.67 300.005 3350
-1354.66 300.005 3350
-1346.65 300.005 3350
-1338.64 300.005 3350
-1330.63 300.005 3350
-1317.49 298.841 3337
-1298.91 296.423 3310
-1273.44 292.393 3265
-1265.64 292.393 3265
-1247.81 290.065 3239
-1237.77 289.528 3233
-1209.11 284.602 3178
-1201.51 284.602 3178
-1184.9 282.453 3154
-1175.12 281.916 3148
-1156.46 279.229 3118
-1149.01 279.229 3118
-1118.48 273.587 3055
-1107.18 272.602 3044
-1095.92 271.617 3033
-1086.88 271.169 3028
-1079.64 271.169 3028
-1072.4 271.169 3028
-1065.15 271.169 3028
-1057.91 271.169 3028
-1050.67 271.169 3028
-1043.43 271.169 3028
-1036.19 271.169 3028
-1028.95 271.169 3028
-1021.71 271.169 3028
-1010.78 270.184 3017
-989.265 266.333 2974
-954.743 258.9 2891
-947.829 258.9 2891
-940.916 258.9 2891
-929.157 257.557 2876
-917.79 256.303 2862
-910.946 256.303 2862
-894.625 253.617 2832
-883.464 252.363 2818
-875.169 251.915 2813
-864.121 250.661 2799
-876.726 256.303 2862
-869.882 256.303 2862
-865.753 257.109 2871
-870.853 260.691 2911
-863.892 260.691 2911
-860.169 261.676 2922
-853.182 261.676 2922
-846.195 261.676 2922
-839.207 261.676 2922
-832.22 261.676 2922
-825.232 261.676 2922
-818.245 261.676 2922
-811.258 261.676 2922
-801.243 260.691 2911
-792.917 260.243 2906
-785.968 260.243 2906
-781.968 261.229 2917
-774.992 261.229 2917
-769.333 261.676 2922
-762.346 261.676 2922
-755.359 261.676 2922
-747.091 261.229 2917
-740.115 261.229 2917
-730.375 260.243 2906
-723.426 260.243 2906
-716.477 260.243 2906
-708.307 259.796 2901
-695.326 257.557 2876
-688.448 257.557 2876
-681.571 257.557 2876
-674.693 257.557 2876
-667.816 257.557 2876
-660.939 257.557 2876
-652.924 257.109 2871
-644.934 256.661 2866
-639.193 257.109 2871
-632.328 257.109 2871
-625.462 257.109 2871
-618.597 257.109 2871
-611.732 257.109 2871
-604.866 257.109 2871
-598.001 257.109 2871
-591.135 257.109 2871
-583.252 256.661 2866
-575.594 256.303 2862
-568.75 256.303 2862
-734.361 366.186 4089
-724.583 366.186 4089
-714.805 366.186 4089
-705.027 366.186 4089
-680.287 358.305 4001
-670.719 358.305 4001
-661.152 358.305 4001
-648.49 356.603 3982
-635.919 354.902 3963
-619.013 350.693 3916
-614.007 353.2 3944
-604.576 353.2 3944
-595.145 353.2 3944
-584.377 352.394 3935
-574.967 352.394 3935
-565.557 352.394 3935
-560.105 354.902 3963
-553.268 356.603 3982
-543.746 356.603 3982
-534.224 356.603 3982
-524.701 356.603 3982
-516.344 357.409 3991
-506.8 357.409 3991
-498.502 358.305 4001
-488.935 358.305 4001
-479.367 358.305 4001
-469.799 358.305 4001
-460.232 358.305 4001
-449.538 357.409 3991
-436.907 354.902 3963
-429.48 356.603 3982
-419.958 356.603 3982
-410.435 356.603 3982
-400.913 356.603 3982
-384.904 350.693 3916
-375.54 350.693 3916
-361.126 345.857 3862
-345.513 339.588 3792
-341.058 344.245 3844
-331.866 344.245 3844
-322.674 344.245 3844
-183.816 201.854 2254
-178.426 201.854 2254
-173.036 201.854 2254
-167.2 201.317 2248
-161.824 201.317 2248
-156.448 201.317 2248
-151.073 201.317 2248
-145.308 200.78 2242
-139.385 199.974 2233
-133.865 199.705 2230
-128.533 199.705 2230
-123.2 199.705 2230
-117.55 199.168 2224
-112.232 199.168 2224
-106.77 198.899 2221
-101.458 198.899 2221
-96.0175 198.63 2218
-90.5091 198.183 2213
-85.2171 198.183 2213
-80.1058 198.63 2218
-74.8018 198.63 2218
-69.4979 198.63 2218
-64.1072 198.362 2215
-58.8105 198.362 2215
-53.5137 198.362 2215
-48.217 198.362 2215
-42.8815 198.183 2213
-37.5895 198.183 2213
-32.2976 198.183 2213
-26.8958 197.377 2204
-21.5959 197.108 2201
-16.3327 197.108 2201
-11.0392 196.571 2195
-5.78242 196.302 2192
-0.539202 195.765 2186
4.68819 195.765 2186
9.9065 195.586 2184
15.0875 195.048 2178
20.2678 194.78 2175
25.3987 194.242 2169
30.5854 194.242 2169
35.6402 193.526 2161
40.6945 192.989 2155
45.8052 192.809 2153
50.9537 192.809 2153
55.8155 191.824 2142
60.6817 191.018 2133
65.7206 190.839 2131
70.8165 190.839 2131
75.8055 190.571 2128
80.6661 190.033 2122
85.6596 189.854 2120
90.7292 189.854 2120
95.5276 189.317 2114
100.488 189.138 2112
105.538 189.138 2112
110.589 189.138 2112
115.31 188.6 2106
120.347 188.6 2106
125.383 188.6 2106
130.295 188.421 2104
135.326 188.421 2104
140.157 188.153 2101
145.181 188.153 2101
150.42 188.421 2104
155.451 188.421 2104
160.483 188.421 2104
165.671 188.6 2106
170.707 188.6 2106
175.994 188.869 2109
181.037 188.869 2109
186.345 189.138 2112
191.577 189.317 2114
196.911 189.586 2117
201.973 189.586 2117
207.036 189.586 2117
212.098 189.586 2117
217.161 189.586 2117
222.223 189.586 2117
227.822 190.033 2122
233.226 190.302 2125
238.307 190.302 2125
243.389 190.302 2125
248.47 190.302 2125
253.552 190.302 2125
258.633 190.302 2125
438.432 274.124 3061
445.751 274.124 3061
453.071 274.124 3061
459.489 273.587 3055
460.071 269.647 3011
468.202 270.184 3017
475.417 270.184 3017
482.631 270.184 3017
489.846 270.184 3017
497.061 270.184 3017
502.437 269.199 3006
506.912 267.766 2990
512.171 266.781 2979
518.423 266.333 2974
525.535 266.333 2974
530.676 265.348 2963
537.762 265.348 2963
543.928 264.9 2958
551.001 264.9 2958
558.075 264.9 2958
563.047 263.915 2947
568.159 263.02 2937
575.183 263.02 2937
582.206 263.02 2937
589.229 263.02 2937
596.252 263.02 2937
603.276 263.02 2937
610.299 263.02 2937
617.322 263.02 2937
624.345 263.02 2937
631.369 263.02 2937
637.305 262.572 2932
642.119 261.676 2922
649.106 261.676 2922
656.094 261.676 2922
663.081 261.676 2922
670.068 261.676 2922
677.056 261.676 2922
684.043 261.676 2922
691.031 261.676 2922
698.018 261.676 2922
705.005 261.676 2922
711.993 261.676 2922
718.98 261.676 2922
725.968 261.676 2922
734.209 262.124 2927
741.208 262.124 2927
748.208 262.124 2927
755.207 262.124 2927
762.207 262.124 2927
767.892 261.676 2922
774.879 261.676 2922
781.867 261.676 2922
791.554 262.572 2932
798.565 262.572 2932
805.576 262.572 2932
812.588 262.572 2932
819.599 262.572 2932
825.201 262.124 2927
832.2 262.124 2927
839.199 262.124 2927
846.199 262.124 2927
853.198 262.124 2927
857.259 261.229 2917
864.234 261.229 2917
871.209 261.229 2917
876.378 260.691 2911
881.822 260.243 2906
888.771 260.243 2906
894.179 259.796 2901
899.563 259.348 2896
908.054 259.796 2901
914.991 259.796 2901
921.928 259.796 2901
927.264 259.348 2896
934.19 259.348 2896
941.115 259.348 2896
1322.97 339.588 3792
1332.03 339.588 3792
1341.1 339.588 3792
1343.76 337.976 3774
1352.79 337.976 3774
1358.92 337.26 3766
1367.93 337.26 3766
1376.94 337.26 3766
1382.63 336.454 3757
1391.61 336.454 3757
1400.6 336.454 3757
1403.2 334.931 3740
1396.67 331.26 3699
1402.47 330.543 3691
1411.3 330.543 3691
1417.05 329.827 3683
1416.17 327.588 3658
1421.81 326.872 3650
1430.53 326.872 3650
1439.26 326.872 3650
1438.87 324.812 3627
1437.96 322.663 3603
1428.11 318.543 3557
1436.61 318.543 3557
1430.09 315.23 3520
1426.24 312.543 3490
1414.04 308.065 3440
1422.26 308.065 3440
1418.85 305.558 3412
1401.08 300.005 3350
1383.85 294.632 3290
1370.14 290.065 3239
1388.95 292.393 3265
1396.76 292.393 3265
1426.93 297.05 3317
1446.11 299.379 3343
1474.98 303.677 3391
1483.09 303.677 3391
1491.2 303.677 3391
1499.31 303.677 3391
1507.42 303.677 3391
1515.53 303.677 3391
1505.22 300.005 3350
1486.12 294.632 3290
1493.99 294.632 3290
1496.38 293.558 3278
1504.22 293.558 3278
1502.83 291.766 3258
1510.62 291.766 3258
1469.95 282.453 3154
1449.85 277.169 3095
1441.24 274.124 3061
1430.11 270.632 3022
1437.33 270.632 3022
1442.17 270.184 3017
1423.44 265.348 2963
1413.15 262.124 2927
1405.1 259.348 2896
1412.03 259.348 2896
1414.05 258.452 2886
1420.96 258.452 2886
1427.86 258.452 2886
1434.76 258.452 2886
1441.66 258.452 2886
1446.05 258.005 2881
1443.36 256.303 2862
1450.2 256.303 2862
1457.05 256.303 2862
1463.89 256.303 2862
1468.17 255.855 2857
1475 255.855 2857
1476.64 254.96 2847
1483.45 254.96 2847
1490.26 254.96 2847
1497.07 254.96 2847
1503.87 254.96 2847
1510.68 254.96 2847
1514.83 254.512 2842
1518.94 254.064 2837
1525.73 254.064 2837
1529.81 253.617 2832
1536.58 253.617 2832
1543.36 253.617 2832
1550.13 253.617 2832
1554.7 253.258 2828
1561.46 253.258 2828
1570.44 253.617 2832
1577.22 253.617 2832
1583.99 253.617 2832
1590.76 253.617 2832
1597.53 253.617 2832
1604.31 253.617 2832
1611.08 253.617 2832
1617.85 253.617 2832
1622.33 253.258 2828
1629.09 253.258 2828
1635.85 253.258 2828
1642.62 253.258 2828
1649.38 253.258 2828
1656.14 253.258 2828
1662.9 253.258 2828
1669.67 253.258 2828
1676.43 253.258 2828
1683.19 253.258 2828
1689.95 253.258 2828
1696.72 253.258 2828
1703.48 253.258 2828
1710.24 253.258 2828
1717 253.258 2828
1723.77 253.258 2828
1727.47 252.811 2823
1731.15 252.363 2818
1737.89 252.363 2818
1744.63 252.363 2818
1745.77 251.557 2809
1752.49 251.557 2809
1759.21 251.557 2809
1765.92 251.557 2809
1766.33 250.661 2799
1773.02 250.661 2799
1776.54 250.213 2794
1783.22 250.213 2794
1789.9 250.213 2794
1794.01 249.855 2790
1797.45 249.407 2785
1800.87 248.96 2780
1807.52 248.96 2780
1814.17 248.96 2780
1818.2 248.602 2776
1821.55 248.154 2771
1828.18 248.154 2771
1834.8 248.154 2771
1841.43 248.154 2771
1845.39 247.796 2767
1852 247.796 2767
1858.62 247.796 2767
1865.24 247.796 2767
1871.85 247.796 2767
1878.47 247.796 2767
1881.68 247.348 2762
1888.29 247.348 2762
1894.89 247.348 2762
1901.5 247.348 2762
1908.1 247.348 2762
1914.7 247.348 2762
1921.31 247.348 2762
1927.91 247.348 2762
1934.52 247.348 2762
1941.12 247.348 2762
1947.73 247.348 2762
1954.33 247.348 2762
1960.94 247.348 2762
1967.54 247.348 2762
1974.15 247.348 2762
1980.75 247.348 2762
1987.36 247.348 2762
1987.46 246.542 2753
1990.43 246.094 2748
1997 246.094 2748
2003.57 246.094 2748
2010.14 246.094 2748
2016.71 246.094 2748
2026.96 246.542 2753
2033.55 246.542 2753
2040.13 246.542 2753
2046.71 246.542 2753
2039.87 244.93 2735
2042.67 244.482 2730
2049.2 244.482 2730
2039.16 242.512 2708
2038.84 241.706 2699
2068.78 244.482 2730
2075.31 244.482 2730
2081.84 244.482 2730
2088.37 244.482 2730
-2117.39 260.033 2828
-2110.63 260.033 2828
-2106.84 260.401 2832
-2100.07 260.401 2832
-2104.39 261.78 2847
-2101.26 262.24 2852
-2094.44 262.24 2852
-2087.62 262.24 2852
-2080.8 262.24 2852
-2073.98 262.24 2852
-2067.16 262.24 2852
-2056.73 261.78 2847
-2042.72 260.86 2837
-2035.94 260.86 2837
-2032.73 261.32 2842
-2025.93 261.32 2842
-2019.14 261.32 2842
-2012.34 261.32 2842
-2005.55 261.32 2842
-1998.75 261.32 2842
-1982.14 260.033 2828
-1995.64 262.699 2857
-1995.07 263.527 2866
-1988.21 263.527 2866
-1991.73 264.906 2881
-1988.29 265.366 2886
-1981.39 265.366 2886
-1974.48 265.366 2886
-1967.58 265.366 2886
-1953.89 264.446 2876
-1978.15 268.676 2922
-1971.16 268.676 2922
-1970.9 269.596 2932
-1970.59 270.515 2942
-1974.23 271.986 2958
-1967.16 271.986 2958
-1970.68 273.457 2974
-1974.14 274.929 2990
-1980.8 276.86 3011
-1973.6 276.86 3011
-1970.32 277.411 3017
-1963.1 277.411 3017
-1955.89 277.411 3017
-1948.68 277.411 3017
-2096.24 322.283 3505
-2087.86 322.283 3505
-2079.48 322.283 3505
-2071.1 322.283 3505
-2058.01 321.547 3497
-2054.34 322.283 3505
-2045.95 322.283 3505
-2037.57 322.283 3505
-2029.19 322.283 3505
-2020.81 322.283 3505
-2025.06 324.305 3527
-2016.63 324.305 3527
-2008.19 324.305 3527
-1999.76 324.305 3527
-1991.32 324.305 3527
-1974.46 322.926 3512
-1978.37 324.949 3534
-1969.92 324.949 3534
-1961.47 324.949 3534
-1953.02 324.949 3534
-1944.57 324.949 3534
-1940.5 325.685 3542
-1940.21 327.064 3557
-1931.71 327.064 3557
-1923.2 327.064 3557
-1919 327.799 3565
-1914.23 328.443 3572
-1905.69 328.443 3572
-1897.15 328.443 3572
-1888.6 328.443 3572
-1884.27 329.179 3580
-1875.71 329.179 3580
-1879.15 331.294 3603
-1874.68 332.029 3611
-1878.45 334.236 3635
-1869.76 334.236 3635
-1868.75 335.615 3650
-1864.1 336.351 3658
-1863.97 337.914 3675
-1855.18 337.914 3675
-1850.41 338.65 3683
-1866.11 343.155 3732
-1865.64 344.718 3749
-1856.68 344.718 3749
-1864.47 347.844 3783
-1872.59 351.063 3818
-1880.54 354.281 3853
-1871.33 354.281 3853
-1896.91 360.901 3925
-1914.94 366.142 3982
-1932.69 371.383 4039
-1923.03 371.383 4039
-1922.85 373.222 4059
-1913.14 373.222 4059
-1903.44 373.222 4059
-1893.73 373.222 4059
-1879.38 372.303 4049
-1856.31 369.636 4020
-1846.69 369.636 4020
-1823.83 366.97 3991
-1818.83 367.889 4001
-1813.33 368.717 4010
-1803.74 368.717 4010
-1794.16 368.717 4010
-1763.65 364.395 3963
-1741.78 361.821 3935
-1732.37 361.821 3935
-1648.96 346.281 3766
-1607.3 339.385 3691
-1563.82 332.029 3611
-1535.38 327.799 3565
-1526.85 327.799 3565
-1508.53 325.685 3542
-1490.75 323.662 3520
-1463.8 319.616 3476
-1455.49 319.616 3476
-1423.44 314.375 3419
-1400.78 311.157 3384
-1375.81 307.387 3343
-1365.37 306.835 3337
-1362.67 308.03 3350
-1354.66 308.03 3350
-1346.65 308.03 3350
-1338.64 308.03 3350
-1330.63 308.03 3350
-1319.86 307.387 3343
-1301.66 304.996 3317
-1275.79 300.766 3271
-1267.96 300.766 3271
-1250.51 298.468 3246
-1235.47 296.721 3227
-1206.83 291.663 3172
-1199.25 291.663 3172
-1184.9 290.008 3154
-1175.12 289.457 3148
-1156.46 286.698 3118
-1149.01 286.698 3118
-1118.48 280.905 3055
-1105.36 279.434 3039
-1095.92 278.882 3033
-1086.88 278.423 3028
-1079.64 278.423 3028
-1072.4 278.423 3028
-1065.15 278.423 3028
-1057.91 278.423 3028
-1050.67 278.423 3028
-1043.43 278.423 3028
-1036.19 278.423 3028
-1021.47 276.4 3006
-1018 277.411 3017
-1010.78 277.411 3017
-1003.57 277.411 3017
-964.98 268.676 2922
-957.993 268.676 2922
-936.034 264.446 2876
-927.541 263.987 2871
-916.186 262.699 2857
-909.354 262.699 2857
-891.782 259.573 2823
-883.464 259.113 2818
-875.169 258.654 2813
-861.342 256.539 2790
-875.195 262.699 2857
-868.363 262.699 2857
-865.753 263.987 2871
-870.853 267.665 2911
-863.892 267.665 2911
-860.169 268.676 2922
-853.182 268.676 2922
-846.195 268.676 2922
-839.207 268.676 2922
-832.22 268.676 2922
-825.232 268.676 2922
-818.245 268.676 2922
-811.258 268.676 2922
-801.243 267.665 2911
-794.282 267.665 2911
-785.968 267.205 2906
-781.968 268.216 2917
-774.992 268.216 2917
-769.333 268.676 2922
-762.346 268.676 2922
-755.359 268.676 2922
-748.371 268.676 2922
-740.115 268.216 2917
-731.632 267.665 2911
-724.671 267.665 2911
-716.477 267.205 2906
-708.307 266.745 2901
-697.743 265.366 2886
-690.842 265.366 2886
-681.571 264.446 2876
-674.693 264.446 2876
-667.816 264.446 2876
-660.939 264.446 2876
-654.061 264.446 2876
-644.934 263.527 2866
-639.193 263.987 2871
-632.328 263.987 2871
-625.462 263.987 2871
-619.674 264.446 2876
-613.862 264.906 2881
-606.973 264.906 2881
-600.084 264.906 2881
-592.165 264.446 2876
-585.287 264.446 2876
-576.399 263.527 2866
-569.545 263.527 2866
-699.422 367.889 4001
-689.854 367.889 4001
-680.287 367.889 4001
-670.719 367.889 4001
-661.152 367.889 4001
-646.861 365.223 3972
-629.821 360.901 3925
-617.59 359.246 3907
-612.606 361.821 3935
-603.196 361.821 3935
-593.787 361.821 3935
-584.377 361.821 3935
-574.967 361.821 3935
-565.557 361.821 3935
-557.419 362.648 3944
-553.268 366.142 3982
-543.746 366.142 3982
-534.224 366.142 3982
-524.701 366.142 3982
-516.344 366.97 3991
-506.8 366.97 3991
-498.502 367.889 4001
-488.935 367.889 4001
-479.367 367.889 4001
-469.799 367.889 4001
-460.232 367.889 4001
-449.538 366.97 3991
-437.9 365.223 3972
-429.48 366.142 3982
-419.958 366.142 3982
-410.435 366.142 3982
-400.913 366.142 3982
-385.789 360.901 3925
-376.403 360.901 3925
-362.809 356.764 3880
-345.513 348.672 3792
-334.848 347.017 3774
-330.312 351.798 3826
-321.163 351.798 3826
-312.014 351.798 3826
-302.865 351.798 3826
-293.716 351.798 3826
-167.646 207.254 2254
-162.256 207.254 2254
-156.448 206.702 2248
-151.073 206.702 2248
-145.503 206.426 2245
-139.572 205.599 2236
-133.685 204.771 2227
-128.36 204.771 2227
-123.034 204.771 2227
-117.709 204.771 2227
-112.383 204.771 2227
-107.058 204.771 2227
-101.458 204.22 2221
-96.0175 203.944 2218
-90.5091 203.484 2213
-85.2171 203.484 2213
-80.1058 203.944 2218
-74.8018 203.944 2218
-69.4979 203.944 2218
-64.194 203.944 2218
-58.8901 203.944 2218
-53.5862 203.944 2218
-48.217 203.668 2215
-42.8815 203.484 2213
-37.5895 203.484 2213
-32.2976 203.484 2213
-26.9324 202.932 2207
-21.5959 202.381 2201
-16.3327 202.381 2201
-11.0543 202.105 2198
-5.79033 201.829 2195
-0.539942 201.277 2189
4.69462 201.277 2189
9.91558 201.001 2186
15.1083 200.542 2181
20.2958 200.266 2178
25.4338 199.714 2172
30.6277 199.714 2172
35.7392 199.254 2167
40.7512 198.427 2158
45.8478 198.151 2155
51.001 198.151 2155
55.8676 197.139 2144
60.767 196.404 2136
65.7823 196.128 2133
70.883 196.128 2133
75.8055 195.668 2128
80.7802 195.392 2125
85.6596 194.933 2120
90.7292 194.933 2120
95.6632 194.657 2117
100.583 194.381 2114
105.538 194.197 2112
110.589 194.197 2112
115.475 193.921 2109
120.347 193.645 2106
125.383 193.645 2106
130.419 193.645 2106
135.455 193.645 2106
140.357 193.461 2104
145.181 193.186 2101
150.42 193.461 2104
155.599 193.645 2106
160.635 193.645 2106
165.671 193.645 2106
170.951 193.921 2109
175.994 193.921 2109
181.037 193.921 2109
186.345 194.197 2112
191.577 194.381 2114
196.911 194.657 2117
201.973 194.657 2117
207.329 194.933 2120
212.399 194.933 2120
217.673 195.117 2122
222.748 195.117 2122
228.144 195.392 2125
233.555 195.668 2128
238.98 195.944 2131
244.076 195.944 2131
249.172 195.944 2131
253.552 195.392 2125
258.633 195.392 2125
436.856 280.446 3050
444.15 280.446 3050
451.443 280.446 3050
458.737 280.446 3050
460.071 276.86 3011
468.202 277.411 3017
475.417 277.411 3017
482.631 277.411 3017
489.846 277.411 3017
497.061 277.411 3017
502.437 276.4 3006
506.912 274.929 2990
512.171 273.917 2979
518.423 273.457 2974
525.535 273.457 2974
530.676 272.446 2963
537.762 272.446 2963
543.928 271.986 2958
551.001 271.986 2958
557.132 271.526 2953
563.047 270.975 2947
568.159 270.055 2937
575.183 270.055 2937
582.206 270.055 2937
588.226 269.596 2932
595.237 269.596 2932
602.249 269.596 2932
609.26 269.596 2932
616.271 269.596 2932
623.283 269.596 2932
630.294 269.596 2932
636.218 269.136 2927
642.119 268.676 2922
649.106 268.676 2922
656.094 268.676 2922
663.081 268.676 2922
670.068 268.676 2922
677.056 268.676 2922
684.043 268.676 2922
691.031 268.676 2922
698.018 268.676 2922
705.005 268.676 2922
711.993 268.676 2922
718.98 268.676 2922
725.968 268.676 2922
734.209 269.136 2927
741.208 269.136 2927
748.208 269.136 2927
755.207 269.136 2927
762.207 269.136 2927
767.892 268.676 2922
774.879 268.676 2922
781.867 268.676 2922
791.554 269.596 2932
798.565 269.596 2932
805.576 269.596 2932
812.588 269.596 2932
819.599 269.596 2932
825.201 269.136 2927
832.2 269.136 2927
839.199 269.136 2927
846.199 269.136 2927
851.741 268.676 2922
857.259 268.216 2917
864.234 268.216 2917
869.417 267.665 2911
876.378 267.665 2911
880.305 266.745 2901
887.242 266.745 2901
892.638 266.285 2896
899.563 266.285 2896
908.054 266.745 2901
914.991 266.745 2901
921.928 266.745 2901
927.264 266.285 2896
934.19 266.285 2896
941.115 266.285 2896
1299.24 342.419 3724
1316.93 344.718 3749
1325.89 344.718 3749
1334.86 344.718 3749
1343.82 344.718 3749
1352.79 344.718 3749
1361.75 344.718 3749
1370.72 344.718 3749
1379.68 344.718 3749
1385.32 343.891 3740
1394.26 343.891 3740
1400.2 343.155 3732
1396.67 340.121 3699
1402.47 339.385 3691
1411.3 339.385 3691
1417.05 338.65 3683
1416.17 336.351 3658
1421.81 335.615 3650
1430.53 335.615 3650
1439.26 335.615 3650
1438.87 333.5 3627
1437.96 331.294 3603
1428.11 327.064 3557
1436.61 327.064 3557
1430.09 323.662 3520
1426.24 320.903 3490
1414.04 316.306 3440
1422.26 316.306 3440
1418.85 313.731 3412
1401.08 308.03 3350
1383.85 302.513 3290
1370.14 297.824 3239
1388.95 300.215 3265
1396.76 300.215 3265
1426.93 304.996 3317
1446.11 307.387 3343
1474.98 311.8 3391
1483.09 311.8 3391
1491.2 311.8 3391
1499.31 311.8 3391
1507.42 311.8 3391
1515.53 311.8 3391
1505.22 308.03 3350
1486.12 302.513 3290
1493.99 302.513 3290
1496.38 301.41 3278
1504.22 301.41 3278
1502.83 299.571 3258
1510.62 299.571 3258
1469.95 290.008 3154
1449.85 284.583 3095
1441.24 281.457 3061
1430.11 277.871 3022
1437.33 277.871 3022
1442.17 277.411 3017
1423.44 272.446 2963
1413.15 269.136 2927
1405.1 266.285 2896
1412.03 266.285 2896
1414.05 265.366 2886
1420.96 265.366 2886
1427.86 265.366 2886
1434.76 265.366 2886
1441.66 265.366 2886
1443.54 264.446 2876
1443.36 263.159 2862
1450.2 263.159 2862
1457.05 263.159 2862
1463.89 263.159 2862
1468.17 262.699 2857
1475 262.699 2857
1476.64 261.78 2847
1483.45 261.78 2847
1490.26 261.78 2847
1497.07 261.78 2847
1503.87 261.78 2847
1508.03 261.32 2842
1514.83 261.32 2842
1518.94 260.86 2837
1525.73 260.86 2837
1529.81 260.401 2832
1536.58 260.401 2832
1543.36 260.401 2832
1550.13 260.401 2832
1554.7 260.033 2828
1558.7 259.573 2823
1568.23 260.033 2828
1577.22 260.401 2832
1583.99 260.401 2832
1590.76 260.401 2832
1597.53 260.401 2832
1604.31 260.401 2832
1611.08 260.401 2832
1617.85 260.401 2832
1622.33 260.033 2828
1629.09 260.033 2828
1635.85 260.033 2828
1642.62 260.033 2828
1646.46 259.573 2823
1656.14 260.033 2828
1662.9 260.033 2828
1669.67 260.033 2828
1676.43 260.033 2828
1683.19 260.033 2828
1689.95 260.033 2828
1696.72 260.033 2828
1703.48 260.033 2828
1710.24 260.033 2828
1717 260.033 2828
1723.77 260.033 2828
1727.47 259.573 2823
1731.15 259.113 2818
1737.89 259.113 2818
1744.63 259.113 2818
1745.77 258.286 2809
1752.49 258.286 2809
1756.07 257.826 2804
1762.78 257.826 2804
1766.33 257.366 2799
1769.86 256.907 2794
1776.54 256.907 2794
1783.22 256.907 2794
1787.34 256.539 2790
1790.79 256.079 2785
1794.23 255.619 2780
1800.87 255.619 2780
1807.52 255.619 2780
1811.56 255.251 2776
1818.2 255.251 2776
1818.92 254.424 2767
1825.54 254.424 2767
1832.15 254.424 2767
1838.77 254.424 2767
1845.39 254.424 2767
1852 254.424 2767
1858.62 254.424 2767
1861.87 253.964 2762
1868.47 253.964 2762
1875.08 253.964 2762
1881.68 253.964 2762
1888.29 253.964 2762
1894.89 253.964 2762
1901.5 253.964 2762
1908.1 253.964 2762
1914.7 253.964 2762
1921.31 253.964 2762
1927.91 253.964 2762
1934.52 253.964 2762
1941.12 253.964 2762
1947.73 253.964 2762
1954.33 253.964 2762
1960.94 253.964 2762
1967.54 253.964 2762
1974.15 253.964 2762
1980.75 253.964 2762
1987.36 253.964 2762
1987.46 253.137 2753
1990.43 252.677 2748
1997 252.677 2748
2003.57 252.677 2748
2010.14 252.677 2748
2016.71 252.677 2748
2026.96 253.137 2753
2033.55 253.137 2753
2040.13 253.137 2753
2046.71 253.137 2753
2039.87 251.482 2735
2042.67 251.022 2730
2049.2 251.022 2730
2039.16 248.999 2708
2035.82 247.804 2695
2061.96 250.194 2721
2068.47 250.194 2721
2074.98 250.194 2721
2081.48 250.194 2721
-2117.39 266.807 2828
-2110.63 266.807 2828
-2106.84 267.185 2832
-2100.07 267.185 2832
-2104.39 268.6 2847
-2101.26 269.072 2852
-2094.44 269.072 2852
-2087.62 269.072 2852
-2080.8 269.072 2852
-2073.98 269.072 2852
-2067.16 269.072 2852
-2056.73 268.6 2847
-2042.72 267.656 2837
-2035.94 267.656 2837
-2032.73 268.128 2842
-2025.93 268.128 2842
-2019.14 268.128 2842
-2012.34 268.128 2842
-2005.55 268.128 2842
-1998.75 268.128 2842
-1982.14 266.807 2828
-1995.64 269.543 2857
-1995.07 270.392 2866
-1988.21 270.392 2866
-1988.27 271.336 2876
-1988.29 272.279 2886
-1981.39 272.279 2886
-1974.48 272.279 2886
-1967.58 272.279 2886
-1953.89 271.336 2876
-1978.15 275.676 2922
-1971.16 275.676 2922
-1970.9 276.619 2932
-1970.59 277.563 2942
-1974.23 279.072 2958
-1967.16 279.072 2958
-1970.68 280.582 2974
-1980.74 283.035 3000
-1980.8 284.072 3011
-1973.6 284.072 3011
-1980.77 286.148 3033
-1980.67 287.186 3044
-1980.53 288.224 3055
-1973.22 288.224 3055
-1965.91 288.224 3055
-2126.27 332.754 3527
-2117.84 332.754 3527
-2109.4 332.754 3527
-2096.8 332.094 3520
-2088.38 332.094 3520
-2071.1 330.679 3505
-2058.01 329.924 3497
-2054.34 330.679 3505
-2045.95 330.679 3505
-2037.57 330.679 3505
-2029.19 330.679 3505
-2020.81 330.679 3505
-2025.06 332.754 3527
-2016.63 332.754 3527
-2008.19 332.754 3527
-1999.76 332.754 3527
-1991.32 332.754 3527
-1974.46 331.339 3512
-1978.37 333.415 3534
-1969.92 333.415 3534
-1961.47 333.415 3534
-1953.02 333.415 3534
-1944.57 333.415 3534
-1940.5 334.17 3542
-1935.85 334.83 3549
-1927.36 334.83 3549
-1923.2 335.585 3557
-1919 336.339 3565
-1910.48 336.339 3565
-1901.95 336.339 3565
-1897.15 337 3572
-1888.6 337 3572
-1884.27 337.755 3580
-1875.71 337.755 3580
-1879.15 339.925 3603
-1874.68 340.679 3611
-1878.45 342.944 3635
-1869.76 342.944 3635
-1868.75 344.359 3650
-1864.1 345.114 3658
-1863.97 346.717 3675
-1855.18 346.717 3675
-1850.41 347.472 3683
-1866.11 352.095 3732
-1865.64 353.699 3749
-1856.68 353.699 3749
-1851.66 354.454 3757
-1872.59 360.209 3818
-1884.94 364.36 3862
-1875.7 364.36 3862
-1888.21 368.605 3907
-1896.66 372.096 3944
-1914.51 377.474 4001
-1904.94 377.474 4001
-1913.37 381.059 4039
-1903.72 381.059 4039
-1894.06 381.059 4039
-1884.4 381.059 4039
-1870.56 380.21 4030
-1842.92 376.53 3991
-1833.37 376.53 3991
-1815.15 374.738 3972
-1801.56 373.889 3963
-1800.67 375.681 3982
-1791.15 375.681 3982
-1781.63 375.681 3982
-1763.65 373.889 3963
-1737.35 370.304 3925
-1727.97 370.304 3925
-1667.79 359.36 3809
-1614.26 349.736 3707
-1570.75 342.189 3627
-1541.84 337.755 3580
-1533.28 337.755 3580
-1518.33 336.339 3565
-1496.67 333.415 3534
-1469.69 329.264 3490
-1461.35 329.264 3490
-1429.27 323.886 3433
-1406.58 320.584 3398
-1378.7 316.055 3350
-1370.68 316.055 3350
-1365.52 316.716 3357
-1357.49 316.716 3357
-1349.47 316.716 3357
-1341.44 316.716 3357
-1333.41 316.716 3357
-1319.86 315.395 3343
-1301.66 312.942 3317
-1278.52 309.262 3278
-1270.68 309.262 3278
-1250.51 306.243 3246
-1233.18 303.885 3221
-1206.83 299.262 3172
-1199.25 299.262 3172
-1184.9 297.564 3154
-1175.12 296.998 3148
-1156.46 294.167 3118
-1149.01 294.167 3118
-1118.48 288.224 3055
-1103.18 286.148 3033
-1095.92 286.148 3033
-1086.88 285.676 3028
-1079.64 285.676 3028
-1070.27 285.11 3022
-1063.04 285.11 3022
-1055.82 285.11 3022
-1048.59 285.11 3022
-1041.36 285.11 3022
-1030.37 284.072 3011
-1019.44 283.035 3000
-1018 284.638 3017
-1010.78 284.638 3017
-1003.57 284.638 3017
-964.98 275.676 2922
-957.993 275.676 2922
-936.034 271.336 2876
-927.541 270.864 2871
-914.583 269.072 2852
-907.763 269.072 2852
-890.202 265.864 2818
-881.896 265.392 2813
-870.814 264.071 2799
-857.02 261.901 2776
-870.6 268.128 2842
-863.804 268.128 2842
-864.245 270.392 2866
-867.862 273.694 2901
-860.925 273.694 2901
-858.698 275.204 2917
-853.182 275.676 2922
-846.195 275.676 2922
-839.207 275.676 2922
-832.22 275.676 2922
-825.232 275.676 2922
-816.845 275.204 2917
-809.87 275.204 2917
-801.243 274.638 2911
-794.282 274.638 2911
-785.968 274.166 2906
-781.968 275.204 2917
-774.992 275.204 2917
-769.333 275.676 2922
-762.346 275.676 2922
-755.359 275.676 2922
-748.371 275.676 2922
-740.115 275.204 2917
-731.632 274.638 2911
-724.671 274.638 2911
-716.477 274.166 2906
-708.307 273.694 2901
-697.743 272.279 2886
-690.842 272.279 2886
-681.571 271.336 2876
-674.693 271.336 2876
-667.816 271.336 2876
-660.939 271.336 2876
-654.061 271.336 2876
-644.934 270.392 2866
-639.193 270.864 2871
-634.53 271.808 2881
-627.641 271.808 2881
-620.752 271.808 2881
-613.862 271.808 2881
-606.973 271.808 2881
-600.084 271.808 2881
-593.194 271.808 2881
-586.305 271.808 2881
-584.443 274.166 2906
-577.494 274.166 2906
-570.545 274.166 2906
-638.8 354.454 3757
-637.024 358.511 3800
-633.721 361.813 3835
-624.55 361.813 3835
-615.379 361.813 3835
-609.054 363.511 3853
-599.84 363.511 3853
-590.627 363.511 3853
-581.413 363.511 3853
-572.199 363.511 3853
-564.301 364.36 3862
-555.065 364.36 3862
-553.462 369.455 3916
-545.348 370.304 3925
-535.962 370.304 3925
-526.577 370.304 3925
-520.88 372.945 3953
-513.886 374.738 3972
-505.657 375.681 3982
-498.502 377.474 4001
-488.935 377.474 4001
-479.367 377.474 4001
-469.799 377.474 4001
-460.232 377.474 4001
-449.538 376.53 3991
-437.9 374.738 3972
-428.401 374.738 3972
-418.903 374.738 3972
-409.405 374.738 3972
-399.906 374.738 3972
-385.789 370.304 3925
-376.403 370.304 3925
-362.809 366.058 3880
-346.241 358.511 3800
-334.848 356.058 3774
-330.312 360.963 3826
-321.163 360.963 3826
-312.014 360.963 3826
-302.865 360.963 3826
-293.716 360.963 3826
-169.282 214.729 2276
-162.256 212.653 2254
-156.866 212.653 2254
-151.476 212.653 2254
-145.697 212.087 2248
-139.572 210.955 2236
-133.865 210.389 2230
-128.533 210.389 2230
-123.2 210.389 2230
-117.867 210.389 2230
-112.535 210.389 2230
-107.202 210.389 2230
-101.733 210.106 2227
-96.1474 209.54 2221
-90.7136 209.257 2218
-85.4097 209.257 2218
-80.1058 209.257 2218
-74.8018 209.257 2218
-69.4979 209.257 2218
-64.194 209.257 2218
-58.8901 209.257 2218
-53.5862 209.257 2218
-48.217 208.974 2215
-42.8815 208.785 2213
-37.5895 208.785 2213
-32.2976 208.785 2213
-26.9324 208.219 2207
-21.5959 207.653 2201
-16.3327 207.653 2201
-11.0543 207.37 2198
-5.79033 207.087 2195
-0.540682 206.804 2192
4.70105 206.804 2192
9.91558 206.238 2186
15.1291 206.049 2184
20.3238 205.766 2181
25.4338 204.917 2172
30.6277 204.917 2172
35.7392 204.445 2167
40.8078 203.879 2161
45.9116 203.596 2158
51.072 203.596 2158
55.9458 202.558 2147
60.9377 202.087 2142
65.8748 201.521 2136
70.9827 201.521 2136
75.9124 201.049 2131
80.8942 200.766 2128
85.7405 200.2 2122
90.8148 200.2 2122
95.7988 200.011 2120
100.726 199.728 2117
105.638 199.445 2114
110.693 199.445 2114
115.639 199.256 2112
120.518 198.973 2109
125.561 198.973 2109
130.605 198.973 2109
135.648 198.973 2109
140.491 198.69 2106
145.389 198.502 2104
150.563 198.69 2106
155.821 198.973 2109
160.864 198.973 2109
165.907 198.973 2109
170.951 198.973 2109
176.244 199.256 2112
181.295 199.256 2112
186.521 199.445 2114
192.12 200.011 2120
197.19 200.011 2120
202.26 200.011 2120
207.329 200.011 2120
212.399 200.011 2120
217.673 200.2 2122
222.748 200.2 2122
