1400.6 -779.537 3757
1406.58 -777.877 3749
1412.15 -776.01 3740
1415.01 -772.69 3724
1423.92 -772.69 3724
1429.74 -771.03 3716
1432.05 -767.503 3699
1437.78 -765.843 3691
1446.6 -765.843 3691
1452.27 -764.183 3683
1461.08 -764.183 3683
1469.89 -764.183 3683
1475.48 -762.523 3675
1484.27 -762.523 3675
1493.06 -762.523 3675
1508.39 -765.843 3691
1523.79 -769.163 3707
1536.38 -771.03 3716
1545.26 -771.03 3716
1554.15 -771.03 3716
1555.88 -767.503 3699
1564.73 -767.503 3699
-2910.34 -834.526 4069
-2900.61 -834.526 4069
-2890.88 -834.526 4069
-2874.07 -832.475 4059
-2864.36 -832.475 4059
-2847.62 -830.424 4049
-2837.94 -830.424 4049
-2828.26 -830.424 4049
-2811.61 -828.374 4039
-2795.71 -826.528 4030
-2786.07 -826.528 4030
-2743.37 -816.683 3982
-2720.8 -812.786 3963
-2743.48 -822.426 4010
-2740.71 -824.477 4020
-2731.09 -824.477 4020
-2721.48 -824.477 4020
-2711.87 -824.477 4020
-2702.26 -824.477 4020
-2692.64 -824.477 4020
-2670.35 -820.58 4001
-2673.42 -824.477 4020
-2689.65 -832.475 4059
-2679.94 -832.475 4059
-2676.81 -834.526 4069
-2667.08 -834.526 4069
-2657.35 -834.526 4069
-1377 -792.072 3862
-1377.33 -797.609 3889
-1368.03 -797.609 3889
-1358.73 -797.609 3889
-1340.06 -792.072 3862
-1324.62 -788.38 3844
-1315.43 -788.38 3844
-1306.24 -788.38 3844
-1297.04 -788.38 3844
-1287.85 -788.38 3844
-1278.66 -788.38 3844
-1269.47 -788.38 3844
-1257.32 -786.534 3835
-1251.08 -788.38 3844
-1250.61 -793.918 3871
-1247.13 -797.609 3889
-1237.83 -797.609 3889
-1237.06 -803.147 3916
-1233.65 -807.044 3935
-1232.95 -812.786 3963
-1223.48 -812.786 3963
-1214 -812.786 3963
-175.576 -454.898 2218
-170.272 -454.898 2218
-164.968 -454.898 2218
-159.664 -454.898 2218
-154.36 -454.898 2218
-149.057 -454.898 2218
-143.753 -454.898 2218
-138.449 -454.898 2218
-132.965 -454.283 2215
-127.668 -454.283 2215
-122.371 -454.283 2215
-117.075 -454.283 2215
-111.778 -454.283 2215
-106.481 -454.283 2215
-101.184 -454.283 2215
-95.4114 -452.027 2204
-89.8956 -450.796 2198
-84.1004 -447.925 2184
-78.8778 -447.925 2184
-73.1493 -444.848 2169
-67.8059 -443.823 2164
-62.5443 -443.208 2161
-57.3767 -443.208 2161
-52.0158 -441.567 2153
-46.6714 -439.721 2144
-41.4476 -438.695 2139
-36.3326 -438.695 2139
-31.0133 -435.824 2125
-25.7365 -432.543 2109
-20.6932 -432.543 2109
-15.6129 -431.517 2104
-10.5816 -431.517 2104
-5.54236 -430.902 2101
-0.516263 -429.261 2093
4.48445 -428.851 2091
9.48466 -428.851 2091
14.4849 -428.851 2091
19.4571 -428.236 2088
24.415 -427.62 2085
29.4009 -427.62 2085
34.3538 -427.21 2083
39.3349 -427.21 2083
44.2521 -426.595 2080
49.226 -426.595 2080
54.2 -426.595 2080
59.2592 -427.21 2083
64.2403 -427.21 2083
69.2214 -427.21 2083
74.2025 -427.21 2083
79.1836 -427.21 2083
84.3667 -428.236 2088
89.3597 -428.236 2088
94.3527 -428.236 2088
99.203 -427.62 2085
104.189 -427.62 2085
109.07 -427.21 2083
114.051 -427.21 2083
118.861 -426.595 2080
123.537 -425.569 2075
128.313 -424.954 2072
133.268 -424.954 2072
137.889 -423.929 2067
142.487 -422.903 2062
147.06 -421.878 2057
151.979 -421.878 2057
156.745 -421.468 2055
161.03 -419.827 2047
165.682 -419.212 2044
170.57 -419.212 2044
175.286 -418.801 2042
179.463 -417.161 2034
184.146 -416.75 2032
188.819 -416.34 2030
193.673 -416.34 2030
198.234 -415.725 2027
202.881 -415.315 2025
207.723 -415.315 2025
212.566 -415.315 2025
217.408 -415.315 2025
222.25 -415.315 2025
227.093 -415.315 2025
231.935 -415.315 2025
236.778 -415.315 2025
241.023 -414.289 2020
245.854 -414.289 2020
250.932 -414.7 2022
255.768 -414.7 2022
260.603 -414.7 2022
265.438 -414.7 2022
270.942 -415.725 2027
275.789 -415.725 2027
281.051 -416.34 2030
285.906 -416.34 2030
290.76 -416.34 2030
295.614 -416.34 2030
630.475 -820.58 4001
640.043 -820.58 4001
649.61 -820.58 4001
652.917 -812.786 3963
660.722 -810.736 3953
668.649 -808.89 3944
678.081 -808.89 3944
687.512 -808.89 3944
688.815 -799.455 3898
693.3 -793.918 3871
702.557 -793.918 3871
711.814 -793.918 3871
716.041 -788.38 3844
716.932 -779.356 3800
726.019 -779.356 3800
735.106 -779.356 3800
744.193 -779.356 3800
753.28 -779.356 3800
757.15 -774.024 3774
766.175 -774.024 3774
771.708 -770.537 3757
779.03 -768.896 3749
779.167 -760.282 3707
788.031 -760.282 3707
796.896 -760.282 3707
805.761 -760.282 3707
814.625 -760.282 3707
823.49 -760.282 3707
828.762 -757.001 3691
841.219 -760.282 3707
857.651 -767.051 3740
866.594 -767.051 3740
875.538 -767.051 3740
884.481 -767.051 3740
895.575 -768.896 3749
904.54 -768.896 3749
915.454 -770.537 3757
924.438 -770.537 3757
933.422 -770.537 3757
948.928 -775.87 3783
960.254 -777.715 3792
969.322 -777.715 3792
980.453 -779.356 3800
998.655 -786.534 3835
1019.65 -795.764 3880
1028.93 -795.764 3880
1038.21 -795.764 3880
1062.33 -807.044 3935
1071.74 -807.044 3935
1081.15 -807.044 3935
1072.83 -793.918 3871
1170.45 -755.36 3683
1186.94 -760.282 3707
1195.8 -760.282 3707
1204.67 -760.282 3707
1224.33 -767.051 3740
1236.24 -768.896 3749
1250.86 -772.383 3766
1259.86 -772.383 3766
1268.87 -772.383 3766
1272.1 -768.896 3749
1281.07 -768.896 3749
1290.03 -768.896 3749
1299 -768.896 3749
1307.96 -768.896 3749
1316.93 -768.896 3749
1325.89 -768.896 3749
1328.81 -765.41 3732
1325.9 -758.642 3699
1340.88 -762.128 3716
1361.75 -768.896 3749
1370.72 -768.896 3749
1379.68 -768.896 3749
1388.65 -768.896 3749
1397.61 -768.896 3749
1406.58 -768.896 3749
1412.15 -767.051 3740
1415.01 -763.769 3724
1423.92 -763.769 3724
1429.74 -762.128 3716
1428.95 -757.001 3691
1437.78 -757.001 3691
1446.6 -757.001 3691
1455.43 -757.001 3691
1464.26 -757.001 3691
1469.89 -755.36 3683
1475.48 -753.719 3675
1487.5 -755.36 3683
1496.31 -755.36 3683
1514.93 -760.282 3707
1530.78 -763.769 3724
1539.68 -763.769 3724
1548.59 -763.769 3724
1557.49 -763.769 3724
1566.4 -763.769 3724
1575.3 -763.769 3724
2701.05 -726.442 3542
2709.52 -726.442 3542
-2910.34 -824.779 4069
-2900.61 -824.779 4069
-2890.88 -824.779 4069
-2874.07 -822.752 4059
-2857.3 -820.725 4049
-2847.62 -820.725 4049
-2837.94 -820.725 4049
-2828.26 -820.725 4049
-2811.61 -818.698 4039
-2795.71 -816.874 4030
-2786.07 -816.874 4030
-2743.37 -807.144 3982
-2726.98 -805.117 3972
-2750.32 -814.847 4020
-2753.66 -818.698 4039
-2744 -818.698 4039
-2741.11 -820.725 4049
-2731.43 -820.725 4049
-2721.75 -820.725 4049
-2712.07 -820.725 4049
-2702.38 -820.725 4049
-2699.35 -822.752 4059
-2689.65 -822.752 4059
-2679.94 -822.752 4059
-2676.81 -824.779 4069
-2667.08 -824.779 4069
-2657.35 -824.779 4069
-1377 -782.821 3862
-1367.76 -782.821 3862
-1358.53 -782.821 3862
-1349.29 -782.821 3862
-1340.06 -782.821 3862
-1312.56 -772.078 3809
-1303.45 -772.078 3809
-1294.34 -772.078 3809
-1285.23 -772.078 3809
-1276.13 -772.078 3809
-1267.02 -772.078 3809
-1260.88 -773.902 3818
-1251.75 -773.902 3818
-1251.08 -779.172 3844
-1250.61 -784.645 3871
-1247.13 -788.293 3889
-1237.83 -788.293 3889
-1237.06 -793.766 3916
-1233.65 -797.617 3935
-1232.95 -803.293 3963
-1223.48 -803.293 3963
-1214 -803.293 3963
-175.576 -449.585 2218
-170.272 -449.585 2218
-164.968 -449.585 2218
-159.88 -450.193 2221
-154.569 -450.193 2221
-149.258 -450.193 2221
-143.947 -450.193 2221
-138.636 -450.193 2221
-132.965 -448.977 2215
-127.668 -448.977 2215
-122.371 -448.977 2215
-117.075 -448.977 2215
-111.778 -448.977 2215
-106.481 -448.977 2215
-101.184 -448.977 2215
-95.4114 -446.747 2204
-89.8956 -445.531 2198
-84.1004 -442.693 2184
-78.8778 -442.693 2184
-73.1493 -439.652 2169
-67.8059 -438.639 2164
-62.5443 -438.031 2161
-57.3767 -438.031 2161
-52.0158 -436.409 2153
-46.6714 -434.585 2144
-41.4476 -433.572 2139
-36.3326 -433.572 2139
-31.0133 -430.734 2125
-25.7731 -428.099 2112
-20.6932 -427.491 2109
-15.6129 -426.477 2104
-10.5816 -426.477 2104
-5.54236 -425.869 2101
-0.516263 -424.247 2093
4.48873 -424.247 2093
9.49373 -424.247 2093
14.4849 -423.842 2091
19.4851 -423.842 2091
24.415 -422.626 2085
29.4009 -422.626 2085
34.3868 -422.626 2085
39.3349 -422.22 2083
44.316 -422.22 2083
49.297 -422.22 2083
54.2781 -422.22 2083
59.2592 -422.22 2083
64.2403 -422.22 2083
69.2878 -422.626 2085
74.2737 -422.626 2085
79.2596 -422.626 2085
84.3667 -423.234 2088
89.3597 -423.234 2088
94.3527 -423.234 2088
99.3458 -423.234 2088
104.339 -423.234 2088
109.175 -422.626 2085
114.161 -422.626 2085
119.032 -422.22 2083
123.537 -420.599 2075
128.499 -420.599 2075
133.461 -420.599 2075
138.089 -419.585 2070
142.694 -418.572 2065
147.417 -417.964 2062
152.348 -417.964 2062
156.898 -416.95 2057
161.659 -416.545 2055
165.925 -414.923 2047
170.82 -414.923 2047
175.457 -414.315 2044
179.728 -412.896 2037
184.327 -412.288 2034
189.191 -412.288 2034
193.864 -411.883 2032
198.234 -410.869 2027
202.58 -409.856 2022
207.723 -410.464 2025
212.566 -410.464 2025
217.408 -410.464 2025
222.25 -410.464 2025
227.093 -410.464 2025
231.935 -410.464 2025
236.427 -409.856 2022
241.023 -409.45 2020
245.854 -409.45 2020
250.684 -409.45 2020
255.515 -409.45 2020
260.345 -409.45 2020
265.438 -409.856 2022
270.942 -410.869 2027
275.789 -410.869 2027
281.051 -411.477 2030
285.906 -411.477 2030
290.76 -411.477 2030
295.614 -411.477 2030
631.893 -812.82 4010
641.482 -812.82 4010
651.071 -812.82 4010
659.178 -810.996 4001
663.898 -805.117 3972
668.649 -799.442 3944
678.081 -799.442 3944
682.631 -793.766 3916
687.224 -788.293 3889
694.912 -786.469 3880
704.19 -786.469 3880
711.814 -784.645 3871
721.07 -784.645 3871
715.423 -768.632 3792
726.019 -770.253 3800
735.106 -770.253 3800
744.193 -770.253 3800
751.694 -768.632 3792
758.956 -766.807 3783
768.002 -766.807 3783
771.708 -761.537 3757
779.03 -759.916 3749
779.167 -751.402 3707
789.945 -753.227 3716
798.831 -753.227 3716
807.717 -753.227 3716
816.603 -753.227 3716
825.489 -753.227 3716
828.762 -748.159 3691
841.219 -751.402 3707
857.651 -758.091 3740
866.594 -758.091 3740
875.538 -758.091 3740
884.481 -758.091 3740
895.575 -759.916 3749
904.54 -759.916 3749
915.454 -761.537 3757
924.438 -761.537 3757
933.422 -761.537 3757
948.928 -766.807 3783
960.254 -768.632 3792
969.322 -768.632 3792
982.776 -772.078 3809
998.655 -777.348 3835
1022.02 -788.293 3889
1031.32 -788.293 3889
1040.62 -788.293 3889
1062.33 -797.617 3935
1071.74 -797.617 3935
1081.15 -797.617 3935
1072.83 -784.645 3871
1181.81 -748.159 3691
1190.64 -748.159 3691
1199.47 -748.159 3691
1219.1 -754.848 3724
1233.28 -758.091 3740
1245.21 -759.916 3749
1254.17 -759.916 3749
1263.14 -759.916 3749
1266.34 -756.47 3732
1281.07 -759.916 3749
1290.03 -759.916 3749
1299 -759.916 3749
1304.82 -758.091 3740
1313.77 -758.091 3740
1322.71 -758.091 3740
1325.96 -754.848 3724
1323.03 -748.159 3691
1340.88 -753.227 3716
1358.49 -758.091 3740
1367.43 -758.091 3740
1379.68 -759.916 3749
1388.65 -759.916 3749
1397.61 -759.916 3749
1403.2 -758.091 3740
1412.15 -758.091 3740
1415.01 -754.848 3724
1423.92 -754.848 3724
1429.74 -753.227 3716
1428.95 -748.159 3691
1437.78 -748.159 3691
1446.6 -748.159 3691
1455.43 -748.159 3691
1464.26 -748.159 3691
1469.89 -746.538 3683
1475.48 -744.916 3675
1487.5 -746.538 3683
1496.31 -746.538 3683
1514.93 -751.402 3707
1530.78 -754.848 3724
1539.68 -754.848 3724
1548.59 -754.848 3724
1557.49 -754.848 3724
1566.4 -754.848 3724
1575.3 -754.848 3724
1563.36 -744.916 3675
2706.39 -719.376 3549
2714.88 -719.376 3549
-2910.34 -815.032 4069
-2900.61 -815.032 4069
-2890.88 -815.032 4069
-2866.99 -811.026 4049
-2850.25 -809.023 4039
-2840.59 -809.023 4039
-2830.93 -809.023 4039
-2821.27 -809.023 4039
-2811.61 -809.023 4039
-2795.71 -807.22 4030
-2786.07 -807.22 4030
-2749.57 -799.408 3991
-2733.84 -797.605 3982
-2750.32 -805.217 4020
-2753.66 -809.023 4039
-2744 -809.023 4039
-2741.11 -811.026 4049
-2731.43 -811.026 4049
-2721.75 -811.026 4049
-2712.07 -811.026 4049
-2702.38 -811.026 4049
-2699.35 -813.029 4059
-2689.65 -813.029 4059
-2679.94 -813.029 4059
-2670.23 -813.029 4059
-1377 -773.569 3862
-1367.76 -773.569 3862
-1358.53 -773.569 3862
-1346.15 -771.766 3853
-1336.94 -771.766 3853
-1312.56 -762.953 3809
-1303.45 -762.953 3809
-1291.28 -761.15 3800
-1279.5 -759.548 3792
-1270.43 -759.548 3792
-1261.36 -759.548 3792
-1257.91 -762.953 3809
-1248.8 -762.953 3809
-1239.69 -762.953 3809
-1241.89 -769.964 3844
-1244.24 -777.174 3880
-1234.97 -777.174 3880
-1228.53 -778.977 3889
-1219.23 -778.977 3889
-1224.24 -788.191 3935
-1214.83 -788.191 3935
-1205.42 -788.191 3935
-175.576 -444.271 2218
-170.503 -444.872 2221
-165.191 -444.872 2221
-159.88 -444.872 2221
-154.778 -445.473 2224
-149.46 -445.473 2224
-144.142 -445.473 2224
-138.823 -445.473 2224
-132.965 -443.671 2215
-127.668 -443.671 2215
-122.371 -443.671 2215
-117.075 -443.671 2215
-111.778 -443.671 2215
-106.481 -443.671 2215
-101.184 -443.671 2215
-95.4114 -441.467 2204
-89.8956 -440.265 2198
-84.1004 -437.461 2184
-78.8778 -437.461 2184
-73.1493 -434.457 2169
-67.8059 -433.455 2164
-62.5443 -432.854 2161
-57.3767 -432.854 2161
-52.0158 -431.252 2153
-46.6714 -429.449 2144
-41.4476 -428.448 2139
-36.3326 -428.448 2139
-31.0133 -425.643 2125
-25.7975 -423.44 2114
-20.6932 -422.438 2109
-15.6129 -421.437 2104
-10.5816 -421.437 2104
-5.54236 -420.836 2101
-0.517003 -419.835 2096
4.48873 -419.234 2093
9.49373 -419.234 2093
14.4849 -418.833 2091
19.4851 -418.833 2091
24.4502 -418.232 2088
29.4432 -418.232 2088
34.3868 -417.631 2085
39.3349 -417.231 2083
44.316 -417.231 2083
49.297 -417.231 2083
54.2781 -417.231 2083
59.2592 -417.231 2083
64.2403 -417.231 2083
69.2878 -417.631 2085
74.2737 -417.631 2085
79.2596 -417.631 2085
84.4879 -418.833 2091
89.4881 -418.833 2091
94.4883 -418.833 2091
99.4885 -418.833 2091
104.489 -418.833 2091
109.175 -417.631 2085
114.161 -417.631 2085
119.032 -417.231 2083
123.716 -416.229 2078
128.499 -415.628 2075
133.461 -415.628 2075
138.223 -415.027 2072
142.832 -414.026 2067
147.632 -413.625 2065
152.57 -413.625 2065
156.898 -412.023 2057
161.817 -412.023 2057
166.33 -411.021 2052
171.237 -411.021 2052
175.715 -410.02 2047
180.169 -409.018 2042
184.599 -408.017 2037
189.47 -408.017 2037
193.864 -407.015 2032
198.234 -406.014 2027
202.881 -405.613 2025
207.723 -405.613 2025
212.776 -406.014 2027
217.623 -406.014 2027
222.47 -406.014 2027
227.093 -405.613 2025
231.935 -405.613 2025
236.778 -405.613 2025
241.262 -405.012 2022
245.854 -404.611 2020
250.684 -404.611 2020
255.515 -404.611 2020
260.345 -404.611 2020
265.832 -405.613 2025
270.942 -406.014 2027
275.789 -406.014 2027
282.02 -408.017 2037
287.596 -409.018 2042
292.479 -409.018 2042
297.362 -409.018 2042
631.893 -803.214 4010
641.482 -803.214 4010
651.071 -803.214 4010
659.178 -801.411 4001
663.898 -795.602 3972
670.175 -791.797 3953
679.628 -791.797 3953
682.631 -784.385 3916
687.224 -778.977 3889
696.524 -778.977 3889
705.824 -778.977 3889
713.469 -777.174 3880
721.07 -775.372 3871
715.423 -759.548 3792
726.019 -761.15 3800
735.106 -761.15 3800
744.193 -761.15 3800
751.694 -759.548 3792
758.956 -757.745 3783
768.002 -757.745 3783
771.708 -752.537 3757
779.03 -750.935 3749
779.167 -742.522 3707
789.945 -744.325 3716
798.831 -744.325 3716
807.717 -744.325 3716
816.603 -744.325 3716
825.489 -744.325 3716
828.762 -739.317 3691
841.219 -742.522 3707
857.651 -749.132 3740
866.594 -749.132 3740
875.538 -749.132 3740
884.481 -749.132 3740
895.575 -750.935 3749
904.54 -750.935 3749
915.454 -752.537 3757
924.438 -752.537 3757
939.882 -757.745 3783
955.45 -762.953 3809
966.838 -764.756 3818
975.968 -764.756 3818
994.128 -771.766 3853
1008.03 -775.372 3871
1022.02 -778.977 3889
1031.32 -778.977 3889
1040.62 -778.977 3889
1062.33 -788.191 3935
1071.74 -788.191 3935
1081.15 -788.191 3935
1072.83 -775.372 3871
1057.48 -757.745 3783
1066.53 -757.745 3783
1040.04 -732.707 3658
1044.2 -729.503 3642
1082.37 -737.715 3683
1091.18 -737.715 3683
1099.99 -737.715 3683
1108.79 -737.715 3683
1117.6 -737.715 3683
1181.81 -739.317 3691
1190.64 -739.317 3691
1199.47 -739.317 3691
1219.1 -745.927 3724
1233.28 -749.132 3740
1245.21 -750.935 3749
1254.17 -750.935 3749
1263.14 -750.935 3749
1266.34 -747.53 3732
1281.07 -750.935 3749
1290.03 -750.935 3749
1299 -750.935 3749
1304.82 -749.132 3740
1313.77 -749.132 3740
1322.71 -749.132 3740
1325.96 -745.927 3724
1323.03 -739.317 3691
1340.88 -744.325 3716
1358.49 -749.132 3740
1367.43 -749.132 3740
1379.68 -750.935 3749
1388.65 -750.935 3749
1397.61 -750.935 3749
1403.2 -749.132 3740
1412.15 -749.132 3740
1415.01 -745.927 3724
1423.92 -745.927 3724
1429.74 -744.325 3716
1428.95 -739.317 3691
1437.78 -739.317 3691
1446.6 -739.317 3691
1455.43 -739.317 3691
1464.26 -739.317 3691
1469.89 -737.715 3683
1475.48 -736.112 3675
1487.5 -737.715 3683
1496.31 -737.715 3683
1514.93 -742.522 3707
1530.78 -745.927 3724
1539.68 -745.927 3724
1548.59 -745.927 3724
1557.49 -745.927 3724
1566.4 -745.927 3724
1575.3 -745.927 3724
1563.36 -736.112 3675
2718.59 -714.079 3565
2727.12 -714.079 3565
-2910.34 -805.284 4069
-2900.61 -805.284 4069
-2890.88 -805.284 4069
-2866.99 -801.326 4049
-2850.25 -799.347 4039
-2840.59 -799.347 4039
-2830.93 -799.347 4039
-2821.27 -799.347 4039
-2811.61 -799.347 4039
-2795.71 -797.566 4030
-2786.07 -797.566 4030
-2749.57 -789.848 3991
-2733.84 -788.066 3982
-2750.32 -795.587 4020
-2753.66 -799.347 4039
-2744 -799.347 4039
-2741.11 -801.326 4049
-2731.43 -801.326 4049
-2721.75 -801.326 4049
-2712.07 -801.326 4049
-2702.38 -801.326 4049
-2699.35 -803.305 4059
-2689.65 -803.305 4059
-2679.94 -803.305 4059
-2670.23 -803.305 4059
-1377 -764.318 3862
-1367.76 -764.318 3862
-1358.53 -764.318 3862
-1346.15 -762.536 3853
-1336.94 -762.536 3853
-1312.56 -753.829 3809
-1303.45 -753.829 3809
-1291.28 -752.047 3800
-1279.5 -750.464 3792
-1270.43 -750.464 3792
-1261.36 -750.464 3792
-1257.91 -753.829 3809
-1248.8 -753.829 3809
-1239.69 -753.829 3809
-1241.89 -760.755 3844
-1244.24 -767.88 3880
-1234.97 -767.88 3880
-1228.53 -769.661 3889
-1219.23 -769.661 3889
-1224.24 -778.765 3935
-1214.83 -778.765 3935
-1205.42 -778.765 3935
-170.503 -439.552 2221
-165.191 -439.552 2221
-159.88 -439.552 2221
-154.778 -440.146 2224
-149.46 -440.146 2224
-144.142 -440.146 2224
-138.823 -440.146 2224
-132.965 -438.364 2215
-127.668 -438.364 2215
-122.371 -438.364 2215
-117.075 -438.364 2215
-111.778 -438.364 2215
-106.241 -437.375 2210
-100.956 -437.375 2210
-95.4114 -436.187 2204
-89.7729 -434.406 2195
-84.1004 -432.229 2184
-78.8778 -432.229 2184
-73.1493 -429.261 2169
-67.8059 -428.271 2164
-62.5443 -427.677 2161
-57.3767 -427.677 2161
-51.9433 -425.5 2150
-46.6279 -423.917 2142
-41.4476 -423.324 2139
-36.3326 -423.324 2139
-31.0133 -420.553 2125
-25.7975 -418.376 2114
-20.6932 -417.386 2109
-15.6129 -416.397 2104
-10.5816 -416.397 2104
-5.54236 -415.803 2101
-0.517003 -414.814 2096
4.48873 -414.22 2093
9.49373 -414.22 2093
14.4849 -413.824 2091
19.4851 -413.824 2091
24.4502 -413.23 2088
29.4432 -413.23 2088
34.3868 -412.637 2085
39.3349 -412.241 2083
44.316 -412.241 2083
49.297 -412.241 2083
54.2781 -412.241 2083
59.2592 -412.241 2083
64.2403 -412.241 2083
69.2878 -412.637 2085
74.2737 -412.637 2085
79.2596 -412.637 2085
84.4879 -413.824 2091
89.4881 -413.824 2091
94.4883 -413.824 2091
99.4885 -413.824 2091
104.489 -413.824 2091
109.175 -412.637 2085
114.161 -412.637 2085
119.032 -412.241 2083
123.716 -411.251 2078
128.499 -410.657 2075
133.461 -410.657 2075
138.223 -410.064 2072
142.832 -409.074 2067
147.632 -408.678 2065
152.57 -408.678 2065
156.898 -407.095 2057
161.817 -407.095 2057
166.33 -406.106 2052
171.237 -406.106 2052
175.715 -405.116 2047
180.169 -404.127 2042
184.599 -403.137 2037
189.47 -403.137 2037
193.864 -402.147 2032
198.234 -401.158 2027
202.881 -400.762 2025
207.723 -400.762 2025
212.776 -401.158 2027
217.623 -401.158 2027
222.47 -401.158 2027
227.093 -400.762 2025
231.935 -400.762 2025
236.778 -400.762 2025
241.262 -400.168 2022
245.854 -399.773 2020
250.684 -399.773 2020
255.515 -399.773 2020
260.345 -399.773 2020
265.832 -400.762 2025
270.942 -401.158 2027
275.789 -401.158 2027
282.02 -403.137 2037
287.596 -404.127 2042
292.479 -404.127 2042
297.362 -404.127 2042
631.893 -793.608 4010
641.482 -793.608 4010
651.071 -793.608 4010
659.178 -791.827 4001
663.898 -786.087 3972
670.175 -782.327 3953
679.628 -782.327 3953
682.631 -775.005 3916
687.224 -769.661 3889
696.524 -769.661 3889
705.824 -769.661 3889
713.469 -767.88 3880
721.07 -766.099 3871
715.423 -750.464 3792
724.49 -750.464 3792
733.558 -750.464 3792
742.626 -750.464 3792
751.694 -750.464 3792
758.956 -748.683 3783
768.002 -748.683 3783
771.708 -743.537 3757
777.16 -740.173 3740
779.167 -733.642 3707
789.945 -735.423 3716
798.831 -735.423 3716
807.717 -735.423 3716
816.603 -735.423 3716
825.489 -735.423 3716
828.762 -730.475 3691
841.219 -733.642 3707
855.816 -738.59 3732
866.594 -740.173 3740
875.538 -740.173 3740
884.481 -740.173 3740
893.425 -740.173 3740
902.368 -740.173 3740
915.454 -743.537 3757
924.438 -743.537 3757
939.882 -748.683 3783
955.45 -753.829 3809
966.838 -755.61 3818
975.968 -755.61 3818
994.128 -762.536 3853
1008.03 -766.099 3871
1022.02 -769.661 3889
1031.32 -769.661 3889
1040.62 -769.661 3889
1052.35 -771.442 3898
1061.67 -771.442 3898
1070.99 -771.442 3898
1060.35 -757.193 3826
1057.48 -748.683 3783
1066.53 -748.683 3783
1040.04 -723.945 3658
1044.2 -720.778 3642
1082.37 -728.892 3683
1091.18 -728.892 3683
1099.99 -728.892 3683
1108.79 -728.892 3683
1117.6 -728.892 3683
1181.81 -730.475 3691
1190.64 -730.475 3691
1199.47 -730.475 3691
1219.1 -737.006 3724
1233.28 -740.173 3740
1245.21 -741.954 3749
1254.17 -741.954 3749
1263.14 -741.954 3749
1266.34 -738.59 3732
1275.26 -738.59 3732
1284.18 -738.59 3732
1293.11 -738.59 3732
1302.03 -738.59 3732
1310.96 -738.59 3732
1319.88 -738.59 3732
1323.11 -735.423 3716
1323.03 -730.475 3691
1334.75 -732.059 3699
1355.58 -738.59 3732
1364.5 -738.59 3732
1376.37 -740.173 3740
1385.32 -740.173 3740
1394.26 -740.173 3740
1403.2 -740.173 3740
1406.11 -737.006 3724
1411.97 -735.423 3716
1420.86 -735.423 3716
1426.28 -733.642 3707
1428.95 -730.475 3691
1437.78 -730.475 3691
1446.6 -730.475 3691
1455.43 -730.475 3691
1464.26 -730.475 3691
1466.7 -727.309 3675
1475.48 -727.309 3675
1487.5 -728.892 3683
1496.31 -728.892 3683
1511.66 -732.059 3699
1530.78 -737.006 3724
1539.68 -737.006 3724
1548.59 -737.006 3724
1557.49 -737.006 3724
1566.4 -737.006 3724
1575.3 -737.006 3724
1563.36 -727.309 3675
2718.59 -705.539 3565
2727.12 -705.539 3565
-2910.34 -795.537 4069
-2900.61 -795.537 4069
-2890.88 -795.537 4069
-2866.99 -791.627 4049
-2850.25 -789.672 4039
-2840.59 -789.672 4039
-2830.93 -789.672 4039
-2821.27 -789.672 4039
-2811.61 -789.672 4039
-2795.71 -787.912 4030
-2786.07 -787.912 4030
-2749.57 -780.287 3991
-2733.84 -778.528 3982
-2750.32 -785.957 4020
-2753.66 -789.672 4039
-2744 -789.672 4039
-2741.11 -791.627 4049
-2731.43 -791.627 4049
-2721.75 -791.627 4049
-2712.07 -791.627 4049
-2702.38 -791.627 4049
-2699.35 -793.582 4059
-2689.65 -793.582 4059
-2679.94 -793.582 4059
-2670.23 -793.582 4059
-1373.79 -753.307 3853
-1364.58 -753.307 3853
-1355.36 -753.307 3853
-1346.15 -753.307 3853
-1327.57 -748.028 3826
-1309.46 -742.944 3800
-1300.37 -742.944 3800
-1285.51 -739.621 3783
-1273.42 -737.861 3774
-1267.42 -739.621 3783
-1258.37 -739.621 3783
-1254.94 -742.944 3800
-1245.85 -742.944 3800
-1236.76 -742.944 3800
-1236.08 -748.028 3826
-1226.93 -748.028 3826
-1217.78 -748.028 3826
-1217.16 -753.307 3853
-1207.94 -753.307 3853
-1198.73 -753.307 3853
-1189.52 -753.307 3853
-1180.3 -753.307 3853
-170.503 -434.231 2221
-165.191 -434.231 2221
-159.88 -434.231 2221
-154.778 -434.818 2224
-149.46 -434.818 2224
-144.142 -434.818 2224
-138.823 -434.818 2224
-132.845 -432.667 2213
-127.553 -432.667 2213
-122.261 -432.667 2213
-116.969 -432.667 2213
-111.525 -432.081 2210
-106.097 -431.494 2207
-100.819 -431.494 2207
-95.1517 -429.735 2198
-89.5275 -427.975 2189
-83.8694 -425.824 2178
-78.6611 -425.824 2178
-73.0819 -423.674 2167
-67.8059 -423.087 2164
-62.4575 -421.914 2158
-57.297 -421.914 2158
-51.9433 -420.35 2150
-46.6714 -419.177 2144
-41.3895 -417.613 2136
-36.2816 -417.613 2136
-31.0133 -415.462 2125
-25.8341 -413.898 2117
-20.6932 -412.334 2109
-15.6129 -411.357 2104
-10.5816 -411.357 2104
-5.54236 -410.77 2101
-0.517003 -409.793 2096
4.48873 -409.206 2093
9.49373 -409.206 2093
14.4987 -409.206 2093
19.4851 -408.815 2091
24.4502 -408.228 2088
29.4432 -408.228 2088
34.3868 -407.642 2085
39.3349 -407.251 2083
44.316 -407.251 2083
49.297 -407.251 2083
54.2781 -407.251 2083
59.2592 -407.251 2083
64.302 -407.642 2085
69.2878 -407.642 2085
74.2737 -407.642 2085
79.2596 -407.642 2085
84.4879 -408.815 2091
89.4881 -408.815 2091
94.4883 -408.815 2091
99.4885 -408.815 2091
104.489 -408.815 2091
109.175 -407.642 2085
114.161 -407.642 2085
119.147 -407.642 2085
123.835 -406.664 2080
128.685 -406.273 2078
133.654 -406.273 2078
138.423 -405.687 2075
143.039 -404.709 2070
147.775 -404.123 2067
152.718 -404.123 2067
157.279 -403.145 2062
162.053 -402.754 2060
166.573 -401.777 2055
171.488 -401.777 2055
176.144 -401.19 2052
180.169 -399.235 2042
184.78 -398.648 2039
189.656 -398.648 2039
194.341 -398.257 2037
198.527 -396.889 2030
202.881 -395.911 2025
207.928 -396.302 2027
212.776 -396.302 2027
217.623 -396.302 2027
222.47 -396.302 2027
227.317 -396.302 2027
232.164 -396.302 2027
236.778 -395.911 2025
241.62 -395.911 2025
246.462 -395.911 2025
251.305 -395.911 2025
256.147 -395.911 2025
260.99 -395.911 2025
266.488 -396.889 2030
271.343 -396.889 2030
276.197 -396.889 2030
282.713 -399.235 2042
287.596 -399.235 2042
292.479 -399.235 2042
297.362 -399.235 2042
631.893 -784.002 4010
641.482 -784.002 4010
651.071 -784.002 4010
657.53 -780.287 3991
663.898 -776.572 3972
670.175 -772.858 3953
679.628 -772.858 3953
682.631 -765.624 3916
687.224 -760.345 3889
696.524 -760.345 3889
705.824 -760.345 3889
713.469 -758.585 3880
721.07 -756.826 3871
715.423 -741.38 3792
724.49 -741.38 3792
733.558 -741.38 3792
742.626 -741.38 3792
749.91 -739.621 3783
757.15 -737.861 3774
766.175 -737.861 3774
771.708 -734.537 3757
773.835 -728.086 3724
779.167 -724.762 3707
788.031 -724.762 3707
796.896 -724.762 3707
805.761 -724.762 3707
814.625 -724.762 3707
823.49 -724.762 3707
828.762 -721.634 3691
841.219 -724.762 3707
852.147 -726.521 3716
861.033 -726.521 3716
869.919 -726.521 3716
876.677 -724.762 3707
887.692 -726.521 3716
898.508 -728.086 3724
907.413 -728.086 3724
916.318 -728.086 3724
939.882 -739.621 3783
955.45 -744.704 3809
966.838 -746.464 3818
975.968 -746.464 3818
994.128 -753.307 3853
1008.03 -756.826 3871
1019.65 -758.585 3880
1028.93 -758.585 3880
1038.21 -758.585 3880
1045.06 -756.826 3871
1054.31 -756.826 3871
1063.57 -756.826 3871
1053.15 -742.944 3800
1057.48 -739.621 3783
1066.53 -739.621 3783
1040.04 -715.182 3658
1044.2 -712.054 3642
1052.91 -712.054 3642
1083.19 -726.521 3716
1092.07 -726.521 3716
1100.96 -726.521 3716
1099.99 -720.07 3683
1108.79 -720.07 3683
1117.6 -720.07 3683
1181.81 -721.634 3691
1190.64 -721.634 3691
1199.47 -721.634 3691
1219.1 -728.086 3724
1230.64 -729.65 3732
1245.21 -732.973 3749
1254.17 -732.973 3749
1263.14 -732.973 3749
1266.34 -729.65 3732
1275.26 -729.65 3732
1284.18 -729.65 3732
1293.11 -729.65 3732
1296.45 -726.521 3716
1305.34 -726.521 3716
1314.22 -726.521 3716
1314.21 -721.634 3691
1323.03 -721.634 3691
1334.75 -723.198 3699
1346.5 -724.762 3707
1355.36 -724.762 3707
1370.48 -728.086 3724
1379.39 -728.086 3724
1388.29 -728.086 3724
1394.2 -726.521 3716
1403.08 -726.521 3716
1408.55 -724.762 3707
1417.42 -724.762 3707
1417.05 -720.07 3683
1425.85 -720.07 3683
1434.66 -720.07 3683
1443.47 -720.07 3683
1449.12 -718.505 3675
1454.73 -716.941 3667
1459.91 -715.182 3658
1472.27 -716.941 3667
1487.5 -720.07 3683
1496.31 -720.07 3683
1508.39 -721.634 3691
1517.21 -721.634 3691
1526.04 -721.634 3691
1534.87 -721.634 3691
1543.69 -721.634 3691
1545.79 -718.505 3675
1554.58 -718.505 3675
1559.96 -716.941 3667
1561.46 -713.618 3650
2730.03 -699.932 3580
2738.59 -699.932 3580
-2910.34 -785.79 4069
-2900.61 -785.79 4069
-2890.88 -785.79 4069
-2866.99 -781.927 4049
-2857.3 -781.927 4049
-2840.59 -779.996 4039
-2830.93 -779.996 4039
-2821.27 -779.996 4039
-2811.61 -779.996 4039
-2795.71 -778.258 4030
-2786.07 -778.258 4030
-2749.57 -770.727 3991
-2740.02 -770.727 3991
-2750.32 -776.327 4020
-2753.66 -779.996 4039
-2744 -779.996 4039
-2741.11 -781.927 4049
-2731.43 -781.927 4049
-2721.75 -781.927 4049
-2705.37 -779.996 4039
-2695.71 -779.996 4039
-2680.07 -778.258 4030
-2670.43 -778.258 4030
-2660.79 -778.258 4030
-2644.58 -776.327 4020
-2634.96 -776.327 4020
-2625.35 -776.327 4020
-1352.18 -737.318 3818
-1343.05 -737.318 3818
-1333.92 -737.318 3818
-1318.55 -733.841 3800
-1303.6 -730.559 3783
-1288.74 -727.276 3766
-1279.73 -727.276 3766
-1270.73 -727.276 3766
-1261.72 -727.276 3766
-1252.71 -727.276 3766
-1243.71 -727.276 3766
-1231.75 -725.538 3757
-1220.16 -723.993 3749
-1227.68 -733.841 3800
-1218.59 -733.841 3800
-1209.5 -733.841 3800
-1206.1 -737.318 3818
-1196.97 -737.318 3818
-1195.93 -742.339 3844
-1186.74 -742.339 3844
-1177.55 -742.339 3844
-170.503 -428.911 2221
-165.191 -428.911 2221
-159.88 -428.911 2221
-154.778 -429.49 2224
-149.46 -429.49 2224
-144.142 -429.49 2224
-138.636 -428.911 2221
-132.845 -427.366 2213
-127.38 -426.787 2210
-122.095 -426.787 2210
-116.81 -426.787 2210
-111.374 -426.207 2207
-105.808 -425.049 2201
-100.545 -425.049 2201
-94.8919 -423.311 2192
-89.4048 -422.152 2186
-83.8694 -420.607 2178
-78.6611 -420.607 2178
-73.0819 -418.483 2167
-67.8059 -417.903 2164
-62.4575 -416.745 2158
-57.297 -416.745 2158
-51.9433 -415.2 2150
-46.6714 -414.041 2144
-41.3895 -412.496 2136
-36.2816 -412.496 2136
-31.0133 -410.372 2125
-25.8341 -408.827 2117
-20.6932 -407.282 2109
-15.6129 -406.316 2104
-10.5816 -406.316 2104
-5.54236 -405.737 2101
-0.517003 -404.772 2096
4.48873 -404.192 2093
9.49373 -404.192 2093
14.4987 -404.192 2093
19.4851 -403.806 2091
24.4502 -403.227 2088
29.4432 -403.227 2088
34.3868 -402.647 2085
39.3349 -402.261 2083
44.316 -402.261 2083
49.297 -402.261 2083
54.2781 -402.261 2083
59.2592 -402.261 2083
64.302 -402.647 2085
69.2878 -402.647 2085
74.2737 -402.647 2085
79.3736 -403.227 2088
84.4879 -403.806 2091
89.5737 -404.192 2093
94.5787 -404.192 2093
99.5837 -404.192 2093
104.589 -404.192 2093
109.175 -402.647 2085
114.161 -402.647 2085
119.147 -402.647 2085
124.013 -402.261 2083
128.685 -401.295 2078
133.654 -401.295 2078
138.423 -400.716 2075
143.039 -399.751 2070
147.775 -399.171 2067
152.718 -399.171 2067
157.508 -398.785 2065
162.053 -397.819 2060
166.736 -397.24 2057
171.654 -397.24 2057
176.144 -396.274 2052
180.345 -394.729 2044
184.78 -393.764 2039
189.656 -393.764 2039
194.341 -393.378 2037
198.527 -392.026 2030
202.881 -391.06 2025
207.928 -391.447 2027
212.776 -391.447 2027
217.623 -391.447 2027
222.47 -391.447 2027
227.317 -391.447 2027
232.164 -391.447 2027
236.778 -391.06 2025
241.62 -391.06 2025
246.462 -391.06 2025
251.553 -391.447 2027
256.4 -391.447 2027
261.634 -392.026 2030
266.751 -392.412 2032
272.947 -394.343 2042
277.83 -394.343 2042
282.99 -394.729 2044
287.877 -394.729 2044
292.765 -394.729 2044
297.653 -394.729 2044
620.075 -759.912 3935
633.964 -765.319 3963
643.44 -765.319 3963
652.917 -765.319 3963
662.394 -765.319 3963
668.649 -761.65 3944
678.081 -761.65 3944
677.924 -751.029 3889
684.044 -747.553 3871
693.3 -747.553 3871
702.557 -747.553 3871
711.814 -747.553 3871
717.717 -744.077 3853
715.423 -732.297 3792
724.49 -732.297 3792
733.558 -732.297 3792
742.626 -732.297 3792
749.91 -730.559 3783
752.135 -723.993 3749
761.1 -723.993 3749
766.573 -720.71 3732
770.302 -715.882 3707
775.804 -712.792 3691
786.331 -714.337 3699
795.176 -714.337 3699
804.022 -714.337 3699
812.867 -714.337 3699
821.713 -714.337 3699
825.169 -709.702 3675
839.403 -714.337 3699
848.249 -714.337 3699
857.094 -714.337 3699
865.94 -714.337 3699
874.785 -714.337 3699
883.631 -714.337 3699
894.406 -715.882 3707
907.413 -719.165 3724
916.318 -719.165 3724
935.658 -727.276 3766
951.186 -732.297 3792
966.838 -737.318 3818
975.968 -737.318 3818
987.162 -738.863 3826
1001 -742.339 3844
1017.29 -747.553 3871
1026.54 -747.553 3871
1035.8 -747.553 3871
1032.91 -738.863 3826
1042.06 -738.863 3826
1039.39 -730.559 3783
1041.23 -725.538 3757
1038.76 -717.62 3716
1047.64 -717.62 3716
1040.04 -706.419 3658
1044.2 -703.329 3642
1052.91 -703.329 3642
1083.19 -717.62 3716
1092.07 -717.62 3716
1100.96 -717.62 3716
1099.99 -711.247 3683
1108.79 -711.247 3683
1117.6 -711.247 3683
1109.28 -700.432 3627
1155.19 -701.977 3635
1181.81 -712.792 3691
1190.64 -712.792 3691
1199.47 -712.792 3691
1219.1 -719.165 3724
1228 -719.165 3724
1245.21 -723.993 3749
1254.17 -723.993 3749
1263.14 -723.993 3749
1266.34 -720.71 3732
1275.26 -720.71 3732
1284.18 -720.71 3732
1284.45 -715.882 3707
1284.94 -711.247 3683
1293.75 -711.247 3683
1302.55 -711.247 3683
1311.36 -711.247 3683
1320.17 -711.247 3683
1331.86 -712.792 3691
1343.59 -714.337 3699
1352.44 -714.337 3699
1364.23 -715.882 3707
1373.09 -715.882 3707
1381.96 -715.882 3707
1387.82 -714.337 3699
1393.64 -712.792 3691
1399.43 -711.247 3683
1408.24 -711.247 3683
1417.05 -711.247 3683
1425.85 -711.247 3683
1428.43 -708.157 3667
1437.2 -708.157 3667
1445.97 -708.157 3667
1451.16 -706.419 3658
1456.72 -704.874 3650
1465.45 -704.874 3650
1481.04 -708.157 3667
1489.81 -708.157 3667
1508.39 -712.792 3691
1517.21 -712.792 3691
1526.04 -712.792 3691
1534.87 -712.792 3691
1543.69 -712.792 3691
1545.79 -709.702 3675
1554.58 -709.702 3675
1559.96 -708.157 3667
1564.88 -706.419 3658
2741.47 -694.253 3595
2750.07 -694.253 3595
-2944.2 -779.857 4089
-2934.42 -779.857 4089
-2924.64 -779.857 4089
-2900.61 -776.042 4069
-2890.88 -776.042 4069
-2866.99 -772.228 4049
-2857.3 -772.228 4049
-2834.26 -768.604 4030
-2824.62 -768.604 4030
-2814.98 -768.604 4030
-2805.35 -768.604 4030
-2795.71 -768.604 4030
-2786.07 -768.604 4030
-2749.57 -761.166 3991
-2740.02 -761.166 3991
-2743.48 -764.79 4010
-2753.66 -770.321 4039
-2744 -770.321 4039
-2734.34 -770.321 4039
-2724.69 -770.321 4039
-2715.03 -770.321 4039
-2705.37 -770.321 4039
-2689.7 -768.604 4030
-2680.07 -768.604 4030
-2670.43 -768.604 4030
-2660.79 -768.604 4030
-2644.58 -766.697 4020
-2634.96 -766.697 4020
-2625.35 -766.697 4020
-1342.77 -718.254 3766
-1339.79 -721.496 3783
-1330.74 -721.496 3783
-1321.69 -721.496 3783
-1312.65 -721.496 3783
-1294.64 -716.538 3757
-1277.1 -711.77 3732
-1273.95 -715.012 3749
-1264.99 -715.012 3749
-1256.02 -715.012 3749
-1247.06 -715.012 3749
-1238.09 -715.012 3749
-1226.18 -713.295 3740
-1217.23 -713.295 3740
-1211.2 -715.012 3749
-1202.23 -715.012 3749
-1193.27 -715.012 3749
-1192.2 -719.78 3774
-1191.33 -724.739 3800
-1187.84 -728.172 3818
-1178.71 -728.172 3818
-1169.58 -728.172 3818
-170.503 -423.591 2221
-165.191 -423.591 2221
-159.88 -423.591 2221
-154.778 -424.163 2224
-149.46 -424.163 2224
-144.142 -424.163 2224
-138.636 -423.591 2221
-132.845 -422.065 2213
-127.38 -421.493 2210
-122.095 -421.493 2210
-116.81 -421.493 2210
-111.374 -420.921 2207
-105.808 -419.776 2201
-100.545 -419.776 2201
-94.8919 -418.06 2192
-89.4048 -416.915 2186
-83.8694 -415.39 2178
-78.6611 -415.39 2178
-73.0819 -413.292 2167
-67.8059 -412.72 2164
-62.4575 -411.575 2158
-57.297 -411.575 2158
-51.9433 -410.049 2150
-46.6714 -408.905 2144
-41.3895 -407.379 2136
-36.2816 -407.379 2136
-31.0133 -405.281 2125
-25.8341 -403.756 2117
-20.6932 -402.23 2109
-15.6129 -401.276 2104
-10.5816 -401.276 2104
-5.54236 -400.704 2101
-0.517496 -400.132 2098
4.48873 -399.178 2093
9.49373 -399.178 2093
14.4987 -399.178 2093
19.4851 -398.797 2091
24.4502 -398.225 2088
29.4432 -398.225 2088
34.3868 -397.653 2085
39.3349 -397.271 2083
44.316 -397.271 2083
49.297 -397.271 2083
54.2781 -397.271 2083
59.2592 -397.271 2083
64.302 -397.653 2085
69.2878 -397.653 2085
74.2737 -397.653 2085
79.3736 -398.225 2088
84.4879 -398.797 2091
89.5737 -399.178 2093
94.5787 -399.178 2093
99.5837 -399.178 2093
104.589 -399.178 2093
109.332 -398.225 2088
114.325 -398.225 2088
119.147 -397.653 2085
124.013 -397.271 2083
128.685 -396.318 2078
133.654 -396.318 2078
138.423 -395.745 2075
143.039 -394.792 2070
147.989 -394.792 2070
152.939 -394.792 2070
157.508 -393.838 2065
162.21 -393.266 2062
166.979 -392.885 2060
171.905 -392.885 2060
176.144 -391.359 2052
180.61 -390.405 2047
184.78 -388.879 2039
189.656 -388.879 2039
194.341 -388.498 2037
198.723 -387.544 2032
202.881 -386.209 2025
207.928 -386.591 2027
212.776 -386.591 2027
217.623 -386.591 2027
222.47 -386.591 2027
227.317 -386.591 2027
232.164 -386.591 2027
237.011 -386.591 2027
241.859 -386.591 2027
246.706 -386.591 2027
251.925 -387.163 2030
256.78 -387.163 2030
261.634 -387.163 2030
266.751 -387.544 2032
273.214 -389.833 2044
278.102 -389.833 2044
283.405 -390.405 2047
288.3 -390.405 2047
293.195 -390.405 2047
298.09 -390.405 2047
620.075 -750.486 3935
633.964 -755.826 3963
643.44 -755.826 3963
652.917 -755.826 3963
662.394 -755.826 3963
668.649 -752.202 3944
678.081 -752.202 3944
677.924 -741.713 3889
684.044 -738.28 3871
693.3 -738.28 3871
702.557 -738.28 3871
711.814 -738.28 3871
717.717 -734.847 3853
715.423 -723.213 3792
724.49 -723.213 3792
733.558 -723.213 3792
742.626 -723.213 3792
749.91 -721.496 3783
752.135 -715.012 3749
761.1 -715.012 3749
766.573 -711.77 3732
770.302 -707.002 3707
775.804 -703.95 3691
786.331 -705.476 3699
795.176 -705.476 3699
804.022 -705.476 3699
812.867 -705.476 3699
821.713 -705.476 3699
825.169 -700.898 3675
839.403 -705.476 3699
848.249 -705.476 3699
857.094 -705.476 3699
865.94 -705.476 3699
874.785 -705.476 3699
883.631 -705.476 3699
894.406 -707.002 3707
907.413 -710.244 3724
916.318 -710.244 3724
935.658 -718.254 3766
951.186 -723.213 3792
966.838 -728.172 3818
975.968 -728.172 3818
987.162 -729.697 3826
1001 -733.13 3844
1017.29 -738.28 3871
1026.54 -738.28 3871
1035.8 -738.28 3871
1032.91 -729.697 3826
1042.06 -729.697 3826
1039.39 -721.496 3783
1041.23 -716.538 3757
1038.76 -708.718 3716
1047.64 -708.718 3716
1040.04 -697.656 3658
1044.2 -694.605 3642
1052.91 -694.605 3642
1083.19 -708.718 3716
1092.07 -708.718 3716
1100.96 -708.718 3716
1099.99 -702.424 3683
1108.79 -702.424 3683
1117.6 -702.424 3683
1111.73 -693.27 3635
1120.42 -693.27 3635
1129.11 -693.27 3635
1137.81 -693.27 3635
1131.67 -684.306 3588
1155.19 -693.27 3635
1181.81 -703.95 3691
1190.64 -703.95 3691
1199.47 -703.95 3691
1219.1 -710.244 3724
1228 -710.244 3724
1245.21 -715.012 3749
1254.17 -715.012 3749
1263.14 -715.012 3749
1266.34 -711.77 3732
1275.26 -711.77 3732
1284.18 -711.77 3732
1284.45 -707.002 3707
1284.94 -702.424 3683
1293.75 -702.424 3683
1302.55 -702.424 3683
1311.36 -702.424 3683
1320.17 -702.424 3683
1331.86 -703.95 3691
1343.59 -705.476 3699
1352.44 -705.476 3699
1364.23 -707.002 3707
1373.09 -707.002 3707
1381.96 -707.002 3707
1387.82 -705.476 3699
1393.64 -703.95 3691
1399.43 -702.424 3683
1408.24 -702.424 3683
1417.05 -702.424 3683
1425.85 -702.424 3683
1428.43 -699.373 3667
1437.2 -699.373 3667
1445.97 -699.373 3667
1451.16 -697.656 3658
1456.72 -696.13 3650
1465.45 -696.13 3650
1481.04 -699.373 3667
1489.81 -699.373 3667
1508.39 -703.95 3691
1517.21 -703.95 3691
1526.04 -703.95 3691
1534.87 -703.95 3691
1543.69 -703.95 3691
1545.79 -700.898 3675
1554.58 -700.898 3675
1559.96 -699.373 3667
1564.88 -697.656 3658
2747.57 -687.167 3603
2756.19 -687.167 3603
-2944.2 -770.062 4089
-2934.42 -770.062 4089
-2924.64 -770.062 4089
-2900.61 -766.295 4069
-2890.88 -766.295 4069
-2866.99 -762.529 4049
-2857.3 -762.529 4049
-2834.26 -758.95 4030
-2824.62 -758.95 4030
-2814.98 -758.95 4030
-2805.35 -758.95 4030
-2795.71 -758.95 4030
-2786.07 -758.95 4030
-2749.57 -751.606 3991
-2740.02 -751.606 3991
-2743.48 -755.184 4010
-2753.66 -760.645 4039
-2744 -760.645 4039
-2734.34 -760.645 4039
-2724.69 -760.645 4039
-2715.03 -760.645 4039
-2705.37 -760.645 4039
-2689.7 -758.95 4030
-2680.07 -758.95 4030
-2670.43 -758.95 4030
-2660.79 -758.95 4030
-2644.58 -757.067 4020
-2634.96 -757.067 4020
-2625.35 -757.067 4020
-1345.61 -701.323 3724
-1336.7 -701.323 3724
-1342.77 -709.233 3766
-1339.79 -712.434 3783
-1330.74 -712.434 3783
-1321.69 -712.434 3783
-1312.65 -712.434 3783
-1294.64 -707.538 3757
-1277.1 -702.83 3732
-1273.95 -706.031 3749
-1264.99 -706.031 3749
-1256.02 -706.031 3749
-1247.06 -706.031 3749
-1238.09 -706.031 3749
-1226.18 -704.336 3740
-1217.23 -704.336 3740
-1211.2 -706.031 3749
-1202.23 -706.031 3749
-1193.27 -706.031 3749
-1192.2 -710.739 3774
-1191.33 -715.636 3800
-1187.84 -719.026 3818
-1178.71 -719.026 3818
-1169.58 -719.026 3818
-170.503 -418.27 2221
-165.191 -418.27 2221
-159.88 -418.27 2221
-154.778 -418.835 2224
-149.46 -418.835 2224
-144.142 -418.835 2224
-138.449 -417.705 2218
-132.485 -415.634 2207
-127.207 -415.634 2207
-121.929 -415.634 2207
-116.652 -415.634 2207
-111.223 -415.069 2204
-105.664 -413.939 2198
-100.408 -413.939 2198
-94.7621 -412.244 2189
-89.4048 -411.679 2186
-83.8694 -410.172 2178
-78.6611 -410.172 2178
-73.0819 -408.101 2167
-67.7119 -406.971 2161
-62.4575 -406.406 2158
-57.297 -406.406 2158
-51.9433 -404.899 2150
-46.6714 -403.769 2144
-41.3895 -402.263 2136
-36.2816 -402.263 2136
-31.0133 -400.191 2125
-25.8341 -398.684 2117
-20.6932 -397.178 2109
-15.6129 -396.236 2104
-10.5816 -396.236 2104
-5.54236 -395.671 2101
-0.517496 -395.106 2098
4.48873 -394.165 2093
9.49373 -394.165 2093
14.4987 -394.165 2093
19.4851 -393.788 2091
24.4502 -393.223 2088
29.4432 -393.223 2088
34.3868 -392.658 2085
39.3349 -392.281 2083
44.316 -392.281 2083
49.297 -392.281 2083
54.2781 -392.281 2083
59.2592 -392.281 2083
64.302 -392.658 2085
69.2878 -392.658 2085
74.2737 -392.658 2085
79.3736 -393.223 2088
84.4879 -393.788 2091
89.5737 -394.165 2093
94.5787 -394.165 2093
99.5837 -394.165 2093
104.589 -394.165 2093
109.332 -393.223 2088
114.325 -393.223 2088
119.147 -392.658 2085
124.013 -392.281 2083
128.685 -391.34 2078
133.654 -391.34 2078
138.423 -390.775 2075
143.039 -389.833 2070
147.989 -389.833 2070
152.939 -389.833 2070
157.508 -388.891 2065
162.21 -388.327 2062
166.979 -387.95 2060
171.905 -387.95 2060
176.144 -386.443 2052
180.61 -385.502 2047
184.78 -383.995 2039
189.656 -383.995 2039
194.341 -383.618 2037
198.723 -382.677 2032
202.881 -381.358 2025
207.928 -381.735 2027
212.776 -381.735 2027
217.623 -381.735 2027
222.47 -381.735 2027
227.317 -381.735 2027
232.164 -381.735 2027
237.011 -381.735 2027
241.859 -381.735 2027
246.706 -381.735 2027
251.925 -382.3 2030
256.78 -382.3 2030
261.634 -382.3 2030
266.751 -382.677 2032
273.214 -384.937 2044
278.102 -384.937 2044
283.405 -385.502 2047
288.3 -385.502 2047
293.195 -385.502 2047
298.09 -385.502 2047
615.662 -735.786 3907
625.005 -735.786 3907
634.348 -735.786 3907
643.691 -735.786 3907
647.017 -729.007 3871
656.273 -729.007 3871
665.53 -729.007 3871
671.649 -725.617 3853
679.272 -723.922 3844
690.076 -725.617 3853
699.29 -725.617 3853
708.504 -725.617 3853
717.717 -725.617 3853
715.423 -714.129 3792
724.49 -714.129 3792
731.817 -712.434 3783
739.101 -710.739 3774
746.54 -709.233 3766
750.329 -704.336 3740
759.273 -704.336 3740
764.93 -701.323 3724
768.64 -696.615 3699
775.804 -695.108 3691
784.63 -695.108 3691
793.457 -695.108 3691
802.283 -695.108 3691
811.109 -695.108 3691
819.935 -695.108 3691
825.169 -692.095 3675
837.588 -695.108 3691
846.414 -695.108 3691
855.241 -695.108 3691
864.067 -695.108 3691
872.893 -695.108 3691
883.631 -696.615 3699
894.406 -698.121 3707
905.464 -699.816 3716
914.35 -699.816 3716
927.211 -702.83 3732
944.664 -709.233 3766
953.67 -709.233 3766
962.675 -709.233 3766
976.067 -712.434 3783
985.114 -712.434 3783
994.16 -712.434 3783
1003.21 -712.434 3783
1007.7 -709.233 3766
1014.28 -707.538 3757
1023.26 -707.538 3757
1025.38 -702.83 3732
1027.37 -698.121 3707
1031.77 -695.108 3691
1040.59 -695.108 3691
1037.76 -687.387 3650
1044.2 -685.88 3642
1052.91 -685.88 3642
1073.57 -693.602 3683
1082.37 -693.602 3683
1091.18 -693.602 3683
1099.99 -693.602 3683
1096.45 -685.88 3642
1105.16 -685.88 3642
1111.73 -684.562 3635
1120.42 -684.562 3635
1129.11 -684.562 3635
1137.81 -684.562 3635
1131.67 -675.711 3588
1155.19 -684.562 3635
1176.69 -692.095 3675
1185.48 -692.095 3675
1194.27 -692.095 3675
1208.29 -695.108 3691
1217.12 -695.108 3691
1225.95 -695.108 3691
1234.77 -695.108 3691
1243.6 -695.108 3691
1252.42 -695.108 3691
1261.25 -695.108 3691
1270.08 -695.108 3691
1276.13 -693.602 3683
1284.94 -693.602 3683
1293.75 -693.602 3683
1302.55 -693.602 3683
1308.51 -692.095 3675
1311.21 -688.893 3658
1323.2 -690.588 3667
1340.69 -695.108 3691
1349.51 -695.108 3691
1358.34 -695.108 3691
1367.17 -695.108 3691
1375.99 -695.108 3691
1384.82 -695.108 3691
1390.62 -693.602 3683
1399.43 -693.602 3683
1408.24 -693.602 3683
1417.05 -693.602 3683
1419.66 -690.588 3667
1428.43 -690.588 3667
1437.2 -690.588 3667
1442.42 -688.893 3658
1447.99 -687.387 3650
1453.53 -685.88 3642
1465.45 -687.387 3650
1481.04 -690.588 3667
1489.81 -690.588 3667
1505.12 -693.602 3683
1517.21 -695.108 3691
1526.04 -695.108 3691
1534.87 -695.108 3691
1543.69 -695.108 3691
1545.79 -692.095 3675
1554.58 -692.095 3675
1559.96 -690.588 3667
1564.88 -688.893 3658
2747.57 -678.536 3603
2756.19 -678.536 3603
-2944.2 -760.266 4089
-2934.42 -760.266 4089
-2924.64 -760.266 4089
-2886.35 -752.829 4049
-2876.67 -752.829 4049
-2853.53 -749.297 4030
-2836.84 -747.437 4020
-2827.22 -747.437 4020
-2817.61 -747.437 4020
-2808 -747.437 4020
-2798.39 -747.437 4020
-2781.84 -745.578 4010
-2772.25 -745.578 4010
-2743.37 -740.372 3982
-2740.02 -742.045 3991
-2743.48 -745.578 4010
-2753.66 -750.97 4039
-2744 -750.97 4039
-2734.34 -750.97 4039
-2724.69 -750.97 4039
-2715.03 -750.97 4039
-2699.34 -749.297 4030
-2683.03 -747.437 4020
-2673.42 -747.437 4020
-2663.8 -747.437 4020
-2647.59 -745.578 4010
-1345.61 -692.402 3724
-1336.7 -692.402 3724
-1342.77 -700.211 3766
-1336.6 -701.699 3774
-1327.57 -701.699 3774
-1318.55 -701.699 3774
-1306.75 -700.211 3766
-1291.88 -697.05 3749
-1277.1 -693.889 3732
-1268.18 -693.889 3732
-1259.25 -693.889 3732
-1250.33 -693.889 3732
-1241.4 -693.889 3732
-1232.48 -693.889 3732
-1218.31 -690.915 3716
-1209.42 -690.915 3716
-1205.71 -693.889 3732
-1196.78 -693.889 3732
-1187.86 -693.889 3732
-1178.93 -693.889 3732
-1170.01 -693.889 3732
-1161.09 -693.889 3732
-1152.16 -693.889 3732
-170.272 -412.392 2218
-164.968 -412.392 2218
-159.664 -412.392 2218
-154.36 -412.392 2218
-149.057 -412.392 2218
-143.753 -412.392 2218
-138.262 -411.834 2215
-132.485 -410.347 2207
-127.034 -409.789 2204
-121.764 -409.789 2204
-116.493 -409.789 2204
-111.071 -409.231 2201
-105.52 -408.116 2195
-100.271 -408.116 2195
-94.6322 -406.442 2186
-89.2003 -405.513 2181
-83.7538 -404.397 2175
-78.5527 -404.397 2175
-72.9807 -402.352 2164
-67.6179 -401.236 2158
-62.3707 -400.678 2155
-57.2174 -400.678 2155
-51.9433 -399.749 2150
-46.6279 -398.261 2142
-41.3895 -397.146 2136
-36.2816 -397.146 2136
-31.0133 -395.101 2125
-25.8341 -393.613 2117
-20.6932 -392.126 2109
-15.6129 -391.196 2104
-10.5816 -391.196 2104
-5.54236 -390.638 2101
-0.517496 -390.08 2098
4.48873 -389.151 2093
9.49373 -389.151 2093
14.4987 -389.151 2093
19.4851 -388.779 2091
24.4502 -388.221 2088
29.4432 -388.221 2088
34.3868 -387.663 2085
39.3726 -387.663 2085
44.316 -387.291 2083
49.297 -387.291 2083
54.2781 -387.291 2083
59.2592 -387.291 2083
64.302 -387.663 2085
69.3875 -388.221 2088
74.3806 -388.221 2088
79.3736 -388.221 2088
84.4879 -388.779 2091
89.5737 -389.151 2093
94.5787 -389.151 2093
99.5837 -389.151 2093
104.589 -389.151 2093
109.489 -388.779 2091
114.489 -388.779 2091
119.318 -388.221 2088
124.132 -387.663 2085
128.994 -387.291 2083
133.975 -387.291 2083
138.623 -386.362 2078
143.385 -385.804 2075
148.132 -385.246 2072
153.087 -385.246 2072
157.889 -384.874 2070
162.446 -383.945 2065
167.141 -383.387 2062
172.072 -383.387 2062
176.573 -382.457 2057
181.051 -381.528 2052
185.233 -380.04 2044
190.121 -380.04 2044
194.532 -379.111 2039
199.212 -378.739 2037
203.081 -376.879 2027
207.928 -376.879 2027
212.776 -376.879 2027
217.623 -376.879 2027
222.47 -376.879 2027
227.317 -376.879 2027
232.164 -376.879 2027
237.011 -376.879 2027
241.859 -376.879 2027
246.706 -376.879 2027
252.173 -377.809 2032
257.033 -377.809 2032
261.892 -377.809 2032
266.751 -377.809 2032
273.214 -380.04 2044
278.102 -380.04 2044
283.405 -380.598 2047
