1463.97 342.007 3078
1436.91 334.007 3006
1418.64 328.118 2953
1410.73 324.673 2922
1407.53 322.34 2901
1414.47 322.34 2901
1416.5 321.229 2891
1418.49 320.118 2881
1422.91 319.562 2876
1429.79 319.562 2876
1436.66 319.562 2876
1438.52 318.451 2866
1443.36 318.007 2862
1450.2 318.007 2862
1457.05 318.007 2862
1463.89 318.007 2862
1470.73 318.007 2862
1477.58 318.007 2862
1479.24 316.896 2852
1486.06 316.896 2852
1492.88 316.896 2852
1499.7 316.896 2852
1506.52 316.896 2852
1510.68 316.34 2847
1514.83 315.784 2842
1518.94 315.229 2837
1525.73 315.229 2837
1529.81 314.673 2832
1536.58 314.673 2832
1541.18 314.229 2828
1547.94 314.229 2828
1554.7 314.229 2828
1558.7 313.673 2823
1565.45 313.673 2823
1574.99 314.229 2828
1581.75 314.229 2828
1588.51 314.229 2828
1595.28 314.229 2828
1602.04 314.229 2828
1608.8 314.229 2828
1615.57 314.229 2828
1622.33 314.229 2828
1626.21 313.673 2823
1635.85 314.229 2828
1642.62 314.229 2828
1649.38 314.229 2828
1658.48 314.673 2832
1665.26 314.673 2832
1672.03 314.673 2832
1678.8 314.673 2832
1691.52 315.784 2842
1698.32 315.784 2842
1705.12 315.784 2842
1711.91 315.784 2842
1718.71 315.784 2842
1725.5 315.784 2842
1732.3 315.784 2842
1732.98 314.673 2832
1737.29 314.229 2828
1740.97 313.673 2823
1747.72 313.673 2823
1748.26 312.562 2813
1754.98 312.562 2813
1759.21 312.118 2809
1765.92 312.118 2809
1766.33 311.007 2799
1769.86 310.451 2794
1773.99 310.006 2790
1780.67 310.006 2790
1784.13 309.451 2785
1790.79 309.451 2785
1794.23 308.895 2780
1795.04 307.895 2771
1801.67 307.895 2771
1808.3 307.895 2771
1812.3 307.451 2767
1815.63 306.895 2762
1825.54 307.451 2767
1832.15 307.451 2767
1838.77 307.451 2767
1842.05 306.895 2762
1848.66 306.895 2762
1855.26 306.895 2762
1865.24 307.451 2767
1871.85 307.451 2767
1878.47 307.451 2767
1885.09 307.451 2767
1891.7 307.451 2767
1898.32 307.451 2767
1904.94 307.451 2767
1911.55 307.451 2767
1918.17 307.451 2767
1921.31 306.895 2762
1927.91 306.895 2762
1934.52 306.895 2762
1941.12 306.895 2762
1947.73 306.895 2762
1954.33 306.895 2762
1964.49 307.451 2767
1971.1 307.451 2767
1977.72 307.451 2767
1980.75 306.895 2762
1987.36 306.895 2762
1990.35 306.34 2757
1994.05 305.895 2753
1997 305.34 2748
2000.65 304.895 2744
2007.21 304.895 2744
2010.11 304.34 2739
2013.71 303.895 2735
2020.25 303.895 2735
2026.79 303.895 2735
2029.61 303.34 2730
2042.86 304.34 2739
2049.41 304.34 2739
2055.96 304.34 2739
2055.73 303.34 2730
2042.62 300.451 2704
2061.96 302.34 2721
2085.96 304.895 2744
2092.52 304.895 2744
2099.08 304.895 2744
-2127.88 322.592 2842
-2124.81 323.16 2847
-2121.72 323.728 2852
-2114.9 323.728 2852
-2111.78 324.295 2857
-2118.94 326.452 2876
-2112.07 326.452 2876
-2105.19 326.452 2876
-2098.31 326.452 2876
-2084.16 325.317 2866
-2077.31 325.317 2866
-2067.57 324.863 2862
-2060.72 324.863 2862
-2050.29 324.295 2857
-2043.46 324.295 2857
-2029.5 323.16 2847
-2026.24 323.728 2852
-2022.96 324.295 2857
-2019.66 324.863 2862
-2012.82 324.863 2862
-2005.97 324.863 2862
-1999.13 324.863 2862
-1995.07 325.317 2866
-1988.21 325.317 2866
-1988.27 326.452 2876
-1984.84 327.019 2881
-1977.95 327.019 2881
-1971.06 327.019 2881
-1964.17 327.019 2881
-1940.98 324.295 2857
-1947.01 326.452 2876
-1940.13 326.452 2876
-1939.98 327.587 2886
-1933.08 327.587 2886
-1932.85 328.722 2896
-1925.92 328.722 2896
-1932.91 331.106 2917
-1942.44 333.943 2942
-1959.75 338.143 2979
-1952.63 338.143 2979
-1948.77 338.711 2984
-1952.04 340.527 3000
-1944.87 340.527 3000
-1937.7 340.527 3000
-1937.6 341.775 3011
-1930.4 341.775 3011
-1923.2 341.775 3011
-1912.82 341.208 3006
-1905.63 341.208 3006
-1891.49 339.959 2995
-1884.33 339.959 2995
-1956.87 368.45 3246
-1949.11 368.45 3246
-1941.34 368.45 3246
-1940.73 369.812 3258
-1944.8 372.082 3278
-1936.97 372.082 3278
-1999.75 385.703 3398
-1991.62 385.703 3398
-1999.84 388.882 3426
-1991.65 388.882 3426
-1983.46 388.882 3426
-1975.26 388.882 3426
-1991.18 393.649 3468
-1982.89 393.649 3468
-1979.15 394.557 3476
-1970.84 394.557 3476
-1962.53 394.557 3476
-1954.22 394.557 3476
-1945.91 394.557 3476
-1929.23 392.854 3461
-1920.96 392.854 3461
-1908.81 392.06 3454
-1908.25 393.649 3468
-1912.01 396.146 3490
-1907.49 396.941 3497
-1899.12 396.941 3497
-1898.87 398.643 3512
-1894.78 399.551 3520
-1890.11 400.346 3527
-1881.68 400.346 3527
-1881.21 402.049 3542
-1872.74 402.049 3542
-1867.96 402.843 3549
-1859.47 402.843 3549
-1862.98 405.454 3572
-1862.74 407.27 3588
-1874.32 411.697 3627
-1865.64 411.697 3627
-1872.84 415.216 3658
-1868.68 416.237 3667
-1859.91 416.237 3667
-1851.14 416.237 3667
-1854.43 418.962 3691
-1845.61 418.962 3691
-1840.76 419.87 3699
-1831.92 419.87 3699
-1827.01 420.778 3707
-1830.41 423.615 3732
-1833.69 426.453 3757
-1824.7 426.453 3757
-1823.94 428.383 3774
-1819.24 429.404 3783
-1830.77 434.285 3826
-1821.62 434.285 3826
-1846.58 442.458 3898
-1845.74 444.501 3916
-1836.38 444.501 3916
-1827.01 444.501 3916
-1817.65 444.501 3916
-1795.82 441.436 3889
-1786.52 441.436 3889
-1768.99 439.393 3871
-1759.73 439.393 3871
-1762.69 442.458 3898
-1770.01 446.658 3935
-1760.6 446.658 3935
-1751.19 446.658 3935
-1741.78 446.658 3935
-1732.37 446.658 3935
-1702.82 441.436 3889
-1651.28 430.426 3792
-1616.23 423.615 3732
-1582.75 417.145 3675
-1573.97 417.145 3675
-1544.73 411.697 3627
-1525.9 408.973 3603
-1501.28 404.659 3565
-1492.75 404.659 3565
-1465.49 399.551 3520
-1435.55 393.649 3468
-1407.09 388.087 3419
-1398.92 388.087 3419
-1379.35 384.909 3391
-1374.07 385.703 3398
-1365.95 385.703 3398
-1357.82 385.703 3398
-1344.13 384.114 3384
-1327.75 381.731 3363
-1309.51 378.779 3337
-1288.27 374.92 3303
-1280.37 374.92 3303
-1260.14 371.288 3271
-1235.47 366.293 3227
-1220.53 364.137 3208
-1212.86 364.137 3208
-1191.66 360.05 3172
-1177.36 358.007 3154
-1163.14 355.964 3136
-1155.64 355.964 3136
-1129.1 350.062 3084
-1121.73 350.062 3084
-1116.16 350.629 3089
-1115.23 352.672 3107
-1107.8 352.672 3107
-1100.37 352.672 3107
-1092.94 352.672 3107
-1085.51 352.672 3107
-1078.08 352.672 3107
-1060.66 349.381 3078
-1049.54 348.132 3067
-1036.43 346.202 3050
-1029.13 346.202 3050
-1019.83 345.521 3044
-1008.89 344.273 3033
-998.005 343.024 3022
-990.778 343.024 3022
-974.764 339.959 2995
-967.602 339.959 2995
-960.44 339.959 2995
-953.278 339.959 2995
-906.462 341.208 3006
-907.351 344.273 3033
-900.098 344.273 3033
-894.612 344.954 3039
-887.344 344.954 3039
-880.077 344.954 3039
-872.81 344.954 3039
-860.701 343.024 3022
-845.849 339.959 2995
-838.687 339.959 2995
-824.029 336.895 2968
-814.179 335.759 2958
-805.741 335.192 2953
-794.352 333.376 2937
-787.329 333.376 2937
-780.306 333.376 2937
-774.599 333.943 2942
-767.564 333.943 2942
-760.529 333.943 2942
-753.494 333.943 2942
-743.921 332.808 2932
-735.653 332.241 2927
-728.654 332.241 2927
-720.422 331.673 2922
-710.749 330.425 2911
-702.579 329.857 2906
-695.629 329.857 2906
-686.31 328.722 2896
-679.385 328.722 2896
-673.621 329.289 2901
-670.361 331.106 2917
-663.385 331.106 2917
-658.66 332.241 2927
-653.887 333.376 2937
-652.591 336.327 2963
-645.505 336.327 2963
-639.497 336.895 2968
-637.087 339.392 2990
-632.044 340.527 3000
-624.87 340.527 3000
-624.491 344.273 3033
-624.157 348.132 3067
-619.035 349.381 3078
-611.675 349.381 3078
-608.83 351.991 3101
-603.548 353.24 3112
-600.704 355.964 3136
-593.205 355.964 3136
-586.826 356.645 3142
-582.631 358.688 3160
-577.259 360.05 3172
-569.673 360.05 3172
-562.088 360.05 3172
-555.552 360.731 3178
-552.09 363.456 3202
-544.433 363.456 3202
-537.782 364.137 3208
-533.251 366.293 3227
-528.628 368.45 3246
-520.866 368.45 3246
-513.104 368.45 3246
-516.309 421.799 3716
-513.022 426.453 3757
-504.038 426.453 3757
-495.054 426.453 3757
-515.179 451.993 3982
-509.213 455.171 4010
-499.624 455.171 4010
-494.8 459.598 4049
-485.118 459.598 4049
-475.436 459.598 4049
-464.603 458.463 4039
-454.945 458.463 4039
-443.191 456.306 4020
-433.578 456.306 4020
-423.965 456.306 4020
-414.352 456.306 4020
-402.826 454.149 4001
-393.259 454.149 4001
-383.691 454.149 4001
-370.57 449.836 3963
-360.182 448.701 3953
-350.729 448.701 3953
-341.277 448.701 3953
-331.824 448.701 3953
-322.371 448.701 3953
-312.206 447.679 3944
-302.774 447.679 3944
-291.261 444.501 3916
-279.305 440.415 3880
-268.774 438.372 3862
-259.539 438.372 3862
-249.137 436.328 3844
-238.322 433.377 3818
-227.091 429.404 3783
-217.064 427.475 3766
-208.059 427.475 3766
-198.577 426.453 3757
-189.593 426.453 3757
-180.609 426.453 3757
-171.625 426.453 3757
-162.641 426.453 3757
-153.657 426.453 3757
-144.673 426.453 3757
-135.689 426.453 3757
-72.4074 243.704 2147
-67.2732 243.704 2147
-62.5443 245.293 2161
-57.5891 246.201 2169
-52.4024 246.201 2169
-47.3462 246.882 2175
-42.1452 246.882 2175
-36.9441 246.882 2175
-31.6554 246.201 2169
-26.4077 245.633 2164
-21.2035 245.293 2161
-16.0359 245.293 2161
-10.8381 244.612 2155
-5.67162 244.044 2150
-0.530322 244.044 2150
4.61098 244.044 2150
9.75228 244.044 2150
14.8728 243.704 2147
19.979 243.363 2144
25.0474 242.796 2139
30.1624 242.796 2139
35.2774 242.796 2139
40.3357 242.455 2136
45.3797 242.115 2133
50.4804 242.115 2133
55.4507 241.547 2128
60.4541 241.206 2125
65.4431 240.866 2122
70.5174 240.866 2122
75.5918 240.866 2122
80.6661 240.866 2122
85.7405 240.866 2122
90.8148 240.866 2122
95.8891 240.866 2122
100.963 240.866 2122
106.188 241.206 2125
111.269 241.206 2125
116.351 241.206 2125
121.261 240.866 2122
126.335 240.866 2122
131.595 241.206 2125
136.677 241.206 2125
141.758 241.206 2125
147.255 241.888 2131
152.493 242.115 2133
157.594 242.115 2133
162.695 242.115 2133
167.795 242.115 2133
172.896 242.115 2133
177.997 242.115 2133
183.097 242.115 2133
188.198 242.115 2133
193.299 242.115 2133
198.399 242.115 2133
203.309 241.888 2131
208.405 241.888 2131
213.701 242.115 2133
218.802 242.115 2133
223.902 242.115 2133
230.184 243.363 2144
235.311 243.363 2144
241.111 244.044 2150
246.252 244.044 2150
251.393 244.044 2150
254.506 242.115 2133
259.607 242.115 2133
441.674 344.273 3033
448.927 344.273 3033
456.18 344.273 3033
462.669 343.705 3028
469.909 343.705 3028
475.417 342.456 3017
480.872 341.208 3006
483.676 338.143 2979
490.8 338.143 2979
496.085 336.895 2968
503.182 336.895 2968
511.311 337.576 2974
518.423 337.576 2974
525.535 337.576 2974
532.647 337.576 2974
539.758 337.576 2974
545.767 336.895 2968
552.864 336.895 2968
557.132 335.192 2953
563.047 334.511 2947
569.127 333.943 2942
576.162 333.943 2942
583.197 333.943 2942
589.229 333.376 2937
596.252 333.376 2937
603.276 333.376 2937
610.299 333.376 2937
617.322 333.376 2937
623.283 332.808 2932
630.294 332.808 2932
637.305 332.808 2932
643.218 332.241 2927
649.106 331.673 2922
656.094 331.673 2922
663.081 331.673 2922
668.922 331.106 2917
677.056 331.673 2922
684.043 331.673 2922
691.031 331.673 2922
698.018 331.673 2922
705.005 331.673 2922
710.774 331.106 2917
717.75 331.106 2917
724.725 331.106 2917
731.701 331.106 2917
738.676 331.106 2917
745.652 331.106 2917
752.627 331.106 2917
759.602 331.106 2917
766.578 331.106 2917
773.553 331.106 2917
780.529 331.106 2917
787.504 331.106 2917
794.48 331.106 2917
801.455 331.106 2917
808.43 331.106 2917
815.406 331.106 2917
820.69 330.425 2911
827.651 330.425 2911
834.612 330.425 2911
838.682 329.289 2901
844.162 328.722 2896
851.087 328.722 2896
858.012 328.722 2896
864.937 328.722 2896
870.357 328.154 2891
877.271 328.154 2891
884.184 328.154 2891
891.097 328.154 2891
906.087 331.106 2917
913.062 331.106 2917
956.624 344.273 3033
963.877 344.273 3033
973.051 344.954 3039
989.351 348.132 3067
1002.21 350.062 3084
1009.58 350.062 3084
1016.96 350.062 3084
1172.01 392.06 3454
1207.6 401.141 3534
1216.05 401.141 3534
1267.47 415.216 3658
1282.15 417.145 3675
1290.94 417.145 3675
1299.72 417.145 3675
1305.66 416.237 3667
1314.43 416.237 3667
1328.97 418.053 3683
1349.77 421.799 3716
1358.65 421.799 3716
1379.68 425.545 3749
1391.61 426.453 3757
1400.6 426.453 3757
1409.58 426.453 3757
1415.54 425.545 3749
1421.09 424.523 3740
1430.03 424.523 3740
1432.82 422.707 3724
1425.85 418.053 3683
1431.54 417.145 3675
1440.33 417.145 3675
1442.42 415.216 3658
1435.69 410.789 3619
1431.97 407.27 3588
1428.11 403.751 3557
1436.61 403.751 3557
1415.06 395.352 3483
1397.23 388.087 3419
1379.92 381.05 3357
1387.95 381.05 3357
1387.66 378.779 3337
1375.98 373.444 3290
1373.33 370.607 3265
1373.1 368.45 3246
1391.5 371.288 3271
1399.32 371.288 3271
1415.32 373.444 3290
1426.21 374.239 3297
1442.8 376.509 3317
1450.73 376.509 3317
1473.17 380.255 3350
1490.03 382.525 3370
1501.2 383.32 3377
1509.27 383.32 3377
1517.35 383.32 3377
1525.42 383.32 3377
1533.5 383.32 3377
1541.57 383.32 3377
1549.65 383.32 3377
1557.73 383.32 3377
1565.8 383.32 3377
1536.59 374.239 3297
1502.78 364.137 3208
1490.68 359.369 3166
1472.7 353.24 3112
1480.14 353.24 3112
1463.2 347.451 3061
1441.22 340.527 3000
1425.7 335.192 2953
1415.29 331.106 2917
1422.27 331.106 2917
1421.4 329.289 2901
1418.49 327.019 2881
1425.38 327.019 2881
1432.27 327.019 2881
1436.66 326.452 2876
1443.54 326.452 2876
1443.36 324.863 2862
1450.2 324.863 2862
1457.05 324.863 2862
1463.89 324.863 2862
1470.73 324.863 2862
1477.58 324.863 2862
1479.24 323.728 2852
1486.06 323.728 2852
1492.88 323.728 2852
1499.7 323.728 2852
1506.52 323.728 2852
1513.34 323.728 2852
1514.83 322.592 2842
1521.62 322.592 2842
1528.42 322.592 2842
1532.51 322.025 2837
1536.58 321.457 2832
1541.18 321.003 2828
1547.94 321.003 2828
1551.95 320.436 2823
1558.7 320.436 2823
1562.68 319.868 2818
1569.42 319.868 2818
1573.36 319.301 2813
1580.09 319.301 2813
1586.82 319.301 2813
1593.54 319.301 2813
1600.27 319.301 2813
1607 319.301 2813
1613.72 319.301 2813
1620.45 319.301 2813
1627.18 319.301 2813
1631.58 318.847 2809
1640.63 319.301 2813
1647.36 319.301 2813
1657.02 319.868 2818
1663.76 319.868 2818
1670.5 319.868 2818
1680.22 320.436 2823
1689.95 321.003 2828
1699.12 321.457 2832
1705.89 321.457 2832
1712.66 321.457 2832
1719.43 321.457 2832
1726.2 321.457 2832
1732.98 321.457 2832
1734.22 320.436 2823
1737.89 319.868 2818
1744.63 319.868 2818
1745.77 318.847 2809
1752.49 318.847 2809
1756.07 318.279 2804
1762.78 318.279 2804
1766.33 317.712 2799
1769.86 317.144 2794
1773.99 316.69 2790
1780.67 316.69 2790
1784.13 316.122 2785
1787.58 315.555 2780
1794.23 315.555 2780
1795.04 314.533 2771
1801.67 314.533 2771
1808.3 314.533 2771
1812.3 314.079 2767
1815.63 313.512 2762
1825.54 314.079 2767
1832.15 314.079 2767
1838.77 314.079 2767
1842.05 313.512 2762
1848.66 313.512 2762
1855.26 313.512 2762
1865.24 314.079 2767
1871.85 314.079 2767
1878.47 314.079 2767
1885.09 314.079 2767
1891.7 314.079 2767
1898.32 314.079 2767
1904.94 314.079 2767
1911.55 314.079 2767
1918.17 314.079 2767
1921.31 313.512 2762
1927.91 313.512 2762
1934.52 313.512 2762
1941.12 313.512 2762
1947.73 313.512 2762
1954.33 313.512 2762
1964.49 314.079 2767
1971.1 314.079 2767
1977.72 314.079 2767
1980.75 313.512 2762
1987.36 313.512 2762
1990.35 312.944 2757
1994.05 312.49 2753
1997 311.923 2748
2000.65 311.469 2744
2007.21 311.469 2744
2010.11 310.901 2739
2013.71 310.447 2735
2020.25 310.447 2735
2026.79 310.447 2735
2029.61 309.879 2730
2042.86 310.901 2739
2049.41 310.901 2739
2055.96 310.901 2739
2055.73 309.879 2730
2042.62 306.928 2704
2061.96 308.858 2721
2085.96 311.469 2744
2092.52 311.469 2744
2099.08 311.469 2744
-2127.88 329.4 2842
-2124.81 329.98 2847
-2121.72 330.56 2852
-2114.9 330.56 2852
-2111.78 331.139 2857
-2118.94 333.341 2876
-2112.07 333.341 2876
-2105.19 333.341 2876
-2098.31 333.341 2876
-2084.16 332.182 2866
-2077.31 332.182 2866
-2067.57 331.719 2862
-2060.72 331.719 2862
-2050.29 331.139 2857
-2043.46 331.139 2857
-2029.5 329.98 2847
-2026.24 330.56 2852
-2022.96 331.139 2857
-2019.66 331.719 2862
-2012.82 331.719 2862
-2005.97 331.719 2862
-1999.13 331.719 2862
-1995.07 332.182 2866
-1988.21 332.182 2866
-1988.27 333.341 2876
-1984.84 333.921 2881
-1977.95 333.921 2881
-1971.06 333.921 2881
-1964.17 333.921 2881
-1940.98 331.139 2857
-1947.01 333.341 2876
-1940.13 333.341 2876
-1939.98 334.5 2886
-1933.08 334.5 2886
-1932.85 335.659 2896
-1925.92 335.659 2896
-1932.91 338.093 2917
-1942.44 340.991 2942
-1959.75 345.279 2979
-1952.63 345.279 2979
-1948.77 345.859 2984
-1952.04 347.713 3000
-1944.87 347.713 3000
-1937.7 347.713 3000
-1937.6 348.988 3011
-1930.4 348.988 3011
-1923.2 348.988 3011
-1912.82 348.409 3006
-1905.63 348.409 3006
-1898.44 348.409 3006
-1891.25 348.409 3006
-1884.06 348.409 3006
-1956.87 376.226 3246
-1949.11 376.226 3246
-1941.34 376.226 3246
-1940.73 377.617 3258
-1944.8 379.935 3278
-1936.97 379.935 3278
-1999.75 393.843 3398
-1991.62 393.843 3398
-1999.84 397.089 3426
-1991.65 397.089 3426
-1983.46 397.089 3426
-1975.26 397.089 3426
-1991.18 401.957 3468
-1982.89 401.957 3468
-1979.15 402.884 3476
-1970.84 402.884 3476
-1962.53 402.884 3476
-1954.22 402.884 3476
-1945.91 402.884 3476
-1929.23 401.145 3461
-1920.96 401.145 3461
-1908.81 400.334 3454
-1908.25 401.957 3468
-1912.01 404.507 3490
-1907.49 405.318 3497
-1899.12 405.318 3497
-1898.87 407.056 3512
-1894.78 407.984 3520
-1890.11 408.795 3527
-1881.68 408.795 3527
-1881.21 410.534 3542
-1872.74 410.534 3542
-1867.96 411.345 3549
-1859.47 411.345 3549
-1862.98 414.011 3572
-1862.74 415.865 3588
-1874.32 420.385 3627
-1865.64 420.385 3627
-1872.84 423.978 3658
-1868.68 425.022 3667
-1859.91 425.022 3667
-1851.14 425.022 3667
-1858.45 428.731 3699
-1849.61 428.731 3699
-1844.74 429.658 3707
-1835.88 429.658 3707
-1827.01 429.658 3707
-1834.33 433.483 3740
-1833.69 435.453 3757
-1824.7 435.453 3757
-1823.94 437.423 3774
-1819.24 438.467 3783
-1830.77 443.45 3826
-1821.62 443.45 3826
-1846.58 451.796 3898
-1845.74 453.882 3916
-1836.38 453.882 3916
-1827.01 453.882 3916
-1817.65 453.882 3916
-1795.82 450.752 3889
-1786.52 450.752 3889
-1768.99 448.666 3871
-1759.73 448.666 3871
-1762.69 451.796 3898
-1770.01 456.084 3935
-1760.6 456.084 3935
-1751.19 456.084 3935
-1741.78 456.084 3935
-1732.37 456.084 3935
-1702.82 450.752 3889
-1651.28 439.51 3792
-1616.23 432.555 3732
-1582.75 425.949 3675
-1573.97 425.949 3675
-1544.73 420.385 3627
-1529.28 418.531 3611
-1510.96 415.865 3588
-1502.38 415.865 3588
-1471.32 409.606 3534
-1450.87 406.245 3505
-1418.62 399.523 3447
-1410.37 399.523 3447
-1390.74 396.277 3419
-1382.56 396.277 3419
-1368.76 394.655 3405
-1360.62 394.655 3405
-1349.7 393.843 3398
-1327.75 389.787 3363
-1309.51 386.773 3337
-1288.27 382.832 3303
-1280.37 382.832 3303
-1262.84 379.935 3278
-1235.47 374.024 3227
-1220.53 371.821 3208
-1212.86 371.821 3208
-1191.66 367.649 3172
-1177.36 365.563 3154
-1165.36 364.172 3142
-1157.85 364.172 3142
-1130.93 358.029 3089
-1123.55 358.029 3089
-1118.33 358.724 3095
-1117.03 360.695 3112
-1109.59 360.695 3112
-1102.14 360.695 3112
-1094.7 360.695 3112
-1087.26 360.695 3112
-1078.08 360.115 3107
-1062.73 357.449 3084
-1051.25 356.058 3072
-1038.12 354.088 3055
-1030.82 354.088 3055
-1019.83 352.813 3044
-1008.89 351.538 3033
-998.005 350.263 3022
-990.778 350.263 3022
-974.764 347.134 2995
-967.602 347.134 2995
-960.44 347.134 2995
-953.278 347.134 2995
-906.462 348.409 3006
-907.351 351.538 3033
-900.098 351.538 3033
-894.612 352.234 3039
-887.344 352.234 3039
-880.077 352.234 3039
-872.81 352.234 3039
-860.701 350.263 3022
-845.849 347.134 2995
-838.687 347.134 2995
-824.029 344.004 2968
-814.179 342.845 2958
-805.741 342.266 2953
-794.352 340.411 2937
-787.329 340.411 2937
-780.306 340.411 2937
-774.599 340.991 2942
-767.564 340.991 2942
-760.529 340.991 2942
-753.494 340.991 2942
-745.19 340.411 2937
-735.653 339.252 2927
-728.654 339.252 2927
-721.654 339.252 2927
-713.434 338.673 2922
-703.787 337.398 2911
-696.826 337.398 2911
-688.68 336.818 2906
-680.558 336.239 2901
-674.782 336.818 2906
-672.659 339.252 2927
-665.66 339.252 2927
-660.911 340.411 2937
-658.563 342.845 2958
-655.013 344.7 2974
-647.901 344.7 2974
-641.867 345.279 2979
-640.496 348.409 3006
-637.943 350.959 3028
-630.702 350.959 3028
-629.021 354.088 3055
-625.175 356.058 3072
-620.242 357.449 3084
-612.867 357.449 3084
-608.83 359.42 3101
-603.548 360.695 3112
-600.704 363.476 3136
-593.205 363.476 3136
-586.826 364.172 3142
-582.631 366.258 3160
-577.259 367.649 3172
-569.673 367.649 3172
-562.088 367.649 3172
-555.552 368.344 3178
-552.09 371.126 3202
-544.433 371.126 3202
-537.782 371.821 3208
-533.251 374.024 3227
-528.628 376.226 3246
-520.866 376.226 3246
-513.104 376.226 3246
-517.421 431.628 3724
-513.022 435.453 3757
-505.245 436.496 3766
-496.24 436.496 3766
-515.179 461.532 3982
-509.213 464.777 4010
-499.624 464.777 4010
-494.8 469.297 4049
-485.118 469.297 4049
-475.436 469.297 4049
-464.603 468.138 4039
-454.945 468.138 4039
-443.191 465.936 4020
-433.578 465.936 4020
-423.965 465.936 4020
-414.352 465.936 4020
-402.826 463.734 4001
-393.259 463.734 4001
-383.691 463.734 4001
-366.175 453.882 3916
-355.991 452.839 3907
-346.648 452.839 3907
-338.082 453.882 3916
-328.718 453.882 3916
-319.354 453.882 3916
-309.277 452.839 3907
-299.934 452.839 3907
-289.252 450.752 3889
-278.657 448.666 3871
-268.774 447.623 3862
-259.539 447.623 3862
-249.137 445.537 3844
-238.322 442.523 3818
-227.631 439.51 3792
-217.526 437.423 3774
-208.501 437.423 3774
-199.053 436.496 3766
-189.593 435.453 3757
-179.792 433.483 3740
-171.625 435.453 3757
-162.641 435.453 3757
-153.657 435.453 3757
-144.673 435.453 3757
-135.689 435.453 3757
-125.592 431.628 3724
-67.8059 250.817 2164
-62.9495 252.092 2175
-57.9874 253.135 2184
-52.7648 253.135 2184
-47.651 253.715 2189
-42.4164 253.715 2189
-37.1819 253.715 2189
-31.8743 253.135 2184
-26.5785 252.44 2178
-21.282 251.397 2169
-16.0952 251.397 2169
-10.9085 251.397 2169
-5.70064 250.47 2161
-0.532296 250.122 2158
4.62814 250.122 2158
9.78857 250.122 2158
14.949 250.122 2158
20.0349 249.195 2150
25.1411 248.847 2147
30.2752 248.847 2147
35.3269 248.267 2142
40.3924 247.92 2139
45.4435 247.572 2136
50.5514 247.572 2136
55.581 247.224 2133
60.5394 246.645 2128
65.5356 246.297 2125
70.6171 246.297 2125
75.5918 245.949 2122
80.6661 245.949 2122
85.7405 245.949 2122
90.9432 246.297 2125
96.0247 246.297 2125
101.106 246.297 2125
106.188 246.297 2125
111.269 246.297 2125
116.351 246.297 2125
121.432 246.297 2125
126.514 246.297 2125
131.595 246.297 2125
136.87 246.645 2128
141.959 246.645 2128
147.255 246.992 2131
152.493 247.224 2133
157.594 247.224 2133
162.695 247.224 2133
167.795 247.224 2133
172.896 247.224 2133
177.997 247.224 2133
183.097 247.224 2133
188.463 247.572 2136
193.57 247.572 2136
198.678 247.572 2136
203.786 247.572 2136
208.405 246.992 2131
213.701 247.224 2133
218.802 247.224 2133
223.902 247.224 2133
231.15 249.542 2153
236.299 249.542 2153
241.447 249.542 2153
246.252 249.195 2150
251.393 249.195 2150
440.946 350.959 3028
448.187 350.959 3028
455.428 350.959 3028
460.988 349.684 3017
468.202 349.684 3017
474.471 348.988 3011
479.912 347.713 3000
483.676 345.279 2979
490.8 345.279 2979
497.088 344.7 2974
504.2 344.7 2974
511.311 344.7 2974
519.295 345.279 2979
526.418 345.279 2979
533.542 345.279 2979
538.669 344.004 2968
545.767 344.004 2968
552.864 344.004 2968
557.132 342.266 2953
563.047 341.57 2947
568.159 340.411 2937
575.183 340.411 2937
582.206 340.411 2937
590.232 340.991 2942
597.268 340.991 2942
604.303 340.991 2942
610.299 340.411 2937
617.322 340.411 2937
623.283 339.832 2932
630.294 339.832 2932
637.305 339.832 2932
643.218 339.252 2927
649.106 338.673 2922
656.094 338.673 2922
663.081 338.673 2922
670.068 338.673 2922
677.056 338.673 2922
684.043 338.673 2922
692.213 339.252 2927
699.212 339.252 2927
706.212 339.252 2927
711.993 338.673 2922
718.98 338.673 2922
725.968 338.673 2922
731.701 338.093 2917
738.676 338.093 2917
745.652 338.093 2917
752.627 338.093 2917
759.602 338.093 2917
767.892 338.673 2922
774.879 338.673 2922
781.867 338.673 2922
788.854 338.673 2922
795.841 338.673 2922
802.829 338.673 2922
809.816 338.673 2922
815.406 338.093 2917
822.381 338.093 2917
827.651 337.398 2911
834.612 337.398 2911
840.128 336.818 2906
845.619 336.239 2901
852.556 336.239 2901
859.494 336.239 2901
866.431 336.239 2901
871.863 335.659 2896
878.788 335.659 2896
887.242 336.239 2901
894.179 336.239 2901
906.087 338.093 2917
922.452 341.57 2947
956.624 351.538 3033
963.877 351.538 3033
976.573 353.509 3050
989.351 355.479 3067
1007.73 359.42 3101
1015.15 359.42 3101
1053.89 370.431 3196
1084.45 378.428 3265
1092.26 378.428 3265
1100.07 378.428 3265
1172.01 400.334 3454
1194.96 405.318 3497
1216.05 409.606 3534
1224.5 409.606 3534
1251.79 415.865 3588
1262.83 416.677 3595
1274.26 417.604 3603
1282.88 417.604 3603
1297.23 419.458 3619
1323.2 425.022 3667
1340.69 427.803 3691
1349.51 427.803 3691
1373.43 432.555 3732
1388.65 434.526 3749
1397.61 434.526 3749
1406.58 434.526 3749
1415.54 434.526 3749
1421.09 433.483 3740
1430.03 433.483 3740
1432.82 431.628 3724
1425.85 426.876 3683
1431.54 425.949 3675
1440.33 425.949 3675
1442.42 423.978 3658
1435.69 419.458 3619
1431.97 415.865 3588
1428.11 412.272 3557
1436.61 412.272 3557
1420.74 405.318 3497
1405.81 398.711 3440
1393.9 393.032 3391
1402 393.032 3391
1395.98 389.091 3357
1381.42 382.832 3303
1378.8 379.935 3278
1373.1 376.226 3246
1394.48 379.935 3278
1402.32 379.935 3278
1415.32 381.326 3290
1431.84 383.644 3310
1451.5 386.773 3337
1459.48 386.773 3337
1476.25 389.091 3357
1490.03 390.598 3370
1501.2 391.409 3377
1509.27 391.409 3377
1517.35 391.409 3377
1525.42 391.409 3377
1533.5 391.409 3377
1541.57 391.409 3377
1549.65 391.409 3377
1557.73 391.409 3377
1565.8 391.409 3377
1536.59 382.137 3297
1502.78 371.821 3208
1490.68 366.953 3166
1472.7 360.695 3112
1480.14 360.695 3112
1463.2 354.784 3061
1444.1 348.409 3006
1425.7 342.266 2953
1415.29 338.093 2917
1422.27 338.093 2917
1423.85 336.818 2906
1420.96 334.5 2886
1425.38 333.921 2881
1432.27 333.921 2881
1439.16 333.921 2881
1443.54 333.341 2876
1443.36 331.719 2862
1450.2 331.719 2862
1457.05 331.719 2862
1463.89 331.719 2862
1470.73 331.719 2862
1477.58 331.719 2862
1479.24 330.56 2852
1486.06 330.56 2852
1492.88 330.56 2852
1499.7 330.56 2852
1506.52 330.56 2852
1513.34 330.56 2852
1517.49 329.98 2847
1521.62 329.4 2842
1528.42 329.4 2842
1532.51 328.821 2837
1536.58 328.241 2832
1538.45 327.198 2823
1545.2 327.198 2823
1551.95 327.198 2823
1555.94 326.619 2818
1559.91 326.039 2813
1566.64 326.039 2813
1571.12 325.576 2809
1577.84 325.576 2809
1584.56 325.576 2809
1593.54 326.039 2813
1600.27 326.039 2813
1607 326.039 2813
1613.72 326.039 2813
1618.15 325.576 2809
1624.86 325.576 2809
1631.58 325.576 2809
1638.3 325.576 2809
1645.01 325.576 2809
1654.08 326.039 2813
1660.81 326.039 2813
1670.5 326.619 2818
1677.24 326.619 2818
1686.97 327.198 2823
1696.72 327.778 2828
1703.48 327.778 2828
1712.66 328.241 2832
1719.43 328.241 2832
1726.2 328.241 2832
1732.98 328.241 2832
1734.22 327.198 2823
1737.89 326.619 2818
1744.63 326.619 2818
1745.77 325.576 2809
1749.37 324.996 2804
1756.07 324.996 2804
1762.78 324.996 2804
1766.33 324.417 2799
1769.86 323.837 2794
1773.99 323.373 2790
1780.67 323.373 2790
1784.13 322.794 2785
1787.58 322.214 2780
1794.23 322.214 2780
1798.28 321.751 2776
1804.92 321.751 2776
1808.3 321.171 2771
1812.3 320.708 2767
1815.63 320.128 2762
1822.24 320.128 2762
1828.84 320.128 2762
1835.45 320.128 2762
1842.05 320.128 2762
1848.66 320.128 2762
1855.26 320.128 2762
1865.24 320.708 2767
1871.85 320.708 2767
1878.47 320.708 2767
1885.09 320.708 2767
1891.7 320.708 2767
1898.32 320.708 2767
1904.94 320.708 2767
1911.55 320.708 2767
1918.17 320.708 2767
1917.83 319.549 2757
1927.91 320.128 2762
1934.52 320.128 2762
1941.12 320.128 2762
1947.73 320.128 2762
1957.87 320.708 2767
1964.49 320.708 2767
1971.1 320.708 2767
1977.72 320.708 2767
1984.34 320.708 2767
1990.95 320.708 2767
1993.96 320.128 2762
1996.95 319.549 2757
2000.63 319.085 2753
2000.65 318.042 2744
2007.21 318.042 2744
2010.11 317.462 2739
2013.71 316.999 2735
2020.25 316.999 2735
2029.76 317.462 2739
2036.31 317.462 2739
2046.58 318.042 2744
2053.15 318.042 2744
2059.71 318.042 2744
2055.73 316.419 2730
2055.46 315.376 2721
2099.85 321.171 2771
2106.48 321.171 2771
2113.11 321.171 2771
2119.73 321.171 2771
-2127.88 336.208 2842
-2124.81 336.8 2847
-2121.72 337.391 2852
-2114.9 337.391 2852
-2111.78 337.983 2857
-2118.94 340.231 2876
-2112.07 340.231 2876
-2105.19 340.231 2876
-2098.31 340.231 2876
-2084.16 339.048 2866
-2077.31 339.048 2866
-2067.57 338.574 2862
-2060.72 338.574 2862
-2050.29 337.983 2857
-2043.46 337.983 2857
-2029.5 336.8 2847
-2026.24 337.391 2852
-2022.96 337.983 2857
-2019.66 338.574 2862
-2012.82 338.574 2862
-2005.97 338.574 2862
-1999.13 338.574 2862
-1995.07 339.048 2866
-1988.21 339.048 2866
-1988.27 340.231 2876
-1984.84 340.822 2881
-1977.95 340.822 2881
-1971.06 340.822 2881
-1964.17 340.822 2881
-1940.98 337.983 2857
-1947.01 340.231 2876
-1940.13 340.231 2876
-1936.62 340.822 2881
-1929.73 340.822 2881
-1926.17 341.414 2886
-1919.27 341.414 2886
-1925.62 343.78 2906
-1935.84 346.855 2932
-1938.7 348.63 2947
-1931.65 348.63 2947
-1945.5 352.416 2979
-1941.63 353.007 2984
-1941.63 354.308 2995
-1934.47 354.308 2995
-1930.52 354.9 3000
-1923.35 354.9 3000
-1916.17 354.9 3000
-1905.82 354.308 2995
-1888.51 352.416 2979
-1898.44 355.61 3006
-1891.25 355.61 3006
-1884.06 355.61 3006
-1956.87 384.002 3246
-1949.11 384.002 3246
-1941.34 384.002 3246
-1940.73 385.421 3258
-1944.8 387.787 3278
-1936.97 387.787 3278
-1943.84 390.745 3303
-1940.04 391.573 3310
-1947.89 394.767 3337
-1939.91 394.767 3337
-1931.93 394.767 3337
-1927.41 395.477 3343
-1950.99 401.983 3398
-1942.87 401.983 3398
-1950.68 405.296 3426
-1942.49 405.296 3426
-1934.3 405.296 3426
-1926.11 405.296 3426
-1917.91 405.296 3426
-1909.72 405.296 3426
-1901.53 405.296 3426
-1893.34 405.296 3426
-1896.7 407.78 3447
-1899.96 410.264 3468
-1899.85 412.039 3483
-1891.52 412.039 3483
-1890.76 413.695 3497
-1890.47 415.469 3512
-1890.11 417.244 3527
-1881.68 417.244 3527
-1876.96 418.072 3534
-1872.74 419.018 3542
-1864.27 419.018 3542
-1855.8 419.018 3542
-1862.98 422.567 3572
-1862.74 424.46 3588
-1874.32 429.074 3627
-1865.64 429.074 3627
-1872.84 432.741 3658
-1868.68 433.806 3667
-1859.91 433.806 3667
-1851.14 433.806 3667
-1858.45 437.592 3699
-1849.61 437.592 3699
-1844.74 438.538 3707
-1835.88 438.538 3707
-1827.01 438.538 3707
-1834.33 442.442 3740
-1825.39 442.442 3740
-1816.45 442.442 3740
-1811.85 443.507 3749
-1802.89 443.507 3749
-1822.63 450.605 3809
-1813.53 450.605 3809
-1829.52 456.874 3862
-1833.02 460.069 3889
-1823.72 460.069 3889
-1814.42 460.069 3889
-1805.12 460.069 3889
-1779.19 455.81 3853
-1769.98 455.81 3853
-1752.54 453.68 3835
-1743.37 453.68 3835
-1742.34 455.81 3853
-1749.32 460.069 3889
-1740.02 460.069 3889
-1730.72 460.069 3889
-1721.42 460.069 3889
-1712.12 460.069 3889
-1675.23 452.616 3826
-1647.36 447.529 3783
-1616.23 441.495 3732
-1582.75 434.752 3675
-1573.97 434.752 3675
-1544.73 429.074 3627
-1529.28 427.181 3611
-1510.96 424.46 3588
-1502.38 424.46 3588
-1471.32 418.072 3534
-1450.87 414.641 3505
-1418.62 407.78 3447
-1410.37 407.78 3447
-1390.74 404.468 3419
-1382.56 404.468 3419
-1368.76 402.811 3405
-1360.62 402.811 3405
-1349.7 401.983 3398
-1327.75 397.843 3363
-1309.51 394.767 3337
-1288.27 390.745 3303
-1280.37 390.745 3303
-1262.84 387.787 3278
-1235.47 381.754 3227
-1220.53 379.506 3208
-1212.86 379.506 3208
-1191.66 375.247 3172
-1177.36 373.118 3154
-1165.36 371.698 3142
-1157.85 371.698 3142
-1130.93 365.429 3089
-1123.55 365.429 3089
-1118.33 366.138 3095
-1117.03 368.149 3112
-1109.59 368.149 3112
-1102.14 368.149 3112
-1094.7 368.149 3112
-1087.26 368.149 3112
-1078.08 367.558 3107
-1062.73 364.837 3084
-1051.25 363.417 3072
-1038.12 361.406 3055
-1030.82 361.406 3055
-1019.83 360.105 3044
-1008.89 358.804 3033
-990.739 354.9 3000
-983.566 354.9 3000
-974.764 354.308 2995
-967.602 354.308 2995
-960.44 354.308 2995
-953.278 354.308 2995
-895.003 351.114 2968
-895.983 354.308 2995
-888.821 354.308 2995
-889.607 357.502 3022
-882.381 357.502 3022
-875.154 357.502 3022
-867.928 357.502 3022
-851.587 353.717 2990
-838.224 351.114 2968
-831.126 351.114 2968
-821.253 349.931 2958
-807.023 346.855 2932
-800.011 346.855 2932
-791.648 346.264 2927
-784.648 346.264 2927
-777.649 346.264 2927
-773.283 347.447 2937
-766.259 347.447 2937
-759.236 347.447 2937
-752.213 347.447 2937
-745.19 347.447 2937
-735.653 346.264 2927
-728.654 346.264 2927
-721.654 346.264 2927
-713.434 345.672 2922
-703.787 344.371 2911
-696.826 344.371 2911
-688.68 343.78 2906
-680.558 343.188 2901
-674.782 343.78 2906
-672.659 346.264 2927
-665.66 346.264 2927
-660.911 347.447 2937
-658.563 349.931 2958
-655.013 351.824 2974
-647.901 351.824 2974
-641.867 352.416 2979
-640.496 355.61 3006
-637.943 358.212 3028
-630.702 358.212 3028
-629.021 361.406 3055
-625.175 363.417 3072
-620.242 364.837 3084
-612.867 364.837 3084
-608.83 366.848 3101
-603.548 368.149 3112
-600.704 370.989 3136
-593.205 370.989 3136
-586.826 371.698 3142
-581.525 373.118 3154
-573.983 373.118 3154
-566.441 373.118 3154
-559.962 373.828 3160
-554.503 375.247 3172
-547.952 375.957 3178
-540.353 375.957 3178
-535.771 378.087 3196
-530.111 379.506 3208
-527.488 383.174 3239
-519.743 383.174 3239
-511.997 383.174 3239
-517.421 440.549 3724
-513.022 444.453 3757
-505.245 445.518 3766
-496.24 445.518 3766
-499.654 456.874 3862
-504.387 469.887 3972
-496.135 471.07 3982
-486.613 471.07 3982
-477.091 471.07 3982
-467.568 471.07 3982
-458.046 471.07 3982
-448.524 471.07 3982
-437.9 469.887 3972
-428.401 469.887 3972
-418.903 469.887 3972
-408.477 468.823 3963
-397.087 466.575 3944
-387.656 466.575 3944
-378.225 466.575 3944
-366.175 463.263 3916
-355.991 462.198 3907
-346.648 462.198 3907
-338.082 463.263 3916
-328.718 463.263 3916
-319.354 463.263 3916
-309.277 462.198 3907
-299.934 462.198 3907
-289.922 461.133 3898
-279.305 459.004 3880
-268.774 456.874 3862
-259.539 456.874 3862
-249.72 455.81 3853
-238.322 451.669 3818
-227.631 448.593 3792
-218.044 447.529 3783
-208.998 447.529 3783
-199.476 446.464 3774
-190.048 445.518 3766
-179.792 442.442 3740
-171.625 444.453 3757
-162.641 444.453 3757
-153.657 444.453 3757
-144.673 444.453 3757
-135.689 444.453 3757
-125.592 440.549 3724
-68.0566 256.948 2172
-63.3547 258.959 2189
-58.6777 261.443 2210
-53.3929 261.443 2210
-48.217 262.034 2215
-42.9202 262.034 2215
-37.6235 262.034 2215
-32.21 261.088 2207
-26.8226 260.023 2198
-21.5076 259.314 2192
-16.2659 259.314 2192
-10.9839 258.367 2184
-5.73757 257.302 2175
-0.535749 256.948 2172
4.65816 256.948 2172
9.85207 256.948 2172
14.9906 256.001 2164
20.1374 255.646 2161
25.2113 254.7 2153
30.3598 254.7 2153
35.4093 253.99 2147
40.4868 253.635 2144
45.5074 253.044 2139
50.6224 253.044 2139
55.6592 252.689 2136
60.6817 252.334 2133
65.6281 251.742 2128
70.7168 251.742 2128
75.8055 251.742 2128
80.7802 251.387 2125
85.8617 251.387 2125
91.0716 251.742 2128
96.1603 251.742 2128
101.249 251.742 2128
106.338 251.742 2128
111.426 251.742 2128
116.515 251.742 2128
121.432 251.387 2125
126.692 251.742 2128
131.781 251.742 2128
136.87 251.742 2128
141.959 251.742 2128
147.255 252.097 2131
152.493 252.334 2133
157.816 252.689 2136
162.923 252.689 2136
168.031 252.689 2136
172.896 252.334 2133
177.997 252.334 2133
183.097 252.334 2133
188.727 253.044 2139
193.842 253.044 2139
198.957 253.044 2139
204.072 253.044 2139
208.6 252.334 2133
214.002 252.689 2136
219.417 253.044 2139
224.532 253.044 2139
231.15 254.7 2153
236.299 254.7 2153
241.447 254.7 2153
246.252 254.345 2150
251.393 254.345 2150
440.946 358.212 3028
448.187 358.212 3028
455.428 358.212 3028
460.988 356.911 3017
468.202 356.911 3017
474.471 356.201 3011
479.912 354.9 3000
483.676 352.416 2979
490.8 352.416 2979
497.088 351.824 2974
504.2 351.824 2974
511.311 351.824 2974
519.295 352.416 2979
526.418 352.416 2979
533.542 352.416 2979
538.669 351.114 2968
545.767 351.114 2968
552.864 351.114 2968
557.132 349.34 2953
563.047 348.63 2947
569.127 348.038 2942
576.162 348.038 2942
583.197 348.038 2942
590.232 348.038 2942
597.268 348.038 2942
604.303 348.038 2942
611.338 348.038 2942
618.373 348.038 2942
624.345 347.447 2937
631.369 347.447 2937
637.305 346.855 2932
644.316 346.855 2932
650.217 346.264 2927
656.094 345.672 2922
663.081 345.672 2922
670.068 345.672 2922
678.214 346.264 2927
685.214 346.264 2927
692.213 346.264 2927
699.212 346.264 2927
706.212 346.264 2927
713.211 346.264 2927
720.21 346.264 2927
727.21 346.264 2927
732.955 345.672 2922
739.942 345.672 2922
746.93 345.672 2922
753.917 345.672 2922
760.904 345.672 2922
767.892 345.672 2922
774.879 345.672 2922
781.867 345.672 2922
788.854 345.672 2922
795.841 345.672 2922
802.829 345.672 2922
809.816 345.672 2922
816.804 345.672 2922
823.791 345.672 2922
829.357 345.081 2917
836.332 345.081 2917
841.573 344.371 2911
848.534 344.371 2911
852.556 343.188 2901
859.494 343.188 2901
866.431 343.188 2901
873.368 343.188 2901
880.305 343.188 2901
890.301 344.371 2911
897.262 344.371 2911
906.087 345.081 2917
922.452 348.63 2947
956.624 358.804 3033
963.877 358.804 3033
980.095 362.116 3061
994.834 364.837 3084
1009.68 367.558 3107
1017.11 367.558 3107
1053.89 378.087 3196
1084.45 386.249 3265
1092.26 386.249 3265
1100.07 386.249 3265
1172.01 408.608 3454
1194.96 413.695 3497
1216.05 418.072 3534
1224.5 418.072 3534
1251.79 424.46 3588
1262.83 425.288 3595
1274.26 426.235 3603
1282.88 426.235 3603
1297.23 428.128 3619
1323.2 433.806 3667
1340.69 436.645 3691
1349.51 436.645 3691
1373.43 441.495 3732
1388.65 443.507 3749
1397.61 443.507 3749
1406.58 443.507 3749
1415.54 443.507 3749
1421.09 442.442 3740
1430.03 442.442 3740
1432.82 440.549 3724
1425.85 435.699 3683
1431.54 434.752 3675
1440.33 434.752 3675
1442.42 432.741 3658
1435.69 428.128 3619
1431.97 424.46 3588
1428.11 420.793 3557
1436.61 420.793 3557
1420.74 413.695 3497
1405.81 406.952 3440
1393.9 401.155 3391
1402 401.155 3391
1395.98 397.133 3357
1381.42 390.745 3303
1378.8 387.787 3278
1375.64 384.711 3252
1397.03 388.497 3284
1404.88 388.497 3284
1415.32 389.207 3290
1431.84 391.573 3310
1451.5 394.767 3337
1459.48 394.767 3337
1476.25 397.133 3357
1490.03 398.671 3370
1501.2 399.499 3377
1509.27 399.499 3377
1517.35 399.499 3377
1525.42 399.499 3377
1533.5 399.499 3377
1541.57 399.499 3377
1549.65 399.499 3377
1557.73 399.499 3377
1565.8 399.499 3377
1536.59 390.035 3297
1502.78 379.506 3208
1490.68 374.538 3166
1472.7 368.149 3112
1480.14 368.149 3112
1463.2 362.116 3061
1444.1 355.61 3006
1425.7 349.34 2953
1417.72 345.672 2922
1424.71 345.672 2922
1426.3 344.371 2911
1423.42 342.005 2891
1425.38 340.822 2881
1432.27 340.822 2881
1439.16 340.822 2881
1443.54 340.231 2876
1443.36 338.574 2862
1450.2 338.574 2862
1457.05 338.574 2862
1463.89 338.574 2862
1470.73 338.574 2862
1477.58 338.574 2862
1479.24 337.391 2852
1486.06 337.391 2852
1492.88 337.391 2852
1499.7 337.391 2852
1506.52 337.391 2852
1513.34 337.391 2852
1517.49 336.8 2847
1521.62 336.208 2842
1528.42 336.208 2842
1532.51 335.617 2837
1536.58 335.025 2832
1538.45 333.961 2823
1545.2 333.961 2823
1551.95 333.961 2823
1555.94 333.369 2818
1559.91 332.778 2813
1566.64 332.778 2813
1571.12 332.305 2809
1577.84 332.305 2809
1584.56 332.305 2809
1593.54 332.778 2813
1600.27 332.778 2813
1607 332.778 2813
1613.72 332.778 2813
1618.15 332.305 2809
1624.86 332.305 2809
1631.58 332.305 2809
1638.3 332.305 2809
1645.01 332.305 2809
1654.08 332.778 2813
1660.81 332.778 2813
1670.5 333.369 2818
1677.24 333.369 2818
1686.97 333.961 2823
1696.72 334.552 2828
1703.48 334.552 2828
1712.66 335.025 2832
1719.43 335.025 2832
1726.2 335.025 2832
1732.98 335.025 2832
1734.22 333.961 2823
1737.89 333.369 2818
1744.63 333.369 2818
1745.77 332.305 2809
1749.37 331.713 2804
1756.07 331.713 2804
1762.78 331.713 2804
1766.33 331.122 2799
1769.86 330.53 2794
1770.81 329.465 2785
1777.47 329.465 2785
1780.93 328.874 2780
1787.58 328.874 2780
1794.23 328.874 2780
1798.28 328.401 2776
1804.92 328.401 2776
1808.3 327.809 2771
1814.92 327.809 2771
1815.63 326.744 2762
1822.24 326.744 2762
1828.84 326.744 2762
1835.45 326.744 2762
1842.05 326.744 2762
1848.66 326.744 2762
1855.26 326.744 2762
1861.87 326.744 2762
1868.47 326.744 2762
1875.08 326.744 2762
1885.09 327.336 2767
1891.7 327.336 2767
1898.32 327.336 2767
1901.5 326.744 2762
1908.1 326.744 2762
1914.7 326.744 2762
1917.83 326.153 2757
1927.91 326.744 2762
1934.52 326.744 2762
1941.12 326.744 2762
1947.73 326.744 2762
1957.87 327.336 2767
1967.33 327.809 2771
1973.95 327.809 2771
1980.58 327.809 2771
1987.21 327.809 2771
1993.83 327.809 2771
1997.57 327.336 2767
2000.57 326.744 2762
2000.63 325.68 2753
2000.65 324.615 2744
2007.21 324.615 2744
2013.78 324.615 2744
2016.66 324.024 2739
2023.21 324.024 2739
2040.13 325.68 2753
2046.71 325.68 2753
2053.3 325.68 2753
2059.88 325.68 2753
2066.46 325.68 2753
2062.5 324.024 2739
2059.23 322.486 2726
2099.85 327.809 2771
2138.41 332.778 2813
2145.13 332.778 2813
2151.86 332.778 2813
-2127.88 343.017 2842
-2121.08 343.017 2842
-2118 343.62 2847
-2111.19 343.62 2847
-2108.08 344.223 2852
-2108.63 345.43 2862
-2101.79 345.43 2862
-2094.94 345.43 2862
-2088.1 345.43 2862
-2081.25 345.43 2862
-2074.41 345.43 2862
-2063.95 344.827 2857
-2053.52 344.223 2852
-2043.11 343.62 2847
-2036.31 343.62 2847
-2018.81 341.81 2832
-2015.59 342.413 2837
-2012.34 343.017 2842
-2009.07 343.62 2847
-2002.27 343.62 2847
-1995.46 343.62 2847
-1988.65 343.62 2847
-1985.32 344.223 2852
-1978.5 344.223 2852
-1981.36 345.913 2866
-1981.4 347.12 2876
-1974.52 347.12 2876
-1967.64 347.12 2876
-1960.76 347.12 2876
-1940.98 344.827 2857
-1940.24 345.913 2866
-1933.39 345.913 2866
-1929.89 346.517 2871
-1923.03 346.517 2871
-1926.17 348.327 2886
-1919.27 348.327 2886
-1925.62 350.741 2906
-1925.94 352.069 2917
-1938.7 355.69 2947
-1931.65 355.69 2947
-1928.52 356.414 2953
-1935.13 358.948 2974
-1928.01 358.948 2974
-1920.9 358.948 2974
-1917.01 359.552 2979
-1909.88 359.552 2979
-1902.76 359.552 2979
-1895.64 359.552 2979
-1888.51 359.552 2979
-1898.44 362.811 3006
-1915.16 367.397 3044
-1907.88 367.397 3044
-1900.6 367.397 3044
-1893.32 367.397 3044
-1886.04 367.397 3044
-1912.58 381.398 3160
-1949.03 390.208 3233
-1941.3 390.208 3233
-1933.57 390.208 3233
-1925.84 390.208 3233
-1918.11 390.208 3233
-1910.37 390.208 3233
-1925.01 394.795 3271
-1921.29 395.64 3278
-1928.04 398.657 3303
-1920.14 398.657 3303
-1920.35 400.347 3317
-1915.88 401.071 3323
-1915.97 402.761 3337
-1907.99 402.761 3337
-1934.74 410.123 3398
-1926.62 410.123 3398
-1922.44 410.968 3405
-1914.3 410.968 3405
-1906.16 410.968 3405
-1898.02 410.968 3405
-1897.64 412.658 3419
-1889.47 412.658 3419
-1885.14 413.503 3426
-1888.46 416.037 3447
-1891.67 418.572 3468
-1883.38 418.572 3468
-1883.19 420.382 3483
-1882.4 422.072 3497
-1886.36 424.848 3520
-1877.95 424.848 3520
-1876.96 426.538 3534
-1872.74 427.503 3542
-1867.96 428.348 3549
-1859.47 428.348 3549
-1862.98 431.124 3572
-1866.38 433.9 3595
-1878.45 438.728 3635
-1869.76 438.728 3635
-1877.45 442.59 3667
-1868.68 442.59 3667
-1872.09 445.487 3691
-1863.26 445.487 3691
-1858.45 446.453 3699
-1849.61 446.453 3699
-1849.22 448.504 3716
-1840.34 448.504 3716
-1831.45 448.504 3716
-1834.33 451.401 3740
-1829.78 452.487 3749
-1820.82 452.487 3749
-1820.07 454.539 3766
-1814.91 455.505 3774
-1814.5 457.677 3792
-1805.43 457.677 3792
-1829.52 466.126 3862
-1820.29 466.126 3862
-1811.05 466.126 3862
-1801.82 466.126 3862
-1788.41 465.04 3853
-1770.88 462.867 3835
-1761.71 462.867 3835
-1740.66 459.729 3809
-1727.46 458.643 3800
-1722.44 459.729 3809
-1725.03 462.867 3835
-1715.86 462.867 3835
-1710.69 463.953 3844
-1701.5 463.953 3844
-1692.31 463.953 3844
-1663.85 458.643 3800
-1636.04 453.453 3757
-1612.76 449.47 3724
-1582.75 443.556 3675
-1573.97 443.556 3675
-1544.73 437.762 3627
-1529.28 435.831 3611
-1510.96 433.055 3588
-1502.38 433.055 3588
-1471.32 426.538 3534
-1457.08 424.848 3520
-1418.62 416.037 3447
-1410.37 416.037 3447
-1390.74 412.658 3419
-1382.56 412.658 3419
-1371.57 411.813 3412
-1363.42 411.813 3412
-1352.48 410.968 3405
-1327.75 405.899 3363
-1311.86 403.485 3343
-1291 399.502 3310
-1283.08 399.502 3310
-1262.84 395.64 3278
-1237.77 390.208 3233
-1220.53 387.191 3208
-1212.86 387.191 3208
-1198.42 385.019 3190
-1184.08 382.846 3172
-1169.81 380.674 3154
-1162.27 380.674 3154
-1139.35 375.604 3112
-1125.73 373.552 3095
-1124.47 375.604 3112
-1117.03 375.604 3112
-1109.59 375.604 3112
-1102.14 375.604 3112
-1094.7 375.604 3112
-1087.26 375.604 3112
-1078.08 375.001 3107
-1064.45 372.828 3089
-1053.3 371.501 3078
-1038.12 368.725 3055
-1030.82 368.725 3055
-1019.83 367.397 3044
-1005.23 364.742 3022
-990.739 362.086 3000
-983.566 362.086 3000
-971.184 360.155 2984
-962.433 359.552 2979
-955.31 359.552 2979
-948.186 359.552 2979
-870.276 348.327 2886
-875.64 353.276 2927
-868.641 353.276 2927
-866.057 355.086 2942
-862.234 356.414 2953
-855.172 356.414 2953
-848.111 356.414 2953
-841.049 356.414 2953
-833.988 356.414 2953
-826.926 356.414 2953
-812.646 353.276 2927
-805.647 353.276 2927
-795.919 352.069 2917
-788.943 352.069 2917
-784.648 353.276 2927
-777.649 353.276 2927
-771.966 353.879 2932
-766.259 354.483 2937
-759.236 354.483 2937
-752.213 354.483 2937
-745.19 354.483 2937
-736.91 353.879 2932
-729.898 353.879 2932
-722.887 353.879 2932
-713.434 352.672 2922
-706.447 352.672 2922
-699.46 352.672 2922
-689.865 351.345 2911
-682.904 351.345 2911
-678.497 352.672 2922
-674.957 354.483 2937
-667.934 354.483 2937
-665.636 357.017 2958
-660.789 358.224 2968
-656.114 359.552 2979
-648.991 359.552 2979
-646.392 362.086 3000
-640.496 362.811 3006
-637.943 365.466 3028
-630.702 365.466 3028
-629.021 368.725 3055
-625.175 370.776 3072
-620.242 372.225 3084
-612.867 372.225 3084
-608.83 374.277 3101
-603.548 375.604 3112
-598.405 377.053 3124
-590.935 377.053 3124
-585.705 378.501 3136
-580.419 379.949 3148
-572.891 379.949 3148
-565.363 379.949 3148
-557.835 379.949 3148
-551.356 380.674 3154
-546.918 382.846 3172
-539.333 382.846 3172
-532.753 383.57 3178
-528.128 385.743 3196
-520.485 385.743 3196
-512.843 385.743 3196
-505.2 385.743 3196
-517.421 449.47 3724
-511.929 452.487 3749
-505.245 454.539 3766
-496.24 454.539 3766
-499.654 466.126 3862
-494.99 470.471 3898
-486.79 471.557 3907
-477.448 471.557 3907
-470.261 473.73 3925
-462.05 474.937 3935
-452.64 474.937 3935
-443.23 474.937 3935
-433.82 474.937 3935
-424.411 474.937 3935
-415.001 474.937 3935
-405.591 474.937 3935
-396.181 474.937 3935
-384.904 472.643 3916
-375.54 472.643 3916
-366.175 472.643 3916
-355.991 471.557 3907
-346.648 471.557 3907
-337.305 471.557 3907
-327.962 471.557 3907
-318.62 471.557 3907
-309.277 471.557 3907
-299.934 471.557 3907
-289.922 470.471 3898
-279.305 468.298 3880
-268.774 466.126 3862
-259.539 466.126 3862
-249.72 465.04 3853
-238.322 460.815 3818
-227.631 457.677 3792
-218.044 456.591 3783
-208.998 456.591 3783
-199.476 455.505 3774
-190.048 454.539 3766
-179.792 451.401 3740
-171.625 453.453 3757
-162.641 453.453 3757
-153.657 453.453 3757
-144.673 453.453 3757
-135.689 453.453 3757
-125.592 449.47 3724
-68.0566 262.151 2172
-63.3547 264.202 2189
-58.6777 266.737 2210
-53.3929 266.737 2210
-48.217 267.34 2215
-42.9202 267.34 2215
-37.6235 267.34 2215
-32.21 266.375 2207
-26.8226 265.289 2198
-21.5076 264.564 2192
-16.2659 264.564 2192
-10.9839 263.599 2184
-5.73757 262.513 2175
-0.535749 262.151 2172
4.65816 262.151 2172
9.85207 262.151 2172
14.9906 261.185 2164
20.1374 260.823 2161
25.2113 259.857 2153
30.3598 259.857 2153
35.4093 259.133 2147
40.4868 258.771 2144
45.5074 258.168 2139
50.6224 258.168 2139
55.6592 257.806 2136
60.6817 257.443 2133
65.6281 256.84 2128
70.7168 256.84 2128
75.8055 256.84 2128
80.7802 256.478 2125
85.8617 256.478 2125
91.0716 256.84 2128
96.1603 256.84 2128
101.249 256.84 2128
106.338 256.84 2128
111.426 256.84 2128
116.515 256.84 2128
121.432 256.478 2125
126.692 256.84 2128
131.781 256.84 2128
136.87 256.84 2128
141.959 256.84 2128
147.255 257.202 2131
152.493 257.443 2133
157.816 257.806 2136
162.923 257.806 2136
