-641.117 445.234 3078
-639.727 449.429 3107
-635.757 451.888 3124
-628.287 451.888 3124
-620.816 451.888 3124
-613.346 451.888 3124
-607.039 452.756 3130
-599.554 452.756 3130
-592.07 452.756 3130
-585.705 453.624 3136
-580.419 455.36 3148
-575.075 457.096 3160
-567.518 457.096 3160
-561.025 457.964 3166
-554.503 458.832 3172
-552.09 463.171 3202
-544.433 463.171 3202
-537.782 464.039 3208
-535.234 468.523 3239
-528.628 469.536 3246
-520.866 469.536 3246
-519.111 475.032 3284
-519.509 482.699 3337
-527.318 497.598 3440
-519.092 497.598 3440
-518.291 504.83 3490
-517.543 512.352 3542
-520.14 523.49 3619
-511.486 523.49 3619
-503.944 524.648 3627
-496.363 525.805 3635
-488.609 526.817 3642
-479.9 526.817 3642
-473.261 529.132 3658
-464.514 529.132 3658
-458.881 532.748 3683
-450.074 532.748 3683
-442.225 533.905 3691
-435.278 536.22 3707
-428.369 538.679 3724
-419.464 538.679 3724
-413.315 542.295 3749
-407.046 545.911 3774
-399.919 548.515 3792
-390.852 548.515 3792
-384.402 552.276 3818
-377.827 556.037 3844
-368.635 556.037 3844
-359.443 556.037 3844
-350.251 556.037 3844
-340.26 554.735 3835
-331.089 554.735 3835
-321.163 553.433 3826
-312.748 554.735 3835
-305.002 557.339 3853
-295.788 557.339 3853
-286.575 557.339 3853
-278.657 559.942 3871
-270.653 562.546 3889
-262.563 565.15 3907
-253.22 565.15 3907
-243.877 565.15 3907
-233.994 563.848 3898
-224.673 563.848 3898
-212.865 557.339 3853
-203.176 556.037 3844
-190.048 544.754 3766
-180.225 542.295 3749
-171.26 542.295 3749
-93.4201 312.156 2158
-88.2596 312.156 2158
-83.0992 312.156 2158
-77.9388 312.156 2158
-72.5085 310.999 2150
-67.3672 310.999 2150
-62.1391 310.565 2147
-57.005 310.565 2147
-51.6776 309.408 2139
-46.4973 308.974 2136
-41.5057 309.841 2142
-36.3835 309.841 2142
-31.2614 309.841 2142
-26.1392 309.841 2142
-21.017 309.841 2142
-15.8949 309.841 2142
-10.7727 309.841 2142
-5.65052 309.841 2142
-0.528349 309.841 2142
4.59382 309.841 2142
9.71599 309.841 2142
14.8382 309.841 2142
20.0349 310.999 2150
25.2113 311.433 2153
30.4726 312.59 2161
35.6402 312.59 2161
40.9211 313.458 2167
46.1456 313.747 2169
51.6164 315.483 2181
56.8318 315.483 2181
62.1895 316.206 2186
67.5094 316.64 2189
72.8436 317.074 2192
78.0854 317.074 2192
83.4411 317.508 2195
88.8113 317.942 2198
94.3241 318.81 2204
99.5946 318.81 2204
104.865 318.81 2204
110.285 319.244 2207
115.982 320.401 2215
121.279 320.401 2215
126.575 320.401 2215
131.872 320.401 2215
137.169 320.401 2215
142.466 320.401 2215
147.762 320.401 2215
152.921 320.112 2213
158.213 320.112 2213
163.283 319.678 2210
168.568 319.678 2210
174.089 320.112 2213
179.543 320.401 2215
184.839 320.401 2215
190.136 320.401 2215
195.433 320.401 2215
200.73 320.401 2215
206.026 320.401 2215
210.56 319.244 2207
215.837 319.244 2207
221.716 320.112 2213
227.829 321.269 2221
233.14 321.269 2221
239.417 322.571 2230
244.75 322.571 2230
250.082 322.571 2230
255.415 322.571 2230
465.564 433.952 3000
472.738 433.952 3000
479.912 433.952 3000
487.086 433.952 3000
494.26 433.952 3000
500.598 433.228 2995
506.912 432.505 2990
514.922 433.228 2995
524.001 434.82 3006
531.19 434.82 3006
538.378 434.82 3006
545.566 434.82 3006
552.754 434.82 3006
559.943 434.82 3006
565.999 433.952 3000
571.262 432.505 2990
576.284 430.914 2979
583.408 430.914 2979
589.54 430.191 2974
594.445 428.6 2963
601.531 428.6 2963
608.616 428.6 2963
615.702 428.6 2963
621.736 427.876 2958
628.81 427.876 2958
635.883 427.876 2958
641.87 427.153 2953
646.514 425.562 2942
652.438 424.839 2937
659.462 424.839 2937
666.485 424.839 2937
673.508 424.839 2937
679.373 424.115 2932
685.214 423.392 2927
693.396 424.115 2932
700.407 424.115 2932
707.418 424.115 2932
714.429 424.115 2932
721.441 424.115 2932
728.452 424.115 2932
735.463 424.115 2932
741.208 423.392 2927
748.208 423.392 2927
755.207 423.392 2927
760.904 422.669 2922
767.892 422.669 2922
774.879 422.669 2922
781.867 422.669 2922
788.854 422.669 2922
795.841 422.669 2922
802.829 422.669 2922
809.816 422.669 2922
816.804 422.669 2922
823.791 422.669 2922
830.778 422.669 2922
837.766 422.669 2922
844.753 422.669 2922
850.283 421.946 2917
855.495 421.078 2911
862.456 421.078 2911
867.924 420.355 2906
873.368 419.631 2901
883.34 421.078 2911
892.136 421.946 2917
899.111 421.946 2917
909.193 423.392 2927
922.452 426.285 2947
944.639 433.228 2995
951.801 433.228 2995
966.007 436.411 3017
989.351 443.643 3067
1000.26 445.234 3078
1007.62 445.234 3078
1038.06 455.36 3148
1055.56 459.699 3178
1075.2 464.907 3214
1082.88 464.907 3214
1101.43 469.536 3246
1124.22 475.9 3290
1157.21 486.46 3363
1165.25 486.46 3363
1202.6 498.61 3447
1218.22 501.648 3468
1229.34 502.805 3476
1237.66 502.805 3476
1248.48 503.818 3483
1256.81 503.818 3483
1273.13 507 3505
1281.51 507 3505
1292.47 508.013 3512
1314.57 513.365 3549
1326.04 514.522 3557
1334.54 514.522 3557
1346.07 515.679 3565
1357.25 516.692 3572
1365.8 516.692 3572
1374.34 516.692 3572
1382.88 516.692 3572
1385.58 514.522 3557
1394.08 514.522 3557
1388 509.17 3520
1387.29 505.843 3497
1381.29 500.636 3461
1372.7 494.56 3419
1380.88 494.56 3419
1363.86 485.592 3357
1352.69 478.793 3310
1355.26 476.913 3297
1363.14 476.913 3297
1365.62 475.032 3284
1373.47 475.032 3284
1381.32 475.032 3284
1386.64 474.165 3278
1394.48 474.165 3278
1402.32 474.165 3278
1410.16 474.165 3278
1420.59 475.032 3284
1431.05 475.9 3290
1438.92 475.9 3290
1449.87 476.913 3297
1463.5 478.793 3310
1477.19 480.674 3323
1485.14 480.674 3323
1496.23 481.686 3330
1504.19 481.686 3330
1512.16 481.686 3330
1520.12 481.686 3330
1524.87 480.674 3323
1520.82 476.913 3297
1528.71 476.913 3297
1527.74 474.165 3278
1523.4 470.404 3252
1522.23 467.655 3233
1518.13 464.039 3208
1525.8 464.039 3208
1513.39 457.964 3166
1512.32 455.36 3148
1491.36 446.826 3089
1498.75 446.826 3089
1478.83 438.725 3033
1462.07 431.637 2984
1450.99 426.285 2947
1450.62 424.115 2932
1457.63 424.115 2932
1451.65 420.355 2906
1451.07 418.185 2891
1447.9 415.292 2871
1454.76 415.292 2871
1459.08 414.569 2866
1465.94 414.569 2866
1468.17 413.267 2857
1475 413.267 2857
1479.24 412.543 2852
1486.06 412.543 2852
1487.64 411.097 2842
1494.44 411.097 2842
1501.23 411.097 2842
1505.38 410.374 2837
1509.5 409.65 2832
1514.13 409.072 2828
1520.89 409.072 2828
1524.95 408.349 2823
1531.7 408.349 2823
1533 406.902 2813
1539.73 406.902 2813
1546.46 406.902 2813
1550.97 406.323 2809
1554.92 405.6 2804
1561.62 405.6 2804
1565.53 404.877 2799
1572.23 404.877 2799
1578.92 404.877 2799
1585.61 404.877 2799
1592.3 404.877 2799
1599 404.877 2799
1605.69 404.877 2799
1612.38 404.877 2799
1621.97 405.6 2804
1628.68 405.6 2804
1638.3 406.323 2809
1645.01 406.323 2809
1654.08 406.902 2813
1660.81 406.902 2813
1667.54 406.902 2813
1680.22 408.349 2823
1686.97 408.349 2823
1693.72 408.349 2823
1700.47 408.349 2823
1707.22 408.349 2823
1713.97 408.349 2823
1720.72 408.349 2823
1727.47 408.349 2823
1734.22 408.349 2823
1740.97 408.349 2823
1747.72 408.349 2823
1754.47 408.349 2823
1761.22 408.349 2823
1767.97 408.349 2823
1774.72 408.349 2823
1781.47 408.349 2823
1788.23 408.349 2823
1788.62 406.902 2813
1795.34 406.902 2813
1799.51 406.323 2809
1806.23 406.323 2809
1809.72 405.6 2804
1813.18 404.877 2799
1819.88 404.877 2799
1820.7 403.575 2790
1827.37 403.575 2790
1830.75 402.852 2785
1837.41 402.852 2785
1840.76 402.129 2780
1844.75 401.55 2776
1848.05 400.827 2771
1854.68 400.827 2771
1861.31 400.827 2771
1865.24 400.248 2767
1868.47 399.525 2762
1875.08 399.525 2762
1881.68 399.525 2762
1878.71 397.5 2748
1885.29 397.5 2748
1891.86 397.5 2748
1898.43 397.5 2748
1905 397.5 2748
1915.05 398.223 2753
1921.63 398.223 2753
1928.22 398.223 2753
1934.8 398.223 2753
1937.86 397.5 2748
1947.97 398.223 2753
1957.39 398.802 2757
1963.98 398.802 2757
1970.57 398.802 2757
1977.17 398.802 2757
1983.76 398.802 2757
1987.46 398.223 2753
1990.43 397.5 2748
1990.46 396.198 2739
1997.01 396.198 2739
2013.8 398.223 2753
2020.38 398.223 2753
2026.96 398.223 2753
2033.55 398.223 2753
2040.13 398.223 2753
2043 397.5 2748
2046.58 396.921 2744
2053.15 396.921 2744
2059.71 396.921 2744
2059.49 395.619 2735
2072.83 396.921 2744
2079.39 396.921 2744
2085.96 396.921 2744
2092.52 396.921 2744
2081.48 393.594 2721
-2081.45 408.788 2780
-2074.81 408.788 2780
-2068.16 408.788 2780
-2061.51 408.788 2780
-2051.91 408.2 2776
-2076.21 414.376 2818
-2069.47 414.376 2818
-2062.73 414.376 2818
-2056 414.376 2818
-2042.71 413.052 2809
-2038.89 413.641 2813
-2032.17 413.641 2813
-2025.44 413.641 2813
-2018.71 413.641 2813
-2011.99 413.641 2813
-1998.85 412.317 2804
-2009.19 415.846 2828
-2032.88 422.169 2871
-2026.01 422.169 2871
-2019.14 422.169 2871
-2012.28 422.169 2871
-2005.41 422.169 2871
-1998.55 422.169 2871
-1975.03 418.64 2847
-1981.36 421.434 2866
-1974.51 421.434 2866
-1967.65 421.434 2866
-1960.8 421.434 2866
-1953.95 421.434 2866
-1940.98 420.111 2857
-1937.53 420.846 2862
-1930.69 420.846 2862
-1923.84 420.846 2862
-1917 420.846 2862
-1910.16 420.846 2862
-1903.31 420.846 2862
-1896.47 420.846 2862
-1889.62 420.846 2862
-1882.78 420.846 2862
-1875.94 420.846 2862
-1869.09 420.846 2862
-1864.85 421.434 2866
-1864.48 422.904 2876
-1857.6 422.904 2876
-1860.38 425.11 2891
-1856.67 425.845 2896
-1856.13 427.316 2906
-1849.18 427.316 2906
-1845.41 428.051 2911
-1848.55 430.404 2927
-1861.05 434.962 2958
-1853.98 434.962 2958
-1853.15 436.433 2968
-1846.05 436.433 2968
-1838.96 436.433 2968
-1831.86 436.433 2968
-1824.76 436.433 2968
-1834.2 440.403 2995
-1840.46 443.638 3017
-1833.24 443.638 3017
-1829.05 444.373 3022
-1832.08 446.873 3039
-1831.41 448.491 3050
-1824.12 448.491 3050
-1833.51 452.608 3078
-1853.44 459.372 3124
-1874.33 466.43 3172
-1866.74 466.43 3172
-1876.74 470.841 3202
-1883.68 474.518 3227
-1875.96 474.518 3227
-1882.72 478.194 3252
-1900.89 484.811 3297
-1911.95 489.663 3330
-1903.99 489.663 3330
-1914.81 494.516 3363
-1930.59 500.692 3405
-1926.4 501.721 3412
-1918.24 501.721 3412
-1910.08 501.721 3412
-1905.82 502.75 3419
-1920.96 508.926 3461
-1912.68 508.926 3461
-1916.51 512.161 3483
-1912.01 513.191 3490
-1907.49 514.22 3497
-1899.12 514.22 3497
-1898.87 516.426 3512
-1894.78 517.602 3520
-1893.87 519.661 3534
-1885.41 519.661 3534
-1876.96 519.661 3534
-1872.74 520.837 3542
-1867.96 521.867 3549
-1859.47 521.867 3549
-1855.16 523.043 3557
-1854.44 525.249 3572
-1857.78 528.631 3595
-1849.18 528.631 3595
-1844.68 529.807 3603
-1840.14 530.983 3611
-1839.62 533.336 3627
-1830.95 533.336 3627
-1822.28 533.336 3627
-1817.61 534.512 3635
-1812.4 535.542 3642
-1803.69 535.542 3642
-1798.92 536.718 3650
-1794.12 537.895 3658
-1789.76 539.218 3667
-1780.99 539.218 3667
-1776.09 540.394 3675
-1778.84 543.923 3699
-1781.96 547.6 3724
-1773.06 547.6 3724
-1796.36 557.599 3792
-1791.07 558.775 3800
-1786.2 560.098 3809
-1777.09 560.098 3809
-1780.05 563.922 3835
-1770.88 563.922 3835
-1769.98 566.568 3853
-1760.77 566.568 3853
-1755.64 567.892 3862
-1750.48 569.215 3871
-1745.27 570.539 3880
-1735.99 570.539 3880
-1726.71 570.539 3880
-1717.43 570.539 3880
-1708.16 570.539 3880
-1667.79 560.098 3809
-1647.36 556.275 3783
-1612.76 547.6 3724
-1579.31 539.218 3667
-1570.54 539.218 3667
-1537.92 530.983 3611
-1512.77 525.249 3572
-1488.22 519.661 3534
-1479.77 519.661 3534
-1465.49 517.602 3520
-1441.76 512.161 3483
-1424.38 508.926 3461
-1416.1 508.926 3461
-1393.59 503.78 3426
-1371.24 498.633 3391
-1343.84 491.575 3343
-1330.65 489.663 3330
-1322.69 489.663 3330
-1298.93 483.782 3290
-1288.71 482.899 3284
-1278.52 482.017 3278
-1270.68 482.017 3278
-1252.82 478.194 3252
-1237.77 475.4 3233
-1225.47 473.635 3221
-1217.77 473.635 3221
-1205.19 471.724 3208
-1188.56 468.195 3184
-1169.81 463.783 3154
-1162.27 463.783 3154
-1141.55 458.49 3118
-1123.55 454.225 3089
-1112.18 452.608 3078
-1104.82 452.608 3078
-1089.26 449.226 3055
-1078.06 447.608 3044
-1070.78 447.608 3044
-1059.66 445.991 3033
-1058.31 448.491 3050
-1051.01 448.491 3050
-1043.72 448.491 3050
-1036.43 448.491 3050
-1029.13 448.491 3050
-1012.46 444.373 3022
-994.587 439.668 2990
-985.456 438.785 2984
-978.32 438.785 2984
-971.184 438.785 2984
-965.987 439.668 2990
-967.495 443.638 3017
-965.373 445.991 3033
-958.121 445.991 3033
-959.646 450.108 3061
-959.482 453.49 3084
-952.107 453.49 3084
-944.732 453.49 3084
-935.534 452.608 3078
-923.047 450.108 3061
-915.727 450.108 3061
-887.337 439.668 2990
-881.659 440.403 2995
-874.497 440.403 2995
-867.335 440.403 2995
-860.173 440.403 2995
-845.321 436.433 2968
-835.4 434.962 2958
-829.726 435.698 2963
-822.641 435.698 2963
-815.555 435.698 2963
-807.106 434.962 2958
-791.648 430.404 2927
-784.648 430.404 2927
-777.649 430.404 2927
-770.65 430.404 2927
-763.651 430.404 2927
-756.651 430.404 2927
-749.652 430.404 2927
-741.384 429.669 2922
-734.396 429.669 2922
-729.898 431.139 2932
-722.887 431.139 2932
-717.097 431.874 2937
-710.073 431.874 2937
-703.05 431.874 2937
-694.842 431.139 2932
-684.312 428.933 2917
-680.819 431.139 2932
-674.957 431.874 2937
-667.934 431.874 2937
-669.237 437.315 2974
-666.8 440.403 2995
-662.061 442.02 3006
-654.873 442.02 3006
-654.795 446.873 3039
-653.494 450.99 3067
-652.059 455.108 3095
-644.658 455.108 3095
-643.228 459.372 3124
-635.757 459.372 3124
-630.7 461.136 3136
-623.201 461.136 3136
-615.702 461.136 3136
-608.203 461.136 3136
-600.704 461.136 3136
-593.205 461.136 3136
-587.947 462.901 3148
-583.738 465.548 3166
-576.167 465.548 3166
-568.596 465.548 3166
-562.088 466.43 3172
-558.698 469.959 3196
-554.159 472.606 3214
-546.474 472.606 3214
-544.153 477.312 3246
-537.382 478.194 3252
-532.7 480.988 3271
-524.878 480.988 3271
-521.166 484.811 3297
-524.646 495.545 3370
-532.836 511.132 3476
-524.524 511.132 3476
-522.746 517.602 3520
-517.543 520.837 3542
-520.14 532.16 3619
-511.486 532.16 3619
-503.944 533.336 3627
-496.363 534.512 3635
-488.609 535.542 3642
-479.9 535.542 3642
-473.261 537.895 3658
-464.514 537.895 3658
-458.881 541.571 3683
-450.074 541.571 3683
-442.225 542.747 3691
-435.278 545.1 3707
-428.369 547.6 3724
-419.464 547.6 3724
-413.315 551.276 3749
-407.046 554.952 3774
-399.919 557.599 3792
-390.852 557.599 3792
-384.402 561.422 3818
-377.827 565.245 3844
-368.635 565.245 3844
-359.443 565.245 3844
-350.251 565.245 3844
-340.26 563.922 3835
-331.089 563.922 3835
-321.163 562.598 3826
-312.748 563.922 3835
-305.002 566.568 3853
-295.788 566.568 3853
-286.575 566.568 3853
-278.657 569.215 3871
-270.653 571.862 3889
-262.563 574.509 3907
-253.22 574.509 3907
-243.877 574.509 3907
-233.994 573.186 3898
-224.673 573.186 3898
-212.865 566.568 3853
-203.176 565.245 3844
-190.048 553.776 3766
-180.225 551.276 3749
-171.26 551.276 3749
-93.5499 317.767 2161
-88.3823 317.767 2161
-83.2147 317.767 2161
-78.0471 317.767 2161
-72.6097 316.59 2153
-67.3672 316.149 2150
-62.1391 315.708 2147
-57.005 315.708 2147
-51.8709 315.708 2147
-46.5626 314.532 2139
-41.5057 314.973 2142
-36.3835 314.973 2142
-31.2614 314.973 2142
-26.1392 314.973 2142
-21.017 314.973 2142
-15.8949 314.973 2142
-10.7727 314.973 2142
-5.65052 314.973 2142
-0.528349 314.973 2142
4.59382 314.973 2142
9.73867 315.708 2147
14.8728 315.708 2147
20.0349 316.149 2150
25.2347 316.884 2155
30.5572 318.649 2167
35.7392 318.649 2167
40.9589 318.943 2169
46.1456 318.943 2169
51.6164 320.707 2181
56.8318 320.707 2181
62.1895 321.443 2186
67.6019 322.325 2192
72.9433 322.766 2195
78.1922 322.766 2195
83.5552 323.207 2198
89.0537 324.09 2204
94.3241 324.09 2204
99.5946 324.09 2204
105.008 324.531 2207
110.435 324.972 2210
115.982 325.707 2215
121.279 325.707 2215
126.575 325.707 2215
131.872 325.707 2215
137.169 325.707 2215
142.466 325.707 2215
147.762 325.707 2215
152.921 325.413 2213
158.213 325.413 2213
163.283 324.972 2210
168.797 325.413 2213
174.089 325.413 2213
179.543 325.707 2215
185.34 326.589 2221
190.651 326.589 2221
195.962 326.589 2221
200.73 325.707 2215
206.026 325.707 2215
210.846 324.972 2210
216.131 324.972 2210
221.716 325.413 2213
227.829 326.589 2221
233.14 326.589 2221
239.417 327.913 2230
244.75 327.913 2230
250.082 327.913 2230
255.415 327.913 2230
465.564 441.138 3000
472.738 441.138 3000
479.912 441.138 3000
487.086 441.138 3000
494.26 441.138 3000
500.598 440.403 2995
506.912 439.668 2990
514.922 440.403 2995
524.001 442.02 3006
531.19 442.02 3006
538.378 442.02 3006
545.566 442.02 3006
552.754 442.02 3006
559.943 442.02 3006
565.999 441.138 3000
571.262 439.668 2990
576.284 438.05 2979
583.408 438.05 2979
589.54 437.315 2974
595.448 436.433 2968
601.531 435.698 2963
608.616 435.698 2963
615.702 435.698 2963
621.736 434.962 2958
628.81 434.962 2958
635.883 434.962 2958
641.87 434.227 2953
647.613 433.345 2947
653.549 432.61 2942
660.584 432.61 2942
667.62 432.61 2942
673.508 431.874 2937
679.373 431.139 2932
686.384 431.139 2932
693.396 431.139 2932
700.407 431.139 2932
707.418 431.139 2932
714.429 431.139 2932
721.441 431.139 2932
728.452 431.139 2932
735.463 431.139 2932
741.208 430.404 2927
748.208 430.404 2927
755.207 430.404 2927
760.904 429.669 2922
767.892 429.669 2922
774.879 429.669 2922
781.867 429.669 2922
788.854 429.669 2922
795.841 429.669 2922
802.829 429.669 2922
809.816 429.669 2922
816.804 429.669 2922
823.791 429.669 2922
830.778 429.669 2922
837.766 429.669 2922
844.753 429.669 2922
851.741 429.669 2922
857.259 428.933 2917
864.234 428.933 2917
867.924 427.316 2906
874.873 427.316 2906
883.34 428.051 2911
893.665 429.669 2922
900.652 429.669 2922
909.193 430.404 2927
924.33 434.227 2953
941.17 438.785 2984
948.305 438.785 2984
974.652 447.608 3044
989.351 450.99 3067
1019.11 461.136 3136
1026.61 461.136 3136
1047.96 467.312 3178
1065.52 471.724 3208
1083.56 476.282 3239
1091.31 476.282 3239
1116.36 483.782 3290
1124.22 483.782 3290
1178.89 503.78 3426
1187.08 503.78 3426
1209.93 509.956 3468
1223.49 512.161 3483
1231.82 512.161 3483
1240.15 512.161 3483
1248.48 512.161 3483
1259.33 513.191 3490
1270.22 514.22 3497
1278.58 514.22 3497
1292.47 516.426 3512
1311.98 520.837 3542
1323.06 521.867 3549
1331.54 521.867 3549
1343.05 523.043 3557
1351.56 523.043 3557
1360.06 523.043 3557
1368.57 523.043 3557
1377.07 523.043 3557
1382.46 521.867 3549
1390.95 521.867 3549
1388 517.602 3520
1381.74 512.161 3483
1378.49 507.897 3454
1372.7 502.75 3419
1380.88 502.75 3419
1363.86 493.634 3357
1352.69 486.722 3310
1355.26 484.811 3297
1363.14 484.811 3297
1365.62 482.899 3284
1373.47 482.899 3284
1381.32 482.899 3284
1386.64 482.017 3278
1394.48 482.017 3278
1402.32 482.017 3278
1407.14 480.988 3271
1417.99 482.017 3278
1425.83 482.017 3278
1433.67 482.017 3278
1446.79 483.782 3290
1457.75 484.811 3297
1471.41 486.722 3310
1479.33 486.722 3310
1487.24 486.722 3310
1495.16 486.722 3310
1503.07 486.722 3310
1510.99 486.722 3310
1512.94 484.811 3297
1514.83 482.899 3284
1522.68 482.899 3284
1518.42 479.076 3258
1514.49 475.4 3233
1516.58 473.635 3221
1509.61 469.077 3190
1517.24 469.077 3190
1507.66 463.783 3154
1506.55 461.136 3136
1491.36 454.225 3089
1498.75 454.225 3089
1484.19 447.608 3044
1467.46 440.403 2995
1450.99 433.345 2947
1453.09 431.874 2937
1460.11 431.874 2937
1451.65 427.316 2906
1451.07 425.11 2891
1447.9 422.169 2871
1454.76 422.169 2871
1459.08 421.434 2866
1465.94 421.434 2866
1468.17 420.111 2857
1475 420.111 2857
1479.24 419.375 2852
1486.06 419.375 2852
1490.26 418.64 2847
1494.44 417.905 2842
1501.23 417.905 2842
1505.38 417.17 2837
1509.5 416.434 2832
1514.13 415.846 2828
1520.89 415.846 2828
1524.95 415.111 2823
1531.7 415.111 2823
1533 413.641 2813
1539.73 413.641 2813
1546.46 413.641 2813
1550.97 413.052 2809
1552.15 411.582 2799
1558.84 411.582 2799
1565.53 411.582 2799
1572.23 411.582 2799
1578.92 411.582 2799
1585.61 411.582 2799
1592.3 411.582 2799
1599 411.582 2799
1605.69 411.582 2799
1612.38 411.582 2799
1621.97 412.317 2804
1628.68 412.317 2804
1635.38 412.317 2804
1645.01 413.052 2809
1654.08 413.641 2813
1660.81 413.641 2813
1667.54 413.641 2813
1680.22 415.111 2823
1686.97 415.111 2823
1693.72 415.111 2823
1700.47 415.111 2823
1707.22 415.111 2823
1713.97 415.111 2823
1720.72 415.111 2823
1727.47 415.111 2823
1734.22 415.111 2823
1740.97 415.111 2823
1747.72 415.111 2823
1754.47 415.111 2823
1761.22 415.111 2823
1767.97 415.111 2823
1774.72 415.111 2823
1781.47 415.111 2823
1788.23 415.111 2823
1791.8 414.376 2818
1798.54 414.376 2818
1802.07 413.641 2813
1806.23 413.052 2809
1812.94 413.052 2809
1816.42 412.317 2804
1823.13 412.317 2804
1823.31 410.847 2794
1827.37 410.259 2790
1830.75 409.523 2785
1837.41 409.523 2785
1840.76 408.788 2780
1847.41 408.788 2780
1848.05 407.465 2771
1854.68 407.465 2771
1861.31 407.465 2771
1865.24 406.876 2767
1868.47 406.141 2762
1875.08 406.141 2762
1881.68 406.141 2762
1878.71 404.083 2748
1885.29 404.083 2748
1895.3 404.818 2753
1901.88 404.818 2753
1908.47 404.818 2753
1911.57 404.083 2748
1918.14 404.083 2748
1924.71 404.083 2748
1931.28 404.083 2748
1935.04 403.494 2744
1947.97 404.818 2753
1954.55 404.818 2753
1961.13 404.818 2753
1967.71 404.818 2753
1974.3 404.818 2753
1980.88 404.818 2753
1987.46 404.818 2753
1990.43 404.083 2748
1990.46 402.759 2739
1997.01 402.759 2739
2013.8 404.818 2753
2020.38 404.818 2753
2026.96 404.818 2753
2033.55 404.818 2753
2040.13 404.818 2753
2043 404.083 2748
2046.58 403.494 2744
2053.15 403.494 2744
2059.71 403.494 2744
2066.27 403.494 2744
2072.83 403.494 2744
2079.39 403.494 2744
2085.96 403.494 2744
2092.52 403.494 2744
2081.48 400.112 2721
-2088.94 416.942 2790
-2082.27 416.942 2790
-2075.6 416.942 2790
-2061.51 415.448 2780
-2051.91 414.85 2776
-2076.21 421.126 2818
-2069.47 421.126 2818
-2062.73 421.126 2818
-2056 421.126 2818
-2042.71 419.781 2809
-2036 419.781 2809
-2029.28 419.781 2809
-2022.56 419.781 2809
-2015.84 419.781 2809
-2009.13 419.781 2809
-1998.85 419.034 2804
-2009.19 422.621 2828
-2032.88 429.047 2871
-2026.01 429.047 2871
-2019.14 429.047 2871
-2012.28 429.047 2871
-2005.41 429.047 2871
-1998.55 429.047 2871
-1978.5 426.207 2852
-1981.36 428.3 2866
-1974.51 428.3 2866
-1967.65 428.3 2866
-1960.8 428.3 2866
-1951.22 427.702 2862
-1937.58 426.207 2852
-1934.15 426.955 2857
-1927.32 426.955 2857
-1923.84 427.702 2862
-1917 427.702 2862
-1910.16 427.702 2862
-1903.31 427.702 2862
-1896.47 427.702 2862
-1886.32 426.955 2857
-1879.49 426.955 2857
-1872.66 426.955 2857
-1865.83 426.955 2857
-1862.25 427.702 2862
-1861.24 429.047 2871
-1854.37 429.047 2871
-1860.38 432.036 2891
-1853.47 432.036 2891
-1849.75 432.783 2896
-1842.82 432.783 2896
-1845.41 435.024 2911
-1854.86 438.91 2937
-1871.12 444.439 2974
-1864.01 444.439 2974
-1856.9 444.439 2974
-1849.78 444.439 2974
-1842.67 444.439 2974
-1835.56 444.439 2974
-1831.52 445.186 2979
-1850.73 451.612 3022
-1853.88 454.153 3039
-1846.61 454.153 3039
-1839.34 454.153 3039
-1838.71 455.797 3050
-1841.62 458.337 3067
-1834.29 458.337 3067
-1837.08 460.878 3084
-1864.12 469.545 3142
-1877.88 474.925 3178
-1870.28 474.925 3178
-1880.26 479.409 3208
-1890.68 484.041 3239
-1882.94 484.041 3239
-1897.77 489.869 3278
-1904.35 493.606 3303
-1919.41 499.583 3343
-1911.42 499.583 3343
-1926.77 505.71 3384
-1938.52 510.941 3419
-1938.25 513.033 3433
-1930.04 513.033 3433
-1921.83 513.033 3433
-1917.53 514.079 3440
-1924.84 518.263 3468
-1916.55 518.263 3468
-1916.51 520.505 3483
-1912.01 521.551 3490
-1911.85 523.793 3505
-1903.47 523.793 3505
-1903.2 526.034 3520
-1894.78 526.034 3520
-1893.87 528.127 3534
-1885.41 528.127 3534
-1876.96 528.127 3534
-1872.74 529.322 3542
-1867.96 530.368 3549
-1859.47 530.368 3549
-1855.16 531.564 3557
-1850.8 532.759 3565
-1854.16 536.196 3588
-1845.58 536.196 3588
-1840.59 537.242 3595
-1836.07 538.438 3603
-1831.51 539.634 3611
-1822.87 539.634 3611
-1822.28 542.025 3627
-1813.61 542.025 3627
-1804.93 542.025 3627
-1796.26 542.025 3627
-1791.53 543.22 3635
-1790.19 545.462 3650
-1785.37 546.657 3658
-1776.62 546.657 3658
-1772.22 548.002 3667
-1778.84 552.784 3699
-1781.96 556.52 3724
-1773.06 556.52 3724
-1787.84 563.992 3774
-1791.07 567.878 3800
-1786.2 569.223 3809
-1777.09 569.223 3809
-1780.05 573.108 3835
-1770.88 573.108 3835
-1769.98 575.798 3853
-1760.77 575.798 3853
-1755.64 577.143 3862
-1750.48 578.488 3871
-1745.27 579.833 3880
-1735.99 579.833 3880
-1726.71 579.833 3880
-1717.43 579.833 3880
-1708.16 579.833 3880
-1667.79 569.223 3809
-1651.28 566.682 3792
-1612.76 556.52 3724
-1579.31 548.002 3667
-1570.54 548.002 3667
-1537.92 539.634 3611
-1512.77 533.805 3572
-1485.28 527.08 3527
-1476.84 527.08 3527
-1453 521.551 3490
-1438.86 519.459 3476
-1421.5 516.171 3454
-1413.24 516.171 3454
-1393.59 511.987 3426
-1371.24 506.756 3391
-1343.84 499.583 3343
-1330.65 497.64 3330
-1322.69 497.64 3330
-1298.93 491.663 3290
-1286.35 489.869 3278
-1275.79 488.823 3271
-1267.96 488.823 3271
-1252.82 485.984 3252
-1237.77 483.145 3233
-1225.47 481.351 3221
-1217.77 481.351 3221
-1205.19 479.409 3208
-1188.56 475.822 3184
-1169.81 471.339 3154
-1162.27 471.339 3154
-1141.55 465.959 3118
-1123.55 461.625 3089
-1112.18 459.981 3078
-1104.82 459.981 3078
-1089.26 456.544 3055
-1078.06 454.9 3044
-1070.78 454.9 3044
-1059.66 453.256 3033
-1058.31 455.797 3050
-1051.01 455.797 3050
-1043.72 455.797 3050
-1036.43 455.797 3050
-1029.13 455.797 3050
-1012.46 451.612 3022
-994.587 446.83 2990
-985.456 445.934 2984
-978.32 445.934 2984
-971.184 445.934 2984
-965.987 446.83 2990
-967.495 450.865 3017
-965.373 453.256 3033
-958.121 453.256 3033
-959.646 457.441 3061
-959.482 460.878 3084
-952.107 460.878 3084
-944.732 460.878 3084
-935.534 459.981 3078
-923.047 457.441 3061
-915.727 457.441 3061
-887.337 446.83 2990
-881.659 447.578 2995
-874.497 447.578 2995
-867.335 447.578 2995
-860.173 447.578 2995
-845.321 443.543 2968
-835.4 442.048 2958
-829.726 442.795 2963
-822.641 442.795 2963
-815.555 442.795 2963
-807.106 442.048 2958
-791.648 437.415 2927
-784.648 437.415 2927
-776.321 436.668 2922
-769.333 436.668 2922
-762.346 436.668 2922
-755.359 436.668 2922
-748.371 436.668 2922
-741.384 436.668 2922
-731.632 435.024 2911
-727.409 436.668 2922
-720.422 436.668 2922
-715.876 438.163 2932
-708.865 438.163 2932
-701.853 438.163 2932
-691.287 435.921 2917
-682.904 435.024 2911
-680.819 438.163 2932
-674.957 438.91 2937
-667.934 438.91 2937
-669.237 444.439 2974
-666.8 447.578 2995
-662.061 449.221 3006
-654.873 449.221 3006
-654.795 454.153 3039
-653.494 458.337 3067
-652.059 462.522 3095
-644.658 462.522 3095
-643.228 466.855 3124
-635.757 466.855 3124
-630.7 468.649 3136
-623.201 468.649 3136
-615.702 468.649 3136
-608.203 468.649 3136
-600.704 468.649 3136
-593.205 468.649 3136
-587.947 470.442 3148
-583.738 473.132 3166
-576.167 473.132 3166
-568.596 473.132 3166
-562.088 474.029 3172
-558.698 477.615 3196
-554.159 480.305 3214
-546.474 480.305 3214
-544.153 485.087 3246
-537.382 485.984 3252
-532.7 488.823 3271
-524.878 488.823 3271
-521.166 492.709 3297
-524.646 503.618 3370
-532.836 519.459 3476
-524.524 519.459 3476
-522.746 526.034 3520
-517.543 529.322 3542
-517.841 538.438 3603
-509.225 538.438 3603
-503.944 542.025 3627
-495.27 542.025 3627
-486.597 542.025 3627
-477.924 542.025 3627
-471.191 544.266 3642
-462.482 544.266 3642
-455.766 546.657 3658
-447.019 546.657 3658
-441.267 550.393 3683
-433.399 551.589 3691
-426.413 553.98 3707
-417.549 553.98 3707
-412.322 558.911 3740
-404.35 560.256 3749
-398.021 563.992 3774
-388.996 563.992 3774
-382.589 567.878 3800
-375.272 570.568 3818
-366.909 571.763 3826
-357.76 571.763 3826
-348.611 571.763 3826
-338.752 570.568 3818
-329.622 570.568 3818
-320.492 570.568 3818
-312.014 571.763 3826
-305.002 575.798 3853
-295.788 575.798 3853
-286.575 575.798 3853
-278.009 577.143 3862
-270.653 581.178 3889
-262.563 583.868 3907
-253.22 583.868 3907
-243.877 583.868 3907
-233.454 581.178 3889
-224.154 581.178 3889
-212.865 575.798 3853
-202.7 573.108 3835
-190.048 562.797 3766
-180.225 560.256 3749
-171.26 560.256 3749
-93.5499 322.943 2161
-88.3823 322.943 2161
-83.2147 322.943 2161
-78.0471 322.943 2161
-72.6097 321.748 2153
-67.3672 321.299 2150
-62.1391 320.851 2147
-57.005 320.851 2147
-51.8709 320.851 2147
-46.5626 319.656 2139
-41.5057 320.104 2142
-36.3835 320.104 2142
-31.2614 320.104 2142
-26.1392 320.104 2142
-21.017 320.104 2142
-15.8949 320.104 2142
-10.7727 320.104 2142
-5.65052 320.104 2142
-0.528349 320.104 2142
4.59382 320.104 2142
9.73867 320.851 2147
14.8728 320.851 2147
20.0349 321.299 2150
25.2347 322.047 2155
30.5572 323.84 2167
35.7392 323.84 2167
40.9589 324.139 2169
46.1456 324.139 2169
51.6164 325.932 2181
56.8318 325.932 2181
62.1895 326.679 2186
67.6019 327.576 2192
72.9433 328.024 2195
78.1922 328.024 2195
83.5552 328.473 2198
89.0537 329.369 2204
94.3241 329.369 2204
99.5946 329.369 2204
105.008 329.818 2207
110.435 330.266 2210
115.982 331.013 2215
121.279 331.013 2215
126.575 331.013 2215
131.872 331.013 2215
137.169 331.013 2215
142.466 331.013 2215
147.762 331.013 2215
152.921 330.714 2213
158.213 330.714 2213
163.283 330.266 2210
168.797 330.714 2213
174.089 330.714 2213
179.543 331.013 2215
185.34 331.91 2221
190.651 331.91 2221
195.962 331.91 2221
200.73 331.013 2215
206.026 331.013 2215
210.846 330.266 2210
216.131 330.266 2210
221.716 330.714 2213
227.521 331.461 2218
232.825 331.461 2218
238.773 332.358 2224
244.091 332.358 2224
249.41 332.358 2224
254.728 332.358 2224
486.274 447.578 2995
493.436 447.578 2995
500.598 447.578 2995
504.2 444.439 2974
514.062 446.83 2990
522.955 448.325 3000
530.129 448.325 3000
537.303 448.325 3000
544.477 448.325 3000
551.651 448.325 3000
558.825 448.325 3000
565.999 448.325 3000
571.262 446.83 2990
576.284 445.186 2979
583.408 445.186 2979
589.54 444.439 2974
596.652 444.439 2974
603.764 444.439 2974
610.876 444.439 2974
617.987 444.439 2974
623.838 443.543 2968
629.872 442.795 2963
636.958 442.795 2963
641.87 441.301 2953
647.613 440.404 2947
653.549 439.657 2942
660.584 439.657 2942
667.62 439.657 2942
674.655 439.657 2942
681.69 439.657 2942
686.384 438.163 2932
694.578 438.91 2937
701.601 438.91 2937
708.625 438.91 2937
715.648 438.91 2937
722.671 438.91 2937
729.694 438.91 2937
735.463 438.163 2932
741.208 437.415 2927
748.208 437.415 2927
755.207 437.415 2927
762.207 437.415 2927
767.892 436.668 2922
776.205 437.415 2927
783.205 437.415 2927
790.204 437.415 2927
797.203 437.415 2927
804.203 437.415 2927
811.202 437.415 2927
818.201 437.415 2927
826.61 438.163 2932
835.043 438.91 2937
842.066 438.91 2937
849.09 438.91 2937
856.113 438.91 2937
860.197 437.415 2927
867.197 437.415 2927
874.196 437.415 2927
879.69 436.668 2922
892.746 439.657 2942
903.146 441.301 2953
910.207 441.301 2953
918.822 442.048 2958
934.034 445.934 2984
967.348 458.337 3067
974.682 458.337 3067
989.061 461.625 3089
1000.32 463.418 3101
1028.86 473.132 3166
1036.43 473.132 3166
1057.85 479.409 3208
1075.82 484.041 3239
1100.62 491.663 3290
1108.49 491.663 3290
1129.93 497.64 3330
1161.13 507.802 3398
1181.3 513.033 3433
1189.51 513.033 3433
1209.93 518.263 3468
1223.49 520.505 3483
1231.82 520.505 3483
1240.15 520.505 3483
1250.99 521.551 3490
1259.33 521.551 3490
1270.22 522.597 3497
1278.58 522.597 3497
1292.47 524.839 3512
1311.98 529.322 3542
1323.06 530.368 3549
1331.54 530.368 3549
1343.05 531.564 3557
1351.56 531.564 3557
1360.06 531.564 3557
1368.57 531.564 3557
1377.07 531.564 3557
1382.46 530.368 3549
1390.95 530.368 3549
1388 526.034 3520
1381.74 520.505 3483
1378.49 516.171 3454
1372.7 510.941 3419
1380.88 510.941 3419
1363.86 501.675 3357
1352.69 494.652 3310
1355.26 492.709 3297
1363.14 492.709 3297
1365.62 490.766 3284
1373.47 490.766 3284
1381.32 490.766 3284
1386.64 489.869 3278
1394.48 489.869 3278
1402.32 489.869 3278
1407.14 488.823 3271
1417.99 489.869 3278
1425.83 489.869 3278
1433.67 489.869 3278
1446.79 491.663 3290
1457.75 492.709 3297
1471.41 494.652 3310
1479.33 494.652 3310
1487.24 494.652 3310
1495.16 494.652 3310
1503.07 494.652 3310
1510.99 494.652 3310
1512.94 492.709 3297
1514.83 490.766 3284
1522.68 490.766 3284
1518.42 486.881 3258
1514.49 483.145 3233
1516.58 481.351 3221
1509.61 476.719 3190
1517.24 476.719 3190
1507.66 471.339 3154
1506.55 468.649 3136
1491.36 461.625 3089
1498.75 461.625 3089
1487.12 455.797 3050
1472.85 449.221 3006
1456.41 442.048 2958
1455.56 439.657 2942
1462.6 439.657 2942
1451.65 434.277 2906
1451.07 432.036 2891
1447.9 429.047 2871
1454.76 429.047 2871
1459.08 428.3 2866
1465.94 428.3 2866
1468.17 426.955 2857
1475 426.955 2857
1481.83 426.955 2857
1486.06 426.207 2852
1490.26 425.46 2847
1494.44 424.713 2842
1501.23 424.713 2842
1508.03 424.713 2842
1512.16 423.966 2837
1516.27 423.219 2832
1523.04 423.219 2832
1527.65 422.621 2828
1531.7 421.874 2823
1535.73 421.126 2818
1542.47 421.126 2818
1546.46 420.379 2813
1550.97 419.781 2809
1552.15 418.287 2799
1558.84 418.287 2799
1565.53 418.287 2799
1572.23 418.287 2799
1578.92 418.287 2799
1585.61 418.287 2799
1592.3 418.287 2799
1599 418.287 2799
1605.69 418.287 2799
1612.38 418.287 2799
1621.97 419.034 2804
1628.68 419.034 2804
1635.38 419.034 2804
1645.01 419.781 2809
1654.08 420.379 2813
1660.81 420.379 2813
1667.54 420.379 2813
1680.22 421.874 2823
1686.97 421.874 2823
1693.72 421.874 2823
1700.47 421.874 2823
1707.22 421.874 2823
1713.97 421.874 2823
1720.72 421.874 2823
1727.47 421.874 2823
1734.22 421.874 2823
1740.97 421.874 2823
1747.72 421.874 2823
1754.47 421.874 2823
1761.22 421.874 2823
1767.97 421.874 2823
1774.72 421.874 2823
1781.47 421.874 2823
1788.23 421.874 2823
1791.8 421.126 2818
1798.54 421.126 2818
1802.07 420.379 2813
1806.23 419.781 2809
1812.94 419.781 2809
1816.42 419.034 2804
1823.13 419.034 2804
1826.57 418.287 2799
1827.37 416.942 2790
1830.75 416.195 2785
1837.41 416.195 2785
1840.76 415.448 2780
1847.41 415.448 2780
1851.39 414.85 2776
1858.03 414.85 2776
1861.31 414.103 2771
1865.24 413.505 2767
1871.85 413.505 2767
1878.47 413.505 2767
1881.68 412.758 2762
1882.13 411.413 2753
1888.72 411.413 2753
1895.3 411.413 2753
1901.88 411.413 2753
1908.47 411.413 2753
1915.05 411.413 2753
1921.63 411.413 2753
1928.22 411.413 2753
1931.28 410.665 2748
1937.86 410.665 2748
1947.97 411.413 2753
1954.55 411.413 2753
1961.13 411.413 2753
1967.71 411.413 2753
1974.3 411.413 2753
1980.88 411.413 2753
1987.46 411.413 2753
1990.43 410.665 2748
1990.46 409.32 2739
1997.01 409.32 2739
2013.8 411.413 2753
2020.38 411.413 2753
2026.96 411.413 2753
2033.55 411.413 2753
2040.13 411.413 2753
2043 410.665 2748
2049.57 410.665 2748
2056.14 410.665 2748
2062.71 410.665 2748
2066.27 410.068 2744
2072.83 410.068 2744
2079.39 410.068 2744
2085.96 410.068 2744
2092.52 410.068 2744
2081.48 406.631 2721
-2091.94 424.233 2794
-2085.26 424.233 2794
-2078.57 424.233 2794
-2061.51 422.107 2780
-2051.91 421.5 2776
-2065.9 425.751 2804
-2062.86 426.51 2809
-2056.15 426.51 2809
-2049.43 426.51 2809
-2039.08 425.751 2804
-2036 426.51 2809
-2029.28 426.51 2809
-2022.56 426.51 2809
-2008.67 424.992 2799
-2001.97 424.992 2799
-1995.28 424.992 2799
-2009.19 429.395 2828
-2032.88 435.924 2871
-2026.01 435.924 2871
-2019.14 435.924 2871
-2012.28 435.924 2871
-2001.92 435.165 2866
-1995.07 435.165 2866
-1978.5 433.039 2852
-1981.36 435.165 2866
-1974.51 435.165 2866
-1967.65 435.165 2866
-1960.8 435.165 2866
-1951.22 434.558 2862
-1940.98 433.799 2857
-1934.15 433.799 2857
-1927.32 433.799 2857
-1923.84 434.558 2862
-1917 434.558 2862
-1910.16 434.558 2862
-1903.31 434.558 2862
-1896.47 434.558 2862
-1886.32 433.799 2857
-1879.49 433.799 2857
-1872.66 433.799 2857
-1865.83 433.799 2857
-1862.25 434.558 2862
-1858 435.165 2866
-1851.15 435.165 2866
-1860.38 438.961 2891
-1856.67 439.72 2896
-1849.75 439.72 2896
-1842.82 439.72 2896
-1845.41 441.998 2911
-1854.86 445.946 2937
-1871.12 451.563 2974
-1864.01 451.563 2974
-1856.9 451.563 2974
-1849.78 451.563 2974
-1842.67 451.563 2974
-1835.56 451.563 2974
-1831.52 452.323 2979
-1854.41 459.763 3028
-1853.88 461.433 3039
-1846.61 461.433 3039
-1846 463.103 3050
-1838.71 463.103 3050
-1848.23 467.355 3078
-1840.87 467.355 3078
-1837.08 468.266 3084
-1871.24 478.894 3154
-1888.51 485.271 3196
-1880.87 485.271 3196
-1891.4 489.978 3227
-1898.27 493.774 3252
-1890.5 493.774 3252
-1904.72 499.544 3290
-1919.91 505.617 3330
-1934.92 511.691 3370
-1926.86 511.691 3370
-1946.7 519.131 3419
-1950.43 522.32 3440
-1942.2 522.32 3440
-1933.98 522.32 3440
-1925.75 522.32 3440
-1925.33 524.445 3454
-1933.17 528.849 3483
-1924.84 528.849 3483
-1920.36 529.911 3490
-1920.23 532.189 3505
-1915.67 533.252 3512
-1907.27 533.252 3512
-1903.2 534.467 3520
-1898.55 535.529 3527
-1898.15 537.807 3542
-1889.68 537.807 3542
-1881.21 537.807 3542
-1872.74 537.807 3542
-1867.96 538.87 3549
-1859.47 538.87 3549
-1855.16 540.085 3557
-1854.44 542.362 3572
-1854.16 544.791 3588
-1845.58 544.791 3588
-1840.59 545.854 3595
-1836.07 547.069 3603
-1831.51 548.284 3611
-1822.87 548.284 3611
-1814.24 548.284 3611
-1805.6 548.284 3611
-1800.95 549.498 3619
-1792.3 549.498 3619
-1787.59 550.713 3627
-1782.84 551.928 3635
-1777.56 552.991 3642
-1768.85 552.991 3642
-1764.01 554.205 3650
-1763.46 556.787 3667
-1770 561.645 3699
-1761.15 561.645 3699
-1764.15 565.441 3724
-1778.81 573.033 3774
-1774.01 574.4 3783
-1764.96 574.4 3783
-1763.81 576.981 3800
-1770.88 582.295 3835
-1761.71 582.295 3835
-1752.54 582.295 3835
-1747.46 583.662 3844
-1750.48 587.761 3871
-1741.22 587.761 3871
-1731.96 587.761 3871
-1722.71 587.761 3871
-1713.45 587.761 3871
-1704.19 587.761 3871
-1683.12 583.662 3844
-1654.76 576.981 3800
-1612.76 565.441 3724
-1582.75 558.001 3675
-1573.97 558.001 3675
-1537.92 548.284 3611
-1512.77 542.362 3572
-1485.28 535.529 3527
-1476.84 535.529 3527
-1453 529.911 3490
-1441.76 528.849 3483
-1424.38 525.508 3461
-1416.1 525.508 3461
-1396.44 521.257 3433
-1374.07 515.942 3398
-1343.84 507.591 3343
-1330.65 505.617 3330
-1322.69 505.617 3330
-1298.93 499.544 3290
-1286.35 497.722 3278
-1275.79 496.659 3271
-1267.96 496.659 3271
-1252.82 493.774 3252
-1240.07 491.8 3239
-1225.47 489.067 3221
-1217.77 489.067 3221
-1207.44 488.004 3214
-1190.79 484.36 3190
-1169.81 478.894 3154
-1162.27 478.894 3154
-1148.14 476.161 3136
-1131.91 472.517 3112
-1114.35 468.266 3084
-1106.98 468.266 3084
-1095.32 466.444 3072
-1087.98 466.444 3072
-1078.87 465.684 3067
-1075.38 467.355 3078
-1071.84 469.025 3089
-1064.45 469.025 3089
-1057.07 469.025 3089
-1049.68 469.025 3089
-1042.29 469.025 3089
-1023.51 463.862 3055
-1008.89 460.522 3033
-1001.64 460.522 3033
-994.385 460.522 3033
-987.132 460.522 3033
-979.879 460.522 3033
-972.626 460.522 3033
-972.376 463.862 3055
-965.07 463.862 3055
-959.646 464.773 3061
-961.038 469.025 3089
-953.651 469.025 3089
-946.264 469.025 3089
-937.358 468.266 3084
-923.047 464.773 3061
-915.727 464.773 3061
-892.085 456.422 3006
-881.659 454.752 2995
-874.497 454.752 2995
-867.335 454.752 2995
-860.173 454.752 2995
-845.321 450.652 2968
-835.4 449.134 2958
-828.326 449.134 2958
-821.253 449.134 2958
-814.179 449.134 2958
-805.741 448.375 2953
-790.296 443.668 2922
-783.308 443.668 2922
-774.992 442.909 2917
-768.017 442.909 2917
-761.042 442.909 2917
-754.066 442.909 2917
-747.091 442.909 2917
-740.115 442.909 2917
-730.375 441.239 2906
-727.409 443.668 2922
-720.422 443.668 2922
-713.434 443.668 2922
-706.447 443.668 2922
-699.46 443.668 2922
-691.287 442.909 2917
-682.904 441.998 2911
-680.819 445.186 2932
-678.634 448.375 2953
-671.573 448.375 2953
-673.962 454.752 2995
-671.698 458.092 3017
-668.008 460.522 3033
-660.755 460.522 3033
-659.535 464.773 3061
-657.116 468.266 3084
-654.587 471.758 3107
-647.157 471.758 3107
-644.463 475.25 3130
-638.199 476.161 3136
-631.907 477.072 3142
-624.393 477.072 3142
-616.88 477.072 3142
-609.366 477.072 3142
-601.853 477.072 3142
-594.339 477.072 3142
-587.947 477.983 3148
-583.738 480.716 3166
-577.259 481.627 3172
-569.673 481.627 3172
-564.215 483.449 3184
-559.747 486.182 3202
-557.435 490.889 3233
-549.704 490.889 3233
-544.153 492.863 3246
-541.678 497.722 3278
-534.817 498.633 3284
-526.964 498.633 3284
-527.488 506.68 3337
-524.646 511.691 3370
-534.982 529.911 3490
-526.637 529.911 3490
-523.786 535.529 3527
-518.566 538.87 3549
-517.841 547.069 3603
-509.225 547.069 3603
-501.72 548.284 3611
-494.178 549.498 3619
-485.524 549.498 3619
-476.87 549.498 3619
-469.25 550.713 3627
-460.577 550.713 3627
-453.773 552.991 3642
-445.064 552.991 3642
-438.272 555.42 3658
-432.46 559.216 3683
-425.493 561.645 3699
-416.648 561.645 3699
-409.676 564.227 3716
-403.379 567.871 3740
-396.228 570.452 3757
-387.244 570.452 3757
-379.972 573.033 3774
-373.502 576.981 3800
-365.278 578.347 3809
-356.17 578.347 3809
-347.062 578.347 3809
-337.953 578.347 3809
-329.622 579.714 3818
-320.492 579.714 3818
-312.014 580.929 3826
-304.29 583.662 3844
-295.788 585.028 3853
-286.575 585.028 3853
-278.009 586.395 3862
-269.4 587.761 3871
-261.353 590.494 3889
-252.053 590.494 3889
-242.753 590.494 3889
-232.373 587.761 3871
-223.116 587.761 3871
-212.368 583.662 3844
-202.224 580.929 3826
-190.048 571.818 3766
-180.225 569.237 3749
-171.26 569.237 3749
-93.6798 328.575 2164
-88.505 328.575 2164
-83.3303 328.575 2164
-78.1555 328.575 2164
-72.8795 328.12 2161
-67.5239 327.209 2155
-62.3128 326.905 2153
-57.1643 326.905 2153
-51.8709 325.994 2147
-46.7367 325.994 2147
-41.6026 325.994 2147
-36.5194 326.45 2150
-31.3781 326.45 2150
-26.2368 326.45 2150
-21.0661 325.994 2147
-15.932 325.994 2147
-10.7978 325.994 2147
-5.66371 325.994 2147
-0.529582 325.994 2147
4.60455 325.994 2147
9.73867 325.994 2147
14.8728 325.994 2147
20.0628 326.905 2153
25.2347 327.209 2155
30.5572 329.031 2167
35.7392 329.031 2167
40.9589 329.335 2169
46.1456 329.335 2169
51.6164 331.157 2181
56.8318 331.157 2181
62.1895 331.916 2186
67.6019 332.827 2192
72.9433 333.282 2195
78.1922 333.282 2195
83.5552 333.738 2198
89.0537 334.649 2204
94.4525 335.104 2207
99.7301 335.104 2207
105.008 335.104 2207
110.435 335.56 2210
115.982 336.319 2215
121.279 336.319 2215
126.575 336.319 2215
131.872 336.319 2215
137.169 336.319 2215
142.466 336.319 2215
147.762 336.319 2215
152.714 335.56 2210
157.998 335.56 2210
163.283 335.56 2210
168.797 336.015 2213
174.246 336.319 2215
180.029 337.23 2221
185.34 337.23 2221
190.651 337.23 2221
195.962 337.23 2221
201.273 337.23 2221
206.584 337.23 2221
211.132 336.015 2213
216.424 336.015 2213
222.217 336.775 2218
229.06 339.052 2233
234.4 339.052 2233
239.739 339.052 2233
245.079 339.052 2233
250.419 339.052 2233
255.759 339.052 2233
487.34 449.134 2958
497.088 451.563 2974
504.2 451.563 2974
511.311 451.563 2974
522.084 454.752 2995
530.129 455.511 3000
537.303 455.511 3000
544.477 455.511 3000
551.651 455.511 3000
558.825 455.511 3000
565.999 455.511 3000
571.262 453.993 2990
576.284 452.323 2979
583.408 452.323 2979
589.54 451.563 2974
596.652 451.563 2974
603.764 451.563 2974
610.876 451.563 2974
617.987 451.563 2974
623.838 450.652 2968
629.872 449.893 2963
636.958 449.893 2963
641.87 448.375 2953
647.613 447.464 2947
653.549 446.705 2942
660.584 446.705 2942
667.62 446.705 2942
674.655 446.705 2942
681.69 446.705 2942
686.384 445.186 2932
694.578 445.946 2937
701.601 445.946 2937
708.625 445.946 2937
715.648 445.946 2937
722.671 445.946 2937
729.694 445.946 2937
735.463 445.186 2932
741.208 444.427 2927
748.208 444.427 2927
755.207 444.427 2927
762.207 444.427 2927
767.892 443.668 2922
776.205 444.427 2927
783.205 444.427 2927
790.204 444.427 2927
797.203 444.427 2927
804.203 444.427 2927
811.202 444.427 2927
818.201 444.427 2927
826.61 445.186 2932
835.043 445.946 2937
842.066 445.946 2937
849.09 445.946 2937
856.113 445.946 2937
860.197 444.427 2927
867.197 444.427 2927
874.196 444.427 2927
879.69 443.668 2922
892.746 446.705 2942
903.146 448.375 2953
910.207 448.375 2953
918.822 449.134 2958
934.034 453.082 2984
967.348 465.684 3067
974.682 465.684 3067
989.061 469.025 3089
1000.32 470.847 3101
1028.86 480.716 3166
1036.43 480.716 3166
1057.85 487.093 3208
1075.82 491.8 3239
1100.62 499.544 3290
1108.49 499.544 3290
1129.93 505.617 3330
1161.13 515.942 3398
1181.3 521.257 3433
1189.51 521.257 3433
1209.93 526.571 3468
1223.49 528.849 3483
1231.82 528.849 3483
1240.15 528.849 3483
1250.99 529.911 3490
1259.33 529.911 3490
1270.22 530.974 3497
1278.58 530.974 3497
1292.47 533.252 3512
1311.98 537.807 3542
1320.45 537.807 3542
1328.92 537.807 3542
1343.05 540.085 3557
1351.56 540.085 3557
1360.06 540.085 3557
1368.57 540.085 3557
1377.07 540.085 3557
1379.74 537.807 3542
1388.21 537.807 3542
1388 534.467 3520
1381.74 528.849 3483
1375.7 523.382 3447
1369.89 518.068 3412
1378.05 518.068 3412
1361.02 508.654 3350
1352.69 502.581 3310
1355.26 500.607 3297
1363.14 500.607 3297
1365.62 498.633 3284
1373.47 498.633 3284
1381.32 498.633 3284
1386.64 497.722 3278
1394.48 497.722 3278
1396.76 495.748 3265
1404.56 495.748 3265
1414.97 496.659 3271
1422.79 496.659 3271
1430.61 496.659 3271
1441.51 497.722 3278
1449.35 497.722 3278
1462.52 499.544 3290
1470.39 499.544 3290
1481.4 500.607 3297
1489.29 500.607 3297
1497.17 500.607 3297
1505.05 500.607 3297
1506.97 498.633 3284
1508.83 496.659 3271
1516.65 496.659 3271
1518.42 494.685 3258
1514.49 490.889 3233
1516.58 489.067 3221
1509.61 484.36 3190
1517.24 484.36 3190
1507.66 478.894 3154
1506.55 476.161 3136
1491.36 469.025 3089
1498.75 469.025 3089
1487.12 463.103 3050
1472.85 456.422 3006
1456.41 449.134 2958
1455.56 446.705 2942
1462.6 446.705 2942
1451.65 441.239 2906
1451.07 438.961 2891
1447.9 435.924 2871
1454.76 435.924 2871
1459.08 435.165 2866
1465.94 435.165 2866
1468.17 433.799 2857
1475 433.799 2857
1481.83 433.799 2857
1486.06 433.039 2852
1490.26 432.28 2847
1494.44 431.521 2842
1501.23 431.521 2842
1508.03 431.521 2842
1512.16 430.762 2837
1516.27 430.003 2832
1523.04 430.003 2832
1527.65 429.395 2828
1531.7 428.636 2823
1535.73 427.877 2818
1542.47 427.877 2818
1546.46 427.118 2813
1550.97 426.51 2809
1552.15 424.992 2799
1558.84 424.992 2799
1562.74 424.233 2794
1569.42 424.233 2794
1576.1 424.233 2794
1585.61 424.992 2799
1592.3 424.992 2799
1599 424.992 2799
1605.69 424.992 2799
1612.38 424.992 2799
1621.97 425.751 2804
1628.68 425.751 2804
1635.38 425.751 2804
1645.01 426.51 2809
1654.08 427.118 2813
1660.81 427.118 2813
1667.54 427.118 2813
1677.24 427.877 2818
1686.97 428.636 2823
1693.72 428.636 2823
1700.47 428.636 2823
1707.22 428.636 2823
1713.97 428.636 2823
1720.72 428.636 2823
1727.47 428.636 2823
1734.22 428.636 2823
1740.97 428.636 2823
1747.72 428.636 2823
1754.47 428.636 2823
1761.22 428.636 2823
1767.97 428.636 2823
1774.72 428.636 2823
1781.47 428.636 2823
1788.23 428.636 2823
1791.8 427.877 2818
1798.54 427.877 2818
1802.07 427.118 2813
1806.23 426.51 2809
1812.94 426.51 2809
1816.42 425.751 2804
1823.13 425.751 2804
1826.57 424.992 2799
1827.37 423.625 2790
1830.75 422.866 2785
1837.41 422.866 2785
1840.76 422.107 2780
1847.41 422.107 2780
1851.39 421.5 2776
1858.03 421.5 2776
1861.31 420.741 2771
1865.24 420.133 2767
1871.85 420.133 2767
1878.47 420.133 2767
1881.68 419.374 2762
1882.13 418.008 2753
1888.72 418.008 2753
1895.3 418.008 2753
1901.88 418.008 2753
1908.47 418.008 2753
1915.05 418.008 2753
1921.63 418.008 2753
1928.22 418.008 2753
1931.28 417.248 2748
1937.86 417.248 2748
1947.97 418.008 2753
1954.55 418.008 2753
1961.13 418.008 2753
1967.71 418.008 2753
1974.3 418.008 2753
1980.88 418.008 2753
1987.46 418.008 2753
1987.53 416.641 2744
1983.92 414.515 2730
1994.09 415.274 2735
2013.8 418.008 2753
2020.38 418.008 2753
2026.96 418.008 2753
2033.55 418.008 2753
2040.13 418.008 2753
2043 417.248 2748
2049.57 417.248 2748
2056.14 417.248 2748
2062.71 417.248 2748
2066.27 416.641 2744
2072.83 416.641 2744
2068.78 414.515 2730
2075.31 414.515 2730
2078.79 413.908 2726
2068.48 410.567 2704
-2091.94 430.926 2794
-2085.26 430.926 2794
-2078.57 430.926 2794
-2061.51 428.767 2780
-2058.56 429.538 2785
-2065.9 432.468 2804
-2062.86 433.239 2809
-2056.15 433.239 2809
-2049.43 433.239 2809
-2039.08 432.468 2804
-2036 433.239 2809
-2029.28 433.239 2809
-2022.56 433.239 2809
-2008.67 431.697 2799
-2001.97 431.697 2799
-1995.28 431.697 2799
-2009.19 436.17 2828
-2032.88 442.802 2871
-2026.01 442.802 2871
-2019.14 442.802 2871
-2012.28 442.802 2871
