1397.73 679.681 3323
1405.68 679.681 3323
1399.58 672.931 3290
1399.32 669.045 3271
1401.55 666.386 3258
1404.15 663.931 3246
1411.91 663.931 3246
1419.68 663.931 3246
1421.72 661.272 3233
1429.45 661.272 3233
1437.18 661.272 3233
1442.23 660.045 3227
1449.95 660.045 3227
1457.67 660.045 3227
1465.38 660.045 3227
1473.1 660.045 3227
1483.57 661.272 3233
1491.3 661.272 3233
1499.03 661.272 3233
1503.97 660.045 3227
1511.68 660.045 3227
1516.58 658.818 3221
1524.28 658.818 3221
1531.98 658.818 3221
1536.34 657.386 3214
1535.38 653.704 3196
1537.22 651.25 3184
1544.84 651.25 3184
1537.82 645.114 3154
1536.55 641.432 3136
1538.14 638.978 3124
1545.61 638.978 3124
1535.68 631.819 3089
1532.08 627.319 3067
1514.31 617.092 3017
1502.36 609.32 2979
1509.49 609.32 2979
1500.32 602.774 2947
1483.84 593.366 2901
1485.64 591.32 2891
1492.55 591.32 2891
1489.09 587.229 2871
1483.45 582.32 2847
1487.64 581.298 2842
1494.44 581.298 2842
1501.23 581.298 2842
1502.72 579.252 2832
1509.5 579.252 2832
1516.27 579.252 2832
1523.04 579.252 2832
1524.95 577.412 2823
1526.28 575.366 2813
1530.82 574.548 2809
1537.54 574.548 2809
1538.76 572.503 2799
1542.69 571.48 2794
1547.15 570.662 2790
1553.83 570.662 2790
1557.7 569.639 2785
1559.31 567.798 2776
1565.94 567.798 2776
1577.68 569.639 2785
1595.15 573.525 2804
1601.85 573.525 2804
1608.56 573.525 2804
1626.21 577.412 2823
1638.17 579.252 2832
1644.94 579.252 2832
1686.12 591.32 2891
1693.03 591.32 2891
1699.95 591.32 2891
2047.1 697.885 3412
2067.91 702.18 3433
2076.12 702.18 3433
2084.33 702.18 3433
2101.07 705.043 3447
2109.31 705.043 3447
2117.55 705.043 3447
2125.8 705.043 3447
2134.04 705.043 3447
2142.28 705.043 3447
2172.99 712.407 3483
2181.31 712.407 3483
2189.64 712.407 3483
1899.66 595.411 2911
1906.62 595.411 2911
1913.58 595.411 2911
1920.54 595.411 2911
1914.26 591.32 2891
1898.58 584.366 2857
1892.07 580.275 2837
1898.86 580.275 2837
1899.59 578.434 2828
1909.05 579.252 2832
1932.74 584.366 2857
1962.65 591.32 2891
1969.57 591.32 2891
1976.48 591.32 2891
1976.54 587.229 2871
1983.4 587.229 2871
1990.27 587.229 2871
2079.91 611.569 2990
2087.06 611.569 2990
2094.21 611.569 2990
2075.36 604.002 2953
2082.42 604.002 2953
2089.48 604.002 2953
2096.54 604.002 2953
2070.12 594.388 2906
2066.35 591.32 2891
2084.02 594.388 2906
2098.89 596.638 2917
2105.86 596.638 2917
2146.15 606.047 2963
2153.24 606.047 2963
2160.33 606.047 2963
2167.41 606.047 2963
2170.83 605.024 2958
2166.12 601.752 2942
2173.16 601.752 2942
2207.61 609.32 2979
2214.73 609.32 2979
2266.61 621.592 3039
2298.57 628.342 3072
2314.92 630.796 3084
2322.29 630.796 3084
2337.98 633.046 3095
2354.47 635.5 3107
2406.75 647.568 3166
2414.33 647.568 3166
2421.9 647.568 3166
-2311.51 666.534 3221
-2303.81 666.534 3221
-2364.54 686.399 3317
-2356.61 686.399 3317
-2348.68 686.399 3317
-2340.74 686.399 3317
-2313.82 680.812 3290
-2305.96 680.812 3290
-2298.09 680.812 3290
-2290.22 680.812 3290
-2282.35 680.812 3290
-2279.33 682.261 3297
-2294.18 689.09 3330
-2286.21 689.09 3330
-2315.2 700.264 3384
-2340.51 710.404 3433
-2332.3 710.404 3433
-2324.09 710.404 3433
-2311.16 708.955 3426
-2307.67 710.404 3433
-2308.84 713.301 3447
-2300.6 713.301 3447
-2306.32 717.646 3468
-2298.03 717.646 3468
-2299.64 720.75 3483
-2291.31 720.75 3483
-2292.16 723.647 3497
-2289.02 725.303 3505
-2285.19 726.751 3512
-2276.79 726.751 3512
-2273.56 728.407 3520
-2269.65 729.855 3527
-2261.22 729.855 3527
-2252.78 729.855 3527
-2244.35 729.855 3527
-2235.91 729.855 3527
-2227.48 729.855 3527
-2214.64 728.407 3520
-2201.21 726.751 3512
-2192.81 726.751 3512
-2184.41 726.751 3512
-2176.01 726.751 3512
-2167.62 726.751 3512
-2159.22 726.751 3512
-2150.82 726.751 3512
-2133.27 723.647 3497
-2116.4 720.75 3483
-2098.99 717.646 3468
-2090.7 717.646 3468
-2069.8 713.301 3447
-2061.56 713.301 3447
-2044.97 710.404 3433
-2036.76 710.404 3433
-2028.55 710.404 3433
-2012.11 707.507 3419
-1991.62 703.161 3398
-1983.5 703.161 3398
-1959.09 697.367 3370
-1935.4 691.78 3343
-1927.41 691.78 3343
-1923.43 693.228 3350
-1915.42 693.228 3350
-1911.4 694.677 3357
-1906.77 695.918 3363
-1914.54 701.712 3391
-1906.43 701.712 3391
-1898.32 701.712 3391
-1890.21 701.712 3391
-1897.64 707.507 3419
-1889.47 707.507 3419
-1881.29 707.507 3419
-1873.12 707.507 3419
-1868.76 708.955 3426
-1860.57 708.955 3426
-1852.37 708.955 3426
-1851.72 711.852 3440
-1858.5 717.646 3468
-1850.2 717.646 3468
-1853.59 722.199 3490
-1853.18 725.303 3505
-1844.8 725.303 3505
-1836.42 725.303 3505
-1831.69 726.751 3512
-1827.44 728.407 3520
-1822.64 729.855 3527
-1814.21 729.855 3527
-1805.77 729.855 3527
-1797.34 729.855 3527
-1788.9 729.855 3527
-1780.47 729.855 3527
-1779.57 732.959 3542
-1774.6 734.408 3549
-1770.1 736.063 3557
-1761.59 736.063 3557
-1757.03 737.719 3565
-1751.94 739.167 3572
-1747.3 740.823 3580
-1738.74 740.823 3580
-1734.04 742.478 3588
-1732.68 745.582 3603
-1727.89 747.238 3611
-1723.06 748.893 3619
-1718.2 750.549 3627
-1713.3 752.204 3635
-1715.39 756.964 3658
-1706.64 756.964 3658
-1705.79 760.482 3675
-1723.32 772.277 3732
-1730.01 779.313 3766
-1721.01 779.313 3766
-1723.82 784.693 3792
-1726.51 790.073 3818
-1725.03 793.591 3835
-1715.86 793.591 3835
-1710.69 795.453 3844
-1701.5 795.453 3844
-1692.31 795.453 3844
-1683.12 795.453 3844
-1666.08 791.729 3826
-1645.68 786.348 3800
-1625.39 780.968 3774
-1616.37 780.968 3774
-1596.69 775.795 3749
-1563.17 763.793 3691
-1544.23 758.826 3667
-1535.46 758.826 3667
-1510.04 750.549 3627
-1485.22 742.478 3588
-1463.89 736.063 3557
-1455.38 736.063 3557
-1434.67 729.855 3527
-1423.41 728.407 3520
-1408.96 725.303 3505
-1400.58 725.303 3505
-1392.2 725.303 3505
-1383.81 725.303 3505
-1372.29 723.647 3497
-1363.93 723.647 3497
-1355.57 723.647 3497
-1356.07 728.407 3520
-1353.01 731.304 3534
-1350.27 734.408 3549
-1341.78 734.408 3549
-1341.93 739.167 3572
-1344.96 745.582 3603
-1339.31 747.238 3611
-1330.68 747.238 3611
-1327.9 750.549 3627
-1322.14 752.204 3635
-1315.98 753.653 3642
-1307.27 753.653 3642
-1310.32 760.482 3675
-1304.37 762.137 3683
-1295.56 762.137 3683
-1286.76 762.137 3683
-1277.95 762.137 3683
-1266.38 760.482 3675
-1257.6 760.482 3675
-1243.03 756.964 3658
-1228.89 753.653 3642
-1217.83 752.204 3635
-1209.14 752.204 3635
-1200.45 752.204 3635
-1191.75 752.204 3635
-1183.06 752.204 3635
-1179.21 755.308 3650
-1173.05 756.964 3658
-1164.3 756.964 3658
-1160.93 760.482 3675
-1157.16 763.793 3691
-1150.82 765.448 3699
-1141.97 765.448 3699
-1133.13 765.448 3699
-1121.85 763.793 3691
-1113.02 763.793 3691
-1104.2 763.793 3691
-1100.12 767.104 3707
-1103.62 775.795 3749
-1101.95 780.968 3774
-1092.93 780.968 3774
-1089.07 784.693 3792
-1094.82 795.453 3844
-1085.62 795.453 3844
-1076.43 795.453 3844
-1067.24 795.453 3844
-1063 799.178 3862
-1053.77 799.178 3862
-1044.53 799.178 3862
-1035.3 799.178 3862
-1016.5 791.729 3826
-1007.35 791.729 3826
-996.111 790.073 3818
-984.655 788.211 3809
-975.546 788.211 3809
-970.751 791.729 3826
-961.602 791.729 3826
-952.453 791.729 3826
-943.304 791.729 3826
-934.155 791.729 3826
-925.005 791.729 3826
-909.633 786.348 3800
-900.546 786.348 3800
-891.459 786.348 3800
-882.372 786.348 3800
-873.285 786.348 3800
-862.378 784.693 3792
-853.311 784.693 3792
-844.243 784.693 3792
-835.175 784.693 3792
-824.146 782.831 3783
-815.1 782.831 3783
-806.054 782.831 3783
-797.008 782.831 3783
-787.961 782.831 3783
-778.915 782.831 3783
-769.869 782.831 3783
-760.822 782.831 3783
-749.987 780.968 3774
-732.717 772.277 3732
-723.792 772.277 3732
-713.336 770.621 3724
-699.701 765.448 3699
-686.374 760.482 3675
-677.585 760.482 3675
-668.797 760.482 3675
-660.009 760.482 3675
-648.209 756.964 3658
-639.462 756.964 3658
-629.335 755.308 3650
-619.246 753.653 3642
-608.023 750.549 3627
-599.349 750.549 3627
-590.676 750.549 3627
-582.003 750.549 3627
-570.8 747.238 3611
-562.165 747.238 3611
-553.53 747.238 3611
-544.895 747.238 3611
-535.072 745.582 3603
-525.288 743.927 3595
-516.691 743.927 3595
-508.094 743.927 3595
-499.497 743.927 3595
-490.901 743.927 3595
-482.304 743.927 3595
-473.707 743.927 3595
-465.11 743.927 3595
-456.514 743.927 3595
-447.917 743.927 3595
-438.465 742.478 3588
-429.885 742.478 3588
-421.305 742.478 3588
-412.725 742.478 3588
-404.145 742.478 3588
-394.683 740.823 3580
-386.122 740.823 3580
-378.405 742.478 3588
-369.825 742.478 3588
-361.245 742.478 3588
-351.092 739.167 3572
-342.55 739.167 3572
-334.009 739.167 3572
-324.829 737.719 3565
-315.594 736.063 3557
-307.089 736.063 3557
-298.583 736.063 3557
-290.077 736.063 3557
-281.571 736.063 3557
-273.065 736.063 3557
-264.559 736.063 3557
-256.053 736.063 3557
-147.713 454.84 2198
-142.456 454.84 2198
-137.2 454.84 2198
-131.944 454.84 2198
-126.688 454.84 2198
-121.266 454.22 2195
-116.017 454.22 2195
-110.466 452.978 2189
-105.087 452.357 2186
-99.8596 452.357 2186
-94.5456 451.943 2184
-89.323 451.943 2184
-83.9849 451.323 2181
-78.7694 451.323 2181
-73.554 451.323 2181
-68.3386 451.323 2181
-62.9495 450.081 2175
-57.7484 450.081 2175
-52.5473 450.081 2175
-47.2809 449.46 2172
-42.087 449.46 2172
-36.8931 449.46 2172
-31.6262 448.426 2167
-26.4077 447.805 2164
-21.174 446.563 2158
-16.0136 446.563 2158
-10.828 445.528 2153
-5.67162 444.908 2150
-0.528842 443.666 2144
4.59811 443.666 2144
9.71599 443.252 2142
14.8382 443.252 2142
19.9603 443.252 2142
25.1411 444.287 2147
30.388 445.942 2155
35.5413 445.942 2155
40.6945 445.942 2155
45.8478 445.942 2155
51.001 445.942 2155
56.1543 445.942 2155
61.2506 445.528 2153
66.6458 447.184 2161
71.9131 447.805 2164
77.0879 447.805 2164
82.5668 449.46 2172
87.8819 450.081 2175
93.3398 451.323 2181
98.5552 451.323 2181
103.771 451.323 2181
108.986 451.323 2181
114.202 451.323 2181
119.417 451.323 2181
124.632 451.323 2181
129.669 450.702 2178
134.877 450.702 2178
140.086 450.702 2178
145.094 450.081 2175
150.295 450.081 2175
155.496 450.081 2175
160.475 449.46 2172
165.669 449.46 2172
170.627 448.839 2169
176.057 449.46 2172
181.251 449.46 2172
186.445 449.46 2172
191.374 448.839 2169
196.561 448.839 2169
201.748 448.839 2169
206.934 448.839 2169
213.001 450.702 2178
218.51 451.323 2181
223.726 451.323 2181
228.941 451.323 2181
909.908 788.211 3809
919.016 788.211 3809
928.125 788.211 3809
933.05 784.693 3792
937.646 780.968 3774
946.671 780.968 3774
945.06 772.277 3732
939.414 760.482 3675
941.751 755.308 3650
950.48 755.308 3650
959.208 755.308 3650
965.815 753.653 3642
970.51 750.549 3627
979.183 750.549 3627
987.857 750.549 3627
992.134 747.238 3611
998.552 745.582 3603
1000.74 740.823 3580
1009.3 740.823 3580
1017.86 740.823 3580
1022.12 737.719 3565
1028.33 736.063 3557
1036.84 736.063 3557
1040.94 732.959 3542
1047.04 731.304 3534
1053.4 729.855 3527
1061.83 729.855 3527
1070.26 729.855 3527
1076.56 728.407 3520
1080.35 725.303 3505
1084.07 722.199 3490
1092.42 722.199 3490
1098.56 720.75 3483
1109.11 722.199 3490
1117.46 722.199 3490
1125.8 722.199 3490
1134.15 722.199 3490
1142.49 722.199 3490
1150.84 722.199 3490
1161.51 723.647 3497
1172.55 725.303 3505
1180.93 725.303 3505
1191.69 726.751 3512
1200.08 726.751 3512
1211.24 728.407 3520
1219.65 728.407 3520
1230.51 729.855 3527
1241.41 731.304 3534
1252.69 732.959 3542
1261.16 732.959 3542
1277.87 737.719 3565
1294.69 742.478 3588
1308.72 745.582 3603
1317.34 745.582 3603
1331.84 748.893 3619
1346.42 752.204 3635
1360.71 755.308 3650
1369.44 755.308 3650
1387.6 760.482 3675
1396.39 760.482 3675
1405.18 760.482 3675
1413.97 760.482 3675
1419.66 758.826 3667
1418.69 753.653 3642
1427.4 753.653 3642
1427.04 748.893 3619
1429.34 745.582 3603
1431.97 742.478 3588
1428.11 736.063 3557
1436.61 736.063 3557
1432.93 729.855 3527
1426.24 722.199 3490
1422.67 716.198 3461
1430.95 716.198 3461
1413.02 703.161 3398
1404 694.677 3357
1400.67 689.09 3330
1408.64 689.09 3330
1402.56 682.261 3297
1399.32 676.88 3271
1401.55 674.19 3258
1404.15 671.707 3246
1411.91 671.707 3246
1416.61 670.259 3239
1421.72 669.017 3233
1429.45 669.017 3233
1437.18 669.017 3233
1442.23 667.775 3227
1449.95 667.775 3227
1457.67 667.775 3227
1465.38 667.775 3227
1473.1 667.775 3227
1483.57 669.017 3233
1491.3 669.017 3233
1499.03 669.017 3233
1503.97 667.775 3227
1511.68 667.775 3227
1516.58 666.534 3221
1524.28 666.534 3221
1531.98 666.534 3221
1536.34 665.085 3214
1538.26 662.602 3202
1540.12 660.119 3190
1547.75 660.119 3190
1537.82 652.669 3154
1542.43 651.428 3148
1544.05 648.944 3136
1551.55 648.944 3136
1544.63 642.943 3107
1540.57 638.184 3084
1522.34 627.63 3033
1512.95 620.801 3000
1520.13 620.801 3000
1514.07 615.421 2974
1494.58 604.661 2922
1490.78 600.315 2901
1497.71 600.315 2901
1494.28 596.176 2881
1488.66 591.21 2857
1487.64 588.106 2842
1494.44 588.106 2842
1501.23 588.106 2842
1502.72 586.036 2832
1509.5 586.036 2832
1516.27 586.036 2832
1523.04 586.036 2832
1524.95 584.174 2823
1524.1 581.277 2809
1528.1 580.242 2804
1534.8 580.242 2804
1536.01 578.173 2794
1540.48 577.345 2790
1547.15 577.345 2790
1553.83 577.345 2790
1557.7 576.311 2785
1559.31 574.448 2776
1565.94 574.448 2776
1577.68 576.311 2785
1595.15 580.242 2804
1601.85 580.242 2804
1608.56 580.242 2804
1626.21 584.174 2823
1641.06 587.071 2837
1647.84 587.071 2837
1686.12 598.246 2891
1693.03 598.246 2891
1699.95 598.246 2891
2001.62 695.918 3363
2009.66 695.918 3363
2059.7 710.404 3433
2093.81 719.302 3476
2110.59 722.199 3490
2118.93 722.199 3490
2127.28 722.199 3490
2149.09 726.751 3512
2157.49 726.751 3512
2165.88 726.751 3512
2174.28 726.751 3512
2178.33 725.303 3505
2196.07 728.407 3520
2204.49 728.407 3520
2212.9 728.407 3520
2221.32 728.407 3520
2201.87 719.302 3476
2210.18 719.302 3476
2166.63 694.677 3357
2174.65 694.677 3357
2182.68 694.677 3357
2151.55 682.261 3297
2079.91 618.732 2990
2087.06 618.732 2990
2094.21 618.732 2990
2075.36 611.076 2953
2082.42 611.076 2953
2089.48 611.076 2953
2096.54 611.076 2953
2081.52 604.661 2922
2088.51 604.661 2922
2091.91 603.626 2917
2135.58 614.18 2968
2142.68 614.18 2968
2154.12 615.421 2974
2161.23 615.421 2974
2168.35 615.421 2974
2175.46 615.421 2974
2174.5 613.145 2963
2174.22 611.076 2953
2196.79 615.421 2974
2207.61 616.456 2979
2214.73 616.456 2979
2266.61 628.872 3039
2298.57 635.701 3072
2314.92 638.184 3084
2322.29 638.184 3084
2337.98 640.46 3095
2354.47 642.943 3107
2425 660.119 3190
2432.63 660.119 3190
2440.26 660.119 3190
-2437.25 715.697 3419
-2429.08 715.697 3419
-2420.9 715.697 3419
-2402.84 712.766 3405
-2394.7 712.766 3405
-2386.56 712.766 3405
-2368.64 709.836 3391
-2327.12 699.788 3343
-2319.12 699.788 3343
-2320.81 702.718 3357
-2326.56 706.905 3377
-2318.48 706.905 3377
-2339.14 715.697 3419
-2340.51 718.628 3433
-2332.3 718.628 3433
-2324.09 718.628 3433
-2311.16 717.162 3426
-2307.67 718.628 3433
-2313.53 723.023 3454
-2305.27 723.023 3454
-2306.32 725.954 3468
-2298.03 725.954 3468
-2304.26 730.559 3490
-2295.91 730.559 3490
-2297.4 733.699 3505
-2289.02 733.699 3505
-2285.19 735.164 3512
-2276.79 735.164 3512
-2273.56 736.839 3520
-2265.15 736.839 3520
-2261.22 738.304 3527
-2252.78 738.304 3527
-2244.35 738.304 3527
-2235.91 738.304 3527
-2227.48 738.304 3527
-2214.64 736.839 3520
-2201.21 735.164 3512
-2197.81 736.839 3520
-2189.39 736.839 3520
-2180.97 736.839 3520
-2172.55 736.839 3520
-2159.22 735.164 3512
-2150.82 735.164 3512
-2138.15 733.699 3505
-2124.91 732.025 3497
-2098.99 725.954 3468
-2090.7 725.954 3468
-2074 723.023 3454
-2065.74 723.023 3454
-2053.31 721.558 3447
-2045.07 721.558 3447
-2032.69 720.093 3440
-2020.35 718.628 3433
-1991.62 711.301 3398
-1983.5 711.301 3398
-1959.09 705.44 3370
-1943.51 702.718 3357
-1927.41 699.788 3343
-1919.41 699.788 3343
-1907.99 698.532 3337
-1903.43 699.788 3343
-1903.37 702.718 3357
-1895.34 702.718 3357
-1887.32 702.718 3357
-1882.65 703.974 3363
-1882.41 706.905 3377
-1874.33 706.905 3377
-1866.26 706.905 3377
-1862.03 708.37 3384
-1853.94 708.37 3384
-1845.85 708.37 3384
-1837.76 708.37 3384
-1837.23 711.301 3398
-1844.18 717.162 3426
-1843.49 720.093 3440
-1835.26 720.093 3440
-1841.91 725.954 3468
-1841.55 729.094 3483
-1836.9 730.559 3490
-1828.56 730.559 3490
-1828.04 733.699 3505
-1819.65 733.699 3505
-1814.89 735.164 3512
-1806.49 735.164 3512
-1798.09 735.164 3512
-1797.34 738.304 3527
-1788.9 738.304 3527
-1780.47 738.304 3527
-1775.55 739.77 3534
-1774.6 742.91 3549
-1770.1 744.584 3557
-1761.59 744.584 3557
-1757.03 746.259 3565
-1751.94 747.724 3572
-1743.39 747.724 3572
-1734.85 747.724 3572
-1734.04 751.073 3588
-1732.68 754.213 3603
-1727.89 755.888 3611
-1719.25 755.888 3611
-1718.2 759.237 3627
-1713.3 760.912 3635
-1719.61 767.611 3667
-1710.84 767.611 3667
-1709.5 770.96 3683
-1727.01 782.892 3740
-1737.82 791.893 3783
-1728.78 791.893 3783
-1731.55 797.335 3809
-1726.51 799.219 3818
-1720.98 800.894 3826
-1711.83 800.894 3826
-1706.69 802.778 3835
-1697.52 802.778 3835
-1688.35 802.778 3835
-1679.17 802.778 3835
-1666.08 800.894 3826
-1649.57 797.335 3809
-1625.39 790.009 3774
-1616.37 790.009 3774
-1596.69 784.776 3749
-1563.17 772.634 3691
-1544.23 767.611 3667
-1535.46 767.611 3667
-1510.04 759.237 3627
-1485.22 751.073 3588
-1463.89 744.584 3557
-1455.38 744.584 3557
-1434.67 738.304 3527
-1423.41 736.839 3520
-1408.96 733.699 3505
-1400.58 733.699 3505
-1392.2 733.699 3505
-1383.81 733.699 3505
-1372.29 732.025 3497
-1363.93 732.025 3497
-1352.86 730.559 3490
-1356.07 736.839 3520
-1353.01 739.77 3534
-1350.27 742.91 3549
-1341.78 742.91 3549
-1336.3 744.584 3557
-1341.98 752.539 3595
-1339.31 755.888 3611
-1330.68 755.888 3611
-1327.9 759.237 3627
-1322.14 760.912 3635
-1315.98 762.377 3642
-1307.27 762.377 3642
-1307.47 767.611 3667
-1301.54 769.285 3675
-1295.56 770.96 3683
-1286.76 770.96 3683
-1277.95 770.96 3683
-1266.38 769.285 3675
-1257.6 769.285 3675
-1243.03 765.727 3658
-1228.89 762.377 3642
-1215.15 759.237 3627
-1206.48 759.237 3627
-1197.8 759.237 3627
-1189.13 759.237 3627
-1183.06 760.912 3635
-1176.63 762.377 3642
-1170.49 764.052 3650
-1161.76 764.052 3650
-1158.4 767.611 3667
-1157.16 772.634 3691
-1150.82 774.309 3699
-1141.97 774.309 3699
-1133.13 774.309 3699
-1121.85 772.634 3691
-1113.02 772.634 3691
-1104.2 772.634 3691
-1100.12 775.984 3707
-1103.62 784.776 3749
-1101.95 790.009 3774
-1092.93 790.009 3774
-1089.07 793.777 3792
-1092.25 802.778 3835
-1083.08 802.778 3835
-1073.91 802.778 3835
-1067.24 804.662 3844
-1060.52 806.546 3853
-1051.31 806.546 3853
-1042.1 806.546 3853
-1032.88 806.546 3853
-1016.5 800.894 3826
-1007.35 800.894 3826
-993.763 797.335 3809
-984.655 797.335 3809
-975.546 797.335 3809
-970.751 800.894 3826
-961.602 800.894 3826
-952.453 800.894 3826
-943.304 800.894 3826
-934.155 800.894 3826
-923.071 799.219 3818
-909.633 795.451 3800
-900.546 795.451 3800
-891.459 795.451 3800
-882.372 795.451 3800
-871.446 793.777 3792
-862.378 793.777 3792
-853.311 793.777 3792
-844.243 793.777 3792
-835.175 793.777 3792
-824.146 791.893 3783
-815.1 791.893 3783
-806.054 791.893 3783
-797.008 791.893 3783
-787.961 791.893 3783
-778.915 791.893 3783
-769.869 791.893 3783
-760.822 791.893 3783
-749.987 790.009 3774
-732.717 781.217 3732
-723.792 781.217 3732
-713.336 779.542 3724
-699.701 774.309 3699
-686.374 769.285 3675
-677.585 769.285 3675
-668.797 769.285 3675
-660.009 769.285 3675
-648.209 765.727 3658
-639.462 765.727 3658
-629.335 764.052 3650
-619.246 762.377 3642
-608.023 759.237 3627
-599.349 759.237 3627
-590.676 759.237 3627
-582.003 759.237 3627
-570.8 755.888 3611
-562.165 755.888 3611
-553.53 755.888 3611
-544.895 755.888 3611
-533.884 752.539 3595
-525.288 752.539 3595
-516.691 752.539 3595
-508.094 752.539 3595
-499.497 752.539 3595
-490.901 752.539 3595
-482.304 752.539 3595
-473.707 752.539 3595
-464.205 751.073 3588
-455.625 751.073 3588
-447.045 751.073 3588
-438.465 751.073 3588
-429.885 751.073 3588
-420.365 749.399 3580
-411.805 749.399 3580
-403.244 749.399 3580
-394.683 749.399 3580
-385.259 747.724 3572
-376.717 747.724 3572
-368.176 747.724 3572
-359.634 747.724 3572
-350.404 746.259 3565
-341.879 746.259 3565
-333.354 746.259 3565
-323.371 742.91 3549
-314.885 742.91 3549
-307.089 744.584 3557
-298.583 744.584 3557
-290.077 744.584 3557
-281.571 744.584 3557
-271.914 741.444 3542
-263.444 741.444 3542
-254.398 739.77 3534
-136.451 457.594 2186
-131.404 458.222 2189
-126.169 458.222 2189
-120.935 458.222 2189
-115.7 458.222 2189
-110.314 457.594 2186
-104.991 457.175 2184
-99.7682 457.175 2184
-94.5456 457.175 2184
-89.2003 456.547 2181
-83.9849 456.547 2181
-78.7694 456.547 2181
-73.4528 455.919 2178
-68.2446 455.919 2178
-62.9495 455.291 2175
-57.7484 455.291 2175
-52.5473 455.291 2175
-47.2809 454.663 2172
-42.087 454.663 2172
-36.8931 454.663 2172
-31.5825 452.989 2164
-26.3345 451.733 2158
-21.1446 451.105 2155
-15.9913 451.105 2155
-10.8129 450.058 2150
-5.66371 449.43 2147
-0.528349 448.383 2142
4.59382 448.383 2142
9.71599 448.383 2142
14.8174 447.755 2139
19.9324 447.755 2139
25.0825 448.383 2142
30.3175 450.058 2150
35.4588 450.058 2150
40.6001 450.058 2150
45.7414 450.058 2150
50.8827 450.058 2150
56.024 450.058 2150
61.1653 450.058 2150
66.3991 450.686 2153
71.8134 452.361 2161
76.9811 452.361 2161
82.4528 454.035 2169
87.8819 455.291 2175
93.2114 455.919 2178
98.4197 455.919 2178
103.771 456.547 2181
108.986 456.547 2181
114.202 456.547 2181
119.417 456.547 2181
124.461 455.919 2178
129.669 455.919 2178
134.877 455.919 2178
139.893 455.291 2175
145.094 455.291 2175
150.088 454.663 2172
155.282 454.663 2172
160.475 454.663 2172
165.441 454.035 2169
170.627 454.035 2169
175.814 454.035 2169
181.001 454.035 2169
186.188 454.035 2169
191.374 454.035 2169
196.561 454.035 2169
201.748 454.035 2169
206.934 454.035 2169
212.415 454.663 2172
218.21 455.919 2178
223.418 455.919 2178
228.626 455.919 2178
909.908 797.335 3809
919.016 797.335 3809
928.125 797.335 3809
933.05 793.777 3792
937.646 790.009 3774
946.671 790.009 3774
945.06 781.217 3732
939.414 769.285 3675
941.751 764.052 3650
950.48 764.052 3650
959.208 764.052 3650
965.815 762.377 3642
970.51 759.237 3627
979.183 759.237 3627
987.857 759.237 3627
992.134 755.888 3611
998.552 754.213 3603
1000.74 749.399 3580
1009.3 749.399 3580
1013.6 746.259 3565
1022.12 746.259 3565
1026.02 742.91 3549
1032.47 741.444 3542
1040.94 741.444 3542
1047.04 739.77 3534
1053.4 738.304 3527
1061.83 738.304 3527
1070.26 738.304 3527
1076.56 736.839 3520
1082.51 735.164 3512
1086.25 732.025 3497
1094.61 732.025 3497
1100.76 730.559 3490
1109.11 730.559 3490
1117.46 730.559 3490
1125.8 730.559 3490
1134.15 730.559 3490
1142.49 730.559 3490
1150.84 730.559 3490
1161.51 732.025 3497
1172.55 733.699 3505
1180.93 733.699 3505
1191.69 735.164 3512
1200.08 735.164 3512
1211.24 736.839 3520
1219.65 736.839 3520
1230.51 738.304 3527
1241.41 739.77 3534
1252.69 741.444 3542
1261.16 741.444 3542
1277.87 746.259 3565
1294.69 751.073 3588
1308.72 754.213 3603
1317.34 754.213 3603
1331.84 757.563 3619
1346.42 760.912 3635
1360.71 764.052 3650
1369.44 764.052 3650
1387.6 769.285 3675
1396.39 769.285 3675
1405.18 769.285 3675
1413.97 769.285 3675
1419.66 767.611 3667
1418.69 762.377 3642
1427.4 762.377 3642
1427.04 757.563 3619
1429.34 754.213 3603
1431.97 751.073 3588
1428.11 744.584 3557
1436.61 744.584 3557
1432.93 738.304 3527
1426.24 730.559 3490
1422.67 724.489 3461
1430.95 724.489 3461
1413.02 711.301 3398
1406.51 703.974 3363
1400.67 697.067 3330
1408.64 697.067 3330
1402.56 690.159 3297
1399.32 684.716 3271
1401.55 681.995 3258
1404.15 679.483 3246
1411.91 679.483 3246
1416.61 678.018 3239
1421.72 676.762 3233
1429.45 676.762 3233
1437.18 676.762 3233
1442.23 675.506 3227
1449.95 675.506 3227
1457.67 675.506 3227
1465.38 675.506 3227
1473.1 675.506 3227
1483.57 676.762 3233
1491.3 676.762 3233
1499.03 676.762 3233
1503.97 675.506 3227
1511.68 675.506 3227
1519.4 675.506 3227
1527.12 675.506 3227
1534.83 675.506 3227
1536.34 672.784 3214
1541.14 671.528 3208
1543.02 669.016 3196
1550.66 669.016 3196
1540.75 661.481 3160
1542.43 658.969 3148
1544.05 656.457 3136
1551.55 656.457 3136
1547.11 651.433 3112
1543.07 646.618 3089
1530.88 638.454 3050
1527.08 633.849 3028
1534.32 633.849 3028
1522.21 625.895 2990
1497.14 612.707 2927
1493.35 608.311 2906
1500.29 608.311 2906
1494.28 603.078 2881
1488.66 598.054 2857
1487.64 594.914 2842
1494.44 594.914 2842
1501.23 594.914 2842
1502.72 592.821 2832
1509.5 592.821 2832
1516.27 592.821 2832
1523.04 592.821 2832
1524.95 590.937 2823
1524.1 588.006 2809
1528.1 586.959 2804
1534.8 586.959 2804
1536.01 584.866 2794
1540.48 584.029 2790
1547.15 584.029 2790
1553.83 584.029 2790
1557.7 582.982 2785
1559.31 581.098 2776
1565.94 581.098 2776
1577.68 582.982 2785
1595.15 586.959 2804
1601.85 586.959 2804
1608.56 586.959 2804
1626.21 590.937 2823
1666.51 603.078 2881
1673.4 603.078 2881
1686.12 605.171 2891
1693.03 605.171 2891
1699.95 605.171 2891
2009.95 706.905 3377
2018.02 706.905 3377
2085.5 727.629 3476
2102.24 730.559 3490
2114.82 732.025 3497
2123.18 732.025 3497
2136.42 733.699 3505
2149.09 735.164 3512
2157.49 735.164 3512
2165.88 735.164 3512
2174.28 735.164 3512
2178.33 733.699 3505
2196.07 736.839 3520
2204.49 736.839 3520
2212.9 736.839 3520
2221.32 736.839 3520
2201.87 727.629 3476
2210.18 727.629 3476
2184.96 711.301 3398
2193.09 711.301 3398
2201.21 711.301 3398
2182.68 702.718 3357
2173.09 697.067 3330
2159.44 690.159 3297
2167.32 690.159 3297
2162.67 686.181 3278
2149.32 679.483 3246
2131.83 671.528 3208
2172.85 681.995 3258
2180.64 681.995 3258
2188.43 681.995 3258
2196.22 681.995 3258
2204.01 681.995 3258
2198.9 678.018 3239
2228.45 684.716 3271
2245.16 687.437 3284
2253.01 687.437 3284
2260.87 687.437 3284
2268.72 687.437 3284
2241.22 676.762 3233
2248.95 676.762 3233
2256.68 676.762 3233
2238.49 669.016 3196
2246.14 669.016 3196
2253.78 669.016 3196
2261.42 669.016 3196
2264.81 667.76 3190
2225.42 653.945 3124
2232.89 653.945 3124
2240.36 653.945 3124
2247.83 653.945 3124
2250.97 652.689 3118
2225.11 643.06 3072
2228.82 642.013 3067
2236.15 642.013 3067
2243.49 642.013 3067
2233.94 637.198 3044
2216.92 630.291 3011
2224.12 630.291 3011
2211.31 624.639 2984
2259.34 636.152 3039
2278.54 639.501 3055
2311.29 646.618 3089
2327.68 649.13 3101
2335.1 649.13 3101
2347.04 650.386 3107
2381 657.713 3142
2434.12 670.272 3202
2441.78 670.272 3202
2449.44 670.272 3202
-2437.25 723.887 3419
-2429.08 723.887 3419
-2420.9 723.887 3419
-2412.72 723.887 3419
-2404.55 723.887 3419
-2396.37 723.887 3419
-2378.42 720.923 3405
-2350.78 714.995 3377
-2323.98 709.278 3350
-2320.81 710.76 3357
-2326.56 714.995 3377
-2318.48 714.995 3377
-2339.14 723.887 3419
-2340.51 726.851 3433
-2332.3 726.851 3433
-2324.09 726.851 3433
-2311.16 725.369 3426
-2307.67 726.851 3433
-2313.53 731.297 3454
-2305.27 731.297 3454
-2306.32 734.262 3468
-2303.33 735.955 3476
-2304.26 738.92 3490
-2295.91 738.92 3490
-2297.4 742.095 3505
-2298.81 745.271 3520
-2290.4 745.271 3520
-2281.98 745.271 3520
-2273.56 745.271 3520
-2269.65 746.753 3527
-2261.22 746.753 3527
-2252.78 746.753 3527
-2244.35 746.753 3527
-2235.91 746.753 3527
-2227.48 746.753 3527
-2214.64 745.271 3520
-2206.22 745.271 3520
-2202.18 746.753 3527
-2193.74 746.753 3527
-2185.31 746.753 3527
-2176.87 746.753 3527
-2168.44 746.753 3527
-2160.01 746.753 3527
-2142.42 743.578 3512
-2129.77 742.095 3505
-2108.07 737.438 3483
-2099.74 737.438 3483
-2082.41 734.262 3468
-2074.12 734.262 3468
-2061.65 732.78 3461
-2053.38 732.78 3461
-2040.96 731.297 3454
-2024.46 728.333 3440
-2012.14 726.851 3433
-2003.93 726.851 3433
-1959.09 713.513 3370
-1943.51 710.76 3357
-1931.44 709.278 3350
-1923.43 709.278 3350
-1907.99 706.526 3337
-1900.01 706.526 3337
-1895.43 707.796 3343
-1891.39 709.278 3350
-1883.38 709.278 3350
-1875.37 709.278 3350
-1867.36 709.278 3350
-1866.56 712.031 3363
-1858.52 712.031 3363
-1850.48 712.031 3363
-1842.44 712.031 3363
-1842.03 714.995 3377
-1833.96 714.995 3377
-1829.67 716.477 3384
-1829.11 719.441 3398
-1835.99 725.369 3426
-1827.8 725.369 3426
-1830.76 729.815 3447
-1829.92 732.78 3461
-1829.53 735.955 3476
-1821.22 735.955 3476
-1820.21 738.92 3490
-1815.5 740.402 3497
-1811.27 742.095 3505
-1802.89 742.095 3505
-1798.09 743.578 3512
-1789.69 743.578 3512
-1785.35 745.271 3520
-1776.94 745.271 3520
-1772.04 746.753 3527
-1771.1 749.929 3542
-1770.1 753.105 3557
-1761.59 753.105 3557
-1757.03 754.799 3565
-1748.5 754.799 3565
-1743.39 756.281 3572
-1734.85 756.281 3572
-1734.04 759.669 3588
-1732.68 762.844 3603
-1731.72 766.232 3619
-1723.06 766.232 3619
-1721.99 769.62 3635
-1716.6 771.102 3642
-1723.36 778.089 3675
-1714.57 778.089 3675
-1713.21 781.476 3691
-1731.17 793.756 3749
-1741.96 802.86 3792
-1732.89 802.86 3792
-1731.55 806.46 3809
-1726.51 808.365 3818
-1720.98 810.059 3826
-1711.83 810.059 3826
-1706.69 811.965 3835
-1697.52 811.965 3835
-1688.35 811.965 3835
-1679.17 811.965 3835
-1666.08 810.059 3826
-1649.57 806.46 3809
-1625.39 799.049 3774
-1616.37 799.049 3774
-1596.69 793.756 3749
-1563.17 781.476 3691
-1544.23 776.395 3667
-1535.46 776.395 3667
-1510.04 767.926 3627
-1485.22 759.669 3588
-1463.89 753.105 3557
-1455.38 753.105 3557
-1434.67 746.753 3527
-1423.41 745.271 3520
-1408.96 742.095 3505
-1400.58 742.095 3505
-1392.2 742.095 3505
-1383.81 742.095 3505
-1372.29 740.402 3497
-1363.93 740.402 3497
-1352.86 738.92 3490
-1356.07 745.271 3520
-1353.01 748.235 3534
-1350.27 751.411 3549
-1341.78 751.411 3549
-1336.3 753.105 3557
-1341.98 761.151 3595
-1339.31 764.538 3611
-1330.68 764.538 3611
-1327.9 767.926 3627
-1324.69 771.102 3642
-1318.87 772.796 3650
-1310.14 772.796 3650
-1307.47 776.395 3667
-1301.54 778.089 3675
-1292.75 778.089 3675
-1283.96 778.089 3675
-1275.17 778.089 3675
-1266.38 778.089 3675
-1257.6 778.089 3675
-1246.09 776.395 3667
-1226.52 769.62 3635
-1215.15 767.926 3627
-1206.48 767.926 3627
-1197.8 767.926 3627
-1189.13 767.926 3627
-1183.06 769.62 3635
-1176.63 771.102 3642
-1170.49 772.796 3650
-1161.76 772.796 3650
-1155.56 774.489 3658
-1152.14 778.089 3675
-1148.33 781.476 3691
-1139.5 781.476 3691
-1130.68 781.476 3691
-1121.85 781.476 3691
-1113.02 781.476 3691
-1104.2 781.476 3691
-1097.75 783.17 3699
-1100.97 791.851 3740
-1099.62 797.356 3766
-1090.61 797.356 3766
-1086.49 800.955 3783
-1089.69 810.059 3826
-1080.54 810.059 3826
-1071.39 810.059 3826
-1064.74 811.965 3835
-1058.05 813.87 3844
-1048.86 813.87 3844
-1039.66 813.87 3844
-1030.47 813.87 3844
-1014.37 808.365 3818
-1005.24 808.365 3818
-991.415 804.554 3800
-982.328 804.554 3800
-973.241 804.554 3800
-966.438 806.46 3809
-957.329 806.46 3809
-948.221 806.46 3809
-939.112 806.46 3809
-930.004 806.46 3809
-920.895 806.46 3809
-909.633 804.554 3800
-900.546 804.554 3800
-891.459 804.554 3800
-880.514 802.86 3792
-871.446 802.86 3792
-862.378 802.86 3792
-853.311 802.86 3792
-844.243 802.86 3792
-835.175 802.86 3792
-824.146 800.955 3783
-815.1 800.955 3783
-806.054 800.955 3783
-797.008 800.955 3783
-789.836 802.86 3792
-782.415 804.554 3800
-773.328 804.554 3800
-764.241 804.554 3800
-751.776 800.955 3783
-739.392 797.356 3766
-730.386 797.356 3766
-714.868 790.157 3732
-699.701 783.17 3699
-689.362 781.476 3691
-680.536 781.476 3691
-668.797 778.089 3675
-660.009 778.089 3675
-648.209 774.489 3658
-639.462 774.489 3658
-629.335 772.796 3650
-618.056 769.62 3635
-609.364 769.62 3635
-600.671 769.62 3635
-590.676 767.926 3627
-582.003 767.926 3627
-570.8 764.538 3611
-560.92 762.844 3603
-552.304 762.844 3603
-543.688 762.844 3603
-533.884 761.151 3595
-525.288 761.151 3595
-516.691 761.151 3595
-507.105 759.669 3588
-498.525 759.669 3588
-489.945 759.669 3588
-481.365 759.669 3588
-472.785 759.669 3588
-464.205 759.669 3588
-454.609 757.975 3580
-447.045 759.669 3588
-438.465 759.669 3588
-429.885 759.669 3588
-420.365 757.975 3580
-411.805 757.975 3580
-403.244 757.975 3580
-393.801 756.281 3572
-385.259 756.281 3572
-376.717 756.281 3572
-368.176 756.281 3572
-359.634 756.281 3572
-350.404 754.799 3565
-341.879 754.799 3565
-332.606 753.105 3557
-323.371 751.411 3549
-314.885 751.411 3549
-306.398 751.411 3549
-297.911 751.411 3549
-289.424 751.411 3549
-280.938 751.411 3549
-271.914 749.929 3542
-263.444 749.929 3542
-254.398 748.235 3534
-141.355 461.772 2181
-136.326 462.407 2184
-131.104 462.407 2184
-125.881 462.407 2184
-120.659 462.407 2184
-115.436 462.407 2184
-110.062 461.772 2181
-104.847 461.772 2181
-99.6312 461.772 2181
-94.4157 461.772 2181
-89.0776 461.137 2178
-83.8694 461.137 2178
-78.6611 461.137 2178
-73.3517 460.501 2175
-68.1506 460.501 2175
-62.8627 459.866 2172
-57.6688 459.866 2172
-52.4749 459.866 2172
-47.2809 459.866 2172
-42.0289 459.231 2169
-36.8422 459.231 2169
-31.5825 458.172 2164
-26.3345 456.902 2158
-21.125 455.844 2153
-15.9765 455.844 2153
-10.828 455.844 2153
-5.67162 455.208 2150
-0.528842 453.938 2144
4.59811 453.938 2144
9.71599 453.515 2142
14.8174 452.879 2139
19.9044 452.244 2136
25.0122 452.244 2136
30.2047 453.515 2142
35.3269 453.515 2142
40.5434 454.573 2147
45.6776 454.573 2147
50.8117 454.573 2147
55.9458 454.573 2147
61.08 454.573 2147
66.3066 455.208 2150
71.6141 456.267 2155
76.7673 456.267 2155
82.3767 458.808 2167
87.7607 459.866 2172
93.083 460.501 2175
98.2841 460.501 2175
103.485 460.501 2175
108.686 460.501 2175
113.887 460.501 2175
119.088 460.501 2175
124.29 460.501 2175
129.491 460.501 2175
134.692 460.501 2175
139.893 460.501 2175
144.894 459.866 2172
150.088 459.866 2172
155.282 459.866 2172
160.254 459.231 2169
165.288 458.808 2167
170.627 459.231 2169
175.814 459.231 2169
181.001 459.231 2169
186.188 459.231 2169
191.374 459.231 2169
196.38 458.808 2167
201.562 458.808 2167
206.457 458.172 2164
212.121 459.231 2169
217.308 459.231 2169
222.495 459.231 2169
227.681 459.231 2169
909.908 806.46 3809
919.016 806.46 3809
928.125 806.46 3809
933.05 802.86 3792
933.422 795.45 3757
942.406 795.45 3757
938.729 784.864 3707
937.369 776.395 3667
941.751 772.796 3650
948.396 771.102 3642
957.106 771.102 3642
963.958 769.62 3635
970.51 767.926 3627
977.024 766.232 3619
985.678 766.232 3619
989.936 762.844 3603
996.334 761.151 3595
1000.74 757.975 3580
1009.3 757.975 3580
1013.6 754.799 3565
1019.83 753.105 3557
1026.02 751.411 3549
1032.47 749.929 3542
1040.94 749.929 3542
1047.04 748.235 3534
1053.4 746.753 3527
1061.83 746.753 3527
1070.26 746.753 3527
1076.56 745.271 3520
1082.51 743.578 3512
1086.25 740.402 3497
1094.61 740.402 3497
1100.76 738.92 3490
1109.11 738.92 3490
1117.46 738.92 3490
1125.8 738.92 3490
1134.15 738.92 3490
1142.49 738.92 3490
1150.84 738.92 3490
1161.51 740.402 3497
1172.55 742.095 3505
1180.93 742.095 3505
1191.69 743.578 3512
1200.08 743.578 3512
1211.24 745.271 3520
1219.65 745.271 3520
1228.07 745.271 3520
1241.41 748.235 3534
1252.69 749.929 3542
1261.16 749.929 3542
1277.87 754.799 3565
1294.69 759.669 3588
1308.72 762.844 3603
1317.34 762.844 3603
1331.84 766.232 3619
1346.42 769.62 3635
1360.71 772.796 3650
1369.44 772.796 3650
1387.6 778.089 3675
1396.39 778.089 3675
1405.18 778.089 3675
1413.97 778.089 3675
1419.66 776.395 3667
1418.69 771.102 3642
1427.4 771.102 3642
1427.04 766.232 3619
1429.34 762.844 3603
1431.97 759.669 3588
1428.11 753.105 3557
1436.61 753.105 3557
1432.93 746.753 3527
1426.24 738.92 3490
1422.67 732.78 3461
1430.95 732.78 3461
1413.02 719.441 3398
1406.51 712.031 3363
1400.67 705.044 3330
1408.64 705.044 3330
1402.56 698.057 3297
1399.32 692.552 3271
1401.55 689.799 3258
1404.15 687.259 3246
1411.91 687.259 3246
1416.61 685.777 3239
1421.72 684.506 3233
1429.45 684.506 3233
1437.18 684.506 3233
1442.23 683.236 3227
1449.95 683.236 3227
1457.67 683.236 3227
1465.38 683.236 3227
1473.1 683.236 3227
1480.82 683.236 3227
1488.53 683.236 3227
1496.25 683.236 3227
1503.97 683.236 3227
1511.68 683.236 3227
1519.4 683.236 3227
1527.12 683.236 3227
1534.83 683.236 3227
1536.34 680.484 3214
1541.14 679.213 3208
1543.02 676.672 3196
1550.66 676.672 3196
1540.75 669.05 3160
1542.43 666.51 3148
1544.05 663.969 3136
1551.55 663.969 3136
1547.11 658.888 3112
1543.07 654.018 3089
1530.88 645.761 3050
1527.08 641.103 3028
1534.32 641.103 3028
1522.21 633.057 2990
1497.14 619.719 2927
1493.35 615.272 2906
1500.29 615.272 2906
1494.28 609.979 2881
1488.66 604.898 2857
1487.64 601.722 2842
1491.81 600.663 2837
1498.59 600.663 2837
1502.72 599.605 2832
1507.36 598.758 2828
1514.13 598.758 2828
1520.89 598.758 2828
1524.95 597.699 2823
1524.1 594.735 2809
1528.1 593.676 2804
1534.8 593.676 2804
1536.01 591.559 2794
1540.48 590.712 2790
1544.38 589.654 2785
1551.04 589.654 2785
1554.9 588.595 2780
1559.31 587.748 2776
1565.94 587.748 2776
1577.68 589.654 2785
1595.15 593.676 2804
1601.85 593.676 2804
1608.56 593.676 2804
1626.21 597.699 2823
1666.51 609.979 2881
1673.4 609.979 2881
1680.29 609.979 2881
2009.95 714.995 3377
2018.02 714.995 3377
2085.5 735.955 3476
2102.24 738.92 3490
2114.82 740.402 3497
2123.18 740.402 3497
2136.42 742.095 3505
2149.09 743.578 3512
2157.49 743.578 3512
2165.88 743.578 3512
2174.28 743.578 3512
2178.33 742.095 3505
2196.07 745.271 3520
2204.49 745.271 3520
2212.9 745.271 3520
2221.32 745.271 3520
2201.87 735.955 3476
2210.18 735.955 3476
2184.96 719.441 3398
2193.09 719.441 3398
2201.21 719.441 3398
2182.68 710.76 3357
2173.09 705.044 3330
2159.44 698.057 3297
2167.32 698.057 3297
2162.67 694.034 3278
2149.32 687.259 3246
2131.83 679.213 3208
2172.85 689.799 3258
2180.64 689.799 3258
2188.43 689.799 3258
2196.22 689.799 3258
2204.01 689.799 3258
2198.9 685.777 3239
2228.45 692.552 3271
2245.16 695.304 3284
2253.01 695.304 3284
2260.87 695.304 3284
2268.72 695.304 3284
2241.22 684.506 3233
2280.25 694.034 3278
2288.09 694.034 3278
2295.93 694.034 3278
2303.77 694.034 3278
2293.27 688.529 3252
2301.05 688.529 3252
2286.81 681.966 3221
2280.98 677.943 3202
2288.64 677.943 3202
2296.3 677.943 3202
2291 674.132 3184
2259.63 662.699 3130
2267.12 662.699 3130
2270.24 661.428 3124
2277.71 661.428 3124
2276.4 658.888 3112
2275.77 656.559 3101
2274.35 654.018 3089
2281.74 654.018 3089
2285.42 652.959 3084
2288.33 651.689 3078
2303.9 654.018 3089
2328.5 658.888 3112
2335.94 658.888 3112
2365.97 665.239 3142
2387.08 669.05 3160
2403.73 671.591 3172
2434.12 677.943 3202
2475.33 687.259 3246
2483.09 687.259 3246
-2437.25 732.077 3419
-2429.08 732.077 3419
-2420.9 732.077 3419
-2412.72 732.077 3419
-2404.55 732.077 3419
-2396.37 732.077 3419
-2378.42 729.08 3405
-2350.78 723.084 3377
-2323.98 717.303 3350
-2320.81 718.802 3357
-2326.56 723.084 3377
-2318.48 723.084 3377
-2339.14 732.077 3419
-2340.51 735.075 3433
-2332.3 735.075 3433
-2324.09 735.075 3433
-2311.16 733.576 3426
-2307.67 735.075 3433
-2313.53 739.572 3454
-2305.27 739.572 3454
-2306.32 742.569 3468
-2303.33 744.282 3476
-2308.88 748.779 3497
-2300.52 748.779 3497
-2297.4 750.492 3505
-2298.81 753.703 3520
-2290.4 753.703 3520
-2281.98 753.703 3520
-2273.56 753.703 3520
-2269.65 755.202 3527
-2261.22 755.202 3527
-2252.78 755.202 3527
-2244.35 755.202 3527
-2235.91 755.202 3527
-2227.48 755.202 3527
-2219.05 755.202 3527
-2206.22 753.703 3520
-2202.18 755.202 3527
-2198.1 756.701 3534
-2189.65 756.701 3534
-2181.19 756.701 3534
-2172.74 756.701 3534
-2164.29 756.701 3534
-2147.3 753.703 3520
-2134.02 751.991 3512
-2112.31 747.28 3490
-2103.96 747.28 3490
-2082.41 742.569 3468
-2074.12 742.569 3468
-2061.65 741.07 3461
-2053.38 741.07 3461
-2045.1 741.07 3461
-2024.46 736.574 3440
-2012.14 735.075 3433
-2003.93 735.075 3433
-1963.16 723.084 3377
-1951.03 721.585 3370
-1931.44 717.303 3350
-1923.43 717.303 3350
-1911.42 715.804 3343
-1903.43 715.804 3343
-1895.43 715.804 3343
-1891.39 717.303 3350
-1883.38 717.303 3350
-1875.37 717.303 3350
-1867.36 717.303 3350
-1866.56 720.087 3363
-1858.52 720.087 3363
-1850.48 720.087 3363
-1842.44 720.087 3363
-1842.03 723.084 3377
-1833.96 723.084 3377
-1829.67 724.583 3384
-1829.11 727.581 3398
-1835.99 733.576 3426
-1827.8 733.576 3426
-1830.76 738.073 3447
-1829.92 741.07 3461
-1829.53 744.282 3476
-1821.22 744.282 3476
-1820.21 747.28 3490
-1815.5 748.779 3497
-1811.27 750.492 3505
-1802.89 750.492 3505
-1798.09 751.991 3512
-1789.69 751.991 3512
-1785.35 753.703 3520
-1776.94 753.703 3520
-1772.04 755.202 3527
-1771.1 758.414 3542
-1770.1 761.626 3557
-1761.59 761.626 3557
-1757.03 763.339 3565
-1748.5 763.339 3565
-1743.39 764.838 3572
-1734.85 764.838 3572
-1734.04 768.264 3588
-1732.68 771.475 3603
-1731.72 774.901 3619
-1723.06 774.901 3619
-1721.99 778.327 3635
-1720.37 781.539 3650
-1723.36 786.892 3675
-1714.57 786.892 3675
-1720.64 793.744 3707
-1731.17 802.737 3749
-1741.96 811.944 3792
-1732.89 811.944 3792
-1731.55 815.584 3809
-1726.51 817.511 3818
-1720.98 819.224 3826
-1711.83 819.224 3826
-1706.69 821.151 3835
-1697.52 821.151 3835
-1688.35 821.151 3835
-1679.17 821.151 3835
-1666.08 819.224 3826
-1649.57 815.584 3809
-1625.39 808.09 3774
-1616.37 808.09 3774
-1596.69 802.737 3749
-1563.17 790.318 3691
-1544.23 785.179 3667
-1535.46 785.179 3667
-1510.04 776.614 3627
-1485.22 768.264 3588
-1463.89 761.626 3557
-1455.38 761.626 3557
-1434.67 755.202 3527
-1423.41 753.703 3520
-1408.96 750.492 3505
-1400.58 750.492 3505
-1392.2 750.492 3505
-1383.81 750.492 3505
-1372.29 748.779 3497
-1363.93 748.779 3497
-1352.86 747.28 3490
-1356.07 753.703 3520
-1353.01 756.701 3534
-1350.27 759.913 3549
-1341.78 759.913 3549
-1336.3 761.626 3557
-1341.98 769.763 3595
-1339.31 773.188 3611
-1330.68 773.188 3611
-1327.9 776.614 3627
-1324.69 779.826 3642
-1318.87 781.539 3650
-1310.14 781.539 3650
-1310.32 786.892 3675
-1304.37 788.605 3683
-1295.56 788.605 3683
-1286.76 788.605 3683
-1277.95 788.605 3683
-1266.38 786.892 3675
-1257.6 786.892 3675
-1246.09 785.179 3667
-1226.52 778.327 3635
-1217.83 778.327 3635
-1209.14 778.327 3635
-1200.45 778.327 3635
-1191.75 778.327 3635
-1185.34 779.826 3642
-1179.21 781.539 3650
-1173.05 783.252 3658
-1164.3 783.252 3658
-1158.4 785.179 3667
-1152.14 786.892 3675
-1148.33 790.318 3691
-1139.5 790.318 3691
-1130.68 790.318 3691
-1124.28 792.031 3699
-1115.44 792.031 3699
-1106.59 792.031 3699
-1097.75 792.031 3699
-1100.97 800.81 3740
-1099.62 806.377 3766
-1090.61 806.377 3766
-1086.49 810.017 3783
-1089.69 819.224 3826
-1080.54 819.224 3826
-1071.39 819.224 3826
-1064.74 821.151 3835
-1058.05 823.078 3844
-1048.86 823.078 3844
-1039.66 823.078 3844
-1030.47 823.078 3844
-1014.37 817.511 3818
-1005.24 817.511 3818
-991.415 813.657 3800
-982.328 813.657 3800
-973.241 813.657 3800
-966.438 815.584 3809
-957.329 815.584 3809
-948.221 815.584 3809
-939.112 815.584 3809
-930.004 815.584 3809
-920.895 815.584 3809
-905.563 810.017 3783
-896.517 810.017 3783
-887.47 810.017 3783
-878.424 810.017 3783
-867.31 808.09 3774
-858.285 808.09 3774
-849.26 808.09 3774
-840.235 808.09 3774
-831.21 808.09 3774
-824.146 810.017 3783
-815.1 810.017 3783
-809.676 813.657 3800
-800.589 813.657 3800
-791.502 813.657 3800
-786.121 817.511 3818
-776.991 817.511 3818
-767.861 817.511 3818
-753.565 811.944 3792
-740.963 808.09 3774
-731.938 808.09 3774
-716.4 800.81 3740
-705.944 799.097 3732
-689.362 790.318 3691
-680.536 790.318 3691
-671.709 790.318 3691
-660.009 786.892 3675
-648.209 783.252 3658
-639.462 783.252 3658
-629.335 781.539 3650
-620.607 781.539 3650
-609.364 778.327 3635
-600.671 778.327 3635
-590.676 776.614 3627
-582.003 776.614 3627
-569.536 771.475 3603
-560.92 771.475 3603
-552.304 771.475 3603
-543.688 771.475 3603
-533.884 769.763 3595
-524.265 768.264 3588
-515.685 768.264 3588
-505.974 766.551 3580
-498.525 768.264 3588
-489.945 768.264 3588
-481.365 768.264 3588
-472.785 768.264 3588
-463.17 766.551 3580
-454.609 766.551 3580
-446.048 766.551 3580
-437.487 766.551 3580
-428.926 766.551 3580
-420.365 766.551 3580
-411.805 766.551 3580
-403.244 766.551 3580
-393.801 764.838 3572
-385.259 764.838 3572
-376.717 764.838 3572
-368.176 764.838 3572
-358.929 763.339 3565
-350.404 763.339 3565
-341.879 763.339 3565
-331.858 759.913 3549
-323.371 759.913 3549
-314.885 759.913 3549
-306.398 759.913 3549
-297.911 759.913 3549
-289.424 759.913 3549
-280.938 759.913 3549
-271.299 756.701 3534
-262.849 756.701 3534
-253.894 755.202 3527
-244.972 753.703 3520
-141.355 466.996 2181
-136.139 466.996 2181
-130.924 466.996 2181
-125.708 466.996 2181
-120.493 466.996 2181
-115.277 466.996 2181
-110.062 466.996 2181
-104.847 466.996 2181
-99.6312 466.996 2181
-94.2859 466.354 2178
-88.9549 465.712 2175
-83.7538 465.712 2175
-78.5527 465.712 2175
-73.3517 465.712 2175
-68.1506 465.712 2175
-62.8627 465.069 2172
-57.6688 465.069 2172
-52.4749 465.069 2172
-47.2156 464.427 2169
-42.0289 464.427 2169
-36.8422 464.427 2169
-31.5825 463.356 2164
-26.3345 462.072 2158
-21.125 461.001 2153
-15.9765 461.001 2153
-10.828 461.001 2153
-5.67162 460.359 2150
-0.528842 459.074 2144
4.59811 459.074 2144
9.72507 459.074 2144
14.8174 458.003 2139
19.9044 457.361 2136
25.0122 457.361 2136
30.2752 459.716 2147
35.4093 459.716 2147
40.5434 459.716 2147
45.6776 459.716 2147
50.8117 459.716 2147
55.9458 459.716 2147
60.9946 459.074 2144
66.1216 459.074 2144
71.5476 461.001 2153
76.6961 461.001 2153
82.3767 463.999 2167
87.5587 463.999 2167
92.8262 464.427 2169
98.013 464.427 2169
103.342 465.069 2172
108.536 465.069 2172
113.73 465.069 2172
118.924 465.069 2172
124.118 465.069 2172
129.312 465.069 2172
134.506 465.069 2172
139.7 465.069 2172
144.894 465.069 2172
149.88 464.427 2169
155.067 464.427 2169
160.254 464.427 2169
165.288 463.999 2167
170.47 463.999 2167
175.652 463.999 2167
180.834 463.999 2167
186.016 463.999 2167
191.198 463.999 2167
196.108 463.356 2164
201.283 463.356 2164
206.457 463.356 2164
212.121 464.427 2169
217.308 464.427 2169
222.495 464.427 2169
227.681 464.427 2169
909.908 815.584 3809
919.016 815.584 3809
928.125 815.584 3809
924.438 804.45 3757
927.211 799.097 3732
936.135 799.097 3732
938.729 793.744 3707
937.369 785.179 3667
941.751 781.539 3650
948.396 779.826 3642
957.106 779.826 3642
963.958 778.327 3635
970.51 776.614 3627
974.864 773.188 3611
983.499 773.188 3611
989.936 771.475 3603
996.334 769.763 3595
1000.74 766.551 3580
1009.3 766.551 3580
1013.6 763.339 3565
1022.12 763.339 3565
1026.02 759.913 3549
1034.51 759.913 3549
1040.94 758.414 3542
1047.04 756.701 3534
1055.49 756.701 3534
1061.83 755.202 3527
1070.26 755.202 3527
1078.7 755.202 3527
1082.51 751.991 3512
1086.25 748.779 3497
1094.61 748.779 3497
1102.97 748.779 3497
1113.88 750.492 3505
1122.26 750.492 3505
1130.64 750.492 3505
1139.02 750.492 3505
1142.49 747.28 3490
1150.84 747.28 3490
1161.51 748.779 3497
1172.55 750.492 3505
1180.93 750.492 3505
1189.31 750.492 3505
1197.69 750.492 3505
1206.07 750.492 3505
1214.46 750.492 3505
1228.07 753.703 3520
1238.95 755.202 3527
1249.86 756.701 3534
1258.31 756.701 3534
1272.13 759.913 3549
1291.81 766.551 3580
1308.72 771.475 3603
1317.34 771.475 3603
1331.84 774.901 3619
1346.42 778.327 3635
1360.71 781.539 3650
1369.44 781.539 3650
1387.6 786.892 3675
1396.39 786.892 3675
1405.18 786.892 3675
1413.97 786.892 3675
1419.66 785.179 3667
1418.69 779.826 3642
1427.4 779.826 3642
1427.04 774.901 3619
1429.34 771.475 3603
1431.97 768.264 3588
1428.11 761.626 3557
1436.61 761.626 3557
1432.93 755.202 3527
1426.24 747.28 3490
1422.67 741.07 3461
1430.95 741.07 3461
1413.02 727.581 3398
1406.51 720.087 3363
1400.67 713.021 3330
1408.64 713.021 3330
1402.56 705.955 3297
1399.32 700.388 3271
1401.55 697.604 3258
1406.75 696.319 3252
1414.52 696.319 3252
1416.61 693.536 3239
1421.72 692.251 3233
1429.45 692.251 3233
1437.18 692.251 3233
1444.92 692.251 3233
1449.95 690.966 3227
1457.67 690.966 3227
1465.38 690.966 3227
1473.1 690.966 3227
1480.82 690.966 3227
1488.53 690.966 3227
1496.25 690.966 3227
1503.97 690.966 3227
1511.68 690.966 3227
1519.4 690.966 3227
1527.12 690.966 3227
1534.83 690.966 3227
1539.68 689.682 3221
1544.02 688.183 3214
1545.91 685.613 3202
1553.57 685.613 3202
1546.6 679.19 3172
1548.31 676.62 3160
1549.95 674.051 3148
1557.48 674.051 3148
1556.06 670.197 3130
1552.06 665.272 3107
1539.41 656.707 3067
1535.14 651.782 3044
1542.42 651.782 3044
1538.5 647.072 3022
1504.81 629.942 2942
1495.91 623.304 2911
1502.88 623.304 2911
1494.28 616.881 2881
1488.66 611.742 2857
