1340.71 1115.1 2471
1350.98 1118.71 2479
1360.74 1121.87 2486
1372.73 1126.84 2497
1378.7 1126.84 2497
1392.99 1133.6 2512
1405.68 1139.02 2524
1411.72 1139.02 2524
1417.75 1139.02 2524
1419.28 1135.41 2516
1427.56 1137.21 2520
1435.86 1139.02 2524
1441.9 1139.02 2524
1447.93 1139.02 2524
1453.97 1139.02 2524
1455.38 1135.41 2516
1461.39 1135.41 2516
1463.33 1132.25 2509
1475.77 1137.21 2520
1484.15 1139.02 2524
1490.18 1139.02 2524
1496.22 1139.02 2524
1502.25 1139.02 2524
1508.29 1139.02 2524
1514.33 1139.02 2524
1520.36 1139.02 2524
1523.98 1137.21 2520
1525.15 1133.6 2512
1531.15 1133.6 2512
1535.32 1132.25 2509
1533.95 1126.84 2497
1522.04 1113.75 2468
1534.75 1118.71 2479
1540.68 1118.71 2479
1546.61 1118.71 2479
1552.54 1118.71 2479
1569.78 1126.84 2497
1580.8 1130.45 2505
1586.79 1130.45 2505
1597.23 1133.6 2512
1603.24 1133.6 2512
1609.24 1133.6 2512
1610.75 1130.45 2505
1614.16 1128.64 2501
1620.14 1128.64 2501
1626.12 1128.64 2501
1624.92 1123.68 2490
1630.88 1123.68 2490
1641.43 1126.84 2497
1652.68 1130.45 2505
1661.32 1132.25 2509
1667.32 1132.25 2509
1673.32 1132.25 2509
1679.32 1132.25 2509
1685.32 1132.25 2509
1683.23 1126.84 2497
1689.2 1126.84 2497
1693.14 1125.48 2494
1699.1 1125.48 2494
1702.33 1123.68 2490
1703.48 1120.52 2483
1709.42 1120.52 2483
1715.36 1120.52 2483
1721.29 1120.52 2483
1727.23 1120.52 2483
1730.38 1118.71 2479
1718.09 1106.98 2453
1723.96 1106.98 2453
1687.51 1079.9 2393
1684.04 1074.04 2380
1672.69 1063.21 2356
1678.32 1063.21 2356
1683.96 1063.21 2356
1687.44 1061.85 2353
1693.07 1061.85 2353
1698.69 1061.85 2353
1704.32 1061.85 2353
1819.13 1079.9 2393
1824.85 1079.9 2393
1830.57 1079.9 2393
-1697.51 1045.26 2304
-1699.35 1049.8 2314
-1700.4 1053.88 2323
-1694.85 1053.88 2323
-1689.29 1053.88 2323
-1683.74 1053.88 2323
-1678.18 1053.88 2323
-1668.31 1051.16 2317
-1674.25 1058.41 2333
-1677.97 1064.31 2346
-1675.21 1066.13 2350
-1669.59 1066.13 2350
-1692.29 1084.27 2390
-1698.57 1091.99 2407
-1692.82 1091.99 2407
-1687.06 1091.99 2407
-1681.31 1091.99 2407
-1466.94 1049.8 2314
-1461.41 1049.8 2314
-1464.05 1055.69 2327
-1460.37 1057.05 2330
-1454.8 1057.05 2330
-1453.58 1060.23 2337
-1453.57 1064.31 2346
-1447.96 1064.31 2346
-1442.35 1064.31 2346
-1436.74 1064.31 2346
-1431.13 1064.31 2346
-1429.77 1067.49 2353
-1425.96 1068.85 2356
-1420.33 1068.85 2356
-1417.09 1070.66 2360
-1413.25 1072.03 2363
-1411.76 1075.2 2370
-1406.1 1075.2 2370
-1402.2 1076.56 2373
-1398.29 1077.92 2376
-1392.61 1077.92 2376
-1386.93 1077.92 2376
-1375.43 1073.39 2366
-1368.04 1072.03 2363
-1362.39 1072.03 2363
-1356.74 1072.03 2363
-1351.09 1072.03 2363
-1343.73 1070.66 2360
-1338.09 1070.66 2360
-1324.54 1064.31 2346
-1317.24 1062.95 2343
-1311.64 1062.95 2343
-1307.71 1064.31 2346
-1302.1 1064.31 2346
-1296.49 1064.31 2346
-1287.58 1061.59 2340
-1281.98 1061.59 2340
-1274.75 1060.23 2337
-1269.16 1060.23 2337
-1263.57 1060.23 2337
-1257.98 1060.23 2337
-1252.39 1060.23 2337
-1243.07 1057.05 2330
-1239.09 1058.41 2333
-1235.63 1060.23 2337
-1230.04 1060.23 2337
-1227.6 1062.95 2343
-1221.99 1062.95 2343
-1217.95 1064.31 2346
-1212.34 1064.31 2346
-1206.73 1064.31 2346
-1201.12 1064.31 2346
-1195.51 1064.31 2346
-1189.9 1064.31 2346
-1184.29 1064.31 2346
-1178.68 1064.31 2346
-1173.07 1064.31 2346
-1167.46 1064.31 2346
-1165.31 1067.49 2353
-1163.14 1070.66 2360
-1158.97 1072.03 2363
-1153.32 1072.03 2363
-1147.66 1072.03 2363
-1148.3 1077.92 2376
-1147.9 1082.91 2387
-1142.2 1082.91 2387
-1144.58 1090.63 2404
-1138.83 1090.63 2404
-1133.09 1090.63 2404
-1127.34 1090.63 2404
-1116.46 1085.64 2393
-1115.84 1090.63 2404
-1113.32 1093.8 2411
-1107.56 1093.8 2411
-1103.16 1095.16 2414
-1103.75 1101.51 2428
-1097.95 1101.51 2428
-1092.14 1101.51 2428
-1076.94 1091.99 2407
-1066.73 1087.45 2397
-1061 1087.45 2397
-1055.27 1087.45 2397
-1049.54 1087.45 2397
-1043.81 1087.45 2397
-1035.04 1084.27 2390
-1029.33 1084.27 2390
-1020.61 1081.1 2383
-1014.92 1081.1 2383
-1002.02 1073.39 2366
-996.36 1073.39 2366
-988.19 1070.66 2360
-982.547 1070.66 2360
-976.903 1070.66 2360
-971.26 1070.66 2360
-965.616 1070.66 2360
-959.973 1070.66 2360
-954.329 1070.66 2360
-948.686 1070.66 2360
-943.042 1070.66 2360
-938.591 1072.03 2363
-932.94 1072.03 2363
-927.289 1072.03 2363
-921.639 1072.03 2363
-918.701 1075.2 2370
-914.19 1076.56 2373
-908.515 1076.56 2373
-902.841 1076.56 2373
-897.166 1076.56 2373
-899.005 1085.64 2393
-898.509 1091.99 2407
-892.753 1091.99 2407
-892.156 1098.34 2421
-890.394 1103.33 2432
-884.579 1103.33 2432
-878.763 1103.33 2432
-863.974 1091.99 2407
-857.148 1090.63 2404
-851.399 1090.63 2404
-840.726 1084.27 2390
-832.565 1081.1 2383
-822.356 1075.2 2370
-816.689 1075.2 2370
-811.021 1075.2 2370
-805.354 1075.2 2370
-799.686 1075.2 2370
-794.019 1075.2 2370
-787.021 1073.39 2366
-781.363 1073.39 2366
-775.705 1073.39 2366
-770.048 1073.39 2366
-764.39 1073.39 2366
-758.732 1073.39 2366
-751.164 1070.66 2360
-744.257 1068.85 2356
-738.623 1068.85 2356
-732.056 1067.49 2353
-728.59 1070.66 2360
-727.848 1077.92 2376
-723.382 1079.74 2380
-717.691 1079.74 2380
-712.897 1081.1 2383
-708.386 1082.91 2387
-703.561 1084.27 2390
-697.846 1084.27 2390
-692.999 1085.64 2393
-687.277 1085.64 2393
-682.694 1087.45 2397
-676.962 1087.45 2397
-671.23 1087.45 2397
-663.554 1084.27 2390
-658.665 1085.64 2393
-652.943 1085.64 2393
-649.113 1088.81 2400
-646.323 1093.8 2411
-644.277 1100.15 2425
-638.478 1100.15 2425
-633.462 1101.51 2428
-627.656 1101.51 2428
-621.85 1101.51 2428
-616.044 1101.51 2428
-608.478 1098.34 2421
-600.946 1095.16 2414
-596.9 1098.34 2421
-591.11 1098.34 2421
-586.288 1100.15 2425
-580.489 1100.15 2425
-574.69 1100.15 2425
-568.891 1100.15 2425
-563.789 1101.51 2428
-557.983 1101.51 2428
-552.177 1101.51 2428
-546.371 1101.51 2428
-540.565 1101.51 2428
-534.759 1101.51 2428
-528.953 1101.51 2428
-523.146 1101.51 2428
-517.34 1101.51 2428
-511.534 1101.51 2428
-505.728 1101.51 2428
-499.922 1101.51 2428
-494.116 1101.51 2428
-490.522 1106.5 2439
-484.69 1106.5 2439
-478.857 1106.5 2439
-470.31 1100.15 2425
-461.829 1093.8 2411
-454.74 1090.63 2404
-448.991 1090.63 2404
-443.242 1090.63 2404
-438.04 1091.99 2407
-433.002 1093.8 2411
-427.237 1093.8 2411
-421.471 1093.8 2411
-415.706 1093.8 2411
-409.94 1093.8 2411
-404.175 1093.8 2411
-397.253 1090.63 2404
-391.504 1090.63 2404
-385.114 1088.81 2400
-380.481 1091.99 2407
-374.725 1091.99 2407
-368.969 1091.99 2407
-363.213 1091.99 2407
-358.051 1093.8 2411
-352.286 1093.8 2411
-348.964 1101.51 2428
-345.702 1109.68 2446
-340.408 1111.49 2450
-334.55 1111.49 2450
-328.691 1111.49 2450
-322.832 1111.49 2450
-316.974 1111.49 2450
-309.718 1106.5 2439
-303.387 1104.69 2435
-296.343 1100.15 2425
-289.705 1096.98 2418
-284.275 1098.34 2421
-278.486 1098.34 2421
-272.696 1098.34 2421
-267.348 1100.15 2425
-261.549 1100.15 2425
-255.75 1100.15 2425
-249.951 1100.15 2425
-244.152 1100.15 2425
-238.353 1100.15 2425
-232.171 1098.34 2421
-226.101 1096.98 2418
-219.681 1093.8 2411
-215.158 1100.15 2425
-209.359 1100.15 2425
-203.56 1100.15 2425
-197.761 1100.15 2425
-191.962 1100.15 2425
-81.2976 1021.21 2251
-75.9148 1021.21 2251
-70.9393 1027.11 2264
-65.6122 1028.47 2267
-60.2708 1029.83 2270
-54.8425 1029.83 2270
-49.4142 1029.83 2270
-43.986 1029.83 2270
-38.5577 1029.83 2270
-32.9397 1023.94 2257
-27.4327 1019.85 2248
-21.9688 1015.77 2239
-16.6147 1015.77 2239
-11.1549 1006.24 2218
-5.81407 999.891 2204
-0.541422 995.808 2195
4.70749 995.808 2195
9.92918 993.086 2189
15.1637 993.086 2189
20.3983 993.086 2189
25.6329 993.086 2189
30.7969 990.818 2184
35.9206 988.096 2178
41.1855 989.457 2181
46.5711 993.086 2189
51.8767 994.447 2192
57.1184 994.447 2192
62.3602 994.447 2192
67.5094 993.086 2189
72.7439 993.086 2189
77.8716 991.725 2186
83.099 991.725 2186
88.1244 989.457 2181
93.3398 989.457 2181
98.4197 988.096 2178
103.628 988.096 2178
108.536 985.374 2172
113.73 985.374 2172
118.76 984.013 2169
123.947 984.013 2169
129.133 984.013 2169
134.692 986.735 2175
139.893 986.735 2175
145.828 991.725 2186
151.055 991.725 2186
156.497 993.086 2189
161.731 993.086 2189
166.966 993.086 2189
226.008 1048.43 2311
233.138 1055.69 2327
238.702 1055.69 2327
245.316 1060.23 2337
252.301 1066.13 2350
258.249 1067.49 2353
263.876 1067.49 2353
270.648 1072.03 2363
278.287 1079.74 2380
284.336 1081.1 2383
290.034 1081.1 2383
296.229 1082.91 2387
302.696 1085.64 2393
308.934 1087.45 2397
314.666 1087.45 2397
320.799 1088.81 2400
326.538 1088.81 2400
332.277 1088.81 2400
338.58 1090.63 2404
344.329 1090.63 2404
350.514 1091.99 2407
357.898 1096.98 2418
365.786 1103.33 2432
371.602 1103.33 2432
377.417 1103.33 2432
383.233 1103.33 2432
389.049 1103.33 2432
393.728 1100.15 2425
399.527 1100.15 2425
405.326 1100.15 2425
411.633 1101.51 2428
417.439 1101.51 2428
423.245 1101.51 2428
428.521 1100.15 2425
434.32 1100.15 2425
440.119 1100.15 2425
444.631 1096.98 2418
450.413 1096.98 2418
461.478 1109.68 2446
467.327 1109.68 2446
474.53 1112.86 2453
482.55 1117.85 2464
489.83 1121.02 2471
495.739 1121.02 2471
502.46 1122.84 2475
509.2 1124.65 2479
515.128 1124.65 2479
521.897 1126.47 2483
527.834 1126.47 2483
533.772 1126.47 2483
539.71 1126.47 2483
545.647 1126.47 2483
551.585 1126.47 2483
556.624 1124.65 2479
560.737 1121.02 2471
566.646 1121.02 2471
572.555 1121.02 2471
575.186 1114.67 2457
581.062 1114.67 2457
586.937 1114.67 2457
592.813 1114.67 2457
598.688 1114.67 2457
603.579 1112.86 2453
609.445 1112.86 2453
612.802 1108.32 2443
616.619 1104.69 2435
616.307 1093.8 2411
618.46 1087.45 2397
624.192 1087.45 2397
628.084 1084.27 2390
633.799 1084.27 2390
638.712 1082.91 2387
644.42 1082.91 2387
650.128 1082.91 2387
657.484 1085.64 2393
663.207 1085.64 2393
668.929 1085.64 2393
673.806 1084.27 2390
681.511 1087.45 2397
687.243 1087.45 2397
692.975 1087.45 2397
698.707 1087.45 2397
704.439 1087.45 2397
708.986 1085.64 2393
715.903 1087.45 2397
721.635 1087.45 2397
728.277 1088.81 2400
734.016 1088.81 2400
743.146 1093.8 2411
751.086 1096.98 2418
756.868 1096.98 2418
764.858 1100.15 2425
770.657 1100.15 2425
776.456 1100.15 2425
780.964 1098.34 2421
788.054 1100.15 2425
796.144 1103.33 2432
802.949 1104.69 2435
808.772 1104.69 2435
820.616 1112.86 2453
827.83 1114.67 2457
835.062 1116.48 2461
840.948 1116.48 2461
846.833 1116.48 2461
847.52 1109.68 2446
853.369 1109.68 2446
851.842 1100.15 2425
861.177 1104.69 2435
867 1104.69 2435
872.823 1104.69 2435
878.646 1104.69 2435
880.836 1100.15 2425
886.635 1100.15 2425
892.434 1100.15 2425
900.826 1103.33 2432
906.641 1103.33 2432
919.21 1111.49 2450
930.355 1117.85 2464
937.767 1119.66 2468
943.669 1119.66 2468
949.571 1119.66 2468
953.924 1117.85 2464
959.816 1117.85 2464
960.221 1111.49 2450
966.08 1111.49 2450
981.856 1122.84 2475
996.555 1132.82 2497
1002.53 1132.82 2497
1017.79 1143.25 2520
1027.06 1146.88 2528
1037.6 1151.87 2539
1043.67 1151.87 2539
1051.4 1153.69 2543
1062.47 1159.13 2555
1075.27 1166.39 2571
1081.42 1166.39 2571
1088.84 1167.75 2574
1094.99 1167.75 2574
1101.15 1167.75 2574
1107.3 1167.75 2574
1108.7 1162.76 2563
1113.09 1160.94 2559
1119.21 1160.94 2559
1118.29 1153.69 2543
1122.6 1151.87 2539
1122.01 1145.07 2524
1122.68 1139.62 2512
1128.69 1139.62 2512
1127.92 1132.82 2497
1132.53 1131.46 2494
1138.49 1131.46 2494
1144.46 1131.46 2494
1143.5 1124.65 2479
1144.33 1119.66 2468
1145.1 1114.67 2457
1152.85 1116.48 2461
1160.15 1117.85 2464
1166.04 1117.85 2464
1171.93 1117.85 2464
1165.88 1106.5 2439
1171.71 1106.5 2439
1172.23 1101.51 2428
1179.98 1103.33 2432
1189.21 1106.5 2439
1198.47 1109.68 2446
1204.32 1109.68 2446
1213.63 1112.86 2453
1224.96 1117.85 2464
1230.86 1117.85 2464
1236.75 1117.85 2464
1237.09 1112.86 2453
1242.96 1112.86 2453
1248.82 1112.86 2453
1245.48 1104.69 2435
1247.71 1101.51 2428
1253.52 1101.51 2428
1259.32 1101.51 2428
1265.13 1101.51 2428
1265.7 1096.98 2418
1271.48 1096.98 2418
1277.26 1096.98 2418
1286.76 1100.15 2425
1292.56 1100.15 2425
1298.36 1100.15 2425
1304.16 1100.15 2425
1313.74 1103.33 2432
1319.55 1103.33 2432
1346.62 1121.02 2471
1352.53 1121.02 2471
1372.73 1132.82 2497
1378.7 1132.82 2497
1384.68 1132.82 2497
1405.68 1145.07 2524
1411.72 1145.07 2524
1417.75 1145.07 2524
1417.02 1139.62 2512
1416.8 1134.63 2501
1422.78 1134.63 2501
1437.33 1141.44 2516
1443.34 1141.44 2516
1449.36 1141.44 2516
1446.7 1134.63 2501
1452.68 1134.63 2501
1458.66 1134.63 2501
1466.98 1136.45 2505
1481.8 1143.25 2520
1487.82 1143.25 2520
1493.85 1143.25 2520
1499.87 1143.25 2520
1505.9 1143.25 2520
1511.93 1143.25 2520
1513.13 1139.62 2512
1519.14 1139.62 2512
1520.9 1136.45 2505
1526.89 1136.45 2505
1516.97 1124.65 2479
1506.92 1112.86 2453
1506.62 1108.32 2443
1512.46 1108.32 2443
1518.31 1108.32 2443
1524.15 1108.32 2443
1534.37 1111.49 2450
1555.95 1122.84 2475
1566.92 1126.47 2483
1572.85 1126.47 2483
1578.79 1126.47 2483
1584.73 1126.47 2483
1590.67 1126.47 2483
1588.89 1121.02 2471
1594.8 1121.02 2471
1600.71 1121.02 2471
1611.82 1124.65 2479
1617.74 1124.65 2479
1623.67 1124.65 2479
1629.6 1124.65 2479
1642.78 1129.64 2490
1648.74 1129.64 2490
1654.69 1129.64 2490
1660.65 1129.64 2490
1666.6 1129.64 2490
1672.56 1129.64 2490
1673.79 1126.47 2483
1684.47 1129.64 2490
1690.42 1129.64 2490
1696.37 1129.64 2490
1694.81 1124.65 2479
1700.74 1124.65 2479
1706.66 1124.65 2479
1712.59 1124.65 2479
1718.52 1124.65 2479
1724.45 1124.65 2479
1715.02 1114.67 2457
1698.48 1100.15 2425
1704.28 1100.15 2425
1680.46 1081.1 2383
1676.96 1075.2 2370
1672.69 1068.85 2356
1678.32 1068.85 2356
1683.96 1068.85 2356
1687.44 1067.49 2353
1693.07 1067.49 2353
1698.69 1067.49 2353
1704.32 1067.49 2353
1798.6 1073.39 2366
1804.26 1073.39 2366
1809.92 1073.39 2366
-1695.11 1032.54 2264
-1715.07 1048.04 2298
-1709.58 1048.04 2298
-1706.31 1049.41 2301
-1700.81 1049.41 2301
-1697.51 1050.78 2304
-1699.35 1055.34 2314
-1700.4 1059.44 2323
-1694.85 1059.44 2323
-1689.29 1059.44 2323
-1683.74 1059.44 2323
-1678.18 1059.44 2323
-1666.15 1055.34 2314
-1672.1 1062.64 2330
-1677.97 1069.93 2346
-1675.21 1071.76 2350
-1669.59 1071.76 2350
-1692.29 1090 2390
-1686.58 1090 2390
-1680.86 1090 2390
-1675.15 1090 2390
-1641.49 1071.76 2350
-1640.05 1074.49 2356
-1634.42 1074.49 2356
-1628.78 1074.49 2356
-1623.15 1074.49 2356
-1617.51 1074.49 2356
-1637.19 1091.37 2393
-1631.47 1091.37 2393
-1625.75 1091.37 2393
-1611.23 1085.44 2380
-1605.53 1085.44 2380
-1443.92 1046.67 2295
-1448.46 1053.97 2311
-1452.92 1061.27 2327
-1447.36 1061.27 2327
-1447.99 1065.83 2337
-1442.4 1065.83 2337
-1436.81 1065.83 2337
-1428.78 1064 2333
-1423.2 1064 2333
-1423.7 1068.56 2343
-1424.14 1073.12 2353
-1418.52 1073.12 2353
-1412.89 1073.12 2353
-1409.06 1074.49 2356
-1405.81 1076.32 2360
-1400.16 1076.32 2360
-1400.43 1080.88 2370
-1394.76 1080.88 2370
-1389.09 1080.88 2370
-1383.43 1080.88 2370
-1375.43 1079.05 2366
-1366.3 1076.32 2360
-1360.66 1076.32 2360
-1355.02 1076.32 2360
-1349.37 1076.32 2360
-1335.76 1069.93 2346
-1330.15 1069.93 2346
-1322.84 1068.56 2343
-1313.87 1065.83 2337
-1308.28 1065.83 2337
-1306.04 1068.56 2343
-1300.43 1068.56 2343
-1294.83 1068.56 2343
-1287.58 1067.2 2340
-1281.98 1067.2 2340
-1274.75 1065.83 2337
-1269.16 1065.83 2337
-1263.57 1065.83 2337
-1257.98 1065.83 2337
-1252.39 1065.83 2337
-1243.07 1062.64 2330
-1237.5 1062.64 2330
-1235.63 1065.83 2337
-1230.04 1065.83 2337
-1227.6 1068.56 2343
-1221.99 1068.56 2343
-1217.95 1069.93 2346
-1212.34 1069.93 2346
-1206.73 1069.93 2346
-1201.12 1069.93 2346
-1195.51 1069.93 2346
-1189.9 1069.93 2346
-1184.29 1069.93 2346
-1178.68 1069.93 2346
-1173.07 1069.93 2346
-1167.46 1069.93 2346
-1165.31 1073.12 2353
-1161.17 1074.49 2356
-1157.49 1076.32 2360
-1151.85 1076.32 2360
-1147.66 1077.69 2363
-1145.4 1080.88 2370
-1144.54 1085.44 2380
-1138.85 1085.44 2380
-1142.68 1094.56 2400
-1136.94 1094.56 2400
-1131.2 1094.56 2400
-1125.46 1094.56 2400
-1115.06 1090 2390
-1109.34 1090 2390
-1110.09 1096.38 2404
-1104.34 1096.38 2404
-1099.96 1097.75 2407
-1094.21 1097.75 2407
-1088.45 1097.75 2407
-1082.7 1097.75 2407
-1072.47 1093.19 2397
-1064.95 1091.37 2393
-1059.23 1091.37 2393
-1053.51 1091.37 2393
-1046.47 1090 2390
-1040.76 1090 2390
-1030.71 1085.44 2380
-1025.02 1085.44 2380
-1016.33 1082.25 2373
-1007.68 1079.05 2366
-999.477 1076.32 2360
-993.834 1076.32 2360
-985.259 1073.12 2353
-978.383 1071.76 2350
-972.764 1071.76 2350
-968.379 1073.12 2353
-962.752 1073.12 2353
-958.346 1074.49 2356
-954.329 1076.32 2360
-948.686 1076.32 2360
-943.042 1076.32 2360
-937.399 1076.32 2360
-931.756 1076.32 2360
-926.112 1076.32 2360
-918.909 1074.49 2356
-913.275 1074.49 2356
-913.034 1080.88 2370
-907.367 1080.88 2370
-901.699 1080.88 2370
-896.032 1080.88 2370
-891.492 1082.25 2373
-893.283 1091.37 2393
-887.56 1091.37 2393
-886.997 1097.75 2407
-881.241 1097.75 2407
-875.485 1097.75 2407
-869.73 1097.75 2407
-857.872 1090 2390
-851.087 1088.63 2387
-845.379 1088.63 2387
-834.746 1082.25 2373
-823.132 1074.49 2356
-818.886 1076.32 2360
-813.243 1076.32 2360
-808.626 1077.69 2363
-802.975 1077.69 2363
-797.324 1077.69 2363
-791.674 1077.69 2363
-786.023 1077.69 2363
-779.382 1076.32 2360
-773.738 1076.32 2360
-768.095 1076.32 2360
-762.451 1076.32 2360
-756.808 1076.32 2360
-745.753 1068.56 2343
-740.151 1068.56 2343
-735.488 1069.93 2346
-729.878 1069.93 2346
-724.268 1069.93 2346
-722.947 1076.32 2360
-718.215 1077.69 2363
-712.565 1077.69 2363
-710.803 1083.61 2376
-706.308 1085.44 2380
-701.5 1086.81 2383
-695.802 1086.81 2383
-691.262 1088.63 2387
-685.554 1088.63 2387
-679.846 1088.63 2387
-673.008 1086.81 2383
-667.309 1086.81 2383
-661.611 1086.81 2383
-655.912 1086.81 2383
-650.214 1086.81 2383
-644.516 1086.81 2383
-643.374 1094.56 2400
-639.495 1097.75 2407
-633.739 1097.75 2407
-629.027 1099.58 2411
-623.261 1099.58 2411
-617.496 1099.58 2411
-611.73 1099.58 2411
-605.965 1099.58 2411
-598.457 1096.38 2404
-594.434 1099.58 2411
-588.669 1099.58 2411
-583.629 1100.95 2414
-577.856 1100.95 2414
-572.083 1100.95 2414
-566.311 1100.95 2414
-561.467 1102.77 2418
-557.983 1107.33 2428
-552.177 1107.33 2428
-546.371 1107.33 2428
-539.006 1104.14 2421
-533.217 1104.14 2421
-527.428 1104.14 2421
-521.638 1104.14 2421
-514.357 1100.95 2414
-508.585 1100.95 2414
-505.103 1105.96 2425
-499.304 1105.96 2425
-493.505 1105.96 2425
-487.707 1105.96 2425
-481.908 1105.96 2425
-476.109 1105.96 2425
-468.177 1100.95 2414
-460.488 1096.38 2404
-453.416 1093.19 2397
-447.684 1093.19 2397
-441.214 1091.37 2393
-436.22 1093.19 2397
-431.027 1094.56 2400
-425.287 1094.56 2400
-419.548 1094.56 2400
-413.809 1094.56 2400
-408.07 1094.56 2400
-402.331 1094.56 2400
-396.096 1093.19 2397
-390.364 1093.19 2397
-384.632 1093.19 2397
-378.9 1093.19 2397
-373.168 1093.19 2397
-367.436 1093.19 2397
-361.704 1093.19 2397
-356.418 1094.56 2400
-351.263 1096.38 2404
-346.521 1099.58 2411
-343.158 1107.33 2428
-338.88 1112.35 2439
-333.048 1112.35 2439
-327.215 1112.35 2439
-321.383 1112.35 2439
-314.127 1107.33 2428
-308.321 1107.33 2428
-300.771 1100.95 2414
-294.143 1097.75 2407
-287.548 1094.56 2400
-282.279 1096.38 2404
-276.53 1096.38 2404
-270.782 1096.38 2404
-265.805 1099.58 2411
-260.039 1099.58 2411
-254.274 1099.58 2411
-248.508 1099.58 2411
-242.743 1099.58 2411
-236.977 1099.58 2411
-229.869 1093.19 2397
-223.763 1091.37 2393
-217.13 1086.81 2383
-212.674 1093.19 2397
-206.942 1093.19 2397
-201.21 1093.19 2397
-195.478 1093.19 2397
-189.746 1093.19 2397
-70.9393 1032.54 2264
-65.6122 1033.9 2267
-60.1911 1033.9 2267
-54.77 1033.9 2267
-49.3489 1033.9 2267
-43.8697 1032.54 2264
-38.4558 1032.54 2264
-32.8522 1026.61 2251
-27.2863 1019.77 2236
-21.7922 1012.92 2221
-16.4811 1012.92 2221
-11.0996 1006.54 2207
-5.79033 1001.07 2195
-0.537969 994.681 2181
4.67746 994.681 2181
9.8929 994.681 2181
15.1083 994.681 2181
20.3238 994.681 2181
25.5392 994.681 2181
30.7123 993.313 2178
35.7392 988.297 2167
41.0155 990.577 2172
46.5711 998.33 2189
51.8057 998.33 2189
57.0402 998.33 2189
62.2748 998.33 2189
67.5094 998.33 2189
72.7439 998.33 2189
77.8716 996.962 2186
83.099 996.962 2186
88.2456 996.05 2184
93.4682 996.05 2184
98.5552 994.681 2181
103.771 994.681 2181
108.536 990.577 2172
113.73 990.577 2172
118.76 989.209 2169
123.947 989.209 2169
129.312 990.577 2172
134.692 991.945 2175
139.893 991.945 2175
145.828 996.962 2186
151.055 996.962 2186
156.497 998.33 2189
161.731 998.33 2189
166.966 998.33 2189
226.008 1053.97 2311
233.138 1061.27 2327
238.702 1061.27 2327
245.316 1065.83 2337
252.301 1071.76 2350
258.249 1073.12 2353
263.876 1073.12 2353
270.648 1077.69 2363
278.287 1085.44 2380
284.336 1086.81 2383
290.034 1086.81 2383
296.229 1088.63 2387
302.696 1091.37 2393
308.934 1093.19 2397
314.666 1093.19 2397
320.799 1094.56 2400
326.538 1094.56 2400
332.277 1094.56 2400
338.58 1096.38 2404
344.329 1096.38 2404
350.514 1097.75 2407
357.898 1102.77 2418
365.786 1109.15 2432
371.602 1109.15 2432
377.417 1109.15 2432
383.233 1109.15 2432
389.049 1109.15 2432
393.728 1105.96 2425
399.527 1105.96 2425
405.326 1105.96 2425
411.633 1107.33 2428
417.439 1107.33 2428
423.245 1107.33 2428
428.521 1105.96 2425
434.32 1105.96 2425
440.119 1105.96 2425
444.631 1102.77 2418
450.413 1102.77 2418
461.478 1115.54 2446
467.327 1115.54 2446
474.53 1118.73 2453
482.55 1123.75 2464
489.83 1126.94 2471
495.739 1126.94 2471
502.46 1128.77 2475
509.2 1130.59 2479
515.128 1130.59 2479
521.897 1132.41 2483
527.834 1132.41 2483
533.772 1132.41 2483
539.71 1132.41 2483
545.647 1132.41 2483
551.585 1132.41 2483
556.624 1130.59 2479
560.737 1126.94 2471
566.646 1126.94 2471
572.555 1126.94 2471
575.186 1120.56 2457
581.062 1120.56 2457
586.937 1120.56 2457
592.813 1120.56 2457
598.688 1120.56 2457
603.579 1118.73 2453
609.445 1118.73 2453
612.802 1114.17 2443
616.619 1110.52 2435
616.307 1099.58 2411
618.46 1093.19 2397
624.192 1093.19 2397
628.084 1090 2390
633.799 1090 2390
638.712 1088.63 2387
644.42 1088.63 2387
650.128 1088.63 2387
657.484 1091.37 2393
663.207 1091.37 2393
668.929 1091.37 2393
673.806 1090 2390
681.511 1093.19 2397
687.243 1093.19 2397
692.975 1093.19 2397
698.707 1093.19 2397
704.439 1093.19 2397
708.986 1091.37 2393
715.903 1093.19 2397
721.635 1093.19 2397
728.277 1094.56 2400
734.016 1094.56 2400
739.755 1094.56 2400
745.495 1094.56 2400
751.234 1094.56 2400
758.234 1096.38 2404
763.983 1096.38 2404
769.732 1096.38 2404
775.481 1096.38 2404
784.479 1100.95 2414
792.543 1104.14 2421
800.641 1107.33 2428
806.447 1107.33 2428
817.271 1114.17 2443
826.482 1118.73 2453
832.348 1118.73 2453
838.214 1118.73 2453
844.08 1118.73 2453
840.244 1105.96 2425
846.043 1105.96 2425
851.842 1105.96 2425
857.641 1105.96 2425
863.439 1105.96 2425
869.238 1105.96 2425
872.511 1102.77 2418
874.298 1097.75 2407
880.054 1097.75 2407
888.386 1100.95 2414
895.64 1102.77 2418
901.422 1102.77 2418
908.33 1104.14 2421
914.119 1104.14 2421
919.909 1104.14 2421
925.698 1104.14 2421
930.333 1102.77 2418
934.567 1100.95 2414
940.339 1100.95 2414
942.193 1096.38 2404
951.885 1100.95 2414
973.129 1118.73 2453
983.385 1123.75 2464
989.277 1123.75 2464
995.169 1123.75 2464
1001.06 1123.75 2464
1011.45 1128.77 2475
1017.37 1128.77 2475
1031.14 1137.43 2494
1040.02 1140.62 2501
1052.27 1147.46 2516
1058.29 1147.46 2516
1072.34 1156.13 2535
1083.51 1161.6 2547
1089.6 1161.6 2547
1095.69 1161.6 2547
1101.78 1161.6 2547
1107.87 1161.6 2547
1110.46 1157.95 2539
1116.53 1157.95 2539
1119.51 1154.76 2532
1116.67 1145.64 2512
1115.98 1138.8 2497
1121.95 1138.8 2497
1126.56 1137.43 2494
1132.53 1137.43 2494
1127.99 1126.94 2471
1133.9 1126.94 2471
1136.58 1123.75 2464
1137.37 1118.73 2453
1143.24 1118.73 2453
1149.1 1118.73 2453
1153.56 1117.36 2450
1159.42 1117.36 2450
1160.04 1112.35 2439
1155.84 1102.77 2418
1161.62 1102.77 2418
1162.09 1097.75 2407
1161.05 1091.37 2393
1170.19 1094.56 2400
1182.79 1100.95 2414
1188.56 1100.95 2414
1194.33 1100.95 2414
1200.11 1100.95 2414
1205.88 1100.95 2414
1210.15 1099.58 2411
1212.38 1096.38 2404
1214.58 1093.19 2397
1218.28 1091.37 2393
1224 1091.37 2393
1224.58 1086.81 2383
1226.67 1083.61 2376
1232.35 1083.61 2376
1238.03 1083.61 2376
1240.57 1080.88 2370
1244.14 1079.05 2366
1248.21 1077.69 2363
1257.58 1080.88 2370
1263.24 1080.88 2370
1268.91 1080.88 2370
1281.57 1086.81 2383
1291.05 1090 2390
1296.76 1090 2390
1304.11 1091.37 2393
1312.03 1093.19 2397
1323.26 1097.75 2407
1329.01 1097.75 2407
1334.77 1097.75 2407
1348.32 1104.14 2421
1361.94 1110.52 2435
1373.94 1115.54 2446
1379.79 1115.54 2446
1387.91 1117.36 2450
1393.76 1117.36 2450
1411.62 1126.94 2471
1417.53 1126.94 2471
1423.44 1126.94 2471
1429.35 1126.94 2471
1435.26 1126.94 2471
1441.16 1126.94 2471
1449.42 1128.77 2475
1461.8 1133.78 2486
1467.75 1133.78 2486
1473.69 1133.78 2486
1479.64 1133.78 2486
1483.79 1132.41 2483
1489.73 1132.41 2483
1488.44 1126.94 2471
1492.53 1125.57 2468
1496 1123.75 2464
1493.36 1117.36 2450
1499.22 1117.36 2450
1482.96 1100.95 2414
1484.42 1097.75 2407
1498.84 1104.14 2421
1507.12 1105.96 2425
1512.92 1105.96 2425
1520.6 1107.33 2428
1528.92 1109.15 2432
1547.98 1118.73 2453
1553.85 1118.73 2453
1569.25 1125.57 2468
1575.15 1125.57 2468
1581.06 1125.57 2468
1582.46 1122.38 2461
1588.34 1122.38 2461
1600.71 1126.94 2471
1606.61 1126.94 2471
1612.52 1126.94 2471
1618.43 1126.94 2471
1624.34 1126.94 2471
1630.25 1126.94 2471
1636.16 1126.94 2471
1642.07 1126.94 2471
1647.98 1126.94 2471
1653.89 1126.94 2471
1659.79 1126.94 2471
1663.68 1125.57 2468
1671.61 1126.94 2471
1677.52 1126.94 2471
1683.43 1126.94 2471
1689.34 1126.94 2471
1685.64 1120.56 2457
1674.31 1109.15 2432
1680.12 1109.15 2432
1685.94 1109.15 2432
1686.88 1105.96 2425
1692.68 1105.96 2425
1671.87 1088.63 2387
1677.58 1088.63 2387
1673.41 1082.25 2373
1669.89 1076.32 2360
1672.69 1074.49 2356
1678.32 1074.49 2356
1683.96 1074.49 2356
1689.59 1074.49 2356
1698.1 1076.32 2360
1703.75 1076.32 2360
1709.39 1076.32 2360
1707.77 1071.76 2350
1799.69 1076.32 2360
1805.33 1076.32 2360
-1704.1 1043.46 2276
-1715.07 1053.55 2298
-1709.58 1053.55 2298
-1706.31 1054.92 2301
-1700.81 1054.92 2301
-1697.51 1056.3 2304
-1699.35 1060.88 2314
-1700.4 1065.01 2323
-1694.85 1065.01 2323
-1689.29 1065.01 2323
-1683.74 1065.01 2323
-1678.18 1065.01 2323
-1666.15 1060.88 2314
-1672.1 1068.22 2330
-1677.97 1075.55 2346
-1675.21 1077.39 2350
-1669.59 1077.39 2350
-1692.29 1095.72 2390
-1686.58 1095.72 2390
-1680.86 1095.72 2390
-1675.15 1095.72 2390
-1641.49 1077.39 2350
-1640.05 1080.14 2356
-1634.42 1080.14 2356
-1628.78 1080.14 2356
-1623.15 1080.14 2356
-1617.51 1080.14 2356
-1637.19 1097.1 2393
-1631.47 1097.1 2393
-1625.75 1097.1 2393
-1611.23 1091.14 2380
-1605.53 1091.14 2380
-1583.71 1080.14 2356
-1574.06 1077.39 2350
-1572.44 1080.14 2356
-1571.46 1083.35 2363
-1565.81 1083.35 2363
-1560.16 1083.35 2363
-1549.91 1080.14 2356
-1544.27 1080.14 2356
-1538.64 1080.14 2356
-1447.7 1054.92 2301
-1448.46 1059.51 2311
-1452.92 1066.84 2327
-1447.36 1066.84 2327
-1447.99 1071.43 2337
-1442.4 1071.43 2337
-1436.81 1071.43 2337
-1428.78 1069.59 2333
-1423.2 1069.59 2333
-1423.7 1074.18 2343
-1424.14 1078.76 2353
-1418.52 1078.76 2353
-1412.89 1078.76 2353
-1409.06 1080.14 2356
-1405.81 1081.97 2360
-1400.16 1081.97 2360
-1400.43 1086.56 2370
-1394.76 1086.56 2370
-1389.09 1086.56 2370
-1383.43 1086.56 2370
-1375.43 1084.72 2366
-1368.04 1083.35 2363
-1362.39 1083.35 2363
-1356.74 1083.35 2363
-1349.37 1081.97 2360
-1335.76 1075.55 2346
-1330.15 1075.55 2346
-1322.84 1074.18 2343
-1313.87 1071.43 2337
-1308.28 1071.43 2337
-1306.04 1074.18 2343
-1300.43 1074.18 2343
-1294.83 1074.18 2343
-1287.58 1072.8 2340
-1281.98 1072.8 2340
-1274.75 1071.43 2337
-1269.16 1071.43 2337
-1263.57 1071.43 2337
-1257.98 1071.43 2337
-1252.39 1071.43 2337
-1243.07 1068.22 2330
-1237.5 1068.22 2330
-1235.63 1071.43 2337
-1230.04 1071.43 2337
-1227.6 1074.18 2343
-1221.99 1074.18 2343
-1217.95 1075.55 2346
-1212.34 1075.55 2346
-1206.73 1075.55 2346
-1201.12 1075.55 2346
-1195.51 1075.55 2346
-1189.9 1075.55 2346
-1184.29 1075.55 2346
-1178.68 1075.55 2346
-1173.07 1075.55 2346
-1167.46 1075.55 2346
-1160.36 1074.18 2343
-1159.69 1078.76 2353
-1155.53 1080.14 2356
-1149.9 1080.14 2356
-1144.26 1080.14 2356
-1140.56 1081.97 2360
-1139.73 1086.56 2370
-1134.06 1086.56 2370
-1133.16 1091.14 2380
-1130.78 1094.35 2387
-1125.07 1094.35 2387
-1119.36 1094.35 2387
-1110.39 1091.14 2380
-1106.09 1092.52 2383
-1103.63 1095.72 2390
-1097.91 1095.72 2390
-1092.2 1095.72 2390
-1087.84 1097.1 2393
-1082.12 1097.1 2393
-1076.4 1097.1 2393
-1069.33 1095.72 2390
-1062.28 1094.35 2387
-1056.58 1094.35 2387
-1050.87 1094.35 2387
-1045.16 1094.35 2387
-1034.66 1089.31 2376
-1027.68 1087.93 2373
-1022.01 1087.93 2373
-1015.05 1086.56 2370
-1006.4 1083.35 2363
-996.513 1078.76 2353
-990.886 1078.76 2353
-982.328 1075.55 2346
-978.383 1077.39 2350
-972.764 1077.39 2350
-967.144 1077.39 2350
-961.525 1077.39 2350
-957.126 1078.76 2353
-951.499 1078.76 2353
-945.872 1078.76 2353
-940.245 1078.76 2353
-934.619 1078.76 2353
-930.176 1080.14 2356
-924.542 1080.14 2356
-918.909 1080.14 2356
-912.112 1078.76 2353
-906.485 1078.76 2353
-905.835 1084.72 2366
-900.177 1084.72 2366
-894.52 1084.72 2366
-890.365 1086.56 2370
-889.55 1092.52 2383
-883.851 1092.52 2383
-880.733 1095.72 2390
-875.017 1095.72 2390
-869.302 1095.72 2390
-863.587 1095.72 2390
-854.282 1091.14 2380
-843.599 1084.72 2366
-837.941 1084.72 2366
-826.655 1077.39 2350
-818.59 1074.18 2343
-810.905 1071.43 2337
-805.317 1071.43 2337
-799.728 1071.43 2337
-794.14 1071.43 2337
-789.564 1072.8 2340
-784.973 1074.18 2343
-780.368 1075.55 2346
-774.758 1075.55 2346
-769.148 1075.55 2346
-763.538 1075.55 2346
-757.928 1075.55 2346
-752.318 1075.55 2346
-745.753 1074.18 2343
-739.203 1072.8 2340
-733.607 1072.8 2340
-725.834 1069.59 2333
-722.416 1072.8 2340
-718.658 1075.55 2346
-716.088 1080.14 2356
-710.454 1080.14 2356
-706.914 1083.35 2363
-702.154 1084.72 2366
-696.496 1084.72 2366
-690.838 1084.72 2366
-685.18 1084.72 2366
-679.522 1084.72 2366
-673.865 1084.72 2366
-668.207 1084.72 2366
-661.709 1083.35 2363
-656.058 1083.35 2363
-652.334 1086.56 2370
-646.667 1086.56 2370
-641.811 1087.93 2373
-639.889 1094.35 2387
-634.181 1094.35 2387
-628.473 1094.35 2387
-623.548 1095.72 2390
-617.833 1095.72 2390
-612.886 1097.1 2393
-607.163 1097.1 2393
-601.441 1097.1 2393
-597.461 1100.31 2400
-591.722 1100.31 2400
-585.983 1100.31 2400
-582.903 1105.35 2411
-577.138 1105.35 2411
-571.372 1105.35 2411
-565.607 1105.35 2411
-558.216 1102.14 2404
-553.157 1103.52 2407
-547.401 1103.52 2407
-542.545 1105.35 2411
-536.78 1105.35 2411
-531.014 1105.35 2411
-525.249 1105.35 2411
-519.484 1105.35 2411
-512.866 1103.52 2407
-507.11 1103.52 2407
-502.187 1105.35 2411
-497.04 1106.73 2414
-491.267 1106.73 2414
-485.494 1106.73 2414
-479.722 1106.73 2414
-473.949 1106.73 2414
-466.237 1102.14 2404
-459.148 1098.93 2397
-452.091 1095.72 2390
-446.376 1095.72 2390
-440.108 1094.35 2387
-435.492 1097.1 2393
-430.488 1098.93 2397
-424.756 1098.93 2397
-419.024 1098.93 2397
-413.292 1098.93 2397
-407.56 1098.93 2397
-401.828 1098.93 2397
-395.435 1097.1 2393
-389.224 1095.72 2390
-383.509 1095.72 2390
-378.268 1097.1 2393
-372.546 1097.1 2393
-366.823 1097.1 2393
-361.704 1098.93 2397
-356.418 1100.31 2400
-351.263 1102.14 2404
-345.515 1102.14 2404
-342.169 1109.94 2421
-337.352 1113.15 2428
-331.546 1113.15 2428
-325.74 1113.15 2428
-319.934 1113.15 2428
-312.316 1106.73 2414
-306.544 1106.73 2414
-299.899 1103.52 2407
-293.287 1100.31 2400
-285.512 1092.52 2383
-280.635 1095.72 2390
-274.92 1095.72 2390
-269.205 1095.72 2390
-263.489 1095.72 2390
-257.774 1095.72 2390
-252.059 1095.72 2390
-246.344 1095.72 2390
-240.629 1095.72 2390
-234.913 1095.72 2390
-227.28 1086.56 2370
-221.239 1084.72 2366
-214.67 1080.14 2356
-209.036 1080.14 2356
-202.539 1075.55 2346
-196.929 1075.55 2346
-191.319 1075.55 2346
-185.709 1075.55 2346
-177.412 1059.51 2311
-70.9393 1037.96 2264
-65.6122 1039.33 2267
-60.1911 1039.33 2267
-54.77 1039.33 2267
-49.3489 1039.33 2267
-43.8697 1037.96 2264
-38.4558 1037.96 2264
-32.7208 1027.87 2242
-27.2131 1022.37 2230
-21.7333 1015.49 2215
-16.4366 1015.49 2215
-11.0996 1011.83 2207
-5.7534 999.906 2181
-0.537229 998.531 2178
4.67103 998.531 2178
9.87929 998.531 2178
15.0875 998.531 2178
20.2958 998.531 2178
25.5041 998.531 2178
30.7123 998.531 2178
35.7392 993.488 2167
41.0155 995.78 2172
46.5711 1003.57 2189
51.8057 1003.57 2189
57.0402 1003.57 2189
62.2748 1003.57 2189
67.5094 1003.57 2189
72.7439 1003.57 2189
77.8716 1002.2 2186
83.099 1002.2 2186
88.2456 1001.28 2184
93.4682 1001.28 2184
98.5552 999.906 2181
103.771 999.906 2181
108.536 995.78 2172
113.73 995.78 2172
118.76 994.405 2169
123.947 994.405 2169
129.312 995.78 2172
134.692 997.155 2175
139.893 997.155 2175
145.828 1002.2 2186
151.055 1002.2 2186
156.282 1002.2 2186
161.51 1002.2 2186
166.737 1002.2 2186
224.737 1053.55 2298
231.835 1060.88 2314
237.369 1060.88 2314
244.582 1068.22 2330
250.905 1071.43 2337
256.823 1072.8 2340
262.418 1072.8 2340
269.503 1078.76 2353
275.948 1081.97 2360
283.978 1091.14 2380
289.669 1091.14 2380
295.361 1091.14 2380
301.937 1094.35 2387
308.419 1097.1 2393
314.141 1097.1 2393
320.398 1098.93 2397
326.13 1098.93 2397
331.862 1098.93 2397
337.031 1097.1 2393
342.753 1097.1 2393
350.514 1103.52 2407
356.27 1103.52 2407
362.026 1103.52 2407
367.782 1103.52 2407
373.538 1103.52 2407
379.293 1103.52 2407
385.049 1103.52 2407
389.669 1100.31 2400
394.914 1098.93 2397
400.646 1098.93 2397
406.377 1098.93 2397
411.422 1097.1 2393
416.621 1095.72 2390
421.806 1094.35 2387
427.514 1094.35 2387
433.222 1094.35 2387
437.643 1091.14 2380
442.589 1089.31 2376
450.912 1095.72 2390
456.628 1095.72 2390
464.277 1100.31 2400
476.283 1114.98 2432
482.694 1116.36 2435
488.517 1116.36 2435
494.339 1116.36 2435
500.984 1118.19 2439
506.816 1118.19 2439
517.273 1128.28 2461
523.158 1128.28 2461
529.043 1128.28 2461
534.928 1128.28 2461
540.813 1128.28 2461
546.698 1128.28 2461
550.113 1123.23 2450
555.971 1123.23 2450
561.83 1123.23 2450
567.689 1123.23 2450
573.548 1123.23 2450
578.46 1121.4 2446
584.309 1121.4 2446
590.159 1121.4 2446
596.008 1121.4 2446
601.119 1120.02 2443
606.961 1120.02 2443
608.287 1111.77 2425
610.541 1105.35 2411
612.728 1098.93 2397
614.073 1091.14 2380
619.765 1091.14 2380
624.405 1089.31 2376
629.291 1087.93 2373
634.966 1087.93 2373
641.45 1089.31 2376
647.132 1089.31 2376
653.913 1091.14 2380
659.604 1091.14 2380
665.295 1091.14 2380
669.859 1089.31 2376
675.541 1089.31 2376
685.236 1095.72 2390
690.951 1095.72 2390
696.667 1095.72 2390
701.5 1094.35 2387
706.023 1092.52 2383
711.722 1092.52 2383
717.42 1092.52 2383
723.119 1092.52 2383
730.958 1095.72 2390
739.755 1100.31 2400
745.495 1100.31 2400
751.234 1100.31 2400
758.234 1102.14 2404
763.983 1102.14 2404
769.732 1102.14 2404
775.481 1102.14 2404
784.479 1106.73 2414
792.543 1109.94 2421
800.641 1113.15 2428
806.447 1113.15 2428
817.271 1120.02 2443
826.482 1124.61 2453
832.348 1124.61 2453
838.214 1124.61 2453
844.08 1124.61 2453
840.244 1111.77 2425
846.043 1111.77 2425
851.842 1111.77 2425
857.641 1111.77 2425
863.439 1111.77 2425
869.238 1111.77 2425
872.511 1108.56 2418
874.298 1103.52 2407
880.054 1103.52 2407
888.386 1106.73 2414
895.64 1108.56 2418
901.422 1108.56 2418
908.33 1109.94 2421
914.119 1109.94 2421
919.909 1109.94 2421
925.698 1109.94 2421
930.333 1108.56 2418
934.567 1106.73 2414
940.339 1106.73 2414
942.193 1102.14 2404
951.885 1106.73 2414
973.129 1124.61 2453
983.385 1129.65 2464
989.277 1129.65 2464
995.169 1129.65 2464
1001.06 1129.65 2464
1011.45 1134.69 2475
1017.37 1134.69 2475
1031.14 1143.4 2494
1040.02 1146.61 2501
1052.27 1153.49 2516
1058.29 1153.49 2516
1072.34 1162.2 2535
1083.51 1167.7 2547
1089.6 1167.7 2547
1095.69 1167.7 2547
1101.78 1167.7 2547
1107.87 1167.7 2547
1110.46 1164.04 2539
1116.53 1164.04 2539
1119.51 1160.83 2532
1116.67 1151.66 2512
1115.98 1144.78 2497
1121.95 1144.78 2497
1126.56 1143.4 2494
1132.53 1143.4 2494
1127.99 1132.86 2471
1133.9 1132.86 2471
1136.58 1129.65 2464
1137.37 1124.61 2453
1143.24 1124.61 2453
1149.1 1124.61 2453
1153.56 1123.23 2450
1159.42 1123.23 2450
1160.04 1118.19 2439
1155.84 1108.56 2418
1161.62 1108.56 2418
1162.09 1103.52 2407
1161.05 1097.1 2393
1170.19 1100.31 2400
1182.79 1106.73 2414
1188.56 1106.73 2414
1194.33 1106.73 2414
1200.11 1106.73 2414
1205.88 1106.73 2414
1210.15 1105.35 2411
1212.38 1102.14 2404
1214.58 1098.93 2397
1218.28 1097.1 2393
1224 1097.1 2393
1226.64 1094.35 2387
1230.28 1092.52 2383
1234.43 1091.14 2380
1240.12 1091.14 2380
1240.57 1086.56 2370
1244.14 1084.72 2366
1248.21 1083.35 2363
1257.58 1086.56 2370
1263.24 1086.56 2370
1268.91 1086.56 2370
1281.57 1092.52 2383
1291.05 1095.72 2390
1296.76 1095.72 2390
1304.11 1097.1 2393
1312.03 1098.93 2397
1323.26 1103.52 2407
1329.01 1103.52 2407
1334.77 1103.52 2407
1348.32 1109.94 2421
1354.11 1109.94 2421
1363.83 1113.15 2428
1369.64 1113.15 2428
1375.44 1113.15 2428
1387.51 1118.19 2439
1397.34 1121.4 2446
1403.19 1121.4 2446
1409.04 1121.4 2446
1414.89 1121.4 2446
1427.12 1126.44 2457
1433 1126.44 2457
1441.22 1128.28 2461
1451.22 1131.48 2468
1458.89 1132.86 2471
1464.8 1132.86 2471
1470.71 1132.86 2471
1476.62 1132.86 2471
1482.53 1132.86 2471
1486.63 1131.48 2468
1490.11 1129.65 2464
1487.5 1123.23 2450
1479.95 1113.15 2428
1485.76 1113.15 2428
1481.12 1105.35 2411
1484.42 1103.52 2407
1496.99 1108.56 2418
1502.77 1108.56 2418
1508.55 1108.56 2418
1518.72 1111.77 2425
1528.92 1114.98 2432
1546.09 1123.23 2450
1551.95 1123.23 2450
1564.8 1128.28 2461
1570.69 1128.28 2461
1576.57 1128.28 2461
1577.31 1124.61 2453
1583.18 1124.61 2453
1587.1 1123.23 2450
1592.96 1123.23 2450
1598.82 1123.23 2450
1604.68 1123.23 2450
1603.31 1118.19 2439
1609.14 1118.19 2439
1614.97 1118.19 2439
1620.8 1118.19 2439
1623.97 1116.36 2435
1627.78 1114.98 2432
1633.6 1114.98 2432
1639.41 1114.98 2432
1645.23 1114.98 2432
1651.04 1114.98 2432
1656.86 1114.98 2432
1662.68 1114.98 2432
1658.89 1108.56 2418
1655.03 1102.14 2404
1665.62 1105.35 2411
1671.38 1105.35 2411
1677.15 1105.35 2411
1675.23 1100.31 2400
1666.96 1091.14 2380
1672.66 1091.14 2380
1678.35 1091.14 2380
1667.06 1080.14 2356
1672.69 1080.14 2356
1678.32 1080.14 2356
1686.82 1081.97 2360
1692.46 1081.97 2360
1698.1 1081.97 2360
1703.75 1081.97 2360
1709.39 1081.97 2360
1707.77 1077.39 2350
1824.85 1097.1 2393
1830.57 1097.1 2393
-1704.1 1048.91 2276
-1715.07 1059.05 2298
-1709.58 1059.05 2298
-1706.31 1060.43 2301
-1700.81 1060.43 2301
-1695.3 1060.43 2301
-1692 1061.82 2304
-1693.81 1066.42 2314
-1688.28 1066.42 2314
-1682.75 1066.42 2314
-1677.21 1066.42 2314
-1671.68 1066.42 2314
-1666.15 1066.42 2314
-1664.92 1069.19 2320
-1666.52 1073.8 2330
-1668.08 1078.41 2340
-1662.48 1078.41 2340
-1687.34 1098.22 2383
-1686.58 1101.45 2390
-1680.86 1101.45 2390
-1675.15 1101.45 2390
-1641.49 1083.02 2350
-1640.05 1085.78 2356
-1634.42 1085.78 2356
-1628.78 1085.78 2356
-1623.15 1085.78 2356
-1617.51 1085.78 2356
-1637.19 1102.83 2393
-1631.47 1102.83 2393
-1625.75 1102.83 2393
-1611.23 1096.84 2380
-1605.53 1096.84 2380
-1583.71 1085.78 2356
-1574.06 1083.02 2350
-1572.44 1085.78 2356
-1571.46 1089.01 2363
-1565.81 1089.01 2363
-1560.16 1089.01 2363
-1549.91 1085.78 2356
-1544.27 1085.78 2356
-1538.64 1085.78 2356
-1447.7 1060.43 2301
-1448.46 1065.04 2311
-1450.43 1070.57 2323
-1444.87 1070.57 2323
-1445.51 1075.18 2333
-1439.93 1075.18 2333
-1434.36 1075.18 2333
-1426.94 1073.8 2330
-1421.37 1073.8 2330
-1423.7 1079.79 2343
-1419.91 1081.17 2346
-1414.3 1081.17 2346
-1408.69 1081.17 2346
-1403.08 1081.17 2346
-1405.81 1087.62 2360
-1400.16 1087.62 2360
-1400.43 1092.23 2370
-1394.76 1092.23 2370
-1389.09 1092.23 2370
-1383.43 1092.23 2370
-1375.43 1090.39 2366
-1368.04 1089.01 2363
-1362.39 1089.01 2363
-1356.74 1089.01 2363
-1349.37 1087.62 2360
-1335.76 1081.17 2346
-1330.15 1081.17 2346
-1321.15 1078.41 2340
-1313.87 1077.02 2337
-1308.28 1077.02 2337
-1304.36 1078.41 2340
-1298.77 1078.41 2340
-1293.17 1078.41 2340
-1285.93 1077.02 2337
-1280.34 1077.02 2337
-1272.57 1075.18 2333
-1269.16 1077.02 2337
-1263.57 1077.02 2337
-1257.98 1077.02 2337
-1252.39 1077.02 2337
-1243.07 1073.8 2330
-1237.5 1073.8 2330
-1233.51 1075.18 2333
-1227.94 1075.18 2333
-1224.45 1077.02 2337
-1220.43 1078.41 2340
-1214.83 1078.41 2340
-1209.24 1078.41 2340
-1203.64 1078.41 2340
-1201.12 1081.17 2346
-1195.51 1081.17 2346
-1189.9 1081.17 2346
-1184.29 1081.17 2346
-1177.17 1079.79 2343
-1171.57 1079.79 2343
-1164.47 1078.41 2340
-1158.88 1078.41 2340
-1159.69 1084.4 2353
-1155.53 1085.78 2356
-1149.9 1085.78 2356
-1144.26 1085.78 2356
-1140.56 1087.62 2360
-1139.73 1092.23 2370
-1134.06 1092.23 2370
-1133.16 1096.84 2380
-1130.78 1100.07 2387
-1125.07 1100.07 2387
-1119.36 1100.07 2387
-1110.39 1096.84 2380
-1106.09 1098.22 2383
-1103.63 1101.45 2390
-1097.91 1101.45 2390
-1092.2 1101.45 2390
-1087.84 1102.83 2393
-1082.12 1102.83 2393
-1076.4 1102.83 2393
-1069.33 1101.45 2390
-1062.28 1100.07 2387
-1056.58 1100.07 2387
-1050.87 1100.07 2387
-1045.16 1100.07 2387
-1034.66 1095 2376
-1027.68 1093.62 2373
-1022.01 1093.62 2373
-1015.05 1092.23 2370
-1006.4 1089.01 2363
-996.513 1084.4 2353
-990.886 1084.4 2353
-982.328 1081.17 2346
-978.383 1083.02 2350
-972.764 1083.02 2350
-967.144 1083.02 2350
-961.525 1083.02 2350
-957.126 1084.4 2353
-951.499 1084.4 2353
-945.872 1084.4 2353
-940.245 1084.4 2353
-934.619 1084.4 2353
-930.176 1085.78 2356
-924.542 1085.78 2356
-918.909 1085.78 2356
-912.112 1084.4 2353
-906.485 1084.4 2353
-905.835 1090.39 2366
-900.177 1090.39 2366
-894.52 1090.39 2366
-890.365 1092.23 2370
-889.55 1098.22 2383
-883.851 1098.22 2383
-880.733 1101.45 2390
-875.017 1101.45 2390
-869.302 1101.45 2390
-863.587 1101.45 2390
-854.282 1096.84 2380
-843.599 1090.39 2366
-837.941 1090.39 2366
-826.655 1083.02 2350
-818.59 1079.79 2343
-810.905 1077.02 2337
-805.317 1077.02 2337
-799.728 1077.02 2337
-794.14 1077.02 2337
-789.564 1078.41 2340
-784.973 1079.79 2343
-780.368 1081.17 2346
-774.758 1081.17 2346
-769.148 1081.17 2346
-763.538 1081.17 2346
-757.928 1081.17 2346
-752.318 1081.17 2346
-745.753 1079.79 2343
-739.203 1078.41 2340
-733.607 1078.41 2340
-725.834 1075.18 2333
-722.416 1078.41 2340
-718.658 1081.17 2346
-716.088 1085.78 2356
-710.454 1085.78 2356
-706.914 1089.01 2363
-702.154 1090.39 2366
-696.496 1090.39 2366
-690.838 1090.39 2366
-685.18 1090.39 2366
-679.522 1090.39 2366
-673.865 1090.39 2366
-668.207 1090.39 2366
-661.709 1089.01 2363
-656.058 1089.01 2363
-652.334 1092.23 2370
-646.667 1092.23 2370
-641.811 1093.62 2373
-639.889 1100.07 2387
-634.181 1100.07 2387
-628.473 1100.07 2387
-623.548 1101.45 2390
-617.833 1101.45 2390
-612.886 1102.83 2393
-607.163 1102.83 2393
-601.441 1102.83 2393
-597.461 1106.06 2400
-591.722 1106.06 2400
-585.983 1106.06 2400
-582.903 1111.13 2411
-577.138 1111.13 2411
-571.372 1111.13 2411
-563.026 1106.06 2400
-558.216 1107.9 2404
-552.467 1107.9 2404
-546.719 1107.9 2404
-540.97 1107.9 2404
-535.221 1107.9 2404
-529.473 1107.9 2404
-522.853 1106.06 2400
-517.113 1106.06 2400
-511.374 1106.06 2400
-505.635 1106.06 2400
-500.729 1107.9 2404
-494.981 1107.9 2404
-489.232 1107.9 2404
-483.483 1107.9 2404
-476.94 1106.06 2400
-471.2 1106.06 2400
-464.879 1104.68 2397
-456.466 1098.22 2383
-450.2 1096.84 2380
-444.509 1096.84 2380
-438.08 1095 2376
-433.672 1098.22 2383
-428.692 1100.07 2387
-423.515 1101.45 2390
-417.8 1101.45 2390
-412.602 1102.83 2393
-406.88 1102.83 2393
-401.157 1102.83 2393
-394.444 1100.07 2387
-388.084 1098.22 2383
-382.386 1098.22 2383
-376.687 1098.22 2383
-370.989 1098.22 2383
-365.29 1098.22 2383
-361.101 1102.83 2393
-355.378 1102.83 2393
-350.679 1106.06 2400
-344.94 1106.06 2400
-340.19 1109.28 2407
-336.379 1115.74 2421
-330.59 1115.74 2421
-324.8 1115.74 2421
-318.089 1112.51 2414
-310.505 1106.06 2400
-304.766 1106.06 2400
-298.154 1102.83 2393
-291.21 1098.22 2383
-285.152 1096.84 2380
-279.461 1096.84 2380
-273.77 1096.84 2380
-268.078 1096.84 2380
-262.387 1096.84 2380
-256.696 1096.84 2380
-250.266 1093.62 2373
-244.282 1092.23 2370
-238.615 1092.23 2370
-232.948 1092.23 2370
-225.362 1083.02 2350
-218.527 1077.02 2337
-212.574 1075.18 2333
-206.995 1075.18 2333
-201.416 1075.18 2333
-195.334 1072.42 2327
-189.198 1069.19 2320
-182.938 1065.04 2311
-177.412 1065.04 2311
-70.9393 1043.38 2264
-65.5254 1043.38 2264
-60.4301 1048.91 2276
-54.9875 1048.91 2276
-49.5449 1048.91 2276
-43.9279 1044.76 2267
-38.5068 1044.76 2267
-32.7208 1033.24 2242
-27.1765 1026.33 2227
-21.851 1026.33 2227
-16.5256 1026.33 2227
-11.1298 1019.88 2213
-5.7534 1005.13 2181
-0.537229 1003.75 2178
4.67103 1003.75 2178
9.86568 1002.37 2175
15.0875 1003.75 2178
20.2958 1003.75 2178
25.5041 1003.75 2178
30.67 1002.37 2175
35.7392 998.679 2167
41.0155 1000.98 2172
46.5711 1008.82 2189
51.8057 1008.82 2189
57.0402 1008.82 2189
62.2748 1008.82 2189
67.5094 1008.82 2189
72.7439 1008.82 2189
77.8716 1007.43 2186
83.099 1007.43 2186
88.2456 1006.51 2184
93.4682 1006.51 2184
98.5552 1005.13 2181
103.771 1005.13 2181
108.386 999.6 2169
113.573 999.6 2169
118.76 999.6 2169
123.947 999.6 2169
129.312 1000.98 2172
134.692 1002.37 2175
139.893 1002.37 2175
145.094 1002.37 2175
224.737 1059.05 2298
231.835 1066.42 2314
237.369 1066.42 2314
244.582 1073.8 2330
250.905 1077.02 2337
256.493 1077.02 2337
262.082 1077.02 2337
269.159 1083.02 2350
275.48 1085.78 2356
281.592 1087.62 2360
287.235 1087.62 2360
294.12 1092.23 2370
300.166 1093.62 2373
307.13 1098.22 2383
313.747 1101.45 2390
319.462 1101.45 2390
325.178 1101.45 2390
330.893 1101.45 2390
336.608 1101.45 2390
342.323 1101.45 2390
348.039 1101.45 2390
353.754 1101.45 2390
361.575 1107.9 2404
367.323 1107.9 2404
373.072 1107.9 2404
377.087 1102.83 2393
382.81 1102.83 2393
388.532 1102.83 2393
394.255 1102.83 2393
399.977 1102.83 2393
405.699 1102.83 2393
410.39 1100.07 2387
415.401 1098.22 2383
420.569 1096.84 2380
426.261 1096.84 2380
431.226 1095 2376
436.356 1093.62 2373
439.609 1087.62 2360
448.271 1095 2376
455.29 1098.22 2383
460.989 1098.22 2383
470.016 1106.06 2400
478.531 1112.51 2414
485.708 1115.74 2421
491.497 1115.74 2421
497.286 1115.74 2421
503.076 1115.74 2421
512.649 1124.03 2439
518.481 1124.03 2439
524.313 1124.03 2439
531.667 1127.26 2446
537.516 1127.26 2446
543.366 1127.26 2446
548.541 1125.88 2443
554.383 1125.88 2443
560.225 1125.88 2443
564.213 1122.19 2435
569.334 1120.81 2432
575.859 1122.19 2435
581.682 1122.19 2435
587.505 1122.19 2435
591.622 1118.96 2428
596.69 1117.58 2425
602.488 1117.58 2425
604.776 1111.13 2411
607.755 1106.06 2400
608.382 1096.84 2380
610.461 1090.39 2366
616.119 1090.39 2366
620.2 1087.62 2360
625.844 1087.62 2360
631.487 1087.62 2360
637.131 1087.62 2360
642.774 1087.62 2360
647.319 1085.78 2356
652.952 1085.78 2356
662.5 1092.23 2370
668.167 1092.23 2370
674.688 1093.62 2373
681.222 1095 2376
686.904 1095 2376
692.586 1095 2376
699.443 1096.84 2380
705.134 1096.84 2380
710.826 1096.84 2380
717.42 1098.22 2383
723.119 1098.22 2383
728.817 1098.22 2383
736.673 1101.45 2390
745.495 1106.06 2400
751.234 1106.06 2400
758.234 1107.9 2404
763.983 1107.9 2404
769.732 1107.9 2404
775.481 1107.9 2404
781.229 1107.9 2404
790.252 1112.51 2414
798.332 1115.74 2421
804.122 1115.74 2421
813.591 1120.81 2432
823.113 1125.88 2443
828.955 1125.88 2443
834.797 1125.88 2443
834.445 1117.58 2425
834.007 1109.28 2407
841.158 1111.13 2411
846.924 1111.13 2411
853.75 1112.51 2414
859.523 1112.51 2414
865.295 1112.51 2414
868.542 1109.28 2407
870.666 1104.68 2397
877.495 1106.06 2400
883.234 1106.06 2400
888.973 1106.06 2400
894.712 1106.06 2400
903.077 1109.28 2407
908.833 1109.28 2407
914.589 1109.28 2407
920.345 1109.28 2407
923.408 1106.06 2400
929.147 1106.06 2400
934.886 1106.06 2400
939.449 1104.68 2397
947.941 1107.9 2404
960.434 1115.74 2421
969.017 1118.96 2428
974.823 1118.96 2428
990.726 1130.48 2453
996.592 1130.48 2453
1002.46 1130.48 2453
1005.45 1127.26 2446
1021.63 1138.78 2471
1030.87 1142.47 2479
1046 1152.61 2501
1051.98 1152.61 2501
1064.3 1159.52 2516
