1439.75 891.108 3310
1447.67 891.108 3310
1449.87 887.609 3297
1452 884.109 3284
1459.86 884.109 3284
1465.03 882.493 3278
1472.87 882.493 3278
1477.54 880.609 3271
1485.36 880.609 3271
1487.25 877.109 3258
1495.04 877.109 3258
1502.83 877.109 3258
1510.62 877.109 3258
1515.62 875.494 3252
1520.58 873.878 3246
1528.35 873.878 3246
1532.8 871.994 3239
1540.54 871.994 3239
1545.42 870.379 3233
1544.02 865.263 3214
1548.81 863.648 3208
1556.48 863.648 3208
1558.3 860.418 3196
1563.01 858.802 3190
1567.68 857.187 3184
1575.29 857.187 3184
1576.94 853.956 3172
1575.54 849.11 3154
1580.07 847.495 3148
1587.59 847.495 3148
1579.92 839.419 3118
1578.72 834.842 3101
1580 831.611 3089
1567.34 821.112 3050
1574.64 821.112 3050
1553.41 806.305 2995
1538.68 794.998 2953
1526.9 785.306 2917
1533.88 785.306 2917
1527.12 778.306 2891
1523.42 772.922 2871
1522.82 769.153 2857
1516.27 762.423 2832
1523.04 762.423 2832
1524.95 760 2823
1528.99 758.654 2818
1533 757.307 2813
1539.73 757.307 2813
1546.46 757.307 2813
1550.97 756.231 2809
1557.69 756.231 2809
1564.41 756.231 2809
1571.12 756.231 2809
1577.84 756.231 2809
1586.82 757.307 2813
1593.54 757.307 2813
1600.27 757.307 2813
1607 757.307 2813
1613.72 757.307 2813
1623.33 758.654 2818
1630.07 758.654 2818
1636.81 758.654 2818
2035.62 935.798 3476
2043.94 935.798 3476
2052.25 935.798 3476
2064.71 937.683 3483
2090.3 945.49 3512
2098.7 945.49 3512
2107.1 945.49 3512
2115.49 945.49 3512
2123.89 945.49 3512
2132.29 945.49 3512
2145.57 947.644 3520
2153.98 947.644 3520
2162.4 947.644 3520
2170.82 947.644 3520
2179.23 947.644 3520
2187.65 947.644 3520
2196.07 947.644 3520
2195.09 943.606 3505
2180.21 933.645 3468
2179.67 929.876 3454
2174.63 924.222 3433
2182.84 924.222 3433
2159.77 911.03 3384
2133.27 896.493 3330
2123.87 889.224 3303
2131.77 889.224 3303
2139.67 889.224 3303
2135.22 884.109 3284
2130.67 878.994 3265
2138.48 878.994 3265
2146.29 878.994 3265
2154.09 878.994 3265
2157.27 877.109 3258
2169.71 878.994 3265
2190.19 884.109 3284
2198.04 884.109 3284
2214.63 887.609 3297
2226.55 889.224 3303
2247.98 894.608 3323
2255.93 894.608 3323
2263.88 894.608 3323
2271.82 894.608 3323
2279.77 894.608 3323
2283.58 892.993 3317
2286.68 891.108 3310
2285.58 887.609 3297
2284.42 884.109 3284
2292.28 884.109 3284
2286.82 878.994 3265
2289.71 877.109 3258
2289.04 873.878 3246
2296.8 873.878 3246
2299.59 871.994 3239
2298.79 868.763 3227
2302.22 867.148 3221
2309.92 867.148 3221
2312.59 865.263 3214
2311.61 862.033 3202
2301.88 855.572 3178
2296.4 850.726 3160
2303.96 850.726 3160
2311.51 850.726 3160
2319.07 850.726 3160
2326.63 850.726 3160
2334.18 850.726 3160
2341.74 850.726 3160
2349.3 850.726 3160
2356.85 850.726 3160
2364.41 850.726 3160
2371.97 850.726 3160
2388.56 853.956 3172
2418.81 862.033 3202
2478.75 880.609 3271
2486.57 880.609 3271
2494.4 880.609 3271
2502.22 880.609 3271
-2420.63 878.123 3233
-2412.9 878.123 3233
-2405.16 878.123 3233
-2397.43 878.123 3233
-2389.7 878.123 3233
-2381.97 878.123 3233
-2369.83 876.494 3227
-2351.05 878.123 3233
-2343.32 878.123 3233
-2339.92 879.753 3239
-2332.17 879.753 3239
-2324.43 879.753 3239
-2308.1 876.494 3227
-2278.28 868.074 3196
-2262.12 864.814 3184
-2267.25 869.703 3202
-2259.59 869.703 3202
-2251.93 869.703 3202
-2252.69 872.963 3214
-2271.55 883.284 3252
-2263.77 883.284 3252
-2255.99 883.284 3252
-2248.22 883.284 3252
-2240.44 883.284 3252
-2211.38 874.864 3221
-2198.89 872.963 3214
-2191.2 872.963 3214
-2200.5 879.753 3239
-2192.76 879.753 3239
-2189.73 881.654 3246
-2211.55 893.605 3290
-2208.37 895.506 3297
-2200.48 895.506 3297
-2192.6 895.506 3297
-2184.72 895.506 3297
-2207.2 908.001 3343
-2199.21 908.001 3343
-2200.39 911.803 3357
-2196.28 913.433 3363
-2206.46 921.038 3391
-2198.35 921.038 3391
-2194.76 922.939 3398
-2186.64 922.939 3398
-2178.51 922.939 3398
-2170.39 922.939 3398
-2234.8 953.903 3512
-2226.4 953.903 3512
-2218.01 953.903 3512
-2209.61 953.903 3512
-2201.21 953.903 3512
-2188.44 952.002 3505
-2180.06 952.002 3505
-2171.68 952.002 3505
-2163.3 952.002 3505
-2145.69 947.928 3490
-2137.35 947.928 3490
-2129 947.928 3490
-2116.4 946.026 3483
-2108.07 946.026 3483
-2099.74 946.026 3483
-2091.42 946.026 3483
-2069.93 940.051 3461
-2053.31 936.248 3447
-2045.07 936.248 3447
-2028.55 932.446 3433
-2016.23 930.544 3426
-2008.03 930.544 3426
-1999.84 930.544 3426
-1979.44 924.841 3405
-1943.51 911.803 3357
-1967.19 926.742 3412
-1959.03 926.742 3412
-1950.87 926.742 3412
-1942.71 926.742 3412
-1930.59 924.841 3405
-1922.44 924.841 3405
-1914.3 924.841 3405
-1906.16 924.841 3405
-1894.11 922.939 3398
-1885.99 922.939 3398
-1877.86 922.939 3398
-1865.89 921.038 3391
-1861.61 922.939 3398
-1868.76 930.544 3426
-1860.57 930.544 3426
-1852.37 930.544 3426
-1844.18 930.544 3426
-1835.99 930.544 3426
-1820.33 926.742 3412
-1801.01 921.038 3391
-1792.91 921.038 3391
-1784.8 921.038 3391
-1765.68 915.334 3370
-1757.63 915.334 3370
-1735.55 908.001 3343
-1727.56 908.001 3343
-1723.16 909.902 3350
-1715.15 909.902 3350
-1713.77 913.433 3363
-1723.48 922.939 3398
-1715.35 922.939 3398
-1707.22 922.939 3398
-1699.1 922.939 3398
-1690.97 922.939 3398
-1682.85 922.939 3398
-1674.72 922.939 3398
-1652.86 915.334 3370
-1638.46 911.803 3357
-1636.75 915.334 3370
-1628.69 915.334 3370
-1620.63 915.334 3370
-1577.64 895.506 3297
-1569.75 895.506 3297
-1399.37 902.568 3323
-1391.42 902.568 3323
-1383.48 902.568 3323
-1373.05 900.939 3317
-1362.23 899.037 3310
-1354.32 899.037 3310
-1341.11 895.506 3297
-1333.23 895.506 3297
-1325.35 895.506 3297
-1317.46 895.506 3297
-1309.58 895.506 3297
-1301.69 895.506 3297
-1298.91 899.037 3310
-1293.73 900.939 3317
-1285.79 900.939 3317
-1277.86 900.939 3317
-1277.59 906.371 3337
-1271.89 908.001 3343
-1263.9 908.001 3343
-1255.9 908.001 3343
-1245.67 906.371 3337
-1255.12 919.137 3384
-1247.03 919.137 3384
-1238.94 919.137 3384
-1241.03 926.742 3412
-1232.87 926.742 3412
-1224.71 926.742 3412
-1216.55 926.742 3412
-1208.39 926.742 3412
-1200.23 926.742 3412
-1192.07 926.742 3412
-1183.91 926.742 3412
-1175.76 926.742 3412
-1167.6 926.742 3412
-1159.44 926.742 3412
-1146.55 922.939 3398
-1152.5 934.347 3440
-1158.58 946.026 3483
-1157.51 952.002 3505
-1149.13 952.002 3505
-1140.75 952.002 3505
-1144.32 962.052 3542
-1135.85 962.052 3542
-1127.38 962.052 3542
-1037.9 998.176 3675
-1029.11 998.176 3675
-1020.32 998.176 3675
-1009.33 996.003 3667
-1000.56 996.003 3667
-987.193 991.386 3650
-974.444 987.312 3635
-951.139 972.373 3580
-942.578 972.373 3580
-925.93 963.953 3549
-913.565 959.879 3534
-897.687 952.002 3505
-889.305 952.002 3505
-880.924 952.002 3505
-865.323 944.125 3476
-857.011 944.125 3476
-848.699 944.125 3476
-840.387 944.125 3476
-832.074 944.125 3476
-811.913 930.544 3426
-800.436 926.742 3412
-792.277 926.742 3412
-784.118 926.742 3412
-772.775 922.939 3398
-764.649 922.939 3398
-756.523 922.939 3398
-544.876 936.248 3447
-536.634 936.248 3447
-528.391 936.248 3447
-516.979 930.544 3426
-508.787 930.544 3426
-494.457 919.137 3384
-491.395 928.643 3419
-483.219 928.643 3419
-477.961 934.347 3440
-472.603 940.051 3461
-464.327 940.051 3461
-456.05 940.051 3461
-448.68 941.952 3468
-440.387 941.952 3468
-433.962 946.026 3483
-425.633 946.026 3483
-418.982 949.829 3497
-410.62 949.829 3497
-402.257 949.829 3497
-385.259 970.2 3572
-376.717 970.2 3572
-368.176 970.2 3572
-359.634 970.2 3572
-351.092 970.2 3572
-342.55 970.2 3572
-333.354 968.299 3565
-158.606 619.005 2279
-153.156 619.005 2279
-147.706 619.005 2279
-142.256 619.005 2279
-136.446 617.375 2273
-131.011 617.375 2273
-124.526 612.215 2254
-119.136 612.215 2254
-113.746 612.215 2254
-108.356 612.215 2254
-102.966 612.215 2254
-97.4461 611.4 2251
-91.9405 610.585 2248
-86.5649 610.585 2248
-80.9725 608.955 2242
-75.5101 608.14 2239
-70.1559 608.14 2239
-64.8018 608.14 2239
-59.4477 608.14 2239
-54.0936 608.14 2239
-48.3476 603.251 2221
-43.0365 603.251 2221
-37.9802 607.326 2236
-32.6333 607.326 2236
-27.3961 609.77 2245
-22.116 612.215 2254
-16.726 612.215 2254
-11.336 612.215 2254
-5.98027 615.746 2267
-0.560662 617.375 2273
4.89407 619.82 2282
10.351 619.82 2282
15.8495 621.449 2288
21.414 624.166 2298
26.9795 625.795 2304
32.4891 625.795 2304
38.1141 627.697 2311
43.867 630.956 2323
49.422 630.956 2323
54.977 630.956 2323
60.532 630.956 2323
66.3715 633.672 2333
71.9504 633.672 2333
77.5293 633.672 2333
83.1082 633.672 2333
88.459 632.042 2327
94.0236 632.042 2327
99.417 630.956 2323
104.972 630.956 2323
110.527 630.956 2323
116.082 630.956 2323
121.846 632.042 2327
127.411 632.042 2327
133.147 632.857 2330
138.897 633.672 2333
144.476 633.672 2333
150.055 633.672 2333
156.501 637.203 2346
162.111 637.203 2346
167.721 637.203 2346
173.331 637.203 2346
178.941 637.203 2346
485.739 850.147 3130
493.223 850.147 3130
500.708 850.147 3130
508.193 850.147 3130
515.678 850.147 3130
523.162 850.147 3130
529.63 848.518 3124
535.037 845.258 3112
542.479 845.258 3112
546.917 840.641 3095
552.348 837.653 3084
561.719 840.641 3095
569.12 840.641 3095
576.521 840.641 3095
583.922 840.641 3095
596.864 848.518 3124
614.781 863.185 3178
622.38 863.185 3178
629.98 863.185 3178
637.579 863.185 3178
642.743 859.925 3166
650.314 859.925 3166
656.638 858.296 3160
664.194 858.296 3160
671.751 858.296 3160
679.307 858.296 3160
686.864 858.296 3160
695.739 859.925 3166
704.642 861.555 3172
713.575 863.185 3178
721.174 863.185 3178
728.774 863.185 3178
736.374 863.185 3178
743.973 863.185 3178
750.154 861.555 3172
760.606 864.814 3184
771.115 868.074 3196
778.757 868.074 3196
786.4 868.074 3196
791.061 864.814 3184
797.17 863.185 3178
806.289 864.814 3184
815.437 866.444 3190
823.065 866.444 3190
832.256 868.074 3196
844.629 872.963 3214
855.762 876.494 3227
863.478 876.494 3227
874.435 879.753 3239
882.18 879.753 3239
893.497 883.284 3252
901.274 883.284 3252
910.728 884.914 3258
924.157 890.346 3278
937.398 895.506 3297
945.282 895.506 3297
956.924 899.037 3310
964.84 899.037 3310
974.812 900.939 3317
982.744 900.939 3317
1000.53 909.902 3350
1018.78 919.137 3384
1031.12 922.939 3398
1039.24 922.939 3398
1049.53 924.841 3405
1059.84 926.742 3412
1068 926.742 3412
1076.16 926.742 3412
1084.32 926.742 3412
1092.48 926.742 3412
1102.9 928.643 3419
1111.07 928.643 3419
1121.54 930.544 3426
1132.04 932.446 3433
1140.25 932.446 3433
1148.46 932.446 3433
1156.67 932.446 3433
1167.26 934.347 3440
1175.48 934.347 3440
1188.52 938.15 3454
1196.78 938.15 3454
1207.49 940.051 3461
1228.41 949.829 3497
1239.6 952.002 3505
1247.98 952.002 3505
1261.74 956.076 3520
1272.68 957.977 3527
1283.66 959.879 3534
1292.11 959.879 3534
1306.08 963.953 3549
1314.57 963.953 3549
1323.06 963.953 3549
1328.92 962.052 3542
1340.03 963.953 3549
1348.52 963.953 3549
1357 963.953 3549
1365.49 963.953 3549
1373.98 963.953 3549
1371.17 956.076 3520
1379.58 956.076 3520
1367.5 941.952 3468
1373.01 940.051 3461
1378.49 938.15 3454
1375.51 930.544 3426
1383.71 930.544 3426
1369.15 915.334 3370
1371.89 911.803 3357
1371.7 906.371 3337
1379.68 906.371 3337
1384.75 904.47 3330
1392.71 904.47 3330
1400.67 904.47 3330
1408.64 904.47 3330
1416.6 904.47 3330
1421.57 902.568 3323
1429.51 902.568 3323
1431.84 899.037 3310
1439.75 899.037 3310
1447.67 899.037 3310
1449.87 895.506 3297
1452 891.976 3284
1459.86 891.976 3284
1465.03 890.346 3278
1472.87 890.346 3278
1477.54 888.445 3271
1485.36 888.445 3271
1487.25 884.914 3258
1495.04 884.914 3258
1502.83 884.914 3258
1510.62 884.914 3258
1515.62 883.284 3252
1520.58 881.654 3246
1528.35 881.654 3246
1532.8 879.753 3239
1540.54 879.753 3239
1545.42 878.123 3233
1544.02 872.963 3214
1548.81 871.333 3208
1556.48 871.333 3208
1558.3 868.074 3196
1563.01 866.444 3190
1567.68 864.814 3184
1575.29 864.814 3184
1576.94 861.555 3172
1575.54 856.666 3154
1580.07 855.036 3148
1587.59 855.036 3148
1579.92 846.888 3118
1578.72 842.27 3101
1580 839.011 3089
1567.34 828.418 3050
1574.64 828.418 3050
1553.41 813.479 2995
1538.68 802.072 2953
1526.9 792.294 2917
1533.88 792.294 2917
1527.12 785.232 2891
1523.42 779.8 2871
1522.82 775.997 2857
1516.27 769.207 2832
1523.04 769.207 2832
1524.95 766.762 2823
1528.99 765.404 2818
1533 764.046 2813
1539.73 764.046 2813
1546.46 764.046 2813
1550.97 762.96 2809
1557.69 762.96 2809
1564.41 762.96 2809
1571.12 762.96 2809
1577.84 762.96 2809
1586.82 764.046 2813
1593.54 764.046 2813
1600.27 764.046 2813
1607 764.046 2813
1613.72 764.046 2813
1620.45 764.046 2813
1627.18 764.046 2813
2030.94 941.952 3468
2039.23 941.952 3468
2047.53 941.952 3468
2064.71 946.026 3483
2090.3 953.903 3512
2098.7 953.903 3512
2107.1 953.903 3512
2115.49 953.903 3512
2123.89 953.903 3512
2132.29 953.903 3512
2140.69 953.903 3512
2153.98 956.076 3520
2162.4 956.076 3520
2170.82 956.076 3520
2179.23 956.076 3520
2187.65 956.076 3520
2196.07 956.076 3520
2195.09 952.002 3505
2180.21 941.952 3468
2179.67 938.15 3454
2174.63 932.446 3433
2182.84 932.446 3433
2146.37 913.433 3363
2133.27 904.47 3330
2123.87 897.136 3303
2131.77 897.136 3303
2139.67 897.136 3303
2135.22 891.976 3284
2130.67 886.815 3265
2138.48 886.815 3265
2146.29 886.815 3265
2154.09 886.815 3265
2157.27 884.914 3258
2169.71 886.815 3265
2190.19 891.976 3284
2198.04 891.976 3284
2214.63 895.506 3297
2226.55 897.136 3303
2243.92 900.939 3317
2251.86 900.939 3317
2259.79 900.939 3317
2267.72 900.939 3317
2275.65 900.939 3317
2273.95 897.136 3303
2281.84 897.136 3303
2285.58 895.506 3297
2275.38 888.445 3271
2283.2 888.445 3271
2286.82 886.815 3265
2285.49 883.284 3252
2284.1 879.753 3239
2291.85 879.753 3239
2281.84 872.963 3214
2289.53 872.963 3214
2297.22 872.963 3214
2304.9 872.963 3214
2312.59 872.963 3214
2311.61 869.703 3202
2301.88 863.185 3178
2296.4 858.296 3160
2303.96 858.296 3160
2311.51 858.296 3160
2319.07 858.296 3160
2326.63 858.296 3160
2334.18 858.296 3160
2341.74 858.296 3160
2349.3 858.296 3160
2356.85 858.296 3160
2364.41 858.296 3160
2371.97 858.296 3160
2388.56 861.555 3172
2418.81 869.703 3202
2478.75 888.445 3271
2486.57 888.445 3271
2494.4 888.445 3271
2502.22 888.445 3271
-2416.13 884.224 3227
-2408.42 884.224 3227
-2400.7 884.224 3227
-2392.98 884.224 3227
-2323.53 884.224 3227
-2315.82 884.224 3227
-2308.1 884.224 3227
-2278.28 875.73 3196
-2262.12 872.442 3184
-2254.5 872.442 3184
-2242.65 870.798 3178
-2239.27 872.442 3184
-2248.48 879.018 3208
-2240.81 879.018 3208
-2233.14 879.018 3208
-2225.47 879.018 3208
-2217.8 879.018 3208
-2210.13 879.018 3208
-2198.34 877.374 3202
-2190.68 877.374 3202
-2187.11 879.018 3208
-2183.52 880.662 3214
-2175.83 880.662 3214
-2185.01 887.512 3239
-2181.97 889.43 3246
-2186.93 894.636 3265
-2179.13 894.636 3265
-2171.32 894.636 3265
-2176.1 899.842 3284
-2172.21 901.486 3290
-2164.34 901.486 3290
-2161.06 903.404 3297
-2170.16 910.529 3323
-2162.21 910.529 3323
-2154.27 910.529 3323
-2121.13 899.842 3284
-2113.28 899.842 3284
-2126.58 908.885 3317
-2118.65 908.885 3317
-2110.72 908.885 3317
-2106.59 910.529 3323
-2098.64 910.529 3323
-2090.7 910.529 3323
-2082.75 910.529 3323
-2165.34 950.26 3468
-2162.02 952.452 3476
-2153.71 952.452 3476
-2145.4 952.452 3476
-2132.17 950.26 3468
-2123.87 950.26 3468
-2098.5 942.588 3440
-2094.53 944.506 3447
-2094.76 948.342 3461
-2086.48 948.342 3461
-2078.21 948.342 3461
-2057.37 942.588 3440
-2044.97 940.67 3433
-2036.76 940.67 3433
-2024.42 938.752 3426
-2003.87 932.997 3405
-1995.72 932.997 3405
-1987.58 932.997 3405
-1951.54 919.845 3357
-1923.82 910.529 3323
-1935.48 919.845 3357
-1938.94 925.325 3377
-1930.86 925.325 3377
-1922.79 925.325 3377
-1910.74 923.407 3370
-1902.68 923.407 3370
-1894.62 923.407 3370
-1886.57 923.407 3370
-1886.31 927.243 3384
-1878.22 927.243 3384
-1870.13 927.243 3384
-1854.33 923.407 3370
-1846.27 923.407 3370
-1861.12 934.915 3412
-1852.96 934.915 3412
-1844.8 934.915 3412
-1836.65 934.915 3412
-1828.49 934.915 3412
-1801.65 925.325 3377
-1793.58 925.325 3377
-1785.5 925.325 3377
-1777.43 925.325 3377
-1765.68 923.407 3370
-1757.63 923.407 3370
-1735.55 916.009 3343
-1727.56 916.009 3343
-1723.16 917.927 3350
-1715.15 917.927 3350
-1713.77 921.489 3363
-1723.48 931.079 3398
-1715.35 931.079 3398
-1707.22 931.079 3398
-1699.1 931.079 3398
-1690.97 931.079 3398
-1682.85 931.079 3398
-1674.72 931.079 3398
-1652.86 923.407 3370
-1638.46 919.845 3357
-1636.75 923.407 3370
-1628.69 923.407 3370
-1620.63 923.407 3370
-1577.64 903.404 3297
-1569.75 903.404 3297
-1399.37 910.529 3323
-1391.42 910.529 3323
-1383.48 910.529 3323
-1373.05 908.885 3317
-1362.23 906.967 3310
-1354.32 906.967 3310
-1341.11 903.404 3297
-1333.23 903.404 3297
-1325.35 903.404 3297
-1317.46 903.404 3297
-1309.58 903.404 3297
-1301.69 903.404 3297
-1298.91 906.967 3310
-1293.73 908.885 3317
-1285.79 908.885 3317
-1277.86 908.885 3317
-1277.59 914.365 3337
-1271.89 916.009 3343
-1263.9 916.009 3343
-1255.9 916.009 3343
-1245.67 914.365 3337
-1255.12 927.243 3384
-1247.03 927.243 3384
-1238.94 927.243 3384
-1241.03 934.915 3412
-1232.87 934.915 3412
-1224.71 934.915 3412
-1216.55 934.915 3412
-1208.39 934.915 3412
-1200.23 934.915 3412
-1192.07 934.915 3412
-1183.91 934.915 3412
-1175.76 934.915 3412
-1167.6 934.915 3412
-1159.44 934.915 3412
-1146.55 931.079 3398
-1152.5 942.588 3440
-1158.58 954.37 3483
-1157.51 960.398 3505
-1149.13 960.398 3505
-1140.75 960.398 3505
-1144.32 970.536 3542
-1135.85 970.536 3542
-1127.38 970.536 3542
-1037.9 1006.98 3675
-1029.11 1006.98 3675
-1020.32 1006.98 3675
-1009.33 1004.79 3667
-1000.56 1004.79 3667
-987.193 1000.13 3650
-974.444 996.019 3635
-951.139 980.949 3580
-942.578 980.949 3580
-925.93 972.455 3549
-913.565 968.344 3534
-897.687 960.398 3505
-889.305 960.398 3505
-880.924 960.398 3505
-865.323 952.452 3476
-857.011 952.452 3476
-848.699 952.452 3476
-840.387 952.452 3476
-832.074 952.452 3476
-811.913 938.752 3426
-800.436 934.915 3412
-792.277 934.915 3412
-784.118 934.915 3412
-772.775 931.079 3398
-764.649 931.079 3398
-756.523 931.079 3398
-544.876 944.506 3447
-536.634 944.506 3447
-528.391 944.506 3447
-516.979 938.752 3426
-508.787 938.752 3426
-494.457 927.243 3384
-491.395 936.833 3419
-483.219 936.833 3419
-477.961 942.588 3440
-472.603 948.342 3461
-464.327 948.342 3461
-456.05 948.342 3461
-441.434 934.915 3412
-433.275 934.915 3412
-425.116 934.915 3412
-416.957 934.915 3412
-407.959 932.997 3405
-158.606 624.464 2279
-153.156 624.464 2279
-147.706 624.464 2279
-142.256 624.464 2279
-136.627 623.642 2276
-131.184 623.642 2276
-124.692 618.436 2257
-119.294 618.436 2257
-113.746 617.614 2254
-108.356 617.614 2254
-102.966 617.614 2254
-97.4461 616.792 2251
-91.9405 615.97 2248
-86.5649 615.97 2248
-80.9725 614.326 2242
-75.6112 614.326 2242
-70.1559 613.504 2239
-64.8018 613.504 2239
-59.4477 613.504 2239
-54.0936 613.504 2239
-48.3476 608.572 2221
-43.0365 608.572 2221
-37.8783 611.038 2230
-32.5457 611.038 2230
-27.3229 613.504 2239
-22.0865 616.792 2251
-16.726 617.614 2254
-11.336 617.614 2254
-5.98027 621.176 2267
-0.560662 622.82 2273
4.89407 625.286 2282
10.351 625.286 2282
15.8495 626.93 2288
21.414 629.67 2298
26.9795 631.315 2304
32.4891 631.315 2304
38.1141 633.233 2311
43.867 636.521 2323
49.422 636.521 2323
54.977 636.521 2323
60.532 636.521 2323
66.4853 640.357 2337
72.0737 640.357 2337
77.6622 640.357 2337
83.2507 640.357 2337
88.459 637.617 2327
94.0236 637.617 2327
99.417 636.521 2323
104.836 635.699 2320
110.384 635.699 2320
116.082 636.521 2323
121.637 636.521 2323
127.192 636.521 2323
133.147 638.439 2330
138.897 639.261 2333
144.476 639.261 2333
150.055 639.261 2333
156.501 642.823 2346
162.111 642.823 2346
167.721 642.823 2346
173.331 642.823 2346
178.941 642.823 2346
478.254 857.645 3130
486.67 859.289 3136
494.169 859.289 3136
501.668 859.289 3136
508.193 857.645 3130
515.678 857.645 3130
523.162 857.645 3130
529.63 856.001 3124
536.069 854.357 3118
543.525 854.357 3118
546.917 848.055 3095
554.318 848.055 3095
561.719 848.055 3095
569.12 848.055 3095
576.521 848.055 3095
583.922 848.055 3095
596.864 856.001 3124
614.781 870.798 3178
622.38 870.798 3178
629.98 870.798 3178
637.579 870.798 3178
642.743 867.509 3166
650.314 867.509 3166
657.884 867.509 3166
666.716 869.154 3172
674.302 869.154 3172
681.887 869.154 3172
688.168 867.509 3166
695.739 867.509 3166
705.975 870.798 3178
713.575 870.798 3178
721.174 870.798 3178
728.774 870.798 3178
736.374 870.798 3178
743.973 870.798 3178
751.573 870.798 3178
763.472 875.73 3196
772.562 877.374 3202
780.219 877.374 3202
787.876 877.374 3202
794.043 875.73 3196
797.17 870.798 3178
807.808 874.086 3190
816.97 875.73 3196
824.613 875.73 3196
832.256 875.73 3196
844.629 880.662 3214
855.762 884.224 3227
863.478 884.224 3227
871.195 884.224 3227
880.546 885.868 3233
889.926 887.512 3239
897.671 887.512 3239
907.373 889.43 3246
920.492 894.636 3265
930.005 896.28 3271
937.827 896.28 3271
953.166 903.404 3297
961.05 903.404 3297
970.698 905.049 3303
978.596 905.049 3303
994.559 912.447 3330
1008.54 917.927 3350
1026.87 927.243 3384
1034.96 927.243 3384
1047.37 931.079 3398
1059.84 934.915 3412
1068 934.915 3412
1076.16 934.915 3412
1082.1 932.997 3405
1090.24 932.997 3405
1098.38 932.997 3405
1106.52 932.997 3405
1114.67 932.997 3405
1122.81 932.997 3405
1137.93 938.752 3426
1146.12 938.752 3426
1154.31 938.752 3426
1160.13 936.833 3419
1168.31 936.833 3419
1176.48 936.833 3419
1184.66 936.833 3419
1202.6 944.506 3447
1210.84 944.506 3447
1224.04 948.342 3461
1232.32 948.342 3461
1245.97 952.452 3476
1256.81 954.37 3483
1270.22 958.206 3497
1278.58 958.206 3497
1289.89 960.398 3505
1298.27 960.398 3505
1306.65 960.398 3505
1315.03 960.398 3505
1334.36 968.344 3534
1342.82 968.344 3534
1351.27 968.344 3534
1359.72 968.344 3534
1362.75 964.508 3520
1356.75 954.37 3483
1359.2 950.26 3468
1367.5 950.26 3468
1370.24 946.424 3454
1372.91 942.588 3440
1375.51 938.752 3426
1383.71 938.752 3426
1369.15 923.407 3370
1374.34 921.489 3363
1374.17 916.009 3343
1382.16 916.009 3343
1384.75 912.447 3330
1392.71 912.447 3330
1400.67 912.447 3330
1408.64 912.447 3330
1416.6 912.447 3330
1421.57 910.529 3323
1429.51 910.529 3323
1431.84 906.967 3310
1439.75 906.967 3310
1447.67 906.967 3310
1449.87 903.404 3297
1452 899.842 3284
1459.86 899.842 3284
1465.03 898.198 3278
1472.87 898.198 3278
1477.54 896.28 3271
1485.36 896.28 3271
1487.25 892.718 3258
1495.04 892.718 3258
1502.83 892.718 3258
1510.62 892.718 3258
1515.62 891.074 3252
1523.4 891.074 3252
1528.35 889.43 3246
1532.8 887.512 3239
1540.54 887.512 3239
1545.42 885.868 3233
1547.39 882.58 3221
1548.81 879.018 3208
1556.48 879.018 3208
1561.23 877.374 3202
1563.01 874.086 3190
1567.68 872.442 3184
1575.29 872.442 3184
1576.94 869.154 3172
1575.54 864.221 3154
1580.07 862.577 3148
1587.59 862.577 3148
1579.92 854.357 3118
1578.72 849.699 3101
1580 846.411 3089
1569.91 837.095 3055
1577.22 837.095 3055
1559.11 823.668 3006
1543.89 811.886 2963
1539.99 806.132 2942
1547.02 806.132 2942
1537.68 797.637 2911
1531.38 790.787 2886
1530.28 786.677 2871
1529.65 782.841 2857
1536.48 782.841 2857
1535.21 778.731 2842
1534.41 774.895 2828
1541.18 774.895 2828
1547.94 774.895 2828
1551.95 773.525 2823
1558.7 773.525 2823
1562.68 772.155 2818
1569.42 772.155 2818
1578.96 773.525 2823
1585.71 773.525 2823
1595.28 774.895 2828
1607.14 777.361 2837
1613.92 777.361 2837
1620.71 777.361 2837
1627.49 777.361 2837
2002.24 936.833 3419
2010.42 936.833 3419
2018.6 936.833 3419
2055.82 950.26 3468
2081.37 958.206 3497
2089.73 958.206 3497
2102.9 960.398 3505
2111.28 960.398 3505
2119.66 960.398 3505
2123.18 958.206 3497
2131.55 958.206 3497
2139.91 958.206 3497
2148.27 958.206 3497
2156.63 958.206 3497
2165 958.206 3497
2173.36 958.206 3497
2163.63 950.26 3468
2171.92 950.26 3468
2167.01 944.506 3447
2153.17 934.915 3412
2134.72 923.407 3370
2142.78 923.407 3370
2125.31 912.447 3330
2099.96 898.198 3278
2107.8 898.198 3278
2115.64 898.198 3278
2123.48 898.198 3278
2131.32 898.198 3278
2118.27 889.43 3246
2126.03 889.43 3246
2137.74 891.074 3252
2145.52 891.074 3252
2153.29 891.074 3252
2169.71 894.636 3265
2190.19 899.842 3284
2198.04 899.842 3284
2205.89 899.842 3284
2226.55 905.049 3303
2239.19 906.967 3310
2247.1 906.967 3310
2255.02 906.967 3310
2262.93 906.967 3310
2270.85 906.967 3310
2273.95 905.049 3303
2277.7 903.404 3297
2280.73 901.486 3290
2271.21 894.636 3265
2279.02 894.636 3265
2277.72 891.074 3252
2281.28 889.43 3246
2284.1 887.512 3239
2291.85 887.512 3239
2281.84 880.662 3214
2289.53 880.662 3214
2297.22 880.662 3214
2304.9 880.662 3214
2312.59 880.662 3214
2311.61 877.374 3202
2301.88 870.798 3178
2296.4 865.865 3160
2303.96 865.865 3160
2311.51 865.865 3160
2319.07 865.865 3160
2326.63 865.865 3160
2334.18 865.865 3160
2341.74 865.865 3160
2349.3 865.865 3160
2356.85 865.865 3160
2364.41 865.865 3160
2371.97 865.865 3160
2388.56 869.154 3172
2396.15 869.154 3172
2403.73 869.154 3172
-2406.4 888.361 3214
-2398.72 888.361 3214
-2373.17 881.727 3190
-2261.18 876.752 3172
-2253.59 876.752 3172
-2246.01 876.752 3172
-2229.95 873.435 3160
-2230.84 876.752 3172
-2227.46 878.41 3178
-2228.24 881.727 3190
-2220.61 881.727 3190
-2221.31 885.044 3202
-2213.65 885.044 3202
-2205.99 885.044 3202
-2194.22 883.386 3196
-2182.47 881.727 3190
-2174.84 881.727 3190
-2179.44 886.703 3208
-2171.77 886.703 3208
-2164.1 886.703 3208
-2177.26 895.271 3239
-2169.52 895.271 3239
-2161.77 895.271 3239
-2158.68 897.206 3246
-2163.51 902.458 3265
-2164.29 906.051 3278
-2156.45 906.051 3278
-2152.54 907.709 3284
-2144.69 907.709 3284
-2136.84 907.709 3284
-2125.09 906.051 3278
-2088.82 897.206 3246
-2101.58 906.051 3278
-2093.74 906.051 3278
-2110.72 916.831 3317
-2106.59 918.489 3323
-2098.64 918.489 3323
-2090.7 918.489 3323
-2082.75 918.489 3323
-2074.8 918.489 3323
-2139.63 950.828 3440
-2131.4 950.828 3440
-2123.18 950.828 3440
-2114.95 950.828 3440
-2106.73 950.828 3440
-2047.87 927.887 3357
-2064.75 939.219 3398
-2056.63 939.219 3398
-2048.5 939.219 3398
-2040.38 939.219 3398
-2032.25 939.219 3398
-2015.78 935.35 3384
-2007.69 935.35 3384
-1999.6 935.35 3384
-1991.51 935.35 3384
-1983.42 935.35 3384
-1975.32 935.35 3384
-1943.4 924.017 3343
-1916.3 914.896 3310
-1912.42 916.831 3317
-1911.95 920.424 3330
-1903.99 920.424 3330
-1896.02 920.424 3330
-1880.69 916.831 3317
-1880.1 920.424 3330
-1872.14 920.424 3330
-1875.37 925.952 3350
-1882.41 933.415 3377
-1874.33 933.415 3377
-1866.26 933.415 3377
-1843.33 925.952 3350
-1846.27 931.48 3370
-1861.12 943.089 3412
-1852.96 943.089 3412
-1844.8 943.089 3412
-1832.88 941.154 3405
-1824.73 941.154 3405
-1794.18 929.545 3363
-1786.14 929.545 3363
-1781.8 931.48 3370
-1773.74 931.48 3370
-1765.68 931.48 3370
-1757.63 931.48 3370
-1728.8 920.424 3330
-1714.12 916.831 3317
-1706.19 916.831 3317
-1698.26 916.831 3317
-1703.57 924.017 3343
-1702.68 927.887 3357
-1694.65 927.887 3357
-1686.62 927.887 3357
-1678.6 927.887 3357
-1667.09 925.952 3350
-1659.08 925.952 3350
-1651.06 925.952 3350
-1620 912.961 3303
-1612.1 912.961 3303
-1627.03 925.952 3350
-1619.02 925.952 3350
-1611.01 925.952 3350
-1577.64 911.302 3297
-1569.75 911.302 3297
-1385.98 914.896 3310
-1378.06 914.896 3310
-1370.15 914.896 3310
-1362.23 914.896 3310
-1354.32 914.896 3310
-1335.83 907.709 3284
-1327.97 907.709 3284
-1325.35 911.302 3297
-1317.46 911.302 3297
-1309.58 911.302 3297
-1301.69 911.302 3297
-1296.16 912.961 3303
-1291 914.896 3310
-1283.08 914.896 3310
-1275.17 914.896 3310
-1269.93 916.831 3317
-1264.28 918.489 3323
-1256.34 918.489 3323
-1248.39 918.489 3323
-1240.44 918.489 3323
-1255.12 935.35 3384
-1247.03 935.35 3384
-1238.94 935.35 3384
-1241.03 943.089 3412
-1232.87 943.089 3412
-1224.71 943.089 3412
-1214.06 941.154 3405
-1205.91 941.154 3405
-1197.77 941.154 3405
-1189.63 941.154 3405
-1181.49 941.154 3405
-1168.52 937.284 3391
-1137.14 918.489 3323
-1131.57 920.424 3330
-1123.61 920.424 3330
-1115.65 920.424 3330
-1144.27 950.828 3440
-1147.94 960.779 3476
-1139.62 960.779 3476
-1135.87 964.648 3490
-1127.52 964.648 3490
-1119.18 964.648 3490
-1013.38 1008.87 3650
-1004.65 1008.87 3650
-995.922 1008.87 3650
-987.193 1008.87 3650
-970.155 1000.3 3619
-951.139 989.525 3580
-942.578 989.525 3580
-922.016 976.81 3534
-906.068 968.794 3505
-892.052 962.714 3483
-878.141 956.633 3461
-869.865 956.633 3461
-861.589 956.633 3461
-857.011 960.779 3476
-848.699 960.779 3476
-840.387 960.779 3476
-826.808 954.698 3454
-811.913 946.959 3426
-800.436 943.089 3412
-792.277 943.089 3412
-784.118 943.089 3412
-772.775 939.219 3398
-764.649 939.219 3398
-756.523 939.219 3398
-518.734 935.35 3384
-510.641 935.35 3384
-502.549 935.35 3384
-493.434 933.415 3377
-486.365 935.35 3384
-478.273 935.35 3384
-475.044 945.024 3419
-466.868 945.024 3419
-458.692 945.024 3419
-450.516 945.024 3419
-441.434 943.089 3412
-433.275 943.089 3412
-425.116 943.089 3412
-416.957 943.089 3412
-407.959 941.154 3405
-158.606 629.924 2279
-153.156 629.924 2279
-147.706 629.924 2279
-142.256 629.924 2279
-136.627 629.094 2276
-131.184 629.094 2276
-124.692 623.843 2257
-119.294 623.843 2257
-113.897 623.843 2257
-108.5 623.843 2257
-103.103 623.843 2257
-97.5759 623.014 2254
-91.9405 621.355 2248
-86.5649 621.355 2248
-80.9725 619.697 2242
-75.6112 619.697 2242
-70.2499 619.697 2242
-64.8886 619.697 2242
-59.5273 619.697 2242
-54.0936 618.868 2239
-48.3476 613.892 2221
-43.0365 613.892 2221
-37.8783 616.38 2230
-32.5457 616.38 2230
-27.3229 618.868 2239
-22.0865 622.184 2251
-16.726 623.014 2254
-11.336 623.014 2254
-5.98027 626.607 2267
-0.560662 628.265 2273
4.89407 630.753 2282
10.351 630.753 2282
15.8495 632.411 2288
21.414 635.175 2298
27.0146 637.663 2307
32.5314 637.663 2307
38.1141 638.769 2311
43.867 642.085 2323
49.422 642.085 2323
54.977 642.085 2323
60.6362 643.191 2327
66.4853 645.955 2337
72.0737 645.955 2337
77.6622 645.955 2337
83.2507 645.955 2337
88.459 643.191 2327
94.0236 643.191 2327
99.417 642.085 2323
104.836 641.256 2320
110.384 641.256 2320
116.082 642.085 2323
121.846 643.191 2327
127.411 643.191 2327
133.147 644.02 2330
138.897 644.849 2333
144.476 644.849 2333
150.055 644.849 2333
156.501 648.443 2346
162.111 648.443 2346
167.721 648.443 2346
173.331 648.443 2346
178.941 648.443 2346
481.004 870.118 3148
488.532 870.118 3148
496.06 870.118 3148
503.588 870.118 3148
510.141 868.46 3142
517.655 868.46 3142
524.165 866.802 3136
530.647 865.143 3130
537.1 863.485 3124
544.571 863.485 3124
546.917 855.469 3095
554.318 855.469 3095
561.719 855.469 3095
569.12 855.469 3095
576.521 855.469 3095
583.922 855.469 3095
596.864 863.485 3124
614.781 878.41 3178
622.38 878.41 3178
629.98 878.41 3178
637.579 878.41 3178
642.743 875.094 3166
650.314 875.094 3166
657.884 875.094 3166
666.716 876.752 3172
674.302 876.752 3172
681.887 876.752 3172
688.168 875.094 3166
695.739 875.094 3166
705.975 878.41 3178
713.575 878.41 3178
721.174 878.41 3178
728.774 878.41 3178
736.374 878.41 3178
743.973 878.41 3178
751.573 878.41 3178
763.472 883.386 3196
772.562 885.044 3202
780.219 885.044 3202
787.876 885.044 3202
794.043 883.386 3196
797.17 878.41 3178
809.328 883.386 3196
816.97 883.386 3196
824.613 883.386 3196
832.256 883.386 3196
844.629 888.361 3214
855.762 891.954 3227
863.478 891.954 3227
871.195 891.954 3227
878.912 891.954 3227
888.277 893.613 3233
896.008 893.613 3233
905.416 895.271 3239
918.518 900.523 3258
930.005 904.116 3271
937.827 904.116 3271
945.649 904.116 3271
953.471 904.116 3271
963.351 906.051 3278
971.189 906.051 3278
986.495 912.961 3303
1002.52 920.424 3330
1012.61 922.359 3337
1020.59 922.359 3337
1038.74 931.48 3370
1046.8 931.48 3370
1054.86 931.48 3370
1062.92 931.48 3370
1070.97 931.48 3370
1076.79 929.545 3363
1087.09 931.48 3370
1101.98 937.284 3391
1112.38 939.219 3398
1120.5 939.219 3398
1130.95 941.154 3405
1139.09 941.154 3405
1147.24 941.154 3405
1155.38 941.154 3405
1163.52 941.154 3405
1174.07 943.089 3412
1182.23 943.089 3412
1190.39 943.089 3412
1203.47 946.959 3426
1219.09 952.763 3447
1227.33 952.763 3447
1238.08 954.698 3454
1248.87 956.633 3461
1257.14 956.633 3461
1265.42 956.633 3461
1276.27 958.568 3468
1284.57 958.568 3468
1298.45 962.714 3483
1306.78 962.714 3483
1320.39 966.583 3497
1334.46 970.729 3512
1342.85 970.729 3512
1351.25 970.729 3512
1356.94 968.794 3505
1356.75 962.714 3483
1353.72 954.698 3454
1361.98 954.698 3454
1367.46 952.763 3447
1375.7 952.763 3447
1378.32 948.893 3433
1386.53 948.893 3433
1374.83 935.35 3384
1377.2 931.48 3370
1377.04 925.952 3350
1385.05 925.952 3350
1387.66 922.359 3337
1395.64 922.359 3337
1403.62 922.359 3337
1411.6 922.359 3337
1419.58 922.359 3337
1424.56 920.424 3330
1429.51 918.489 3323
1431.84 914.896 3310
1439.75 914.896 3310
1447.67 914.896 3310
1449.87 911.302 3297
1452 907.709 3284
1459.86 907.709 3284
1467.71 907.709 3284
1472.87 906.051 3278
1477.54 904.116 3271
1485.36 904.116 3271
1487.25 900.523 3258
1495.04 900.523 3258
1502.83 900.523 3258
1510.62 900.523 3258
1515.62 898.864 3252
1523.4 898.864 3252
1531.17 898.864 3252
1532.8 895.271 3239
1540.54 895.271 3239
1545.42 893.613 3233
1547.39 890.296 3221
1548.81 886.703 3208
1556.48 886.703 3208
1561.23 885.044 3202
1563.01 881.727 3190
1570.63 881.727 3190
1578.26 881.727 3190
1576.94 876.752 3172
1575.54 871.777 3154
1580.07 870.118 3148
1587.59 870.118 3148
1579.92 861.826 3118
1578.72 857.127 3101
1580 853.811 3089
1569.91 844.413 3055
1577.22 844.413 3055
1559.11 830.869 3006
1543.89 818.984 2963
1539.99 813.179 2942
1547.02 813.179 2942
1543.49 807.651 2922
1541.99 803.229 2906
1535.61 796.319 2881
1534.47 792.173 2866
1541.32 792.173 2866
1537.91 786.921 2847
1544.72 786.921 2847
1551.53 786.921 2847
1558.34 786.921 2847
1565.15 786.921 2847
1569.19 785.539 2842
1575.99 785.539 2842
1582.79 785.539 2842
1589.58 785.539 2842
1602 788.303 2852
1608.82 788.303 2852
1626.4 793.555 2871
1633.26 793.555 2871
1640.13 793.555 2871
1647 793.555 2871
1985.85 937.284 3391
1993.96 937.284 3391
2010.33 941.154 3405
2051.67 956.633 3461
2081.37 966.583 3497
2089.73 966.583 3497
2098.1 966.583 3497
2106.46 966.583 3497
2114.82 966.583 3497
2118.93 964.648 3490
2127.28 964.648 3490
2135.62 964.648 3490
2143.97 964.648 3490
2152.32 964.648 3490
2147.04 958.568 3468
2155.33 958.568 3468
2163.63 958.568 3468
2171.92 958.568 3468
2149.41 945.024 3419
2126.66 931.48 3370
2126.49 927.887 3357
2134.51 927.887 3357
2117.01 916.831 3317
2091.63 902.458 3265
2099.44 902.458 3265
2107.25 902.458 3265
2115.06 902.458 3265
2169.71 902.458 3265
2190.19 907.709 3284
2198.04 907.709 3284
2205.89 907.709 3284
2222.51 911.302 3297
2234.45 912.961 3303
2242.35 912.961 3303
2250.25 912.961 3303
2258.15 912.961 3303
2266.05 912.961 3303
2269.82 911.302 3297
2272.86 909.368 3290
2267.56 904.116 3271
2262.16 898.864 3252
2269.94 898.864 3252
2277.72 898.864 3252
2276.36 895.271 3239
2275.64 891.954 3227
2283.36 891.954 3227
2277.58 886.703 3208
2285.26 886.703 3208
2292.93 886.703 3208
2300.6 886.703 3208
2303.95 885.044 3202
2307.28 883.386 3196
2301.88 878.41 3178
2292.04 871.777 3154
2299.58 871.777 3154
2307.13 871.777 3154
2314.67 871.777 3154
2322.21 871.777 3154
2334.18 873.435 3160
2341.74 873.435 3160
2349.3 873.435 3160
2356.85 873.435 3160
2364.41 873.435 3160
2371.97 873.435 3160
2379.52 873.435 3160
-2215.23 869.295 3118
-2220.51 874.314 3136
-2213.02 874.314 3136
-2209.74 875.987 3142
-2219.04 882.678 3166
-2211.47 882.678 3166
-2203.9 882.678 3166
-2196.33 882.678 3166
-2188.76 882.678 3166
-2181.19 882.678 3166
-2161.26 877.659 3148
-2153.73 877.659 3148
-2154.39 881.005 3160
-2146.83 881.005 3160
-2139.27 881.005 3160
-2147.91 887.696 3184
-2140.29 887.696 3184
-2132.68 887.696 3184
-2125.07 887.696 3184
-2117.45 887.696 3184
-2150.92 904.982 3246
-2143.16 904.982 3246
-2135.4 904.982 3246
-2093.91 920.873 3303
-2086.01 920.873 3303
-2078.11 920.873 3303
-2042.94 922.825 3310
-2063.92 935.928 3357
-2055.89 935.928 3357
-2047.87 935.928 3357
-2043.49 937.601 3363
-2035.44 937.601 3363
-2027.4 937.601 3363
-2015.76 935.928 3357
-2007.73 935.928 3357
-1999.7 935.928 3357
-1991.67 935.928 3357
-1983.65 935.928 3357
-1967.38 932.025 3343
-1959.39 932.025 3343
-1951.39 932.025 3343
-1931.77 926.449 3323
-1890.25 910.279 3265
-1900.89 919.201 3297
-1900.47 922.825 3310
-1892.55 922.825 3310
-1884.64 922.825 3310
-1876.72 922.825 3310
-1872.76 924.776 3317
-1864.83 924.776 3317
-1898.32 945.408 3391
-1890.21 945.408 3391
-1882.1 945.408 3391
-1873.99 945.408 3391
-1858.18 941.504 3377
-1857.78 945.408 3391
-1864.94 953.214 3419
-1856.76 953.214 3419
-1848.59 953.214 3419
-1836.65 951.262 3412
-1828.49 951.262 3412
-1820.33 951.262 3412
-1812.17 951.262 3412
-1804.01 951.262 3412
-1795.85 951.262 3412
-1787.69 951.262 3412
-1761.28 941.504 3377
-1739.18 933.977 3350
-1731.17 933.977 3350
-1723.16 933.977 3350
-1711.57 932.025 3343
-1690.32 924.776 3317
-1682.39 924.776 3317
-1687.59 932.025 3343
-1679.59 932.025 3343
-1675.1 933.977 3350
-1667.09 933.977 3350
-1659.08 933.977 3350
-1615.58 913.903 3278
-1607.74 913.903 3278
-1602.83 915.576 3284
-1601.29 919.201 3297
-1593.41 919.201 3297
-1585.52 919.201 3297
-1577.64 919.201 3297
-1569.75 919.201 3297
-1367.24 915.576 3284
-1359.39 915.576 3284
-1351.53 915.576 3284
-1325.35 919.201 3297
-1317.46 919.201 3297
-1309.58 919.201 3297
-1298.93 917.249 3290
-1291.06 917.249 3290
-1288.27 920.873 3303
-1280.37 920.873 3303
-1272.47 920.873 3303
-1264.57 920.873 3303
-1256.67 920.873 3303
-1248.77 920.873 3303
-1240.88 920.873 3303
-1240.44 926.449 3323
-1255.12 943.456 3384
-1247.03 943.456 3384
-1238.94 943.456 3384
-1241.03 951.262 3412
-1232.87 951.262 3412
-1224.71 951.262 3412
-1214.06 949.311 3405
-1205.91 949.311 3405
-1197.77 949.311 3405
-1189.63 949.311 3405
-1179.06 947.359 3398
-1133.72 917.249 3290
-1123.79 915.576 3284
-1117.98 917.249 3290
-1110.11 917.249 3290
-1115.65 928.401 3330
-1112.01 932.025 3343
-1136.05 959.069 3440
-1127.82 959.069 3440
-1119.6 959.069 3440
-1011.16 1015.39 3642
-1002.45 1015.39 3642
-993.739 1015.39 3642
-985.03 1015.39 3642
-965.866 1004.51 3603
-945.028 991.688 3557
-936.523 991.688 3557
-918.363 981.373 3520
-900.381 971.057 3483
-888.211 966.875 3468
-874.589 961.02 3447
-866.347 961.02 3447
-858.104 961.02 3447
-853.313 964.924 3461
-845.036 964.924 3461
-836.76 964.924 3461
-826.808 962.972 3454
-810.254 953.214 3419
-795.509 945.408 3391
-787.401 945.408 3391
-779.292 945.408 3391
-767.999 941.504 3377
-750.922 930.352 3337
-742.943 930.352 3337
-494.53 928.401 3330
-486.567 928.401 3330
-485.359 941.504 3377
-477.283 941.504 3377
-474.071 951.262 3412
-465.912 951.262 3412
-457.753 951.262 3412
-449.594 951.262 3412
-441.434 951.262 3412
-432.386 949.311 3405
-424.244 949.311 3405
-416.102 949.311 3405
-403.766 939.553 3370
-153.156 635.383 2279
-147.706 635.383 2279
-142.256 635.383 2279
-136.627 634.547 2276
-131.184 634.547 2276
-124.692 629.249 2257
-119.294 629.249 2257
-113.897 629.249 2257
-108.5 629.249 2257
-103.103 629.249 2257
-97.5759 628.413 2254
-91.9405 626.74 2248
-86.5649 626.74 2248
-80.9725 625.068 2242
-75.6112 625.068 2242
-70.2499 625.068 2242
-64.8886 625.068 2242
-59.5273 625.068 2242
-54.0936 624.231 2239
-48.3476 619.213 2221
-42.9202 617.54 2215
-37.7764 620.049 2224
-32.4581 620.049 2224
-27.2497 622.558 2233
-22.0277 625.904 2245
-16.726 628.413 2254
-11.336 628.413 2254
-5.96444 630.365 2261
-0.559182 632.037 2267
4.88764 635.383 2279
10.3374 635.383 2279
15.808 636.219 2282
21.3861 639.844 2295
27.0146 643.189 2307
32.5314 643.189 2307
38.1141 644.305 2311
43.867 647.65 2323
49.422 647.65 2323
54.977 647.65 2323
60.6362 648.765 2327
66.4853 651.553 2337
72.0737 651.553 2337
77.6622 651.553 2337
83.2507 651.553 2337
88.459 648.765 2327
94.0236 648.765 2327
99.417 647.65 2323
104.836 646.814 2320
110.384 646.814 2320
116.082 647.65 2323
121.846 648.765 2327
127.411 648.765 2327
133.147 649.602 2330
138.897 650.438 2333
144.476 650.438 2333
150.055 650.438 2333
156.501 654.063 2346
162.111 654.063 2346
167.721 654.063 2346
173.331 654.063 2346
481.004 877.659 3148
488.532 877.659 3148
496.06 877.659 3148
503.588 877.659 3148
510.141 875.987 3142
517.655 875.987 3142
524.165 874.314 3136
530.647 872.641 3130
537.1 870.968 3124
544.571 870.968 3124
546.917 862.883 3095
554.318 862.883 3095
561.719 862.883 3095
569.12 862.883 3095
576.521 862.883 3095
583.922 862.883 3095
596.864 870.968 3124
614.781 886.023 3178
622.38 886.023 3178
629.98 886.023 3178
637.579 886.023 3178
642.743 882.678 3166
650.314 882.678 3166
657.884 882.678 3166
666.716 884.351 3172
674.302 884.351 3172
681.887 884.351 3172
688.168 882.678 3166
695.739 882.678 3166
705.975 886.023 3178
713.575 886.023 3178
721.174 886.023 3178
728.774 886.023 3178
736.374 886.023 3178
743.973 886.023 3178
751.573 886.023 3178
763.472 891.042 3196
772.562 892.715 3202
780.219 892.715 3202
787.876 892.715 3202
794.043 891.042 3196
797.17 886.023 3178
809.328 891.042 3196
816.97 891.042 3196
824.613 891.042 3196
832.256 891.042 3196
844.629 896.06 3214
855.762 899.685 3227
863.478 899.685 3227
871.195 899.685 3227
878.912 899.685 3227
888.277 901.357 3233
896.008 901.357 3233
905.416 903.03 3239
918.518 908.327 3258
930.005 911.952 3271
937.827 911.952 3271
945.649 911.952 3271
953.471 911.952 3271
963.351 913.903 3278
971.189 913.903 3278
986.495 920.873 3303
1002.52 928.401 3330
1012.61 930.352 3337
1020.59 930.352 3337
1038.74 939.553 3370
1046.8 939.553 3370
1054.86 939.553 3370
1062.92 939.553 3370
1070.97 939.553 3370
1076.79 937.601 3363
1089.35 941.504 3377
1101.98 945.408 3391
1112.38 947.359 3398
1120.5 947.359 3398
1130.95 949.311 3405
1139.09 949.311 3405
1147.24 949.311 3405
1155.38 949.311 3405
1163.52 949.311 3405
1174.07 951.262 3412
1182.23 951.262 3412
1190.39 951.262 3412
1203.47 955.166 3426
1219.09 961.02 3447
1227.33 961.02 3447
1238.08 962.972 3454
1248.87 964.924 3461
1257.14 964.924 3461
1265.42 964.924 3461
1276.27 966.875 3468
1284.57 966.875 3468
1298.45 971.057 3483
1306.78 971.057 3483
1320.39 974.96 3497
1334.46 979.142 3512
1342.85 979.142 3512
1351.25 979.142 3512
1356.94 977.191 3505
1356.75 971.057 3483
1353.72 962.972 3454
1361.98 962.972 3454
1367.46 961.02 3447
1375.7 961.02 3447
1378.32 957.117 3433
1386.53 957.117 3433
1377.68 945.408 3391
1377.2 939.553 3370
1382.39 937.601 3363
1390.43 937.601 3363
1387.66 930.352 3337
1395.64 930.352 3337
1403.62 930.352 3337
1411.6 930.352 3337
1419.58 930.352 3337
1424.56 928.401 3330
1429.51 926.449 3323
1431.84 922.825 3310
1439.75 922.825 3310
1447.67 922.825 3310
1449.87 919.201 3297
1452 915.576 3284
1459.86 915.576 3284
1467.71 915.576 3284
1472.87 913.903 3278
1477.54 911.952 3271
1485.36 911.952 3271
1487.25 908.327 3258
1495.04 908.327 3258
1502.83 908.327 3258
1510.62 908.327 3258
1515.62 906.655 3252
1523.4 906.655 3252
1531.17 906.655 3252
1532.8 903.03 3239
1540.54 903.03 3239
1545.42 901.357 3233
1547.39 898.012 3221
1551.71 896.06 3214
1559.39 896.06 3214
1564.15 894.387 3208
1565.95 891.042 3196
1570.63 889.369 3190
1578.26 889.369 3190
1579.92 886.023 3178
1575.54 879.332 3154
1580.07 877.659 3148
1587.59 877.659 3148
1579.92 869.295 3118
1578.72 864.556 3101
1580 861.21 3089
1569.91 851.731 3055
1577.22 851.731 3055
1559.11 838.07 3006
1554.84 831.936 2984
1545.74 823.294 2953
1552.81 823.294 2953
1548.77 817.439 2932
1541.99 810.19 2906
1540.94 806.008 2891
1534.47 799.038 2866
1541.32 799.038 2866
1548.18 799.038 2866
1550.15 796.529 2857
1556.98 796.529 2857
1563.81 796.529 2857
1570.64 796.529 2857
1577.48 796.529 2857
1581.54 795.135 2852
1596.15 799.038 2866
1603.01 799.038 2866
1615.48 801.826 2876
1625.17 803.22 2881
1640.56 807.402 2896
1659.43 813.257 2917
1666.41 813.257 2917
1673.38 813.257 2917
1985.85 945.408 3391
1993.96 945.408 3391
2010.33 949.311 3405
2051.67 964.924 3461
2081.37 974.96 3497
2089.73 974.96 3497
2098.1 974.96 3497
2106.46 974.96 3497
2114.82 974.96 3497
2118.93 973.009 3490
2127.28 973.009 3490
2135.62 973.009 3490
2143.97 973.009 3490
2152.32 973.009 3490
2147.04 966.875 3468
2155.33 966.875 3468
2163.63 966.875 3468
2171.92 966.875 3468
2149.41 953.214 3419
2126.66 939.553 3370
2126.49 935.928 3357
2134.51 935.928 3357
2117.01 924.776 3317
2091.63 910.279 3265
2099.44 910.279 3265
2107.25 910.279 3265
2161.07 906.655 3252
2190.19 915.576 3284
2198.04 915.576 3284
2209.92 917.249 3290
2217.79 917.249 3290
2225.66 917.249 3290
2233.53 917.249 3290
2237.31 915.576 3284
2245.16 915.576 3284
2253.01 915.576 3284
2256.73 913.903 3278
2259.74 911.952 3271
2263.4 910.279 3265
2262.16 906.655 3252
2269.94 906.655 3252
2268.61 903.03 3239
2263.71 898.012 3221
2266.47 896.06 3214
2274.16 896.06 3214
2277.58 894.387 3208
2276.71 891.042 3196
2284.35 891.042 3196
2291.99 891.042 3196
2299.64 891.042 3196
2294.28 886.023 3178
2288.85 881.005 3160
2283.32 875.987 3142
2290.83 875.987 3142
2293.96 874.314 3136
2301.46 874.314 3136
2308.96 874.314 3136
2316.46 874.314 3136
2323.96 874.314 3136
2335.92 875.987 3142
2356.85 881.005 3160
2364.41 881.005 3160
2371.97 881.005 3160
-2215.23 876.765 3118
-2220.51 881.826 3136
-2213.02 881.826 3136
-2209.74 883.513 3142
-2219.04 890.262 3166
-2211.47 890.262 3166
-2203.9 890.262 3166
-2196.33 890.262 3166
-2188.76 890.262 3166
-2181.19 890.262 3166
-2161.26 885.201 3148
-2153.73 885.201 3148
-2154.39 888.575 3160
-2146.83 888.575 3160
-2139.27 888.575 3160
-2147.91 895.323 3184
-2140.29 895.323 3184
-2132.68 895.323 3184
-2125.07 895.323 3184
-2117.45 895.323 3184
-2150.92 912.758 3246
-2143.16 912.758 3246
-2135.4 912.758 3246
-2093.91 928.786 3303
-2086.01 928.786 3303
-2078.11 928.786 3303
-2042.94 930.754 3310
-2063.92 943.97 3357
-2055.89 943.97 3357
-2047.87 943.97 3357
-2043.49 945.657 3363
-2035.44 945.657 3363
-2027.4 945.657 3363
-2015.76 943.97 3357
-2007.73 943.97 3357
-1999.7 943.97 3357
-1991.67 943.97 3357
-1983.65 943.97 3357
-1967.38 940.033 3343
-1959.39 940.033 3343
-1951.39 940.033 3343
-1931.77 934.41 3323
-1890.25 918.1 3265
-1900.89 927.098 3297
-1900.47 930.754 3310
-1892.55 930.754 3310
-1884.64 930.754 3310
-1876.72 930.754 3310
-1872.76 932.722 3317
-1864.83 932.722 3317
-1898.32 953.531 3391
-1890.21 953.531 3391
-1882.1 953.531 3391
-1873.99 953.531 3391
-1858.18 949.594 3377
-1857.78 953.531 3391
-1868.76 963.373 3426
-1860.57 963.373 3426
-1852.37 963.373 3426
-1844.18 963.373 3426
-1835.99 963.373 3426
-1820.33 959.436 3412
-1812.17 959.436 3412
-1804.01 959.436 3412
-1795.85 959.436 3412
-1787.69 959.436 3412
-1764.93 951.562 3384
-1749.57 947.626 3370
-1731.17 942.002 3350
-1723.16 942.002 3350
-1711.57 940.033 3343
-1673.51 923.443 3284
-1621.3 916.132 3258
-1613.51 916.132 3258
-1605.72 916.132 3258
-1601.36 918.1 3265
-1593.56 918.1 3265
-1585.75 918.1 3265
-1562.48 909.102 3233
-1288.71 923.443 3284
-1288.27 928.786 3303
-1280.37 928.786 3303
-1272.47 928.786 3303
-1264.57 928.786 3303
-1256.67 928.786 3303
-1248.77 928.786 3303
-1240.88 928.786 3303
-1235.59 930.754 3310
-1227.67 930.754 3310
-1241.87 947.626 3370
-1233.81 947.626 3370
-1228.3 949.594 3377
-1220.22 949.594 3377
-1219.69 955.499 3398
-1211.56 955.499 3398
-1203.43 955.499 3398
-1195.31 955.499 3398
-1187.18 955.499 3398
-1126.32 912.758 3246
-1116.14 910.789 3239
-1110.79 912.758 3246
-1107.11 916.132 3258
-1099.32 916.132 3258
-1095.88 919.787 3271
-1103.36 932.722 3317
-1099.72 936.378 3330
-1091.76 936.378 3330
-1083.79 936.378 3330
-1011.16 1024.11 3642
-1002.45 1024.11 3642
-993.739 1024.11 3642
-983.136 1022.14 3635
-953.534 1000.21 3557
-938.918 993.742 3534
-930.467 993.742 3534
-922.016 993.742 3534
-898.572 977.432 3476
-882.832 969.278 3447
-871.037 965.341 3433
-864.587 967.309 3440
-856.361 967.309 3440
-849.861 969.278 3447
-841.618 969.278 3447
-833.375 969.278 3447
-825.132 969.278 3447
-810.254 961.404 3419
-785.891 942.002 3350
-777.88 942.002 3350
-759.068 928.786 3303
-749.805 927.098 3297
-482.946 914.445 3252
-486.567 936.378 3330
-485.359 949.594 3377
-477.283 949.594 3377
-469.208 949.594 3377
-464 955.499 3398
-457.753 959.436 3412
-449.594 959.436 3412
-441.434 959.436 3412
-429.72 951.562 3384
-421.628 951.562 3384
-412.68 949.594 3377
-403.766 947.626 3370
-152.954 639.999 2276
-147.512 639.999 2276
