-2298.03 -171.269 3468
-2289.73 -171.269 3468
-2281.44 -171.269 3468
-2278.39 -171.665 3476
-2279.22 -172.356 3490
-2299.51 -174.529 3534
-2291.06 -174.529 3534
-2287.77 -174.924 3542
-2288.96 -175.665 3557
-2290.07 -176.406 3572
-2281.52 -176.406 3572
-2278.07 -176.801 3580
-2289.16 -178.332 3611
-2285.58 -178.727 3619
-2276.93 -178.727 3619
-2268.27 -178.727 3619
-2249.63 -177.937 3603
-2241.01 -177.937 3603
-2232.4 -177.937 3603
-2218.84 -177.541 3595
-2205.94 -177.196 3588
-2226.15 -179.517 3635
-2217.46 -179.517 3635
-2208.76 -179.517 3635
-2200.07 -179.517 3635
-2191.38 -179.517 3635
-2182.69 -179.517 3635
-2159.64 -178.332 3611
-2137.3 -177.196 3588
-2128.72 -177.196 3588
-2120.14 -177.196 3588
-2125.1 -178.332 3611
-2116.46 -178.332 3611
-2107.83 -178.332 3611
-2099.19 -178.332 3611
-2090.56 -178.332 3611
-2059.44 -176.406 3572
-2050.9 -176.406 3572
-2038.35 -176.06 3565
-2008.19 -174.183 3527
-2051.92 -178.727 3619
-2083.92 -182.282 3691
-2075.09 -182.282 3691
-2066.26 -182.282 3691
-2057.44 -182.282 3691
-2048.61 -182.282 3691
-2039.79 -182.282 3691
-2030.96 -182.282 3691
-2030.9 -183.073 3707
-2031.31 -183.912 3724
-2022.4 -183.912 3724
-2022.15 -184.702 3740
-2013.2 -184.702 3740
-2004.26 -184.702 3740
-1995.32 -184.702 3740
-1986.37 -184.702 3740
-1973.2 -184.307 3732
-1964.28 -184.307 3732
-1946.97 -183.517 3716
-1938.08 -183.517 3716
-1929.2 -183.517 3716
-1920.31 -183.517 3716
-1911.42 -183.517 3716
-1902.54 -183.517 3716
-1872.76 -181.492 3675
-1863.97 -181.492 3675
-1846.6 -180.653 3658
-1833.83 -180.258 3650
-1813.61 -179.122 3627
-1804.93 -179.122 3627
-1792.3 -178.727 3619
-1779.7 -178.332 3611
-1786.27 -179.863 3642
-1777.56 -179.863 3642
-1768.85 -179.863 3642
-1760.14 -179.863 3642
-1744.22 -179.122 3627
-1731.72 -178.727 3619
-1723.06 -178.727 3619
-1714.41 -178.727 3619
-1705.76 -178.727 3619
-1693.35 -178.332 3611
-1684.71 -178.332 3611
-1672.37 -177.937 3603
-1663.75 -177.937 3603
-1655.13 -177.937 3603
-1650.17 -178.332 3611
-1641.54 -178.332 3611
-1640.14 -179.122 3627
-1638.21 -179.863 3642
-1633.08 -180.258 3650
-1624.36 -180.258 3650
-1615.63 -180.258 3650
-1606.9 -180.258 3650
-1598.17 -180.258 3650
-1585.96 -179.863 3642
-1560.36 -177.937 3603
-1538.39 -176.406 3572
-1529.85 -176.406 3572
-1521.31 -176.406 3572
-1512.77 -176.406 3572
-1469.69 -172.356 3490
-1461.35 -172.356 3490
-1420.53 -168.504 3412
-1392.09 -166.084 3363
-1328.07 -159.368 3227
-1285.58 -155.17 3142
-1278.07 -155.17 3142
-1263.27 -154.281 3124
-1239.72 -152.305 3084
-1211.97 -149.787 3033
-1204.72 -149.787 3033
-1178.12 -147.367 2984
-1162.74 -146.33 2963
-1149.42 -145.54 2947
-1136.55 -144.799 2932
-1131.47 -145.046 2937
-1124.45 -145.046 2937
-1117.42 -145.046 2937
-1110.4 -145.046 2937
-1103.38 -145.046 2937
-1096.35 -145.046 2937
-1085.62 -144.552 2927
-1074.94 -144.058 2917
-1067.96 -144.058 2917
-1060.98 -144.058 2917
-1051.84 -143.762 2911
-1044.88 -143.762 2911
-1037.92 -143.762 2911
-1027.42 -143.268 2901
-1020.48 -143.268 2901
-1011.8 -143.021 2896
-1004.87 -143.021 2896
-997.945 -143.021 2896
-989.309 -142.774 2891
-978.997 -142.28 2881
-972.108 -142.28 2881
-965.219 -142.28 2881
-956.666 -142.033 2876
-948.138 -141.786 2871
-941.272 -141.786 2871
-932.779 -141.539 2866
-925.926 -141.539 2866
-919.073 -141.539 2866
-912.219 -141.539 2866
-905.366 -141.539 2866
-900.08 -141.786 2871
-893.214 -141.786 2871
-886.349 -141.786 2871
-879.483 -141.786 2871
-872.618 -141.786 2871
-865.753 -141.786 2871
-858.887 -141.786 2871
-852.022 -141.786 2871
-845.156 -141.786 2871
-838.291 -141.786 2871
-831.425 -141.786 2871
-824.56 -141.786 2871
-817.694 -141.786 2871
-810.829 -141.786 2871
-803.964 -141.786 2871
-797.098 -141.786 2871
-790.233 -141.786 2871
-783.367 -141.786 2871
-775.15 -141.539 2866
-768.296 -141.539 2866
-761.443 -141.539 2866
-753.536 -141.342 2862
-746.692 -141.342 2862
-739.848 -141.342 2862
-733.004 -141.342 2862
-726.16 -141.342 2862
-719.316 -141.342 2862
-712.473 -141.342 2862
-704.396 -141.095 2857
-697.564 -141.095 2857
-690.732 -141.095 2857
-683.9 -141.095 2857
-677.068 -141.095 2857
-669.063 -140.848 2852
-661.082 -140.601 2847
-654.274 -140.601 2847
-646.329 -140.354 2842
-638.408 -140.107 2837
-632.737 -140.354 2842
-628.143 -140.848 2852
-623.502 -141.342 2862
-616.658 -141.342 2862
-619.189 -143.515 2906
-620.878 -145.54 2947
-613.831 -145.54 2947
-629.021 -150.873 3055
-627.617 -152.305 3084
-630.7 -154.873 3136
-623.201 -154.873 3136
-631.016 -158.726 3214
-635.743 -161.886 3278
-635.374 -163.812 3317
-627.442 -163.812 3317
-621.938 -164.454 3330
-617.663 -165.442 3350
-609.652 -165.442 3350
-601.641 -165.442 3350
-593.63 -165.442 3350
-585.62 -165.442 3350
-577.609 -165.442 3350
-569.598 -165.442 3350
-561.587 -165.442 3350
-555.724 -166.084 3363
-548.822 -166.43 3370
-540.764 -166.43 3370
-532.705 -166.43 3370
-525.736 -166.775 3377
-518.734 -167.121 3384
-510.641 -167.121 3384
-507.747 -168.85 3419
-499.571 -168.85 3419
-491.395 -168.85 3419
-483.219 -168.85 3419
-474.071 -168.504 3412
-463.044 -167.467 3391
-454.935 -167.467 3391
-445.904 -167.121 3384
-437.812 -167.121 3384
-429.72 -167.121 3384
-421.628 -167.121 3384
-409.38 -165.442 3350
-247.651 -102.08 2067
-242.708 -102.08 2067
-237.765 -102.08 2067
-232.597 -101.981 2065
-227.659 -101.981 2065
-223.26 -102.228 2070
-219.154 -102.623 2078
-214.391 -102.722 2080
-209.417 -102.722 2080
-204.935 -102.969 2085
-200.524 -103.265 2091
-196.459 -103.759 2101
-191.435 -103.759 2101
-186.677 -103.907 2104
-181.819 -104.006 2106
-177.706 -104.549 2117
-172.643 -104.549 2117
-167.977 -104.796 2122
-163.133 -104.945 2125
-158.498 -105.241 2131
-153.402 -105.241 2131
-148.654 -105.488 2136
-144.285 -106.031 2147
-139.345 -106.179 2150
-134.204 -106.179 2150
-129.063 -106.179 2150
-123.922 -106.179 2150
-118.78 -106.179 2150
-113.48 -106.031 2147
-108.195 -105.883 2144
-103.068 -105.883 2144
-97.941 -105.883 2144
-92.5976 -105.636 2139
-87.3599 -105.488 2136
-82.252 -105.488 2136
-77.1442 -105.488 2136
-71.9352 -105.34 2133
-66.7719 -105.241 2131
-61.5892 -105.093 2128
-56.5005 -105.093 2128
-51.3393 -104.945 2125
-46.1925 -104.796 2122
-41.1182 -104.796 2122
-36.0438 -104.796 2122
-30.9403 -104.698 2120
-25.8707 -104.698 2120
-20.7717 -104.549 2117
-15.7093 -104.549 2117
-10.647 -104.549 2117
-5.58457 -104.549 2117
-0.522182 -104.549 2117
4.54021 -104.549 2117
9.6026 -104.549 2117
14.665 -104.549 2117
19.7274 -104.549 2117
24.7546 -104.401 2114
29.8098 -104.401 2114
34.8651 -104.401 2114
39.9203 -104.401 2114
44.9755 -104.401 2114
50.0307 -104.401 2114
55.0859 -104.401 2114
60.1411 -104.401 2114
65.1964 -104.401 2114
70.2516 -104.401 2114
75.3068 -104.401 2114
80.362 -104.401 2114
85.5384 -104.549 2117
90.6008 -104.549 2117
95.6632 -104.549 2117
100.726 -104.549 2117
105.938 -104.698 2120
111.112 -104.796 2122
116.351 -104.945 2125
121.432 -104.945 2125
126.514 -104.945 2125
131.781 -105.093 2128
137.191 -105.34 2133
142.292 -105.34 2133
147.393 -105.34 2133
152.708 -105.488 2136
158.037 -105.636 2139
163.152 -105.636 2139
168.661 -105.883 2144
173.788 -105.883 2144
179.165 -106.031 2147
184.299 -106.031 2147
189.698 -106.179 2150
195.292 -106.426 2155
201.004 -106.722 2161
206.171 -106.722 2161
211.926 -107.019 2167
217.308 -107.117 2169
222.802 -107.266 2172
227.996 -107.266 2172
234.479 -107.858 2184
240.908 -108.402 2195
247.503 -108.994 2207
252.781 -108.994 2207
259.345 -109.537 2218
267.154 -110.574 2239
275.186 -111.661 2261
280.593 -111.661 2261
287.138 -112.105 2270
294.499 -112.846 2285
301.276 -113.34 2295
306.764 -113.34 2295
313.477 -113.785 2304
319.402 -113.933 2307
325.904 -114.278 2314
331.438 -114.278 2314
337.845 -114.575 2320
343.393 -114.575 2320
348.941 -114.575 2320
354.488 -114.575 2320
360.036 -114.575 2320
365.111 -114.427 2317
370.652 -114.427 2317
375.706 -114.278 2314
478.368 -141.342 2862
485.212 -141.342 2862
492.743 -141.539 2866
500.468 -141.786 2871
508.217 -142.033 2876
515.095 -142.033 2876
521.972 -142.033 2876
529.769 -142.28 2881
536.658 -142.28 2881
543.548 -142.28 2881
550.437 -142.28 2881
555.392 -141.786 2871
562.257 -141.786 2871
569.123 -141.786 2871
574.985 -141.539 2866
581.026 -141.342 2862
587.87 -141.342 2862
594.714 -141.342 2862
601.558 -141.342 2862
609.252 -141.539 2866
616.106 -141.539 2866
622.959 -141.539 2866
629.813 -141.539 2866
636.666 -141.539 2866
642.622 -141.342 2862
649.465 -141.342 2862
656.309 -141.342 2862
663.153 -141.342 2862
669.997 -141.342 2862
676.841 -141.342 2862
682.491 -141.095 2857
689.323 -141.095 2857
696.154 -141.095 2857
702.986 -141.095 2857
709.818 -141.095 2857
716.65 -141.095 2857
723.482 -141.095 2857
730.314 -141.095 2857
737.146 -141.095 2857
742.676 -140.848 2852
749.496 -140.848 2852
756.316 -140.848 2852
764.474 -141.095 2857
771.306 -141.095 2857
778.138 -141.095 2857
784.97 -141.095 2857
791.802 -141.095 2857
797.236 -140.848 2852
804.056 -140.848 2852
810.876 -140.848 2852
817.696 -140.848 2852
823.071 -140.601 2847
829.879 -140.601 2847
836.687 -140.601 2847
844.976 -140.848 2852
851.796 -140.848 2852
858.616 -140.848 2852
865.436 -140.848 2852
872.256 -140.848 2852
877.535 -140.601 2847
884.343 -140.601 2847
889.586 -140.354 2842
896.382 -140.354 2842
901.589 -140.107 2837
906.772 -139.86 2832
913.544 -139.86 2832
920.317 -139.86 2832
927.089 -139.86 2832
933.861 -139.86 2832
939.305 -139.663 2828
946.067 -139.663 2828
952.83 -139.663 2828
956.199 -139.169 2818
959.862 -138.724 2809
1347.39 -190.727 3862
1356.62 -190.727 3862
1365.86 -190.727 3862
1371.89 -190.283 3853
1377.88 -189.838 3844
1387.07 -189.838 3844
1377.37 -187.27 3792
1373.64 -185.542 3757
1376.37 -184.702 3740
1379.39 -183.912 3724
1388.29 -183.912 3724
1397.2 -183.912 3724
1406.11 -183.912 3724
1415.01 -183.912 3724
1423.92 -183.912 3724
1420.12 -182.282 3691
1422.76 -181.492 3675
1418.69 -179.863 3642
1427.4 -179.863 3642
1433.35 -179.517 3635
1435.69 -178.727 3619
1431.97 -177.196 3588
1434.13 -176.406 3572
1442.67 -176.406 3572
1441.87 -175.27 3549
1444.23 -174.529 3534
1443.63 -173.442 3512
1452.03 -173.442 3512
1457.52 -173.097 3505
1459.63 -172.356 3490
1446.94 -169.887 3440
1455.17 -169.887 3440
1445.53 -167.812 3398
1453.65 -167.812 3398
1449.73 -166.43 3370
1454.76 -166.084 3363
1462.81 -166.084 3363
1470.85 -166.084 3363
1464.38 -164.454 3330
1469.25 -164.109 3323
1477.19 -164.109 3323
1473.52 -162.825 3297
1469.72 -161.54 3271
1477.54 -161.54 3271
1485.36 -161.54 3271
1493.19 -161.54 3271
1498.25 -161.244 3265
1506.06 -161.244 3265
1531.49 -163.121 3303
1558.03 -165.096 3343
1566.02 -165.096 3343
1580.61 -165.788 3357
1598.1 -166.775 3377
1619.5 -168.158 3405
1627.64 -168.158 3405
1659.32 -170.578 3454
1684.96 -172.356 3490
1703.98 -173.442 3512
1712.38 -173.442 3512
1724.7 -173.838 3520
1747.39 -175.27 3549
1759.84 -175.665 3557
1768.34 -175.665 3557
1776.85 -175.665 3557
1781.34 -175.27 3549
1789.83 -175.27 3549
1787.16 -174.183 3527
1465.09 -131.613 2665
1471.46 -131.613 2665
1511.66 -134.625 2726
1538.23 -136.403 2762
1544.84 -136.403 2762
1551.44 -136.403 2762
1560.87 -136.65 2767
1567.48 -136.65 2767
1574.1 -136.65 2767
1577.86 -136.403 2762
1584.47 -136.403 2762
1591.07 -136.403 2762
1600.57 -136.65 2767
1607.18 -136.65 2767
1613.8 -136.65 2767
1620.42 -136.65 2767
1627.03 -136.65 2767
1630.7 -136.403 2762
1634.34 -136.156 2757
1638.55 -135.959 2753
1639.76 -135.514 2744
1646.32 -135.514 2744
1652.88 -135.514 2744
1656.42 -135.267 2739
1660.54 -135.07 2735
1667.08 -135.07 2735
1670.56 -134.823 2730
1669.1 -134.181 2717
1670.05 -133.736 2708
1676.53 -133.736 2708
1680.51 -133.539 2704
1686.98 -133.539 2704
1693.45 -133.539 2704
1699.91 -133.539 2704
1706.38 -133.539 2704
1707.14 -133.094 2695
1713.59 -133.094 2695
1714.29 -132.65 2686
1720.71 -132.65 2686
1727.14 -132.65 2686
1725.17 -132.008 2673
1728.97 -131.81 2669
1735.35 -131.81 2669
1739.12 -131.613 2665
1745.5 -131.613 2665
1745.95 -131.168 2656
1752.3 -131.168 2656
1758.66 -131.168 2656
1762.35 -130.971 2652
1766.02 -130.773 2648
1772.35 -130.773 2648
1778.69 -130.773 2648
1785.02 -130.773 2648
1782.56 -130.131 2635
1788.86 -130.131 2635
1795.16 -130.131 2635
1801.46 -130.131 2635
1807.76 -130.131 2635
1808.55 -129.736 2627
1817.6 -129.934 2631
1823.89 -129.934 2631
1830.18 -129.934 2631
1836.47 -129.934 2631
1842.77 -129.934 2631
1840.62 -129.341 2619
1846.89 -129.341 2619
1853.15 -129.341 2619
1859.41 -129.341 2619
1865.68 -129.341 2619
1871.94 -129.341 2619
1872.46 -128.946 2611
1878.71 -128.946 2611
1884.95 -128.946 2611
1888.3 -128.748 2607
1891.62 -128.551 2603
1894.93 -128.353 2599
1901.15 -128.353 2599
1903.69 -128.106 2594
1906.95 -127.909 2590
1913.14 -127.909 2590
1919.34 -127.909 2590
1922.56 -127.711 2586
1928.74 -127.711 2586
1928.94 -127.316 2578
1935.1 -127.316 2578
1941.27 -127.316 2578
1944.41 -127.119 2574
1948.29 -126.971 2571
1951.4 -126.773 2567
1957.54 -126.773 2567
1963.68 -126.773 2567
-2024.55 -127.061 2704
-2021.07 -127.249 2708
-2021.29 -127.672 2717
-2014.79 -127.672 2717
-2008.3 -127.672 2717
-2004.75 -127.86 2721
-1998.24 -127.86 2721
-1991.73 -127.86 2721
-1991.79 -128.283 2730
-1988.9 -128.518 2735
-1991.78 -129.129 2748
-1985.21 -129.129 2748
-2008.88 -131.103 2790
-2035.94 -133.311 2837
-2029.15 -133.311 2837
-2022.37 -133.311 2837
-2337.43 -154.598 3290
-2338.76 -155.208 3303
-2330.86 -155.208 3303
-2337.03 -156.148 3323
-2333.99 -156.477 3330
-2330.92 -156.806 3337
-2322.94 -156.806 3337
-2347.56 -159.015 3384
-2368.51 -160.988 3426
-2379.61 -162.304 3454
-2371.35 -162.304 3454
-2363.09 -162.304 3454
-2350.05 -161.975 3447
-2341.81 -161.975 3447
-2333.57 -161.975 3447
-2354.33 -163.996 3490
-2345.99 -163.996 3490
-2337.64 -163.996 3490
-2329.3 -163.996 3490
-2316.3 -163.667 3483
-2293.39 -162.633 3461
-2285.11 -162.633 3461
-2276.84 -162.633 3461
-2273.15 -162.962 3468
-2264.86 -162.962 3468
-2280.64 -164.7 3505
-2272.26 -164.7 3505
-2282.61 -166.063 3534
-2274.15 -166.063 3534
-2280.45 -167.144 3557
-2271.94 -167.144 3557
-2268.53 -167.52 3565
-2264.44 -167.849 3572
-2266 -168.601 3588
-2257.42 -168.601 3588
-2248.84 -168.601 3588
-2240.26 -168.601 3588
-2231.68 -168.601 3588
-2203.9 -167.144 3557
-2195.39 -167.144 3557
-2191.8 -167.52 3565
-2201.65 -168.93 3595
-2193.05 -168.93 3595
-2199.04 -170.057 3619
-2190.39 -170.057 3619
-2181.73 -170.057 3619
-2168.27 -169.681 3611
-2150.07 -168.93 3595
-2127.77 -167.849 3572
-2128.72 -168.601 3588
-2120.14 -168.601 3588
-2120.39 -169.306 3603
-2116.46 -169.681 3611
-2107.83 -169.681 3611
-2099.19 -169.681 3611
-2081.3 -168.93 3595
-2055.4 -167.52 3565
-2046.88 -167.52 3565
-2025.2 -166.439 3542
-2008.19 -165.734 3527
-2051.92 -170.057 3619
-2052.3 -170.809 3635
-2043.61 -170.809 3635
-2034.92 -170.809 3635
-2030.12 -171.138 3642
-2021.42 -171.138 3642
-2012.71 -171.138 3642
-2012.8 -171.89 3658
-2013.37 -172.689 3675
-2008.94 -173.065 3683
-2000.14 -173.065 3683
-1991.33 -173.065 3683
-1982.52 -173.065 3683
-1973.71 -173.065 3683
-1960.64 -172.689 3675
-1951.85 -172.689 3675
-1951.52 -173.441 3691
-1942.7 -173.441 3691
-1933.87 -173.441 3691
-1925.04 -173.441 3691
-1920.37 -173.817 3699
-1911.53 -173.817 3699
-1902.68 -173.817 3699
-1885.64 -173.065 3683
-1872.76 -172.689 3675
-1863.97 -172.689 3675
-1842.56 -171.514 3650
-1826.3 -170.809 3635
-1809.6 -170.057 3619
-1800.95 -170.057 3619
-1788.33 -169.681 3611
-1779.7 -169.681 3611
-1774.99 -170.057 3619
-1774.14 -170.809 3635
-1765.45 -170.809 3635
-1756.76 -170.809 3635
-1736.52 -169.681 3611
-1727.89 -169.681 3611
-1719.25 -169.681 3611
-1710.62 -169.681 3611
-1701.98 -169.681 3611
-1693.35 -169.681 3611
-1684.71 -169.681 3611
-1672.37 -169.306 3603
-1663.75 -169.306 3603
-1655.13 -169.306 3603
-1646.52 -169.306 3603
-1637.9 -169.306 3603
-1632.9 -169.681 3611
-1635.07 -170.809 3635
-1629.5 -171.138 3642
-1620.8 -171.138 3642
-1612.09 -171.138 3642
-1603.38 -171.138 3642
-1594.67 -171.138 3642
-1575.94 -170.057 3619
-1560.36 -169.306 3603
-1545.28 -168.601 3588
-1536.7 -168.601 3588
-1524.72 -168.225 3580
-1512.77 -167.849 3572
-1469.69 -163.996 3490
-1461.35 -163.996 3490
-1438.02 -162.304 3454
-1406.58 -159.673 3398
-1328.07 -151.637 3227
-1285.58 -147.643 3142
-1278.07 -147.643 3142
-1263.27 -146.797 3124
-1239.72 -144.918 3084
-1211.97 -142.521 3033
-1204.72 -142.521 3033
-1178.12 -140.219 2984
-1162.74 -139.232 2963
-1149.42 -138.48 2947
-1136.55 -137.775 2932
-1131.47 -138.01 2937
-1124.45 -138.01 2937
-1117.42 -138.01 2937
-1110.4 -138.01 2937
-1103.38 -138.01 2937
-1096.35 -138.01 2937
-1085.62 -137.54 2927
-1074.94 -137.07 2917
-1067.96 -137.07 2917
-1060.98 -137.07 2917
-1054.01 -137.07 2917
-1044.88 -136.788 2911
-1037.92 -136.788 2911
-1027.42 -136.318 2901
-1020.48 -136.318 2901
-1013.54 -136.318 2901
-1006.61 -136.318 2901
-997.945 -136.083 2896
-989.309 -135.849 2891
-978.997 -135.379 2881
-972.108 -135.379 2881
-965.219 -135.379 2881
-956.666 -135.144 2876
-949.789 -135.144 2876
-942.911 -135.144 2876
-934.407 -134.909 2871
-927.541 -134.909 2871
-920.676 -134.909 2871
-913.81 -134.909 2871
-906.945 -134.909 2871
-900.08 -134.909 2871
-893.214 -134.909 2871
-886.349 -134.909 2871
-881.015 -135.144 2876
-874.138 -135.144 2876
-867.26 -135.144 2876
-860.383 -135.144 2876
-853.505 -135.144 2876
-845.156 -134.909 2871
-838.291 -134.909 2871
-831.425 -134.909 2871
-824.56 -134.909 2871
-817.694 -134.909 2871
-810.829 -134.909 2871
-803.964 -134.909 2871
-797.098 -134.909 2871
-790.233 -134.909 2871
-783.367 -134.909 2871
-776.502 -134.909 2871
-769.636 -134.909 2871
-761.443 -134.674 2866
-753.536 -134.486 2862
-746.692 -134.486 2862
-739.848 -134.486 2862
-733.004 -134.486 2862
-726.16 -134.486 2862
-719.316 -134.486 2862
-712.473 -134.486 2862
-705.629 -134.486 2862
-698.785 -134.486 2862
-691.941 -134.486 2862
-685.097 -134.486 2862
-677.068 -134.251 2857
-669.063 -134.016 2852
-661.082 -133.781 2847
-654.274 -133.781 2847
-646.329 -133.546 2842
-639.533 -133.546 2842
-632.737 -133.546 2842
-629.244 -134.251 2857
-624.373 -134.674 2866
-617.52 -134.674 2866
-615.993 -135.849 2891
-614.557 -137.07 2917
-607.582 -137.07 2917
-618.932 -141.252 3006
-621.715 -143.555 3055
-623.661 -145.716 3101
-616.246 -145.716 3101
-622.77 -149.053 3172
-631.864 -153.094 3258
-632.693 -155.208 3303
-624.794 -155.208 3303
-620.631 -156.148 3323
-612.685 -156.148 3323
-606.012 -156.477 3330
-598.049 -156.477 3330
-592.39 -157.088 3343
-584.396 -157.088 3343
-576.402 -157.088 3343
-568.408 -157.088 3343
-560.413 -157.088 3343
-552.419 -157.088 3343
-547.682 -158.028 3363
-539.64 -158.028 3363
-532.705 -158.357 3370
-524.646 -158.357 3370
-517.661 -158.686 3377
-509.585 -158.686 3377
-506.707 -160.33 3412
-499.571 -160.659 3419
-491.395 -160.659 3419
-483.219 -160.659 3419
-474.071 -160.33 3412
-463.044 -159.344 3391
-454.935 -159.344 3391
-444.982 -158.686 3377
-436.906 -158.686 3377
-428.831 -158.686 3377
-420.755 -158.686 3377
-409.38 -157.417 3350
-246.453 -96.6587 2057
-241.534 -96.6587 2057
-236.615 -96.6587 2057
-232.597 -97.0347 2065
-227.659 -97.0347 2065
-223.26 -97.2696 2070
-219.154 -97.6455 2078
-214.907 -97.9745 2085
-209.921 -97.9745 2085
-205.23 -98.1154 2088
-201.004 -98.4913 2096
-196.459 -98.7263 2101
-191.435 -98.7263 2101
-186.855 -98.9613 2106
-181.819 -98.9613 2106
-177.958 -99.6191 2120
-172.888 -99.6191 2120
-167.977 -99.7131 2122
-163.363 -99.995 2128
-158.646 -100.23 2133
-153.546 -100.23 2133
-149.071 -100.653 2142
-144.285 -100.888 2147
-139.54 -101.17 2153
-134.391 -101.17 2153
-129.243 -101.17 2153
-123.922 -101.029 2150
-118.78 -101.029 2150
-113.48 -100.888 2147
-108.195 -100.747 2144
-102.972 -100.653 2142
-97.8496 -100.653 2142
-92.5976 -100.512 2139
-87.3599 -100.371 2136
-82.1365 -100.23 2133
-77.0359 -100.23 2133
-71.9352 -100.23 2133
-66.7719 -100.136 2131
-61.5892 -99.995 2128
-56.5005 -99.995 2128
-51.3393 -99.8541 2125
-46.1925 -99.7131 2122
-41.1182 -99.7131 2122
-36.0438 -99.7131 2122
-30.9403 -99.6191 2120
-25.8707 -99.6191 2120
-20.7717 -99.4781 2117
-15.7093 -99.4781 2117
-10.647 -99.4781 2117
-5.58457 -99.4781 2117
-0.522182 -99.4781 2117
4.54021 -99.4781 2117
9.6026 -99.4781 2117
14.665 -99.4781 2117
19.7274 -99.4781 2117
24.7546 -99.3372 2114
29.8098 -99.3372 2114
34.8651 -99.3372 2114
39.9203 -99.3372 2114
44.9755 -99.3372 2114
50.0307 -99.3372 2114
55.0859 -99.3372 2114
60.1411 -99.3372 2114
65.1964 -99.3372 2114
70.2516 -99.3372 2114
75.3068 -99.3372 2114
80.362 -99.3372 2114
85.5384 -99.4781 2117
90.6008 -99.4781 2117
95.6632 -99.4781 2117
100.726 -99.4781 2117
105.938 -99.6191 2120
111.112 -99.7131 2122
116.351 -99.8541 2125
121.432 -99.8541 2125
126.514 -99.8541 2125
131.781 -99.995 2128
137.191 -100.23 2133
142.292 -100.23 2133
147.393 -100.23 2133
152.708 -100.371 2136
158.037 -100.512 2139
163.152 -100.512 2139
168.503 -100.653 2142
173.788 -100.747 2144
179.165 -100.888 2147
184.299 -100.888 2147
189.698 -101.029 2150
195.292 -101.264 2155
201.004 -101.546 2161
206.171 -101.546 2161
211.926 -101.828 2167
217.308 -101.922 2169
222.802 -102.063 2172
227.996 -102.063 2172
234.479 -102.626 2184
240.908 -103.143 2195
247.503 -103.707 2207
252.781 -103.707 2207
258.994 -104.083 2215
266.796 -105.07 2236
274.699 -106.057 2257
280.096 -106.057 2257
286.379 -106.386 2264
294.113 -107.232 2282
300.882 -107.701 2292
306.363 -107.701 2292
313.477 -108.265 2304
318.986 -108.265 2304
325.904 -108.735 2314
331.438 -108.735 2314
336.971 -108.735 2314
343.393 -109.017 2320
348.941 -109.017 2320
354.488 -109.017 2320
360.036 -109.017 2320
365.111 -108.876 2317
370.652 -108.876 2317
375.706 -108.735 2314
479.036 -134.674 2866
485.89 -134.674 2866
492.743 -134.674 2866
501.34 -135.144 2876
508.217 -135.144 2876
515.095 -135.144 2876
521.972 -135.144 2876
529.769 -135.379 2881
536.658 -135.379 2881
543.548 -135.379 2881
550.437 -135.379 2881
556.359 -135.144 2876
563.236 -135.144 2876
570.114 -135.144 2876
575.988 -134.909 2871
581.838 -134.674 2866
588.692 -134.674 2866
595.545 -134.674 2866
602.399 -134.674 2866
609.252 -134.674 2866
617.181 -134.909 2871
624.046 -134.909 2871
630.911 -134.909 2871
636.666 -134.674 2866
643.52 -134.674 2866
650.373 -134.674 2866
656.309 -134.486 2862
663.153 -134.486 2862
669.997 -134.486 2862
676.841 -134.486 2862
683.685 -134.486 2862
690.529 -134.486 2862
697.373 -134.486 2862
704.217 -134.486 2862
711.061 -134.486 2862
716.65 -134.251 2857
723.482 -134.251 2857
730.314 -134.251 2857
737.146 -134.251 2857
743.978 -134.251 2857
750.81 -134.251 2857
757.642 -134.251 2857
764.474 -134.251 2857
771.306 -134.251 2857
778.138 -134.251 2857
784.97 -134.251 2857
791.802 -134.251 2857
798.634 -134.251 2857
805.466 -134.251 2857
810.876 -134.016 2852
817.696 -134.016 2852
824.516 -134.016 2852
831.336 -134.016 2852
838.156 -134.016 2852
844.976 -134.016 2852
851.796 -134.016 2852
858.616 -134.016 2852
865.436 -134.016 2852
872.256 -134.016 2852
879.076 -134.016 2852
884.343 -133.781 2847
891.151 -133.781 2847
897.959 -133.781 2847
903.178 -133.546 2842
906.772 -133.076 2832
913.544 -133.076 2832
921.941 -133.311 2837
928.726 -133.311 2837
935.51 -133.311 2837
942.294 -133.311 2837
947.405 -133.076 2832
954.177 -133.076 2832
959.592 -132.888 2828
964.646 -132.653 2823
1347.39 -181.476 3862
1356.62 -181.476 3862
1365.86 -181.476 3862
1371.89 -181.053 3853
1377.88 -180.63 3844
1387.07 -180.63 3844
1377.37 -178.187 3792
1373.64 -176.542 3757
1376.37 -175.743 3740
1379.39 -174.991 3724
1388.29 -174.991 3724
1397.2 -174.991 3724
1406.11 -174.991 3724
1415.01 -174.991 3724
1423.92 -174.991 3724
1420.12 -173.441 3691
1422.76 -172.689 3675
1418.69 -171.138 3642
1427.4 -171.138 3642
1427.04 -170.057 3619
1435.69 -170.057 3619
1425.59 -167.849 3572
1428.11 -167.144 3557
1436.61 -167.144 3557
1435.78 -166.063 3534
1438.5 -165.405 3520
1440.76 -164.7 3505
1449.14 -164.7 3505
1451.28 -163.996 3490
1456.7 -163.667 3483
1446.94 -161.646 3440
1455.17 -161.646 3440
1445.53 -159.673 3398
1453.65 -159.673 3398
1449.73 -158.357 3370
1454.76 -158.028 3363
1462.81 -158.028 3363
1470.85 -158.028 3363
1464.38 -156.477 3330
1469.25 -156.148 3323
1477.19 -156.148 3323
1473.52 -154.927 3297
1469.72 -153.705 3271
1477.54 -153.705 3271
1485.36 -153.705 3271
1493.19 -153.705 3271
1498.25 -153.423 3265
1506.06 -153.423 3265
1531.49 -155.208 3303
1558.03 -157.088 3343
1566.02 -157.088 3343
1580.61 -157.746 3357
1598.1 -158.686 3377
1619.5 -160.001 3405
1627.64 -160.001 3405
1659.32 -162.304 3454
1684.96 -163.996 3490
1703.98 -165.029 3512
1712.38 -165.029 3512
1724.7 -165.405 3520
1747.39 -166.768 3549
1759.84 -167.144 3557
1768.34 -167.144 3557
1776.85 -167.144 3557
1781.34 -166.768 3549
1789.83 -166.768 3549
1787.16 -165.734 3527
1511.66 -128.095 2726
1538.23 -129.787 2762
1544.84 -129.787 2762
1551.44 -129.787 2762
1560.87 -130.022 2767
1567.48 -130.022 2767
1574.1 -130.022 2767
1577.86 -129.787 2762
1584.47 -129.787 2762
1591.07 -129.787 2762
1600.57 -130.022 2767
1607.18 -130.022 2767
1613.8 -130.022 2767
1620.42 -130.022 2767
1627.03 -130.022 2767
1630.7 -129.787 2762
1634.34 -129.552 2757
1638.55 -129.364 2753
1639.76 -128.941 2744
1646.32 -128.941 2744
1652.88 -128.941 2744
1656.42 -128.706 2739
1660.54 -128.518 2735
1667.08 -128.518 2735
1670.56 -128.283 2730
1669.1 -127.672 2717
1670.05 -127.249 2708
1676.53 -127.249 2708
1680.51 -127.061 2704
1686.98 -127.061 2704
1693.45 -127.061 2704
1699.91 -127.061 2704
1706.38 -127.061 2704
1707.14 -126.638 2695
1713.59 -126.638 2695
1714.29 -126.216 2686
1720.71 -126.216 2686
1727.14 -126.216 2686
1725.17 -125.605 2673
1728.97 -125.417 2669
1735.35 -125.417 2669
1739.12 -125.229 2665
1745.5 -125.229 2665
1745.95 -124.806 2656
1752.3 -124.806 2656
1758.66 -124.806 2656
1762.35 -124.618 2652
1766.02 -124.43 2648
1772.35 -124.43 2648
1778.69 -124.43 2648
1785.02 -124.43 2648
1782.56 -123.819 2635
1788.86 -123.819 2635
1795.16 -123.819 2635
1801.46 -123.819 2635
1807.76 -123.819 2635
1808.55 -123.443 2627
1817.6 -123.631 2631
1823.89 -123.631 2631
1830.18 -123.631 2631
1836.47 -123.631 2631
1842.77 -123.631 2631
1840.62 -123.067 2619
1846.89 -123.067 2619
1853.15 -123.067 2619
1859.41 -123.067 2619
1865.68 -123.067 2619
1871.94 -123.067 2619
1872.46 -122.691 2611
1878.71 -122.691 2611
1884.95 -122.691 2611
1888.3 -122.503 2607
1891.62 -122.315 2603
1894.93 -122.127 2599
1901.15 -122.127 2599
1903.69 -121.892 2594
1906.95 -121.704 2590
1913.14 -121.704 2590
1919.34 -121.704 2590
1922.56 -121.517 2586
1928.74 -121.517 2586
1928.94 -121.141 2578
1935.1 -121.141 2578
1941.27 -121.141 2578
1944.41 -120.953 2574
1948.29 -120.812 2571
1951.4 -120.624 2567
1957.54 -120.624 2567
1963.68 -120.624 2567
-2034.28 -121.164 2717
-2030.77 -121.342 2721
-2027.99 -121.565 2726
-2021.47 -121.565 2726
-2014.95 -121.565 2726
-2011.38 -121.743 2730
-2004.85 -121.743 2730
-1998.32 -121.743 2730
-1995.44 -121.966 2735
-1991.81 -122.145 2739
-2008.45 -123.572 2771
-2001.83 -123.572 2771
-2011.76 -124.597 2794
-2008.67 -124.82 2799
-2029.15 -126.515 2837
-2022.37 -126.515 2837
-2015.59 -126.515 2837
-2362.84 -148.812 3337
-2354.86 -148.812 3337
-2346.88 -148.812 3337
-2333.99 -148.5 3330
-2330.92 -148.812 3337
-2322.94 -148.812 3337
-2347.56 -150.908 3384
-2368.51 -152.781 3426
-2384.43 -154.342 3461
-2376.15 -154.342 3461
-2367.88 -154.342 3461
-2359.6 -154.342 3461
-2351.32 -154.342 3461
-2338.31 -154.03 3454
-2359.06 -155.947 3497
-2350.69 -155.947 3497
-2342.33 -155.947 3497
-2333.97 -155.947 3497
-2325.61 -155.947 3497
-2293.39 -154.342 3461
-2285.11 -154.342 3461
-2276.84 -154.342 3461
-2263.97 -154.03 3454
-2255.71 -154.03 3454
-2270.88 -155.635 3490
-2262.53 -155.635 3490
-2263.87 -156.304 3505
-2260 -156.616 3512
-2265.7 -157.597 3534
-2257.25 -157.597 3534
-2253.89 -157.954 3542
-2249.86 -158.266 3549
-2246.43 -158.623 3557
-2237.92 -158.623 3557
-2229.41 -158.623 3557
-2220.91 -158.623 3557
-2212.4 -158.623 3557
-2194.6 -157.954 3542
-2176.87 -157.285 3527
-2177.66 -157.954 3542
-2183.28 -158.98 3565
-2174.75 -158.98 3565
-2180.2 -160.006 3588
-2175.86 -160.318 3595
-2167.26 -160.318 3595
-2158.67 -160.318 3595
-2141.1 -159.649 3580
-2127.77 -159.292 3572
-2128.72 -160.006 3588
-2120.14 -160.006 3588
-2115.68 -160.318 3595
-2107.09 -160.318 3595
-2098.49 -160.318 3595
-2089.89 -160.318 3595
-2077.24 -160.006 3588
-2042.14 -157.954 3542
-2033.67 -157.954 3542
-2004.05 -156.304 3505
-1999.65 -156.616 3512
-2025.27 -159.292 3572
-2034.23 -160.674 3603
-2025.62 -160.674 3603
-2025.96 -161.388 3619
-2026.22 -162.102 3635
-2017.53 -162.102 3635
-2008.84 -162.102 3635
-2004 -162.414 3642
-2004.05 -163.127 3658
-2004.58 -163.885 3675
-1995.79 -163.885 3675
-1987 -163.885 3675
-1978.22 -163.885 3675
-1969.43 -163.885 3675
-1956.37 -163.529 3667
-1947.6 -163.529 3667
-1938.83 -163.529 3667
-1930.06 -163.529 3667
-1921.3 -163.529 3667
-1907.83 -163.127 3658
-1907.91 -163.885 3675
-1899.12 -163.885 3675
-1890.33 -163.885 3675
-1881.55 -163.885 3675
-1860.02 -162.77 3650
-1851.29 -162.77 3650
-1838.52 -162.414 3642
-1822.28 -161.745 3627
-1805.6 -161.031 3611
-1796.97 -161.031 3611
-1776.94 -160.006 3588
-1768.36 -160.006 3588
-1763.22 -160.318 3595
-1754.62 -160.318 3595
-1746.02 -160.318 3595
-1737.43 -160.318 3595
-1725.46 -160.006 3588
-1713.06 -159.649 3580
-1704.5 -159.649 3580
-1692.14 -159.292 3572
-1691.14 -160.006 3588
-1682.56 -160.006 3588
-1673.98 -160.006 3588
-1665.4 -160.006 3588
-1656.82 -160.006 3588
-1644.57 -159.649 3580
-1642.86 -160.318 3595
-1634.27 -160.318 3595
-1629.29 -160.674 3603
-1631.47 -161.745 3627
-1622.79 -161.745 3627
-1614.12 -161.745 3627
-1605.45 -161.745 3627
-1596.77 -161.745 3627
-1588.1 -161.745 3627
-1575.94 -161.388 3619
-1556.9 -160.318 3595
-1545.28 -160.006 3588
-1536.7 -160.006 3588
-1524.72 -159.649 3580
-1512.77 -159.292 3572
-1485.28 -157.285 3527
-1476.84 -157.285 3527
-1440.93 -154.342 3461
-1406.58 -151.533 3398
-1328.07 -143.907 3227
-1288.03 -140.384 3148
-1280.51 -140.384 3148
-1256.4 -138.556 3107
-1239.72 -137.53 3084
-1211.97 -135.256 3033
-1204.72 -135.256 3033
-1178.12 -133.07 2984
-1160.78 -131.911 2958
-1149.42 -131.42 2947
-1136.55 -130.751 2932
-1131.47 -130.974 2937
-1124.45 -130.974 2937
-1117.42 -130.974 2937
-1110.4 -130.974 2937
-1103.38 -130.974 2937
-1094.49 -130.751 2932
-1083.77 -130.306 2922
-1074.94 -130.083 2917
-1067.96 -130.083 2917
-1060.98 -130.083 2917
-1054.01 -130.083 2917
-1047.03 -130.083 2917
-1040.06 -130.083 2917
-1030.96 -129.815 2911
-1022.24 -129.592 2906
-1013.54 -129.369 2901
-1006.61 -129.369 2901
-999.668 -129.369 2901
-989.309 -128.923 2891
-980.697 -128.7 2886
-973.795 -128.7 2886
-965.219 -128.477 2881
-958.329 -128.477 2881
-951.44 -128.477 2881
-944.551 -128.477 2881
-936.034 -128.254 2876
-929.157 -128.254 2876
-922.279 -128.254 2876
-915.402 -128.254 2876
-908.525 -128.254 2876
-901.647 -128.254 2876
-894.77 -128.254 2876
-887.892 -128.254 2876
-881.015 -128.254 2876
-874.138 -128.254 2876
-867.26 -128.254 2876
-860.383 -128.254 2876
-853.505 -128.254 2876
-846.628 -128.254 2876
-839.751 -128.254 2876
-832.873 -128.254 2876
-825.996 -128.254 2876
-819.119 -128.254 2876
-812.241 -128.254 2876
-805.364 -128.254 2876
-798.486 -128.254 2876
-790.233 -128.031 2871
-783.367 -128.031 2871
-776.502 -128.031 2871
-769.636 -128.031 2871
-762.771 -128.031 2871
-753.536 -127.63 2862
-746.692 -127.63 2862
-739.848 -127.63 2862
-733.004 -127.63 2862
-727.175 -127.808 2866
-720.322 -127.808 2866
-713.468 -127.808 2866
-706.615 -127.808 2866
-698.785 -127.63 2862
-691.941 -127.63 2862
-685.097 -127.63 2862
-678.253 -127.63 2862
-670.236 -127.407 2857
-662.243 -127.184 2852
-655.423 -127.184 2852
-647.466 -126.961 2847
-640.658 -126.961 2847
-633.85 -126.961 2847
-629.244 -127.407 2857
-624.373 -127.808 2866
-617.52 -127.808 2866
-615.993 -128.923 2891
-612.24 -129.592 2906
-605.291 -129.592 2906
-614.402 -133.07 2984
-616.22 -135.033 3028
-615.616 -136.504 3061
-608.297 -136.504 3061
-622.77 -141.454 3172
-631.864 -145.289 3258
-627.904 -146.181 3278
-620.065 -146.181 3278
-620.631 -148.188 3323
-612.685 -148.188 3323
-604.738 -148.188 3323
-596.792 -148.188 3323
-590.086 -148.5 3330
-583.347 -148.812 3337
-575.367 -148.812 3337
-567.387 -148.812 3337
-559.408 -148.812 3337
-551.428 -148.812 3337
-546.705 -149.704 3357
-538.678 -149.704 3357
-530.65 -149.704 3357
-522.622 -149.704 3357
-515.514 -149.972 3363
-507.473 -149.972 3363
-506.707 -152.157 3412
-500.594 -152.781 3426
-492.401 -152.781 3426
-484.209 -152.781 3426
-476.016 -152.781 3426
-466.868 -152.469 3419
-458.692 -152.469 3419
-444.982 -150.596 3377
-256.665 -91.865 2060
-251.738 -91.865 2060
-246.812 -91.865 2060
-241.886 -91.865 2060
-236.96 -91.865 2060
-232.597 -92.0879 2065
-228.21 -92.3109 2070
-223.26 -92.3109 2070
-219.892 -92.9798 2085
-215.216 -93.1136 2088
-210.223 -93.1136 2088
-205.525 -93.2474 2091
-201.004 -93.4704 2096
-196.927 -93.9163 2106
-191.891 -93.9163 2106
-186.855 -93.9163 2106
-181.819 -93.9163 2106
-178.126 -94.6298 2122
-173.051 -94.6298 2122
-168.452 -94.8974 2128
-163.747 -95.1204 2133
-159.093 -95.3879 2139
-153.978 -95.3879 2139
-149.071 -95.5217 2142
-144.688 -96.0123 2153
-139.67 -96.1014 2155
-134.516 -96.1014 2155
-129.363 -96.1014 2155
-124.094 -96.0123 2153
-118.946 -96.0123 2153
-113.48 -95.7447 2147
-108.346 -95.7447 2147
-102.972 -95.5217 2142
-97.8496 -95.5217 2142
-92.5976 -95.3879 2139
-87.3599 -95.2542 2136
-82.1365 -95.1204 2133
-77.0359 -95.1204 2133
-71.9352 -95.1204 2133
-66.7719 -95.0312 2131
-61.5892 -94.8974 2128
-56.5005 -94.8974 2128
-51.2669 -94.6298 2122
-46.1925 -94.6298 2122
-41.0794 -94.5406 2120
-36.0099 -94.5406 2120
-30.8965 -94.4069 2117
-25.8341 -94.4069 2117
-20.7717 -94.4069 2117
-15.6871 -94.2731 2114
-10.6319 -94.2731 2114
-5.57666 -94.2731 2114
-0.521442 -94.2731 2114
4.53377 -94.2731 2114
9.58899 -94.2731 2114
14.6442 -94.2731 2114
19.6994 -94.2731 2114
24.7546 -94.2731 2114
29.8098 -94.2731 2114
34.8321 -94.1839 2112
39.8825 -94.1839 2112
44.9329 -94.1839 2112
50.0307 -94.2731 2114
55.0859 -94.2731 2114
60.1411 -94.2731 2114
65.1964 -94.2731 2114
70.2516 -94.2731 2114
75.3068 -94.2731 2114
80.362 -94.2731 2114
85.5384 -94.4069 2117
90.6008 -94.4069 2117
95.6632 -94.4069 2117
100.868 -94.5406 2120
105.938 -94.5406 2120
111.112 -94.6298 2122
116.351 -94.7636 2125
121.432 -94.7636 2125
126.514 -94.7636 2125
131.781 -94.8974 2128
137.191 -95.1204 2133
142.292 -95.1204 2133
147.6 -95.2542 2136
152.708 -95.2542 2136
158.037 -95.3879 2139
163.152 -95.3879 2139
168.503 -95.5217 2142
173.788 -95.6109 2144
179.165 -95.7447 2147
184.299 -95.7447 2147
189.698 -95.8785 2150
195.292 -96.1014 2155
201.004 -96.369 2161
206.171 -96.369 2161
211.926 -96.6366 2167
217.308 -96.7258 2169
222.802 -96.8596 2172
227.996 -96.8596 2172
233.512 -96.9933 2175
240.579 -97.7514 2192
246.83 -98.1528 2201
252.093 -98.1528 2201
258.058 -98.4204 2207
265.722 -99.3123 2227
273.969 -100.383 2251
279.352 -100.383 2251
286.379 -100.962 2264
294.113 -101.765 2282
300.882 -102.211 2292
306.363 -102.211 2292
313.477 -102.746 2304
318.986 -102.746 2304
325.482 -103.058 2311
331.008 -103.058 2311
336.971 -103.192 2314
343.393 -103.46 2320
348.941 -103.46 2320
354.488 -103.46 2320
360.036 -103.46 2320
365.111 -103.326 2317
370.652 -103.326 2317
375.706 -103.192 2314
479.036 -127.808 2866
485.89 -127.808 2866
493.603 -128.031 2871
501.34 -128.254 2876
509.101 -128.477 2881
515.99 -128.477 2881
522.88 -128.477 2881
530.688 -128.7 2886
537.59 -128.7 2886
544.491 -128.7 2886
551.392 -128.7 2886
557.326 -128.477 2881
564.216 -128.477 2881
570.114 -128.254 2876
575.988 -128.031 2871
582.854 -128.031 2871
589.719 -128.031 2871
596.584 -128.031 2871
603.45 -128.031 2871
610.315 -128.031 2871
617.181 -128.031 2871
624.046 -128.031 2871
630.911 -128.031 2871
637.777 -128.031 2871
644.642 -128.031 2871
651.508 -128.031 2871
657.227 -127.808 2866
664.08 -127.808 2866
670.934 -127.808 2866
677.787 -127.808 2866
683.685 -127.63 2862
690.529 -127.63 2862
697.373 -127.63 2862
704.217 -127.63 2862
711.061 -127.63 2862
717.905 -127.63 2862
724.748 -127.63 2862
731.592 -127.63 2862
738.436 -127.63 2862
743.978 -127.407 2857
750.81 -127.407 2857
757.642 -127.407 2857
764.474 -127.407 2857
771.306 -127.407 2857
778.138 -127.407 2857
784.97 -127.407 2857
791.802 -127.407 2857
798.634 -127.407 2857
805.466 -127.407 2857
812.298 -127.407 2857
819.13 -127.407 2857
824.516 -127.184 2852
831.336 -127.184 2852
838.156 -127.184 2852
844.976 -127.184 2852
851.796 -127.184 2852
858.616 -127.184 2852
865.436 -127.184 2852
872.256 -127.184 2852
879.076 -127.184 2852
885.896 -127.184 2852
891.151 -126.961 2847
897.959 -126.961 2847
904.767 -126.961 2847
911.575 -126.961 2847
915.157 -126.515 2837
921.941 -126.515 2837
928.726 -126.515 2837
935.51 -126.515 2837
942.294 -126.515 2837
949.078 -126.515 2837
955.862 -126.515 2837
962.646 -126.515 2837
967.722 -126.292 2832
1347.39 -172.225 3862
1356.62 -172.225 3862
1365.86 -172.225 3862
1368.69 -171.422 3844
1368.56 -170.262 3818
1377.69 -170.262 3818
1370.84 -168.3 3774
1370.72 -167.185 3749
1373.43 -166.427 3732
1379.39 -166.07 3724
1388.29 -166.07 3724
1397.2 -166.07 3724
1406.11 -166.07 3724
1415.01 -166.07 3724
1423.92 -166.07 3724
1420.12 -164.599 3691
1422.76 -163.885 3675
1418.69 -162.414 3642
1427.4 -162.414 3642
1427.04 -161.388 3619
1432.52 -161.031 3611
1425.59 -159.292 3572
1428.11 -158.623 3557
1436.61 -158.623 3557
1435.78 -157.597 3534
1438.5 -156.973 3520
1437.47 -155.947 3497
1445.83 -155.947 3497
1448.37 -155.323 3483
1456.7 -155.323 3483
1444 -153.093 3433
1452.21 -153.093 3433
1445.53 -151.533 3398
1447.66 -150.908 3384
1449.73 -150.284 3370
1454.76 -149.972 3363
1462.81 -149.972 3363
1465.16 -149.392 3350
1464.38 -148.5 3330
1469.25 -148.188 3323
1477.19 -148.188 3323
1473.52 -147.029 3297
1469.72 -145.869 3271
1477.54 -145.869 3271
1485.36 -145.869 3271
1493.19 -145.869 3271
1498.25 -145.602 3265
1506.06 -145.602 3265
1531.49 -147.296 3303
1558.03 -149.08 3343
1566.02 -149.08 3343
1580.61 -149.704 3357
1611.35 -151.845 3405
1632.81 -153.093 3433
1641.02 -153.093 3433
1659.32 -154.03 3454
1684.96 -155.635 3490
1703.98 -156.616 3512
1712.38 -156.616 3512
1728.13 -157.285 3527
1747.39 -158.266 3549
1759.84 -158.623 3557
1768.34 -158.623 3557
1776.85 -158.623 3557
1785.35 -158.623 3557
1793.86 -158.623 3557
1787.16 -157.285 3527
1523.86 -122.546 2748
1538.23 -123.17 2762
1557.7 -124.196 2785
1564.36 -124.196 2785
1571.02 -124.196 2785
1577.68 -124.196 2785
1584.34 -124.196 2785
1588.14 -123.973 2780
1589.63 -123.572 2771
1596.26 -123.572 2771
1602.88 -123.572 2771
1609.51 -123.572 2771
1616.13 -123.572 2771
1620.42 -123.393 2767
1627.03 -123.393 2767
1633.65 -123.393 2767
1637.3 -123.17 2762
1640.93 -122.947 2757
1645.14 -122.769 2753
1651.72 -122.769 2753
1658.3 -122.769 2753
1664.89 -122.769 2753
1666 -122.368 2744
1672.57 -122.368 2744
1673.62 -121.966 2735
1671.56 -121.342 2721
1675.6 -121.164 2717
1682.1 -121.164 2717
1688.59 -121.164 2717
1695.09 -121.164 2717
1699.08 -120.985 2713
1705.57 -120.985 2713
1712.06 -120.985 2713
1712.85 -120.584 2704
1719.31 -120.584 2704
1722.59 -120.361 2699
1729.04 -120.361 2699
1732.92 -120.183 2695
1736.79 -120.004 2691
1739.98 -119.781 2686
1746.4 -119.781 2686
1750.22 -119.603 2682
1748.12 -119.023 2669
1751.87 -118.845 2665
1758.24 -118.845 2665
1761.97 -118.666 2661
1765.01 -118.443 2656
1771.36 -118.443 2656
1777.71 -118.443 2656
1778.69 -118.087 2648
1785.02 -118.087 2648
1785.94 -117.73 2640
1792.25 -117.73 2640
1798.57 -117.73 2640
1801.46 -117.507 2635
1807.76 -117.507 2635
1811.31 -117.328 2631
1817.6 -117.328 2631
1821.12 -117.15 2627
1827.4 -117.15 2627
1833.68 -117.15 2627
1839.96 -117.15 2627
1840.62 -116.793 2619
1846.89 -116.793 2619
1853.15 -116.793 2619
1859.41 -116.793 2619
1865.68 -116.793 2619
1871.94 -116.793 2619
1872.46 -116.437 2611
1878.71 -116.437 2611
1884.95 -116.437 2611
1888.3 -116.258 2607
1894.53 -116.258 2607
1897.85 -116.08 2603
1904.07 -116.08 2603
1907.36 -115.901 2599
1909.9 -115.678 2594
1913.14 -115.5 2590
1919.34 -115.5 2590
1925.53 -115.5 2590
1928.74 -115.322 2586
1931.93 -115.143 2582
1935.1 -114.965 2578
1941.27 -114.965 2578
1947.43 -114.965 2578
1950.57 -114.787 2574
1954.44 -114.653 2571
1960.59 -114.653 2571
1963.68 -114.474 2567
-2034.28 -114.655 2717
-2034.5 -115.035 2726
-2034.68 -115.415 2735
-2028.14 -115.415 2735
-2021.6 -115.415 2735
-2015.06 -115.415 2735
-2008.52 -115.415 2735
-2001.98 -115.415 2735
-1995.44 -115.415 2735
-1998.35 -115.963 2748
-2008.45 -116.934 2771
-2001.83 -116.934 2771
-2011.76 -117.904 2794
-2008.67 -118.115 2799
-2029.15 -119.719 2837
-2022.37 -119.719 2837
-2015.59 -119.719 2837
-2362.84 -140.818 3337
-2354.86 -140.818 3337
-2346.88 -140.818 3337
-2333.99 -140.523 3330
-2330.92 -140.818 3337
-2322.94 -140.818 3337
-2347.56 -142.802 3384
-2368.51 -144.574 3426
-2394.76 -146.684 3476
-2386.45 -146.684 3476
-2378.14 -146.684 3476
-2369.83 -146.684 3476
-2361.51 -146.684 3476
-2347.79 -146.347 3468
-2364.45 -147.908 3505
-2356.07 -147.908 3505
-2347.69 -147.908 3505
-2339.31 -147.908 3505
-2325.61 -147.57 3497
-2293.39 -146.051 3461
-2285.11 -146.051 3461
-2276.84 -146.051 3461
-2263.97 -145.756 3454
-2255.71 -145.756 3454
-2270.88 -147.275 3490
-2262.53 -147.275 3490
-2263.87 -147.908 3505
-2260 -148.203 3512
-2265.7 -149.132 3534
-2257.25 -149.132 3534
-2253.89 -149.469 3542
-2249.86 -149.765 3549
-2246.43 -150.102 3557
-2237.92 -150.102 3557
-2229.41 -150.102 3557
-2220.91 -150.102 3557
-2212.4 -150.102 3557
-2194.6 -149.469 3542
-2176.87 -148.836 3527
-2177.66 -149.469 3542
-2183.28 -150.44 3565
-2174.75 -150.44 3565
-2180.2 -151.41 3588
-2175.86 -151.706 3595
-2167.26 -151.706 3595
-2158.67 -151.706 3595
-2141.1 -151.073 3580
-2127.77 -150.735 3572
-2128.72 -151.41 3588
-2120.14 -151.41 3588
-2115.68 -151.706 3595
-2107.09 -151.706 3595
-2098.49 -151.706 3595
-2089.89 -151.706 3595
-2077.24 -151.41 3588
-2042.14 -149.469 3542
-2033.67 -149.469 3542
-2012.62 -148.541 3520
-2004.21 -148.541 3520
-2025.27 -150.735 3572
-2034.23 -152.043 3603
-2025.62 -152.043 3603
-2025.96 -152.719 3619
-2026.22 -153.394 3635
-2017.53 -153.394 3635
-2008.84 -153.394 3635
-2004 -153.689 3642
-2004.05 -154.364 3658
-2004.58 -155.082 3675
-1995.79 -155.082 3675
-1987 -155.082 3675
-1978.22 -155.082 3675
-1969.43 -155.082 3675
-1956.37 -154.744 3667
-1947.6 -154.744 3667
-1938.83 -154.744 3667
-1930.06 -154.744 3667
-1921.3 -154.744 3667
-1907.83 -154.364 3658
-1907.91 -155.082 3675
-1899.12 -155.082 3675
-1890.33 -155.082 3675
-1881.55 -155.082 3675
-1860.02 -154.027 3650
-1851.29 -154.027 3650
-1838.52 -153.689 3642
-1822.28 -153.056 3627
-1805.6 -152.381 3611
-1796.97 -152.381 3611
-1776.94 -151.41 3588
-1768.36 -151.41 3588
-1763.22 -151.706 3595
-1754.62 -151.706 3595
-1746.02 -151.706 3595
-1737.43 -151.706 3595
-1725.46 -151.41 3588
-1713.06 -151.073 3580
-1704.5 -151.073 3580
-1692.14 -150.735 3572
-1691.14 -151.41 3588
-1682.56 -151.41 3588
-1673.98 -151.41 3588
-1665.4 -151.41 3588
-1656.82 -151.41 3588
-1644.57 -151.073 3580
-1642.86 -151.706 3595
-1634.27 -151.706 3595
-1629.29 -152.043 3603
-1631.47 -153.056 3627
-1622.79 -153.056 3627
-1614.12 -153.056 3627
-1605.45 -153.056 3627
-1596.77 -153.056 3627
-1588.1 -153.056 3627
-1575.94 -152.719 3619
-1556.9 -151.706 3595
-1545.28 -151.41 3588
-1536.7 -151.41 3588
-1524.72 -151.073 3580
-1512.77 -150.735 3572
-1485.28 -148.836 3527
-1476.84 -148.836 3527
-1455.92 -147.57 3497
-1429.76 -145.756 3454
-1340.83 -137.485 3258
-1307.67 -134.868 3196
-1300.03 -134.868 3196
-1272.98 -132.843 3148
-1246.56 -130.86 3101
-1211.97 -127.99 3033
-1204.72 -127.99 3033
-1178.12 -125.922 2984
-1167.06 -125.5 2974
-1149.42 -124.361 2947
-1138.49 -123.939 2937
-1131.47 -123.939 2937
-1124.45 -123.939 2937
-1117.42 -123.939 2937
-1110.4 -123.939 2937
-1103.38 -123.939 2937
-1094.49 -123.728 2932
-1083.77 -123.306 2922
-1074.94 -123.095 2917
-1067.96 -123.095 2917
-1060.98 -123.095 2917
-1054.01 -123.095 2917
-1047.03 -123.095 2917
-1040.06 -123.095 2917
-1030.96 -122.842 2911
-1024 -122.842 2911
-1015.29 -122.631 2906
-1008.34 -122.631 2906
-999.668 -122.42 2901
-991.02 -122.209 2896
-982.396 -121.998 2891
-975.482 -121.998 2891
-966.894 -121.787 2886
-959.993 -121.787 2886
-953.091 -121.787 2886
-946.19 -121.787 2886
-939.289 -121.787 2886
-932.387 -121.787 2886
-925.486 -121.787 2886
-918.585 -121.787 2886
-911.684 -121.787 2886
-904.782 -121.787 2886
-897.881 -121.787 2886
-890.98 -121.787 2886
-884.078 -121.787 2886
-877.177 -121.787 2886
-870.276 -121.787 2886
-861.879 -121.576 2881
-854.989 -121.576 2881
-848.1 -121.576 2881
-841.211 -121.576 2881
-832.873 -121.365 2876
-825.996 -121.365 2876
-819.119 -121.365 2876
-812.241 -121.365 2876
-805.364 -121.365 2876
-798.486 -121.365 2876
-791.609 -121.365 2876
-784.732 -121.365 2876
-776.502 -121.154 2871
-769.636 -121.154 2871
-762.771 -121.154 2871
-755.906 -121.154 2871
-746.692 -120.774 2862
-740.882 -120.943 2866
-734.029 -120.943 2866
-727.175 -120.943 2866
-720.322 -120.943 2866
-713.468 -120.943 2866
-706.615 -120.943 2866
-699.761 -120.943 2866
-692.908 -120.943 2866
-686.054 -120.943 2866
-679.201 -120.943 2866
-671.409 -120.774 2862
-663.404 -120.563 2857
-656.572 -120.563 2857
-648.603 -120.352 2852
-641.783 -120.352 2852
-634.963 -120.352 2852
-629.244 -120.563 2857
-624.373 -120.943 2866
-617.52 -120.943 2866
-615.993 -121.998 2891
-612.24 -122.631 2906
-605.291 -122.631 2906
-614.402 -125.922 2984
-616.22 -127.779 3028
-615.616 -129.172 3061
-608.297 -129.172 3061
-622.77 -133.856 3172
-631.864 -137.485 3258
-627.904 -138.329 3278
-620.065 -138.329 3278
-620.631 -140.228 3323
-612.685 -140.228 3323
-604.738 -140.228 3323
-596.792 -140.228 3323
-590.086 -140.523 3330
-583.347 -140.818 3337
-575.367 -140.818 3337
-567.387 -140.818 3337
-559.408 -140.818 3337
-551.428 -140.818 3337
-546.705 -141.662 3357
-538.678 -141.662 3357
-530.65 -141.662 3357
-522.622 -141.662 3357
-515.514 -141.916 3363
-507.473 -141.916 3363
-508.787 -144.574 3426
-501.617 -144.87 3433
-493.407 -144.87 3433
-485.198 -144.87 3433
-476.989 -144.87 3433
-467.824 -144.574 3426
-459.631 -144.574 3426
-444.982 -142.506 3377
-256.914 -87.0146 2062
-251.983 -87.0146 2062
-247.052 -87.0146 2062
-241.886 -86.9302 2060
-236.96 -86.9302 2060
-232.597 -87.1412 2065
-228.21 -87.3522 2070
-223.26 -87.3522 2070
-219.892 -87.9852 2085
-215.216 -88.1118 2088
-210.223 -88.1118 2088
-205.525 -88.2384 2091
-201.004 -88.4494 2096
-196.927 -88.8714 2106
-191.891 -88.8714 2106
-186.855 -88.8714 2106
-181.819 -88.8714 2106
-178.377 -89.6732 2125
-173.296 -89.6732 2125
-168.452 -89.7998 2128
-163.747 -90.0107 2133
-159.316 -90.3905 2142
-154.193 -90.3905 2142
-149.211 -90.4749 2144
-144.823 -90.9391 2155
-139.67 -90.9391 2155
-134.516 -90.9391 2155
-129.363 -90.9391 2155
-124.21 -90.9391 2155
-119.056 -90.9391 2155
-113.48 -90.6015 2147
-108.346 -90.6015 2147
-102.972 -90.3905 2142
-97.8496 -90.3905 2142
-92.5976 -90.2639 2139
-87.3599 -90.1373 2136
-82.1365 -90.0107 2133
-77.0359 -90.0107 2133
-71.9352 -90.0107 2133
-66.7719 -89.9263 2131
-61.5892 -89.7998 2128
-56.5005 -89.7998 2128
-51.2669 -89.5466 2122
-46.1925 -89.5466 2122
-41.0794 -89.4622 2120
-36.0099 -89.4622 2120
-30.8965 -89.3356 2117
-25.8341 -89.3356 2117
-20.7717 -89.3356 2117
-15.6871 -89.209 2114
-10.6319 -89.209 2114
-5.57666 -89.209 2114
-0.521442 -89.209 2114
4.53377 -89.209 2114
9.58899 -89.209 2114
14.6442 -89.209 2114
19.6994 -89.209 2114
24.7546 -89.209 2114
29.8098 -89.209 2114
34.8321 -89.1246 2112
39.8825 -89.1246 2112
44.9755 -89.209 2114
50.0307 -89.209 2114
55.0859 -89.209 2114
60.1411 -89.209 2114
65.1964 -89.209 2114
70.2516 -89.209 2114
75.3068 -89.209 2114
80.362 -89.209 2114
85.5384 -89.3356 2117
90.7292 -89.4622 2120
95.7988 -89.4622 2120
100.868 -89.4622 2120
105.938 -89.4622 2120
111.112 -89.5466 2122
116.351 -89.6732 2125
121.432 -89.6732 2125
126.692 -89.7998 2128
131.781 -89.7998 2128
137.191 -90.0107 2133
142.292 -90.0107 2133
147.6 -90.1373 2136
152.708 -90.1373 2136
158.037 -90.2639 2139
163.152 -90.2639 2139
168.503 -90.3905 2142
173.788 -90.4749 2144
179.165 -90.6015 2147
184.299 -90.6015 2147
