-323.228 1095.23 2453
-317.362 1095.23 2453
-311.496 1095.23 2453
-303.387 1087.19 2435
-298.542 1090.76 2443
-293.06 1092.1 2446
-287.211 1092.1 2446
-281.361 1092.1 2446
-275.512 1092.1 2446
-268.891 1088.98 2439
-263.059 1088.98 2439
-256.805 1087.19 2435
-251.807 1090.76 2443
-246.971 1095.23 2453
-242.58 1101.92 2468
-236.678 1101.92 2468
-231.057 1103.26 2471
-225.148 1103.26 2471
-219.239 1103.26 2471
-213.33 1103.26 2471
-206.834 1100.14 2464
-200.697 1098.8 2461
-194.812 1098.8 2461
-188.927 1098.8 2461
-182.224 1093.89 2450
-117.075 988.964 2215
-111.778 988.964 2215
-106.481 988.964 2215
-100.956 986.731 2210
-95.0218 980.034 2195
-89.7729 980.034 2195
-84.6395 981.373 2198
-79.3834 981.373 2198
-74.1273 981.373 2198
-68.6833 978.694 2192
-63.4415 978.694 2192
-58.2794 980.034 2195
-53.0305 980.034 2195
-47.9775 984.052 2204
-42.8234 986.731 2210
-37.5386 986.731 2210
-32.2538 986.731 2210
-26.969 986.731 2210
-21.6842 986.731 2210
-16.3995 986.731 2210
-11.1147 986.731 2210
-5.79825 981.373 2198
-0.542902 982.713 2201
4.72036 982.713 2201
9.98361 982.713 2201
15.2884 985.392 2207
20.566 985.392 2207
25.8436 985.392 2207
31.1213 985.392 2207
36.3494 984.052 2204
41.6198 984.052 2204
47.1243 988.964 2215
52.421 988.964 2215
57.7177 988.964 2215
63.0145 988.964 2215
68.157 986.731 2210
73.4418 986.731 2210
78.5128 984.052 2204
83.6692 982.713 2201
88.8113 981.373 2198
94.0674 981.373 2198
99.3234 981.373 2198
104.294 978.694 2192
109.386 977.355 2189
114.62 977.355 2189
119.855 977.355 2189
125.09 977.355 2189
130.324 977.355 2189
136.116 981.373 2198
141.372 981.373 2198
147.229 985.392 2207
153.059 988.964 2215
158.356 988.964 2215
163.652 988.964 2215
168.949 988.964 2215
224.489 1050.58 2353
232.072 1059.51 2373
239.149 1065.76 2387
244.857 1065.76 2387
250.565 1065.76 2387
256.273 1065.76 2387
264.176 1074.69 2407
269.932 1074.69 2407
278.551 1085.85 2432
284.367 1085.85 2432
291.495 1090.76 2443
297.337 1090.76 2443
303.179 1090.76 2443
309.021 1090.76 2443
314.863 1090.76 2443
320.705 1090.76 2443
326.012 1088.98 2439
333.341 1093.89 2450
341.138 1100.14 2464
347.03 1100.14 2464
355.071 1106.84 2479
360.999 1106.84 2479
366.927 1106.84 2479
372.855 1106.84 2479
378.783 1106.84 2479
383.47 1103.26 2471
389.379 1103.26 2471
395.287 1103.26 2471
400.06 1100.14 2464
405.952 1100.14 2464
411.343 1098.8 2461
418.923 1103.26 2471
424.832 1103.26 2471
430.741 1103.26 2471
436.65 1103.26 2471
442.559 1103.26 2471
448.468 1103.26 2471
451.802 1097.01 2457
456.933 1095.23 2453
462.798 1095.23 2453
466.754 1090.76 2443
471.048 1087.19 2435
476.871 1087.19 2435
483.487 1088.98 2439
489.319 1088.98 2439
495.151 1088.98 2439
500.162 1087.19 2435
505.985 1087.19 2435
513.489 1090.76 2443
519.331 1090.76 2443
525.818 1092.1 2446
532.537 1093.89 2450
539.934 1097.01 2457
545.809 1097.01 2457
552.583 1098.8 2461
559.148 1100.14 2464
565.041 1100.14 2464
570.933 1100.14 2464
577.761 1101.92 2468
584.373 1103.26 2471
591.237 1105.05 2475
597.156 1105.05 2475
604.049 1106.84 2479
610.961 1108.62 2483
617.644 1109.96 2486
623.589 1109.96 2486
629.533 1109.96 2486
635.478 1109.96 2486
643.487 1113.53 2494
649.451 1113.53 2494
656.203 1114.87 2497
662.174 1114.87 2497
668.145 1114.87 2497
674.117 1114.87 2497
680.088 1114.87 2497
686.059 1114.87 2497
692.03 1114.87 2497
699.119 1116.66 2501
705.1 1116.66 2501
711.08 1116.66 2501
721.362 1123.36 2516
727.378 1123.36 2516
733.395 1123.36 2516
740.587 1125.14 2520
746.613 1125.14 2520
752.639 1125.14 2520
758.665 1125.14 2520
762.263 1121.57 2512
768.27 1121.57 2512
774.277 1121.57 2512
780.284 1121.57 2512
786.291 1121.57 2512
791.352 1120.23 2509
797.352 1120.23 2509
803.352 1120.23 2509
809.351 1120.23 2509
809.177 1111.75 2490
815.131 1111.75 2490
821.085 1111.75 2490
823.386 1106.84 2479
827.976 1105.05 2475
832.547 1103.26 2471
838.456 1103.26 2471
839.581 1097.01 2457
840.639 1090.76 2443
849.946 1095.23 2453
864.882 1106.84 2479
870.81 1106.84 2479
878.153 1108.62 2483
884.091 1108.62 2483
890.028 1108.62 2483
893.079 1105.05 2475
898.998 1105.05 2475
903.454 1103.26 2471
910.835 1105.05 2475
919.716 1108.62 2483
925.654 1108.62 2483
934.218 1111.75 2490
945.836 1118.44 2505
954.486 1121.57 2512
960.493 1121.57 2512
968.039 1123.36 2516
974.055 1123.36 2516
981.63 1125.14 2520
987.656 1125.14 2520
993.682 1125.14 2520
999.708 1125.14 2520
1005.73 1125.14 2520
1011.76 1125.14 2520
1010.11 1116.66 2501
1011.62 1111.75 2490
1019.21 1113.53 2494
1025.18 1113.53 2494
1034.04 1116.66 2501
1043.34 1120.23 2509
1053.94 1125.14 2520
1059.97 1125.14 2520
1066 1125.14 2520
1075.42 1128.71 2528
1081.47 1128.71 2528
1087.52 1128.71 2528
1091.83 1126.93 2524
1096.13 1125.14 2520
1098.65 1121.57 2512
1104.66 1121.57 2512
1107.57 1118.44 2505
1110.01 1114.87 2497
1112.85 1111.75 2490
1121.95 1114.87 2497
1127.92 1114.87 2497
1137.52 1118.44 2505
1143.51 1118.44 2505
1149.5 1118.44 2505
1151.8 1114.87 2497
1156.38 1113.53 2494
1158.62 1109.96 2486
1164.56 1109.96 2486
1167.21 1106.84 2479
1171.25 1105.05 2475
1173.84 1101.92 2468
1176.39 1098.8 2461
1182.28 1098.8 2461
1174.16 1085.85 2432
1179.98 1085.85 2432
1201.4 1100.14 2464
1212.68 1105.05 2475
1218.6 1105.05 2475
1231.94 1111.75 2490
1237.89 1111.75 2490
1243.84 1111.75 2490
1249.8 1111.75 2490
1255.75 1111.75 2490
1258.16 1108.62 2483
1273.26 1116.66 2501
1279.24 1116.66 2501
1289.33 1120.23 2509
1303.08 1126.93 2524
1314.82 1131.84 2535
1320.88 1131.84 2535
1326.94 1131.84 2535
1333 1131.84 2535
1339.07 1131.84 2535
1343.54 1130.5 2532
1349.59 1130.5 2532
1363.68 1137.2 2547
1369.77 1137.2 2547
1375.86 1137.2 2547
1381.95 1137.2 2547
1385.86 1135.41 2543
1391.94 1135.41 2543
1398.02 1135.41 2543
1404.1 1135.41 2543
1410.18 1135.41 2543
1414.04 1133.62 2539
1420.11 1133.62 2539
1417.75 1126.93 2524
1421.53 1125.14 2520
1423.03 1121.57 2512
1429.04 1121.57 2512
1435.04 1121.57 2512
1439.33 1120.23 2509
1445.33 1120.23 2509
1451.33 1120.23 2509
1457.33 1120.23 2509
1463.33 1120.23 2509
1471.08 1121.57 2512
1479.44 1123.36 2516
1485.46 1123.36 2516
1491.48 1123.36 2516
1497.49 1123.36 2516
1499.33 1120.23 2509
1505.33 1120.23 2509
1506.51 1116.66 2501
1512.49 1116.66 2501
1525.15 1121.57 2512
1543.34 1130.5 2532
1549.4 1130.5 2532
1555.45 1130.5 2532
1561.51 1130.5 2532
1565.09 1128.71 2528
1571.13 1128.71 2528
1567.2 1121.57 2512
1573.2 1121.57 2512
1579.21 1121.57 2512
1585.22 1121.57 2512
1589.32 1120.23 2509
1590.24 1116.66 2501
1586.64 1109.96 2486
1592.59 1109.96 2486
1586.96 1101.92 2468
1583.18 1095.23 2453
1589.04 1095.23 2453
1597.51 1097.01 2457
1603.39 1097.01 2457
1609.26 1097.01 2457
1607.91 1092.1 2446
1609.14 1088.98 2439
1614.97 1088.98 2439
1611.5 1082.73 2425
1612.63 1079.6 2418
1623.1 1082.73 2425
1638.3 1088.98 2439
1644.13 1088.98 2439
1657.41 1093.89 2450
1668.02 1097.01 2457
1673.89 1097.01 2457
1679.77 1097.01 2457
1685.64 1097.01 2457
1688.76 1095.23 2453
1694.63 1095.23 2453
1700.5 1095.23 2453
1706.36 1095.23 2453
1702.46 1088.98 2439
1700.58 1084.06 2428
1706.39 1084.06 2428
1712.2 1084.06 2428
1718 1084.06 2428
1726.65 1085.85 2432
1732.46 1085.85 2432
1738.28 1085.85 2432
1744.09 1085.85 2432
1718.81 1059.51 2373
1724.48 1059.51 2373
1732.34 1060.85 2376
1743.15 1063.97 2383
1748.84 1063.97 2383
1754.54 1063.97 2383
1760.24 1063.97 2383
1836.02 1092.1 2446
1841.87 1092.1 2446
1847.72 1092.1 2446
1856.6 1093.89 2450
1862.46 1093.89 2450
1868.32 1093.89 2450
1846.64 1077.81 2414
-1834.38 1099.76 2450
-1828.52 1099.76 2450
-1836.05 1107.84 2468
-1830.15 1107.84 2468
-1826.46 1109.18 2471
-1820.55 1109.18 2471
-1814.64 1109.18 2471
-1806.54 1107.84 2468
-1797.72 1106.04 2464
-1783.83 1101.1 2453
-1757.67 1088.53 2425
-1751.87 1088.53 2425
-1735.99 1082.25 2411
-1702.95 1065.19 2373
-1685.12 1057.56 2356
-1679.49 1057.56 2356
-1669.59 1054.87 2350
-1685.21 1068.33 2380
-1679.52 1068.33 2380
-1673.83 1068.33 2380
-1668.14 1068.33 2380
-1657.56 1065.19 2373
-1637.96 1056.22 2353
-1632.33 1056.22 2353
-1619.79 1051.73 2343
-1612.12 1050.38 2340
-1597.6 1044.54 2327
-1592.04 1044.54 2327
-1586.47 1044.54 2327
-1584.99 1047.24 2333
-1579.41 1047.24 2333
-1585.3 1054.87 2350
-1579.68 1054.87 2350
-1578.08 1057.56 2356
-1583.79 1065.19 2373
-1578.11 1065.19 2373
-1572.44 1065.19 2373
-1536.39 1044.54 2327
-1522.28 1038.71 2314
-1516.74 1038.71 2314
-1511.21 1038.71 2314
-1516.09 1045.89 2330
-1518.94 1051.73 2343
-1524.32 1059.36 2360
-1518.68 1059.36 2360
-1527.78 1069.68 2383
-1522.08 1069.68 2383
-1516.38 1069.68 2383
-1508.78 1068.33 2380
-1490.46 1059.36 2360
-1476.01 1053.07 2346
-1470.4 1053.07 2346
-1461.04 1050.38 2340
-1453.58 1049.03 2337
-1451.71 1051.73 2343
-1456.6 1059.36 2360
-1450.96 1059.36 2360
-1447.15 1060.7 2363
-1445.77 1063.85 2370
-1440.1 1063.85 2370
-1434.43 1063.85 2370
-1428.77 1063.85 2370
-1412.89 1056.22 2353
-1405.47 1054.87 2350
-1399.85 1054.87 2350
-1394.23 1054.87 2350
-1394.52 1059.36 2360
-1388.88 1059.36 2360
-1383.23 1059.36 2360
-1377.59 1059.36 2360
-1356.25 1047.24 2333
-1350.67 1047.24 2333
-1345.09 1047.24 2333
-1339.51 1047.24 2333
-1254.74 993.372 2213
-1249.45 993.372 2213
-1244.16 993.372 2213
-1238.86 993.372 2213
-1233.57 993.372 2213
-1214.96 982.599 2189
-1219.67 990.679 2207
-1240.26 1011.78 2254
-1245.27 1020.3 2273
-1239.84 1020.3 2273
-1236.03 1021.65 2276
-1230.59 1021.65 2276
-1225.15 1021.65 2276
-1219.71 1021.65 2276
-1214.26 1021.65 2276
-1208.82 1021.65 2276
-1203.38 1021.65 2276
-1197.93 1021.65 2276
-1195.64 1024.34 2282
-1190.18 1024.34 2282
-1191.47 1030.18 2295
-1185.98 1030.18 2295
-1186.67 1035.57 2307
-1181.15 1035.57 2307
-1180.73 1040.06 2317
-1175.19 1040.06 2317
-1179.74 1049.03 2337
-1175.66 1050.38 2340
-1171.57 1051.73 2343
-1165.97 1051.73 2343
-1165.31 1056.22 2353
-1169.55 1065.19 2373
-1170.74 1071.48 2387
-1165.03 1071.48 2387
-1159.32 1071.48 2387
-1153.61 1071.48 2387
-1147.9 1071.48 2387
-1140.28 1069.68 2383
-1133.16 1068.33 2380
-1127.46 1068.33 2380
-1121.77 1068.33 2380
-1114.21 1066.54 2376
-1105.73 1063.85 2370
-1100.06 1063.85 2370
-1094.39 1063.85 2370
-1088.72 1063.85 2370
-1083.06 1063.85 2370
-1077.39 1063.85 2370
-1071.72 1063.85 2370
-1066.05 1063.85 2370
-1060.39 1063.85 2370
-1050.27 1059.36 2360
-1044.62 1059.36 2360
-1038.98 1059.36 2360
-1033.34 1059.36 2360
-1027.69 1059.36 2360
-1028.98 1066.54 2376
-1023.3 1066.54 2376
-1017.62 1066.54 2376
-1016.62 1071.48 2387
-1010.91 1071.48 2387
-1005.2 1071.48 2387
-997.821 1069.68 2383
-987.959 1065.19 2373
-979.387 1062.05 2366
-973.729 1062.05 2366
-965.616 1059.36 2360
-964.041 1063.85 2370
-960.799 1066.54 2376
-957.932 1069.68 2383
-952.233 1069.68 2383
-946.535 1069.68 2383
-940.836 1069.68 2383
-936.707 1071.48 2387
-930.999 1071.48 2387
-934.595 1082.25 2411
-928.829 1082.25 2411
-923.064 1082.25 2411
-917.298 1082.25 2411
-903.593 1072.82 2390
-896.751 1071.48 2387
-891.043 1071.48 2387
-885.335 1071.48 2387
-879.627 1071.48 2387
-873.919 1071.48 2387
-868.211 1071.48 2387
-862.503 1071.48 2387
-855.359 1069.68 2383
-849.661 1069.68 2383
-843.962 1069.68 2383
-838.264 1069.68 2383
-832.565 1069.68 2383
-826.867 1069.68 2383
-822.547 1071.48 2387
-816.839 1071.48 2387
-811.131 1071.48 2387
-805.422 1071.48 2387
-799.714 1071.48 2387
-794.006 1071.48 2387
-786.977 1069.68 2383
-775.705 1062.05 2366
-769.071 1060.7 2363
-763.421 1060.7 2363
-755.525 1057.56 2356
-749.891 1057.56 2356
-741.098 1053.07 2346
-735.488 1053.07 2346
-728.012 1050.38 2340
-722.416 1050.38 2340
-716.82 1050.38 2340
-713.048 1053.07 2346
-707.438 1053.07 2346
-703.025 1054.87 2350
-697.405 1054.87 2350
-693.552 1057.56 2356
-687.918 1057.56 2356
-682.284 1057.56 2356
-674.927 1054.87 2350
-669.308 1054.87 2350
-663.688 1054.87 2350
-658.909 1056.22 2353
-656.891 1062.05 2366
-652.334 1063.85 2370
-646.667 1063.85 2370
-644.516 1069.68 2383
-645.251 1080.45 2407
-643.214 1086.74 2421
-637.425 1086.74 2421
-635.288 1093.02 2435
-634.119 1101.1 2453
-629.277 1102.9 2457
-623.402 1102.9 2457
-617.526 1102.9 2457
-611.651 1102.9 2457
-605.776 1102.9 2457
-599.9 1102.9 2457
-594.025 1102.9 2457
-586.474 1099.76 2450
-580.615 1099.76 2450
-574.756 1099.76 2450
-568.898 1099.76 2450
-563.039 1099.76 2450
-557.18 1099.76 2450
-551.321 1099.76 2450
-545.463 1099.76 2450
-538.723 1097.96 2446
-532.874 1097.96 2446
-525.517 1094.82 2439
-519.684 1094.82 2439
-513.852 1094.82 2439
-507.186 1093.02 2435
-501.363 1093.02 2435
-495.541 1093.02 2435
-489.718 1093.02 2435
-483.895 1093.02 2435
-478.072 1093.02 2435
-471.667 1091.68 2432
-465.852 1091.68 2432
-456.631 1083.6 2414
-450.859 1083.6 2414
-444.533 1082.25 2411
-440.587 1086.74 2421
-436.055 1089.88 2428
-430.958 1091.68 2432
-425.142 1091.68 2432
-420.534 1094.82 2439
-418.442 1104.69 2461
-413.06 1106.04 2464
-407.168 1106.04 2464
-401.275 1106.04 2464
-394.902 1104.69 2461
-389.017 1104.69 2461
-381.419 1099.76 2450
-374.488 1096.61 2443
-368.646 1096.61 2443
-362.804 1096.61 2443
-356.962 1096.61 2443
-351.551 1097.96 2446
-346.267 1099.76 2450
-340.408 1099.76 2450
-334.55 1099.76 2450
-328.691 1099.76 2450
-322.832 1099.76 2450
-316.974 1099.76 2450
-310.226 1096.61 2443
-303.387 1093.02 2435
-297.198 1091.68 2432
-291.742 1093.02 2435
-285.919 1093.02 2435
-280.096 1093.02 2435
-273.147 1088.53 2425
-266.907 1086.74 2421
-261.118 1086.74 2421
-255.328 1086.74 2421
-250.982 1093.02 2435
-246.267 1097.96 2446
-241.106 1101.1 2453
-235.24 1101.1 2453
-230.402 1106.04 2464
-224.51 1106.04 2464
-218.618 1106.04 2464
-212.726 1106.04 2464
-206.582 1104.69 2461
-198.577 1093.02 2435
-192.754 1093.02 2435
-186.931 1093.02 2435
-180.885 1091.68 2432
-116.81 992.025 2210
-111.525 992.025 2210
-106.241 992.025 2210
-100.956 992.025 2210
-94.5456 980.354 2184
-89.4048 981.252 2186
-84.4085 983.945 2192
-79.1667 983.945 2192
-73.925 983.945 2192
-68.4953 981.252 2186
-63.21 980.354 2184
-58.2794 985.292 2195
-53.0305 985.292 2195
-47.8469 986.639 2198
-42.8234 992.025 2210
-37.5386 992.025 2210
-32.2538 992.025 2210
-26.969 992.025 2210
-21.6842 992.025 2210
-16.3995 992.025 2210
-11.1147 992.025 2210
-5.79825 986.639 2198
-0.542902 987.985 2201
4.72036 987.985 2201
9.98361 987.985 2201
15.2884 990.679 2207
20.566 990.679 2207
25.8436 990.679 2207
31.1213 990.679 2207
36.2504 986.639 2198
41.5632 987.985 2201
47.0817 993.372 2213
52.3737 993.372 2213
57.6656 993.372 2213
62.9576 993.372 2213
67.972 989.332 2204
73.2424 989.332 2204
78.406 987.985 2201
83.5552 986.639 2198
88.5688 983.945 2192
93.8106 983.945 2192
98.9167 982.599 2189
104.151 982.599 2189
109.136 980.354 2184
114.359 980.354 2184
119.581 980.354 2184
124.804 980.354 2184
130.026 980.354 2184
135.373 981.252 2186
140.6 981.252 2186
146.028 982.599 2189
152.092 987.985 2201
157.998 992.025 2210
163.283 992.025 2210
168.568 992.025 2210
224.203 1054.87 2350
230.8 1059.36 2360
237.746 1065.19 2373
243.421 1065.19 2373
250.145 1069.68 2383
255.844 1069.68 2383
261.542 1069.68 2383
267.241 1069.68 2383
275.688 1080.45 2407
283.081 1086.74 2421
288.87 1086.74 2421
294.659 1086.74 2421
300.449 1086.74 2421
308.009 1093.02 2435
313.832 1093.02 2435
319.655 1093.02 2435
325.076 1091.68 2432
332.389 1096.61 2443
339.2 1099.76 2450
345.059 1099.76 2450
352.493 1104.69 2461
358.378 1104.69 2461
365.743 1109.18 2471
371.652 1109.18 2471
377.561 1109.18 2471
381.918 1104.69 2461
387.803 1104.69 2461
393.688 1104.69 2461
399.573 1104.69 2461
404.799 1102.9 2457
410.006 1101.1 2453
415.871 1101.1 2453
421.737 1101.1 2453
428.3 1102.9 2457
434.176 1102.9 2457
440.051 1102.9 2457
445.201 1101.1 2453
449.228 1096.61 2443
454.325 1094.82 2439
460.157 1094.82 2439
464.652 1091.68 2432
470.468 1091.68 2432
476.283 1091.68 2432
482.694 1093.02 2435
488.517 1093.02 2435
494.339 1093.02 2435
498.724 1089.88 2428
504.53 1089.88 2428
511.808 1093.02 2435
517.631 1093.02 2435
524.313 1094.82 2439
531.667 1097.96 2446
538.395 1099.76 2450
544.254 1099.76 2450
551.685 1102.9 2457
558.468 1104.69 2461
564.353 1104.69 2461
570.238 1104.69 2461
576.825 1106.04 2464
583.663 1107.84 2468
590.281 1109.18 2471
596.19 1109.18 2471
602.099 1109.18 2471
608.992 1110.98 2475
614.911 1110.98 2475
620.829 1110.98 2475
626.748 1110.98 2475
632.666 1110.98 2475
638.585 1110.98 2475
644.503 1110.98 2475
650.422 1110.98 2475
656.34 1110.98 2475
662.259 1110.98 2475
668.177 1110.98 2475
673.006 1109.18 2471
678.091 1107.84 2468
683.993 1107.84 2468
690.733 1109.18 2471
696.642 1109.18 2471
704.825 1112.77 2479
712.76 1115.92 2486
719.862 1117.71 2490
725.816 1117.71 2490
731.77 1117.71 2490
737.725 1117.71 2490
745.77 1120.85 2497
751.741 1120.85 2497
757.712 1120.85 2497
762.765 1119.51 2494
768.729 1119.51 2494
774.693 1119.51 2494
780.657 1119.51 2494
785.359 1117.71 2490
791.314 1117.71 2490
797.268 1117.71 2490
803.222 1117.71 2490
805.602 1112.77 2479
811.53 1112.77 2479
817.458 1112.77 2479
819.733 1107.84 2468
825.634 1107.84 2468
830.188 1106.04 2464
836.081 1106.04 2464
839.581 1102.9 2457
836.854 1091.68 2432
849.946 1101.1 2453
867.325 1115.92 2486
873.269 1115.92 2486
879.214 1115.92 2486
885.159 1115.92 2486
891.104 1115.92 2486
893.079 1110.98 2475
898.998 1110.98 2475
903.454 1109.18 2471
910.835 1110.98 2475
919.716 1114.57 2483
925.654 1114.57 2483
934.218 1117.71 2490
945.836 1124.44 2505
954.486 1127.59 2512
960.493 1127.59 2512
968.039 1129.38 2516
974.055 1129.38 2516
981.63 1131.18 2520
987.656 1131.18 2520
993.682 1131.18 2520
999.708 1131.18 2520
1005.73 1131.18 2520
1011.76 1131.18 2520
1010.11 1122.65 2501
1011.62 1117.71 2490
1019.21 1119.51 2494
1025.18 1119.51 2494
1034.04 1122.65 2501
1043.34 1126.24 2509
1053.94 1131.18 2520
1059.97 1131.18 2520
1066 1131.18 2520
1075.42 1134.77 2528
1081.47 1134.77 2528
1087.52 1134.77 2528
1091.83 1132.97 2524
1096.13 1131.18 2520
1098.65 1127.59 2512
1104.66 1127.59 2512
1107.57 1124.44 2505
1110.01 1120.85 2497
1112.85 1117.71 2490
1121.95 1120.85 2497
1127.92 1120.85 2497
1137.52 1124.44 2505
1143.51 1124.44 2505
1149.5 1124.44 2505
1151.8 1120.85 2497
1156.38 1119.51 2494
1158.62 1115.92 2486
1164.56 1115.92 2486
1167.21 1112.77 2479
1171.25 1110.98 2475
1173.84 1107.84 2468
1176.39 1104.69 2461
1182.28 1104.69 2461
1174.16 1091.68 2432
1179.98 1091.68 2432
1201.4 1106.04 2464
1212.68 1110.98 2475
1218.6 1110.98 2475
1231.94 1117.71 2490
1237.89 1117.71 2490
1243.84 1117.71 2490
1249.8 1117.71 2490
1255.75 1117.71 2490
1258.16 1114.57 2483
1273.26 1122.65 2501
1279.24 1122.65 2501
1289.33 1126.24 2509
1303.08 1132.97 2524
1314.82 1137.91 2535
1320.88 1137.91 2535
1326.94 1137.91 2535
1333 1137.91 2535
1339.07 1137.91 2535
1343.54 1136.56 2532
1349.59 1136.56 2532
1363.68 1143.3 2547
1369.77 1143.3 2547
1375.86 1143.3 2547
1381.95 1143.3 2547
1385.86 1141.5 2543
1391.94 1141.5 2543
1398.02 1141.5 2543
1404.1 1141.5 2543
1410.18 1141.5 2543
1414.04 1139.71 2539
1420.11 1139.71 2539
1417.75 1132.97 2524
1421.53 1131.18 2520
1423.03 1127.59 2512
1429.04 1127.59 2512
1435.04 1127.59 2512
1439.33 1126.24 2509
1445.33 1126.24 2509
1451.33 1126.24 2509
1457.33 1126.24 2509
1463.33 1126.24 2509
1471.08 1127.59 2512
1479.44 1129.38 2516
1485.46 1129.38 2516
1491.48 1129.38 2516
1497.49 1129.38 2516
1499.33 1126.24 2509
1505.33 1126.24 2509
1506.51 1122.65 2501
1512.49 1122.65 2501
1518.47 1122.65 2501
1536.03 1131.18 2520
1542.06 1131.18 2520
1548.08 1131.18 2520
1554.11 1131.18 2520
1550.85 1124.44 2505
1556.84 1124.44 2505
1555.97 1119.51 2494
1559.42 1117.71 2490
1562.86 1115.92 2486
1568.81 1115.92 2486
1572.85 1114.57 2483
1571.16 1109.18 2471
1568.13 1102.9 2457
1574.01 1102.9 2457
1568.31 1094.82 2439
1571.56 1093.02 2435
1587.1 1099.76 2450
1592.96 1099.76 2450
1598.82 1099.76 2450
1604.68 1099.76 2450
1603.31 1094.82 2439
1599.9 1088.53 2425
1605.7 1088.53 2425
1611.5 1088.53 2425
1607.96 1082.25 2411
1618.41 1085.39 2418
1633.6 1091.68 2432
1639.41 1091.68 2432
1649.96 1094.82 2439
1665.3 1101.1 2453
1671.17 1101.1 2453
1677.03 1101.1 2453
1682.9 1101.1 2453
1688.76 1101.1 2453
1694.63 1101.1 2453
1700.5 1101.1 2453
1686.88 1088.53 2425
1692.68 1088.53 2425
1700.58 1089.88 2428
1706.39 1089.88 2428
1712.2 1089.88 2428
1718 1089.88 2428
1726.65 1091.68 2432
1732.46 1091.68 2432
1738.28 1091.68 2432
1744.09 1091.68 2432
1734.8 1082.25 2411
1740.57 1082.25 2411
1731.12 1072.82 2390
1724.48 1065.19 2373
1732.34 1066.54 2376
1743.15 1069.68 2383
1753.98 1072.82 2390
1759.7 1072.82 2390
1777.97 1080.45 2407
1786.69 1082.25 2411
1792.45 1082.25 2411
1798.22 1082.25 2411
1803.99 1082.25 2411
1836.02 1097.96 2446
1841.87 1097.96 2446
1847.72 1097.96 2446
1853.57 1097.96 2446
1859.42 1097.96 2446
1865.27 1097.96 2446
1846.64 1083.6 2414
-1826.14 1100.66 2439
-1820.31 1100.66 2439
-1830.84 1110.59 2461
-1824.96 1110.59 2461
-1824.25 1113.75 2468
-1818.34 1113.75 2468
-1812.44 1113.75 2468
-1803.61 1111.94 2464
-1797.72 1111.94 2464
-1783.83 1106.98 2453
-1757.67 1094.34 2425
-1751.87 1094.34 2425
-1725.91 1081.71 2397
-1702.95 1070.88 2373
-1685.12 1063.21 2356
-1679.49 1063.21 2356
-1669.59 1060.5 2350
-1685.21 1074.04 2380
-1679.52 1074.04 2380
-1673.83 1074.04 2380
-1668.14 1074.04 2380
-1657.56 1070.88 2373
-1637.96 1061.85 2353
-1632.33 1061.85 2353
-1619.79 1057.34 2343
-1612.12 1055.99 2340
-1597.6 1050.12 2327
-1592.04 1050.12 2327
-1586.47 1050.12 2327
-1580.91 1050.12 2327
-1575.35 1050.12 2327
-1569.78 1050.12 2327
-1561.53 1048.31 2323
-1558.65 1050.12 2327
-1553.09 1050.12 2327
-1547.52 1050.12 2327
-1541.96 1050.12 2327
-1536.39 1050.12 2327
-1522.28 1044.25 2314
-1516.74 1044.25 2314
-1511.21 1044.25 2314
-1505.68 1044.25 2314
-1510.52 1051.47 2330
-1511.4 1055.99 2340
-1505.81 1055.99 2340
-1500.21 1055.99 2340
-1494.62 1055.99 2340
-1489.02 1055.99 2340
-1483.42 1055.99 2340
-1477.83 1055.99 2340
-1467.83 1052.83 2333
-1462.25 1052.83 2333
-1454.8 1051.47 2330
-1449.23 1051.47 2330
-1443.65 1051.47 2330
-1446.11 1057.34 2343
-1440.5 1057.34 2343
-1434.9 1057.34 2343
-1429.3 1057.34 2343
-1423.7 1057.34 2343
-1418.09 1057.34 2343
-1410.68 1055.99 2340
-1405.09 1055.99 2340
-1391.71 1050.12 2327
-1386.15 1050.12 2327
-1374.65 1045.61 2317
-1367.34 1044.25 2314
-1355.92 1039.74 2304
-1350.41 1039.74 2304
-1344.9 1039.74 2304
-1328.35 1031.16 2285
-1330.41 1037.03 2298
-1324.91 1037.03 2298
-1319.42 1037.03 2298
-1254.74 998.673 2213
-1249.45 998.673 2213
-1244.16 998.673 2213
-1238.86 998.673 2213
-1233.57 998.673 2213
-1214.96 987.842 2189
-1219.67 995.965 2207
-1240.26 1017.18 2254
-1245.27 1025.75 2273
-1239.84 1025.75 2273
-1236.03 1027.1 2276
-1230.59 1027.1 2276
-1225.15 1027.1 2276
-1219.71 1027.1 2276
-1214.26 1027.1 2276
-1208.82 1027.1 2276
-1203.38 1027.1 2276
-1197.93 1027.1 2276
-1195.64 1029.81 2282
-1190.18 1029.81 2282
-1191.47 1035.68 2295
-1185.98 1035.68 2295
-1186.67 1041.09 2307
-1181.15 1041.09 2307
-1180.73 1045.61 2317
-1175.19 1045.61 2317
-1179.74 1054.63 2337
-1175.66 1055.99 2340
-1171.57 1057.34 2343
-1165.97 1057.34 2343
-1165.31 1061.85 2353
-1169.55 1070.88 2373
-1170.74 1077.2 2387
-1165.03 1077.2 2387
-1159.32 1077.2 2387
-1153.61 1077.2 2387
-1147.9 1077.2 2387
-1140.28 1075.39 2383
-1131.25 1072.23 2376
-1125.57 1072.23 2376
-1119.89 1072.23 2376
-1112.8 1070.88 2373
-1105.73 1069.52 2370
-1100.06 1069.52 2370
-1094.39 1069.52 2370
-1088.72 1069.52 2370
-1083.06 1069.52 2370
-1077.39 1069.52 2370
-1071.72 1069.52 2370
-1066.05 1069.52 2370
-1060.39 1069.52 2370
-1050.27 1065.01 2360
-1044.62 1065.01 2360
-1038.98 1065.01 2360
-1033.34 1065.01 2360
-1027.69 1065.01 2360
-1028.98 1072.23 2376
-1023.3 1072.23 2376
-1017.62 1072.23 2376
-1016.62 1077.2 2387
-1010.91 1077.2 2387
-1005.2 1077.2 2387
-997.821 1075.39 2383
-987.959 1070.88 2373
-979.387 1067.72 2366
-973.729 1067.72 2366
-965.616 1065.01 2360
-964.041 1069.52 2370
-960.799 1072.23 2376
-957.932 1075.39 2383
-952.233 1075.39 2383
-946.535 1075.39 2383
-940.836 1075.39 2383
-936.707 1077.2 2387
-930.999 1077.2 2387
-934.595 1088.03 2411
-928.829 1088.03 2411
-923.064 1088.03 2411
-917.298 1088.03 2411
-903.593 1078.55 2390
-896.751 1077.2 2387
-891.043 1077.2 2387
-885.335 1077.2 2387
-879.627 1077.2 2387
-873.919 1077.2 2387
-868.211 1077.2 2387
-862.503 1077.2 2387
-855.359 1075.39 2383
-849.661 1075.39 2383
-843.962 1075.39 2383
-838.264 1075.39 2383
-832.565 1075.39 2383
-826.867 1075.39 2383
-822.547 1077.2 2387
-816.839 1077.2 2387
-811.131 1077.2 2387
-805.422 1077.2 2387
-799.714 1077.2 2387
-794.006 1077.2 2387
-786.977 1075.39 2383
-775.705 1067.72 2366
-769.071 1066.36 2363
-763.421 1066.36 2363
-755.525 1063.21 2356
-749.891 1063.21 2356
-741.098 1058.69 2346
-735.488 1058.69 2346
-728.012 1055.99 2340
-722.416 1055.99 2340
-716.82 1055.99 2340
-713.048 1058.69 2346
-707.438 1058.69 2346
-703.025 1060.5 2350
-697.405 1060.5 2350
-693.552 1063.21 2356
-687.918 1063.21 2356
-682.284 1063.21 2356
-674.927 1060.5 2350
-669.308 1060.5 2350
-663.688 1060.5 2350
-658.909 1061.85 2353
-656.891 1067.72 2366
-652.334 1069.52 2370
-646.667 1069.52 2370
-644.516 1075.39 2383
-645.251 1086.22 2407
-643.214 1092.54 2421
-637.425 1092.54 2421
-635.288 1098.86 2435
-634.119 1106.98 2453
-629.277 1108.78 2457
-623.402 1108.78 2457
-617.526 1108.78 2457
-611.651 1108.78 2457
-605.776 1108.78 2457
-599.9 1108.78 2457
-594.025 1108.78 2457
-586.474 1105.63 2450
-580.615 1105.63 2450
-574.756 1105.63 2450
-568.898 1105.63 2450
-563.039 1105.63 2450
-557.18 1105.63 2450
-551.321 1105.63 2450
-545.463 1105.63 2450
-538.723 1103.82 2446
-532.874 1103.82 2446
-525.517 1100.66 2439
-519.684 1100.66 2439
-513.852 1100.66 2439
-507.186 1098.86 2435
-501.363 1098.86 2435
-494.93 1097.5 2432
-487.707 1094.34 2425
-481.908 1094.34 2425
-476.109 1094.34 2425
-469.534 1092.54 2421
-462.404 1089.38 2414
-455.307 1086.22 2407
-449.551 1086.22 2407
-441.952 1081.71 2397
-437.494 1084.87 2404
-433.002 1088.03 2411
-427.768 1089.38 2414
-421.996 1089.38 2414
-418.637 1095.7 2428
-414.701 1100.66 2439
-408.869 1100.66 2439
-403.036 1100.66 2439
-397.204 1100.66 2439
-390.248 1097.5 2432
-384.433 1097.5 2432
-377.994 1095.7 2428
-370.042 1089.38 2414
-363.817 1088.03 2411
-358.497 1089.38 2414
-352.724 1089.38 2414
-346.952 1089.38 2414
-342.734 1094.34 2425
-338.324 1098.86 2435
-332.502 1098.86 2435
-326.679 1098.86 2435
-320.856 1098.86 2435
-315.033 1098.86 2435
-309.21 1098.86 2435
-300.771 1089.38 2414
-294.632 1088.03 2411
-288.866 1088.03 2411
-283.101 1088.03 2411
-276.875 1086.22 2407
-270.782 1084.87 2404
-265.033 1084.87 2404
-260.363 1089.38 2414
-254.59 1089.38 2414
-248.817 1089.38 2414
-244.152 1094.34 2425
-239.73 1100.66 2439
-233.897 1100.66 2439
-228.065 1100.66 2439
-222.232 1100.66 2439
-216.4 1100.66 2439
-210.222 1098.86 2435
-203.224 1092.54 2421
-197.761 1094.34 2425
-191.962 1094.34 2425
-186.163 1094.34 2425
-180.364 1094.34 2425
-120.769 986.489 2186
-116.81 997.319 2210
-111.525 997.319 2210
-106.241 997.319 2210
-100.271 990.55 2195
-94.5456 985.586 2184
-89.323 985.586 2184
-84.2929 987.842 2189
-79.0584 987.842 2189
-73.8238 987.842 2189
-68.3386 984.232 2181
-63.1232 984.232 2181
-57.9874 985.586 2184
-52.7648 985.586 2184
-47.8469 991.904 2198
-42.5908 991.904 2198
-37.5386 997.319 2210
-32.2538 997.319 2210
-26.969 997.319 2210
-21.6842 997.319 2210
-16.3995 997.319 2210
-11.0392 990.55 2195
-5.79033 990.55 2195
-0.542162 991.904 2198
4.72036 993.258 2201
9.98361 993.258 2201
15.2469 993.258 2201
20.5101 993.258 2201
25.7734 993.258 2201
30.952 990.55 2195
36.201 990.55 2195
41.5065 991.904 2198
46.9541 995.965 2207
52.2317 995.965 2207
57.5093 995.965 2207
62.7869 995.965 2207
67.8795 993.258 2201
73.1427 993.258 2201
78.2991 991.904 2198
83.3271 989.196 2192
88.4476 987.842 2189
93.6822 987.842 2189
98.9167 987.842 2189
104.009 986.489 2186
108.986 984.232 2181
114.202 984.232 2181
119.417 984.232 2181
124.118 980.171 2172
129.312 980.171 2172
135.249 985.586 2184
140.472 985.586 2184
145.828 986.489 2186
151.262 987.842 2189
156.497 987.842 2189
161.731 987.842 2189
166.737 986.489 2186
223.249 1055.99 2340
229.431 1058.69 2346
236.043 1063.21 2356
241.677 1063.21 2356
247.311 1063.21 2356
254.018 1067.72 2366
260.115 1069.52 2370
265.783 1069.52 2370
273.741 1078.55 2390
279.807 1079.9 2393
286.364 1083.06 2400
292.104 1083.06 2400
298.339 1084.87 2404
304.088 1084.87 2404
310.223 1086.22 2407
315.979 1086.22 2407
322.67 1089.38 2414
328.443 1089.38 2414
335.185 1092.54 2421
342.946 1098.86 2435
348.769 1098.86 2435
354.592 1098.86 2435
361.599 1102.47 2443
367.44 1102.47 2443
373.282 1102.47 2443
379.124 1102.47 2443
384.966 1102.47 2443
390.808 1102.47 2443
396.001 1100.66 2439
401.833 1100.66 2439
406.997 1098.86 2435
413.498 1100.66 2439
419.33 1100.66 2439
425.163 1100.66 2439
430.995 1100.66 2439
436.828 1100.66 2439
441.934 1098.86 2435
447.757 1098.86 2435
452.276 1095.7 2428
458.082 1095.7 2428
463.888 1095.7 2428
470.468 1097.5 2432
476.283 1097.5 2432
482.099 1097.5 2432
487.915 1097.5 2432
493.73 1097.5 2432
498.724 1095.7 2428
504.53 1095.7 2428
510.336 1095.7 2428
516.143 1095.7 2428
522.809 1097.5 2432
530.146 1100.66 2439
538.395 1105.63 2450
544.254 1105.63 2450
550.113 1105.63 2450
555.971 1105.63 2450
561.83 1105.63 2450
567.689 1105.63 2450
574.25 1106.98 2453
581.062 1108.78 2457
586.937 1108.78 2457
592.813 1108.78 2457
598.688 1108.78 2457
603.579 1106.98 2453
609.445 1106.98 2453
615.311 1106.98 2453
617.632 1100.66 2439
625.253 1103.82 2446
631.102 1103.82 2446
637.993 1105.63 2450
643.852 1105.63 2450
649.711 1105.63 2450
655.569 1105.63 2450
661.428 1105.63 2450
664.291 1100.66 2439
670.123 1100.66 2439
674.015 1097.5 2432
679.831 1097.5 2432
684.519 1095.7 2428
692.315 1098.86 2435
701.292 1103.82 2446
709.165 1106.98 2453
715.031 1106.98 2453
722.072 1108.78 2457
731.206 1113.75 2468
737.108 1113.75 2468
743.01 1113.75 2468
748.912 1113.75 2468
754.813 1113.75 2468
761.64 1115.1 2471
767.549 1115.1 2471
773.458 1115.1 2471
779.367 1115.1 2471
785.276 1115.1 2471
791.184 1115.1 2471
796.126 1113.75 2468
800.727 1111.94 2464
806.62 1111.94 2464
812.512 1111.94 2464
817.408 1110.59 2461
821.954 1108.78 2457
827.83 1108.78 2457
833.705 1108.78 2457
834.797 1102.47 2443
834.445 1094.34 2425
849.946 1106.98 2453
867.325 1121.87 2486
873.269 1121.87 2486
879.214 1121.87 2486
885.159 1121.87 2486
891.104 1121.87 2486
891.636 1115.1 2471
896.455 1113.75 2468
899.797 1110.59 2461
909.363 1115.1 2471
919.716 1120.52 2483
925.654 1120.52 2483
934.218 1123.68 2490
945.836 1130.45 2505
953.346 1132.25 2509
959.346 1132.25 2509
966.5 1133.6 2512
974.055 1135.41 2516
981.63 1137.21 2520
987.656 1137.21 2520
993.682 1137.21 2520
999.708 1137.21 2520
1005.73 1137.21 2520
1011.76 1137.21 2520
1010.11 1128.64 2501
1011.62 1123.68 2490
1019.21 1125.48 2494
1025.18 1125.48 2494
1034.04 1128.64 2501
1043.34 1132.25 2509
1053.94 1137.21 2520
1059.97 1137.21 2520
1066 1137.21 2520
1075.42 1140.82 2528
1081.47 1140.82 2528
1087.52 1140.82 2528
1091.83 1139.02 2524
1096.13 1137.21 2520
1098.65 1133.6 2512
1104.66 1133.6 2512
1107.57 1130.45 2505
1110.01 1126.84 2497
1112.85 1123.68 2490
1121.95 1126.84 2497
1127.92 1126.84 2497
1137.52 1130.45 2505
1143.51 1130.45 2505
1149.5 1130.45 2505
1151.8 1126.84 2497
1154.53 1123.68 2490
1158.62 1121.87 2486
1164.56 1121.87 2486
1167.21 1118.71 2479
1169.35 1115.1 2471
1171.93 1111.94 2464
1174.48 1108.78 2457
1180.36 1108.78 2457
1170.78 1094.34 2425
1178.04 1095.7 2428
1187.26 1098.86 2435
1201.9 1106.98 2453
1207.76 1106.98 2453
1226.49 1118.71 2479
1232.42 1118.71 2479
1238.35 1118.71 2479
1244.28 1118.71 2479
1250.21 1118.71 2479
1256.13 1118.71 2479
1262.06 1118.71 2479
1267.99 1118.71 2479
1279.57 1123.68 2490
1295.33 1132.25 2509
1304.96 1135.41 2516
1310.98 1135.41 2516
1317 1135.41 2516
1320.91 1133.6 2512
1326.92 1133.6 2512
1335.05 1135.41 2516
1341.06 1135.41 2516
1353.5 1140.82 2528
1363.31 1143.98 2535
1369.38 1143.98 2535
1375.44 1143.98 2535
1383.68 1145.79 2539
1389.75 1145.79 2539
1398.02 1147.59 2543
1404.1 1147.59 2543
1410.18 1147.59 2543
1407.91 1140.82 2528
1413.96 1140.82 2528
1417.75 1139.02 2524
1417.02 1133.6 2512
1423.03 1133.6 2512
1429.04 1133.6 2512
1435.04 1133.6 2512
1439.33 1132.25 2509
1445.33 1132.25 2509
1451.33 1132.25 2509
1457.33 1132.25 2509
1463.33 1132.25 2509
1469.33 1132.25 2509
1479.44 1135.41 2516
1485.46 1135.41 2516
1491.48 1135.41 2516
1493.33 1132.25 2509
1499.33 1132.25 2509
1505.33 1132.25 2509
1506.51 1128.64 2501
1510.07 1126.84 2497
1518.47 1128.64 2501
1536.03 1137.21 2520
1542.06 1137.21 2520
1548.08 1137.21 2520
1554.11 1137.21 2520
1550.85 1130.45 2505
1556.84 1130.45 2505
1555.97 1125.48 2494
1559.42 1123.68 2490
1562.86 1121.87 2486
1568.81 1121.87 2486
1572.85 1120.52 2483
1571.16 1115.1 2471
1568.13 1108.78 2457
1574.01 1108.78 2457
1568.31 1100.66 2439
1571.56 1098.86 2435
1587.1 1105.63 2450
1592.96 1105.63 2450
1598.82 1105.63 2450
1604.68 1105.63 2450
1603.31 1100.66 2439
1599.9 1094.34 2425
1605.7 1094.34 2425
1611.5 1094.34 2425
1607.96 1088.03 2411
1618.41 1091.18 2418
1633.6 1097.5 2432
1639.41 1097.5 2432
1649.96 1100.66 2439
1665.3 1106.98 2453
1671.17 1106.98 2453
1677.03 1106.98 2453
1682.9 1106.98 2453
1688.76 1106.98 2453
1694.63 1106.98 2453
1700.5 1106.98 2453
1686.88 1094.34 2425
1692.68 1094.34 2425
1700.58 1095.7 2428
1706.39 1095.7 2428
1712.2 1095.7 2428
1718 1095.7 2428
1726.65 1097.5 2432
1732.46 1097.5 2432
1738.28 1097.5 2432
1744.09 1097.5 2432
1734.8 1088.03 2411
1740.57 1088.03 2411
1731.12 1078.55 2390
1724.48 1070.88 2373
1732.34 1072.23 2376
1743.15 1075.39 2383
1753.98 1078.55 2390
1759.7 1078.55 2390
1777.97 1086.22 2407
1786.69 1088.03 2411
1792.45 1088.03 2411
1798.22 1088.03 2411
1803.99 1088.03 2411
1836.02 1103.82 2446
1841.87 1103.82 2446
1847.72 1103.82 2446
1853.57 1103.82 2446
1859.42 1103.82 2446
1865.27 1103.82 2446
1846.64 1089.38 2414
-1820.9 1103.33 2432
-1815.08 1103.33 2432
-1814.47 1106.5 2439
-1824.96 1116.48 2461
-1819.07 1116.48 2461
-1813.19 1116.48 2461
-1807.3 1116.48 2461
-1801.42 1116.48 2461
-1792.61 1114.67 2457
-1773.65 1106.5 2439
-1737.37 1087.45 2397
-1731.64 1087.45 2397
-1718.71 1082.91 2387
-1700.8 1075.2 2370
-1680.83 1066.13 2350
-1675.21 1066.13 2350
-1669.59 1066.13 2350
-1678.13 1075.2 2370
-1674.58 1076.56 2373
-1668.91 1076.56 2373
-1663.23 1076.56 2373
-1657.56 1076.56 2373
-1640.05 1068.85 2356
-1634.42 1068.85 2356
-1619.79 1062.95 2343
-1612.12 1061.59 2340
-1597.6 1055.69 2327
-1592.04 1055.69 2327
-1586.47 1055.69 2327
-1576.15 1052.52 2320
-1570.61 1052.52 2320
-1565.06 1052.52 2320
-1559.51 1052.52 2320
-1555.97 1053.88 2323
-1550.42 1053.88 2323
-1544.86 1053.88 2323
-1537.32 1052.52 2320
-1531.77 1052.52 2320
-1526.22 1052.52 2320
-1520.68 1052.52 2320
-1504.68 1045.26 2304
-1499.17 1045.26 2304
-1493.66 1045.26 2304
-1500.42 1053.88 2323
-1494.87 1053.88 2323
-1489.31 1053.88 2323
-1483.76 1053.88 2323
-1478.2 1053.88 2323
-1472.65 1053.88 2323
-1467.09 1053.88 2323
-1461.54 1053.88 2323
-1455.98 1053.88 2323
-1448.55 1052.52 2320
-1441.14 1051.16 2317
-1435.6 1051.16 2317
-1433.76 1053.88 2323
-1428.21 1053.88 2323
-1422.65 1053.88 2323
-1417.1 1053.88 2323
-1411.54 1053.88 2323
-1405.99 1053.88 2323
-1400.43 1053.88 2323
-1393.08 1052.52 2320
-1385.73 1051.16 2317
-1380.19 1051.16 2317
-1365.16 1043.9 2301
-1359.66 1043.9 2301
-1354.16 1043.9 2301
-1348.65 1043.9 2301
-1343.15 1043.9 2301
-1330.09 1038 2288
-1324.62 1038 2288
-1319.15 1038 2288
-1313.68 1038 2288
-1254.74 1003.97 2213
-1249.45 1003.97 2213
-1244.16 1003.97 2213
-1237.18 1002.61 2210
-1231.9 1002.61 2210
-1216.62 994.447 2192
-1219.67 1001.25 2207
-1240.26 1022.57 2254
-1243.63 1029.83 2270
-1238.2 1029.83 2270
-1234.4 1031.19 2273
-1228.97 1031.19 2273
-1223.53 1031.19 2273
-1216.49 1029.83 2270
-1211.06 1029.83 2270
-1205.63 1029.83 2270
-1203.38 1032.56 2276
-1197.93 1032.56 2276
-1195.64 1035.28 2282
-1191.74 1036.64 2285
-1191.47 1041.18 2295
-1185.98 1041.18 2295
-1186.67 1046.62 2307
-1184.73 1049.8 2314
-1180.73 1051.16 2317
-1175.19 1051.16 2317
-1181.26 1061.59 2340
-1177.17 1062.95 2343
-1173.07 1064.31 2346
-1167.46 1064.31 2346
-1165.31 1067.49 2353
-1169.55 1076.56 2373
-1170.74 1082.91 2387
-1165.03 1082.91 2387
-1159.32 1082.91 2387
-1153.61 1082.91 2387
-1147.9 1082.91 2387
-1140.28 1081.1 2383
-1131.25 1077.92 2376
-1125.57 1077.92 2376
-1119.89 1077.92 2376
-1112.8 1076.56 2373
-1105.73 1075.2 2370
-1098.2 1073.39 2366
-1092.54 1073.39 2366
-1086.89 1073.39 2366
-1081.23 1073.39 2366
-1075.57 1073.39 2366
-1069.91 1073.39 2366
-1062.9 1072.03 2363
-1054.12 1068.85 2356
-1048.49 1068.85 2356
-1042.85 1068.85 2356
-1037.22 1068.85 2356
-1030.27 1067.49 2353
-1023.34 1066.13 2350
-1022.05 1070.66 2360
-1020.71 1075.2 2370
-1015.05 1075.2 2370
-1011.94 1077.92 2376
-1006.25 1077.92 2376
-1000.57 1077.92 2376
-993.634 1076.56 2373
-985.045 1073.39 2366
-975.248 1068.85 2356
-969.614 1068.85 2356
-963.98 1068.85 2356
-961.193 1072.03 2363
-956.756 1073.39 2366
-951.098 1073.39 2366
-945.44 1073.39 2366
-938.591 1072.03 2363
-932.94 1072.03 2363
-930.036 1075.2 2370
-924.369 1075.2 2370
-922.578 1079.74 2380
-916.887 1079.74 2380
-911.195 1079.74 2380
-905.504 1079.74 2380
-898.3 1077.92 2376
-888.862 1073.39 2366
-884.697 1075.2 2370
-879.03 1075.2 2370
-873.362 1075.2 2370
-867.695 1075.2 2370
-862.028 1075.2 2370
-854.915 1073.39 2366
-849.257 1073.39 2366
-843.599 1073.39 2366
-837.941 1073.39 2366
-831.228 1072.03 2363
-825.578 1072.03 2363
-820.968 1073.39 2366
-816.689 1075.2 2370
-811.021 1075.2 2370
-806.373 1076.56 2373
-800.699 1076.56 2373
-795.024 1076.56 2373
-789.349 1076.56 2373
-781.363 1073.39 2366
-773.738 1070.66 2360
-765.817 1067.49 2353
-760.19 1067.49 2353
-753.601 1066.13 2350
-745.753 1062.95 2343
-736.992 1058.41 2333
-731.413 1058.41 2333
-725.834 1058.41 2333
-720.255 1058.41 2333
-715.901 1060.23 2337
-710.313 1060.23 2337
-704.724 1060.23 2337
-700.033 1061.59 2340
-696.218 1064.31 2346
-690.608 1064.31 2346
-684.998 1064.31 2346
-678.52 1062.95 2343
-672.917 1062.95 2343
-667.314 1062.95 2343
-660.864 1061.59 2340
-656.108 1062.95 2343
-652.449 1066.13 2350
-647.655 1067.49 2353
-642.028 1067.49 2353
-640.999 1075.2 2370
-638.817 1081.1 2383
-636.838 1087.45 2397
-631.106 1087.45 2397
-629.809 1095.16 2414
-628.69 1103.33 2432
-626.46 1109.68 2446
-620.611 1109.68 2446
-614.762 1109.68 2446
-608.913 1109.68 2446
-603.063 1109.68 2446
-597.214 1109.68 2446
-590.64 1108.32 2443
-584.798 1108.32 2443
-578.956 1108.32 2443
-571.237 1104.69 2435
-564.718 1103.33 2432
-561.43 1108.32 2443
-555.588 1108.32 2443
-549.746 1108.32 2443
-543.904 1108.32 2443
-535.64 1103.33 2432
-529.824 1103.33 2432
-524.655 1104.69 2435
-518.832 1104.69 2435
-513.009 1104.69 2435
-506.561 1103.33 2432
-500.746 1103.33 2432
-494.93 1103.33 2432
-487.707 1100.15 2425
-481.908 1100.15 2425
-476.109 1100.15 2425
-469.534 1098.34 2421
-462.404 1095.16 2414
-455.307 1091.99 2407
-449.551 1091.99 2407
-441.952 1087.45 2397
-437.494 1090.63 2404
-433.002 1093.8 2411
-427.768 1095.16 2414
-421.996 1095.16 2414
-418.637 1101.51 2428
-414.701 1106.5 2439
-408.869 1106.5 2439
-403.036 1106.5 2439
-397.204 1106.5 2439
-390.248 1103.33 2432
-384.433 1103.33 2432
-377.994 1101.51 2428
-370.042 1095.16 2414
-363.817 1093.8 2411
-358.497 1095.16 2414
-352.724 1095.16 2414
-346.952 1095.16 2414
-342.734 1100.15 2425
-338.324 1104.69 2435
-332.502 1104.69 2435
-326.679 1104.69 2435
-320.856 1104.69 2435
-315.033 1104.69 2435
-309.21 1104.69 2435
-300.771 1095.16 2414
-294.632 1093.8 2411
-288.866 1093.8 2411
-283.101 1093.8 2411
-276.875 1091.99 2407
-270.782 1090.63 2404
-265.033 1090.63 2404
-260.363 1095.16 2414
-254.59 1095.16 2414
-248.817 1095.16 2414
-244.152 1100.15 2425
-239.73 1106.5 2439
-233.897 1106.5 2439
-228.065 1106.5 2439
-222.232 1106.5 2439
-216.4 1106.5 2439
-210.222 1104.69 2435
-203.224 1098.34 2421
-197.761 1100.15 2425
-191.962 1100.15 2425
-186.163 1100.15 2425
-180.364 1100.15 2425
-126.515 995.808 2195
-121.266 995.808 2195
-116.81 1002.61 2210
-111.525 1002.61 2210
-106.241 1002.61 2210
-100.271 995.808 2195
-94.5456 990.818 2184
-89.323 990.818 2184
-84.2929 993.086 2189
-79.0584 993.086 2189
-73.8238 993.086 2189
-68.3386 989.457 2181
-63.1232 989.457 2181
-57.9874 990.818 2184
-52.7648 990.818 2184
-47.8469 997.169 2198
-42.5908 997.169 2198
-37.5386 1002.61 2210
-32.2538 1002.61 2210
-26.969 1002.61 2210
-21.6842 1002.61 2210
-16.3995 1002.61 2210
-11.0392 995.808 2195
-5.79033 995.808 2195
-0.542162 997.169 2198
4.72036 998.53 2201
9.98361 998.53 2201
15.2469 998.53 2201
20.5101 998.53 2201
25.7734 998.53 2201
30.952 995.808 2195
36.201 995.808 2195
41.5065 997.169 2198
46.9541 1001.25 2207
52.2317 1001.25 2207
57.5093 1001.25 2207
62.7869 1001.25 2207
67.8795 998.53 2201
73.1427 998.53 2201
78.2991 997.169 2198
83.3271 994.447 2192
88.4476 993.086 2189
93.6822 993.086 2189
98.9167 993.086 2189
104.009 991.725 2186
109.136 990.818 2184
114.359 990.818 2184
119.417 989.457 2181
123.947 984.013 2169
129.312 985.374 2172
134.692 986.735 2175
139.893 986.735 2175
146.028 993.086 2189
151.262 993.086 2189
156.497 993.086 2189
161.731 993.086 2189
222.581 1058.41 2333
228.551 1060.23 2337
235.442 1066.13 2350
241.062 1066.13 2350
246.996 1067.49 2353
252.945 1068.85 2356
259.347 1072.03 2363
264.998 1072.03 2363
271.45 1075.2 2370
278.637 1081.1 2383
285.171 1084.27 2390
290.886 1084.27 2390
296.974 1085.64 2393
303.202 1087.45 2397
309.321 1088.81 2400
315.06 1088.81 2400
320.799 1088.81 2400
327.083 1090.63 2404
333.8 1093.8 2411
339.988 1095.16 2414
345.761 1095.16 2414
352.553 1098.34 2421
359.378 1101.51 2428
365.184 1101.51 2428
370.99 1101.51 2428
376.797 1101.51 2428
382.13 1100.15 2425
387.929 1100.15 2425
393.728 1100.15 2425
399.527 1100.15 2425
403.487 1095.16 2414
409.26 1095.16 2414
415.032 1095.16 2414
420.805 1095.16 2414
426.577 1095.16 2414
432.35 1095.16 2414
436.852 1091.99 2407
442.608 1091.99 2407
449.109 1093.8 2411
456.195 1096.98 2418
461.977 1096.98 2418
468.34 1098.34 2421
474.129 1098.34 2421
480.711 1100.15 2425
486.51 1100.15 2425
492.309 1100.15 2425
497.286 1098.34 2421
500.998 1093.8 2411
506.763 1093.8 2411
512.529 1093.8 2411
520.444 1098.34 2421
527.103 1100.15 2425
535.099 1104.69 2435
540.922 1104.69 2435
546.745 1104.69 2435
552.568 1104.69 2435
558.39 1104.69 2435
563.518 1103.33 2432
569.334 1103.33 2432
577.751 1108.32 2443
583.593 1108.32 2443
589.435 1108.32 2443
595.277 1108.32 2443
599.15 1104.69 2435
604.973 1104.69 2435
609.04 1101.51 2428
611.301 1095.16 2414
616.307 1093.8 2411
624.652 1098.34 2421
630.441 1098.34 2421
636.231 1098.34 2421
642.02 1098.34 2421
647.809 1098.34 2421
653.599 1098.34 2421
658.571 1096.98 2418
664.353 1096.98 2418
668.195 1093.8 2411
673.961 1093.8 2411
678.599 1091.99 2407
687.482 1096.98 2418
695.271 1100.15 2425
701.07 1100.15 2425
706.869 1100.15 2425
712.668 1100.15 2425
723.8 1108.32 2443
730.538 1109.68 2446
736.387 1109.68 2446
744.36 1112.86 2453
750.226 1112.86 2453
757.325 1114.67 2457
763.2 1114.67 2457
769.076 1114.67 2457
774.951 1114.67 2457
780.826 1114.67 2457
786.702 1114.67 2457
792.577 1114.67 2457
796.178 1111.49 2450
802.037 1111.49 2450
807.895 1111.49 2450
811.429 1108.32 2443
817.271 1108.32 2443
823.113 1108.32 2443
828.955 1108.32 2443
828.646 1100.15 2425
832.036 1096.98 2418
849.946 1112.86 2453
867.325 1127.83 2486
873.269 1127.83 2486
879.214 1127.83 2486
885.159 1127.83 2486
891.104 1127.83 2486
891.636 1121.02 2471
895.002 1117.85 2464
898.335 1114.67 2457
904.21 1114.67 2457
916.753 1122.84 2475
922.672 1122.84 2475
931.592 1126.47 2483
937.529 1126.47 2483
953.346 1138.26 2509
959.346 1138.26 2509
965.346 1138.26 2509
972.507 1139.62 2512
978.514 1139.62 2512
984.521 1139.62 2512
993.682 1143.25 2520
999.708 1143.25 2520
1005.73 1143.25 2520
1004.13 1134.63 2501
1002.84 1126.47 2483
1003.91 1121.02 2471
1017.58 1129.64 2490
1023.53 1129.64 2490
1032.38 1132.82 2497
1041.68 1136.45 2505
1052.27 1141.44 2516
1058.29 1141.44 2516
1066 1143.25 2520
1072.02 1143.25 2520
1078.05 1143.25 2520
1084.07 1143.25 2520
1090.1 1143.25 2520
1094.39 1141.44 2516
1098.65 1139.62 2512
1104.66 1139.62 2512
1107.57 1136.45 2505
1110.01 1132.82 2497
1111.06 1127.83 2486
1120.6 1131.46 2494
1126.56 1131.46 2494
1133.89 1132.82 2497
1139.86 1132.82 2497
1145.83 1132.82 2497
1151.8 1132.82 2497
1154.53 1129.64 2490
1155.36 1124.65 2479
1161.28 1124.65 2479
1163.45 1121.02 2471
1166.04 1117.85 2464
1168.6 1114.67 2457
1171.13 1111.49 2450
1176.99 1111.49 2450
1167.4 1096.98 2418
1176.58 1100.15 2425
1187.26 1104.69 2435
1200.43 1111.49 2450
1206.29 1111.49 2450
1219.07 1117.85 2464
1228.44 1121.02 2471
1234.35 1121.02 2471
1240.26 1121.02 2471
1246.17 1121.02 2471
1248.53 1117.85 2464
1256.46 1119.66 2468
1262.36 1119.66 2468
1269.81 1121.02 2471
1285.52 1129.64 2490
1291.48 1129.64 2490
1297.43 1129.64 2490
1303.39 1129.64 2490
1309.34 1129.64 2490
1325.33 1138.26 2509
1331.33 1138.26 2509
1337.33 1138.26 2509
1343.33 1138.26 2509
1350.94 1139.62 2512
1356.95 1139.62 2512
1362.96 1139.62 2512
1368.97 1139.62 2512
1377.16 1141.44 2516
1387.58 1145.07 2524
1393.61 1145.07 2524
1399.65 1145.07 2524
1405.68 1145.07 2524
1411.72 1145.07 2524
1409.33 1138.26 2509
1413.07 1136.45 2505
1414.53 1132.82 2497
1420.5 1132.82 2497
1426.47 1132.82 2497
1432.44 1132.82 2497
1440.72 1134.63 2501
1446.7 1134.63 2501
1452.68 1134.63 2501
1456.33 1132.82 2497
1462.3 1132.82 2497
1475.33 1138.26 2509
1481.33 1138.26 2509
1487.33 1138.26 2509
1488.56 1134.63 2501
1487.97 1129.64 2490
1493.93 1129.64 2490
1497.47 1127.83 2486
1503.42 1127.83 2486
1511.79 1129.64 2490
1524.45 1134.63 2501
1530.43 1134.63 2501
1536.41 1134.63 2501
1542.39 1134.63 2501
1534.75 1124.65 2479
1540.68 1124.65 2479
1530.39 1112.86 2453
1531.87 1109.68 2446
1535.83 1108.32 2443
1541.67 1108.32 2443
1542.45 1104.69 2435
1548.27 1104.69 2435
1545.16 1098.34 2421
1550.95 1098.34 2421
1563.81 1103.33 2432
1569.63 1103.33 2432
1575.44 1103.33 2432
1581.26 1103.33 2432
1587.07 1103.33 2432
1592.89 1103.33 2432
1591.47 1098.34 2421
1597.26 1098.34 2421
1603.05 1098.34 2421
1597.54 1090.63 2404
1600.62 1088.81 2400
1606.36 1088.81 2400
1614.79 1090.63 2404
1620.54 1090.63 2404
1628.32 1091.99 2407
1648.33 1101.51 2428
1654.14 1101.51 2428
1659.94 1101.51 2428
1665.75 1101.51 2428
1659.85 1093.8 2411
1665.62 1093.8 2411
1671.38 1093.8 2411
1674.36 1091.99 2407
1675.23 1088.81 2400
1683.77 1090.63 2404
1694.44 1093.8 2411
1700.21 1093.8 2411
1718 1101.51 2428
1723.81 1101.51 2428
1729.61 1101.51 2428
1725.41 1095.16 2414
1731.19 1095.16 2414
1734.8 1093.8 2411
1740.57 1093.8 2411
1731.12 1084.27 2390
1724.48 1076.56 2373
1730.16 1076.56 2373
1740.95 1079.74 2380
1753.98 1084.27 2390
1759.7 1084.27 2390
1777.97 1091.99 2407
1786.69 1093.8 2411
1792.45 1093.8 2411
1798.22 1093.8 2411
1803.99 1093.8 2411
1820.26 1100.15 2425
1826.06 1100.15 2425
1831.86 1100.15 2425
1839.93 1101.51 2428
1845.74 1101.51 2428
1851.54 1101.51 2428
1835.93 1088.81 2400
-1820.9 1109.15 2432
-1815.08 1109.15 2432
-1795.88 1100.95 2414
-1790.1 1100.95 2414
-1784.33 1100.95 2414
-1778.56 1100.95 2414
-1772.79 1100.95 2414
-1767.01 1100.95 2414
-1753.94 1096.38 2404
-1740.2 1091.37 2393
-1719.98 1082.25 2373
-1714.3 1082.25 2373
-1703.59 1079.05 2366
-1686.45 1071.76 2350
-1675.82 1068.56 2343
-1670.22 1068.56 2343
-1664.62 1068.56 2343
-1673.18 1077.69 2363
-1674.58 1082.25 2373
-1668.91 1082.25 2373
-1663.23 1082.25 2373
-1657.56 1082.25 2373
-1640.05 1074.49 2356
-1634.42 1074.49 2356
-1621.87 1069.93 2346
-1610.06 1065.83 2337
-1599.66 1062.64 2330
-1594.09 1062.64 2330
-1586.47 1061.27 2327
-1584.99 1064 2333
-1579.41 1064 2333
-1573.83 1064 2333
-1561.53 1059.44 2323
-1555.97 1059.44 2323
-1550.42 1059.44 2323
-1544.86 1059.44 2323
-1539.31 1059.44 2323
-1533.75 1059.44 2323
-1526.22 1058.07 2320
-1520.68 1058.07 2320
-1504.68 1050.78 2304
-1493.31 1046.67 2295
-1487.83 1046.67 2295
-1486.21 1049.41 2301
-1484.57 1052.15 2307
-1479.05 1052.15 2307
-1473.54 1052.15 2307
-1468.02 1052.15 2307
-1462.5 1052.15 2307
-1456.99 1052.15 2307
-1443.92 1046.67 2295
-1440.31 1048.04 2298
-1434.82 1048.04 2298
