-11.1298 367.823 2213
-5.83782 367.823 2213
-0.546355 368.155 2215
4.77612 370.15 2227
10.1015 370.15 2227
15.4893 371.646 2236
20.9481 373.64 2248
26.3589 374.139 2251
31.7417 374.139 2251
37.4379 377.297 2270
42.8661 377.297 2270
48.2944 377.297 2270
53.7227 377.297 2270
59.3854 378.793 2279
64.9206 379.292 2282
70.47 379.79 2285
75.9342 379.79 2285
81.5052 380.289 2288
86.9765 380.289 2288
92.4478 380.289 2288
97.6623 379.292 2282
103.119 379.292 2282
108.576 379.292 2282
114.033 379.292 2282
119.49 379.292 2282
124.783 378.793 2279
130.233 378.793 2279
135.504 378.294 2276
140.946 378.294 2276
146.196 377.796 2273
151.431 377.297 2270
156.652 376.798 2267
162.073 376.798 2267
167.494 376.798 2267
173.373 377.796 2273
178.809 377.796 2273
184.974 379.292 2282
190.43 379.292 2282
196.145 379.79 2285
201.609 379.79 2285
207.073 379.79 2285
212.537 379.79 2285
218.001 379.79 2285
540.666 495.14 2979
547.789 495.14 2979
555.845 495.971 2984
562.98 495.971 2984
570.116 495.971 2984
569.127 488.99 2942
576.162 488.99 2942
582.206 488.159 2937
589.229 488.159 2937
598.283 489.821 2947
607.589 491.65 2958
614.663 491.65 2958
626.15 495.14 2979
633.274 495.14 2979
640.397 495.14 2979
645.13 493.312 2968
651.129 492.481 2963
658.214 492.481 2963
667.77 494.309 2974
676.016 495.14 2979
683.14 495.14 2979
690.263 495.14 2979
698.557 495.971 2984
705.693 495.971 2984
712.829 495.971 2984
721.412 496.968 2990
732.461 499.628 3006
739.649 499.628 3006
746.837 499.628 3006
754.026 499.628 3006
758.428 497.799 2995
765.59 497.799 2995
772.752 497.799 2995
777.05 495.971 2984
782.871 495.14 2979
789.995 495.14 2979
792.837 492.481 2963
802.893 494.309 2974
814.362 496.968 2990
822.886 497.799 2995
830.048 497.799 2995
840.285 499.628 3006
848.883 500.459 3011
856.083 500.459 3011
863.283 500.459 3011
869.038 499.628 3006
873.019 497.799 2995
875.479 495.14 2979
884.084 495.971 2984
891.22 495.971 2984
909.796 502.287 3022
927.036 507.772 3055
936.177 508.769 3061
943.496 508.769 3061
957.961 512.592 3084
989.124 525.224 3160
1008.04 531.208 3196
1015.68 531.208 3196
1039.33 539.518 3246
1057.41 544.837 3278
1073.38 548.992 3303
1081.28 548.992 3303
1098.08 553.48 3330
1112.68 556.804 3350
1155.49 574.09 3454
1163.75 574.09 3454
1181.85 578.91 3483
1202.82 585.06 3520
1213.64 586.223 3527
1222.08 586.223 3527
1232.95 587.387 3534
1244.22 588.716 3542
1255.16 589.88 3549
1263.65 589.88 3549
1275 591.209 3557
1286.4 592.539 3565
1297.46 593.703 3572
1306 593.703 3572
1320.43 596.362 3588
1334.57 598.855 3603
1346.17 600.185 3611
1354.8 600.185 3611
1366.46 601.514 3619
1381.19 604.174 3635
1389.89 604.174 3635
1398.58 604.174 3635
1407.27 604.174 3635
1406.61 600.185 3611
1415.25 600.185 3611
1411.66 595.032 3580
1411.1 591.209 3557
1410.42 587.387 3534
1404.02 581.237 3497
1412.38 581.237 3497
1400.43 572.926 3447
1394.37 567.109 3412
1385.26 560.128 3370
1393.32 560.128 3370
1381.84 552.316 3323
1389.78 552.316 3323
1386.79 547.995 3297
1394.68 547.995 3297
1394.48 544.837 3278
1396.76 542.676 3265
1404.56 542.676 3265
1412.37 542.676 3265
1420.18 542.676 3265
1424.92 541.513 3258
1432.72 541.513 3258
1443.6 542.676 3265
1454.08 543.673 3271
1461.9 543.673 3271
1469.72 543.673 3271
1480.7 544.837 3278
1488.54 544.837 3278
1496.38 544.837 3278
1501.01 543.673 3271
1506.06 542.676 3265
1513.87 542.676 3265
1518.42 541.513 3258
1520.58 539.518 3246
1522.23 537.357 3233
1518.13 533.202 3208
1525.8 533.202 3208
1519.13 528.216 3178
1512.32 523.229 3148
1500.05 516.415 3107
1507.48 516.415 3107
1497.84 510.598 3072
1489.02 505.113 3039
1466.75 495.14 2979
1461.01 490.819 2953
1468.07 490.819 2953
1449.15 482.176 2901
1451.07 480.514 2891
1447.9 477.189 2871
1454.76 477.189 2871
1461.63 477.189 2871
1463.89 475.693 2862
1470.73 475.693 2862
1477.58 475.693 2862
1481.83 474.862 2857
1483.45 473.2 2847
1487.64 472.369 2842
1491.81 471.538 2837
1498.59 471.538 2837
1505.38 471.538 2837
1509.5 470.707 2832
1514.13 470.042 2828
1520.89 470.042 2828
1524.95 469.211 2823
1528.99 468.38 2818
1535.73 468.38 2818
1542.47 468.38 2818
1546.46 467.549 2813
1550.97 466.884 2809
1554.92 466.053 2804
1561.62 466.053 2804
1562.74 464.391 2794
1569.42 464.391 2794
1573.84 463.726 2790
1582.78 464.391 2794
1589.46 464.391 2794
1596.14 464.391 2794
1605.69 465.222 2799
1615.26 466.053 2804
1624.86 466.884 2809
1631.58 466.884 2809
1638.3 466.884 2809
1645.01 466.884 2809
1654.08 467.549 2813
1660.81 467.549 2813
1670.5 468.38 2818
1677.24 468.38 2818
1683.98 468.38 2818
1690.72 468.38 2818
1697.46 468.38 2818
1704.19 468.38 2818
1710.93 468.38 2818
1717.67 468.38 2818
1724.41 468.38 2818
1731.15 468.38 2818
1737.89 468.38 2818
1744.63 468.38 2818
1748.26 467.549 2813
1754.98 467.549 2813
1761.71 467.549 2813
1768.44 467.549 2813
1775.16 467.549 2813
1781.89 467.549 2813
1782.9 466.053 2804
1789.6 466.053 2804
1796.31 466.053 2804
1803.01 466.053 2804
1806.49 465.222 2799
1807.35 463.726 2790
1814.02 463.726 2790
1820.7 463.726 2790
1829.99 464.391 2794
1836.67 464.391 2794
1843.35 464.391 2794
1844.07 462.895 2785
1850.73 462.895 2785
1857.39 462.895 2785
1864.05 462.895 2785
1867.35 462.064 2780
1874 462.064 2780
1877.94 461.399 2776
1884.58 461.399 2776
1887.81 460.568 2771
1888.29 459.072 2762
1894.89 459.072 2762
1901.5 459.072 2762
1908.1 459.072 2762
1914.7 459.072 2762
1921.31 459.072 2762
1927.91 459.072 2762
1934.52 459.072 2762
1941.12 459.072 2762
1944.2 458.241 2757
1947.97 457.577 2753
1957.39 458.241 2757
1963.98 458.241 2757
1970.57 458.241 2757
1977.17 458.241 2757
1983.76 458.241 2757
1983.86 456.745 2748
1983.91 455.25 2739
1990.46 455.25 2739
1997.01 455.25 2739
2020.38 459.072 2762
2026.99 459.072 2762
2033.59 459.072 2762
2046.84 460.568 2771
2053.47 460.568 2771
2060.1 460.568 2771
2070.45 461.399 2776
2077.09 461.399 2776
2083.73 461.399 2776
2090.37 461.399 2776
2093.23 460.568 2771
2106.67 462.064 2780
2113.32 462.064 2780
2119.97 462.064 2780
2126.62 462.064 2780
-2071.72 466.532 2767
-2068.09 467.206 2771
-2061.46 467.206 2771
-2054.84 467.206 2771
-2054.86 468.724 2780
-2051.9 469.567 2785
-2045.24 469.567 2785
-2038.58 469.567 2785
-2031.92 469.567 2785
-2018.71 468.049 2776
-2012.08 468.049 2776
-2005.44 468.049 2776
-1998.8 468.049 2776
-1992.16 468.049 2776
-1985.52 468.049 2776
-1975.32 467.206 2771
-1972.25 468.049 2776
-2019.42 480.863 2852
-2016.13 481.706 2857
-2009.3 481.706 2857
-2005.97 482.549 2862
-1999.13 482.549 2862
-1995.07 483.224 2866
-1988.21 483.224 2866
-1981.36 483.224 2866
-1974.51 483.224 2866
-1967.65 483.224 2866
-1960.8 483.224 2866
-1957.36 484.067 2871
-1953.89 484.91 2876
-1957.16 487.439 2891
-1950.25 487.439 2891
-1943.34 487.439 2891
-1936.43 487.439 2891
-1939.52 489.968 2906
-1932.57 489.968 2906
-1928.94 490.811 2911
-1932.54 493.509 2927
-1925.54 493.509 2927
-1918.54 493.509 2927
-1908.28 492.666 2922
-1914.3 496.038 2942
-1931.26 502.276 2979
-1924.13 502.276 2979
-1934.38 506.829 3006
-1934.25 508.683 3017
-1937.25 511.381 3033
-1930 511.381 3033
-1936.69 515.09 3055
-1950.86 520.823 3089
-1943.47 520.823 3089
-1947.37 523.858 3107
-1943.06 524.701 3112
-1943.08 526.724 3124
-1935.61 526.724 3124
-1935.55 528.747 3136
-1939.12 531.782 3154
-1946.27 535.829 3178
-1938.67 535.829 3178
-1931.07 535.829 3178
-1923.47 535.829 3178
-1919.49 536.84 3184
-1911.88 536.84 3184
-1911.44 538.864 3196
-1918.69 543.079 3221
-1932.94 549.317 3258
-1925.15 549.317 3258
-1929.13 552.689 3278
-1947.66 560.277 3323
-1955.48 564.829 3350
-1947.47 564.829 3350
-1971.3 574.102 3405
-1979.3 578.823 3433
-1987.17 583.544 3461
-1978.89 583.544 3461
-1991.11 589.614 3497
-1995.79 593.492 3520
-1991.32 594.672 3527
-1982.89 594.672 3527
-1974.46 594.672 3527
-1969.92 595.852 3534
-1965.91 597.201 3542
-1957.44 597.201 3542
-1952.82 598.381 3549
-1944.34 598.381 3549
-1935.85 598.381 3549
-1927.36 598.381 3549
-1918.88 598.381 3549
-1914.7 599.73 3557
-1910.48 601.079 3565
-1901.95 601.079 3565
-1893.43 601.079 3565
-1884.9 601.079 3565
-1876.38 601.079 3565
-1863.66 599.73 3557
-1859.33 601.079 3565
-1858.59 603.608 3580
-1850.03 603.608 3580
-1841.47 603.608 3580
-1832.91 603.608 3580
-1824.35 603.608 3580
-1815.79 603.608 3580
-1807.23 603.608 3580
-1798.66 603.608 3580
-1790.1 603.608 3580
-1781.54 603.608 3580
-1772.98 603.608 3580
-1764.42 603.608 3580
-1759.78 604.957 3588
-1754.62 606.137 3595
-1746.02 606.137 3595
-1745.16 608.835 3611
-1744.22 611.533 3627
-1746.55 615.411 3650
-1737.82 615.411 3650
-1737.15 618.277 3667
-1739.69 622.323 3691
-1742.59 626.539 3716
-1733.7 626.539 3716
-1724.82 626.539 3716
-1723.32 629.236 3732
-1718.07 630.585 3740
-1709.13 630.585 3740
-1707.91 633.451 3757
-1706.61 636.318 3774
-1705.69 639.353 3792
-1696.62 639.353 3792
-1687.55 639.353 3792
-1670.51 636.318 3774
-1654.01 633.451 3757
-1645.02 633.451 3757
-1621.67 627.887 3724
-1595.01 620.975 3683
-1571.99 615.411 3650
-1563.26 615.411 3650
-1541.33 610.184 3619
-1522.51 606.137 3595
-1494.54 598.381 3549
-1486.05 598.381 3549
-1471.32 595.852 3534
-1459.97 594.672 3527
-1442.49 590.963 3505
-1434.1 590.963 3505
-1410.67 584.724 3468
-1396.72 582.364 3454
-1377.2 577.643 3426
-1369.01 577.643 3426
-1352.48 574.102 3405
-1333.28 569.381 3377
-1322.46 568.201 3370
-1311.67 567.021 3363
-1303.63 567.021 3363
-1293.27 566.009 3357
-1285.24 566.009 3357
-1277.22 566.009 3357
-1269.19 566.009 3357
-1261.16 566.009 3357
-1253.13 566.009 3357
-1235.09 561.457 3330
-1229.71 562.637 3337
-1221.73 562.637 3337
-1213.75 562.637 3337
-1207.94 563.649 3343
-1199.94 563.649 3343
-1191.95 563.649 3343
-1186.43 564.829 3350
-1178.42 564.829 3350
-1170.41 564.829 3350
-1162.4 564.829 3350
-1166.11 570.562 3384
-1158.02 570.562 3384
-1149.92 570.562 3384
-1128 563.649 3343
-1120 563.649 3343
-1098.7 556.904 3303
-1090.8 556.904 3303
-1078.64 554.713 3290
-998.198 517.114 3067
-842.671 486.596 2886
-840.113 489.125 2901
-833.176 489.125 2901
-826.239 489.125 2901
-801.376 495.195 2937
-797.057 496.881 2947
-791.618 497.892 2953
-784.557 497.892 2953
-777.495 497.892 2953
-763.651 493.509 2927
-756.651 493.509 2927
-748.371 492.666 2922
-740.115 491.823 2917
-727.622 569.381 3377
-721.038 570.562 3384
-712.946 570.562 3384
-707.77 572.922 3398
-703.968 576.463 3419
-695.792 576.463 3419
-687.616 576.463 3419
-679.44 576.463 3419
-671.264 576.463 3419
-663.088 576.463 3419
-650.89 572.922 3398
-637.468 568.201 3370
-638.561 576.463 3419
-635.548 581.184 3447
-637.86 590.963 3505
-629.478 590.963 3505
-621.097 590.963 3505
-611.317 589.614 3497
-602.954 589.614 3497
-594.592 589.614 3497
-587.571 590.963 3505
-582.825 594.672 3527
-575.531 595.852 3534
-567.08 595.852 3534
-561 598.381 3549
-556.094 602.259 3572
-548.778 603.608 3580
-540.218 603.608 3580
-532.845 604.957 3588
-525.288 606.137 3595
-518.99 608.835 3611
-510.355 608.835 3611
-502.832 610.184 3619
-494.178 610.184 3619
-485.524 610.184 3619
-476.87 610.184 3619
-467.18 608.835 3611
-458.545 608.835 3611
-450.907 610.184 3619
-442.253 610.184 3619
-438.272 616.759 3658
-430.581 618.277 3667
-422.732 619.626 3675
-413.944 619.626 3675
-406.92 622.323 3691
-399.82 625.021 3707
-391.904 626.539 3716
-383.018 626.539 3716
-375.743 629.236 3732
-368.49 632.103 3749
-361.922 636.318 3774
-352.897 636.318 3774
-344.693 637.835 3783
-336.445 639.353 3792
-331.089 646.603 3835
-321.919 646.603 3835
-314.216 649.638 3853
-308.564 657.225 3898
-299.934 658.742 3907
-290.591 658.742 3907
-281.248 658.742 3907
-271.906 658.742 3907
-262.563 658.742 3907
-253.22 658.742 3907
-242.192 654.19 3880
-229.672 645.085 3826
-220.062 643.736 3818
-210.932 643.736 3818
-120.774 385.264 2285
-115.31 385.264 2285
-109.846 385.264 2285
-104.245 384.758 2282
-98.0088 381.723 2264
-92.0632 379.531 2251
-86.6804 379.531 2251
-80.9725 378.014 2242
-75.1054 375.485 2227
-69.7799 375.485 2227
-64.2808 374.473 2221
-58.9698 374.473 2221
-53.5862 373.967 2218
-48.217 373.462 2215
-42.9202 373.462 2215
-37.6235 373.462 2215
-32.3268 373.462 2215
-27.03 373.462 2215
-21.7333 373.462 2215
-16.4366 373.462 2215
-11.1298 373.124 2213
-5.83782 373.124 2213
-0.546355 373.462 2215
4.77612 375.485 2227
10.1015 375.485 2227
15.4893 377.002 2236
20.9481 379.025 2248
26.3589 379.531 2251
31.7417 379.531 2251
37.4379 382.735 2270
42.8661 382.735 2270
48.2944 382.735 2270
53.7227 382.735 2270
59.3854 384.252 2279
64.9206 384.758 2282
70.47 385.264 2285
75.9342 385.264 2285
81.5052 385.77 2288
86.9765 385.77 2288
92.4478 385.77 2288
97.6623 384.758 2282
103.119 384.758 2282
108.719 385.264 2285
114.183 385.264 2285
119.647 385.264 2285
124.947 384.758 2282
130.233 384.252 2279
135.682 384.252 2279
141.132 384.252 2279
146.389 383.746 2276
151.631 383.241 2273
156.86 382.735 2270
162.288 382.735 2270
167.716 382.735 2270
173.373 383.241 2273
179.045 383.746 2276
184.73 384.252 2279
190.18 384.252 2279
195.887 384.758 2282
201.609 385.264 2285
207.073 385.264 2285
212.537 385.264 2285
217.715 384.758 2282
540.666 502.276 2979
547.789 502.276 2979
555.845 503.119 2984
562.98 503.119 2984
570.116 503.119 2984
569.127 496.038 2942
576.162 496.038 2942
582.206 495.195 2937
589.229 495.195 2937
598.283 496.881 2947
607.589 498.736 2958
614.663 498.736 2958
626.15 502.276 2979
633.274 502.276 2979
640.397 502.276 2979
647.521 502.276 2979
652.228 500.422 2968
661.769 502.276 2979
668.892 502.276 2979
676.016 502.276 2979
683.14 502.276 2979
691.422 503.119 2984
699.962 504.131 2990
709.477 505.817 3000
716.651 505.817 3000
725.273 506.829 3006
733.679 507.672 3011
743.586 509.526 3022
750.812 509.526 3022
758.039 509.526 3022
762.48 507.672 3011
769.68 507.672 3011
776.88 507.672 3011
782.779 506.829 3006
789.967 506.829 3006
797.155 506.829 3006
798.457 503.119 2984
807.212 504.131 2990
818.72 506.829 3006
828.93 508.683 3017
836.145 508.683 3017
844.757 509.526 3022
853.675 510.538 3028
860.916 510.538 3028
868.157 510.538 3028
875.398 510.538 3028
877.683 507.672 3011
880.181 504.974 2995
895.343 509.526 3022
902.569 509.526 3022
921.537 516.102 3061
942.815 523.858 3107
950.245 523.858 3107
957.675 523.858 3107
970.385 526.724 3124
996.637 536.84 3184
1021.6 546.114 3239
1029.34 546.114 3239
1043.17 549.317 3258
1067.74 558.085 3310
1082.15 561.457 3330
1090.11 561.457 3330
1104.67 564.829 3350
1119.33 568.201 3370
1155.49 582.364 3454
1163.75 582.364 3454
1181.85 587.253 3483
1202.82 593.492 3520
1213.64 594.672 3527
1222.08 594.672 3527
1232.95 595.852 3534
1244.22 597.201 3542
1255.16 598.381 3549
1263.65 598.381 3549
1275 599.73 3557
1286.4 601.079 3565
1297.46 602.259 3572
1306 602.259 3572
1320.43 604.957 3588
1334.57 607.486 3603
1346.17 608.835 3611
1354.8 608.835 3611
1366.46 610.184 3619
1381.19 612.882 3635
1389.89 612.882 3635
1398.58 612.882 3635
1407.27 612.882 3635
1406.61 608.835 3611
1415.25 608.835 3611
1411.66 603.608 3580
1411.1 599.73 3557
1410.42 595.852 3534
1404.02 589.614 3497
1412.38 589.614 3497
1400.43 581.184 3447
1394.37 575.282 3412
1385.26 568.201 3370
1393.32 568.201 3370
1381.84 560.277 3323
1389.78 560.277 3323
1386.79 555.893 3297
1394.68 555.893 3297
1394.48 552.689 3278
1399.32 551.509 3271
1404.56 550.497 3265
1412.37 550.497 3265
1420.18 550.497 3265
1424.92 549.317 3258
1432.72 549.317 3258
1443.6 550.497 3265
1454.08 551.509 3271
1461.9 551.509 3271
1469.72 551.509 3271
1480.7 552.689 3278
1488.54 552.689 3278
1496.38 552.689 3278
1501.01 551.509 3271
1506.06 550.497 3265
1513.87 550.497 3265
1518.42 549.317 3258
1520.58 547.294 3246
1522.23 545.102 3233
1518.13 540.887 3208
1525.8 540.887 3208
1524.86 537.852 3190
1518.08 532.794 3160
1511.15 527.736 3130
1518.64 527.736 3130
1509.06 521.834 3095
1502.74 517.114 3067
1482.5 507.672 3011
1473.87 502.276 2979
1480.99 502.276 2979
1462.14 493.509 2927
1453.58 488.282 2896
1450.42 484.91 2876
1457.3 484.91 2876
1461.63 484.067 2871
1468.49 484.067 2871
1472.79 483.224 2866
1479.64 483.224 2866
1481.83 481.706 2857
1486.06 480.863 2852
1487.64 479.177 2842
1491.81 478.334 2837
1498.59 478.334 2837
1505.38 478.334 2837
1509.5 477.491 2832
1514.13 476.817 2828
1520.89 476.817 2828
1524.95 475.974 2823
1528.99 475.131 2818
1535.73 475.131 2818
1542.47 475.131 2818
1546.46 474.288 2813
1550.97 473.613 2809
1554.92 472.77 2804
1561.62 472.77 2804
1562.74 471.084 2794
1569.42 471.084 2794
1573.84 470.41 2790
1582.78 471.084 2794
1589.46 471.084 2794
1596.14 471.084 2794
1605.69 471.927 2799
1615.26 472.77 2804
1624.86 473.613 2809
1631.58 473.613 2809
1638.3 473.613 2809
1645.01 473.613 2809
1654.08 474.288 2813
1660.81 474.288 2813
1670.5 475.131 2818
1677.24 475.131 2818
1683.98 475.131 2818
1690.72 475.131 2818
1697.46 475.131 2818
1707.22 475.974 2823
1713.97 475.974 2823
1720.72 475.974 2823
1727.47 475.974 2823
1734.22 475.974 2823
1737.89 475.131 2818
1744.63 475.131 2818
1751.36 475.131 2818
1758.1 475.131 2818
1764.84 475.131 2818
1771.58 475.131 2818
1778.32 475.131 2818
1781.89 474.288 2813
1786.07 473.613 2809
1792.79 473.613 2809
1799.51 473.613 2809
1806.23 473.613 2809
1809.72 472.77 2804
1813.18 471.927 2799
1819.88 471.927 2799
1826.57 471.927 2799
1829.99 471.084 2794
1836.67 471.084 2794
1843.35 471.084 2794
1847.38 470.41 2790
1850.73 469.567 2785
1857.39 469.567 2785
1864.05 469.567 2785
1870.71 469.567 2785
1877.37 469.567 2785
1880.65 468.724 2780
1887.3 468.724 2780
1887.81 467.206 2771
1888.29 465.689 2762
1894.89 465.689 2762
1901.5 465.689 2762
1908.1 465.689 2762
1914.7 465.689 2762
1921.31 465.689 2762
1927.91 465.689 2762
1934.52 465.689 2762
1941.12 465.689 2762
1941.38 464.171 2753
1944.43 463.328 2748
1957.39 464.846 2757
1963.98 464.846 2757
1970.57 464.846 2757
1977.17 464.846 2757
1983.76 464.846 2757
1983.86 463.328 2748
1983.91 461.811 2739
1990.46 461.811 2739
2003.57 463.328 2748
2020.38 465.689 2762
2026.99 465.689 2762
2033.59 465.689 2762
2046.84 467.206 2771
2053.47 467.206 2771
2060.1 467.206 2771
2070.45 468.049 2776
2080.08 468.724 2780
2094.24 470.41 2790
2100.91 470.41 2790
2110.6 471.084 2794
2121.07 471.927 2799
2127.77 471.927 2799
2134.46 471.927 2799
2141.15 471.927 2799
-2038.63 474.699 2776
-2031.99 474.699 2776
-2025.35 474.699 2776
-2015.08 473.844 2771
-2008.45 473.844 2771
-2001.83 473.844 2771
-1992.32 473.16 2767
-1978.53 471.45 2757
-1971.93 471.45 2757
-2012.34 485.985 2842
-2012.6 487.695 2852
-2102.84 511.293 2990
-2095.69 511.293 2990
-2088.54 511.293 2990
-2034.05 499.665 2922
-2023.59 498.81 2917
-2016.62 498.81 2917
-1991.73 494.364 2891
-1984.82 494.364 2891
-1971.06 492.654 2881
-1967.58 493.509 2886
-1964.08 494.364 2891
-1963.93 496.074 2901
-1957 496.074 2901
-1950.06 496.074 2901
-1946.47 496.929 2906
-1942.86 497.784 2911
-1935.9 497.784 2911
-1942.85 501.375 2932
-1942.44 503.085 2942
-1935.41 503.085 2942
-1928.37 503.085 2942
-1924.6 503.94 2947
-1927.97 506.676 2963
-1952 514.884 3011
-1944.8 514.884 3011
-1962.7 521.554 3050
-1958.61 522.409 3055
-1951.3 522.409 3055
-1951.63 524.461 3067
-1962.05 529.249 3095
-1962.23 531.301 3107
-1954.8 531.301 3107
-1961.78 535.234 3130
-1958.05 536.26 3136
-1950.55 536.26 3136
-1943.05 536.26 3136
-1942.95 538.312 3148
-1953.87 543.442 3178
-1949.95 544.468 3184
-1942.33 544.468 3184
-1938.36 545.494 3190
-1930.74 545.494 3190
-1926.72 546.52 3196
-1919.08 546.52 3196
-1918.62 548.572 3208
-1925.84 552.847 3233
-1944.8 560.542 3278
-1936.97 560.542 3278
-1952.08 567.211 3317
-1963.49 572.854 3350
-1987.58 582.259 3405
-1979.44 582.259 3405
-1995.61 589.441 3447
-1995.44 591.835 3461
-2007.84 597.991 3497
-1999.47 597.991 3497
-2004.21 601.924 3520
-2003.73 604.318 3534
-1995.28 604.318 3534
-1986.82 604.318 3534
-1978.37 604.318 3534
-1974.38 605.686 3542
-1969.8 606.883 3549
-1961.31 606.883 3549
-1952.82 606.883 3549
-1944.34 606.883 3549
-1935.85 606.883 3549
-1927.36 606.883 3549
-1923.2 608.251 3557
-1914.7 608.251 3557
-1910.48 609.619 3565
-1901.95 609.619 3565
-1893.43 609.619 3565
-1884.9 609.619 3565
-1876.38 609.619 3565
-1863.66 608.251 3557
-1859.33 609.619 3565
-1850.8 609.619 3565
-1850.03 612.184 3580
-1841.47 612.184 3580
-1832.91 612.184 3580
-1824.35 612.184 3580
-1815.79 612.184 3580
-1807.23 612.184 3580
-1798.66 612.184 3580
-1790.1 612.184 3580
-1781.54 612.184 3580
-1772.98 612.184 3580
-1764.42 612.184 3580
-1755.86 612.184 3580
-1754.62 614.749 3595
-1746.02 614.749 3595
-1745.16 617.485 3611
-1740.37 618.853 3619
-1746.55 624.154 3650
-1737.82 624.154 3650
-1737.15 627.061 3667
-1739.69 631.165 3691
-1742.59 635.44 3716
-1733.7 635.44 3716
-1732.24 638.176 3732
-1731.17 641.083 3749
-1725.88 642.451 3757
-1716.89 642.451 3757
-1715.64 645.358 3774
-1718.37 649.804 3800
-1720.98 654.25 3826
-1711.83 654.25 3826
-1702.68 654.25 3826
-1682.02 649.804 3800
-1672.94 649.804 3800
-1652.47 645.358 3774
-1628.63 639.544 3740
-1595.01 629.797 3683
-1571.99 624.154 3650
-1563.26 624.154 3650
-1544.73 620.221 3627
-1522.51 614.749 3595
-1488.22 604.318 3534
-1479.77 604.318 3534
-1471.32 604.318 3534
-1457.08 601.924 3520
-1442.49 599.359 3505
-1434.1 599.359 3505
-1410.67 593.032 3468
-1396.72 590.638 3454
-1377.2 585.85 3426
-1369.01 585.85 3426
-1352.48 582.259 3405
-1336.04 578.668 3384
-1325.2 577.471 3377
-1314.4 576.274 3370
-1306.34 576.274 3370
-1295.58 575.077 3363
-1287.54 575.077 3363
-1284.83 577.471 3377
-1279.4 578.668 3384
-1271.31 578.668 3384
-1263.21 578.668 3384
-1255.12 578.668 3384
-1259.93 584.653 3419
-1251.75 584.653 3419
-1243.57 584.653 3419
-1240.46 587.047 3433
-1232.25 587.047 3433
-1224.04 587.047 3433
-1213.35 585.85 3426
-1205.16 585.85 3426
-1196.97 585.85 3426
-1188.77 585.85 3426
-1180.58 585.85 3426
-1158.02 578.668 3384
-1149.92 578.668 3384
-1130.36 572.854 3350
-1120 571.657 3343
-1098.7 564.817 3303
-1090.8 564.817 3303
-1078.64 562.594 3290
-842.671 493.509 2886
-835.769 493.509 2886
-828.868 493.509 2886
-797.057 503.94 2947
-791.618 504.966 2953
-784.557 504.966 2953
-777.495 504.966 2953
-761.042 498.81 2917
-754.066 498.81 2917
-747.091 498.81 2917
-727.622 577.471 3377
-721.038 578.668 3384
-712.946 578.668 3384
-707.77 581.062 3398
-703.968 584.653 3419
-697.216 585.85 3426
-689.024 585.85 3426
-682.222 587.047 3433
-680.885 593.032 3468
-672.592 593.032 3468
-664.299 593.032 3468
-646.737 584.653 3419
-645.098 590.638 3454
-647.532 600.556 3512
-639.134 600.556 3512
-630.736 600.556 3512
-622.337 600.556 3512
-613.939 600.556 3512
-608.127 603.121 3527
-599.693 603.121 3527
-591.259 603.121 3527
-585.303 605.686 3542
-577.973 606.883 3549
-569.487 606.883 3549
-564.636 610.816 3572
-557.339 612.184 3580
-550.005 613.552 3588
-541.425 613.552 3588
-533.884 614.749 3595
-526.456 616.117 3603
-520.14 618.853 3619
-511.486 618.853 3619
-502.832 618.853 3619
-494.178 618.853 3619
-485.524 618.853 3619
-476.87 618.853 3619
-467.18 617.485 3611
-458.545 617.485 3611
-450.907 618.853 3619
-442.253 618.853 3619
-438.272 625.522 3658
-430.581 627.061 3667
-422.732 628.429 3675
-413.944 628.429 3675
-406.038 629.797 3683
-398.957 632.533 3699
-391.904 635.44 3716
-383.018 635.44 3716
-374.938 636.808 3724
-368.49 641.083 3749
-361.155 643.99 3766
-352.149 643.99 3766
-344.693 646.897 3783
-336.445 648.436 3792
-331.089 655.789 3835
-321.919 655.789 3835
-314.216 658.867 3853
-308.564 666.562 3898
-299.934 668.102 3907
-290.591 668.102 3907
-281.248 668.102 3907
-271.906 668.102 3907
-262.563 668.102 3907
-253.22 668.102 3907
-242.192 663.484 3880
-229.672 654.25 3826
-220.062 652.882 3818
-210.932 652.882 3818
-120.616 390.225 2282
-115.159 390.225 2282
-109.702 390.225 2282
-104.108 389.712 2279
-97.879 386.634 2261
-91.9405 384.411 2248
-86.3338 383.385 2242
-80.9725 383.385 2242
-75.1054 380.82 2227
-69.7799 380.82 2227
-64.2808 379.794 2221
-58.9698 379.794 2221
-53.6587 379.794 2221
-48.2823 379.281 2218
-42.9202 378.768 2215
-37.6235 378.768 2215
-32.3268 378.768 2215
-27.03 378.768 2215
-21.7333 378.768 2215
-16.4366 378.768 2215
-11.1398 378.768 2215
-5.84309 378.768 2215
-0.547095 379.281 2218
4.78255 381.333 2230
10.1152 381.333 2230
15.4893 382.359 2236
20.9761 384.924 2251
26.3589 384.924 2251
31.7417 384.924 2251
37.4379 388.173 2270
42.8661 388.173 2270
48.2944 388.173 2270
53.7227 388.173 2270
59.3854 389.712 2279
65.0059 390.738 2285
70.47 390.738 2285
75.9342 390.738 2285
81.5052 391.251 2288
86.9765 391.251 2288
92.4478 391.251 2288
97.7907 390.738 2285
103.119 390.225 2282
108.719 390.738 2285
114.183 390.738 2285
119.647 390.738 2285
124.947 390.225 2282
130.233 389.712 2279
135.682 389.712 2279
141.132 389.712 2279
146.389 389.199 2276
151.631 388.686 2273
156.86 388.173 2270
162.288 388.173 2270
167.716 388.173 2270
173.373 388.686 2273
179.045 389.199 2276
184.73 389.712 2279
190.18 389.712 2279
195.63 389.712 2279
201.08 389.712 2279
206.529 389.712 2279
211.979 389.712 2279
217.143 389.199 2276
555.845 510.267 2984
562.98 510.267 2984
570.116 510.267 2984
569.127 503.085 2942
576.162 503.085 2942
582.206 502.23 2937
589.229 502.23 2937
597.268 503.085 2942
607.589 505.821 2958
614.663 505.821 2958
626.15 509.412 2979
633.274 509.412 2979
640.397 509.412 2979
647.521 509.412 2979
652.228 507.531 2968
661.769 509.412 2979
668.892 509.412 2979
676.016 509.412 2979
683.14 509.412 2979
691.422 510.267 2984
699.962 511.293 2990
709.477 513.003 3000
716.651 513.003 3000
725.273 514.029 3006
733.679 514.884 3011
743.586 516.766 3022
750.812 516.766 3022
758.039 516.766 3022
762.48 514.884 3011
769.68 514.884 3011
776.88 514.884 3011
782.779 514.029 3006
789.967 514.029 3006
797.155 514.029 3006
798.457 510.267 2984
807.212 511.293 2990
818.72 514.029 3006
828.93 515.91 3017
836.145 515.91 3017
844.757 516.766 3022
853.675 517.792 3028
860.916 517.792 3028
868.157 517.792 3028
875.398 517.792 3028
877.683 514.884 3011
880.181 512.148 2995
895.343 516.766 3022
902.569 516.766 3022
921.537 523.435 3061
942.815 531.301 3107
950.245 531.301 3107
957.675 531.301 3107
970.385 534.208 3124
996.637 544.468 3184
1021.6 553.873 3239
1029.34 553.873 3239
1043.17 557.122 3258
1067.74 566.014 3310
1082.15 569.434 3330
1090.11 569.434 3330
1104.67 572.854 3350
1119.33 576.274 3370
1155.49 590.638 3454
1163.75 590.638 3454
1181.85 595.597 3483
1202.82 601.924 3520
1213.64 603.121 3527
1222.08 603.121 3527
1232.95 604.318 3534
1244.22 605.686 3542
1255.16 606.883 3549
1263.65 606.883 3549
1275 608.251 3557
1286.4 609.619 3565
1297.46 610.816 3572
1306 610.816 3572
1317.49 612.184 3580
1331.61 614.749 3595
1343.19 616.117 3603
1351.8 616.117 3603
1363.44 617.485 3611
1375.11 618.853 3619
1383.77 618.853 3619
1392.42 618.853 3619
1401.08 618.853 3619
1397.65 613.552 3588
1406.23 613.552 3588
1405.74 609.619 3565
1405.15 605.686 3542
1401.64 600.556 3512
1389.56 591.835 3461
1397.84 591.835 3461
1391.9 585.85 3426
1388.65 581.062 3398
1379.92 574.051 3357
1387.95 574.051 3357
1381.84 568.237 3323
1389.78 568.237 3323
1386.79 563.791 3297
1394.68 563.791 3297
1394.48 560.542 3278
1399.32 559.345 3271
1404.56 558.319 3265
1412.37 558.319 3265
1420.18 558.319 3265
1424.92 557.122 3258
1432.72 557.122 3258
1443.6 558.319 3265
1451.41 558.319 3265
1459.22 558.319 3265
1469.72 559.345 3271
1477.54 559.345 3271
1485.36 559.345 3271
1493.19 559.345 3271
1501.01 559.345 3271
1502.83 557.122 3258
1510.62 557.122 3258
1515.62 556.096 3252
1520.58 555.07 3246
1522.23 552.847 3233
1518.13 548.572 3208
1525.8 548.572 3208
1524.86 545.494 3190
1518.08 540.364 3160
1511.15 535.234 3130
1518.64 535.234 3130
1509.06 529.249 3095
1502.74 524.461 3067
1482.5 514.884 3011
1473.87 509.412 2979
1480.99 509.412 2979
1462.14 500.52 2927
1453.58 495.219 2896
1450.42 491.799 2876
1457.3 491.799 2876
1461.63 490.944 2871
1468.49 490.944 2871
1472.79 490.089 2866
1479.64 490.089 2866
1481.83 488.55 2857
1486.06 487.695 2852
1487.64 485.985 2842
1491.81 485.13 2837
1498.59 485.13 2837
1505.38 485.13 2837
1509.5 484.275 2832
1514.13 483.591 2828
1520.89 483.591 2828
1524.95 482.736 2823
1528.99 481.881 2818
1533 481.026 2813
1539.73 481.026 2813
1546.46 481.026 2813
1550.97 480.342 2809
1554.92 479.487 2804
1561.62 479.487 2804
1562.74 477.777 2794
1569.42 477.777 2794
1573.84 477.093 2790
1582.78 477.777 2794
1589.46 477.777 2794
1596.14 477.777 2794
1605.69 478.632 2799
1615.26 479.487 2804
1624.86 480.342 2809
1631.58 480.342 2809
1638.3 480.342 2809
1645.01 480.342 2809
1654.08 481.026 2813
1660.81 481.026 2813
1670.5 481.881 2818
1677.24 481.881 2818
1683.98 481.881 2818
1693.72 482.736 2823
1700.47 482.736 2823
1707.22 482.736 2823
1717 483.591 2828
1723.77 483.591 2828
1730.53 483.591 2828
1737.29 483.591 2828
1744.05 483.591 2828
1750.82 483.591 2828
1757.58 483.591 2828
1761.22 482.736 2823
1767.97 482.736 2823
1774.72 482.736 2823
1781.47 482.736 2823
1785.06 481.881 2818
1788.62 481.026 2813
1795.34 481.026 2813
1802.07 481.026 2813
1808.8 481.026 2813
1812.94 480.342 2809
1819.66 480.342 2809
1823.13 479.487 2804
1826.57 478.632 2799
1829.99 477.777 2794
1836.67 477.777 2794
1843.35 477.777 2794
1847.38 477.093 2790
1854.05 477.093 2790
1860.73 477.093 2790
1867.4 477.093 2790
1874.07 477.093 2790
1877.37 476.238 2785
1880.65 475.383 2780
1887.3 475.383 2780
1887.81 473.844 2771
1888.29 472.305 2762
1894.89 472.305 2762
1901.5 472.305 2762
1908.1 472.305 2762
1914.7 472.305 2762
1921.31 472.305 2762
1927.91 472.305 2762
1934.52 472.305 2762
1941.12 472.305 2762
1941.38 470.766 2753
1944.43 469.911 2748
1957.39 471.45 2757
1963.98 471.45 2757
1970.57 471.45 2757
1977.17 471.45 2757
1983.76 471.45 2757
1983.86 469.911 2748
1983.91 468.372 2739
1990.46 468.372 2739
2003.57 469.911 2748
2020.38 472.305 2762
2026.99 472.305 2762
2033.59 472.305 2762
2046.84 473.844 2771
2053.47 473.844 2771
2060.1 473.844 2771
2070.45 474.699 2776
2080.08 475.383 2780
2094.24 477.093 2790
2100.91 477.093 2790
2114.38 478.632 2799
2121.07 478.632 2799
2135.37 480.342 2809
2142.08 480.342 2809
2148.8 480.342 2809
-2038.63 481.349 2776
-2031.99 481.349 2776
-2025.35 481.349 2776
-2015.08 480.482 2771
-2008.45 480.482 2771
-2001.83 480.482 2771
-1992.32 479.789 2767
-1978.53 478.055 2757
-1971.93 478.055 2757
-2012.34 492.793 2842
-2012.6 494.527 2852
-2121.83 523.138 3017
-2114.61 523.138 3017
-2107.4 523.138 3017
-2081.39 518.456 2990
-2034 508.399 2932
-2026.99 508.399 2932
-2009.64 505.798 2917
-2002.67 505.798 2917
-1981.33 502.157 2896
-1974.4 502.157 2896
-1985.14 506.665 2922
-1978.15 506.665 2922
-1971.16 506.665 2922
-1964.18 506.665 2922
-1957.19 506.665 2922
-1960.21 509.266 2937
-1953.19 509.266 2937
-1963.4 513.774 2963
-1966.87 516.549 2979
-1959.75 516.549 2979
-1952.63 516.549 2979
-1948.77 517.416 2984
-1973.52 525.912 3033
-1966.26 525.912 3033
-1973.22 529.727 3055
-1987.79 535.622 3089
-1984.25 536.663 3095
-1976.85 536.663 3095
-1973.27 537.703 3101
-1984.24 542.732 3130
-1980.54 543.772 3136
-1973.04 543.772 3136
-1980.59 547.933 3160
-1973.03 547.933 3160
-1965.47 547.933 3160
-1957.92 547.933 3160
-1961.47 551.055 3178
-1964.94 554.176 3196
-1957.3 554.176 3196
-1949.65 554.176 3196
-1942.01 554.176 3196
-1934.37 554.176 3196
-1933.96 556.256 3208
-1926.29 556.256 3208
-1922.2 557.297 3214
-1933.58 562.846 3246
-1956.08 571.689 3297
-1948.19 571.689 3297
-1971.5 580.879 3350
-1979.31 585.561 3377
-2003.93 595.271 3433
-1995.72 595.271 3433
-1999.67 598.912 3454
-2012.16 605.154 3490
-2007.84 606.368 3497
-1999.47 606.368 3497
-2004.21 610.356 3520
-2008.26 614.171 3542
-1999.79 614.171 3542
-1991.32 614.171 3542
-1982.85 614.171 3542
-1978.28 615.385 3549
-1974.24 616.772 3557
-1965.73 616.772 3557
-1957.23 616.772 3557
-1948.72 616.772 3557
-1940.21 616.772 3557
-1931.71 616.772 3557
-1923.2 616.772 3557
-1914.7 616.772 3557
-1910.48 618.159 3565
-1901.95 618.159 3565
-1893.43 618.159 3565
-1880.67 616.772 3557
-1872.17 616.772 3557
-1859.47 615.385 3549
-1855.16 616.772 3557
-1846.65 616.772 3557
-1842.28 618.159 3565
-1833.75 618.159 3565
-1825.23 618.159 3565
-1816.7 618.159 3565
-1811.73 619.373 3572
-1803.19 619.373 3572
-1794.65 619.373 3572
-1786.1 619.373 3572
-1777.56 619.373 3572
-1769.02 619.373 3572
-1760.48 619.373 3572
-1755.86 620.76 3580
-1754.62 623.361 3595
-1746.02 623.361 3595
-1745.16 626.135 3611
-1740.37 627.523 3619
-1746.55 632.898 3650
-1737.82 632.898 3650
-1737.15 635.846 3667
-1739.69 640.007 3691
-1742.59 644.342 3716
-1733.7 644.342 3716
-1740.13 650.064 3749
-1739.02 653.012 3766
-1730.01 653.012 3766
-1721.01 653.012 3766
-1723.82 657.52 3792
-1730.13 663.416 3826
-1725.03 664.976 3835
-1715.86 664.976 3835
-1706.69 664.976 3835
-1697.52 664.976 3835
-1688.35 664.976 3835
-1656.41 655.96 3783
-1639.96 653.012 3766
-1598.47 640.007 3691
-1575.43 634.285 3658
-1566.68 634.285 3658
-1548.14 630.297 3635
-1532.67 627.523 3619
-1497.91 616.772 3557
-1489.4 616.772 3557
-1471.32 612.784 3534
-1457.08 610.356 3520
-1445.37 608.969 3512
-1436.97 608.969 3512
-1407.82 600.126 3461
-1396.72 598.912 3454
-1377.2 594.057 3426
-1369.01 594.057 3426
-1352.48 590.416 3405
-1336.04 586.774 3384
-1325.2 585.561 3377
-1317.13 585.561 3377
-1309.05 585.561 3377
-1295.58 583.133 3363
-1292.9 585.561 3377
-1292.82 589.202 3398
-1284.69 589.202 3398
-1276.56 589.202 3398
-1268.44 589.202 3398
-1268.1 592.843 3419
-1265.09 595.271 3433
-1256.88 595.271 3433
-1251.21 596.484 3440
-1248.05 598.912 3454
-1239.79 598.912 3454
-1231.53 598.912 3454
-1228.23 601.34 3468
-1225.21 603.941 3483
-1216.88 603.941 3483
-1208.55 603.941 3483
-1200.22 603.941 3483
-1172.39 594.057 3426
-1164.19 594.057 3426
-1141.83 586.774 3384
-1120 579.665 3343
-1101.03 573.943 3310
-1093.12 573.943 3310
-1085.2 573.943 3310
-918.155 645.729 3724
-909.25 645.729 3724
-900.345 645.729 3724
-891.44 645.729 3724
-886.326 648.504 3740
-877.383 648.504 3740
-868.439 648.504 3740
-859.496 648.504 3740
-790.106 635.846 3667
-781.337 635.846 3667
-772.568 635.846 3667
-763.8 635.846 3667
-705.409 594.057 3426
-697.216 594.057 3426
-689.024 594.057 3426
-682.222 595.271 3433
-680.885 601.34 3468
-672.592 601.34 3468
-664.299 601.34 3468
-656.005 601.34 3468
-655.93 608.969 3512
-651.588 612.784 3534
-643.137 612.784 3534
-634.687 612.784 3534
-626.236 612.784 3534
-617.785 612.784 3534
-609.334 612.784 3534
-600.883 612.784 3534
-594.947 615.385 3549
-586.46 615.385 3549
-581.719 619.373 3572
-573.177 619.373 3572
-565.9 620.76 3580
-560.92 624.748 3603
-552.304 624.748 3603
-543.688 624.748 3603
-535.072 624.748 3603
-527.625 626.135 3611
-520.14 627.523 3619
-511.486 627.523 3619
-503.944 628.91 3627
-495.27 628.91 3627
-486.597 628.91 3627
-476.87 627.523 3619
-468.215 627.523 3619
-458.545 626.135 3611
-450.907 627.523 3619
-442.253 627.523 3619
-438.272 634.285 3658
-430.581 635.846 3667
-422.732 637.233 3675
-413.944 637.233 3675
-405.156 637.233 3675
-398.094 640.007 3691
-390.111 641.394 3699
-381.266 641.394 3699
-374.132 644.342 3716
-366.819 647.116 3732
-359.525 650.064 3749
-350.56 650.064 3749
-343.144 653.012 3766
-336.445 657.52 3792
-329.622 662.028 3818
-320.492 662.028 3818
-313.482 666.537 3844
-306.427 671.219 3871
-299.243 675.9 3898
-289.922 675.9 3898
-280.6 675.9 3898
-271.279 675.9 3898
-261.958 675.9 3898
-252.053 674.34 3889
-240.506 668.097 3853
-229.672 663.416 3826
-219.024 658.907 3800
-209.937 658.907 3800
-120.457 395.171 2279
-115.008 395.171 2279
-109.558 395.171 2279
-103.971 394.651 2276
-97.879 392.05 2261
-91.9405 389.796 2248
-86.3338 388.755 2242
-80.9725 388.755 2242
-75.2065 386.675 2230
-69.8739 386.675 2230
-64.4545 386.154 2227
-59.1291 386.154 2227
-53.8036 386.154 2227
-48.3476 385.114 2221
-42.9784 384.594 2218
-37.6745 384.594 2218
-32.3268 384.074 2215
-27.03 384.074 2215
-21.7333 384.074 2215
-16.4366 384.074 2215
-11.1398 384.074 2215
-5.84309 384.074 2215
-0.547095 384.594 2218
4.78255 386.675 2230
10.1152 386.675 2230
15.4893 387.715 2236
20.9761 390.316 2251
26.394 390.836 2254
31.784 390.836 2254
37.4379 393.61 2270
42.8661 393.61 2270
48.2944 393.61 2270
53.7227 393.61 2270
59.3854 395.171 2279
65.0059 396.211 2285
70.47 396.211 2285
75.9342 396.211 2285
81.5052 396.732 2288
86.9765 396.732 2288
92.4478 396.732 2288
97.7907 396.211 2285
103.255 396.211 2285
108.862 396.732 2288
114.333 396.732 2288
119.804 396.732 2288
125.111 396.211 2285
130.404 395.691 2282
135.682 395.171 2279
141.132 395.171 2279
146.389 394.651 2276
151.832 394.651 2276
157.274 394.651 2276
162.717 394.651 2276
168.159 394.651 2276
173.831 395.171 2279
179.517 395.691 2282
184.974 395.691 2282
190.43 395.691 2282
196.145 396.211 2285
201.609 396.211 2285
207.073 396.211 2285
212.537 396.211 2285
217.429 395.171 2279
626.15 516.549 2979
633.274 516.549 2979
640.397 516.549 2979
647.521 516.549 2979
652.228 514.641 2968
661.769 516.549 2979
668.892 516.549 2979
676.016 516.549 2979
683.14 516.549 2979
691.422 517.416 2984
699.962 518.456 2990
710.896 521.23 3006
718.084 521.23 3006
726.479 522.097 3011
736.359 524.005 3022
745.062 525.045 3028
752.303 525.045 3028
767.822 530.767 3061
775.142 530.767 3061
783.995 531.808 3067
791.329 531.808 3067
798.663 531.808 3067
805.997 531.808 3067
813.332 531.808 3067
814.511 527.819 3044
826.38 530.767 3061
841.326 535.622 3089
852.01 537.703 3101
859.425 537.703 3101
866.841 537.703 3101
874.256 537.703 3101
881.671 537.703 3101
887.367 536.663 3095
894.768 536.663 3095
897.213 533.715 3078
904.574 533.715 3078
913.712 534.755 3084
921.087 534.755 3084
944.116 543.772 3136
958.898 547.933 3160
966.455 547.933 3160
974.011 547.933 3160
992.75 554.176 3196
1010.1 559.551 3227
1027.59 564.926 3258
1035.38 564.926 3258
1059.82 573.943 3310
1074.19 577.411 3330
1092.88 583.133 3363
1100.92 583.133 3363
1113.58 585.561 3377
1135.6 592.843 3419
1155.49 598.912 3454
1163.75 598.912 3454
1181.85 603.941 3483
1200.08 608.969 3512
1211.24 610.356 3520
1219.65 610.356 3520
1230.51 611.57 3527
1244.22 614.171 3542
1252.69 614.171 3542
1261.16 614.171 3542
1275 616.772 3557
1286.4 618.159 3565
1297.46 619.373 3572
1306 619.373 3572
1317.49 620.76 3580
1331.61 623.361 3595
1343.19 624.748 3603
1351.8 624.748 3603
1363.44 626.135 3611
1375.11 627.523 3619
1383.77 627.523 3619
1392.42 627.523 3619
1401.08 627.523 3619
1394.54 620.76 3580
1403.1 620.76 3580
1402.59 616.772 3557
1405.15 614.171 3542
1401.64 608.969 3512
1395.59 602.727 3476
1403.9 602.727 3476
1391.9 594.057 3426
1394.37 591.629 3412
1382.39 583.133 3363
1390.43 583.133 3363
1384.75 577.411 3330
1389.78 576.197 3323
1389.32 572.729 3303
1397.22 572.729 3303
1394.48 568.394 3278
1399.32 567.18 3271
1404.56 566.14 3265
1412.37 566.14 3265
1420.18 566.14 3265
1422.3 563.886 3252
1430.08 563.886 3252
1440.51 564.926 3258
1451.41 566.14 3265
1459.22 566.14 3265
1467.02 566.14 3265
1474.83 566.14 3265
1482.64 566.14 3265
1490.45 566.14 3265
1495.04 564.926 3258
1500.07 563.886 3252
1507.84 563.886 3252
1512.82 562.846 3246
1517.31 561.632 3239
1522.23 560.591 3233
1518.13 556.256 3208
1525.8 556.256 3208
1524.86 553.135 3190
1518.08 547.933 3160
1511.15 542.732 3130
1518.64 542.732 3130
1509.06 536.663 3095
1505.19 532.675 3072
1487.92 524.005 3022
1481.79 519.323 2995
1488.95 519.323 2995
1467.14 509.266 2937
1456.09 503.024 2901
1457.98 501.29 2891
1464.9 501.29 2891
1464.17 498.689 2876
1468.49 497.822 2871
1475.36 497.822 2871
1482.22 497.822 2871
1486.5 496.955 2866
1486.06 494.527 2852
1485.02 491.926 2837
1491.81 491.926 2837
1498.59 491.926 2837
1502.72 491.059 2832
1509.5 491.059 2832
1514.13 490.366 2828
1520.89 490.366 2828
1524.95 489.499 2823
1526.28 487.765 2813
1533 487.765 2813
1539.73 487.765 2813
1544.26 487.071 2809
1548.21 486.204 2804
1552.15 485.337 2799
1558.84 485.337 2799
1562.74 484.47 2794
1567.17 483.777 2790
1571.02 482.91 2785
1580.51 483.777 2790
1589.46 484.47 2794
1596.14 484.47 2794
1602.82 484.47 2794
1615.26 486.204 2804
1621.97 486.204 2804
1628.68 486.204 2804
1635.38 486.204 2804
1645.01 487.071 2809
1651.73 487.071 2809
1658.45 487.071 2809
1667.54 487.765 2813
1677.24 488.632 2818
1683.98 488.632 2818
1693.72 489.499 2823
1700.47 489.499 2823
1707.22 489.499 2823
1717 490.366 2828
1723.77 490.366 2828
1730.53 490.366 2828
1737.29 490.366 2828
1744.05 490.366 2828
1750.82 490.366 2828
1757.58 490.366 2828
1761.22 489.499 2823
1767.97 489.499 2823
1774.72 489.499 2823
1781.47 489.499 2823
1785.06 488.632 2818
1788.62 487.765 2813
1795.34 487.765 2813
1802.07 487.765 2813
1808.8 487.765 2813
1812.94 487.071 2809
1819.66 487.071 2809
1823.13 486.204 2804
1826.57 485.337 2799
1829.99 484.47 2794
1836.67 484.47 2794
1843.35 484.47 2794
1847.38 483.777 2790
1854.05 483.777 2790
1860.73 483.777 2790
1867.4 483.777 2790
1874.07 483.777 2790
1877.37 482.91 2785
1880.65 482.043 2780
1887.3 482.043 2780
1887.81 480.482 2771
1888.29 478.922 2762
1894.89 478.922 2762
1901.5 478.922 2762
1908.1 478.922 2762
1914.7 478.922 2762
1921.31 478.922 2762
1927.91 478.922 2762
1934.52 478.922 2762
1937.61 478.055 2757
1941.38 477.361 2753
1944.43 476.494 2748
1957.39 478.055 2757
1963.98 478.055 2757
1970.57 478.055 2757
1977.17 478.055 2757
1983.76 478.055 2757
1983.86 476.494 2748
1983.91 474.933 2739
1990.46 474.933 2739
2003.57 476.494 2748
2020.38 478.922 2762
2026.99 478.922 2762
2033.59 478.922 2762
2046.84 480.482 2771
2053.47 480.482 2771
2060.1 480.482 2771
2070.45 481.349 2776
2080.08 482.043 2780
2094.24 483.777 2790
2100.91 483.777 2790
2114.38 485.337 2799
2121.07 485.337 2799
2135.37 487.071 2809
2142.08 487.071 2809
2148.8 487.071 2809
-2121.83 530.365 3017
-2114.61 530.365 3017
-2107.4 530.365 3017
-2081.39 525.619 2990
-2034 515.423 2932
-2026.99 515.423 2932
-2009.64 512.786 2917
-2002.67 512.786 2917
-1981.33 509.094 2896
-1974.4 509.094 2896
-1985.14 513.665 2922
-1978.15 513.665 2922
-1971.16 513.665 2922
-1964.18 513.665 2922
-1957.19 513.665 2922
-1960.21 516.302 2937
-1953.19 516.302 2937
-1963.4 520.872 2963
-1966.87 523.685 2979
-1959.75 523.685 2979
-1952.63 523.685 2979
-1948.77 524.564 2984
-1973.52 533.178 3033
-1966.26 533.178 3033
-1973.22 537.045 3055
-1987.79 543.022 3089
-1984.25 544.077 3095
-1976.85 544.077 3095
-1973.27 545.132 3101
-1984.24 550.229 3130
-1980.54 551.284 3136
-1973.04 551.284 3136
-1980.59 555.503 3160
-1973.03 555.503 3160
-1965.47 555.503 3160
-1957.92 555.503 3160
-1961.47 558.668 3178
-1964.94 561.832 3196
-1957.3 561.832 3196
-1949.65 561.832 3196
-1942.01 561.832 3196
-1934.37 561.832 3196
-1933.96 563.941 3208
-1926.29 563.941 3208
-1922.2 564.996 3214
-1933.58 570.621 3246
-1956.08 579.587 3297
-1948.19 579.587 3297
-1971.5 588.904 3350
-1979.31 593.65 3377
-2003.93 603.495 3433
-1995.72 603.495 3433
-1999.67 607.186 3454
-2012.16 613.515 3490
-2007.84 614.745 3497
-1999.47 614.745 3497
-2004.21 618.788 3520
-2008.26 622.656 3542
-1999.79 622.656 3542
-1991.32 622.656 3542
-1982.85 622.656 3542
-1978.28 623.886 3549
-1974.24 625.293 3557
-1965.73 625.293 3557
-1957.23 625.293 3557
-1948.72 625.293 3557
-1940.21 625.293 3557
-1931.71 625.293 3557
-1923.2 625.293 3557
-1914.7 625.293 3557
-1906.19 625.293 3557
-1897.69 625.293 3557
-1889.18 625.293 3557
-1880.67 625.293 3557
-1872.17 625.293 3557
-1859.47 623.886 3549
-1855.16 625.293 3557
-1846.65 625.293 3557
-1842.28 626.699 3565
-1833.75 626.699 3565
-1825.23 626.699 3565
-1816.7 626.699 3565
-1811.73 627.93 3572
-1803.19 627.93 3572
-1794.65 627.93 3572
-1786.1 627.93 3572
-1777.56 627.93 3572
-1769.02 627.93 3572
-1760.48 627.93 3572
-1755.86 629.336 3580
-1754.62 631.973 3595
-1746.02 631.973 3595
-1745.16 634.786 3611
-1740.37 636.192 3619
-1746.55 641.641 3650
-1737.82 641.641 3650
-1737.15 644.63 3667
-1739.69 648.849 3691
-1742.59 653.244 3716
-1733.7 653.244 3716
-1748.02 662.033 3766
-1746.87 665.022 3783
-1741.96 666.604 3792
-1732.89 666.604 3792
-1731.55 669.592 3809
-1734.2 674.163 3835
-1733.12 677.327 3853
-1723.91 677.327 3853
-1714.7 677.327 3853
-1697.52 674.163 3835
-1688.35 674.163 3835
-1663.85 668.01 3800
-1643.44 663.44 3774
-1598.47 648.849 3691
-1582.75 646.036 3675
-1573.97 646.036 3675
-1554.53 641.641 3650
-1536.06 637.598 3627
-1504.23 627.93 3572
-1495.68 627.93 3572
-1477.57 623.886 3549
-1462.87 621.25 3534
-1448.66 618.788 3520
-1440.24 618.788 3520
-1410.67 609.647 3468
-1396.72 607.186 3454
-1377.2 602.264 3426
-1369.01 602.264 3426
-1352.48 598.572 3405
-1336.04 594.881 3384
-1325.2 593.65 3377
-1317.13 593.65 3377
-1309.05 593.65 3377
-1298.28 592.42 3370
-1298.26 596.111 3391
-1292.82 597.342 3398
-1287.34 598.572 3405
-1279.19 598.572 3405
-1273.67 599.803 3412
-1273.3 603.495 3433
-1270.24 605.956 3447
-1262 605.956 3447
-1256.31 607.186 3454
-1253.1 609.647 3468
-1244.81 609.647 3468
-1236.52 609.647 3468
-1236.02 613.515 3490
-1232.95 616.152 3505
-1224.57 616.152 3505
-1216.18 616.152 3505
-1207.8 616.152 3505
-1194.29 613.515 3490
-1185.94 613.515 3490
-1151.28 599.803 3412
-1122.35 588.904 3350
-1110.01 586.618 3337
-1140.67 607.186 3454
-1132.41 607.186 3454
-1124.15 607.186 3454
-1115.89 607.186 3454
-1107.63 607.186 3454
-931.044 657.463 3740
-922.1 657.463 3740
-913.157 657.463 3740
-902.279 656.056 3732
-893.355 656.056 3732
-886.326 657.463 3740
-879.494 659.045 3749
-870.529 659.045 3749
-861.564 659.045 3749
-850.552 657.463 3740
-839.809 656.056 3732
-830.884 656.056 3732
-818.436 653.244 3716
-805.847 650.255 3699
-793.554 647.443 3683
-784.747 647.443 3683
-774.254 646.036 3675
-765.466 646.036 3675
-756.678 646.036 3675
-747.89 646.036 3675
-739.102 646.036 3675
-728.724 644.63 3667
-707.39 633.379 3603
-698.774 633.379 3603
-684.22 627.93 3572
-671.327 623.886 3549
-661.533 622.656 3542
-658.595 627.93 3572
-650.053 627.93 3572
-644.385 630.742 3588
-635.805 630.742 3588
-627.225 630.742 3588
-617.265 629.336 3580
-607.344 627.93 3572
-598.802 627.93 3572
-591.583 629.336 3580
-584.325 630.742 3588
-575.745 630.742 3588
-568.271 631.973 3595
-560.92 633.379 3603
-552.304 633.379 3603
-543.688 633.379 3603
-535.072 633.379 3603
-527.625 634.786 3611
-520.14 636.192 3619
-511.486 636.192 3619
-503.944 637.598 3627
-495.27 637.598 3627
-486.597 637.598 3627
-476.87 636.192 3619
-468.215 636.192 3619
-459.561 636.192 3619
-450.907 636.192 3619
-442.253 636.192 3619
-438.272 643.048 3658
-430.581 644.63 3667
-422.732 646.036 3675
-413.944 646.036 3675
-405.156 646.036 3675
-398.094 648.849 3691
-390.111 650.255 3699
-381.266 650.255 3699
-374.132 653.244 3716
-366.819 656.056 3732
-359.525 659.045 3749
-350.56 659.045 3749
-343.144 662.033 3766
-336.445 666.604 3792
-329.622 671.174 3818
-320.492 671.174 3818
-313.482 675.745 3844
-306.427 680.492 3871
-299.243 685.238 3898
-289.922 685.238 3898
-280.6 685.238 3898
-271.279 685.238 3898
-261.958 685.238 3898
-252.053 683.656 3889
-240.506 677.327 3853
-229.672 672.581 3826
-219.024 668.01 3800
-209.937 668.01 3800
-120.457 400.63 2279
-115.008 400.63 2279
-109.558 400.63 2279
-103.971 400.103 2276
-97.879 397.466 2261
-91.9405 395.181 2248
-86.3338 394.126 2242
-80.9725 394.126 2242
-75.2065 392.017 2230
-69.8739 392.017 2230
-64.4545 391.489 2227
-59.1291 391.489 2227
-53.8036 391.489 2227
-48.4782 391.489 2227
-43.0946 390.962 2224
-37.7764 390.962 2224
-32.4143 390.434 2221
-27.0666 389.907 2218
-21.7627 389.907 2218
-16.4588 389.907 2218
-11.1398 389.38 2215
-5.84309 389.38 2215
-0.547095 389.907 2218
4.78255 392.017 2230
10.1152 392.017 2230
15.4893 393.071 2236
20.9761 395.708 2251
26.394 396.236 2254
31.784 396.236 2254
37.4379 399.048 2270
42.8661 399.048 2270
48.2944 399.048 2270
53.7227 399.048 2270
59.3854 400.63 2279
65.0059 401.685 2285
70.47 401.685 2285
75.9342 401.685 2285
81.5052 402.212 2288
86.9765 402.212 2288
92.4478 402.212 2288
97.9191 402.212 2288
103.39 402.212 2288
108.862 402.212 2288
114.333 402.212 2288
119.804 402.212 2288
125.276 402.212 2288
130.575 401.685 2285
136.04 401.685 2285
141.504 401.685 2285
146.582 400.63 2279
152.032 400.63 2279
157.274 400.103 2276
162.717 400.103 2276
168.159 400.103 2276
174.288 401.685 2285
179.753 401.685 2285
185.784 402.916 2292
191.265 402.916 2292
196.746 402.916 2292
202.227 402.916 2292
207.979 403.443 2295
213.467 403.443 2295
218.956 403.443 2295
652.228 521.751 2968
661.769 523.685 2979
668.892 523.685 2979
676.016 523.685 2979
683.14 523.685 2979
