-864.998 930.18 3650
-856.269 930.18 3650
-847.541 930.18 3650
-836.974 928.142 3642
-824.854 924.319 3627
-812.58 920.242 3611
-803.945 920.242 3611
-793.548 918.203 3603
-784.932 918.203 3603
-776.317 918.203 3603
-767.701 918.203 3603
-759.085 918.203 3603
-750.469 918.203 3603
-732.382 906.48 3557
-723.876 906.48 3557
-704.445 914.38 3588
-695.865 914.38 3588
-687.285 914.38 3588
-678.705 914.38 3588
-668.631 912.341 3580
-660.07 912.341 3580
-651.509 912.341 3580
-642.948 912.341 3580
-634.387 912.341 3580
-625.826 912.341 3580
-617.265 912.341 3580
-608.704 912.341 3580
-600.144 912.341 3580
-591.583 912.341 3580
-583.022 912.341 3580
-574.461 912.341 3580
-561 904.441 3549
-555.004 908.519 3565
-547.552 910.303 3572
-539.01 910.303 3572
-530.469 910.303 3572
-520.904 908.519 3565
-512.379 908.519 3565
-503.854 908.519 3565
-496.302 910.303 3572
-488.852 912.341 3580
-480.292 912.341 3580
-471.731 912.341 3580
-463.17 912.341 3580
-455.625 914.38 3588
-447.917 916.164 3595
-439.32 916.164 3595
-430.723 916.164 3595
-424.945 922.28 3619
-416.291 922.28 3619
-407.637 922.28 3619
-398.982 922.28 3619
-390.328 922.28 3619
-382.518 924.319 3627
-373.845 924.319 3627
-365.171 924.319 3627
-356.498 924.319 3627
-347.825 924.319 3627
-339.152 924.319 3627
-331.207 926.358 3635
-322.515 926.358 3635
-313.823 926.358 3635
-305.13 926.358 3635
-294.481 920.242 3611
-284.025 914.38 3588
-275.445 914.38 3588
-266.865 914.38 3588
-257.709 912.341 3580
-248.104 908.519 3565
-238.504 904.441 3549
-230.017 904.441 3549
-221.094 902.657 3542
-211.723 898.835 3527
-202.424 895.012 3512
-194.026 895.012 3512
-185.258 893.228 3505
-176.119 889.405 3490
-167.437 887.622 3483
-159.108 887.622 3483
-150.779 887.622 3483
-142.451 887.622 3483
-133.852 885.838 3476
-125.54 885.838 3476
-116.722 882.015 3461
-108.446 882.015 3461
-99.9667 880.231 3454
-91.7071 880.231 3454
-83.4476 880.231 3454
-74.8833 876.663 3440
-66.5215 874.879 3433
-58.3122 874.879 3433
-50.205 876.663 3440
-41.9789 876.663 3440
-33.7528 876.663 3440
-25.5268 876.663 3440
-17.3007 876.663 3440
-9.0746 876.663 3440
-0.836429 864.176 3391
4.94769 587.925 2307
10.4644 587.925 2307
16.0089 588.944 2311
21.5631 589.709 2314
27.1317 590.473 2317
32.6724 590.473 2317
38.2625 591.238 2320
43.8103 591.238 2320
49.3582 591.238 2320
54.906 591.238 2320
60.4538 591.238 2320
65.9163 590.473 2317
71.4569 590.473 2317
76.8979 589.709 2314
82.182 587.925 2307
87.3566 585.631 2298
92.8518 585.631 2298
98.2186 584.867 2295
103.255 582.318 2285
108.576 581.554 2282
113.583 579.26 2273
119.019 579.26 2273
123.961 576.967 2264
128.804 574.418 2254
133.48 571.36 2242
138.841 571.36 2242
143.816 569.831 2236
148.163 566.008 2221
152.921 563.97 2213
158.213 563.97 2213
162.84 561.676 2204
167.653 560.147 2198
172.437 558.618 2192
177.678 558.618 2192
182.419 557.089 2186
187.475 556.579 2184
192.433 555.815 2181
197.648 555.815 2181
203.329 557.089 2186
208.556 557.089 2186
214.077 557.853 2189
219.312 557.853 2189
224.546 557.853 2189
229.466 557.089 2186
234.693 557.089 2186
239.921 557.089 2186
245.148 557.089 2186
250.375 557.089 2186
255.603 557.089 2186
259.518 554.286 2175
264.719 554.286 2175
823.23 869.528 3412
831.389 869.528 3412
839.548 869.528 3412
852.925 874.879 3433
862.89 876.663 3440
871.116 876.663 3440
879.342 876.663 3440
889.375 878.447 3447
903.086 883.799 3468
911.379 883.799 3468
919.672 883.799 3468
926.092 882.015 3461
934.368 882.015 3461
942.645 882.015 3461
950.921 882.015 3461
959.197 882.015 3461
963.56 878.447 3447
971.803 878.447 3447
984.026 882.015 3461
992.302 882.015 3461
1002.6 883.799 3468
1010.9 883.799 3468
1019.19 883.799 3468
1027.48 883.799 3468
1035.77 883.799 3468
1046.48 885.838 3476
1054.79 885.838 3476
1063.1 885.838 3476
1071.41 885.838 3476
1079.72 885.838 3476
1088.04 885.838 3476
1096.35 885.838 3476
1106.89 887.622 3483
1117.46 889.405 3490
1125.8 889.405 3490
1134.15 889.405 3490
1144.78 891.189 3497
1155.78 893.228 3505
1169.15 897.051 3520
1177.57 897.051 3520
1185.98 897.051 3520
1196.78 898.835 3527
1205.21 898.835 3527
1213.64 898.835 3527
1222.08 898.835 3527
1232.95 900.619 3534
1249.48 906.48 3557
1260.82 908.519 3565
1269.34 908.519 3565
1277.87 908.519 3565
1288.92 910.303 3572
1303.27 914.38 3588
1311.85 914.38 3588
1325.95 918.203 3603
1334.57 918.203 3603
1343.19 918.203 3603
1351.8 918.203 3603
1366.46 922.28 3619
1375.11 922.28 3619
1383.77 922.28 3619
1392.42 922.28 3619
1397.98 920.242 3611
1394.54 912.341 3580
1403.1 912.341 3580
1393.52 900.619 3534
1393.24 895.012 3512
1395.66 891.189 3497
1386.75 880.231 3454
1395.01 880.231 3454
1380.52 865.96 3398
1380.07 860.608 3377
1374.17 851.943 3343
1382.16 851.943 3343
1387.66 850.414 3337
1389.78 846.846 3323
1392.26 843.534 3310
1400.18 843.534 3310
1405.11 841.75 3303
1407.45 838.437 3290
1412.74 836.908 3284
1414.97 833.595 3271
1422.79 833.595 3271
1427.99 832.066 3265
1427.44 827.224 3246
1432.11 825.44 3239
1439.85 825.44 3239
1447.6 825.44 3239
1455.34 825.44 3239
1460.38 823.911 3233
1468.11 823.911 3233
1475.84 823.911 3233
1483.57 823.911 3233
1491.3 823.911 3233
1499.03 823.911 3233
1503.97 822.381 3227
1511.68 822.381 3227
1522.23 823.911 3233
1529.96 823.911 3233
1537.69 823.911 3233
1542.55 822.381 3227
1547.39 820.852 3221
1548.81 817.539 3208
1556.48 817.539 3208
1561.23 816.01 3202
1563.01 812.952 3190
1567.68 811.423 3184
1575.29 811.423 3184
1576.94 808.365 3172
1575.54 803.778 3154
1571.03 797.662 3130
1563.89 790.271 3101
1571.31 790.271 3101
1558.36 780.077 3061
1540.1 767.335 3011
1511.85 749.751 2942
1518.88 749.751 2942
1509.84 741.851 2911
1498.56 732.931 2876
1495.49 728.089 2857
1494.44 724.267 2842
1501.23 724.267 2842
1500.6 720.699 2828
1502.03 718.15 2818
1506.09 716.876 2813
1512.82 716.876 2813
1514.69 714.582 2804
1515.97 712.034 2794
1522.65 712.034 2794
1529.33 712.034 2794
1533.81 711.015 2790
1537.72 709.74 2785
1544.38 709.74 2785
1551.04 709.74 2785
1562.74 712.034 2794
1569.42 712.034 2794
1576.1 712.034 2794
1582.78 712.034 2794
1589.46 712.034 2794
1596.14 712.034 2794
1602.82 712.034 2794
1609.5 712.034 2794
1616.19 712.034 2794
2074.28 902.657 3542
2082.75 902.657 3542
2091.22 902.657 3542
2108.58 906.48 3557
2117.08 906.48 3557
2125.59 906.48 3557
2138.89 908.519 3565
2147.42 908.519 3565
2155.94 908.519 3565
2159.61 906.48 3557
2168.12 906.48 3557
2167.45 902.657 3542
2175.92 902.657 3542
2184.39 902.657 3542
2187.9 900.619 3534
2196.35 900.619 3534
2204.8 900.619 3534
2213.25 900.619 3534
2207.88 895.012 3512
2202.39 889.405 3490
2210.74 889.405 3490
2219.08 889.405 3490
2218.49 885.838 3476
2199.26 874.879 3433
2198.46 871.312 3419
2206.64 871.312 3419
2183.07 858.824 3370
2178.13 853.727 3350
2168.52 846.846 3323
2189.57 851.943 3343
2197.56 851.943 3343
2205.55 851.943 3343
2213.55 851.943 3343
2212.9 848.63 3330
2229.54 851.943 3343
2237.53 851.943 3343
2258.96 857.04 3363
2281.16 862.392 3384
2289.25 862.392 3384
2297.34 862.392 3384
2305.43 862.392 3384
2313.53 862.392 3384
2321.62 862.392 3384
2311.12 855.511 3357
2309.48 851.943 3343
2313.31 850.414 3337
2321.29 850.414 3337
2310.43 843.534 3310
2313.44 841.75 3303
2317.12 840.221 3297
2315.84 836.908 3284
2323.69 836.908 3284
2318.05 832.066 3265
2307.34 825.44 3239
2306.51 822.381 3227
2314.22 822.381 3227
2312.59 819.068 3214
2320.27 819.068 3214
2310.57 812.952 3190
2309.48 809.894 3178
2317.08 809.894 3178
2320.29 808.365 3172
2319.07 805.307 3160
2322.21 803.778 3154
2329.75 803.778 3154
2337.29 803.778 3154
2344.84 803.778 3154
2347.9 802.249 3148
2364.41 805.307 3160
2371.97 805.307 3160
2393.08 809.894 3178
2405.21 811.423 3184
2431.01 817.539 3208
2438.68 817.539 3208
2475.33 827.224 3246
2483.09 827.224 3246
-2478.28 851.463 3310
-2470.36 851.463 3310
-2452.78 848.119 3297
-2444.89 848.119 3297
-2408.18 838.086 3258
-2400.39 838.086 3258
-2388.19 836.543 3252
-2370.9 833.199 3239
-2363.16 833.199 3239
-2426.68 858.408 3337
-2437.54 865.096 3363
-2429.5 865.096 3363
-2421.46 865.096 3363
-2413.42 865.096 3363
-2405.37 865.096 3363
-2397.33 865.096 3363
-2389.29 865.096 3363
-2386.2 866.897 3370
-2378.15 866.897 3370
-2370.09 866.897 3370
-2362.03 866.897 3370
-2353.97 866.897 3370
-2322.94 858.408 3337
-2328.83 863.553 3357
-2344.31 872.299 3391
-2336.2 872.299 3391
-2328.09 872.299 3391
-2319.98 872.299 3391
-2307.1 870.498 3384
-2299.01 870.498 3384
-2290.92 870.498 3384
-2282.83 870.498 3384
-2270.03 868.698 3377
-2266.64 870.498 3384
-2258.55 870.498 3384
-2250.46 870.498 3384
-2247 872.299 3391
-2252.76 877.701 3412
-2244.6 877.701 3412
-2259.38 886.704 3447
-2255.71 888.505 3454
-2247.45 888.505 3454
-2239.19 888.505 3454
-2239.98 892.107 3468
-2236.83 894.164 3476
-2237.49 897.766 3490
-2229.15 897.766 3490
-2244.35 907.284 3527
-2235.91 907.284 3527
-2227.48 907.284 3527
-2219.05 907.284 3527
-2215 909.084 3534
-2220.91 915.001 3557
-2212.4 915.001 3557
-2203.9 915.001 3557
-2195.39 915.001 3557
-2186.88 915.001 3557
-2178.38 915.001 3557
-2169.87 915.001 3557
-2166.23 917.059 3565
-2157.7 917.059 3565
-2149.18 917.059 3565
-2140.65 917.059 3565
-2132.13 917.059 3565
-2114.07 912.943 3549
-2105.59 912.943 3549
-2097.1 912.943 3549
-2088.61 912.943 3549
-2076.02 911.142 3542
-2067.55 911.142 3542
-2054.43 909.084 3534
-2029.19 901.624 3505
-2012.16 897.766 3490
-2003.82 897.766 3490
-1995.47 897.766 3490
-1987.12 897.766 3490
-1962.34 890.306 3461
-1954.06 890.306 3461
-1941.85 888.505 3454
-1917.91 881.302 3426
-1909.72 881.302 3426
-1901.53 881.302 3426
-1893.34 881.302 3426
-1885.14 881.302 3426
-1876.95 881.302 3426
-1880.21 886.704 3447
-1871.97 886.704 3447
-1863.73 886.704 3447
-1855.49 886.704 3447
-1847.24 886.704 3447
-1820.33 877.701 3412
-1812.17 877.701 3412
-1811.41 881.302 3426
-1806.9 883.103 3433
-1798.69 883.103 3433
-1790.48 883.103 3433
-1782.27 883.103 3433
-1774.06 883.103 3433
-1765.86 883.103 3433
-1754.06 881.302 3426
-1745.87 881.302 3426
-1751.88 888.505 3454
-1750.69 892.107 3468
-1742.39 892.107 3468
-1734.1 892.107 3468
-1744.22 901.624 3505
-1735.84 901.624 3505
-1727.46 901.624 3505
-1719.08 901.624 3505
-1706.79 899.566 3497
-1702.31 901.624 3505
-1693.93 901.624 3505
-1692.76 905.483 3520
-1684.35 905.483 3520
-1675.93 905.483 3520
-1656.62 899.566 3497
-1652.02 901.624 3505
-1650.68 905.483 3520
-1652.52 911.142 3542
-1644.05 911.142 3542
-1656.82 922.975 3588
-1655.13 926.834 3603
-1646.52 926.834 3603
-1637.9 926.834 3603
-1629.29 926.834 3603
-1599.98 915.001 3557
-1591.47 915.001 3557
-1562.94 903.425 3512
-1547.9 899.566 3497
-1543.06 901.624 3505
-1534.68 901.624 3505
-1526.3 901.624 3505
-1517.92 901.624 3505
-1509.54 901.624 3505
-1501.16 901.624 3505
-1471.05 888.505 3454
-1462.79 888.505 3454
-1445.69 883.103 3433
-1437.48 883.103 3433
-1417.62 875.9 3405
-1400.78 870.498 3384
-1381.58 863.553 3357
-1373.55 863.553 3357
-1365.52 863.553 3357
-1346.58 856.607 3330
-1333.39 853.263 3317
-1325.45 853.263 3317
-1319.91 854.807 3323
-1311.96 854.807 3323
-1304.01 854.807 3323
-1293.73 853.263 3317
-1285.79 853.263 3317
-1277.86 853.263 3317
-1264.57 849.662 3303
-1264.28 854.807 3323
-1256.34 854.807 3323
-1248.39 854.807 3323
-1240.44 854.807 3323
-1257.72 872.299 3391
-1262.51 881.302 3426
-1254.31 881.302 3426
-1269.4 897.766 3490
-1276.95 909.084 3534
-1282.14 918.859 3572
-1273.6 918.859 3572
-1278.87 928.892 3611
-1278.68 935.065 3635
-1269.99 935.065 3635
-1261.29 935.065 3635
-1252.6 935.065 3635
-1227.82 922.975 3588
-1219.24 922.975 3588
-1207.96 920.917 3580
-1204.43 924.776 3595
-1201.16 928.892 3611
-1195.16 930.95 3619
-1186.51 930.95 3619
-1183.06 935.065 3635
-1174.37 935.065 3635
-1165.68 935.065 3635
-1156.98 935.065 3635
-1148.29 935.065 3635
-1134.58 930.95 3619
-1125.93 930.95 3619
-1114.81 928.892 3611
-1101.27 924.776 3595
-1095.1 926.834 3603
-1086.49 926.834 3603
-1077.87 926.834 3603
-1069.26 926.834 3603
-915.357 936.866 3642
-906.647 936.866 3642
-897.938 936.866 3642
-883.614 930.95 3619
-878.828 935.065 3635
-870.135 935.065 3635
-861.443 935.065 3635
-852.75 935.065 3635
-844.058 935.065 3635
-831.689 930.95 3619
-821.215 928.892 3611
-808.98 924.776 3595
-800.383 924.776 3595
-791.786 924.776 3595
-783.19 924.776 3595
-774.593 924.776 3595
-765.996 924.776 3595
-692.762 918.859 3572
-684.22 918.859 3572
-675.678 918.859 3572
-667.136 918.859 3572
-658.595 918.859 3572
-650.053 918.859 3572
-641.511 918.859 3572
-631.729 917.059 3565
-623.204 917.059 3565
-614.679 917.059 3565
-606.154 917.059 3565
-600.144 920.917 3580
-591.583 920.917 3580
-583.022 920.917 3580
-573.177 918.859 3572
-561 912.943 3549
-555.004 917.059 3565
-547.552 918.859 3572
-539.01 918.859 3572
-530.469 918.859 3572
-520.904 917.059 3565
-512.379 917.059 3565
-503.854 917.059 3565
-496.302 918.859 3572
-488.852 920.917 3580
-480.292 920.917 3580
-471.731 920.917 3580
-463.17 920.917 3580
-455.625 922.975 3588
-447.917 924.776 3595
-439.32 924.776 3595
-430.723 924.776 3595
-424.945 930.95 3619
-416.291 930.95 3619
-407.637 930.95 3619
-398.982 930.95 3619
-390.328 930.95 3619
-382.518 933.008 3627
-373.845 933.008 3627
-365.171 933.008 3627
-356.498 933.008 3627
-347.825 933.008 3627
-339.152 933.008 3627
-331.207 935.065 3635
-322.515 935.065 3635
-313.823 935.065 3635
-305.13 935.065 3635
-294.481 928.892 3611
-284.025 922.975 3588
-275.445 922.975 3588
-266.865 922.975 3588
-257.709 920.917 3580
-248.104 917.059 3565
-238.034 911.142 3542
-229.564 911.142 3542
-220.157 907.284 3527
-211.303 905.483 3520
-202.021 901.624 3505
-193.639 901.624 3505
-184.465 897.766 3490
-175.413 894.164 3476
-167.101 894.164 3476
-158.789 894.164 3476
-150.476 894.164 3476
-142.164 894.164 3476
-133.544 892.107 3468
-125.251 892.107 3468
-116.486 888.505 3454
-108.007 886.704 3447
-99.7641 886.704 3447
-91.5213 886.704 3447
-83.2785 886.704 3447
-74.8833 884.904 3440
-66.5215 883.103 3433
-58.3122 883.103 3433
-50.205 884.904 3440
-41.9789 884.904 3440
-33.7528 884.904 3440
-25.5268 884.904 3440
-17.3007 884.904 3440
-9.0746 884.904 3440
-0.836429 872.299 3391
4.9627 595.252 2314
10.4962 595.252 2314
16.0297 595.252 2314
21.5631 595.252 2314
27.1669 596.796 2320
32.7147 596.796 2320
38.312 597.567 2323
43.867 597.567 2323
49.422 597.567 2323
54.977 597.567 2323
60.532 597.567 2323
66.0016 596.796 2320
71.5494 596.796 2320
76.9976 596.024 2317
82.3245 594.48 2311
87.4706 591.908 2301
92.973 591.908 2301
98.2186 590.365 2295
103.255 587.792 2285
108.576 587.02 2282
113.733 585.477 2276
119.176 585.477 2276
123.961 582.39 2264
128.804 579.818 2254
133.658 577.503 2245
139.027 577.503 2245
143.816 575.187 2236
148.163 571.329 2221
153.059 569.785 2215
158.356 569.785 2215
163.283 568.499 2210
167.881 566.184 2201
172.909 565.412 2198
178.165 565.412 2198
182.67 563.097 2189
187.647 562.326 2186
192.698 561.811 2184
197.92 561.811 2184
203.608 563.097 2189
208.843 563.097 2189
214.371 563.869 2192
219.612 563.869 2192
224.854 563.869 2192
229.781 563.097 2189
235.015 563.097 2189
240.25 563.097 2189
245.484 563.097 2189
250.719 563.097 2189
255.954 563.097 2189
259.518 559.496 2175
264.719 559.496 2175
823.23 877.701 3412
831.389 877.701 3412
839.548 877.701 3412
852.925 883.103 3433
862.89 884.904 3440
871.116 884.904 3440
879.342 884.904 3440
889.375 886.704 3447
903.086 892.107 3468
911.379 892.107 3468
919.672 892.107 3468
926.092 890.306 3461
934.368 890.306 3461
942.645 890.306 3461
950.921 890.306 3461
959.197 890.306 3461
963.56 886.704 3447
971.803 886.704 3447
984.026 890.306 3461
992.302 890.306 3461
1002.6 892.107 3468
1010.9 892.107 3468
1019.19 892.107 3468
1027.48 892.107 3468
1035.77 892.107 3468
1046.48 894.164 3476
1054.79 894.164 3476
1063.1 894.164 3476
1071.41 894.164 3476
1079.72 894.164 3476
1088.04 894.164 3476
1096.35 894.164 3476
1106.89 895.965 3483
1117.46 897.766 3490
1125.8 897.766 3490
1134.15 897.766 3490
1144.78 899.566 3497
1155.78 901.624 3505
1169.15 905.483 3520
1177.57 905.483 3520
1185.98 905.483 3520
1196.78 907.284 3527
1205.21 907.284 3527
1213.64 907.284 3527
1222.08 907.284 3527
1232.95 909.084 3534
1249.48 915.001 3557
1260.82 917.059 3565
1269.34 917.059 3565
1277.87 917.059 3565
1288.92 918.859 3572
1303.27 922.975 3588
1311.85 922.975 3588
1325.95 926.834 3603
1334.57 926.834 3603
1343.19 926.834 3603
1351.8 926.834 3603
1366.46 930.95 3619
1375.11 930.95 3619
1383.77 930.95 3619
1392.42 930.95 3619
1397.98 928.892 3611
1391.42 918.859 3572
1399.96 918.859 3572
1384.85 903.425 3512
1390.47 901.624 3505
1392.86 897.766 3490
1383.94 886.704 3447
1392.19 886.704 3447
1380.52 874.1 3398
1380.07 868.698 3377
1374.17 859.952 3343
1382.16 859.952 3343
1387.66 858.408 3337
1389.78 854.807 3323
1392.26 851.463 3310
1400.18 851.463 3310
1405.11 849.662 3303
1410.45 848.119 3297
1415.32 846.318 3290
1417.99 843.231 3278
1425.83 843.231 3278
1430.61 841.43 3271
1427.44 834.999 3246
1435.2 834.999 3246
1442.96 834.999 3246
1447.6 833.199 3239
1455.34 833.199 3239
1460.38 831.655 3233
1468.11 831.655 3233
1475.84 831.655 3233
1483.57 831.655 3233
1491.3 831.655 3233
1499.03 831.655 3233
1506.76 831.655 3233
1514.49 831.655 3233
1522.23 831.655 3233
1529.96 831.655 3233
1537.69 831.655 3233
1542.55 830.112 3227
1547.39 828.568 3221
1548.81 825.224 3208
1556.48 825.224 3208
1561.23 823.681 3202
1563.01 820.594 3190
1570.63 820.594 3190
1578.26 820.594 3190
1576.94 815.964 3172
1575.54 811.333 3154
1574.04 806.703 3136
1581.54 806.703 3136
1571.31 797.7 3101
1563.96 790.24 3072
1548.8 778.921 3028
1522.64 762.201 2963
1529.72 762.201 2963
1518.14 752.94 2927
1506.38 743.679 2891
1502.82 738.535 2871
1499.7 733.647 2852
1506.52 733.647 2852
1502.72 728.502 2832
1504.7 726.187 2823
1508.77 724.901 2818
1515.51 724.901 2818
1517.39 722.586 2809
1521.39 721.299 2804
1522.65 718.727 2794
1529.33 718.727 2794
1536.01 718.727 2794
1540.48 717.698 2790
1544.38 716.412 2785
1551.04 716.412 2785
1562.74 718.727 2794
1569.42 718.727 2794
1576.1 718.727 2794
1582.78 718.727 2794
1589.46 718.727 2794
1596.14 718.727 2794
1602.82 718.727 2794
1609.5 718.727 2794
1616.19 718.727 2794
2074.28 911.142 3542
2082.75 911.142 3542
2091.22 911.142 3542
2108.58 915.001 3557
2117.08 915.001 3557
2125.59 915.001 3557
2134.09 915.001 3557
2142.6 915.001 3557
2151.11 915.001 3557
2154.76 912.943 3549
2158.98 911.142 3542
2162.55 909.084 3534
2171 909.084 3534
2175.13 907.284 3527
2183.57 907.284 3527
2192 907.284 3527
2200.44 907.284 3527
2204.49 905.483 3520
2207.88 903.425 3512
2197.97 895.965 3483
2201.87 894.164 3476
2210.18 894.164 3476
2213.39 892.107 3468
2199.26 883.103 3433
2166.96 866.897 3370
2175.02 866.897 3370
2170.12 861.752 3350
2156.67 853.263 3317
2164.6 853.263 3317
2185.64 858.408 3337
2193.62 858.408 3337
2201.6 858.408 3337
2209.58 858.408 3337
2212.9 856.607 3330
2229.54 859.952 3343
2237.53 859.952 3343
2268.36 868.698 3377
2281.16 870.498 3384
2289.25 870.498 3384
2297.34 870.498 3384
2305.43 870.498 3384
2313.53 870.498 3384
2321.62 870.498 3384
2311.12 863.553 3357
2309.48 859.952 3343
2313.31 858.408 3337
2321.29 858.408 3337
2310.43 851.463 3310
2313.44 849.662 3303
2317.12 848.119 3297
2315.84 844.774 3284
2323.69 844.774 3284
2318.05 839.887 3265
2312.33 834.999 3246
2306.51 830.112 3227
2314.22 830.112 3227
2312.59 826.768 3214
2320.27 826.768 3214
2310.57 820.594 3190
2305.12 815.964 3172
2312.71 815.964 3172
2315.9 814.42 3166
2323.47 814.42 3166
2331.05 814.42 3166
2338.62 814.42 3166
2346.19 814.42 3166
2349.3 812.877 3160
2356.85 812.877 3160
2377.88 817.507 3178
2385.48 817.507 3178
2397.6 819.05 3184
2418.81 823.681 3202
2440.86 828.568 3221
2448.56 828.568 3221
2475.33 834.999 3246
2483.09 834.999 3246
-2458.81 852.641 3284
-2450.96 852.641 3284
-2443.11 852.641 3284
-2425.61 849.266 3271
-2403.75 844.333 3252
-2395.97 844.333 3252
-2383.79 842.775 3246
-2370.9 840.958 3239
-2363.16 840.958 3239
-2426.68 866.402 3337
-2437.54 873.152 3363
-2429.5 873.152 3363
-2421.46 873.152 3363
-2413.42 873.152 3363
-2405.37 873.152 3363
-2388.06 869.777 3350
-2375.08 867.96 3343
-2381.25 873.152 3363
-2373.21 873.152 3363
-2365.16 873.152 3363
-2352.92 871.595 3357
-2344.89 871.595 3357
-2304.14 859.392 3310
-2328.83 871.595 3357
-2320.81 871.595 3357
-2312.78 871.595 3357
-2304.75 871.595 3357
-2296.72 871.595 3357
-2288.7 871.595 3357
-2284.74 873.152 3363
-2276.7 873.152 3363
-2268.66 873.152 3363
-2256.58 871.595 3357
-2261.95 876.787 3377
-2253.88 876.787 3377
-2245.8 876.787 3377
-2247 880.422 3391
-2252.76 885.875 3412
-2244.6 885.875 3412
-2245.62 889.509 3426
-2242 891.327 3433
-2242.9 894.962 3447
-2234.66 894.962 3447
-2235.45 898.597 3461
-2236.83 902.491 3476
-2228.52 902.491 3476
-2220.21 902.491 3476
-2234.8 911.838 3512
-2235.91 915.733 3527
-2227.48 915.733 3527
-2219.05 915.733 3527
-2215 917.55 3534
-2211.54 919.627 3542
-2212.4 923.522 3557
-2203.9 923.522 3557
-2195.39 923.522 3557
-2186.88 923.522 3557
-2178.38 923.522 3557
-2169.87 923.522 3557
-2161.37 923.522 3557
-2157.7 925.599 3565
-2149.18 925.599 3565
-2140.65 925.599 3565
-2122.56 921.445 3549
-2114.07 921.445 3549
-2105.59 921.445 3549
-2092.96 919.627 3542
-2084.49 919.627 3542
-2071.33 917.55 3534
-2062.88 917.55 3534
-2054.43 917.55 3534
-2029.19 910.021 3505
-2016.2 907.944 3497
-2007.84 907.944 3497
-1999.47 907.944 3497
-1987.12 906.126 3490
-1962.34 898.597 3461
-1954.06 898.597 3461
-1941.85 896.779 3454
-1925.75 893.144 3440
-1909.72 889.509 3426
-1901.53 889.509 3426
-1893.34 889.509 3426
-1885.14 889.509 3426
-1876.95 889.509 3426
-1880.21 894.962 3447
-1871.97 894.962 3447
-1863.73 894.962 3447
-1855.49 894.962 3447
-1847.24 894.962 3447
-1816.59 884.057 3405
-1812.17 885.875 3412
-1811.41 889.509 3426
-1806.9 891.327 3433
-1798.69 891.327 3433
-1790.48 891.327 3433
-1782.27 891.327 3433
-1774.06 891.327 3433
-1765.86 891.327 3433
-1754.06 889.509 3426
-1745.87 889.509 3426
-1751.88 896.779 3454
-1750.69 900.414 3468
-1742.39 900.414 3468
-1734.1 900.414 3468
-1744.22 910.021 3505
-1735.84 910.021 3505
-1727.46 910.021 3505
-1719.08 910.021 3505
-1706.79 907.944 3497
-1702.31 910.021 3505
-1693.93 910.021 3505
-1696.13 915.733 3527
-1687.7 915.733 3527
-1679.26 915.733 3527
-1656.62 907.944 3497
-1648.25 907.944 3497
-1650.68 913.915 3520
-1645.52 915.733 3527
-1637.09 915.733 3527
-1649.44 927.416 3572
-1651.46 933.388 3595
-1642.86 933.388 3595
-1634.27 933.388 3595
-1622.5 931.57 3588
-1599.98 923.522 3557
-1591.47 923.522 3557
-1550.04 904.309 3483
-1541.71 904.309 3483
-1533.38 904.309 3483
-1525.05 904.309 3483
-1516.72 904.309 3483
-1508.39 904.309 3483
-1493.6 900.414 3468
-1485.31 900.414 3468
-1471.05 896.779 3454
-1459.83 894.962 3447
-1430.95 882.24 3398
-1422.83 882.24 3398
-1414.7 882.24 3398
-1394.98 874.97 3370
-1381.58 871.595 3357
-1373.55 871.595 3357
-1359.83 867.96 3343
-1341.32 861.209 3317
-1325.35 856.017 3297
-1319.86 857.574 3303
-1317.52 861.209 3317
-1309.59 861.209 3317
-1301.66 861.209 3317
-1288.27 857.574 3303
-1280.37 857.574 3303
-1265.15 852.641 3284
-1257.3 852.641 3284
-1256.67 857.574 3303
-1248.77 857.574 3303
-1240.88 857.574 3303
-1235.59 859.392 3310
-1227.67 859.392 3310
-1219.76 859.392 3310
-1211.84 859.392 3310
-1253.76 894.962 3447
-1263.58 907.944 3497
-1271.37 919.627 3542
-1262.9 919.627 3542
-1273.2 933.388 3595
-1273.05 939.619 3619
-1264.4 939.619 3619
-1255.74 939.619 3619
-1247.09 939.619 3619
-1222.35 927.416 3572
-1213.81 927.416 3572
-1205.27 927.416 3572
-1199.4 929.493 3580
-1193.5 931.57 3588
-1187.24 933.388 3595
-1178.64 933.388 3595
-1175.25 937.542 3611
-1171.78 941.696 3627
-1163.11 941.696 3627
-1154.44 941.696 3627
-1140.71 937.542 3611
-1129.57 935.465 3603
-1120.95 935.465 3603
-1105.23 929.493 3580
-1096.67 929.493 3580
-1088.11 929.493 3580
-1079.55 929.493 3580
-1059.62 919.627 3542
-880.68 927.416 3572
-877.754 933.388 3595
-873.025 937.542 3611
-864.39 937.542 3611
-855.755 937.542 3611
-845.243 935.465 3603
-836.628 935.465 3603
-828.012 935.465 3603
-817.577 933.388 3595
-803.804 927.416 3572
-795.262 927.416 3572
-783.417 923.522 3557
-774.911 923.522 3557
-686.943 919.627 3542
-678.473 919.627 3542
-675.678 927.416 3572
-667.136 927.416 3572
-658.595 927.416 3572
-648.779 925.599 3565
-640.254 925.599 3565
-631.729 925.599 3565
-623.204 925.599 3565
-614.679 925.599 3565
-604.794 923.522 3557
-597.629 925.599 3565
-589.104 925.599 3565
-580.579 925.599 3565
-568.363 919.627 3542
-559.893 919.627 3542
-552.513 921.445 3549
-546.479 925.599 3565
-537.954 925.599 3565
-529.429 925.599 3565
-520.904 925.599 3565
-512.379 925.599 3565
-503.854 925.599 3565
-496.302 927.416 3572
-488.852 929.493 3580
-480.292 929.493 3580
-471.731 929.493 3580
-463.17 929.493 3580
-455.625 931.57 3588
-447.917 933.388 3595
-439.32 933.388 3595
-430.723 933.388 3595
-424.945 939.619 3619
-416.291 939.619 3619
-407.637 939.619 3619
-398.982 939.619 3619
-390.328 939.619 3619
-382.518 941.696 3627
-373.845 941.696 3627
-365.171 941.696 3627
-356.498 941.696 3627
-347.825 941.696 3627
-339.152 941.696 3627
-331.207 943.773 3635
-322.515 943.773 3635
-313.823 943.773 3635
-305.13 943.773 3635
-294.481 937.542 3611
-284.025 931.57 3588
-275.445 931.57 3588
-266.865 931.57 3588
-257.709 929.493 3580
-248.104 925.599 3565
-238.034 919.627 3542
-229.564 919.627 3542
-220.157 915.733 3527
-211.303 913.915 3520
-202.021 910.021 3505
-193.639 910.021 3505
-184.095 904.309 3483
-175.413 902.491 3476
-167.101 902.491 3476
-158.789 902.491 3476
-150.476 902.491 3476
-142.164 902.491 3476
-133.544 900.414 3468
-125.251 900.414 3468
-116.486 896.779 3454
-107.788 893.144 3440
-99.3589 891.327 3433
-91.1496 891.327 3433
-82.9402 891.327 3433
-74.5785 889.509 3426
-66.3859 889.509 3426
-57.9555 885.875 3412
-49.7964 885.875 3412
-41.6372 885.875 3412
-33.5468 887.692 3419
-25.3709 887.692 3419
-17.1951 887.692 3419
-9.0192 887.692 3419
-0.836429 880.422 3391
4.9627 600.795 2314
10.4962 600.795 2314
16.0297 600.795 2314
21.5631 600.795 2314
27.1669 602.353 2320
32.7147 602.353 2320
38.312 603.132 2323
43.867 603.132 2323
49.422 603.132 2323
54.977 603.132 2323
60.532 603.132 2323
66.0016 602.353 2320
71.5494 602.353 2320
76.9976 601.574 2317
82.3245 600.016 2311
87.4706 597.42 2301
92.973 597.42 2301
98.2186 595.862 2295
103.255 593.266 2285
108.576 592.487 2282
113.733 590.929 2276
119.176 590.929 2276
123.961 587.814 2264
128.804 585.217 2254
133.658 582.881 2245
139.027 582.881 2245
143.816 580.544 2236
148.163 576.649 2221
153.059 575.091 2215
158.356 575.091 2215
163.283 573.793 2210
167.881 571.457 2201
172.909 570.678 2198
178.165 570.678 2198
182.67 568.341 2189
187.647 567.562 2186
192.698 567.043 2184
197.92 567.043 2184
203.608 568.341 2189
208.843 568.341 2189
214.371 569.12 2192
219.612 569.12 2192
224.854 569.12 2192
229.781 568.341 2189
235.015 568.341 2189
240.25 568.341 2189
245.484 568.341 2189
250.719 568.341 2189
255.954 568.341 2189
259.518 564.706 2175
264.719 564.706 2175
793.795 854.199 3290
811.409 864.584 3330
819.372 864.584 3330
827.335 864.584 3330
837.054 866.402 3337
855.163 876.787 3377
863.238 876.787 3377
871.314 876.787 3377
879.389 876.787 3377
887.464 876.787 3377
895.54 876.787 3377
898.264 871.595 3357
906.291 871.595 3357
915.953 873.152 3363
929.765 878.605 3384
937.857 878.605 3384
945.949 878.605 3384
959.962 884.057 3405
974.075 889.509 3426
982.267 889.509 3426
990.46 889.509 3426
998.653 889.509 3426
1008.9 891.327 3433
1017.11 891.327 3433
1025.32 891.327 3433
1035.64 893.144 3440
1045.99 894.962 3447
1054.23 894.962 3447
1062.47 894.962 3447
1070.72 894.962 3447
1078.96 894.962 3447
1087.2 894.962 3447
1097.67 896.779 3454
1112.97 902.491 3476
1121.29 902.491 3476
1129.6 902.491 3476
1140.2 904.309 3483
1150.84 906.126 3490
1161.51 907.944 3497
1172.55 910.021 3505
1180.93 910.021 3505
1194.4 913.915 3520
1202.82 913.915 3520
1211.24 913.915 3520
1219.65 913.915 3520
1230.51 915.733 3527
1241.41 917.55 3534
1257.99 923.522 3557
1266.5 923.522 3557
1275 923.522 3557
1286.4 925.599 3565
1297.46 927.416 3572
1306 927.416 3572
1320.43 931.57 3588
1329.01 931.57 3588
1343.19 935.465 3603
1351.8 935.465 3603
1360.42 935.465 3603
1372.07 937.542 3611
1380.71 937.542 3611
1389.34 937.542 3611
1394.88 935.465 3603
1391.42 927.416 3572
1399.96 927.416 3572
1384.85 911.838 3512
1390.47 910.021 3505
1392.86 906.126 3490
1383.94 894.962 3447
1392.19 894.962 3447
1380.52 882.24 3398
1380.07 876.787 3377
1374.17 867.96 3343
1382.16 867.96 3343
1387.66 866.402 3337
1389.78 862.767 3323
1392.26 859.392 3310
1400.18 859.392 3310
1405.11 857.574 3303
1410.45 856.017 3297
1418.33 856.017 3297
1417.99 851.083 3278
1425.83 851.083 3278
1430.61 849.266 3271
1430.08 844.333 3252
1435.2 842.775 3246
1442.96 842.775 3246
1450.73 842.775 3246
1458.49 842.775 3246
1463.09 840.958 3239
1470.83 840.958 3239
1478.58 840.958 3239
1486.32 840.958 3239
1494.07 840.958 3239
1501.81 840.958 3239
1506.76 839.4 3233
1514.49 839.4 3233
1522.23 839.4 3233
1529.96 839.4 3233
1537.69 839.4 3233
1542.55 837.842 3227
1547.39 836.284 3221
1548.81 832.909 3208
1556.48 832.909 3208
1561.23 831.351 3202
1565.95 829.793 3196
1570.63 828.236 3190
1578.26 828.236 3190
1576.94 823.562 3172
1575.54 818.889 3154
1577.05 815.773 3142
1584.57 815.773 3142
1571.31 805.128 3101
1567.01 799.156 3078
1554.42 789.031 3039
1533.43 774.751 2984
1540.56 774.751 2984
1528.51 765.144 2947
1511.59 753.201 2901
1508.06 748.008 2881
1502.32 741.777 2857
1509.16 741.777 2857
1508.03 737.883 2842
1509.5 735.286 2832
1511.45 732.95 2823
1518.2 732.95 2823
1517.39 729.315 2809
1521.39 728.016 2804
1525.37 726.718 2799
1532.07 726.718 2799
1538.76 726.718 2799
1542.69 725.42 2794
1547.15 724.382 2790
1553.83 724.382 2790
1562.74 725.42 2794
1569.42 725.42 2794
1578.92 726.718 2799
1585.61 726.718 2799
1592.3 726.718 2799
1599 726.718 2799
1605.69 726.718 2799
1609.5 725.42 2794
1616.19 725.42 2794
2074.28 919.627 3542
2082.75 919.627 3542
2091.22 919.627 3542
2108.58 923.522 3557
2117.08 923.522 3557
2125.59 923.522 3557
2134.09 923.522 3557
2142.6 923.522 3557
2151.11 923.522 3557
2154.76 921.445 3549
2158.98 919.627 3542
2162.55 917.55 3534
2171 917.55 3534
2175.13 915.733 3527
2183.57 915.733 3527
2192 915.733 3527
2200.44 915.733 3527
2204.49 913.915 3520
2207.88 911.838 3512
2197.97 904.309 3483
2201.87 902.491 3476
2210.18 902.491 3476
2213.39 900.414 3468
2199.26 891.327 3433
2166.96 874.97 3370
2175.02 874.97 3370
2170.12 869.777 3350
2156.67 861.209 3317
2164.6 861.209 3317
2185.64 866.402 3337
2193.62 866.402 3337
2201.6 866.402 3337
2209.58 866.402 3337
2212.9 864.584 3330
2234.21 869.777 3350
2242.22 869.777 3350
2273.06 878.605 3384
2281.16 878.605 3384
2289.25 878.605 3384
2297.34 878.605 3384
2305.43 878.605 3384
2313.53 878.605 3384
2321.62 878.605 3384
2311.12 871.595 3357
2309.48 867.96 3343
2313.31 866.402 3337
2321.29 866.402 3337
2310.43 859.392 3310
2313.44 857.574 3303
2317.12 856.017 3297
2315.84 852.641 3284
2323.69 852.641 3284
2318.05 847.708 3265
2312.33 842.775 3246
2306.51 837.842 3227
2314.22 837.842 3227
2312.59 834.467 3214
2320.27 834.467 3214
2310.57 828.236 3190
2305.12 823.562 3172
2312.71 823.562 3172
2315.9 822.004 3166
2323.47 822.004 3166
2335.46 823.562 3172
2343.05 823.562 3172
2350.63 823.562 3172
2353.76 822.004 3166
2356.85 820.447 3160
2382.37 826.678 3184
2389.98 826.678 3184
2406.63 829.793 3196
2418.81 831.351 3202
2445.41 837.842 3227
2453.13 837.842 3227
2475.33 842.775 3246
2483.09 842.775 3246
-2458.81 860.508 3284
-2450.96 860.508 3284
-2443.11 860.508 3284
-2425.61 857.102 3271
-2403.75 852.123 3252
-2395.97 852.123 3252
-2383.79 850.551 3246
-2370.9 848.717 3239
-2363.16 848.717 3239
-2426.68 874.396 3337
-2437.54 881.209 3363
-2449.73 888.545 3391
-2441.62 888.545 3391
-2433.51 888.545 3391
-2405.37 881.209 3363
-2388.06 877.802 3350
-2375.08 875.968 3343
-2381.25 881.209 3363
-2373.21 881.209 3363
-2365.16 881.209 3363
-2352.92 879.636 3357
-2344.89 879.636 3357
-2304.14 867.321 3310
-2328.83 879.636 3357
-2320.81 879.636 3357
-2312.78 879.636 3357
-2304.75 879.636 3357
-2296.72 879.636 3357
-2288.7 879.636 3357
-2284.74 881.209 3363
-2276.7 881.209 3363
-2268.66 881.209 3363
-2256.58 879.636 3357
-2261.95 884.877 3377
-2253.88 884.877 3377
-2245.8 884.877 3377
-2247 888.545 3391
-2252.76 894.048 3412
-2244.6 894.048 3412
-2245.62 897.716 3426
-2242 899.551 3433
-2242.9 903.219 3447
-2234.66 903.219 3447
-2235.45 906.888 3461
-2236.83 910.818 3476
-2228.52 910.818 3476
-2220.21 910.818 3476
-2234.8 920.251 3512
-2235.91 924.182 3527
-2227.48 924.182 3527
-2219.05 924.182 3527
-2220.01 928.112 3542
-2211.54 928.112 3542
-2212.4 932.042 3557
-2203.9 932.042 3557
-2195.39 932.042 3557
-2186.88 932.042 3557
-2178.38 932.042 3557
-2169.87 932.042 3557
-2161.37 932.042 3557
-2157.7 934.139 3565
-2149.18 934.139 3565
-2140.65 934.139 3565
-2122.56 929.946 3549
-2114.07 929.946 3549
-2105.59 929.946 3549
-2092.96 928.112 3542
-2084.49 928.112 3542
-2076.02 928.112 3542
-2067.55 928.112 3542
-2054.43 926.016 3534
-2033.24 920.251 3512
-2020.81 918.417 3505
-2012.43 918.417 3505
-2004.05 918.417 3505
-1987.12 914.486 3490
-1966.31 908.722 3468
-1958.01 908.722 3468
-1941.85 905.053 3454
-1933.59 905.053 3454
-1917.53 901.385 3440
-1909.3 901.385 3440
-1901.07 901.385 3440
-1892.85 901.385 3440
-1884.62 901.385 3440
-1880.21 903.219 3447
-1871.97 903.219 3447
-1863.73 903.219 3447
-1855.49 903.219 3447
-1847.24 903.219 3447
-1816.59 892.214 3405
-1812.17 894.048 3412
-1811.41 897.716 3426
-1806.9 899.551 3433
-1798.69 899.551 3433
-1790.48 899.551 3433
-1782.27 899.551 3433
-1774.06 899.551 3433
-1765.86 899.551 3433
-1754.06 897.716 3426
-1745.87 897.716 3426
-1751.88 905.053 3454
-1750.69 908.722 3468
-1742.39 908.722 3468
-1734.1 908.722 3468
-1744.22 918.417 3505
-1735.84 918.417 3505
-1727.46 918.417 3505
-1719.08 918.417 3505
-1706.79 916.321 3497
-1698.43 916.321 3497
-1690.06 916.321 3497
-1696.13 924.182 3527
-1687.7 924.182 3527
-1679.26 924.182 3527
-1656.62 916.321 3497
-1648.25 916.321 3497
-1630.04 910.818 3476
-1621.73 910.818 3476
-1606.46 906.888 3461
-1628.66 924.182 3527
-1640.89 935.973 3572
-1632.35 935.973 3572
-1623.81 935.973 3572
-1615.27 935.973 3572
-1589.63 926.016 3534
-1581.18 926.016 3534
-1530.9 901.385 3440
-1513.38 895.882 3419
-1495.96 890.38 3398
-1487.83 890.38 3398
-1467.51 883.043 3370
-1465.52 886.711 3384
-1457.43 886.711 3384
-1449.33 886.711 3384
-1441.24 886.711 3384
-1433.15 886.711 3384
-1419.16 883.043 3370
-1411.1 883.043 3370
-1403.04 883.043 3370
-1386.71 877.802 3350
-1375.81 875.968 3343
-1367.82 875.968 3343
-1349.25 869.155 3317
-1333.23 863.915 3297
-1320.12 860.508 3284
-1314.67 862.08 3290
-1309.58 863.915 3297
-1301.69 863.915 3297
-1293.81 863.915 3297
-1285.93 863.915 3297
-1278.04 863.915 3297
-1265.15 860.508 3284
-1255 858.936 3278
-1242.21 855.53 3265
-1234.41 855.53 3265
-1226.6 855.53 3265
-1221.03 857.102 3271
-1220.26 862.08 3290
-1217.18 865.487 3303
-1209.28 865.487 3303
-1201.38 865.487 3303
-1191.32 863.915 3297
-1255.22 916.321 3497
-1246.86 916.321 3497
-1251.6 926.016 3534
-1264.61 942 3595
-1256.01 942 3595
-1247.41 942 3595
-1230.89 935.973 3572
-1212.08 928.112 3542
-1203.61 928.112 3542
-1192.44 926.016 3534
-1183.99 926.016 3534
-1180.53 929.946 3549
-1172.04 929.946 3549
-1163.56 929.946 3549
-1162.56 935.973 3572
-1154.02 935.973 3572
-1145.47 935.973 3572
-1136.93 935.973 3572
-1128.39 935.973 3572
-1117.65 934.139 3565
-1109.13 934.139 3565
-1088.87 924.182 3527
-1073.7 918.417 3505
-1065.32 918.417 3505
-1056.94 918.417 3505
-1037.49 908.722 3468
-871.091 944.096 3603
-862.475 944.096 3603
-853.859 944.096 3603
-845.243 944.096 3603
-836.628 944.096 3603
-828.012 944.096 3603
-815.985 940.165 3588
-696.788 929.946 3549
-688.301 929.946 3549
-679.814 929.946 3549
-670.003 928.112 3542
-660.039 926.016 3534
-651.588 926.016 3534
-643.137 926.016 3534
-632.172 922.347 3520
-622.337 920.251 3512
-613.939 920.251 3512
-606.92 922.347 3520
-598.503 922.347 3520
-591.259 924.182 3527
-582.825 924.182 3527
-574.391 924.182 3527
-565.956 924.182 3527
-557.522 924.182 3527
-549.088 924.182 3527
-541.727 926.016 3534
-533.276 926.016 3534
-524.825 926.016 3534
-516.374 926.016 3534
-509.073 928.112 3542
-500.603 928.112 3542
-492.133 928.112 3542
-485.712 932.042 3557
-477.206 932.042 3557
-468.7 932.042 3557
-463.17 938.069 3580
-454.609 938.069 3580
-446.048 938.069 3580
-437.487 938.069 3580
-430.723 942 3595
-424.005 946.192 3611
-415.37 946.192 3611
-406.735 946.192 3611
-398.1 946.192 3611
-390.328 948.288 3619
-382.518 950.385 3627
-373.845 950.385 3627
-365.171 950.385 3627
-356.498 950.385 3627
-347.825 950.385 3627
-339.152 950.385 3627
-274.831 938.069 3580
-266.27 938.069 3580
-257.709 938.069 3580
-248.104 934.139 3565
-239.042 932.042 3557
-230.536 932.042 3557
-220.594 926.016 3534
-211.303 922.347 3520
-202.021 918.417 3505
-193.639 918.417 3505
-184.095 912.652 3483
-175.413 910.818 3476
-167.101 910.818 3476
-158.789 910.818 3476
-150.476 910.818 3476
-142.164 910.818 3476
-133.544 908.722 3468
-125.251 908.722 3468
-116.486 905.053 3454
-107.568 899.551 3433
-99.1563 897.716 3426
-90.9637 897.716 3426
-82.7711 897.716 3426
-74.5785 897.716 3426
-66.1146 894.048 3412
-57.7177 890.38 3398
-49.592 890.38 3398
-41.381 888.545 3391
-33.2721 888.545 3391
-25.1632 888.545 3391
-17.0542 888.545 3391
-8.94534 888.545 3391
-0.836429 888.545 3391
4.9627 606.339 2314
10.4962 606.339 2314
16.0504 607.125 2317
21.619 607.911 2320
27.1669 607.911 2320
32.7147 607.911 2320
38.312 608.697 2323
43.867 608.697 2323
49.422 608.697 2323
54.977 608.697 2323
60.532 608.697 2323
66.0016 607.911 2320
71.5494 607.911 2320
77.0973 607.911 2320
82.3245 605.552 2311
87.4706 602.932 2301
92.973 602.932 2301
98.2186 601.36 2295
103.255 598.74 2285
108.576 597.954 2282
113.733 596.381 2276
119.176 596.381 2276
123.961 593.237 2264
128.804 590.617 2254
133.658 588.258 2245
139.027 588.258 2245
144.009 586.686 2239
148.163 581.97 2221
153.059 580.398 2215
158.356 580.398 2215
163.505 579.873 2213
167.881 576.729 2201
172.909 575.943 2198
178.165 575.943 2198
182.67 573.585 2189
187.647 572.799 2186
192.698 572.275 2184
197.92 572.275 2184
203.887 574.371 2192
209.129 574.371 2192
214.664 575.157 2195
219.913 575.157 2195
225.162 575.157 2195
230.096 574.371 2192
235.337 574.371 2192
240.579 574.371 2192
245.821 574.371 2192
251.063 574.371 2192
255.954 573.585 2189
260.83 572.799 2186
266.058 572.799 2186
804.83 865.487 3303
812.728 865.487 3303
824.105 869.155 3317
835.298 872.562 3330
855.163 884.877 3377
863.238 884.877 3377
871.314 884.877 3377
872.358 877.802 3350
880.369 877.802 3350
888.38 877.802 3350
896.391 877.802 3350
904.401 877.802 3350
912.412 877.802 3350
923.995 881.209 3363
932.037 881.209 3363
940.079 881.209 3363
954.041 886.711 3384
966.114 890.38 3398
974.24 890.38 3398
988.436 895.882 3419
996.612 895.882 3419
1006.85 897.716 3426
1015.04 897.716 3426
1023.23 897.716 3426
1033.53 899.551 3433
1041.74 899.551 3433
1049.95 899.551 3433
1058.16 899.551 3433
1064.19 897.716 3426
1072.39 897.716 3426
1080.58 897.716 3426
1093.22 901.385 3440
1101.45 901.385 3440
1114.19 905.053 3454
1122.45 905.053 3454
1133 906.888 3461
1141.28 906.888 3461
1156.86 912.652 3483
1165.19 912.652 3483
1173.52 912.652 3483
1181.85 912.652 3483
1192.57 914.486 3490
1200.91 914.486 3490
1209.26 914.486 3490
1222.84 918.417 3505
1238.95 924.182 3527
1249.86 926.016 3534
1258.31 926.016 3534
1269.63 928.112 3542
1280.62 929.946 3549
1292.01 932.042 3557
1300.52 932.042 3557
1314.55 935.973 3572
1323.09 935.973 3572
1337.59 940.165 3588
1346.17 940.165 3588
1357.4 942 3595
1369.03 944.096 3603
1377.65 944.096 3603
1386.27 944.096 3603
1391.78 942 3595
1388.69 934.139 3565
1397.22 934.139 3565
1384.85 920.251 3512
1384.52 914.486 3490
1384.08 908.722 3468
1383.94 903.219 3447
1392.19 903.219 3447
1380.52 890.38 3398
1377.2 883.043 3370
1374.17 875.968 3343
1382.16 875.968 3343
1384.75 872.562 3330
1387.27 869.155 3317
1392.26 867.321 3310
1400.18 867.321 3310
1405.11 865.487 3303
1410.45 863.915 3297
1418.33 863.915 3297
1417.99 858.936 3278
1425.83 858.936 3278
1430.61 857.102 3271
1430.08 852.123 3252
1435.2 850.551 3246
1442.96 850.551 3246
1450.73 850.551 3246
1458.49 850.551 3246
1463.09 848.717 3239
1470.83 848.717 3239
1478.58 848.717 3239
1486.32 848.717 3239
1494.07 848.717 3239
1501.81 848.717 3239
1506.76 847.145 3233
1514.49 847.145 3233
1522.23 847.145 3233
1529.96 847.145 3233
1537.69 847.145 3233
1542.55 845.572 3227
1547.39 844 3221
1548.81 840.594 3208
1556.48 840.594 3208
1558.3 837.449 3196
1565.95 837.449 3196
1570.63 835.877 3190
1578.26 835.877 3190
1576.94 831.161 3172
1575.54 826.444 3154
1577.05 823.3 3142
1584.57 823.3 3142
1571.31 812.557 3101
1567.01 806.53 3078
1554.42 796.311 3039
1533.43 781.899 2984
1540.56 781.899 2984
1528.51 772.204 2947
1511.59 760.15 2901
1508.06 754.91 2881
1502.32 748.621 2857
1509.16 748.621 2857
1508.03 744.691 2842
1509.5 742.07 2832
1511.45 739.712 2823
1518.2 739.712 2823
1517.39 736.044 2809
1521.39 734.734 2804
1525.37 733.423 2799
1532.07 733.423 2799
1538.76 733.423 2799
1542.69 732.113 2794
1547.15 731.065 2790
1553.83 731.065 2790
1562.74 732.113 2794
1569.42 732.113 2794
1578.92 733.423 2799
1585.61 733.423 2799
1592.3 733.423 2799
1599 733.423 2799
1605.69 733.423 2799
1609.5 732.113 2794
1616.19 732.113 2794
2065.49 924.182 3527
2073.93 924.182 3527
2091.22 928.112 3542
2099.69 928.112 3542
2108.16 928.112 3542
2116.63 928.112 3542
2129.29 929.946 3549
2137.78 929.946 3549
2146.27 929.946 3549
2145.65 926.016 3534
2154.1 926.016 3534
2158.27 924.182 3527
2166.7 924.182 3527
2175.13 924.182 3527
2179.23 922.347 3520
2187.65 922.347 3520
2196.07 922.347 3520
2190.08 916.321 3497
2185.24 910.818 3476
2184.09 906.888 3461
2192.37 906.888 3461
2200.64 906.888 3461
2191.05 899.551 3433
2158.9 883.043 3370
2141.24 872.562 3330
2149.2 872.562 3330
2144.21 867.321 3310
2143.67 863.915 3297
2139.15 858.936 3278
2159.44 863.915 3297
2180.47 869.155 3317
2188.4 869.155 3317
2196.33 869.155 3317
2208.25 870.727 3323
2234.21 877.802 3350
2242.22 877.802 3350
2273.06 886.711 3384
2281.16 886.711 3384
2289.25 886.711 3384
2297.34 886.711 3384
2305.43 886.711 3384
2303.95 883.043 3370
2312.01 883.043 3370
2301.48 875.968 3343
2309.48 875.968 3343
2313.31 874.396 3337
2321.29 874.396 3337
2310.43 867.321 3310
2313.44 865.487 3303
2317.12 863.915 3297
2315.84 860.508 3284
2323.69 860.508 3284
2318.05 855.53 3265
2312.33 850.551 3246
2306.51 845.572 3227
2314.22 845.572 3227
2312.59 842.166 3214
2320.27 842.166 3214
2310.57 835.877 3190
2305.12 831.161 3172
2312.71 831.161 3172
2315.9 829.589 3166
2323.47 829.589 3166
2335.46 831.161 3172
2343.05 831.161 3172
2350.63 831.161 3172
2358.22 831.161 3172
2361.33 829.589 3166
2382.37 834.305 3184
2389.98 834.305 3184
2406.63 837.449 3196
2418.81 839.022 3202
2445.41 845.572 3227
2453.13 845.572 3227
2469.99 848.717 3239
2477.74 848.717 3239
-2458.81 868.375 3284
-2450.96 868.375 3284
-2443.11 868.375 3284
-2425.61 864.937 3271
-2399.31 858.327 3246
-2391.55 858.327 3246
-2383.79 858.327 3246
-2370.9 856.476 3239
-2363.16 856.476 3239
-2355.41 856.476 3239
-2437.54 889.265 3363
-2449.73 896.669 3391
-2441.62 896.669 3391
-2433.51 896.669 3391
-2405.37 889.265 3363
-2368.82 878.688 3323
-2360.87 878.688 3323
-2362.84 882.39 3337
-2354.86 882.39 3337
-2346.88 882.39 3337
-2319.97 875.25 3310
-2312.06 875.25 3310
-2295.09 871.812 3297
-2314.96 882.39 3337
-2311.13 883.976 3343
-2303.13 883.976 3343
-2295.14 883.976 3343
-2287.14 883.976 3343
-2275.06 882.39 3337
-2267.08 882.39 3337
-2259.1 882.39 3337
-2255.17 883.976 3343
-2247.17 883.976 3343
-2239.18 883.976 3343
-2231.19 883.976 3343
-2223.19 883.976 3343
-2237.73 892.967 3377
-2252.76 902.221 3412
-2244.6 902.221 3412
-2241.03 904.073 3419
-2237.43 905.923 3426
-2238.34 909.625 3440
-2230.12 909.625 3440
-2235.45 915.178 3461
-2231.68 917.029 3468
-2228.52 919.145 3476
-2220.21 919.145 3476
-2234.8 928.664 3512
-2235.91 932.63 3527
-2227.48 932.63 3527
-2219.05 932.63 3527
-2220.01 936.597 3542
-2211.54 936.597 3542
-2207.43 938.448 3549
-2198.94 938.448 3549
-2190.45 938.448 3549
-2177.66 936.597 3542
-2169.19 936.597 3542
-2160.72 936.597 3542
-2156.51 938.448 3549
-2148.02 938.448 3549
-2139.53 938.448 3549
-2131.05 938.448 3549
-2122.56 938.448 3549
-2105.14 934.482 3534
-2096.69 934.482 3534
-2088.24 934.482 3534
-2084.49 936.597 3542
-2076.02 936.597 3542
-2067.55 936.597 3542
-2054.43 934.482 3534
-2033.24 928.664 3512
-2020.81 926.813 3505
-2012.43 926.813 3505
-2004.05 926.813 3505
-1987.12 922.847 3490
-1966.31 917.029 3468
-1958.01 917.029 3468
-1941.85 913.327 3454
-1933.59 913.327 3454
-1917.53 909.625 3440
-1909.3 909.625 3440
-1901.07 909.625 3440
-1892.85 909.625 3440
-1884.62 909.625 3440
-1880.21 911.476 3447
-1871.97 911.476 3447
-1863.73 911.476 3447
-1855.49 911.476 3447
-1847.24 911.476 3447
-1816.59 900.371 3405
-1808.45 900.371 3405
-1811.41 905.923 3426
-1806.9 907.774 3433
-1798.69 907.774 3433
-1790.48 907.774 3433
-1775.01 904.073 3419
-1766.83 904.073 3419
-1758.65 904.073 3419
-1746.89 902.221 3412
-1738.74 902.221 3412
-1737.68 905.923 3426
-1743.62 913.327 3454
-1735.36 913.327 3454
-1727.1 913.327 3454
-1729.79 919.145 3476
-1721.48 919.145 3476
-1713.16 919.145 3476
-1704.85 919.145 3476
-1696.54 919.145 3476
-1698.43 924.698 3497
-1690.06 924.698 3497
-1696.13 932.63 3527
-1687.7 932.63 3527
-1679.26 932.63 3527
-1656.62 924.698 3497
-1648.25 924.698 3497
-1630.04 919.145 3476
-1621.73 919.145 3476
-1606.46 915.178 3461
-1628.66 932.63 3527
-1640.89 944.53 3572
-1632.35 944.53 3572
-1623.81 944.53 3572
-1615.27 944.53 3572
-1589.63 934.482 3534
-1581.18 934.482 3534
-1530.9 909.625 3440
-1513.38 904.073 3419
-1495.96 898.52 3398
-1487.83 898.52 3398
-1467.51 891.116 3370
-1465.52 894.818 3384
-1457.43 894.818 3384
-1449.33 894.818 3384
-1441.24 894.818 3384
-1433.15 894.818 3384
-1419.16 891.116 3370
-1411.1 891.116 3370
-1403.04 891.116 3370
-1386.71 885.827 3350
-1375.81 883.976 3343
-1367.82 883.976 3343
-1349.25 877.101 3317
-1333.23 871.812 3297
-1320.12 868.375 3284
-1314.67 869.962 3290
-1309.58 871.812 3297
-1301.69 871.812 3297
-1293.81 871.812 3297
-1285.93 871.812 3297
-1278.04 871.812 3297
-1265.15 868.375 3284
-1255 866.788 3278
-1242.21 863.351 3265
-1234.41 863.351 3265
-1226.6 863.351 3265
-1221.03 864.937 3271
-1220.26 869.962 3290
-1217.18 873.399 3303
-1209.28 873.399 3303
-1201.38 873.399 3303
-1191.32 871.812 3297
-1255.22 924.698 3497
-1246.86 924.698 3497
-1251.6 934.482 3534
-1264.61 950.611 3595
-1256.01 950.611 3595
-1247.41 950.611 3595
-1230.89 944.53 3572
-1212.08 936.597 3542
-1203.61 936.597 3542
-1192.44 934.482 3534
-1183.99 934.482 3534
-1180.53 938.448 3549
-1172.04 938.448 3549
-1163.56 938.448 3549
-1162.56 944.53 3572
-1154.02 944.53 3572
-1145.47 944.53 3572
-1136.93 944.53 3572
-1128.39 944.53 3572
-1117.65 942.679 3565
-1109.13 942.679 3565
-1088.87 932.63 3527
-1073.7 926.813 3505
-1065.32 926.813 3505
-1056.94 926.813 3505
-1037.49 917.029 3468
-871.091 952.727 3603
-862.475 952.727 3603
-853.859 952.727 3603
-845.243 952.727 3603
-836.628 952.727 3603
-828.012 952.727 3603
-815.985 948.76 3588
-696.788 938.448 3549
-688.301 938.448 3549
-679.814 938.448 3549
-670.003 936.597 3542
-660.039 934.482 3534
-651.588 934.482 3534
-643.137 934.482 3534
-632.172 930.78 3520
-622.337 928.664 3512
-613.939 928.664 3512
-606.92 930.78 3520
-598.503 930.78 3520
-591.259 932.63 3527
-582.825 932.63 3527
-574.391 932.63 3527
-565.956 932.63 3527
-557.522 932.63 3527
-549.088 932.63 3527
-541.727 934.482 3534
-533.276 934.482 3534
-524.825 934.482 3534
-516.374 934.482 3534
-509.073 936.597 3542
-500.603 936.597 3542
-492.133 936.597 3542
-485.712 940.563 3557
-477.206 940.563 3557
-468.7 940.563 3557
-463.17 946.645 3580
-454.609 946.645 3580
-446.048 946.645 3580
-437.487 946.645 3580
-430.723 950.611 3595
-424.005 954.842 3611
-415.37 954.842 3611
-406.735 954.842 3611
-398.1 954.842 3611
-390.328 956.958 3619
-382.518 959.073 3627
