1419.86 -165.39 2594
1428.81 -165.709 2599
1435.02 -165.709 2599
1445.67 -166.219 2607
1470.29 -168.323 2640
1478.84 -168.578 2644
1485.16 -168.578 2644
1493.74 -168.833 2648
1521.6 -171.256 2686
1538.26 -172.404 2704
1544.73 -172.404 2704
1553.49 -172.659 2708
1562.84 -172.977 2713
1576.85 -173.806 2726
1583.37 -173.806 2726
1592.22 -174.061 2730
1598.75 -174.061 2730
1605.28 -174.061 2730
1611.81 -174.061 2730
1615.96 -173.806 2726
1619.51 -173.487 2721
1626.01 -173.487 2721
1632.52 -173.487 2721
1634.21 -172.977 2713
1637.67 -172.659 2708
1641.72 -172.404 2704
1648.18 -172.404 2704
1651.59 -172.085 2699
1650.06 -171.256 2686
1651.55 -170.746 2678
1657.95 -170.746 2678
1661.25 -170.427 2673
1665.14 -170.172 2669
1669.02 -169.917 2665
1675.4 -169.917 2665
1679.24 -169.662 2661
1679.91 -169.088 2652
1681.16 -168.578 2644
1684.93 -168.323 2640
1691.24 -168.323 2640
1697.56 -168.323 2640
1700.64 -168.004 2635
1706.94 -168.004 2635
1713.24 -168.004 2635
1719.55 -168.004 2635
1725.85 -168.004 2635
1726.89 -167.494 2627
1733.17 -167.494 2627
1739.45 -167.494 2627
1745.73 -167.494 2627
1749.35 -167.239 2623
1752.94 -166.984 2619
1759.21 -166.984 2619
1765.47 -166.984 2619
1766.32 -166.474 2611
1772.56 -166.474 2611
1778.81 -166.474 2611
1782.32 -166.219 2607
1788.55 -166.219 2607
1792.03 -165.964 2603
1798.26 -165.964 2603
1804.48 -165.964 2603
1810.71 -165.964 2603
1816.93 -165.964 2603
1823.15 -165.964 2603
1826.57 -165.709 2599
1829.26 -165.39 2594
1832.63 -165.135 2590
1838.82 -165.135 2590
1845.02 -165.135 2590
1848.35 -164.88 2586
1851.67 -164.625 2582
1857.84 -164.625 2582
1864.02 -164.625 2582
1870.19 -164.625 2582
1876.36 -164.625 2582
1882.54 -164.625 2582
1888.71 -164.625 2582
1894.89 -164.625 2582
1895.17 -164.115 2574
1901.33 -164.115 2574
1907.48 -164.115 2574
1913.64 -164.115 2574
1919.79 -164.115 2574
1925.95 -164.115 2574
1929.85 -163.924 2571
1936 -163.924 2571
1942.15 -163.924 2571
1948.29 -163.924 2571
1954.44 -163.924 2571
1960.59 -163.924 2571
1966.74 -163.924 2571
-2037.28 -166.969 2721
-2030.77 -166.969 2721
-2034.68 -167.828 2735
-2028.14 -167.828 2735
-2021.6 -167.828 2735
-2015.06 -167.828 2735
-2008.52 -167.828 2735
-1985.88 -166.478 2713
-1979.39 -166.478 2713
-1950.36 -164.576 2682
-1943.94 -164.576 2682
-2465.03 -215.078 3505
-2456.65 -215.078 3505
-2448.27 -215.078 3505
-2455.2 -216.428 3527
-2446.77 -216.428 3527
-2438.33 -216.428 3527
-2425.08 -215.998 3520
-2416.66 -215.998 3520
-2408.24 -215.998 3520
-2399.82 -215.998 3520
-2391.41 -215.998 3520
-2372.83 -215.078 3505
-2364.45 -215.078 3505
-2350.69 -214.587 3497
-2342.33 -214.587 3497
-2329.3 -214.158 3490
-2316.3 -213.728 3483
-2284.11 -211.519 3447
-2275.87 -211.519 3447
-2267.63 -211.519 3447
-2263.97 -211.949 3454
-2279.22 -214.158 3490
-2280.64 -215.078 3505
-2272.26 -215.078 3505
-2263.87 -215.078 3505
-2255.49 -215.078 3505
-2247.11 -215.078 3505
-2233.62 -214.587 3497
-2239.89 -215.998 3520
-2235.91 -216.428 3527
-2227.48 -216.428 3527
-2219.05 -216.428 3527
-2210.61 -216.428 3527
-2206.55 -216.858 3534
-2198.1 -216.858 3534
-2189.65 -216.858 3534
-2190.45 -217.778 3549
-2196.11 -219.189 3572
-2221.25 -222.564 3627
-2212.57 -222.564 3627
-2208.76 -223.055 3635
-2200.07 -223.055 3635
-2191.38 -223.055 3635
-2182.69 -223.055 3635
-2169.21 -222.564 3627
-2141.47 -220.601 3595
-2137.62 -221.092 3603
-2129.01 -221.092 3603
-2143.34 -223.485 3642
-2144.01 -224.467 3658
-2135.26 -224.467 3658
-2126.52 -224.467 3658
-2127.61 -225.51 3675
-2118.82 -225.51 3675
-2110.04 -225.51 3675
-2096.67 -225.019 3667
-2101.57 -226.492 3691
-2115.99 -229.007 3732
-2107.07 -229.007 3732
-2098.14 -229.007 3732
-2098.73 -230.051 3749
-2094.23 -230.542 3757
-2094.68 -231.585 3774
-2085.65 -231.585 3774
-2076.63 -231.585 3774
-2067.6 -231.585 3774
-2058.58 -231.585 3774
-2049.56 -231.585 3774
-2036.21 -231.094 3766
-2018.05 -230.051 3749
-2009.08 -230.051 3749
-1982.51 -228.026 3716
-1968.85 -227.473 3707
-1955.75 -226.982 3699
-1951.12 -227.473 3707
-1942.25 -227.473 3707
-1938.08 -228.026 3716
-1941.66 -229.498 3740
-1932.71 -229.498 3740
-1923.77 -229.498 3740
-1914.83 -229.498 3740
-1897.73 -228.517 3724
-1888.82 -228.517 3724
-1863.26 -226.492 3691
-1842.38 -225.019 3667
-1829.11 -224.467 3658
-1820.36 -224.467 3658
-1792.3 -222.073 3619
-1802.86 -224.467 3658
-1806.38 -226.001 3683
-1825.39 -229.498 3740
-1816.45 -229.498 3740
-1807.5 -229.498 3740
-1798.56 -229.498 3740
-1789.62 -229.498 3740
-1780.67 -229.498 3740
-1771.73 -229.498 3740
-1755.25 -228.517 3724
-1746.34 -228.517 3724
-1737.44 -228.517 3724
-1724.82 -228.026 3716
-1715.93 -228.026 3716
-1695.56 -226.492 3691
-1694.05 -227.473 3707
-1685.18 -227.473 3707
-1687.62 -229.007 3732
-1682.3 -229.498 3740
-1673.35 -229.498 3740
-1664.41 -229.498 3740
-1651.92 -229.007 3732
-1635.96 -228.026 3716
-1627.07 -228.026 3716
-1614.26 -227.473 3707
-1591.54 -225.51 3675
-1261.85 -189.244 3084
-1254.47 -189.244 3084
-1247.1 -189.244 3084
-1237.31 -188.876 3078
-1192.39 -183.108 2984
-1185.25 -183.108 2984
-1178.12 -183.108 2984
-1164.7 -182.126 2968
-1143.57 -179.917 2932
-1128.41 -178.628 2911
-1127.62 -179.61 2927
-1120.62 -179.61 2927
-1115.52 -179.917 2932
-1112.29 -180.531 2942
-1105.25 -180.531 2942
-1098.22 -180.531 2942
-1087.47 -179.917 2932
-1080.46 -179.917 2932
-1073.45 -179.917 2932
-1060.98 -178.996 2917
-1048.23 -178.015 2901
-1041.29 -178.015 2901
-1034.35 -178.015 2901
-1022.1 -177.094 2886
-1015.2 -177.094 2886
-1004.81 -176.481 2876
-997.931 -176.481 2876
-991.053 -176.481 2876
-984.176 -176.481 2876
-973.9 -175.867 2866
-967.047 -175.867 2866
-957.178 -175.315 2857
-950.346 -175.315 2857
-943.514 -175.315 2857
-936.682 -175.315 2857
-929.85 -175.315 2857
-919.788 -174.701 2847
-914.583 -175.008 2852
-907.763 -175.008 2852
-902.523 -175.315 2857
-895.691 -175.315 2857
-888.859 -175.315 2857
-882.027 -175.315 2857
-876.726 -175.621 2862
-869.882 -175.621 2862
-863.039 -175.621 2862
-858.887 -176.174 2871
-852.022 -176.174 2871
-845.156 -176.174 2871
-838.291 -176.174 2871
-829.977 -175.867 2866
-823.124 -175.867 2866
-815.131 -175.621 2862
-808.287 -175.621 2862
-801.443 -175.621 2862
-794.599 -175.621 2862
-787.756 -175.621 2862
-780.912 -175.621 2862
-774.068 -175.621 2862
-767.224 -175.621 2862
-759.052 -175.315 2857
-752.22 -175.315 2857
-744.083 -175.008 2852
-737.263 -175.008 2852
-730.443 -175.008 2852
-723.623 -175.008 2852
-716.803 -175.008 2852
-709.983 -175.008 2852
-703.163 -175.008 2852
-695.122 -174.701 2847
-688.314 -174.701 2847
-681.506 -174.701 2847
-674.698 -174.701 2847
-667.89 -174.701 2847
-661.082 -174.701 2847
-655.423 -175.008 2852
-648.603 -175.008 2852
-641.783 -175.008 2852
-637.19 -175.621 2862
-638.935 -178.015 2901
-631.998 -178.015 2901
-632.818 -180.224 2937
-637.087 -183.476 2990
-655.64 -190.962 3112
-648.199 -190.962 3112
-653.111 -194.644 3172
-657.94 -198.387 3233
-652.823 -199.185 3246
-645.061 -199.185 3246
-652.416 -203.91 3323
-651.064 -205.996 3357
-645.527 -206.794 3370
-637.468 -206.794 3370
-629.409 -206.794 3370
-622.641 -207.224 3377
-614.566 -207.224 3377
-606.49 -207.224 3377
-598.415 -207.224 3377
-590.339 -207.224 3377
-582.264 -207.224 3377
-571.808 -206.364 3363
-563.766 -206.364 3363
-558.038 -207.224 3377
-552.242 -208.083 3391
-544.133 -208.083 3391
-536.024 -208.083 3391
-527.916 -208.083 3391
-519.807 -208.083 3391
-510.641 -207.653 3384
-502.549 -207.653 3384
-495.48 -208.083 3391
-487.371 -208.083 3391
-479.262 -208.083 3391
-472.126 -208.512 3398
-464 -208.512 3398
-455.874 -208.512 3398
-447.749 -208.512 3398
-438.717 -208.083 3391
-429.72 -207.653 3384
-421.628 -207.653 3384
-413.535 -207.653 3384
-404.604 -207.224 3377
-396.529 -207.224 3377
-388.454 -207.224 3377
-380.378 -207.224 3377
-370.759 -206.364 3363
-362.07 -205.996 3357
-352.566 -205.137 3343
-344.572 -205.137 3343
-335.974 -204.769 3337
-327.306 -204.339 3330
-318.672 -203.91 3323
-310.725 -203.91 3323
-302.232 -203.542 3317
-293.679 -203.112 3310
-284.642 -202.314 3297
-276.758 -202.314 3297
-267.813 -201.517 3284
-259.96 -201.517 3284
-252.107 -201.517 3284
-244.701 -201.885 3290
-236.833 -201.885 3290
-228.966 -201.885 3290
-220.292 -201.149 3278
-212.453 -201.149 3278
-204.615 -201.149 3278
-196.356 -200.719 3271
-187.439 -199.553 3252
-179.662 -199.553 3252
-171.886 -199.553 3252
-101.77 -129.906 2117
-96.7076 -129.906 2117
-91.6452 -129.906 2117
-86.4601 -129.722 2114
-81.0198 -129.108 2104
-75.9885 -129.108 2104
-70.5188 -128.31 2091
-65.3306 -127.942 2085
-60.0553 -127.329 2075
-54.8809 -126.838 2067
-49.9381 -126.838 2067
-44.8864 -126.531 2062
-39.9168 -126.408 2060
-34.7699 -125.61 2047
-29.8749 -125.61 2047
-24.9189 -125.304 2042
-19.9868 -124.997 2037
-15.0786 -124.69 2032
-10.2195 -124.69 2032
-5.36034 -124.69 2032
-0.501216 -124.69 2032
4.3622 -124.813 2034
9.24879 -125.12 2039
14.1247 -125.12 2039
19.0285 -125.304 2042
24.0286 -125.917 2052
29.0766 -126.531 2062
34.0075 -126.531 2062
38.995 -126.715 2065
43.9756 -126.838 2067
49.1787 -127.513 2078
54.1478 -127.513 2078
59.1739 -127.635 2080
64.1478 -127.635 2080
69.1217 -127.635 2080
74.0956 -127.635 2080
79.0695 -127.635 2080
84.2454 -127.942 2085
89.2313 -127.942 2085
94.3527 -128.126 2088
99.3458 -128.126 2088
104.489 -128.31 2091
109.594 -128.433 2093
114.763 -128.617 2096
119.775 -128.617 2096
124.906 -128.74 2098
130.295 -129.108 2104
135.455 -129.231 2106
140.491 -129.231 2106
145.734 -129.415 2109
150.992 -129.599 2112
156.634 -130.09 2120
161.703 -130.09 2120
166.773 -130.09 2120
172.004 -130.213 2122
177.579 -130.581 2128
182.668 -130.581 2128
188.198 -130.888 2133
193.842 -131.256 2139
199.422 -131.563 2144
204.549 -131.563 2144
209.97 -131.747 2147
215.404 -131.931 2150
221.059 -132.238 2155
226.212 -132.238 2155
231.687 -132.422 2158
237.177 -132.606 2161
243.017 -132.974 2167
248.199 -132.974 2167
253.615 -133.097 2169
258.802 -133.097 2169
263.989 -133.097 2169
385.555 -180.224 2937
392.578 -180.224 2937
399.601 -180.224 2937
405.932 -179.917 2932
410.831 -178.996 2917
416.231 -178.321 2906
423.18 -178.321 2906
430.129 -178.321 2906
435.574 -177.708 2896
442.499 -177.708 2896
449.425 -177.708 2896
455.562 -177.401 2891
462.475 -177.401 2891
467.765 -176.787 2881
473.83 -176.481 2876
480.708 -176.481 2876
486.737 -176.174 2871
493.603 -176.174 2871
500.468 -176.174 2871
507.334 -176.174 2871
514.199 -176.174 2871
520.157 -175.867 2866
527.011 -175.867 2866
533.864 -175.867 2866
539.963 -175.621 2862
546.807 -175.621 2862
553.651 -175.621 2862
560.495 -175.621 2862
567.339 -175.621 2862
573.179 -175.315 2857
580.011 -175.315 2857
586.843 -175.315 2857
593.675 -175.315 2857
600.507 -175.315 2857
607.339 -175.315 2857
614.171 -175.315 2857
621.003 -175.315 2857
627.835 -175.315 2857
634.667 -175.315 2857
640.376 -175.008 2852
647.196 -175.008 2852
654.016 -175.008 2852
659.678 -174.701 2847
666.486 -174.701 2847
673.294 -174.701 2847
680.102 -174.701 2847
685.703 -174.394 2842
692.5 -174.394 2842
699.296 -174.394 2842
706.092 -174.394 2842
712.888 -174.394 2842
719.684 -174.394 2842
726.48 -174.394 2842
733.276 -174.394 2842
740.072 -174.394 2842
745.554 -174.087 2837
752.338 -174.087 2837
759.122 -174.087 2837
765.907 -174.087 2837
772.691 -174.087 2837
779.475 -174.087 2837
786.259 -174.087 2837
793.043 -174.087 2837
799.827 -174.087 2837
805.19 -173.781 2832
811.962 -173.781 2832
818.734 -173.781 2832
825.506 -173.781 2832
832.278 -173.781 2832
839.051 -173.781 2832
845.823 -173.781 2832
852.595 -173.781 2832
859.367 -173.781 2832
866.139 -173.781 2832
872.911 -173.781 2832
878.441 -173.535 2828
885.204 -173.535 2828
891.966 -173.535 2828
897.14 -173.228 2823
900.689 -172.615 2813
909.028 -172.922 2818
915.767 -172.922 2818
924.143 -173.228 2823
930.893 -173.228 2823
937.644 -173.228 2823
944.394 -173.228 2823
951.145 -173.228 2823
956.199 -172.922 2818
962.938 -172.922 2818
969.677 -172.922 2818
976.415 -172.922 2818
1347.11 -233.732 3809
1356.22 -233.732 3809
1365.33 -233.732 3809
1355.68 -230.542 3757
1364.66 -230.542 3757
1367.43 -229.498 3740
1373.43 -229.007 3732
1364.2 -226.001 3683
1373.01 -226.001 3683
1381.82 -226.001 3683
1387.6 -225.51 3675
1393.35 -225.019 3667
1402.12 -225.019 3667
1401.27 -223.485 3642
1407.27 -223.055 3635
1412.85 -222.564 3627
1421.52 -222.564 3627
1427.04 -222.073 3619
1432.52 -221.583 3611
1437.96 -221.092 3603
1440.55 -220.171 3588
1449.13 -220.171 3588
1451.21 -219.189 3572
1450.36 -217.778 3549
1452.68 -216.858 3534
1461.13 -216.858 3534
1463.76 -215.998 3520
1462.56 -214.587 3497
1455.78 -212.378 3461
1464.05 -212.378 3461
1433.62 -206.794 3370
1427.56 -204.769 3337
1435.54 -204.769 3337
1446.11 -205.137 3343
1454.11 -205.137 3343
1462.1 -205.137 3343
1467.46 -204.769 3337
1469.25 -203.91 3323
1477.19 -203.91 3323
1482.46 -203.542 3317
1484.1 -202.683 3303
1501.03 -203.91 3323
1518.06 -205.137 3343
1526.05 -205.137 3343
1549.65 -207.224 3377
1557.73 -207.224 3377
1572.29 -208.083 3391
1580.4 -208.083 3391
1588.51 -208.083 3391
1419.86 -159.176 2594
1428.81 -159.483 2599
1435.02 -159.483 2599
1445.67 -159.974 2607
1470.29 -161.999 2640
1478.84 -162.244 2644
1485.16 -162.244 2644
1507.84 -164.024 2673
1528.96 -165.619 2699
1540.54 -166.172 2708
1547.01 -166.172 2708
1558.65 -166.724 2717
1567.45 -166.969 2721
1579.16 -167.522 2730
1585.69 -167.522 2730
1595.14 -167.828 2735
1601.68 -167.828 2735
1608.22 -167.828 2735
1611.81 -167.522 2730
1618.33 -167.522 2730
1624.86 -167.522 2730
1629 -167.276 2726
1635.52 -167.276 2726
1639.03 -166.969 2721
1643.11 -166.724 2717
1644.15 -166.172 2708
1650.62 -166.172 2708
1654.65 -165.926 2704
1655.59 -165.374 2695
1654.02 -164.576 2682
1660.43 -164.576 2682
1664.36 -164.331 2678
1670.76 -164.331 2678
1671.53 -163.778 2669
1677.91 -163.778 2669
1681.77 -163.533 2665
1685.61 -163.287 2661
1683.7 -162.49 2648
1687.48 -162.244 2644
1693.81 -162.244 2644
1697.56 -161.999 2640
1703.87 -161.999 2640
1710.18 -161.999 2640
1716.5 -161.999 2640
1722.81 -161.999 2640
1729.12 -161.999 2640
1732.15 -161.692 2635
1738.45 -161.692 2635
1742.1 -161.447 2631
1745.73 -161.201 2627
1752.02 -161.201 2627
1755.62 -160.956 2623
1761.89 -160.956 2623
1768.17 -160.956 2623
1769.03 -160.465 2615
1775.28 -160.465 2615
1781.53 -160.465 2615
1785.05 -160.219 2611
1791.3 -160.219 2611
1792.03 -159.728 2603
1798.26 -159.728 2603
1804.48 -159.728 2603
1810.71 -159.728 2603
1816.93 -159.728 2603
1823.15 -159.728 2603
1826.57 -159.483 2599
1829.26 -159.176 2594
1835.46 -159.176 2594
1838.82 -158.931 2590
1845.02 -158.931 2590
1848.35 -158.685 2586
1854.54 -158.685 2586
1857.84 -158.44 2582
1864.02 -158.44 2582
1870.19 -158.44 2582
1876.36 -158.44 2582
1882.54 -158.44 2582
1888.71 -158.44 2582
1894.89 -158.44 2582
1898.12 -158.194 2578
1901.33 -157.949 2574
1907.48 -157.949 2574
1913.64 -157.949 2574
1919.79 -157.949 2574
1925.95 -157.949 2574
1932.1 -157.949 2574
1938.26 -157.949 2574
1944.41 -157.949 2574
1950.57 -157.949 2574
1956.72 -157.949 2574
1962.88 -157.949 2574
1969.03 -157.949 2574
-2037.28 -160.451 2721
-2030.77 -160.451 2721
-2034.68 -161.277 2735
-2028.14 -161.277 2735
-2021.6 -161.277 2735
-2015.06 -161.277 2735
-2008.52 -161.277 2735
-1985.88 -159.979 2713
-1979.39 -159.979 2713
-1950.36 -158.151 2682
-1943.94 -158.151 2682
-2465.03 -206.682 3505
-2456.65 -206.682 3505
-2448.27 -206.682 3505
-2455.2 -207.979 3527
-2446.77 -207.979 3527
-2438.33 -207.979 3527
-2425.08 -207.566 3520
-2416.66 -207.566 3520
-2408.24 -207.566 3520
-2399.82 -207.566 3520
-2391.41 -207.566 3520
-2372.83 -206.682 3505
-2364.45 -206.682 3505
-2350.69 -206.21 3497
-2342.33 -206.21 3497
-2329.3 -205.797 3490
-2316.3 -205.384 3483
-2284.11 -203.262 3447
-2275.87 -203.262 3447
-2267.63 -203.262 3447
-2263.97 -203.674 3454
-2279.22 -205.797 3490
-2280.64 -206.682 3505
-2272.26 -206.682 3505
-2263.87 -206.682 3505
-2255.49 -206.682 3505
-2247.11 -206.682 3505
-2233.62 -206.21 3497
-2239.89 -207.566 3520
-2235.91 -207.979 3527
-2227.48 -207.979 3527
-2219.05 -207.979 3527
-2210.61 -207.979 3527
-2206.55 -208.392 3534
-2198.1 -208.392 3534
-2189.65 -208.392 3534
-2190.45 -209.276 3549
-2196.11 -210.633 3572
-2221.25 -213.876 3627
-2212.57 -213.876 3627
-2208.76 -214.348 3635
-2200.07 -214.348 3635
-2191.38 -214.348 3635
-2182.69 -214.348 3635
-2169.21 -213.876 3627
-2141.47 -211.989 3595
-2137.62 -212.461 3603
-2129.01 -212.461 3603
-2143.34 -214.76 3642
-2144.01 -215.704 3658
-2135.26 -215.704 3658
-2126.52 -215.704 3658
-2127.61 -216.706 3675
-2118.82 -216.706 3675
-2110.04 -216.706 3675
-2096.67 -216.235 3667
-2101.57 -217.65 3691
-2115.99 -220.067 3732
-2107.07 -220.067 3732
-2098.14 -220.067 3732
-2089.22 -220.067 3732
-2089.77 -221.07 3749
-2085.24 -221.542 3757
-2076.26 -221.542 3757
-2067.28 -221.542 3757
-2058.29 -221.542 3757
-2049.31 -221.542 3757
-2035.98 -221.07 3749
-2027.01 -221.07 3749
-2008.9 -220.067 3732
-1999.97 -220.067 3732
-1982.51 -219.124 3716
-1956.1 -217.178 3683
-1947.29 -217.178 3683
-1946.91 -218.121 3699
-1938.06 -218.121 3699
-1933.39 -218.593 3707
-1941.66 -220.539 3740
-1932.71 -220.539 3740
-1923.77 -220.539 3740
-1906.63 -219.596 3724
-1884.99 -218.121 3699
-1876.14 -218.121 3699
-1859.22 -217.178 3683
-1842.38 -216.235 3667
-1813.61 -213.876 3627
-1804.93 -213.876 3627
-1792.3 -213.404 3619
-1783.64 -213.404 3619
-1790.19 -215.232 3650
-1793.67 -216.706 3675
-1784.88 -216.706 3675
-1776.09 -216.706 3675
-1771.15 -217.178 3683
-1766.17 -217.65 3691
-1757.34 -217.65 3691
-1748.52 -217.65 3691
-1739.69 -217.65 3691
-1730.87 -217.65 3691
-1722.04 -217.65 3691
-1705.79 -216.706 3675
-1693.3 -216.235 3667
-1680.4 -215.704 3658
-1679.42 -216.706 3675
-1670.63 -216.706 3675
-1669.08 -217.65 3691
-1667.45 -218.593 3707
-1658.59 -218.593 3707
-1649.72 -218.593 3707
-1640.86 -218.593 3707
-1628.47 -218.121 3699
-1619.63 -218.121 3699
-1607.3 -217.65 3691
-1591.54 -216.706 3675
-1261.85 -181.856 3084
-1254.47 -181.856 3084
-1247.1 -181.856 3084
-1237.31 -181.503 3078
-1192.39 -175.96 2984
-1185.25 -175.96 2984
-1178.12 -175.96 2984
-1164.7 -175.016 2968
-1143.57 -172.893 2932
-1128.41 -171.655 2911
-1127.62 -172.598 2927
-1120.62 -172.598 2927
-1113.62 -172.598 2927
-1110.4 -173.188 2937
-1103.38 -173.188 2937
-1096.35 -173.188 2937
-1083.77 -172.304 2922
-1076.78 -172.304 2922
-1069.79 -172.304 2922
-1060.98 -172.009 2917
-1048.23 -171.065 2901
-1041.29 -171.065 2901
-1034.35 -171.065 2901
-1022.1 -170.181 2886
-1015.2 -170.181 2886
-1004.81 -169.591 2876
-997.931 -169.591 2876
-991.053 -169.591 2876
-984.176 -169.591 2876
-973.9 -169.001 2866
-967.047 -169.001 2866
-957.178 -168.471 2857
-950.346 -168.471 2857
-943.514 -168.471 2857
-936.682 -168.471 2857
-929.85 -168.471 2857
-919.788 -167.881 2847
-914.583 -168.176 2852
-907.763 -168.176 2852
-902.523 -168.471 2857
-895.691 -168.471 2857
-888.859 -168.471 2857
-882.027 -168.471 2857
-875.195 -168.471 2857
-868.363 -168.471 2857
-863.039 -168.766 2862
-857.391 -169.001 2866
-850.538 -169.001 2866
-843.684 -169.001 2866
-836.831 -169.001 2866
-828.819 -168.766 2862
-821.975 -168.766 2862
-815.131 -168.766 2862
-808.287 -168.766 2862
-801.443 -168.766 2862
-794.599 -168.766 2862
-787.756 -168.766 2862
-780.912 -168.766 2862
-774.068 -168.766 2862
-767.224 -168.766 2862
-759.052 -168.471 2857
-752.22 -168.471 2857
-744.083 -168.176 2852
-737.263 -168.176 2852
-730.443 -168.176 2852
-723.623 -168.176 2852
-716.803 -168.176 2852
-709.983 -168.176 2852
-703.163 -168.176 2852
-695.122 -167.881 2847
-688.314 -167.881 2847
-681.506 -167.881 2847
-674.698 -167.881 2847
-667.89 -167.881 2847
-661.082 -167.881 2847
-654.274 -167.881 2847
-647.466 -167.881 2847
-641.783 -168.176 2852
-636.076 -168.471 2857
-635.632 -170.181 2886
-628.73 -170.181 2886
-627.216 -171.655 2911
-633.678 -175.37 2974
-654.587 -183.213 3107
-647.157 -183.213 3107
-650.64 -186.338 3160
-656.718 -190.289 3227
-652.823 -191.409 3246
-645.061 -191.409 3246
-652.416 -195.95 3323
-651.064 -197.955 3357
-645.527 -198.721 3370
-637.468 -198.721 3370
-629.409 -198.721 3370
-622.641 -199.134 3377
-614.566 -199.134 3377
-606.49 -199.134 3377
-598.415 -199.134 3377
-590.339 -199.134 3377
-582.264 -199.134 3377
-571.808 -198.308 3363
-563.766 -198.308 3363
-558.038 -199.134 3377
-552.242 -199.959 3391
-544.133 -199.959 3391
-536.024 -199.959 3391
-527.916 -199.959 3391
-519.807 -199.959 3391
-510.641 -199.547 3384
-502.549 -199.547 3384
-495.48 -199.959 3391
-487.371 -199.959 3391
-479.262 -199.959 3391
-472.126 -200.372 3398
-464 -200.372 3398
-455.874 -200.372 3398
-447.749 -200.372 3398
-438.717 -199.959 3391
-429.72 -199.547 3384
-421.628 -199.547 3384
-413.535 -199.547 3384
-404.604 -199.134 3377
-396.529 -199.134 3377
-388.454 -199.134 3377
-380.378 -199.134 3377
-370.759 -198.308 3363
-362.07 -197.955 3357
-352.566 -197.129 3343
-344.572 -197.129 3343
-335.974 -196.775 3337
-327.306 -196.362 3330
-318.672 -195.95 3323
-310.725 -195.95 3323
-302.232 -195.596 3317
-293.679 -195.183 3310
-284.642 -194.416 3297
-276.758 -194.416 3297
-267.813 -193.65 3284
-259.96 -193.65 3284
-252.107 -193.65 3284
-244.701 -194.004 3290
-236.833 -194.004 3290
-228.966 -194.004 3290
-220.292 -193.296 3278
-212.453 -193.296 3278
-204.615 -193.296 3278
-196.356 -192.883 3271
-187.439 -191.763 3252
-179.662 -191.763 3252
-171.886 -191.763 3252
-101.626 -124.658 2114
-96.5705 -124.658 2114
-91.5153 -124.658 2114
-86.1329 -124.186 2106
-80.5192 -123.301 2091
-75.519 -123.301 2091
-70.4176 -123.125 2088
-65.3306 -122.948 2085
-59.9684 -122.181 2072
-54.8278 -121.768 2065
-49.8898 -121.768 2065
-44.8864 -121.591 2062
-39.8587 -121.297 2057
-34.7699 -120.707 2047
-29.8749 -120.707 2047
-24.8579 -120.117 2037
-19.9377 -119.822 2032
-15.0786 -119.822 2032
-10.2195 -119.822 2032
-5.36034 -119.822 2032
-0.501216 -119.822 2032
4.3622 -119.94 2034
9.24879 -120.235 2039
14.1247 -120.235 2039
19.0285 -120.412 2042
24.0286 -121.002 2052
29.0766 -121.591 2062
34.0075 -121.591 2062
38.995 -121.768 2065
43.9756 -121.886 2067
49.1787 -122.535 2078
54.1478 -122.535 2078
59.1739 -122.653 2080
64.1478 -122.653 2080
69.1217 -122.653 2080
74.0956 -122.653 2080
79.0695 -122.653 2080
84.2454 -122.948 2085
89.2313 -122.948 2085
94.3527 -123.125 2088
99.3458 -123.125 2088
104.489 -123.301 2091
109.594 -123.419 2093
114.763 -123.596 2096
119.775 -123.596 2096
124.906 -123.714 2098
130.109 -123.891 2101
135.455 -124.186 2106
140.491 -124.186 2106
145.527 -124.186 2106
150.778 -124.363 2109
156.412 -124.835 2117
161.474 -124.835 2117
166.773 -125.012 2120
172.004 -125.129 2122
177.329 -125.306 2125
182.411 -125.306 2125
188.198 -125.778 2133
193.842 -126.132 2139
199.236 -126.309 2142
204.359 -126.309 2142
209.676 -126.427 2144
215.104 -126.604 2147
220.546 -126.781 2150
225.687 -126.781 2150
231.365 -127.075 2155
237.177 -127.429 2161
242.344 -127.429 2161
247.512 -127.429 2161
253.381 -127.783 2167
258.563 -127.783 2167
263.745 -127.783 2167
385.555 -173.188 2937
392.578 -173.188 2937
399.601 -173.188 2937
405.932 -172.893 2932
410.831 -172.009 2917
416.231 -171.36 2906
423.18 -171.36 2906
430.129 -171.36 2906
435.574 -170.77 2896
442.499 -170.77 2896
449.425 -170.77 2896
455.562 -170.476 2891
462.475 -170.476 2891
467.765 -169.886 2881
473.83 -169.591 2876
480.708 -169.591 2876
486.737 -169.296 2871
493.603 -169.296 2871
500.468 -169.296 2871
507.334 -169.296 2871
514.199 -169.296 2871
520.157 -169.001 2866
527.011 -169.001 2866
533.864 -169.001 2866
539.963 -168.766 2862
546.807 -168.766 2862
553.651 -168.766 2862
560.495 -168.766 2862
567.339 -168.766 2862
573.179 -168.471 2857
580.011 -168.471 2857
586.843 -168.471 2857
593.675 -168.471 2857
600.507 -168.471 2857
607.339 -168.471 2857
614.171 -168.471 2857
621.003 -168.471 2857
627.835 -168.471 2857
634.667 -168.471 2857
640.376 -168.176 2852
647.196 -168.176 2852
654.016 -168.176 2852
659.678 -167.881 2847
666.486 -167.881 2847
673.294 -167.881 2847
680.102 -167.881 2847
685.703 -167.586 2842
692.5 -167.586 2842
699.296 -167.586 2842
706.092 -167.586 2842
712.888 -167.586 2842
719.684 -167.586 2842
726.48 -167.586 2842
733.276 -167.586 2842
740.072 -167.586 2842
745.554 -167.291 2837
752.338 -167.291 2837
759.122 -167.291 2837
765.907 -167.291 2837
772.691 -167.291 2837
779.475 -167.291 2837
786.259 -167.291 2837
793.043 -167.291 2837
799.827 -167.291 2837
805.19 -166.997 2832
811.962 -166.997 2832
818.734 -166.997 2832
825.506 -166.997 2832
832.278 -166.997 2832
839.051 -166.997 2832
845.823 -166.997 2832
852.595 -166.997 2832
859.367 -166.997 2832
866.139 -166.997 2832
872.911 -166.997 2832
878.441 -166.761 2828
885.204 -166.761 2828
891.966 -166.761 2828
897.14 -166.466 2823
900.689 -165.876 2813
909.028 -166.171 2818
915.767 -166.171 2818
924.143 -166.466 2823
930.893 -166.466 2823
937.644 -166.466 2823
944.394 -166.466 2823
951.145 -166.466 2823
956.199 -166.171 2818
962.938 -166.171 2818
969.677 -166.171 2818
976.415 -166.171 2818
1347.11 -224.608 3809
1356.22 -224.608 3809
1365.33 -224.608 3809
1355.68 -221.542 3757
1364.66 -221.542 3757
1367.43 -220.539 3740
1373.43 -220.067 3732
1364.2 -217.178 3683
1373.01 -217.178 3683
1381.82 -217.178 3683
1387.6 -216.706 3675
1393.35 -216.235 3667
1402.12 -216.235 3667
1401.27 -214.76 3642
1407.27 -214.348 3635
1412.85 -213.876 3627
1421.52 -213.876 3627
1427.04 -213.404 3619
1432.52 -212.932 3611
1434.77 -211.989 3595
1437.34 -211.104 3580
1445.9 -211.104 3580
1445.12 -209.748 3557
1444.23 -208.392 3534
1449.8 -207.979 3527
1458.23 -207.979 3527
1460.43 -207.095 3512
1462.56 -206.21 3497
1452.83 -203.674 3454
1461.09 -203.674 3454
1433.62 -198.721 3370
1427.56 -196.775 3337
1435.54 -196.775 3337
1446.11 -197.129 3343
1454.11 -197.129 3343
1462.1 -197.129 3343
1461.3 -195.95 3323
1469.25 -195.95 3323
1477.19 -195.95 3323
1479.33 -195.183 3310
1481.4 -194.416 3297
1498.32 -195.596 3317
1508.98 -195.95 3323
1516.92 -195.95 3323
1524.87 -195.95 3323
1532.82 -195.95 3323
1572.29 -199.959 3391
1580.4 -199.959 3391
1588.51 -199.959 3391
1419.86 -152.962 2594
1428.81 -153.257 2599
1435.02 -153.257 2599
1445.67 -153.729 2607
1470.29 -155.675 2640
1478.84 -155.911 2644
1485.16 -155.911 2644
1507.84 -157.621 2673
1528.96 -159.154 2699
1540.54 -159.685 2708
1547.01 -159.685 2708
1558.65 -160.215 2717
1567.45 -160.451 2721
1579.16 -160.982 2730
1585.69 -160.982 2730
1595.14 -161.277 2735
1601.68 -161.277 2735
1608.22 -161.277 2735
1611.81 -160.982 2730
1618.33 -160.982 2730
1624.86 -160.982 2730
1629 -160.746 2726
1635.52 -160.746 2726
1639.03 -160.451 2721
1643.11 -160.215 2717
1644.15 -159.685 2708
1650.62 -159.685 2708
1654.65 -159.449 2704
1655.59 -158.918 2695
1654.02 -158.151 2682
1660.43 -158.151 2682
1664.36 -157.915 2678
1670.76 -157.915 2678
1671.53 -157.385 2669
1677.91 -157.385 2669
1681.77 -157.149 2665
1685.61 -156.913 2661
1683.7 -156.146 2648
1687.48 -155.911 2644
1693.81 -155.911 2644
1697.56 -155.675 2640
1703.87 -155.675 2640
1710.18 -155.675 2640
1716.5 -155.675 2640
1722.81 -155.675 2640
1729.12 -155.675 2640
1732.15 -155.38 2635
1738.45 -155.38 2635
1742.1 -155.144 2631
1745.73 -154.908 2627
1752.02 -154.908 2627
1755.62 -154.672 2623
1761.89 -154.672 2623
1768.17 -154.672 2623
1769.03 -154.201 2615
1775.28 -154.201 2615
1781.53 -154.201 2615
1785.05 -153.965 2611
1791.3 -153.965 2611
1792.03 -153.493 2603
1798.26 -153.493 2603
1804.48 -153.493 2603
1810.71 -153.493 2603
1816.93 -153.493 2603
1823.15 -153.493 2603
1826.57 -153.257 2599
1829.26 -152.962 2594
1835.46 -152.962 2594
1838.82 -152.726 2590
1845.02 -152.726 2590
1848.35 -152.49 2586
1854.54 -152.49 2586
1857.84 -152.255 2582
1864.02 -152.255 2582
1870.19 -152.255 2582
1876.36 -152.255 2582
1882.54 -152.255 2582
1888.71 -152.255 2582
1894.89 -152.255 2582
1898.12 -152.019 2578
1901.33 -151.783 2574
1907.48 -151.783 2574
1913.64 -151.783 2574
1919.79 -151.783 2574
1925.95 -151.783 2574
1932.1 -151.783 2574
1938.26 -151.783 2574
1944.41 -151.783 2574
1950.57 -151.783 2574
1956.72 -151.783 2574
1962.88 -151.783 2574
1969.03 -151.783 2574
-2037.28 -153.933 2721
-2030.77 -153.933 2721
-2034.68 -154.725 2735
-2028.14 -154.725 2735
-2021.6 -154.725 2735
-2015.06 -154.725 2735
-2008.52 -154.725 2735
-1985.88 -153.48 2713
-1979.39 -153.48 2713
-1950.36 -151.727 2682
-1943.94 -151.727 2682
-1931.03 -151.217 2673
-2356.02 -189.517 3350
-2348.01 -189.517 3350
-2422.42 -196.192 3468
-2414.13 -196.192 3468
-2411.39 -196.645 3476
-2417.59 -197.833 3497
-2409.23 -197.833 3497
-2400.87 -197.833 3497
-2392.51 -197.833 3497
-2384.14 -197.833 3497
-2375.78 -197.833 3497
-2362.68 -197.437 3490
-2354.33 -197.437 3490
-2345.99 -197.437 3490
-2337.64 -197.437 3490
-2324.62 -197.041 3483
-2316.3 -197.041 3483
-2284.11 -195.004 3447
-2275.87 -195.004 3447
-2267.63 -195.004 3447
-2263.97 -195.4 3454
-2279.22 -197.437 3490
-2280.64 -198.286 3505
-2272.26 -198.286 3505
-2263.87 -198.286 3505
-2255.49 -198.286 3505
-2247.11 -198.286 3505
-2233.62 -197.833 3497
-2239.89 -199.134 3520
-2235.91 -199.53 3527
-2227.48 -199.53 3527
-2219.05 -199.53 3527
-2210.61 -199.53 3527
-2206.55 -199.926 3534
-2198.1 -199.926 3534
-2189.65 -199.926 3534
-2190.45 -200.775 3549
-2196.11 -202.076 3572
-2211.45 -204.282 3611
-2202.81 -204.282 3611
-2208.76 -205.64 3635
-2200.07 -205.64 3635
-2191.38 -205.64 3635
-2182.69 -205.64 3635
-2169.21 -205.187 3627
-2141.47 -203.377 3595
-2137.62 -203.83 3603
-2129.01 -203.83 3603
-2143.34 -206.036 3642
-2144.01 -206.941 3658
-2135.26 -206.941 3658
-2126.52 -206.941 3658
-2127.61 -207.903 3675
-2118.82 -207.903 3675
-2110.04 -207.903 3675
-2096.67 -207.45 3667
-2101.57 -208.808 3691
-2101.82 -209.713 3707
-2092.95 -209.713 3707
-2084.09 -209.713 3707
-2080.26 -210.222 3716
-2080.29 -211.127 3732
-2075.81 -211.58 3740
-2066.86 -211.58 3740
-2057.92 -211.58 3740
-2048.98 -211.58 3740
-2040.03 -211.58 3740
-2031.09 -211.58 3740
-2017.82 -211.127 3732
-2004.59 -210.675 3724
-1995.69 -210.675 3724
-1964.91 -208.355 3683
-1951.85 -207.903 3675
-1938.83 -207.45 3667
-1938.49 -208.355 3683
-1929.68 -208.355 3683
-1929.22 -209.261 3699
-1929.2 -210.222 3716
-1920.31 -210.222 3716
-1911.42 -210.222 3716
-1902.54 -210.222 3716
-1884.99 -209.261 3699
-1876.14 -209.261 3699
-1859.22 -208.355 3683
-1842.38 -207.45 3667
-1821.11 -206.036 3642
-1812.4 -206.036 3642
-1796.26 -205.187 3627
-1787.59 -205.187 3627
-1790.19 -206.488 3650
-1797.57 -208.355 3683
-1788.76 -208.355 3683
-1779.96 -208.355 3683
-1778.84 -209.261 3699
-1773.83 -209.713 3707
-1764.96 -209.713 3707
-1756.1 -209.713 3707
-1747.23 -209.713 3707
-1734.62 -209.261 3699
-1725.77 -209.261 3699
-1713.21 -208.808 3691
-1697 -207.903 3675
-1680.4 -206.941 3658
-1675.77 -207.45 3667
-1667 -207.45 3667
-1672.7 -209.261 3699
-1671.5 -210.222 3716
-1662.61 -210.222 3716
-1653.73 -210.222 3716
-1644.84 -210.222 3716
-1628.47 -209.261 3699
-1619.63 -209.261 3699
-1607.3 -208.808 3691
-1591.54 -207.903 3675
-1264.28 -173.79 3072
-1261.85 -174.469 3084
-1254.47 -174.469 3084
-1247.1 -174.469 3084
-1237.31 -174.129 3078
-1194.79 -169.151 2990
-1187.64 -169.151 2990
-1178.12 -168.811 2984
-1164.7 -167.906 2968
-1143.57 -165.87 2932
-1130.74 -165.021 2917
-1129.54 -165.87 2932
-1122.53 -165.87 2932
-1115.52 -165.87 2932
-1110.4 -166.153 2937
-1103.38 -166.153 2937
-1096.35 -166.153 2937
-1083.77 -165.304 2922
-1074.94 -165.021 2917
-1067.96 -165.021 2917
-1060.98 -165.021 2917
-1050.03 -164.399 2906
-1043.09 -164.399 2906
-1036.14 -164.399 2906
-1025.65 -163.833 2896
-1015.2 -163.267 2886
-1008.3 -163.267 2886
-1001.4 -163.267 2886
-992.776 -162.984 2881
-985.887 -162.984 2881
-973.9 -162.136 2866
-967.047 -162.136 2866
-960.193 -162.136 2866
-953.34 -162.136 2866
-945.165 -161.91 2862
-938.322 -161.91 2862
-929.85 -161.627 2857
-923.018 -161.627 2857
-916.186 -161.627 2857
-909.354 -161.627 2857
-902.523 -161.627 2857
-895.691 -161.627 2857
-888.859 -161.627 2857
-883.57 -161.91 2862
-876.726 -161.91 2862
-869.882 -161.91 2862
-863.039 -161.91 2862
-857.391 -162.136 2866
-850.538 -162.136 2866
-843.684 -162.136 2866
-836.831 -162.136 2866
-828.819 -161.91 2862
-821.975 -161.91 2862
-815.131 -161.91 2862
-808.287 -161.91 2862
-801.443 -161.91 2862
-794.599 -161.91 2862
-787.756 -161.91 2862
-780.912 -161.91 2862
-774.068 -161.91 2862
-767.224 -161.91 2862
-760.38 -161.91 2862
-752.22 -161.627 2857
-745.388 -161.627 2857
-738.556 -161.627 2857
-731.724 -161.627 2857
-724.892 -161.627 2857
-718.06 -161.627 2857
-711.228 -161.627 2857
-704.396 -161.627 2857
-697.564 -161.627 2857
-690.732 -161.627 2857
-683.9 -161.627 2857
-677.068 -161.627 2857
-670.236 -161.627 2857
-663.404 -161.627 2857
-656.572 -161.627 2857
-648.603 -161.344 2852
-641.783 -161.344 2852
-636.076 -161.627 2857
-635.632 -163.267 2886
-628.73 -163.267 2886
-625.061 -164.116 2901
-630.269 -167.341 2958
-647.213 -173.79 3072
-639.867 -173.79 3072
-648.169 -178.089 3148
-646.747 -179.786 3178
-652.823 -183.633 3246
-645.061 -183.633 3246
-652.416 -187.989 3323
-651.064 -189.913 3357
-645.527 -190.648 3370
-637.468 -190.648 3370
-629.409 -190.648 3370
-622.641 -191.044 3377
-614.566 -191.044 3377
-606.49 -191.044 3377
-598.415 -191.044 3377
-590.339 -191.044 3377
-582.264 -191.044 3377
-571.808 -190.252 3363
-563.766 -190.252 3363
-558.038 -191.044 3377
-552.242 -191.836 3391
-544.133 -191.836 3391
-536.024 -191.836 3391
-527.916 -191.836 3391
-519.807 -191.836 3391
-510.641 -191.44 3384
-503.589 -191.836 3391
-495.48 -191.836 3391
-488.377 -192.232 3398
-480.251 -192.232 3398
-474.071 -193.024 3412
-465.912 -193.024 3412
-457.753 -193.024 3412
-449.594 -193.024 3412
-439.623 -192.232 3398
-432.386 -192.628 3405
-424.244 -192.628 3405
-416.102 -192.628 3405
-407.121 -192.232 3398
-398.995 -192.232 3398
-388.454 -191.044 3377
-380.378 -191.044 3377
-372.303 -191.044 3377
-363.472 -190.648 3370
-354.043 -189.913 3357
-346.015 -189.913 3357
-337.283 -189.517 3350
-327.994 -188.781 3337
-320.014 -188.781 3337
-312.034 -188.781 3337
-302.779 -187.989 3323
-294.3 -187.65 3317
-285.16 -186.858 3303
-277.261 -186.858 3303
-268.303 -186.122 3290
-260.435 -186.122 3290
-252.568 -186.122 3290
-244.701 -186.122 3290
-236.833 -186.122 3290
-228.966 -186.122 3290
-220.695 -185.783 3284
-212.842 -185.783 3284
-204.615 -185.444 3278
-196.356 -185.048 3271
-187.439 -183.973 3252
-179.662 -183.973 3252
-171.886 -183.973 3252
-106.429 -119.311 2109
-101.385 -119.311 2109
-96.3421 -119.311 2109
-91.169 -119.141 2106
-86.0511 -119.028 2104
-80.5192 -118.292 2091
-75.519 -118.292 2091
-70.3164 -117.953 2085
-65.1739 -117.67 2080
-59.9106 -117.104 2070
-54.7482 -116.652 2062
-49.8173 -116.652 2062
-44.7776 -116.369 2057
-39.8199 -116.256 2055
-34.685 -115.52 2042
-29.8019 -115.52 2042
-24.8579 -115.238 2037
-19.9377 -114.955 2032
-15.0786 -114.955 2032
-10.2195 -114.955 2032
-5.36034 -114.955 2032
-0.501216 -114.955 2032
4.3622 -115.068 2034
9.24879 -115.351 2039
14.1247 -115.351 2039
19.0285 -115.52 2042
24.0286 -116.086 2052
29.1189 -116.822 2065
34.0569 -116.822 2065
39.0327 -116.935 2067
44.0394 -117.104 2070
49.1787 -117.557 2078
54.1478 -117.557 2078
59.1739 -117.67 2080
64.1478 -117.67 2080
69.2214 -117.84 2083
74.2025 -117.84 2083
79.1836 -117.84 2083
84.1646 -117.84 2083
89.1457 -117.84 2083
94.3527 -118.123 2088
99.3458 -118.123 2088
104.339 -118.123 2088
109.489 -118.292 2091
114.763 -118.575 2096
119.775 -118.575 2096
124.906 -118.688 2098
130.109 -118.858 2101
135.455 -119.141 2106
140.491 -119.141 2106
145.527 -119.141 2106
150.778 -119.311 2109
156.412 -119.763 2117
161.474 -119.763 2117
166.773 -119.933 2120
171.842 -119.933 2120
177.079 -120.046 2122
182.153 -120.046 2122
188.021 -120.555 2131
193.299 -120.668 2133
198.957 -121.008 2139
204.072 -121.008 2139
209.481 -121.178 2142
214.803 -121.291 2144
219.93 -121.291 2144
225.057 -121.291 2144
230.828 -121.63 2150
236.299 -121.8 2153
241.672 -121.913 2155
246.825 -121.913 2155
252.329 -122.083 2158
257.489 -122.083 2158
262.65 -122.083 2158
373.532 -167.058 2953
380.594 -167.058 2953
387.655 -167.058 2953
393.915 -166.718 2947
400.962 -166.718 2947
406.624 -166.153 2937
411.535 -165.304 2922
416.947 -164.682 2911
423.908 -164.682 2911
430.869 -164.682 2911
437.078 -164.399 2906
442.499 -163.833 2896
449.425 -163.833 2896
456.35 -163.833 2896
463.275 -163.833 2896
468.577 -163.267 2886
473.83 -162.702 2876
480.708 -162.702 2876
487.585 -162.702 2876
493.603 -162.419 2871
500.468 -162.419 2871
507.334 -162.419 2871
514.199 -162.419 2871
521.065 -162.419 2871
527.011 -162.136 2866
533.864 -162.136 2866
540.718 -162.136 2866
547.571 -162.136 2866
554.424 -162.136 2866
561.278 -162.136 2866
568.131 -162.136 2866
574.182 -161.91 2862
580.011 -161.627 2857
587.87 -161.91 2862
594.714 -161.91 2862
601.558 -161.91 2862
608.402 -161.91 2862
615.246 -161.91 2862
622.09 -161.91 2862
628.934 -161.91 2862
634.667 -161.627 2857
641.499 -161.627 2857
648.331 -161.627 2857
655.163 -161.627 2857
660.836 -161.344 2852
667.656 -161.344 2852
674.476 -161.344 2852
680.102 -161.061 2847
686.91 -161.061 2847
693.718 -161.061 2847
700.526 -161.061 2847
706.092 -160.778 2842
712.888 -160.778 2842
719.684 -160.778 2842
726.48 -160.778 2842
733.276 -160.778 2842
740.072 -160.778 2842
746.868 -160.778 2842
753.664 -160.778 2842
760.46 -160.778 2842
767.256 -160.778 2842
774.052 -160.778 2842
780.849 -160.778 2842
787.645 -160.778 2842
793.043 -160.495 2837
799.827 -160.495 2837
806.611 -160.495 2837
813.395 -160.495 2837
820.18 -160.495 2837
826.964 -160.495 2837
833.748 -160.495 2837
840.532 -160.495 2837
847.316 -160.495 2837
854.1 -160.495 2837
860.884 -160.495 2837
867.668 -160.495 2837
874.453 -160.495 2837
879.684 -160.212 2832
885.204 -159.986 2828
891.966 -159.986 2828
897.14 -159.703 2823
902.29 -159.42 2818
910.641 -159.703 2823
917.392 -159.703 2823
925.779 -159.986 2828
932.542 -159.986 2828
939.305 -159.986 2828
946.067 -159.986 2828
952.83 -159.986 2828
959.592 -159.986 2828
964.646 -159.703 2823
969.677 -159.42 2818
976.415 -159.42 2818
1347.11 -215.483 3809
1356.22 -215.483 3809
1365.33 -215.483 3809
1374.44 -215.483 3809
1383.55 -215.483 3809
1373.64 -212.542 3757
1376.37 -211.58 3740
1376.43 -210.222 3716
1385.31 -210.222 3716
1381.82 -208.355 3683
1390.62 -208.355 3683
1396.39 -207.903 3675
1405.18 -207.903 3675
1407.43 -206.941 3658
1409.98 -206.036 3642
1412.85 -205.187 3627
1421.52 -205.187 3627
1427.04 -204.735 3619
1432.52 -204.282 3611
1434.77 -203.377 3595
1434.13 -202.076 3572
1442.67 -202.076 3572
1445.12 -201.227 3557
1441.37 -199.53 3527
1443.63 -198.682 3512
1452.03 -198.682 3512
1454.19 -197.833 3497
1453.77 -196.645 3476
1446.94 -194.608 3440
1455.17 -194.608 3440
1433.62 -190.648 3370
1430.12 -189.121 3343
1435.54 -188.781 3337
1449.14 -189.517 3350
1457.15 -189.517 3350
1465.16 -189.517 3350
1470.09 -189.121 3343
1472.34 -188.385 3330
1480.3 -188.385 3330
1485.14 -187.989 3323
1484.1 -186.858 3303
1498.32 -187.65 3317
1508.98 -187.989 3323
1516.92 -187.989 3323
1549.65 -191.044 3377
1564.18 -191.836 3391
1591.77 -194.212 3433
1599.98 -194.212 3433
1614.74 -195.004 3447
1622.99 -195.004 3447
1631.23 -195.004 3447
1428.81 -147.031 2599
1435.02 -147.031 2599
1443.46 -147.257 2603
1472.51 -149.577 2644
1485.55 -150.256 2656
1491.9 -150.256 2656
1512.92 -151.727 2682
1531.79 -152.971 2704
1545.66 -153.707 2717
1552.15 -153.707 2717
1560.95 -153.933 2721
1572.64 -154.442 2730
1584.37 -154.951 2739
1590.92 -154.951 2739
1600.39 -155.234 2744
1606.95 -155.234 2744
1613.51 -155.234 2744
1617.12 -154.951 2739
1623.67 -154.951 2739
1627.84 -154.725 2735
1634.38 -154.725 2735
1640.92 -154.725 2735
1642.04 -154.216 2726
1645.53 -153.933 2721
1649.61 -153.707 2717
1656.11 -153.707 2717
1660.16 -153.48 2713
1661.12 -152.971 2704
1656.48 -151.953 2686
1662.9 -151.953 2686
1669.33 -151.953 2686
1673.26 -151.727 2682
1677.16 -151.5 2678
1683.57 -151.5 2678
1684.29 -150.991 2669
1685.61 -150.539 2661
1683.7 -149.803 2648
1687.48 -149.577 2644
1693.81 -149.577 2644
1700.13 -149.577 2644
1706.45 -149.577 2644
1712.77 -149.577 2644
1719.1 -149.577 2644
1725.42 -149.577 2644
1731.74 -149.577 2644
1735.43 -149.351 2640
1741.75 -149.351 2640
1744.75 -149.068 2635
1748.39 -148.841 2631
1754.68 -148.841 2631
1758.3 -148.615 2627
1764.58 -148.615 2627
1768.17 -148.389 2623
1771.73 -148.163 2619
1778 -148.163 2619
1784.26 -148.163 2619
1787.79 -147.936 2615
1794.04 -147.936 2615
1797.54 -147.71 2611
1803.78 -147.71 2611
1810.03 -147.71 2611
1813.49 -147.484 2607
1819.72 -147.484 2607
1825.96 -147.484 2607
1826.57 -147.031 2599
1832.78 -147.031 2599
1835.46 -146.748 2594
1841.66 -146.748 2594
1847.87 -146.748 2594
1851.21 -146.522 2590
1854.54 -146.296 2586
1860.72 -146.296 2586
1866.9 -146.296 2586
1870.19 -146.069 2582
1876.36 -146.069 2582
1882.54 -146.069 2582
1888.71 -146.069 2582
1894.89 -146.069 2582
1898.12 -145.843 2578
1904.28 -145.843 2578
1910.45 -145.843 2578
1916.61 -145.843 2578
1922.78 -145.843 2578
1928.94 -145.843 2578
1935.1 -145.843 2578
1941.27 -145.843 2578
1947.43 -145.843 2578
1953.6 -145.843 2578
1959.76 -145.843 2578
1965.93 -145.843 2578
1969.03 -145.617 2574
-2037.28 -147.415 2721
-2030.77 -147.415 2721
-2034.68 -148.173 2735
-2028.14 -148.173 2735
-2021.6 -148.173 2735
-2015.06 -148.173 2735
-2008.52 -148.173 2735
-1985.88 -146.981 2713
-1975.74 -146.71 2708
-1950.36 -145.302 2682
-1943.94 -145.302 2682
-1937.53 -145.302 2682
-1921.76 -144.598 2669
-2337.03 -180.029 3323
-2348.01 -181.492 3350
-2378.42 -184.472 3405
-2370.27 -184.472 3405
-2400.98 -187.505 3461
-2397.54 -187.885 3468
-2389.25 -187.885 3468
-2380.96 -187.885 3468
-2382.93 -188.697 3483
-2374.6 -188.697 3483
-2366.27 -188.697 3483
-2347.79 -187.885 3468
-2339.49 -187.885 3468
-2341.28 -188.697 3483
-2332.95 -188.697 3483
-2324.62 -188.697 3483
-2301.67 -187.505 3461
-2284.11 -186.747 3447
-2275.87 -186.747 3447
-2267.63 -186.747 3447
-2263.97 -187.126 3454
-2274.65 -188.697 3483
-2270.88 -189.077 3490
-2262.53 -189.077 3490
-2263.87 -189.889 3505
-2255.49 -189.889 3505
-2247.11 -189.889 3505
-2229.15 -189.077 3490
-2220.8 -189.077 3490
-2231.48 -190.702 3520
-2223.06 -190.702 3520
-2214.64 -190.702 3520
-2210.61 -191.081 3527
-2202.18 -191.081 3527
-2198.1 -191.46 3534
-2189.65 -191.46 3534
-2186.13 -191.894 3542
-2186.88 -192.706 3557
-2187.57 -193.519 3572
-2179.02 -193.519 3572
-2194.18 -195.632 3611
-2195.23 -196.499 3627
-2186.56 -196.499 3627
-2177.88 -196.499 3627
-2159.64 -195.632 3611
-2132.54 -193.952 3580
-2123.98 -193.952 3580
-2115.42 -193.952 3580
-2125.1 -195.632 3611
-2134.63 -197.311 3642
-2130.59 -197.745 3650
-2121.87 -197.745 3650
-2117.77 -198.178 3658
-2109.02 -198.178 3658
-2100.28 -198.178 3658
-2086.95 -197.745 3650
-2087.9 -198.666 3667
-2092.74 -199.966 3691
-2083.92 -199.966 3691
-2075.09 -199.966 3691
-2070.74 -200.4 3699
-2071.37 -201.321 3716
-2066.93 -201.754 3724
-2058.02 -201.754 3724
-2049.12 -201.754 3724
-2040.21 -201.754 3724
-2031.31 -201.754 3724
-2022.4 -201.754 3724
-2013.5 -201.754 3724
-2004.59 -201.754 3724
-1995.69 -201.754 3724
-1964.91 -199.533 3683
-1947.6 -198.666 3667
-1938.83 -198.666 3667
-1930.06 -198.666 3667
-1921.3 -198.666 3667
-1920.87 -199.533 3683
-1929.2 -201.321 3716
-1920.31 -201.321 3716
-1911.42 -201.321 3716
-1902.54 -201.321 3716
-1884.99 -200.4 3699
-1876.14 -200.4 3699
-1859.22 -199.533 3683
-1842.38 -198.666 3667
-1821.11 -197.311 3642
-1812.4 -197.311 3642
-1796.26 -196.499 3627
-1787.59 -196.499 3627
-1798.53 -198.666 3667
-1801.48 -199.966 3691
-1792.65 -199.966 3691
-1783.82 -199.966 3691
-1778.84 -200.4 3699
-1778.13 -201.321 3716
-1769.25 -201.321 3716
-1764.15 -201.754 3724
-1755.25 -201.754 3724
-1746.34 -201.754 3724
-1737.44 -201.754 3724
-1720.64 -200.833 3707
-1700.69 -199.533 3683
-1680.4 -198.178 3658
-1675.77 -198.666 3667
-1667 -198.666 3667
-1672.7 -200.4 3699
-1671.5 -201.321 3716
-1662.61 -201.321 3716
-1653.73 -201.321 3716
-1644.84 -201.321 3716
-1628.47 -200.4 3699
-1619.63 -200.4 3699
-1607.3 -199.966 3691
-1264.28 -166.431 3072
-1259.39 -166.756 3078
-1252.03 -166.756 3078
-1244.67 -166.756 3078
-1234.9 -166.431 3072
-1194.79 -161.988 2990
-1187.64 -161.988 2990
-1178.12 -161.663 2984
-1164.7 -160.796 2968
-1147.47 -159.388 2942
-1132.68 -158.304 2922
-1129.54 -158.846 2932
-1122.53 -158.846 2932
-1115.52 -158.846 2932
-1110.4 -159.117 2937
-1103.38 -159.117 2937
-1096.35 -159.117 2937
-1083.77 -158.304 2922
-1076.78 -158.304 2922
-1069.79 -158.304 2922
-1060.98 -158.033 2917
-1054.01 -158.033 2917
-1043.09 -157.437 2906
-1036.14 -157.437 2906
-1029.19 -157.437 2906
-1020.48 -157.167 2901
-1010.05 -156.625 2891
-1003.14 -156.625 2891
-994.499 -156.354 2886
-985.887 -156.083 2881
-977.298 -155.812 2876
-970.421 -155.812 2876
-961.869 -155.541 2871
-953.34 -155.27 2866
-946.486 -155.27 2866
-939.633 -155.27 2866
-932.779 -155.27 2866
-924.634 -155.054 2862
-917.79 -155.054 2862
-910.946 -155.054 2862
-904.102 -155.054 2862
-897.258 -155.054 2862
-890.414 -155.054 2862
-883.57 -155.054 2862
-876.726 -155.054 2862
-869.882 -155.054 2862
-864.245 -155.27 2866
-857.391 -155.27 2866
-850.538 -155.27 2866
-843.684 -155.27 2866
-836.831 -155.27 2866
-829.977 -155.27 2866
-823.124 -155.27 2866
-815.131 -155.054 2862
-808.287 -155.054 2862
-802.563 -155.27 2866
-795.71 -155.27 2866
-788.857 -155.27 2866
-782.003 -155.27 2866
-775.15 -155.27 2866
-768.296 -155.27 2866
-761.443 -155.27 2866
-753.536 -155.054 2862
-746.692 -155.054 2862
-739.848 -155.054 2862
-733.004 -155.054 2862
-726.16 -155.054 2862
-718.06 -154.783 2857
-711.228 -154.783 2857
-704.396 -154.783 2857
-698.785 -155.054 2862
-691.941 -155.054 2862
-685.097 -155.054 2862
-678.253 -155.054 2862
-670.236 -154.783 2857
-663.404 -154.783 2857
-656.572 -154.783 2857
-649.74 -154.783 2857
-642.908 -154.783 2857
-637.19 -155.054 2862
-635.632 -156.354 2886
-628.73 -156.354 2886
-622.906 -156.625 2891
-626.86 -159.388 2942
-641.314 -164.914 3044
-634.035 -164.914 3044
-639.727 -168.327 3107
-640.641 -170.548 3148
-649.002 -174.828 3227
-641.285 -174.828 3227
-642.207 -177.212 3271
-648.349 -181.113 3343
-645.527 -182.575 3370
-637.468 -182.575 3370
-629.409 -182.575 3370
-622.641 -182.955 3377
-614.566 -182.955 3377
-606.49 -182.955 3377
-598.415 -182.955 3377
-589.116 -182.575 3370
-581.057 -182.575 3370
-571.808 -182.196 3363
-563.766 -182.196 3363
-558.038 -182.955 3377
-552.242 -183.713 3391
-544.133 -183.713 3391
-536.024 -183.713 3391
-527.916 -183.713 3391
-519.807 -183.713 3391
-510.641 -183.334 3384
-504.628 -184.092 3398
-496.503 -184.092 3398
-490.389 -184.851 3412
-482.23 -184.851 3412
-474.071 -184.851 3412
-465.912 -184.851 3412
-457.753 -184.851 3412
-449.594 -184.851 3412
-440.529 -184.472 3405
-432.386 -184.472 3405
-424.244 -184.472 3405
-416.102 -184.472 3405
-407.959 -184.472 3405
-398.995 -184.092 3398
-390.064 -183.713 3391
-381.955 -183.713 3391
-372.303 -182.955 3377
-364.227 -182.955 3377
-355.414 -182.575 3370
-347.355 -182.575 3370
-337.987 -181.871 3357
-328.584 -181.113 3343
-320.014 -180.788 3337
-312.034 -180.788 3337
-302.779 -180.029 3323
-294.3 -179.704 3317
-285.16 -178.946 3303
-277.261 -178.946 3303
-268.303 -178.241 3290
-260.435 -178.241 3290
-252.568 -178.241 3290
-244.701 -178.241 3290
-236.833 -178.241 3290
-228.966 -178.241 3290
-220.695 -177.916 3284
-212.842 -177.916 3284
-204.615 -177.591 3278
-196.356 -177.212 3271
-187.439 -176.183 3252
-179.331 -175.857 3246
-171.568 -175.857 3246
-106.429 -114.259 2109
-101.385 -114.259 2109
-96.3421 -114.259 2109
-91.0824 -113.988 2104
-85.8057 -113.663 2098
-80.4037 -113.121 2088
-75.4106 -113.121 2088
-70.1478 -112.687 2080
-65.0172 -112.417 2075
-59.7658 -111.875 2065
-54.7482 -111.712 2062
-49.8173 -111.712 2062
-44.734 -111.333 2055
-39.7037 -111.008 2049
-34.685 -110.629 2042
-29.8019 -110.629 2042
-24.8213 -110.195 2034
-19.9377 -110.087 2032
-15.0786 -110.087 2032
-10.2195 -110.087 2032
-5.35507 -109.979 2030
-0.501216 -110.087 2032
4.3622 -110.195 2034
9.24879 -110.466 2039
14.1247 -110.466 2039
19.0471 -110.737 2044
24.0637 -111.333 2055
29.1189 -111.875 2065
34.0569 -111.875 2065
39.0327 -111.983 2067
44.1458 -112.417 2075
49.226 -112.687 2080
54.2 -112.687 2080
59.2592 -112.85 2083
64.2403 -112.85 2083
