150.563 -926.332 2106
155.599 -926.332 2106
160.635 -926.332 2106
165.671 -926.332 2106
170.707 -926.332 2106
175.994 -927.651 2109
181.037 -927.651 2109
186.345 -928.971 2112
191.577 -929.851 2114
196.632 -929.851 2114
201.687 -929.851 2114
207.329 -932.49 2120
212.9 -934.689 2125
217.981 -934.689 2125
223.063 -934.689 2125
228.144 -934.689 2125
233.226 -934.689 2125
238.307 -934.689 2125
1517.39 -1652.53 3757
1526.37 -1652.53 3757
1535.36 -1652.53 3757
1534.07 -1641.53 3732
1542.99 -1641.53 3732
1541.52 -1630.54 3707
1543.69 -1623.5 3691
1552.52 -1623.5 3691
1561.34 -1623.5 3691
1566.77 -1619.98 3683
1572.15 -1616.46 3675
1580.94 -1616.46 3675
1589.73 -1616.46 3675
1591.12 -1608.98 3658
-2829 -1713.09 3916
-2819.63 -1713.09 3916
-2810.27 -1713.09 3916
-2742.97 -1677.65 3835
-2708.85 -1662.34 3800
-2699.76 -1662.34 3800
-2654.56 -1640.03 3749
-2645.6 -1640.03 3749
-2642.26 -1643.53 3757
-2633.28 -1643.53 3757
-2624.29 -1643.53 3757
-2633.41 -1654.9 3783
-2642.4 -1666.28 3809
-2633.29 -1666.28 3809
-2624.18 -1666.28 3809
-2626.74 -1673.71 3826
-2629.91 -1681.59 3844
-2651.4 -1701.27 3889
-2642.1 -1701.27 3889
-2676.12 -1729.27 3953
-2705.12 -1754.21 4010
-2695.53 -1754.21 4010
-2685.94 -1754.21 4010
-1342.97 -1658.84 3792
-1336.72 -1662.34 3800
-1339.86 -1677.65 3835
-1330.69 -1677.65 3835
-1324.62 -1681.59 3844
-1315.43 -1681.59 3844
-1306.24 -1681.59 3844
-1297.04 -1681.59 3844
-1284.84 -1677.65 3835
-1272.67 -1673.71 3826
-1269.47 -1681.59 3844
-1260.28 -1681.59 3844
-1254.01 -1685.53 3853
-1244.8 -1685.53 3853
-1235.58 -1685.53 3853
-1226.37 -1685.53 3853
-1214.31 -1681.59 3844
-1191.33 -1662.34 3800
-1182.24 -1662.34 3800
-60.4315 -913.412 2088
-55.5712 -915.6 2093
-50.6387 -916.912 2096
-45.6265 -916.912 2096
-40.8081 -921.287 2106
-36.0438 -928.286 2122
-31.1008 -932.223 2131
-26.005 -932.223 2131
-20.9091 -932.223 2131
-15.8132 -932.223 2131
-10.7174 -932.223 2131
-5.6215 -932.223 2131
-0.524896 -930.911 2128
4.55093 -928.286 2122
9.62527 -928.286 2122
14.6858 -927.411 2120
19.7553 -927.411 2120
24.8249 -927.411 2120
29.8945 -927.411 2120
34.8651 -924.786 2114
39.8825 -923.911 2112
44.9329 -923.911 2112
49.9834 -923.911 2112
54.8775 -921.287 2106
59.9135 -921.287 2106
64.9496 -921.287 2106
69.9857 -921.287 2106
75.0218 -921.287 2106
79.9818 -920.412 2104
84.7707 -917.787 2098
89.7021 -916.912 2096
94.7142 -916.912 2096
99.5837 -915.6 2093
104.589 -915.6 2093
109.594 -915.6 2093
114.763 -916.912 2096
119.775 -916.912 2096
124.787 -916.912 2096
129.923 -917.787 2098
134.94 -917.787 2098
139.957 -917.787 2098
145.181 -919.099 2101
150.563 -921.287 2106
155.821 -922.599 2109
160.864 -922.599 2109
165.907 -922.599 2109
170.951 -922.599 2109
175.994 -922.599 2109
181.037 -922.599 2109
186.345 -923.911 2112
191.577 -924.786 2114
196.911 -926.099 2117
201.973 -926.099 2117
207.329 -927.411 2120
212.9 -929.598 2125
218.289 -930.911 2128
223.378 -930.911 2128
228.466 -930.911 2128
233.226 -929.598 2125
238.307 -929.598 2125
1514.93 -1621.66 3707
1523.79 -1621.66 3707
1532.65 -1621.66 3707
1541.52 -1621.66 3707
1543.69 -1614.66 3691
1552.52 -1614.66 3691
1561.34 -1614.66 3691
1566.77 -1611.16 3683
1572.15 -1607.66 3675
1580.94 -1607.66 3675
1589.73 -1607.66 3675
1591.12 -1600.22 3658
-2842.72 -1711.97 3935
-2833.31 -1711.97 3935
-2823.9 -1711.97 3935
-2775.16 -1688.04 3880
-2733.8 -1668.46 3835
-2724.63 -1668.46 3835
-2690.68 -1653.24 3800
-2675.94 -1649.76 3792
-2660.55 -1645.84 3783
-2651.5 -1645.84 3783
-2642.45 -1645.84 3783
-2651.51 -1657.15 3809
-2666.68 -1672.38 3844
-2657.49 -1672.38 3844
-2648.29 -1672.38 3844
-2645.28 -1676.3 3853
-2648.38 -1684.13 3871
-2657.53 -1695.87 3898
-2648.21 -1695.87 3898
-2676.12 -1719.8 3953
-2692.31 -1736.33 3991
-2682.76 -1736.33 3991
-2673.22 -1736.33 3991
-1342.97 -1649.76 3792
-1343.05 -1661.07 3818
-1352.44 -1684.13 3871
-1343.18 -1684.13 3871
-1337.03 -1688.04 3880
-1327.75 -1688.04 3880
-1318.47 -1688.04 3880
-1306.15 -1684.13 3871
-1287.85 -1672.38 3844
-1272.67 -1664.55 3826
-1269.47 -1672.38 3844
-1260.28 -1672.38 3844
-1254.01 -1676.3 3853
-1244.8 -1676.3 3853
-1235.58 -1676.3 3853
-1226.37 -1676.3 3853
-1214.31 -1672.38 3844
-1191.33 -1653.24 3800
-1182.24 -1653.24 3800
-60.4315 -908.411 2088
-55.5712 -910.586 2093
-50.6387 -911.891 2096
-45.6265 -911.891 2096
-40.8081 -916.242 2106
-36.0438 -923.203 2122
-31.0133 -924.508 2125
-25.9318 -924.508 2125
-20.9091 -927.118 2131
-15.8132 -927.118 2131
-10.7174 -927.118 2131
-5.61359 -925.813 2128
-0.524156 -924.508 2125
4.55093 -923.203 2122
9.62527 -923.203 2122
14.6858 -922.333 2120
19.7553 -922.333 2120
24.7898 -921.027 2117
29.8521 -921.027 2117
34.8651 -919.722 2114
39.8825 -918.852 2112
44.8691 -917.547 2109
49.9124 -917.547 2109
54.8775 -916.242 2106
59.9135 -916.242 2106
64.9496 -916.242 2106
69.9857 -916.242 2106
74.9505 -915.372 2104
79.9818 -915.372 2104
84.7707 -912.761 2098
89.5737 -910.586 2093
94.5787 -910.586 2093
99.5837 -910.586 2093
104.489 -909.716 2091
109.594 -910.586 2093
114.599 -910.586 2093
119.604 -910.586 2093
124.787 -911.891 2096
129.799 -911.891 2096
134.94 -912.761 2098
139.957 -912.761 2098
145.181 -914.066 2101
150.563 -916.242 2106
155.821 -917.547 2109
160.864 -917.547 2109
165.907 -917.547 2109
170.951 -917.547 2109
175.994 -917.547 2109
181.037 -917.547 2109
186.345 -918.852 2112
191.577 -919.722 2114
196.911 -921.027 2117
201.973 -921.027 2117
207.329 -922.333 2120
212.9 -924.508 2125
218.289 -925.813 2128
223.378 -925.813 2128
228.466 -925.813 2128
233.226 -924.508 2125
238.307 -924.508 2125
1514.93 -1612.78 3707
1523.79 -1612.78 3707
1532.65 -1612.78 3707
1541.52 -1612.78 3707
1547.04 -1609.3 3699
1555.88 -1609.3 3699
1564.73 -1609.3 3699
1566.77 -1602.34 3683
1575.57 -1602.34 3683
1580.94 -1598.85 3675
1589.73 -1598.85 3675
1591.12 -1591.46 3658
-2842.72 -1702.54 3935
-2833.31 -1702.54 3935
-2823.9 -1702.54 3935
-2794.47 -1690.43 3907
-2733.8 -1659.28 3835
-2724.63 -1659.28 3835
-2709.08 -1655.38 3826
-2675.94 -1640.67 3792
-2660.55 -1636.78 3783
-2651.5 -1636.78 3783
-2642.45 -1636.78 3783
-2675.87 -1663.17 3844
-2666.68 -1663.17 3844
-2663.71 -1667.07 3853
-2654.49 -1667.07 3853
-2657.64 -1674.85 3871
-2660.7 -1682.64 3889
-2663.67 -1690.43 3907
-2654.32 -1690.43 3907
-2676.12 -1710.33 3953
-2692.31 -1726.77 3991
-2682.76 -1726.77 3991
-2673.22 -1726.77 3991
-1342.97 -1640.67 3792
-1343.05 -1651.92 3818
-1352.44 -1674.85 3871
-1343.18 -1674.85 3871
-1337.03 -1678.75 3880
-1327.75 -1678.75 3880
-1318.47 -1678.75 3880
-1306.15 -1674.85 3871
-1287.85 -1663.17 3844
-1272.67 -1655.38 3826
-1269.47 -1663.17 3844
-1260.28 -1663.17 3844
-1254.01 -1667.07 3853
-1244.8 -1667.07 3853
-1235.58 -1667.07 3853
-1226.37 -1667.07 3853
-1214.31 -1663.17 3844
-60.4315 -903.409 2088
-55.5712 -905.572 2093
-50.6387 -906.87 2096
-45.6265 -906.87 2096
-40.7694 -910.332 2104
-36.0099 -917.254 2120
-31.0133 -919.418 2125
-25.9318 -919.418 2125
-20.8797 -920.716 2128
-15.791 -920.716 2128
-10.7023 -920.716 2128
-5.60567 -919.418 2125
-0.523416 -918.12 2122
4.54664 -917.254 2120
9.6162 -917.254 2120
14.665 -915.956 2117
19.7274 -915.956 2117
24.7898 -915.956 2117
29.8521 -915.956 2117
34.8321 -913.793 2112
39.8825 -913.793 2112
44.8691 -912.495 2109
49.9124 -912.495 2109
54.8775 -911.197 2106
59.8566 -910.332 2104
64.8879 -910.332 2104
69.9193 -910.332 2104
74.9505 -910.332 2104
79.8678 -909.034 2101
84.6899 -906.87 2096
89.7021 -906.87 2096
94.7142 -906.87 2096
99.5837 -905.572 2093
104.589 -905.572 2093
109.594 -905.572 2093
114.599 -905.572 2093
119.604 -905.572 2093
124.787 -906.87 2096
129.799 -906.87 2096
135.133 -909.034 2101
140.157 -909.034 2101
145.181 -909.034 2101
150.563 -911.197 2106
155.821 -912.495 2109
160.864 -912.495 2109
165.907 -912.495 2109
170.951 -912.495 2109
175.994 -912.495 2109
181.037 -912.495 2109
186.345 -913.793 2112
191.577 -914.658 2114
196.911 -915.956 2117
201.973 -915.956 2117
207.329 -917.254 2120
212.9 -919.418 2125
218.289 -920.716 2128
223.378 -920.716 2128
228.466 -920.716 2128
233.226 -919.418 2125
238.307 -919.418 2125
1500.83 -1607.79 3716
1509.72 -1607.79 3716
1518.6 -1607.79 3716
1527.49 -1607.79 3716
1536.38 -1607.79 3716
1541.52 -1603.9 3707
1547.04 -1600.44 3699
1555.88 -1600.44 3699
1564.73 -1600.44 3699
1570.17 -1596.97 3691
1575.57 -1593.51 3683
1577.5 -1586.59 3667
1586.27 -1586.59 3667
1595.04 -1586.59 3667
-2842.72 -1693.12 3935
-2833.31 -1693.12 3935
-2823.9 -1693.12 3935
-2794.47 -1681.07 3907
-2733.8 -1650.09 3835
-2724.63 -1650.09 3835
-2709.08 -1646.22 3826
-2675.94 -1631.59 3792
-2660.55 -1627.72 3783
-2651.5 -1627.72 3783
-2642.45 -1627.72 3783
-2675.87 -1653.96 3844
-2666.68 -1653.96 3844
-2663.71 -1657.84 3853
-2654.49 -1657.84 3853
-2657.64 -1665.58 3871
-2660.7 -1673.33 3889
-2663.67 -1681.07 3907
-2654.32 -1681.07 3907
-2657.17 -1688.82 3925
-2679.49 -1709.04 3972
-2669.99 -1709.04 3972
-2660.49 -1709.04 3972
-1345.81 -1635.03 3800
-1355.36 -1657.84 3853
-1352.44 -1665.58 3871
-1352.55 -1677.2 3898
-1346.33 -1681.07 3907
-1336.99 -1681.07 3907
-1327.64 -1681.07 3907
-1309.19 -1669.45 3880
-1287.85 -1653.96 3844
-1270.01 -1642.78 3818
-1269.47 -1653.96 3844
-1260.28 -1653.96 3844
-1251.08 -1653.96 3844
-1241.89 -1653.96 3844
-1232.7 -1653.96 3844
-1223.51 -1653.96 3844
-1211.47 -1650.09 3835
-55.4385 -898.407 2088
-50.4454 -898.407 2088
-45.4524 -898.407 2088
-40.6144 -901.849 2096
-35.9589 -910.885 2117
-31.0133 -914.327 2125
-25.9318 -914.327 2125
-20.8502 -914.327 2125
-15.7687 -914.327 2125
-10.6872 -914.327 2125
-5.60567 -914.327 2125
-0.523416 -913.036 2122
4.54021 -910.885 2117
9.6026 -910.885 2117
14.665 -910.885 2117
19.7274 -910.885 2117
24.7546 -909.594 2114
29.8098 -909.594 2114
34.8321 -908.734 2112
39.8259 -907.443 2109
44.8053 -906.152 2106
49.8414 -906.152 2106
54.8253 -905.291 2104
59.7713 -904.001 2101
64.7954 -904.001 2101
69.8196 -904.001 2101
74.8437 -904.001 2101
79.8678 -904.001 2101
84.7707 -902.71 2098
89.7021 -901.849 2096
94.7142 -901.849 2096
99.5837 -900.558 2093
104.589 -900.558 2093
109.594 -900.558 2093
114.763 -901.849 2096
119.775 -901.849 2096
124.787 -901.849 2096
129.799 -901.849 2096
135.133 -904.001 2101
140.157 -904.001 2101
145.181 -904.001 2101
150.563 -906.152 2106
155.821 -907.443 2109
160.864 -907.443 2109
165.907 -907.443 2109
170.951 -907.443 2109
175.994 -907.443 2109
181.037 -907.443 2109
186.345 -908.734 2112
191.395 -908.734 2112
196.911 -910.885 2117
201.973 -910.885 2117
207.329 -912.176 2120
212.599 -913.036 2122
217.981 -914.327 2125
223.063 -914.327 2125
228.144 -914.327 2125
1444.82 -1605.77 3732
1453.75 -1605.77 3732
1462.67 -1605.77 3732
1471.6 -1605.77 3732
1477.35 -1602.33 3724
1489.44 -1605.77 3732
1498.37 -1605.77 3732
1507.29 -1605.77 3732
1516.22 -1605.77 3732
1518.6 -1598.89 3716
1527.49 -1598.89 3716
1536.38 -1598.89 3716
1541.52 -1595.02 3707
1547.04 -1591.57 3699
1555.88 -1591.57 3699
1564.73 -1591.57 3699
1570.17 -1588.13 3691
1575.57 -1584.69 3683
1577.5 -1577.81 3667
1586.27 -1577.81 3667
1595.04 -1577.81 3667
-2870.95 -1683.69 3935
-2861.54 -1683.69 3935
-2852.13 -1683.69 3935
-2842.72 -1683.69 3935
-2833.31 -1683.69 3935
-2823.9 -1683.69 3935
-2794.47 -1671.71 3907
-2733.8 -1640.9 3835
-2724.63 -1640.9 3835
-2709.08 -1637.05 3826
-2675.94 -1622.51 3792
-2660.55 -1618.66 3783
-2651.5 -1618.66 3783
-2642.45 -1618.66 3783
-2675.87 -1644.76 3844
-2672.92 -1648.61 3853
-2663.71 -1648.61 3853
-2654.49 -1648.61 3853
-2657.64 -1656.31 3871
-2666.85 -1667.86 3898
-2663.67 -1671.71 3907
-2654.32 -1671.71 3907
-2657.17 -1679.41 3925
-2679.49 -1699.52 3972
-2669.99 -1699.52 3972
-2660.49 -1699.52 3972
-1361.39 -1644.76 3844
-1355.36 -1648.61 3853
-1346.15 -1648.61 3853
-1361.92 -1679.41 3925
-1352.53 -1679.41 3925
-1343.15 -1679.41 3925
-1327.64 -1671.71 3907
-1309.19 -1660.16 3880
-1287.85 -1644.76 3844
-1270.01 -1633.63 3818
-1260.88 -1633.63 3818
-1251.75 -1633.63 3818
-1242.62 -1633.63 3818
-1233.49 -1633.63 3818
-1224.36 -1633.63 3818
-1215.23 -1633.63 3818
-1203.26 -1629.78 3809
-55.4385 -893.405 2088
-50.4454 -893.405 2088
-45.4524 -893.405 2088
-40.6144 -896.828 2096
-35.9589 -905.814 2117
-31.0133 -909.237 2125
-25.9318 -909.237 2125
-20.8502 -909.237 2125
-15.7687 -909.237 2125
-10.6872 -909.237 2125
-5.60567 -909.237 2125
-0.523416 -907.953 2122
4.54664 -907.097 2120
9.6162 -907.097 2120
14.665 -905.814 2117
19.7274 -905.814 2117
24.7546 -904.53 2114
29.8098 -904.53 2114
34.8321 -903.674 2112
39.8259 -902.391 2109
44.8053 -901.107 2106
49.8414 -901.107 2106
54.8253 -900.251 2104
59.7713 -898.968 2101
64.7954 -898.968 2101
69.8196 -898.968 2101
74.8437 -898.968 2101
79.8678 -898.968 2101
84.7707 -897.684 2098
89.7021 -896.828 2096
94.7142 -896.828 2096
99.7264 -896.828 2096
104.589 -895.545 2093
109.594 -895.545 2093
114.763 -896.828 2096
119.775 -896.828 2096
124.787 -896.828 2096
129.799 -896.828 2096
135.133 -898.968 2101
140.157 -898.968 2101
145.389 -900.251 2104
150.563 -901.107 2106
155.821 -902.391 2109
160.864 -902.391 2109
165.907 -902.391 2109
171.194 -903.674 2112
176.244 -903.674 2112
181.295 -903.674 2112
186.345 -903.674 2112
191.577 -904.53 2114
196.911 -905.814 2117
201.973 -905.814 2117
207.329 -907.097 2120
212.9 -909.237 2125
217.981 -909.237 2125
223.063 -909.237 2125
228.144 -909.237 2125
1444.82 -1596.83 3732
1453.75 -1596.83 3732
1462.67 -1596.83 3732
1471.6 -1596.83 3732
1477.35 -1593.41 3724
1489.44 -1596.83 3732
1498.37 -1596.83 3732
1507.29 -1596.83 3732
1516.22 -1596.83 3732
1518.6 -1589.99 3716
1527.49 -1589.99 3716
1536.38 -1589.99 3716
1541.52 -1586.14 3707
1547.04 -1582.71 3699
1555.88 -1582.71 3699
1564.73 -1582.71 3699
1570.17 -1579.29 3691
1575.57 -1575.87 3683
1577.5 -1569.02 3667
1586.27 -1569.02 3667
1595.04 -1569.02 3667
-2870.95 -1674.27 3935
-2861.54 -1674.27 3935
-2852.13 -1674.27 3935
-2842.72 -1674.27 3935
-2833.31 -1674.27 3935
-2803.81 -1662.35 3907
-2768.72 -1647.04 3871
-2727.38 -1627.89 3826
-2718.23 -1627.89 3826
-2690.68 -1616.83 3800
-2681.59 -1616.83 3800
-2666.87 -1613.42 3792
-2669.72 -1620.66 3809
-2660.61 -1620.66 3809
-2675.87 -1635.55 3844
-2672.92 -1639.38 3853
-2663.71 -1639.38 3853
-2654.49 -1639.38 3853
-2657.64 -1647.04 3871
-2666.85 -1658.52 3898
-2663.67 -1662.35 3907
-2654.32 -1662.35 3907
-2657.17 -1670.01 3925
-2673.42 -1686.18 3963
-2663.94 -1686.18 3963
-2654.46 -1686.18 3963
-1380.51 -1658.52 3898
-1371.19 -1658.52 3898
-1361.87 -1658.52 3898
-1371.63 -1681.92 3953
-1362.18 -1681.92 3953
-1352.73 -1681.92 3953
-1333.76 -1670.01 3925
-1315.26 -1658.52 3898
-1287.85 -1635.55 3844
-1272.67 -1627.89 3826
-1263.52 -1627.89 3826
-1254.37 -1627.89 3826
-1245.22 -1627.89 3826
-1241.89 -1635.55 3844
-1232.7 -1635.55 3844
-1223.51 -1635.55 3844
-1214.31 -1635.55 3844
-1202.3 -1631.72 3835
-1193.13 -1631.72 3835
-55.173 -884.149 2078
-50.3246 -886.276 2083
-45.3436 -886.276 2083
-40.4594 -888.403 2088
-35.9589 -900.742 2117
-30.9403 -902.019 2120
-25.8707 -902.019 2120
-20.8502 -904.146 2125
-15.7687 -904.146 2125
-10.6872 -904.146 2125
-5.60567 -904.146 2125
-0.522922 -902.019 2120
4.54664 -902.019 2120
9.6162 -902.019 2120
14.665 -900.742 2117
19.7274 -900.742 2117
24.7546 -899.466 2114
29.8098 -899.466 2114
34.8321 -898.615 2112
39.8259 -897.338 2109
44.8053 -896.062 2106
49.8414 -896.062 2106
54.8253 -895.211 2104
59.7713 -893.935 2101
64.7954 -893.935 2101
69.8196 -893.935 2101
74.8437 -893.935 2101
79.8678 -893.935 2101
84.7707 -892.658 2098
89.7021 -891.807 2096
94.7142 -891.807 2096
99.7264 -891.807 2096
104.589 -890.531 2093
109.594 -890.531 2093
114.763 -891.807 2096
119.775 -891.807 2096
124.787 -891.807 2096
129.799 -891.807 2096
135.133 -893.935 2101
140.157 -893.935 2101
145.389 -895.211 2104
150.563 -896.062 2106
155.821 -897.338 2109
160.864 -897.338 2109
165.907 -897.338 2109
171.194 -898.615 2112
176.244 -898.615 2112
181.295 -898.615 2112
186.345 -898.615 2112
191.577 -899.466 2114
196.911 -900.742 2117
201.973 -900.742 2117
207.329 -902.019 2120
212.9 -904.146 2125
217.981 -904.146 2125
223.063 -904.146 2125
228.144 -904.146 2125
1444.82 -1587.89 3732
1453.75 -1587.89 3732
1462.67 -1587.89 3732
1471.6 -1587.89 3732
1477.35 -1584.49 3724
1489.44 -1587.89 3732
1498.37 -1587.89 3732
1507.29 -1587.89 3732
1516.22 -1587.89 3732
1521.87 -1584.49 3724
1527.49 -1581.09 3716
1536.38 -1581.09 3716
1541.52 -1577.26 3707
1547.04 -1573.85 3699
1552.52 -1570.45 3691
1561.34 -1570.45 3691
1566.77 -1567.04 3683
1568.73 -1560.24 3667
1573.63 -1556.41 3658
1582.37 -1556.41 3658
1591.12 -1556.41 3658
-2870.95 -1664.84 3935
-2861.54 -1664.84 3935
-2852.13 -1664.84 3935
-2842.72 -1664.84 3935
-2833.31 -1664.84 3935
-2803.81 -1652.99 3907
-2768.72 -1637.76 3871
-2733.8 -1622.53 3835
-2724.63 -1622.53 3835
-2697.05 -1611.53 3809
-2687.94 -1611.53 3809
-2678.83 -1611.53 3809
-2694.25 -1626.34 3844
-2685.06 -1626.34 3844
-2675.87 -1626.34 3844
-2672.92 -1630.15 3853
-2663.71 -1630.15 3853
-2654.49 -1630.15 3853
-2657.64 -1637.76 3871
-2666.85 -1649.19 3898
-2663.67 -1652.99 3907
-2654.32 -1652.99 3907
-2670.03 -1668.65 3944
-2673.42 -1676.69 3963
-2663.94 -1676.69 3963
-2654.46 -1676.69 3963
-1380.51 -1649.19 3898
-1371.19 -1649.19 3898
-1361.87 -1649.19 3898
-1371.63 -1672.46 3953
-1362.18 -1672.46 3953
-1352.73 -1672.46 3953
-1333.76 -1660.61 3925
-1315.26 -1649.19 3898
-1287.85 -1626.34 3844
-1272.67 -1618.72 3826
-1263.52 -1618.72 3826
-1254.37 -1618.72 3826
-1245.22 -1618.72 3826
-1241.89 -1626.34 3844
-1232.7 -1626.34 3844
-1223.51 -1626.34 3844
-1214.31 -1626.34 3844
-1202.3 -1622.53 3835
-1193.13 -1622.53 3835
-59.7658 -873.671 2065
-55.173 -879.171 2078
-50.2038 -879.171 2078
-45.2347 -879.171 2078
-40.3625 -881.286 2083
-35.874 -893.556 2112
-30.9403 -896.94 2120
-25.8707 -896.94 2120
-20.8502 -899.056 2125
-15.7687 -899.056 2125
-10.6872 -899.056 2125
-5.60567 -899.056 2125
-0.523416 -897.786 2122
4.54664 -896.94 2120
9.6162 -896.94 2120
14.665 -895.671 2117
19.7274 -895.671 2117
24.7546 -894.402 2114
29.8098 -894.402 2114
34.8321 -893.556 2112
39.8259 -892.286 2109
44.8053 -891.017 2106
49.8414 -891.017 2106
54.8253 -890.171 2104
59.7713 -888.902 2101
64.7954 -888.902 2101
69.8196 -888.902 2101
74.8437 -888.902 2101
79.7538 -887.632 2098
84.7707 -887.632 2098
89.7021 -886.786 2096
94.7142 -886.786 2096
99.7264 -886.786 2096
104.589 -885.517 2093
109.594 -885.517 2093
114.763 -886.786 2096
119.775 -886.786 2096
124.787 -886.786 2096
129.799 -886.786 2096
135.133 -888.902 2101
140.157 -888.902 2101
145.389 -890.171 2104
150.563 -891.017 2106
155.821 -892.286 2109
160.864 -892.286 2109
166.143 -893.556 2112
171.194 -893.556 2112
176.411 -894.402 2114
181.466 -894.402 2114
186.521 -894.402 2114
191.577 -894.402 2114
197.19 -896.94 2120
202.26 -896.94 2120
207.525 -897.786 2122
212.9 -899.056 2125
218.289 -900.325 2128
223.378 -900.325 2128
228.466 -900.325 2128
1436.53 -1589.53 3757
1445.52 -1589.53 3757
1454.5 -1589.53 3757
1460.37 -1586.15 3749
1469.33 -1586.15 3749
1471.6 -1578.95 3732
1477.35 -1575.57 3724
1489.44 -1578.95 3732
1498.37 -1578.95 3732
1507.29 -1578.95 3732
1516.22 -1578.95 3732
1521.87 -1575.57 3724
1527.49 -1572.18 3716
1536.38 -1572.18 3716
1541.52 -1568.38 3707
1547.04 -1564.99 3699
1552.52 -1561.61 3691
1561.34 -1561.61 3691
1566.77 -1558.22 3683
1568.73 -1551.45 3667
1570.19 -1544.26 3650
1578.91 -1544.26 3650
1587.64 -1544.26 3650
-2817.69 -1624.7 3862
-2808.46 -1624.7 3862
-2805.75 -1628.49 3871
-2796.49 -1628.49 3871
-2787.23 -1628.49 3871
-2777.98 -1628.49 3871
-2749.41 -1617.13 3844
-2733.8 -1613.34 3835
-2724.63 -1613.34 3835
-2697.05 -1602.41 3809
-2687.94 -1602.41 3809
-2678.83 -1602.41 3809
-2694.25 -1617.13 3844
-2685.06 -1617.13 3844
-2675.87 -1617.13 3844
-2666.68 -1617.13 3844
-2657.49 -1617.13 3844
-2648.29 -1617.13 3844
-2657.64 -1628.49 3871
-2666.85 -1639.85 3898
-2663.67 -1643.63 3907
-2654.32 -1643.63 3907
-2670.03 -1659.2 3944
-2673.42 -1667.19 3963
-2663.94 -1667.19 3963
-2654.46 -1667.19 3963
-1390.08 -1651.21 3925
-1380.69 -1651.21 3925
-1371.3 -1651.21 3925
-1371.63 -1662.99 3953
-1362.18 -1662.99 3953
-1352.73 -1662.99 3953
-1333.76 -1651.21 3925
-1318.3 -1643.63 3907
-1287.85 -1617.13 3844
-1272.67 -1609.56 3826
-1263.52 -1609.56 3826
-1254.37 -1609.56 3826
-1248.15 -1613.34 3835
-1241.89 -1617.13 3844
-1232.7 -1617.13 3844
-1223.51 -1617.13 3844
-1214.31 -1617.13 3844
-1202.3 -1613.34 3835
-1193.13 -1613.34 3835
-1167.91 -1591.47 3783
-1156.1 -1587.68 3774
-59.9106 -870.827 2070
-55.0933 -872.931 2075
-50.2522 -875.034 2080
-45.2783 -875.034 2080
-40.3043 -875.034 2080
-35.874 -888.496 2112
-30.9403 -891.862 2120
-25.8707 -891.862 2120
-20.8208 -892.703 2122
-15.7687 -893.965 2125
-10.6872 -893.965 2125
-5.60567 -893.965 2125
-0.524156 -893.965 2125
4.54664 -891.862 2120
9.6162 -891.862 2120
14.665 -890.6 2117
19.6994 -889.338 2114
24.7546 -889.338 2114
29.8098 -889.338 2114
34.8321 -888.496 2112
39.7692 -885.972 2106
44.8053 -885.972 2106
49.8414 -885.972 2106
54.7472 -883.869 2101
59.7713 -883.869 2101
64.7954 -883.869 2101
69.8196 -883.869 2101
74.8437 -883.869 2101
79.7538 -882.607 2098
84.7707 -882.607 2098
89.7021 -881.765 2096
94.7142 -881.765 2096
99.5837 -880.503 2093
104.589 -880.503 2093
109.594 -880.503 2093
114.763 -881.765 2096
119.775 -881.765 2096
124.787 -881.765 2096
129.799 -881.765 2096
135.133 -883.869 2101
140.157 -883.869 2101
145.389 -885.131 2104
150.563 -885.972 2106
155.821 -887.234 2109
160.864 -887.234 2109
166.143 -888.496 2112
171.194 -888.496 2112
176.411 -889.338 2114
181.466 -889.338 2114
186.521 -889.338 2114
191.577 -889.338 2114
197.19 -891.862 2120
202.26 -891.862 2120
207.525 -892.703 2122
212.9 -893.965 2125
218.289 -895.227 2128
223.378 -895.227 2128
228.466 -895.227 2128
233.226 -893.965 2125
238.307 -893.965 2125
1439.97 -1584.32 3766
1448.98 -1584.32 3766
1457.99 -1584.32 3766
1460.37 -1577.17 3749
1469.33 -1577.17 3749
1471.6 -1570.01 3732
1477.35 -1566.65 3724
1489.44 -1570.01 3732
1498.37 -1570.01 3732
1507.29 -1570.01 3732
1516.22 -1570.01 3732
1521.87 -1566.65 3724
1530.78 -1566.65 3724
1539.68 -1566.65 3724
1545.26 -1563.28 3716
1547.04 -1556.13 3699
1552.52 -1552.77 3691
1561.34 -1552.77 3691
1566.77 -1549.4 3683
1568.73 -1542.67 3667
1570.19 -1535.52 3650
1578.91 -1535.52 3650
1587.64 -1535.52 3650
-2817.69 -1615.45 3862
-2808.46 -1615.45 3862
-2825.32 -1630.51 3898
-2815.99 -1630.51 3898
-2806.67 -1630.51 3898
-2797.35 -1630.51 3898
-2768.72 -1619.22 3871
-2740.21 -1607.92 3844
-2737.42 -1611.69 3853
-2728.2 -1611.69 3853
-2744.39 -1626.75 3889
-2747.75 -1634.27 3907
-2738.41 -1634.27 3907
-2729.07 -1634.27 3907
-2725.99 -1638.04 3916
-2729.81 -1645.99 3935
-2720.4 -1645.99 3935
-2710.99 -1645.99 3935
-2701.58 -1645.99 3935
-2698.32 -1649.75 3944
-2688.89 -1649.75 3944
-2679.46 -1649.75 3944
-2682.89 -1657.7 3963
-2673.42 -1657.7 3963
-2663.94 -1657.7 3963
-2654.46 -1657.7 3963
-1390.08 -1641.8 3925
-1380.69 -1641.8 3925
-1371.3 -1641.8 3925
-1371.63 -1653.52 3953
-1362.18 -1653.52 3953
-1352.73 -1653.52 3953
-1333.76 -1641.8 3925
-1318.3 -1634.27 3907
-1287.85 -1607.92 3844
-1272.67 -1600.39 3826
-1263.52 -1600.39 3826
-1254.37 -1600.39 3826
-1248.15 -1604.16 3835
-1241.89 -1607.92 3844
-1232.7 -1607.92 3844
-1223.51 -1607.92 3844
-1211.47 -1604.16 3835
-1199.48 -1600.39 3826
-1190.33 -1600.39 3826
-1167.91 -1582.41 3783
-1156.1 -1578.64 3774
-1141.91 -1571.53 3757
-1132.93 -1571.53 3757
-59.9106 -865.869 2070
-55.2261 -870.052 2080
-50.3246 -871.306 2083
-45.3436 -871.306 2083
-40.4012 -872.143 2085
-35.9079 -884.274 2114
-30.9403 -886.783 2120
-25.8707 -886.783 2120
-20.8208 -887.62 2122
-15.7687 -888.875 2125
-10.6872 -888.875 2125
-5.60567 -888.875 2125
-0.524156 -888.875 2125
4.54664 -886.783 2120
9.6162 -886.783 2120
14.665 -885.528 2117
19.6994 -884.274 2114
24.7546 -884.274 2114
29.8098 -884.274 2114
34.8321 -883.437 2112
39.7692 -880.927 2106
44.8053 -880.927 2106
49.8414 -880.927 2106
54.7472 -878.836 2101
59.7713 -878.836 2101
64.7954 -878.836 2101
69.8196 -878.836 2101
74.8437 -878.836 2101
79.7538 -877.581 2098
84.7707 -877.581 2098
89.7021 -876.744 2096
94.7142 -876.744 2096
99.5837 -875.489 2093
104.589 -875.489 2093
109.594 -875.489 2093
114.763 -876.744 2096
119.775 -876.744 2096
124.787 -876.744 2096
129.799 -876.744 2096
135.133 -878.836 2101
140.157 -878.836 2101
145.389 -880.091 2104
150.563 -880.927 2106
155.821 -882.182 2109
160.864 -882.182 2109
166.143 -883.437 2112
171.356 -884.274 2114
176.411 -884.274 2114
181.466 -884.274 2114
186.521 -884.274 2114
191.577 -884.274 2114
197.376 -887.62 2122
202.45 -887.62 2122
207.525 -887.62 2122
212.9 -888.875 2125
218.289 -890.13 2128
223.378 -890.13 2128
228.466 -890.13 2128
233.555 -890.13 2128
238.644 -890.13 2128
243.732 -890.13 2128
248.821 -890.13 2128
253.91 -890.13 2128
1439.97 -1575.3 3766
1448.98 -1575.3 3766
1457.99 -1575.3 3766
1460.37 -1568.18 3749
1469.33 -1568.18 3749
1471.6 -1561.07 3732
1477.35 -1557.73 3724
1486.25 -1557.73 3724
1495.16 -1557.73 3724
1504.06 -1557.73 3724
1512.97 -1557.73 3724
1521.87 -1557.73 3724
1530.78 -1557.73 3724
1539.68 -1557.73 3724
1545.26 -1554.38 3716
1547.04 -1547.27 3699
1552.52 -1543.92 3691
1561.34 -1543.92 3691
1566.77 -1540.58 3683
1561.46 -1526.77 3650
1570.19 -1526.77 3650
1578.91 -1526.77 3650
1584.16 -1523.43 3642
-2849.38 -1613.69 3880
-2853.28 -1621.17 3898
-2863.66 -1632.4 3925
-2854.27 -1632.4 3925
-2844.89 -1632.4 3925
-2835.5 -1632.4 3925
-2826.11 -1632.4 3925
-2810.27 -1628.66 3916
-2800.9 -1628.66 3916
-2778.71 -1621.17 3898
-2769.39 -1621.17 3898
-2760.07 -1621.17 3898
-2757.1 -1624.92 3907
-2754.08 -1628.66 3916
-2744.72 -1628.66 3916
-2735.35 -1628.66 3916
-2751.75 -1644.05 3953
-2742.29 -1644.05 3953
-2732.84 -1644.05 3953
-2723.39 -1644.05 3953
-2720.8 -1648.21 3963
-2717.48 -1651.95 3972
-2707.98 -1651.95 3972
-2698.48 -1651.95 3972
-2688.99 -1651.95 3972
-2679.49 -1651.95 3972
-2669.99 -1651.95 3972
-2654.46 -1648.21 3963
-1390.08 -1632.4 3925
-1380.69 -1632.4 3925
-1371.3 -1632.4 3925
-1371.63 -1644.05 3953
-1362.18 -1644.05 3953
-1352.73 -1644.05 3953
-1333.76 -1632.4 3925
-1318.3 -1624.92 3907
-1287.85 -1598.71 3844
-1272.67 -1591.23 3826
-1263.52 -1591.23 3826
-1254.37 -1591.23 3826
-1248.15 -1594.97 3835
-1241.89 -1598.71 3844
-1232.7 -1598.71 3844
-1223.51 -1598.71 3844
-1211.47 -1594.97 3835
-1199.48 -1591.23 3826
-1190.33 -1591.23 3826
-1167.91 -1573.34 3783
-1156.1 -1569.6 3774
-1141.91 -1562.53 3757
-1132.93 -1562.53 3757
-59.9106 -860.91 2070
-55.2261 -865.069 2080
-50.3246 -866.317 2083
-45.3436 -866.317 2083
-40.4012 -867.148 2085
-35.9079 -879.209 2114
-30.9403 -881.705 2120
-25.8707 -881.705 2120
-20.8208 -882.537 2122
-15.7687 -883.784 2125
-10.6872 -883.784 2125
-5.60567 -883.784 2125
-0.524156 -883.784 2125
4.54664 -881.705 2120
9.6162 -881.705 2120
14.6442 -879.209 2114
19.6994 -879.209 2114
24.7546 -879.209 2114
29.8098 -879.209 2114
34.7826 -877.13 2109
39.7692 -875.882 2106
44.7627 -875.05 2104
49.794 -875.05 2104
54.7472 -873.803 2101
59.7713 -873.803 2101
64.7954 -873.803 2101
69.8196 -873.803 2101
74.8437 -873.803 2101
79.7538 -872.555 2098
84.6899 -871.723 2096
89.5737 -870.476 2093
94.5787 -870.476 2093
99.5837 -870.476 2093
104.489 -869.644 2091
109.594 -870.476 2093
114.763 -871.723 2096
119.775 -871.723 2096
124.787 -871.723 2096
129.799 -871.723 2096
135.133 -873.803 2101
140.157 -873.803 2101
145.389 -875.05 2104
150.563 -875.882 2106
155.821 -877.13 2109
160.864 -877.13 2109
166.143 -878.378 2112
171.356 -879.209 2114
176.411 -879.209 2114
181.466 -879.209 2114
186.521 -879.209 2114
191.577 -879.209 2114
197.376 -882.537 2122
202.45 -882.537 2122
207.525 -882.537 2122
212.9 -883.784 2125
217.981 -883.784 2125
223.063 -883.784 2125
228.466 -885.032 2128
233.555 -885.032 2128
238.644 -885.032 2128
243.732 -885.032 2128
248.821 -885.032 2128
253.91 -885.032 2128
1439.97 -1566.27 3766
1448.98 -1566.27 3766
1457.99 -1566.27 3766
1463.49 -1562.53 3757
1472.47 -1562.53 3757
1471.6 -1552.13 3732
1480.52 -1552.13 3732
1489.44 -1552.13 3732
1501.58 -1555.46 3740
1514.16 -1559.2 3749
1523.12 -1559.2 3749
1532.09 -1559.2 3749
1537.35 -1555.46 3740
1546.3 -1555.46 3740
1551.92 -1552.13 3732
1554.15 -1545.48 3716
1555.88 -1538.41 3699
1564.73 -1538.41 3699
1566.77 -1531.75 3683
1564.88 -1521.36 3658
1566.74 -1514.7 3642
1575.45 -1514.7 3642
1584.16 -1514.7 3642
-2889.77 -1627.13 3935
-2900.86 -1638.71 3963
-2891.38 -1638.71 3963
-2881.9 -1638.71 3963
-2872.43 -1638.71 3963
-2849.23 -1630.86 3944
-2839.79 -1630.86 3944
-2823.9 -1627.13 3935
-2800.9 -1619.28 3916
-2791.54 -1619.28 3916
-2782.18 -1619.28 3916
-2766.44 -1615.56 3907
-2757.1 -1615.56 3907
-2754.08 -1619.28 3916
-2744.72 -1619.28 3916
-2735.35 -1619.28 3916
-2751.75 -1634.58 3953
-2742.29 -1634.58 3953
-2732.84 -1634.58 3953
-2723.39 -1634.58 3953
-2720.8 -1638.71 3963
-2717.48 -1642.43 3972
-2707.98 -1642.43 3972
-2698.48 -1642.43 3972
-2688.99 -1642.43 3972
-2679.49 -1642.43 3972
-2669.99 -1642.43 3972
-2654.46 -1638.71 3963
-1364.58 -1593.23 3853
-1374.36 -1615.56 3907
-1365.02 -1615.56 3907
-1361.92 -1623 3925
-1352.53 -1623 3925
-1343.15 -1623 3925
-1327.64 -1615.56 3907
-1315.26 -1611.83 3898
-1281.82 -1582.06 3826
-1270.01 -1578.75 3818
-1260.88 -1578.75 3818
-1248.8 -1575.03 3809
-1245.22 -1582.06 3826
-1236.08 -1582.06 3826
-1226.93 -1582.06 3826
-1217.78 -1582.06 3826
-1208.63 -1582.06 3826
-1188.82 -1568 3792
-1179.75 -1568 3792
-1165.13 -1560.56 3774
-1150.89 -1553.53 3757
-1141.91 -1553.53 3757
-1132.93 -1553.53 3757
-59.9106 -855.951 2070
-55.704 -867.529 2098
-50.687 -867.529 2098
-45.6701 -867.529 2098
-40.6531 -867.529 2098
-35.9589 -875.386 2117
-30.9403 -876.626 2120
-25.8707 -876.626 2120
-20.8208 -877.453 2122
-15.7687 -878.694 2125
-10.6872 -878.694 2125
-5.60567 -878.694 2125
-0.524156 -878.694 2125
4.54021 -875.386 2117
9.6026 -875.386 2117
14.6442 -874.145 2114
19.6808 -873.318 2112
24.7312 -873.318 2112
29.7816 -873.318 2112
34.7826 -872.078 2109
39.7692 -870.837 2106
44.7627 -870.01 2104
49.794 -870.01 2104
54.7472 -868.77 2101
59.7713 -868.77 2101
64.7954 -868.77 2101
69.8196 -868.77 2101
74.8437 -868.77 2101
79.7538 -867.529 2098
84.5687 -865.462 2093
89.5737 -865.462 2093
94.5787 -865.462 2093
99.5837 -865.462 2093
104.589 -865.462 2093
109.594 -865.462 2093
114.763 -866.702 2096
119.775 -866.702 2096
124.787 -866.702 2096
129.799 -866.702 2096
135.133 -868.77 2101
140.157 -868.77 2101
145.527 -870.837 2106
150.778 -872.078 2109
156.042 -873.318 2112
161.093 -873.318 2112
166.301 -874.145 2114
171.356 -874.145 2114
176.411 -874.145 2114
181.466 -874.145 2114
186.521 -874.145 2114
192.12 -876.626 2120
197.376 -877.453 2122
202.45 -877.453 2122
207.818 -878.694 2125
212.9 -878.694 2125
218.597 -881.175 2131
223.693 -881.175 2131
228.788 -881.175 2131
233.884 -881.175 2131
238.98 -881.175 2131
244.076 -881.175 2131
249.172 -881.175 2131
254.268 -881.175 2131
258.633 -878.694 2125
263.715 -878.694 2125
1450.73 -1578.75 3818
1459.86 -1578.75 3818
1468.99 -1578.75 3818
1471.15 -1571.31 3800
1463.49 -1553.53 3757
1472.47 -1553.53 3757
1471.6 -1543.19 3732
1480.52 -1543.19 3732
1489.44 -1543.19 3732
1501.58 -1546.5 3740
1514.16 -1550.22 3749
1523.12 -1550.22 3749
1532.09 -1550.22 3749
1537.35 -1546.5 3740
1546.3 -1546.5 3740
1551.92 -1543.19 3732
1554.15 -1536.58 3716
1555.88 -1529.55 3699
1564.73 -1529.55 3699
1566.77 -1522.93 3683
1564.88 -1512.59 3658
1566.74 -1505.98 3642
1575.45 -1505.98 3642
1581.12 -1503.08 3635
-2889.77 -1617.71 3935
-2900.86 -1629.22 3963
-2891.38 -1629.22 3963
-2881.9 -1629.22 3963
-2872.43 -1629.22 3963
-2849.23 -1621.41 3944
-2839.79 -1621.41 3944
-2823.9 -1617.71 3935
-2800.9 -1609.9 3916
-2791.54 -1609.9 3916
-2782.18 -1609.9 3916
-2766.44 -1606.2 3907
-2757.1 -1606.2 3907
-2754.08 -1609.9 3916
-2744.72 -1609.9 3916
-2735.35 -1609.9 3916
-2751.75 -1625.11 3953
-2742.29 -1625.11 3953
-2732.84 -1625.11 3953
-2723.39 -1625.11 3953
-2720.8 -1629.22 3963
-2717.48 -1632.92 3972
-2707.98 -1632.92 3972
-2698.48 -1632.92 3972
-2688.99 -1632.92 3972
-2679.49 -1632.92 3972
-2669.99 -1632.92 3972
-2654.46 -1629.22 3963
-1364.58 -1584 3853
-1355.36 -1584 3853
-1346.15 -1584 3853
-1346.3 -1595.1 3880
-1337.03 -1595.1 3880
-1327.75 -1595.1 3880
-1318.47 -1595.1 3880
-1290.97 -1572.9 3826
-1276.13 -1565.91 3809
-1258.37 -1555.22 3783
-1252.29 -1558.92 3792
-1243.23 -1558.92 3792
-1236.76 -1562.21 3800
-1227.68 -1562.21 3800
-1218.59 -1562.21 3800
-1209.5 -1562.21 3800
-1197.89 -1558.92 3792
-1177.85 -1544.53 3757
-1168.86 -1544.53 3757
-1157.41 -1541.24 3749
-1143.24 -1534.25 3732
-1134.31 -1534.25 3732
-1125.39 -1534.25 3732
-55.9164 -865.792 2106
-50.8803 -865.792 2106
-45.8442 -865.792 2106
-40.8081 -865.792 2106
-36.0099 -871.548 2120
-30.9695 -872.37 2122
-25.8951 -872.37 2122
-20.8502 -873.603 2125
-15.7687 -873.603 2125
-10.6872 -873.603 2125
-5.60567 -873.603 2125
-0.524156 -873.603 2125
4.54664 -871.548 2120
9.6162 -871.548 2120
14.6442 -869.081 2114
19.6808 -868.259 2112
24.7312 -868.259 2112
29.7816 -868.259 2112
34.7826 -867.026 2109
39.7692 -865.792 2106
44.7627 -864.97 2104
49.794 -864.97 2104
54.7472 -863.737 2101
59.7713 -863.737 2101
64.7954 -863.737 2101
69.8196 -863.737 2101
74.8437 -863.737 2101
79.7538 -862.504 2098
84.6899 -861.681 2096
89.5737 -860.448 2093
94.5787 -860.448 2093
99.5837 -860.448 2093
104.589 -860.448 2093
109.751 -861.681 2096
114.872 -862.504 2098
119.889 -862.504 2098
124.906 -862.504 2098
129.923 -862.504 2098
135.326 -864.97 2104
140.357 -864.97 2104
145.734 -867.026 2109
150.992 -868.259 2112
156.412 -870.315 2117
161.474 -870.315 2117
166.537 -870.315 2117
171.842 -871.548 2120
176.912 -871.548 2120
181.981 -871.548 2120
187.051 -871.548 2120
192.12 -871.548 2120
197.376 -872.37 2122
202.45 -872.37 2122
207.818 -873.603 2125
212.9 -873.603 2125
218.597 -876.07 2131
223.693 -876.07 2131
228.788 -876.07 2131
233.884 -876.07 2131
238.98 -876.07 2131
244.076 -876.07 2131
249.172 -876.07 2131
254.268 -876.07 2131
258.633 -873.603 2125
263.715 -873.603 2125
267.152 -868.259 2112
1450.73 -1569.61 3818
1459.86 -1569.61 3818
1468.99 -1569.61 3818
1471.15 -1562.21 3800
1463.49 -1544.53 3757
1472.47 -1544.53 3757
1471.6 -1534.25 3732
1480.52 -1534.25 3732
1489.44 -1534.25 3732
1501.58 -1537.54 3740
1514.16 -1541.24 3749
1523.12 -1541.24 3749
1532.09 -1541.24 3749
1537.35 -1537.54 3740
1546.3 -1537.54 3740
1551.92 -1534.25 3732
1554.15 -1527.68 3716
1555.88 -1520.69 3699
1564.73 -1520.69 3699
1566.77 -1514.11 3683
1564.88 -1503.83 3658
1566.74 -1497.25 3642
1575.45 -1497.25 3642
1581.12 -1494.38 3635
-2889.77 -1608.28 3935
-2900.86 -1619.73 3963
-2891.38 -1619.73 3963
-2881.9 -1619.73 3963
-2872.43 -1619.73 3963
-2849.23 -1611.96 3944
-2839.79 -1611.96 3944
-2823.9 -1608.28 3935
-2800.9 -1600.52 3916
-2791.54 -1600.52 3916
-2782.18 -1600.52 3916
-2766.44 -1596.84 3907
-2757.1 -1596.84 3907
-2754.08 -1600.52 3916
-2744.72 -1600.52 3916
-2735.35 -1600.52 3916
-2751.75 -1615.64 3953
-2742.29 -1615.64 3953
-2732.84 -1615.64 3953
-2723.39 -1615.64 3953
-2720.8 -1619.73 3963
-2717.48 -1623.4 3972
-2707.98 -1623.4 3972
-2698.48 -1623.4 3972
-2688.99 -1623.4 3972
-2679.49 -1623.4 3972
-2669.99 -1623.4 3972
-2654.46 -1619.73 3963
-1364.58 -1574.77 3853
-1355.36 -1574.77 3853
-1346.15 -1574.77 3853
-1330.69 -1567.41 3835
-1321.52 -1567.41 3835
-1309.27 -1563.73 3826
-1300.12 -1563.73 3826
-1285.23 -1556.78 3809
-1264.4 -1542.48 3774
-1255.38 -1542.48 3774
-1246.35 -1542.48 3774
-1237.33 -1542.48 3774
-1231.23 -1546.16 3783
-1225.09 -1549.84 3792
-1216.02 -1549.84 3792
-1206.96 -1549.84 3792
-1192.2 -1542.48 3774
-1175.34 -1532.26 3749
-1166.37 -1532.26 3749
-1154.63 -1528.58 3740
-1143.24 -1525.31 3732
-1129.45 -1518.77 3716
-1120.56 -1518.77 3716
-55.996 -861.974 2109
-51.0253 -863.2 2112
-45.9748 -863.2 2112
-40.9244 -863.2 2112
-36.0438 -867.287 2122
-30.9695 -867.287 2122
-25.8951 -867.287 2122
-20.8502 -868.513 2125
-15.791 -869.739 2128
-10.7023 -869.739 2128
-5.61359 -869.739 2128
-0.524896 -869.739 2128
4.54664 -866.469 2120
9.6162 -866.469 2120
14.6442 -864.017 2114
19.6808 -863.2 2112
24.7312 -863.2 2112
29.7816 -863.2 2112
34.7826 -861.974 2109
39.7692 -860.747 2106
44.7627 -859.93 2104
49.794 -859.93 2104
54.7472 -858.704 2101
59.7713 -858.704 2101
64.7954 -858.704 2101
69.8196 -858.704 2101
74.8437 -858.704 2101
79.7538 -857.478 2098
84.7707 -857.478 2098
89.7021 -856.66 2096
94.7142 -856.66 2096
99.7264 -856.66 2096
104.739 -856.66 2096
109.855 -857.478 2098
114.872 -857.478 2098
119.889 -857.478 2098
124.906 -857.478 2098
129.923 -857.478 2098
135.455 -860.747 2106
140.491 -860.747 2106
145.942 -863.2 2112
151.135 -864.017 2114
156.412 -865.243 2117
161.474 -865.243 2117
166.773 -866.469 2120
171.842 -866.469 2120
176.912 -866.469 2120
181.981 -866.469 2120
187.051 -866.469 2120
192.12 -866.469 2120
197.376 -867.287 2122
202.45 -867.287 2122
207.818 -868.513 2125
212.9 -868.513 2125
218.597 -870.965 2131
223.693 -870.965 2131
228.788 -870.965 2131
233.884 -870.965 2131
238.98 -870.965 2131
244.076 -870.965 2131
249.172 -870.965 2131
254.268 -870.965 2131
258.633 -868.513 2125
263.715 -868.513 2125
267.152 -863.2 2112
271.429 -860.747 2106
1450.73 -1560.46 3818
1459.86 -1560.46 3818
1468.99 -1560.46 3818
1474.63 -1556.78 3809
1460.37 -1532.26 3749
1469.33 -1532.26 3749
1468.44 -1522.04 3724
1477.35 -1522.04 3724
1489.44 -1525.31 3732
1501.58 -1528.58 3740
1514.16 -1532.26 3749
1523.12 -1532.26 3749
1532.09 -1532.26 3749
1537.35 -1528.58 3740
1546.3 -1528.58 3740
1551.92 -1525.31 3732
1554.15 -1518.77 3716
1552.52 -1508.56 3691
1561.34 -1508.56 3691
1556.13 -1495.07 3658
1558.04 -1488.53 3642
1563.73 -1485.67 3635
1572.43 -1485.67 3635
1581.12 -1485.67 3635
-2882.43 -1594.79 3925
-2893.54 -1606.17 3953
-2884.09 -1606.17 3953
-2874.63 -1606.17 3953
-2858.66 -1602.51 3944
-2842.72 -1598.86 3935
-2833.31 -1598.86 3935
-2816.73 -1594.79 3925
-2794.47 -1587.48 3907
-2785.12 -1587.48 3907
-2775.78 -1587.48 3907
-2766.44 -1587.48 3907
-2757.1 -1587.48 3907
-2747.75 -1587.48 3907
-2744.72 -1591.14 3916
-2735.35 -1591.14 3916
-2739.22 -1598.86 3935
-2742.29 -1606.17 3953
-2732.84 -1606.17 3953
-2723.39 -1606.17 3953
-2720.8 -1610.23 3963
-2717.48 -1613.89 3972
-2707.98 -1613.89 3972
-2698.48 -1613.89 3972
-2676.12 -1606.17 3953
-2660.6 -1602.51 3944
-2651.17 -1602.51 3944
-2635.71 -1598.86 3935
-1364.58 -1565.54 3853
-1355.36 -1565.54 3853
-1346.15 -1565.54 3853
-1330.69 -1558.22 3835
-1321.52 -1558.22 3835
-1309.27 -1554.57 3826
-1300.12 -1554.57 3826
-1285.23 -1547.66 3809
-1264.4 -1533.44 3774
-1255.38 -1533.44 3774
-1246.35 -1533.44 3774
-1237.33 -1533.44 3774
-1231.23 -1537.1 3783
-1225.09 -1540.75 3792
-1216.02 -1540.75 3792
-1206.96 -1540.75 3792
-1192.2 -1533.44 3774
-1175.34 -1523.28 3749
-1166.37 -1523.28 3749
-1154.63 -1519.62 3740
-1143.24 -1516.37 3732
-1129.45 -1509.87 3716
-1120.56 -1509.87 3716
-55.996 -856.921 2109
-51.0253 -858.14 2112
-45.9748 -858.14 2112
-40.9244 -858.14 2112
-36.0438 -862.204 2122
-31.0133 -863.422 2125
-25.9318 -863.422 2125
-20.8502 -863.422 2125
-15.791 -864.641 2128
-10.7023 -864.641 2128
-5.61359 -864.641 2128
-0.524896 -864.641 2128
4.54664 -861.391 2120
9.6162 -861.391 2120
14.6442 -858.953 2114
19.6994 -858.953 2114
24.7312 -858.14 2112
29.7816 -858.14 2112
34.7826 -856.921 2109
39.7692 -855.703 2106
44.7627 -854.89 2104
49.794 -854.89 2104
54.7472 -853.671 2101
59.7713 -853.671 2101
64.7954 -853.671 2101
69.8196 -853.671 2101
74.8437 -853.671 2101
79.7538 -852.452 2098
84.7707 -852.452 2098
89.7021 -851.639 2096
94.7142 -851.639 2096
99.7264 -851.639 2096
104.739 -851.639 2096
109.855 -852.452 2098
114.872 -852.452 2098
119.889 -852.452 2098
124.906 -852.452 2098
129.923 -852.452 2098
135.455 -855.703 2106
140.491 -855.703 2106
145.942 -858.14 2112
151.135 -858.953 2114
156.412 -860.172 2117
161.474 -860.172 2117
166.773 -861.391 2120
171.842 -861.391 2120
176.912 -861.391 2120
181.981 -861.391 2120
187.051 -861.391 2120
192.12 -861.391 2120
197.376 -862.204 2122
202.45 -862.204 2122
207.818 -863.422 2125
212.9 -863.422 2125
218.289 -864.641 2128
223.378 -864.641 2128
228.466 -864.641 2128
233.884 -865.86 2131
238.98 -865.86 2131
244.076 -865.86 2131
249.172 -865.86 2131
253.552 -863.422 2125
258.633 -863.422 2125
263.715 -863.422 2125
267.152 -858.14 2112
271.429 -855.703 2106
1450.73 -1551.32 3818
1459.86 -1551.32 3818
1468.99 -1551.32 3818
1474.63 -1547.66 3809
1450.63 -1513.12 3724
1459.54 -1513.12 3724
1465.29 -1509.87 3716
1467.43 -1502.96 3699
1476.27 -1502.96 3699
1485.12 -1502.96 3699
1497.2 -1506.22 3707
1506.06 -1506.22 3707
1514.93 -1506.22 3707
1523.79 -1506.22 3707
1532.65 -1506.22 3707
1541.52 -1506.22 3707
1537 -1493.21 3675
1538.64 -1486.31 3658
1547.39 -1486.31 3658
1552.73 -1483.06 3650
1555.04 -1476.96 3635
1563.73 -1476.96 3635
1572.43 -1476.96 3635
1581.12 -1476.96 3635
-2882.43 -1585.39 3925
-2893.54 -1596.7 3953
-2884.09 -1596.7 3953
-2874.63 -1596.7 3953
-2858.66 -1593.06 3944
-2842.72 -1589.43 3935
-2833.31 -1589.43 3935
-2816.73 -1585.39 3925
-2800.9 -1581.75 3916
-2791.54 -1581.75 3916
-2782.18 -1581.75 3916
-2772.81 -1581.75 3916
-2763.45 -1581.75 3916
-2754.08 -1581.75 3916
-2744.72 -1581.75 3916
-2735.35 -1581.75 3916
-2739.22 -1589.43 3935
-2742.29 -1596.7 3953
-2732.84 -1596.7 3953
-2723.39 -1596.7 3953
-2720.8 -1600.74 3963
-2717.48 -1604.37 3972
-2707.98 -1604.37 3972
-2698.48 -1604.37 3972
-2676.12 -1596.7 3953
-2660.6 -1593.06 3944
-2651.17 -1593.06 3944
-2635.71 -1589.43 3935
-1364.58 -1556.31 3853
-1355.36 -1556.31 3853
-1346.15 -1556.31 3853
-1330.69 -1549.04 3835
-1321.52 -1549.04 3835
-1309.27 -1545.4 3826
-1300.12 -1545.4 3826
-1285.23 -1538.53 3809
-1264.4 -1524.4 3774
-1252.71 -1521.17 3766
-1243.71 -1521.17 3766
-1234.7 -1521.17 3766
-1228.3 -1524.4 3774
-1225.09 -1531.67 3792
-1216.02 -1531.67 3792
-1206.96 -1531.67 3792
-1192.2 -1524.4 3774
-1175.34 -1514.3 3749
-1166.37 -1514.3 3749
-1152.16 -1507.43 3732
-1143.24 -1507.43 3732
-55.996 -851.869 2109
-51.0253 -853.081 2112
-45.9748 -853.081 2112
-40.9244 -853.081 2112
-36.0438 -857.12 2122
-31.0133 -858.332 2125
-25.9318 -858.332 2125
-20.8502 -858.332 2125
-15.791 -859.544 2128
-10.7023 -859.544 2128
-5.61359 -859.544 2128
-0.524896 -859.544 2128
4.54664 -856.312 2120
9.6162 -856.312 2120
14.6442 -853.889 2114
19.6994 -853.889 2114
24.7312 -853.081 2112
29.7816 -853.081 2112
34.7826 -851.869 2109
39.7692 -850.658 2106
44.7627 -849.85 2104
49.794 -849.85 2104
54.8253 -849.85 2104
59.8566 -849.85 2104
64.8879 -849.85 2104
69.9193 -849.85 2104
74.8437 -848.638 2101
79.8678 -848.638 2101
84.7707 -847.426 2098
89.7877 -847.426 2098
94.8046 -847.426 2098
99.8216 -847.426 2098
104.839 -847.426 2098
109.855 -847.426 2098
115.037 -848.638 2101
120.061 -848.638 2101
125.085 -848.638 2101
129.923 -847.426 2098
135.455 -850.658 2106
140.491 -850.658 2106
145.942 -853.081 2112
151.135 -853.889 2114
156.412 -855.101 2117
161.474 -855.101 2117
166.773 -856.312 2120
171.842 -856.312 2120
176.912 -856.312 2120
181.981 -856.312 2120
187.051 -856.312 2120
192.12 -856.312 2120
197.376 -857.12 2122
202.45 -857.12 2122
207.818 -858.332 2125
212.9 -858.332 2125
218.289 -859.544 2128
223.378 -859.544 2128
228.466 -859.544 2128
233.555 -859.544 2128
238.644 -859.544 2128
243.732 -859.544 2128
248.47 -858.332 2125
253.552 -858.332 2125
257.66 -855.101 2117
262.722 -855.101 2117
267.152 -853.081 2112
271.816 -851.869 2109
1454.81 -1556.31 3853
1464.03 -1556.31 3853
1473.24 -1556.31 3853
1478.99 -1552.67 3844
1478.12 -1542.17 3818
1453.75 -1507.43 3732
1462.67 -1507.43 3732
1461.74 -1497.33 3707
1467.43 -1494.1 3699
1476.27 -1494.1 3699
1485.12 -1494.1 3699
1493.97 -1494.1 3699
1499.56 -1490.87 3691
1508.39 -1490.87 3691
1517.21 -1490.87 3691
1526.04 -1490.87 3691
1528.21 -1484.41 3675
1533.65 -1481.18 3667
1538.64 -1477.54 3658
1547.39 -1477.54 3658
1546.35 -1468.25 3635
1541.35 -1455.33 3603
1543.51 -1449.27 3588
1552.09 -1449.27 3588
1557.19 -1446.04 3580
-2882.43 -1575.99 3925
-2893.54 -1587.23 3953
-2884.09 -1587.23 3953
-2874.63 -1587.23 3953
-2858.66 -1583.62 3944
-2842.72 -1580 3935
-2833.31 -1580 3935
-2816.73 -1575.99 3925
-2800.9 -1572.37 3916
-2791.54 -1572.37 3916
-2782.18 -1572.37 3916
-2772.81 -1572.37 3916
-2763.45 -1572.37 3916
-2754.08 -1572.37 3916
-2744.72 -1572.37 3916
-2735.35 -1572.37 3916
-2739.22 -1580 3935
-2736.05 -1583.62 3944
-2726.62 -1583.62 3944
-2717.19 -1583.62 3944
-2713.93 -1587.23 3953
-2704.48 -1587.23 3953
-2695.03 -1587.23 3953
-2685.58 -1587.23 3953
-2670.03 -1583.62 3944
-2654.53 -1580 3935
-2645.12 -1580 3935
-2622.98 -1572.37 3916
-1342.97 -1522.58 3792
-1343.05 -1533.02 3818
-1336.72 -1536.24 3826
-1327.57 -1536.24 3826
-1318.42 -1536.24 3826
-1303.45 -1529.41 3809
-1294.34 -1529.41 3809
-1279.5 -1522.58 3792
-1261.72 -1512.14 3766
-1247.06 -1505.32 3749
-1238.09 -1505.32 3749
-1229.13 -1505.32 3749
-1225.7 -1512.14 3766
-1219.28 -1515.36 3774
-1210.25 -1515.36 3774
-1201.23 -1515.36 3774
-1189.67 -1512.14 3766
-1175.34 -1505.32 3749
-1166.37 -1505.32 3749
-1152.16 -1498.49 3732
-1138.34 -1492.07 3716
-55.996 -846.817 2109
-51.0253 -848.022 2112
-45.9748 -848.022 2112
-41.0213 -850.029 2117
-36.0438 -852.037 2122
-31.0133 -853.242 2125
-25.9318 -853.242 2125
-20.8502 -853.242 2125
-15.791 -854.446 2128
-10.7023 -854.446 2128
-5.61359 -854.446 2128
-0.524896 -854.446 2128
4.54664 -851.234 2120
9.6162 -851.234 2120
14.6442 -848.825 2114
19.6994 -848.825 2114
24.7312 -848.022 2112
29.7816 -848.022 2112
34.8321 -848.022 2112
39.7692 -845.613 2106
44.7627 -844.81 2104
49.794 -844.81 2104
54.8253 -844.81 2104
59.8566 -844.81 2104
64.8879 -844.81 2104
69.9193 -844.81 2104
74.8437 -843.605 2101
79.8678 -843.605 2101
84.7707 -842.4 2098
89.7877 -842.4 2098
94.9402 -843.605 2101
99.9643 -843.605 2101
104.988 -843.605 2101
110.013 -843.605 2101
115.037 -843.605 2101
120.061 -843.605 2101
125.085 -843.605 2101
130.109 -843.605 2101
135.455 -845.613 2106
140.491 -845.613 2106
145.942 -848.022 2112
151.135 -848.825 2114
156.412 -850.029 2117
161.474 -850.029 2117
166.773 -851.234 2120
171.842 -851.234 2120
176.912 -851.234 2120
181.981 -851.234 2120
187.051 -851.234 2120
192.12 -851.234 2120
197.19 -851.234 2120
202.26 -851.234 2120
207.525 -852.037 2122
212.599 -852.037 2122
217.981 -853.242 2125
223.063 -853.242 2125
228.144 -853.242 2125
233.226 -853.242 2125
238.307 -853.242 2125
243.389 -853.242 2125
248.47 -853.242 2125
253.552 -853.242 2125
257.66 -850.029 2117
262.722 -850.029 2117
267.152 -848.022 2112
271.816 -846.817 2109
1454.81 -1547.08 3853
1464.03 -1547.08 3853
1473.24 -1547.08 3853
1478.99 -1543.46 3844
1478.12 -1533.02 3818
1453.75 -1498.49 3732
1462.67 -1498.49 3732
1461.74 -1488.45 3707
1467.43 -1485.24 3699
1476.27 -1485.24 3699
1485.12 -1485.24 3699
1493.97 -1485.24 3699
1505.12 -1478.82 3683
1513.92 -1478.82 3683
1522.73 -1478.82 3683
1528.21 -1475.61 3675
1533.65 -1472.39 3667
1538.64 -1468.78 3658
1547.39 -1468.78 3658
1546.35 -1459.55 3635
1534.93 -1440.67 3588
1543.51 -1440.67 3588
1552.09 -1440.67 3588
1557.19 -1437.46 3580
-2935.94 -1585.34 3972
-2926.44 -1585.34 3972
-2916.94 -1585.34 3972
-2900.86 -1581.75 3963
-2891.38 -1581.75 3963
-2874.63 -1577.76 3953
-2844.89 -1566.59 3925
-2822.5 -1559.4 3907
-2826.11 -1566.59 3925
-2816.73 -1566.59 3925
-2807.34 -1566.59 3925
-2797.96 -1566.59 3925
-2788.57 -1566.59 3925
-2772.81 -1562.99 3916
-2763.45 -1562.99 3916
-2754.08 -1562.99 3916
-2744.72 -1562.99 3916
-2735.35 -1562.99 3916
-2745.48 -1574.17 3944
-2742.29 -1577.76 3953
-2732.84 -1577.76 3953
-2723.39 -1577.76 3953
-2726.98 -1585.34 3972
-2717.48 -1585.34 3972
-2707.98 -1585.34 3972
-2692.37 -1581.75 3963
-2676.12 -1577.76 3953
-2666.67 -1577.76 3953
-2657.22 -1577.76 3953
-2622.98 -1562.99 3916
-1342.97 -1513.5 3792
-1333.91 -1513.5 3792
-1324.84 -1513.5 3792
-1315.77 -1513.5 3792
-1306.7 -1513.5 3792
-1297.63 -1513.5 3792
-1288.57 -1513.5 3792
-1279.5 -1513.5 3792
-1261.72 -1503.12 3766
-1247.06 -1496.34 3749
-1238.09 -1496.34 3749
-1229.13 -1496.34 3749
-1225.7 -1503.12 3766
-1216.69 -1503.12 3766
-1207.69 -1503.12 3766
-1198.68 -1503.12 3766
-1189.67 -1503.12 3766
-1175.34 -1496.34 3749
-1166.37 -1496.34 3749
-1152.16 -1489.55 3732
-1135.58 -1479.57 3707
-61.3577 -846.155 2120
