2321.46 773.287 3184
2324.68 771.829 3178
2327.88 770.372 3172
2335.46 770.372 3172
2343.05 770.372 3172
2346.19 768.915 3166
2349.3 767.458 3160
2352.38 766.001 3154
2364.41 767.458 3160
2371.97 767.458 3160
2393.08 771.829 3178
2409.74 774.744 3190
2431.01 779.115 3208
2438.68 779.115 3208
2504.31 797.573 3284
2512.16 797.573 3284
-2596.58 850.568 3468
-2588.28 850.568 3468
-2579.99 850.568 3468
-2571.7 850.568 3468
-2579.67 855.964 3490
-2571.32 855.964 3490
-2579.13 861.36 3512
-2592.69 868.718 3542
-2589.33 870.435 3549
-2580.84 870.435 3549
-2583.95 874.359 3565
-2580.48 876.076 3572
-2571.94 876.076 3572
-2563.4 876.076 3572
-2549.85 874.359 3565
-2541.33 874.359 3565
-2532.8 874.359 3565
-2455.59 850.568 3468
-2473.41 859.643 3505
-2465.03 859.643 3505
-2456.65 859.643 3505
-2448.27 859.643 3505
-2434.32 857.681 3497
-2416.24 854.247 3483
-2407.91 854.247 3483
-2399.58 854.247 3483
-2391.26 854.247 3483
-2378.14 852.53 3476
-2369.83 852.53 3476
-2361.51 852.53 3476
-2343.05 848.852 3461
-2334.77 848.852 3461
-2345.99 855.964 3490
-2337.64 855.964 3490
-2353.99 865.039 3527
-2350.21 866.756 3534
-2347.06 868.718 3542
-2338.59 868.718 3542
-2334.73 870.435 3549
-2336.73 874.359 3565
-2328.2 874.359 3565
-2319.68 874.359 3565
-2311.15 874.359 3565
-2297.46 872.397 3557
-2288.96 872.397 3557
-2280.45 872.397 3557
-2271.94 872.397 3557
-2263.44 872.397 3557
-2254.93 872.397 3557
-2246.43 872.397 3557
-2237.92 872.397 3557
-2229.41 872.397 3557
-2220.91 872.397 3557
-2212.4 872.397 3557
-2203.9 872.397 3557
-2195.39 872.397 3557
-2186.88 872.397 3557
-2178.38 872.397 3557
-2151.57 865.039 3527
-2138.88 863.322 3520
-2130.47 863.322 3520
-2122.05 863.322 3520
-2108.83 861.36 3512
-2096.24 859.643 3505
-2070.59 852.53 3476
-2062.28 852.53 3476
-2053.96 852.53 3476
-2045.65 852.53 3476
-2037.34 852.53 3476
-2029.03 852.53 3476
-1999.79 843.701 3440
-1987.51 841.984 3433
-1967.19 836.834 3412
-1959.03 836.834 3412
-1950.87 836.834 3412
-1938.73 835.117 3405
-1922.65 831.683 3391
-1914.54 831.683 3391
-1902.49 829.966 3384
-1886.57 826.533 3370
-1878.51 826.533 3370
-1882.1 831.683 3391
-1873.99 831.683 3391
-1865.89 831.683 3391
-1857.78 831.683 3391
-1849.67 831.683 3391
-1837.76 829.966 3384
-1833.45 831.683 3391
-1825.34 831.683 3391
-1817.23 831.683 3391
-1809.12 831.683 3391
-1801.01 831.683 3391
-1800.31 835.117 3405
-1795.85 836.834 3412
-1787.69 836.834 3412
-1786.83 840.267 3426
-1785.91 843.701 3440
-1784.92 847.135 3454
-1776.66 847.135 3454
-1771.98 848.852 3461
-1774.92 854.247 3483
-1781.3 861.36 3512
-1772.9 861.36 3512
-1764.5 861.36 3512
-1756.1 861.36 3512
-1762.63 868.718 3542
-1754.16 868.718 3542
-1745.69 868.718 3542
-1737.22 868.718 3542
-1728.75 868.718 3542
-1727.57 872.397 3557
-1719.06 872.397 3557
-1714.4 874.359 3565
-1709.23 876.076 3572
-1700.69 876.076 3572
-1692.14 876.076 3572
-1683.6 876.076 3572
-1534.68 859.643 3505
-1526.3 859.643 3505
-1517.92 859.643 3505
-1500.06 854.247 3483
-1491.73 854.247 3483
-1468.07 845.418 3447
-1442.04 835.117 3405
-1430.95 833.4 3398
-1422.83 833.4 3398
-1411.79 831.683 3391
-1394.98 826.533 3370
-1386.93 826.533 3370
-1378.87 826.533 3370
-1367.96 824.816 3363
-1354.66 821.627 3350
-1351.88 824.816 3363
-1343.84 824.816 3363
-1338.57 826.533 3370
-1341.57 833.4 3398
-1333.44 833.4 3398
-1325.32 833.4 3398
-1314.48 831.683 3391
-1306.37 831.683 3391
-1298.26 831.683 3391
-1292.82 833.4 3398
-1295.28 840.267 3426
-1287.08 840.267 3426
-1289.34 847.135 3454
-1305.56 863.322 3520
-1299.73 865.039 3527
-1299.35 870.435 3549
-1299.22 876.076 3572
-1301.88 883.679 3603
-1293.27 883.679 3603
-1301.41 895.206 3650
-1292.68 895.206 3650
-1283.95 895.206 3650
-1275.23 895.206 3650
-1266.5 895.206 3650
-1257.77 895.206 3650
-1246.3 893.244 3642
-1237.59 893.244 3642
-1221.12 887.603 3619
-1212.47 887.603 3619
-1203.82 887.603 3619
-1195.16 887.603 3619
-1186.51 887.603 3619
-1180.46 889.565 3627
-1171.78 889.565 3627
-1163.11 889.565 3627
-1154.44 889.565 3627
-1145.76 889.565 3627
-1137.09 889.565 3627
-1128.42 889.565 3627
-1119.74 889.565 3627
-1111.07 889.565 3627
-1102.4 889.565 3627
-1093.72 889.565 3627
-1085.05 889.565 3627
-1071.63 885.641 3611
-1063 885.641 3611
-1061.37 891.527 3635
-1052.68 891.527 3635
-1050.59 897.168 3658
-1046.68 901.338 3675
-1037.9 901.338 3675
-1029.11 901.338 3675
-1020.32 901.338 3675
-1011.53 901.338 3675
-1002.74 901.338 3675
-989.357 897.168 3658
-983.022 899.375 3667
-974.253 899.375 3667
-965.484 899.375 3667
-956.716 899.375 3667
-950.015 901.338 3675
-941.227 901.338 3675
-934.468 903.3 3683
-925.661 903.3 3683
-916.854 903.3 3683
-908.047 903.3 3683
-899.24 903.3 3683
-892.367 905.262 3691
-883.54 905.262 3691
-876.61 907.224 3699
-869.641 909.186 3707
-864.724 913.355 3724
-855.819 913.355 3724
-854.419 921.449 3757
-851.285 927.826 3783
-842.239 927.826 3783
-833.193 927.826 3783
-824.146 927.826 3783
-817.039 930.033 3792
-811.594 934.203 3809
-802.485 934.203 3809
-798.792 940.579 3835
-789.622 940.579 3835
-784.114 944.994 3853
-774.9 944.994 3853
-765.687 944.994 3853
-746.067 931.995 3800
-736.98 931.995 3800
-727.893 931.995 3800
-715.591 927.826 3783
-689.362 905.262 3691
-680.536 905.262 3691
-671.709 905.262 3691
-654.083 893.244 3642
-644.133 891.527 3635
-635.441 891.527 3635
-621.231 883.679 3603
-610.065 880 3588
-598.802 876.076 3572
-590.261 876.076 3572
-581.719 876.076 3572
-570.77 872.397 3557
-561 870.435 3549
-552.513 870.435 3549
-544.026 870.435 3549
-535.54 870.435 3549
-527.053 870.435 3549
-516.374 866.756 3534
-507.924 866.756 3534
-499.473 866.756 3534
-492.133 868.718 3542
-484.619 870.435 3549
-476.133 870.435 3549
-467.646 870.435 3549
-459.159 870.435 3549
-450.672 870.435 3549
-442.186 870.435 3549
-433.699 870.435 3549
-425.212 870.435 3549
-417.665 872.397 3557
-409.159 872.397 3557
-400.653 872.397 3557
-393.029 874.359 3565
-384.504 874.359 3565
-375.979 874.359 3565
-367.454 874.359 3565
-358.124 872.397 3557
-349.618 872.397 3557
-341.112 872.397 3557
-331.203 868.718 3542
-322.734 868.718 3542
-314.885 870.435 3549
-306.398 870.435 3549
-297.911 870.435 3549
-289.424 870.435 3549
-280.384 868.718 3542
-271.299 866.756 3534
-262.849 866.756 3534
-252.814 861.36 3512
-243.929 859.643 3505
-235.009 857.681 3497
-226.647 857.681 3497
-120.935 536.878 2189
-115.7 536.878 2189
-111.071 539.822 2201
-106.481 543.255 2215
-101.184 543.255 2215
-95.8876 543.255 2215
-90.5091 542.765 2213
-85.1016 542.029 2210
-79.8168 542.029 2210
-74.0262 538.35 2195
-68.2446 534.18 2178
-62.9495 533.445 2175
-57.7484 533.445 2175
-52.3541 531.483 2167
-47.1068 530.747 2164
-41.932 530.747 2164
-36.7572 530.747 2164
-31.5825 530.747 2164
-26.4077 530.747 2164
-21.2329 530.747 2164
-16.0581 530.747 2164
-10.8682 530.011 2161
-5.69273 529.275 2158
-0.532296 529.275 2158
4.62814 529.275 2158
9.78857 529.275 2158
14.9282 528.539 2155
20.1094 529.275 2158
25.2699 529.275 2158
30.4303 529.275 2158
35.5907 529.275 2158
40.8078 530.011 2161
45.9754 530.011 2161
51.143 530.011 2161
56.2325 529.275 2158
61.3929 529.275 2158
66.5533 529.275 2158
71.7138 529.275 2158
143.399 870.435 3549
152.87 876.076 3572
161.412 876.076 3572
171.429 883.679 3603
181.244 889.565 3627
192.43 901.338 3675
201.218 901.338 3675
210.006 901.338 3675
578.03 927.826 3783
587.076 927.826 3783
596.123 927.826 3783
598.29 917.28 3740
607.234 917.28 3740
742.104 907.224 3699
750.949 907.224 3699
759.795 907.224 3699
768.64 907.224 3699
765.505 893.244 3642
774.214 893.244 3642
782.923 893.244 3642
793.371 895.206 3650
802.099 895.206 3650
810.828 895.206 3650
810.799 885.641 3611
808.995 874.359 3565
812.246 868.718 3542
820.716 868.718 3542
829.186 868.718 3542
837.656 868.718 3542
844.215 866.756 3534
852.666 866.756 3534
861.117 866.756 3534
869.567 866.756 3534
878.018 866.756 3534
888.476 868.718 3542
896.946 868.718 3542
905.416 868.718 3542
913.886 868.718 3542
922.356 868.718 3542
930.826 868.718 3542
933.462 863.322 3520
939.738 861.36 3512
950.296 863.322 3520
958.714 863.322 3520
967.131 863.322 3520
975.549 863.322 3520
981.73 861.36 3512
990.128 861.36 3512
998.526 861.36 3512
1006.92 861.36 3512
1015.32 861.36 3512
1021.68 859.643 3505
1030.06 859.643 3505
1034 855.964 3490
1042.35 855.964 3490
1052.8 857.681 3497
1063.59 859.643 3505
1071.97 859.643 3505
1080.35 859.643 3505
1090.91 861.36 3512
1099.31 861.36 3512
1107.7 861.36 3512
1118.64 863.322 3520
1127.06 863.322 3520
1135.48 863.322 3520
1141.3 861.36 3512
1149.69 861.36 3512
1163.04 865.039 3527
1173.8 866.756 3534
1182.25 866.756 3534
1190.7 866.756 3534
1199.15 866.756 3534
1207.6 866.756 3534
1216.05 866.756 3534
1224.5 866.756 3534
1235.75 868.718 3542
1244.22 868.718 3542
1252.69 868.718 3542
1261.16 868.718 3542
1269.63 868.718 3542
1280.62 870.435 3549
1297.46 876.076 3572
1306 876.076 3572
1323.01 881.717 3595
1331.61 881.717 3595
1340.2 881.717 3595
1348.8 881.717 3595
1363.44 885.641 3611
1372.07 885.641 3611
1380.71 885.641 3611
1389.34 885.641 3611
1394.88 883.679 3603
1391.42 876.076 3572
1399.96 876.076 3572
1393.52 866.756 3534
1399.19 865.039 3527
1395.66 857.681 3497
1395.59 852.53 3476
1403.9 852.53 3476
1386.21 836.834 3412
1385.79 831.683 3391
1382.39 824.816 3363
1390.43 824.816 3363
1384.75 816.722 3330
1389.78 815.005 3323
1397.73 815.005 3323
1405.68 815.005 3323
1402.56 808.629 3297
1407.45 806.912 3290
1412.74 805.44 3284
1414.97 802.252 3271
1422.79 802.252 3271
1427.99 800.78 3265
1430.08 797.592 3252
1437.85 797.592 3252
1445.63 797.592 3252
1450.73 796.12 3246
1458.49 796.12 3246
1466.25 796.12 3246
1474.01 796.12 3246
1481.77 796.12 3246
1492.29 797.592 3252
1500.07 797.592 3252
1507.84 797.592 3252
1515.62 797.592 3252
1523.4 797.592 3252
1531.17 797.592 3252
1538.95 797.592 3252
1546.72 797.592 3252
1551.63 796.12 3246
1553.15 792.932 3233
1555.09 789.989 3221
1562.79 789.989 3221
1567.08 788.272 3214
1565.95 783.857 3196
1570.63 782.386 3190
1578.26 782.386 3190
1582.91 780.914 3184
1581.53 776.499 3166
1571.03 767.67 3130
1560.87 759.086 3095
1568.27 759.086 3095
1561.41 752.218 3067
1526.29 731.862 2984
1501.57 716.655 2922
1508.55 716.655 2922
1496.87 707.826 2886
1491.27 701.94 2862
1487.64 697.034 2842
1489.18 694.582 2832
1495.95 694.582 2832
1497.95 692.374 2823
1502.03 691.148 2818
1508.77 691.148 2818
1515.51 691.148 2818
1514.69 687.714 2804
1518.68 686.488 2799
1522.65 685.262 2794
1529.33 685.262 2794
1536.01 685.262 2794
1534.96 681.828 2780
1539.39 680.847 2776
1546.03 680.847 2776
1554.9 681.828 2780
1561.55 681.828 2780
1571.02 683.054 2785
1580.51 684.281 2790
1595.15 687.714 2804
1601.85 687.714 2804
1611.43 688.941 2809
1618.15 688.941 2809
1624.86 688.941 2809
2057.06 865.039 3527
2078.37 870.435 3549
2086.86 870.435 3549
2100.07 872.397 3557
2113.32 874.359 3565
2121.84 874.359 3565
2130.37 874.359 3565
2134.09 872.397 3557
2142.6 872.397 3557
2151.11 872.397 3557
2159.61 872.397 3557
2163.24 870.435 3549
2171.73 870.435 3549
2180.22 870.435 3549
2175.13 865.039 3527
2174.28 861.36 3512
2173.36 857.681 3497
2172.99 854.247 3483
2181.31 854.247 3483
2167.01 845.418 3447
2162 840.267 3426
2156.89 835.117 3405
2165.04 835.117 3405
2159.77 829.966 3384
2154.41 824.816 3363
2162.46 824.816 3363
2170.5 824.816 3363
2174.65 823.344 3357
2173.58 819.911 3343
2173.09 816.722 3330
2181.05 816.722 3330
2189.01 816.722 3330
2196.98 816.722 3330
2204.94 816.722 3330
2226.19 821.627 3350
2238.87 823.344 3357
2246.9 823.344 3357
2258.96 824.816 3363
2271.72 826.533 3370
2284.51 828.25 3377
2292.59 828.25 3377
2305.43 829.966 3384
2313.53 829.966 3384
2321.62 829.966 3384
2329.71 829.966 3384
2332.97 828.25 3377
2336.19 826.533 3370
2344.25 826.533 3370
2333.46 819.911 3343
2309.24 808.629 3297
2307.98 805.44 3284
2315.84 805.44 3284
2323.69 805.44 3284
2313.08 799.063 3258
2298.79 791.46 3227
2306.51 791.46 3227
2314.22 791.46 3227
2312.59 788.272 3214
2311.61 785.329 3202
2310.57 782.386 3190
2318.2 782.386 3190
2325.83 782.386 3190
2324.68 779.442 3178
2327.88 777.971 3172
2335.46 777.971 3172
2343.05 777.971 3172
2346.19 776.499 3166
2353.76 776.499 3166
2352.38 773.556 3154
2368.9 776.499 3166
2376.47 776.499 3166
2397.6 780.914 3184
2409.74 782.386 3190
2431.01 786.8 3208
2438.68 786.8 3208
2499.73 803.969 3278
2507.57 803.969 3278
-2596.58 858.876 3468
-2588.28 858.876 3468
-2579.99 858.876 3468
-2571.7 858.876 3468
-2579.67 864.324 3490
-2571.32 864.324 3490
-2579.13 869.773 3512
-2592.69 877.203 3542
-2589.33 878.936 3549
-2580.84 878.936 3549
-2589.03 884.632 3572
-2586.26 886.614 3580
-2577.7 886.614 3580
-2569.14 886.614 3580
-2560.58 886.614 3580
-2541.33 882.899 3565
-2532.8 882.899 3565
-2455.59 858.876 3468
-2452.95 860.857 3476
-2444.64 860.857 3476
-2436.32 860.857 3476
-2428.01 860.857 3476
-2404.38 855.409 3454
-2400.98 857.142 3461
-2392.7 857.142 3461
-2384.43 857.142 3461
-2376.15 857.142 3461
-2348.72 850.208 3433
-2340.51 850.208 3433
-2341.81 853.675 3447
-2333.57 853.675 3447
-2325.33 853.675 3447
-2326.49 857.142 3461
-2318.22 857.142 3461
-2349.32 871.754 3520
-2345.56 873.488 3527
-2341.76 875.221 3534
-2333.31 875.221 3534
-2330.12 877.203 3542
-2336.73 882.899 3565
-2328.2 882.899 3565
-2319.68 882.899 3565
-2311.15 882.899 3565
-2297.46 880.917 3557
-2288.96 880.917 3557
-2280.45 880.917 3557
-2271.94 880.917 3557
-2263.44 880.917 3557
-2260 882.899 3565
-2251.48 882.899 3565
-2242.95 882.899 3565
-2229.41 880.917 3557
-2220.91 880.917 3557
-2212.4 880.917 3557
-2203.9 880.917 3557
-2195.39 880.917 3557
-2186.88 880.917 3557
-2178.38 880.917 3557
-2151.57 873.488 3527
-2138.88 871.754 3520
-2130.47 871.754 3520
-2122.05 871.754 3520
-2108.83 869.773 3512
-2100.43 869.773 3512
-2070.59 860.857 3476
-2062.28 860.857 3476
-2053.96 860.857 3476
-2045.65 860.857 3476
-2037.34 860.857 3476
-2029.03 860.857 3476
-1995.72 850.208 3433
-1979.4 846.741 3419
-1967.19 845.007 3412
-1959.03 845.007 3412
-1950.87 845.007 3412
-1934.74 841.54 3398
-1922.65 839.806 3391
-1914.54 839.806 3391
-1898.56 836.339 3377
-1882.65 832.872 3363
-1874.6 832.872 3363
-1874.33 836.339 3377
-1866.26 836.339 3377
-1858.18 836.339 3377
-1850.11 836.339 3377
-1845.85 838.073 3384
-1837.76 838.073 3384
-1829.67 838.073 3384
-1821.57 838.073 3384
-1813.48 838.073 3384
-1801.65 836.339 3377
-1797.3 838.073 3384
-1792.91 839.806 3391
-1792.17 843.274 3405
-1784.02 843.274 3405
-1775.88 843.274 3405
-1778.64 848.474 3426
-1777.68 851.942 3440
-1769.46 851.942 3440
-1768.4 855.409 3454
-1767.27 858.876 3468
-1763.04 860.857 3476
-1754.73 860.857 3476
-1764.5 869.773 3512
-1756.1 869.773 3512
-1751.68 871.754 3520
-1743.27 871.754 3520
-1741.75 875.221 3534
-1733.3 875.221 3534
-1724.85 875.221 3534
-1723.68 878.936 3549
-1715.2 878.936 3549
-1710.56 880.917 3557
-1702.05 880.917 3557
-1693.54 880.917 3557
-1685.04 880.917 3557
-1503.16 850.208 3433
-1494.95 850.208 3433
-1492.8 853.675 3447
-1484.56 853.675 3447
-1476.32 853.675 3447
-1456.15 846.741 3419
-1439.08 841.54 3398
-1419.16 834.606 3370
-1411.1 834.606 3370
-1403.04 834.606 3370
-1394.98 834.606 3370
-1386.93 834.606 3370
-1378.87 834.606 3370
-1362.67 829.652 3350
-1354.66 829.652 3350
-1351.88 832.872 3363
-1343.84 832.872 3363
-1338.57 834.606 3370
-1341.57 841.54 3398
-1333.44 841.54 3398
-1325.32 841.54 3398
-1314.48 839.806 3391
-1306.37 839.806 3391
-1298.26 839.806 3391
-1290.15 839.806 3391
-1292.63 846.741 3419
-1284.45 846.741 3419
-1281.5 850.208 3433
-1291.84 862.591 3483
-1299.73 873.488 3527
-1291.29 873.488 3527
-1293.77 880.917 3557
-1290.68 884.632 3572
-1282.14 884.632 3572
-1287.51 894.291 3611
-1292.68 903.95 3650
-1283.95 903.95 3650
-1275.23 903.95 3650
-1266.5 903.95 3650
-1255.01 901.968 3642
-1238.43 896.272 3619
-1229.78 896.272 3619
-1218.43 894.291 3611
-1209.79 894.291 3611
-1201.16 894.291 3611
-1195.16 896.272 3619
-1186.51 896.272 3619
-1177.85 896.272 3619
-1169.2 896.272 3619
-1160.55 896.272 3619
-1151.89 896.272 3619
-1143.24 896.272 3619
-1137.09 898.254 3627
-1128.42 898.254 3627
-1119.74 898.254 3627
-1111.07 898.254 3627
-1102.4 898.254 3627
-1093.72 898.254 3627
-1082.66 896.272 3619
-1069.26 892.31 3603
-1060.64 892.31 3603
-1061.37 900.235 3635
-1052.68 900.235 3635
-1050.59 905.931 3658
-1046.68 910.141 3675
-1037.9 910.141 3675
-1029.11 910.141 3675
-1020.32 910.141 3675
-1011.53 910.141 3675
-1002.74 910.141 3675
-989.357 905.931 3658
-980.61 905.931 3658
-971.862 905.931 3658
-963.115 905.931 3658
-954.367 905.931 3658
-947.947 908.16 3667
-939.178 908.16 3667
-930.409 908.16 3667
-921.64 908.16 3667
-912.871 908.16 3667
-906.074 910.141 3675
-897.286 910.141 3675
-890.433 912.122 3683
-881.625 912.122 3683
-876.61 916.085 3699
-869.641 918.066 3707
-864.724 922.276 3724
-855.819 922.276 3724
-852.599 928.468 3749
-847.46 932.678 3766
-838.454 932.678 3766
-829.448 932.678 3766
-820.443 932.678 3766
-813.161 934.659 3774
-806.054 936.888 3783
-797.008 936.888 3783
-787.961 936.888 3783
-749.987 934.659 3774
-740.963 934.659 3774
-731.938 934.659 3774
-722.913 934.659 3774
-667.26 896.272 3619
-658.606 896.272 3619
-649.952 896.272 3619
-638.463 892.31 3603
-629.847 892.31 3603
-615.886 884.632 3572
-602.243 877.203 3542
-593.773 877.203 3542
-585.303 877.203 3542
-576.833 877.203 3542
-568.363 877.203 3542
-559.893 877.203 3542
-551.423 877.203 3542
-542.953 877.203 3542
-534.483 877.203 3542
-524.825 875.221 3534
-516.374 875.221 3534
-507.924 875.221 3534
-499.473 875.221 3534
-491.022 875.221 3534
-483.663 877.203 3542
-475.193 877.203 3542
-466.723 877.203 3542
-459.159 878.936 3549
-450.672 878.936 3549
-442.186 878.936 3549
-433.699 878.936 3549
-425.212 878.936 3549
-417.665 880.917 3557
-409.159 880.917 3557
-400.653 880.917 3557
-393.029 882.899 3565
-384.504 882.899 3565
-375.979 882.899 3565
-367.454 882.899 3565
-358.124 880.917 3557
-349.618 880.917 3557
-341.112 880.917 3557
-331.203 877.203 3542
-322.734 877.203 3542
-314.885 878.936 3549
-306.398 878.936 3549
-297.911 878.936 3549
-289.424 878.936 3549
-280.384 877.203 3542
-270.762 873.488 3527
-262.328 873.488 3527
-252.31 868.039 3505
-243.372 866.058 3497
-120.935 542.122 2189
-115.7 542.122 2189
-111.071 545.094 2201
-106.097 546.58 2207
-100.819 546.58 2207
-95.5413 546.58 2207
-90.2637 546.58 2207
-84.6395 544.351 2198
-79.3834 544.351 2198
-73.925 542.865 2192
-68.1506 538.655 2175
-62.8627 537.912 2172
-57.6688 537.912 2172
-52.3541 536.674 2167
-47.1068 535.931 2164
-41.932 535.931 2164
-36.7572 535.931 2164
-31.5825 535.931 2164
-26.4077 535.931 2164
-21.2035 535.188 2161
-16.0359 535.188 2161
-10.8682 535.188 2161
-5.69273 534.445 2158
-0.532296 534.445 2158
4.62814 534.445 2158
9.78857 534.445 2158
14.9282 533.702 2155
20.1094 534.445 2158
25.2699 534.445 2158
30.4303 534.445 2158
35.5907 534.445 2158
40.8078 535.188 2161
45.9754 535.188 2161
51.143 535.188 2161
56.3106 535.188 2161
61.3929 534.445 2158
66.5533 534.445 2158
71.7138 534.445 2158
143.399 878.936 3549
152.87 884.632 3572
161.412 884.632 3572
171.429 892.31 3603
181.244 898.254 3627
192.43 910.141 3675
201.218 910.141 3675
210.006 910.141 3675
578.03 936.888 3783
587.076 936.888 3783
596.123 936.888 3783
598.29 926.239 3740
607.234 926.239 3740
742.104 916.085 3699
750.949 916.085 3699
759.795 916.085 3699
768.64 916.085 3699
765.505 901.968 3642
774.214 901.968 3642
782.923 901.968 3642
793.371 903.95 3650
802.099 903.95 3650
810.828 903.95 3650
810.799 894.291 3611
808.995 882.899 3565
812.246 877.203 3542
820.716 877.203 3542
829.186 877.203 3542
837.656 877.203 3542
844.215 875.221 3534
852.666 875.221 3534
861.117 875.221 3534
869.567 875.221 3534
878.018 875.221 3534
888.476 877.203 3542
896.946 877.203 3542
905.416 877.203 3542
913.886 877.203 3542
922.356 877.203 3542
930.826 877.203 3542
933.462 871.754 3520
939.738 869.773 3512
950.296 871.754 3520
958.714 871.754 3520
967.131 871.754 3520
975.549 871.754 3520
981.73 869.773 3512
990.128 869.773 3512
998.526 869.773 3512
1006.92 869.773 3512
1015.32 869.773 3512
1021.68 868.039 3505
1030.06 868.039 3505
1034 864.324 3490
1042.35 864.324 3490
1052.8 866.058 3497
1063.59 868.039 3505
1071.97 868.039 3505
1080.35 868.039 3505
1090.91 869.773 3512
1099.31 869.773 3512
1107.7 869.773 3512
1118.64 871.754 3520
1127.06 871.754 3520
1135.48 871.754 3520
1141.3 869.773 3512
1149.69 869.773 3512
1163.04 873.488 3527
1173.8 875.221 3534
1182.25 875.221 3534
1190.7 875.221 3534
1199.15 875.221 3534
1207.6 875.221 3534
1216.05 875.221 3534
1224.5 875.221 3534
1235.75 877.203 3542
1244.22 877.203 3542
1252.69 877.203 3542
1261.16 877.203 3542
1269.63 877.203 3542
1280.62 878.936 3549
1297.46 884.632 3572
1306 884.632 3572
1323.01 890.328 3595
1331.61 890.328 3595
1340.2 890.328 3595
1348.8 890.328 3595
1363.44 894.291 3611
1372.07 894.291 3611
1380.71 894.291 3611
1389.34 894.291 3611
1394.88 892.31 3603
1391.42 884.632 3572
1399.96 884.632 3572
1393.52 875.221 3534
1399.19 873.488 3527
1395.66 866.058 3497
1395.59 860.857 3476
1403.9 860.857 3476
1386.21 845.007 3412
1385.79 839.806 3391
1382.39 832.872 3363
1390.43 832.872 3363
1384.75 824.699 3330
1389.78 822.966 3323
1397.73 822.966 3323
1405.68 822.966 3323
1402.56 816.527 3297
1407.45 814.793 3290
1412.74 813.307 3284
1417.99 811.821 3278
1425.83 811.821 3278
1427.99 808.602 3265
1430.08 805.382 3252
1437.85 805.382 3252
1445.63 805.382 3252
1453.41 805.382 3252
1458.49 803.896 3246
1466.25 803.896 3246
1474.01 803.896 3246
1481.77 803.896 3246
1492.29 805.382 3252
1500.07 805.382 3252
1507.84 805.382 3252
1515.62 805.382 3252
1520.58 803.896 3246
1528.35 803.896 3246
1536.11 803.896 3246
1543.87 803.896 3246
1551.63 803.896 3246
1553.15 800.677 3233
1555.09 797.705 3221
1562.79 797.705 3221
1567.08 795.971 3214
1565.95 791.513 3196
1570.63 790.027 3190
1578.26 790.027 3190
1582.91 788.541 3184
1581.53 784.083 3166
1571.03 775.168 3130
1560.87 766.5 3095
1568.27 766.5 3095
1561.41 759.565 3067
1526.29 739.01 2984
1495.91 720.931 2911
1502.88 720.931 2911
1496.87 714.739 2886
1488.66 707.557 2857
1485.02 702.604 2837
1489.18 701.366 2832
1495.95 701.366 2832
1497.95 699.137 2823
1502.03 697.899 2818
1506.09 696.66 2813
1512.82 696.66 2813
1514.69 694.431 2804
1518.68 693.193 2799
1522.65 691.955 2794
1529.33 691.955 2794
1533.81 690.964 2790
1534.96 688.488 2780
1539.39 687.497 2776
1546.03 687.497 2776
1557.7 689.726 2785
1564.36 689.726 2785
1571.02 689.726 2785
1580.51 690.964 2790
1587.18 690.964 2790
1593.86 690.964 2790
1600.53 690.964 2790
1604.32 689.726 2785
1610.98 689.726 2785
2057.06 873.488 3527
2078.37 878.936 3549
2086.86 878.936 3549
2100.07 880.917 3557
2113.32 882.899 3565
2121.84 882.899 3565
2130.37 882.899 3565
2134.09 880.917 3557
2142.6 880.917 3557
2151.11 880.917 3557
2159.61 880.917 3557
2163.24 878.936 3549
2167.45 877.203 3542
2175.92 877.203 3542
2165.88 869.773 3512
2165 866.058 3497
2169.01 864.324 3490
2168.62 860.857 3476
2176.93 860.857 3476
2153.81 848.474 3426
2148.75 843.274 3405
2143.59 838.073 3384
2151.68 838.073 3384
2142.54 831.386 3357
2141.6 827.919 3343
2149.6 827.919 3343
2157.59 827.919 3343
2157.16 824.699 3330
2156.67 821.48 3317
2155.47 818.013 3303
2172.54 821.48 3317
2180.47 821.48 3317
2188.4 821.48 3317
2196.33 821.48 3317
2221.54 827.919 3343
2238.87 831.386 3357
2246.9 831.386 3357
2258.96 832.872 3363
2271.72 834.606 3370
2284.51 836.339 3377
2292.59 836.339 3377
2305.43 838.073 3384
2313.53 838.073 3384
2321.62 838.073 3384
2329.71 838.073 3384
2328.13 834.606 3370
2327.18 831.386 3357
2335.2 831.386 3357
2329.27 826.433 3337
2304.33 814.793 3290
2307.98 813.307 3284
2302.44 808.602 3265
2310.25 808.602 3265
2313.08 806.868 3258
2298.79 799.191 3227
2302.22 797.705 3221
2309.92 797.705 3221
2312.59 795.971 3214
2311.61 792.999 3202
2310.57 790.027 3190
2318.2 790.027 3190
2325.83 790.027 3190
2324.68 787.055 3178
2327.88 785.569 3172
2335.46 785.569 3172
2343.05 785.569 3172
2346.19 784.083 3166
2353.76 784.083 3166
2352.38 781.112 3154
2368.9 784.083 3166
2376.47 784.083 3166
2397.6 788.541 3184
2409.74 790.027 3190
2431.01 794.485 3208
2438.68 794.485 3208
2494.4 810.087 3271
2502.22 810.087 3271
-2580.85 861.932 3447
-2572.61 861.932 3447
-2564.37 861.932 3447
-2556.12 861.932 3447
-2563.4 867.184 3468
-2555.11 867.184 3468
-2568.12 874.435 3497
-2592.69 885.688 3542
-2589.33 887.438 3549
-2580.84 887.438 3549
-2589.03 893.189 3572
-2586.26 895.19 3580
-2577.7 895.19 3580
-2569.14 895.19 3580
-2560.58 895.19 3580
-2541.33 891.439 3565
-2532.8 891.439 3565
-2455.59 867.184 3468
-2442.36 865.433 3461
-2434.09 865.433 3461
-2425.81 865.433 3461
-2412.64 863.683 3454
-2380.02 854.931 3419
-2400.98 865.433 3461
-2392.7 865.433 3461
-2384.43 865.433 3461
-2376.15 865.433 3461
-2348.72 858.432 3433
-2340.51 858.432 3433
-2332.3 858.432 3433
-2324.09 858.432 3433
-2315.88 858.432 3433
-2317.08 861.932 3447
-2308.84 861.932 3447
-2349.32 880.186 3520
-2345.56 881.937 3527
-2341.76 883.687 3534
-2333.31 883.687 3534
-2339.99 889.438 3557
-2336.73 891.439 3565
-2328.2 891.439 3565
-2319.68 891.439 3565
-2311.15 891.439 3565
-2302.63 891.439 3565
-2294.1 891.439 3565
-2280.45 889.438 3557
-2271.94 889.438 3557
-2263.44 889.438 3557
-2260 891.439 3565
-2251.48 891.439 3565
-2242.95 891.439 3565
-2229.41 889.438 3557
-2220.91 889.438 3557
-2212.4 889.438 3557
-2203.9 889.438 3557
-2195.39 889.438 3557
-2186.88 889.438 3557
-2178.38 889.438 3557
-2147.3 880.186 3520
-2138.88 880.186 3520
-2130.47 880.186 3520
-2122.05 880.186 3520
-2108.83 878.186 3512
-2100.43 878.186 3512
-2070.59 869.184 3476
-2062.28 869.184 3476
-2053.96 869.184 3476
-2045.65 869.184 3476
-2032.65 867.184 3468
-2024.36 867.184 3468
-1995.72 858.432 3433
-1975.35 853.181 3412
-1959.12 849.68 3398
-1950.99 849.68 3398
-1942.87 849.68 3398
-1934.74 849.68 3398
-1922.65 847.93 3391
-1914.54 847.93 3391
-1902.49 846.179 3384
-1882.65 840.928 3363
-1871.26 839.428 3357
-1866.56 840.928 3363
-1858.52 840.928 3363
-1850.48 840.928 3363
-1842.44 840.928 3363
-1838.21 842.678 3370
-1830.15 842.678 3370
-1829.67 846.179 3384
-1821.57 846.179 3384
-1813.48 846.179 3384
-1801.65 844.429 3377
-1793.58 844.429 3377
-1789.2 846.179 3384
-1781.11 846.179 3384
-1780.36 849.68 3398
-1772.23 849.68 3398
-1775.01 854.931 3419
-1770.45 856.681 3426
-1762.26 856.681 3426
-1754.06 856.681 3426
-1763.71 865.433 3461
-1763.04 869.184 3476
-1754.73 869.184 3476
-1746.41 869.184 3476
-1748.6 874.435 3497
-1747.7 878.186 3512
-1739.31 878.186 3512
-1730.91 878.186 3512
-1722.51 878.186 3512
-1714.11 878.186 3512
-1705.71 878.186 3512
-1693.93 876.436 3505
-1685.55 876.436 3505
-1677.17 876.436 3505
-1668.79 876.436 3505
-1503.16 858.432 3433
-1494.95 858.432 3433
-1486.74 858.432 3433
-1472.5 854.931 3419
-1464.32 854.931 3419
-1444.22 847.93 3391
-1430.18 844.429 3377
-1419.16 842.678 3370
-1411.1 842.678 3370
-1403.04 842.678 3370
-1394.98 842.678 3370
-1386.93 842.678 3370
-1378.87 842.678 3370
-1365.52 839.428 3357
-1357.49 839.428 3357
-1351.88 840.928 3363
-1355.02 847.93 3391
-1346.92 847.93 3391
-1341.57 849.68 3398
-1333.44 849.68 3398
-1325.32 849.68 3398
-1317.19 849.68 3398
-1306.37 847.93 3391
-1298.26 847.93 3391
-1295.48 851.43 3405
-1287.34 851.43 3405
-1279.19 851.43 3405
-1276.28 854.931 3419
-1275.89 860.182 3440
-1286.09 872.685 3490
-1277.74 872.685 3490
-1282.86 881.937 3527
-1288.15 891.439 3565
-1282.14 893.189 3572
-1284.65 900.941 3603
-1284.54 906.942 3627
-1281.14 910.693 3642
-1272.43 910.693 3642
-1263.72 910.693 3642
-1249.84 906.942 3627
-1235.7 902.941 3611
-1227.06 902.941 3611
-1210.66 897.19 3588
-1202.08 897.19 3588
-1195.83 898.94 3595
-1189.88 900.941 3603
-1181.26 900.941 3603
-1175.25 902.941 3611
-1169.2 904.942 3619
-1160.55 904.942 3619
-1151.89 904.942 3619
-1143.24 904.942 3619
-1137.09 906.942 3627
-1128.42 906.942 3627
-1119.74 906.942 3627
-1111.07 906.942 3627
-1102.4 906.942 3627
-1093.72 906.942 3627
-1082.66 904.942 3619
-1069.26 900.941 3603
-1058.29 898.94 3595
-1061.37 908.942 3635
-1052.68 908.942 3635
-1050.59 914.694 3658
-1046.68 918.945 3675
-1037.9 918.945 3675
-1029.11 918.945 3675
-1020.32 918.945 3675
-1011.53 918.945 3675
-1002.74 918.945 3675
-989.357 914.694 3658
-980.61 914.694 3658
-971.862 914.694 3658
-963.115 914.694 3658
-954.367 914.694 3658
-947.947 916.944 3667
-939.178 916.944 3667
-930.409 916.944 3667
-921.64 916.944 3667
-910.63 914.694 3658
-904.102 916.944 3667
-895.333 916.944 3667
-886.564 916.944 3667
-877.795 916.944 3667
-876.61 924.946 3699
-869.641 926.946 3707
-860.777 926.946 3707
-851.912 926.946 3707
-848.733 933.198 3732
-845.435 939.449 3757
-836.45 939.449 3757
-827.466 939.449 3757
-818.482 939.449 3757
-811.437 941.699 3766
-806.054 945.95 3783
-797.008 945.95 3783
-787.961 945.95 3783
-634.687 883.687 3534
-626.236 883.687 3534
-617.785 883.687 3534
-609.334 883.687 3534
-598.503 880.186 3520
-588.744 878.186 3512
-580.346 878.186 3512
-571.948 878.186 3512
-563.549 878.186 3512
-556.416 880.186 3520
-547.998 880.186 3520
-539.581 880.186 3520
-531.164 880.186 3520
-522.746 880.186 3520
-513.16 878.186 3512
-505.911 880.186 3520
-497.494 880.186 3520
-491.022 883.687 3534
-483.663 885.688 3542
-475.193 885.688 3542
-466.723 885.688 3542
-459.159 887.438 3549
-450.672 887.438 3549
-442.186 887.438 3549
-433.699 887.438 3549
-425.212 887.438 3549
-418.604 891.439 3565
-410.884 893.189 3572
-402.343 893.189 3572
-393.801 893.189 3572
-385.259 893.189 3572
-376.717 893.189 3572
-368.176 893.189 3572
-359.634 893.189 3572
-349.618 889.438 3557
-341.112 889.438 3557
-331.858 887.438 3549
-323.371 887.438 3549
-314.885 887.438 3549
-306.398 887.438 3549
-297.911 887.438 3549
-289.424 887.438 3549
-279.75 883.687 3534
-270.762 881.937 3527
-262.328 881.937 3527
-252.31 876.436 3505
-243.372 874.435 3497
-120.935 547.366 2189
-115.7 547.366 2189
-110.769 548.866 2195
-105.52 548.866 2195
-100.271 548.866 2195
-95.0218 548.866 2195
-89.7729 548.866 2195
-84.4085 548.116 2192
-79.1667 548.116 2192
-73.6552 546.116 2184
-68.1506 543.865 2175
-62.7758 542.365 2169
-57.5891 542.365 2169
-52.3541 541.865 2167
-47.1068 541.115 2164
-41.8739 540.364 2161
-36.7063 540.364 2161
-31.5387 540.364 2161
-26.3711 540.364 2161
-21.174 539.614 2158
-16.0136 539.614 2158
-10.8532 539.614 2158
-5.69273 539.614 2158
-0.532296 539.614 2158
4.62814 539.614 2158
9.77496 538.864 2155
14.9282 538.864 2155
20.1094 539.614 2158
25.2699 539.614 2158
30.4303 539.614 2158
35.5907 539.614 2158
40.8078 540.364 2161
45.9754 540.364 2161
51.143 540.364 2161
56.3106 540.364 2161
61.3929 539.614 2158
66.5533 539.614 2158
71.7138 539.614 2158
143.399 887.438 3549
152.87 893.189 3572
161.412 893.189 3572
171.429 900.941 3603
180.044 900.941 3603
188.66 900.941 3603
197.276 900.941 3603
665.308 809.922 3239
698.82 840.928 3363
706.862 840.928 3363
714.904 840.928 3363
722.946 840.928 3363
738.596 849.68 3398
751.336 854.931 3419
770.397 867.184 3468
782.058 870.934 3483
790.387 870.934 3483
798.716 870.934 3483
807.045 870.934 3483
818.651 874.435 3497
827.014 874.435 3497
835.376 874.435 3497
843.739 874.435 3497
854.05 876.436 3505
862.432 876.436 3505
870.813 876.436 3505
879.195 876.436 3505
889.349 878.186 3512
897.747 878.186 3512
906.145 878.186 3512
914.544 878.186 3512
922.942 878.186 3512
929.484 876.436 3505
933.852 872.685 3490
948.137 878.186 3512
956.535 878.186 3512
964.933 878.186 3512
969.174 874.435 3497
975.58 872.685 3490
983.926 872.685 3490
994.261 874.435 3497
1002.62 874.435 3497
1010.99 874.435 3497
1017.31 872.685 3490
1025.65 872.685 3490
1034 872.685 3490
1042.35 872.685 3490
1050.69 872.685 3490
1063.59 876.436 3505
1071.97 876.436 3505
1080.35 876.436 3505
1090.91 878.186 3512
1099.31 878.186 3512
1107.7 878.186 3512
1118.64 880.186 3520
1127.06 880.186 3520
1135.48 880.186 3520
1141.3 878.186 3512
1149.69 878.186 3512
1163.04 881.937 3527
1173.8 883.687 3534
1182.25 883.687 3534
1190.7 883.687 3534
1199.15 883.687 3534
1207.6 883.687 3534
1216.05 883.687 3534
1224.5 883.687 3534
1235.75 885.688 3542
1244.22 885.688 3542
1252.69 885.688 3542
1261.16 885.688 3542
1269.63 885.688 3542
1280.62 887.438 3549
1294.92 891.439 3565
1303.44 891.439 3565
1320.43 897.19 3588
1329.01 897.19 3588
1340.2 898.94 3595
1348.8 898.94 3595
1360.42 900.941 3603
1369.03 900.941 3603
1377.65 900.941 3603
1386.27 900.941 3603
1391.78 898.94 3595
1391.42 893.189 3572
1399.96 893.189 3572
1390.76 881.937 3527
1396.42 880.186 3520
1395.66 874.435 3497
1392.38 867.184 3468
1400.67 867.184 3468
1383.37 851.43 3405
1382.93 846.179 3384
1379.92 839.428 3357
1387.95 839.428 3357
1384.75 832.676 3330
1389.78 830.926 3323
1392.26 827.675 3310
1400.18 827.675 3310
1405.11 825.925 3303
1410.45 824.425 3297
1412.74 821.174 3284
1417.99 819.674 3278
1425.83 819.674 3278
1427.99 816.423 3265
1430.08 813.172 3252
1437.85 813.172 3252
1445.63 813.172 3252
1453.41 813.172 3252
1458.49 811.672 3246
1466.25 811.672 3246
1474.01 811.672 3246
1481.77 811.672 3246
1492.29 813.172 3252
1500.07 813.172 3252
1507.84 813.172 3252
1515.62 813.172 3252
1520.58 811.672 3246
1528.35 811.672 3246
1536.11 811.672 3246
1543.87 811.672 3246
1551.63 811.672 3246
1553.15 808.421 3233
1555.09 805.421 3221
1562.79 805.421 3221
1567.08 803.67 3214
1565.95 799.169 3196
1570.63 797.669 3190
1578.26 797.669 3190
1582.91 796.169 3184
1581.53 791.668 3166
1571.03 782.666 3130
1560.87 773.914 3095
1568.27 773.914 3095
1561.41 766.912 3067
1526.29 746.158 2984
1495.91 727.904 2911
1502.88 727.904 2911
1496.87 721.653 2886
1488.66 714.401 2857
1487.64 710.65 2842
1491.81 709.4 2837
1498.59 709.4 2837
1497.95 705.899 2823
1502.03 704.649 2818
1506.09 703.399 2813
1512.82 703.399 2813
1514.69 701.148 2804
1518.68 699.898 2799
1522.65 698.648 2794
1529.33 698.648 2794
1533.81 697.648 2790
1534.96 695.147 2780
1539.39 694.147 2776
1546.03 694.147 2776
1557.7 696.397 2785
1564.36 696.397 2785
1571.02 696.397 2785
1580.51 697.648 2790
1587.18 697.648 2790
1593.86 697.648 2790
1600.53 697.648 2790
1604.32 696.397 2785
1610.98 696.397 2785
2057.06 881.937 3527
2078.37 887.438 3549
2086.86 887.438 3549
2100.07 889.438 3557
2113.32 891.439 3565
2121.84 891.439 3565
2130.37 891.439 3565
2134.09 889.438 3557
2142.6 889.438 3557
2151.11 889.438 3557
2159.61 889.438 3557
2163.24 887.438 3549
2167.45 885.688 3542
2175.92 885.688 3542
2165.88 878.186 3512
2165 874.435 3497
2169.01 872.685 3490
2168.62 869.184 3476
2176.93 869.184 3476
2153.81 856.681 3426
2148.75 851.43 3405
2143.59 846.179 3384
2151.68 846.179 3384
2142.54 839.428 3357
2141.6 835.927 3343
2149.6 835.927 3343
2157.59 835.927 3343
2157.16 832.676 3330
2156.67 829.426 3317
2155.47 825.925 3303
2172.54 829.426 3317
2180.47 829.426 3317
2188.4 829.426 3317
2196.33 829.426 3317
2221.54 835.927 3343
2238.87 839.428 3357
2246.9 839.428 3357
2258.96 840.928 3363
2271.72 842.678 3370
2284.51 844.429 3377
2292.59 844.429 3377
2305.43 846.179 3384
2313.53 846.179 3384
2321.62 846.179 3384
2329.71 846.179 3384
2328.13 842.678 3370
2327.18 839.428 3357
2335.2 839.428 3357
2329.27 834.427 3337
2304.33 822.674 3290
2307.98 821.174 3284
2302.44 816.423 3265
2310.25 816.423 3265
2313.08 814.672 3258
2298.79 806.921 3227
2302.22 805.421 3221
2309.92 805.421 3221
2312.59 803.67 3214
2311.61 800.67 3202
2310.57 797.669 3190
2318.2 797.669 3190
2325.83 797.669 3190
2324.68 794.668 3178
2327.88 793.168 3172
2335.46 793.168 3172
2343.05 793.168 3172
2346.19 791.668 3166
2353.76 791.668 3166
2352.38 788.667 3154
2368.9 791.668 3166
2376.47 791.668 3166
2397.6 796.169 3184
2414.27 799.169 3196
2435.56 803.67 3214
2443.24 803.67 3214
2494.4 817.923 3271
2502.22 817.923 3271
-2580.85 870.19 3447
-2572.61 870.19 3447
-2564.37 870.19 3447
-2556.12 870.19 3447
-2563.4 875.491 3468
-2555.11 875.491 3468
-2568.12 882.812 3497
-2592.69 894.172 3542
-2589.33 895.94 3549
-2580.84 895.94 3549
-2589.03 901.746 3572
-2586.26 903.765 3580
-2577.7 903.765 3580
-2569.14 903.765 3580
-2560.58 903.765 3580
-2541.33 899.979 3565
-2532.8 899.979 3565
-2455.59 875.491 3468
-2442.36 873.724 3461
-2434.09 873.724 3461
-2425.81 873.724 3461
-2412.64 871.957 3454
-2404.38 871.957 3454
-2405.84 875.491 3468
-2407.91 879.278 3483
-2399.58 879.278 3483
-2391.26 879.278 3483
-2367.88 873.724 3461
-2359.6 873.724 3461
-2341.81 870.19 3447
-2324.09 866.656 3433
-2315.88 866.656 3433
-2326.49 873.724 3461
-2318.22 873.724 3461
-2353.99 890.386 3527
-2355.53 894.172 3542
-2351.7 895.94 3549
-2343.21 895.94 3549
-2345.25 899.979 3565
-2341.32 901.746 3572
-2332.77 901.746 3572
-2324.23 901.746 3572
-2315.69 901.746 3572
-2302.63 899.979 3565
-2294.1 899.979 3565
-2280.45 897.959 3557
-2271.94 897.959 3557
-2263.44 897.959 3557
-2260 899.979 3565
-2251.48 899.979 3565
-2242.95 899.979 3565
-2229.41 897.959 3557
-2220.91 897.959 3557
-2212.4 897.959 3557
-2203.9 897.959 3557
-2195.39 897.959 3557
-2186.88 897.959 3557
-2178.38 897.959 3557
-2147.3 888.619 3520
-2138.88 888.619 3520
-2130.47 888.619 3520
-2122.05 888.619 3520
-2108.83 886.599 3512
-2100.43 886.599 3512
-2070.59 877.511 3476
-2062.28 877.511 3476
-2053.96 877.511 3476
-2045.65 877.511 3476
-2032.65 875.491 3468
-2024.36 875.491 3468
-1995.72 866.656 3433
-1975.35 861.354 3412
-1959.12 857.82 3398
-1950.99 857.82 3398
-1942.87 857.82 3398
-1934.74 857.82 3398
-1922.65 856.053 3391
-1914.54 856.053 3391
-1902.49 854.286 3384
-1882.65 848.984 3363
-1871.26 847.469 3357
-1866.56 848.984 3363
-1858.52 848.984 3363
-1850.48 848.984 3363
-1842.44 848.984 3363
-1838.21 850.751 3370
-1830.15 850.751 3370
-1829.67 854.286 3384
-1821.57 854.286 3384
-1813.48 854.286 3384
-1801.65 852.518 3377
-1793.58 852.518 3377
-1789.2 854.286 3384
-1781.11 854.286 3384
-1780.36 857.82 3398
-1772.23 857.82 3398
-1775.01 863.121 3419
-1770.45 864.888 3426
-1762.26 864.888 3426
-1754.06 864.888 3426
-1763.71 873.724 3461
-1763.04 877.511 3476
-1754.73 877.511 3476
-1746.41 877.511 3476
-1748.6 882.812 3497
-1747.7 886.599 3512
-1739.31 886.599 3512
-1730.91 886.599 3512
-1722.51 886.599 3512
-1714.11 886.599 3512
-1705.71 886.599 3512
-1693.93 884.832 3505
-1685.55 884.832 3505
-1677.17 884.832 3505
-1668.79 884.832 3505
-1459.45 850.751 3370
-1451.4 850.751 3370
-1443.34 850.751 3370
-1421.22 842.42 3337
-1413.24 842.42 3337
-1407.79 843.935 3343
-1399.8 843.935 3343
-1391.8 843.935 3343
-1394.98 850.751 3370
-1386.93 850.751 3370
-1378.87 850.751 3370
-1365.52 847.469 3357
-1357.49 847.469 3357
-1351.88 848.984 3363
-1355.02 856.053 3391
-1346.92 856.053 3391
-1341.57 857.82 3398
-1333.44 857.82 3398
-1325.32 857.82 3398
-1317.19 857.82 3398
-1306.37 856.053 3391
-1298.26 856.053 3391
-1295.48 859.587 3405
-1287.34 859.587 3405
-1279.19 859.587 3405
-1271.05 859.587 3405
-1273.3 866.656 3433
-1277.98 875.491 3468
-1269.69 875.491 3468
-1269.4 881.045 3490
-1274.42 890.386 3527
-1282.14 901.746 3572
-1273.6 901.746 3572
-1281.7 913.611 3619
-1273.05 913.611 3619
-1264.4 913.611 3619
-1255.74 913.611 3619
-1247.09 913.611 3619
-1227.82 905.785 3588
-1219.24 905.785 3588
-1205.27 901.746 3572
-1199.4 903.765 3580
-1193.5 905.785 3588
-1187.24 907.552 3595
-1178.64 907.552 3595
-1170.04 907.552 3595
-1166.62 911.591 3611
-1157.98 911.591 3611
-1149.35 911.591 3611
-1140.71 911.591 3611
-1137.09 915.631 3627
-1128.42 915.631 3627
-1119.74 915.631 3627
-1111.07 915.631 3627
-1102.4 915.631 3627
-1093.72 915.631 3627
-1080.27 911.591 3611
-1066.88 907.552 3595
-1056.22 905.785 3588
-1052.02 909.572 3603
-1043.41 909.572 3603
-1045.99 919.417 3642
-1044.4 925.729 3667
-1035.64 925.729 3667
-1026.87 925.729 3667
-1015.6 923.456 3658
-1004.65 921.437 3650
-995.922 921.437 3650
-987.193 921.437 3650
-978.465 921.437 3650
-969.737 921.437 3650
-963.115 923.456 3658
-954.367 923.456 3658
-945.62 923.456 3658
-936.873 923.456 3658
-928.125 923.456 3658
-919.378 923.456 3658
-910.63 923.456 3658
-901.883 923.456 3658
-893.136 923.456 3658
-884.388 923.456 3658
-875.641 923.456 3658
-874.714 931.787 3691
-867.765 933.807 3699
-858.919 933.807 3699
-850.074 933.807 3699
-845.094 938.098 3716
-839.809 942.138 3732
-830.884 942.138 3732
-821.96 942.138 3732
-813.036 942.138 3732
-798.725 935.826 3707
-789.86 935.826 3707
-780.996 935.826 3707
-772.131 935.826 3707
-632.172 888.619 3520
-623.755 888.619 3520
-615.337 888.619 3520
-606.92 888.619 3520
-593.402 881.045 3490
-583.883 879.278 3483
-576.711 881.045 3490
-571.948 886.599 3512
-563.549 886.599 3512
-555.151 886.599 3512
-546.753 886.599 3512
-538.355 886.599 3512
-529.956 886.599 3512
-521.558 886.599 3512
-513.16 886.599 3512
-504.762 886.599 3512
-496.363 886.599 3512
-489.077 888.619 3520
-483.663 894.172 3542
-475.193 894.172 3542
-466.723 894.172 3542
-459.159 895.94 3549
-450.672 895.94 3549
-443.182 897.959 3557
-434.676 897.959 3557
-426.171 897.959 3557
-419.426 901.746 3572
-410.884 901.746 3572
-402.343 901.746 3572
-394.683 903.765 3580
-386.122 903.765 3580
-377.561 903.765 3580
-369 903.765 3580
-359.634 901.746 3572
-350.404 899.979 3565
-341.879 899.979 3565
-332.606 897.959 3557
-324.1 897.959 3557
-314.885 895.94 3549
-306.398 895.94 3549
-297.911 895.94 3549
-289.424 895.94 3549
-279.75 892.153 3534
-270.225 888.619 3520
-261.807 888.619 3520
-252.31 884.832 3505
-243.372 882.812 3497
-120.935 552.61 2189
-115.7 552.61 2189
-110.617 553.367 2192
-105.375 553.367 2192
-100.134 553.367 2192
-94.8919 553.367 2192
-89.6502 553.367 2192
-84.1004 551.347 2184
-78.8778 551.347 2184
-73.4528 549.833 2178
-68.0566 548.318 2172
-62.718 547.056 2167
-57.536 547.056 2167
-52.2816 546.298 2164
-47.0415 545.541 2161
-41.8158 544.784 2158
-36.6553 544.784 2158
-31.4949 544.784 2158
-26.3345 544.784 2158
-21.174 544.784 2158
-16.0136 544.784 2158
-10.8532 544.784 2158
-5.68481 544.026 2155
-0.531556 544.026 2155
4.6217 544.026 2155
9.77496 544.026 2155
14.9144 543.522 2153
20.0815 544.026 2155
25.2699 544.784 2158
30.4303 544.784 2158
35.5907 544.784 2158
40.8078 545.541 2161
45.9754 545.541 2161
51.143 545.541 2161
56.3106 545.541 2161
61.3929 544.784 2158
66.5533 544.784 2158
71.7138 544.784 2158
143.116 894.172 3542
151.886 895.94 3549
160.373 895.94 3549
170.334 903.765 3580
179.645 907.552 3595
188.241 907.552 3595
196.838 907.552 3595
623.335 784.357 3107
639.088 794.708 3148
665.308 817.681 3239
673.054 817.681 3239
680.799 817.681 3239
684.718 813.136 3221
692.42 813.136 3221
700.123 813.136 3221
710.462 816.166 3233
718.193 816.166 3233
725.924 816.166 3233
727.982 809.855 3208
738.635 813.136 3221
756.532 824.244 3265
768.788 829.041 3284
776.641 829.041 3284
833.704 881.045 3490
842.05 881.045 3490
850.395 881.045 3490
858.741 881.045 3490
867.087 881.045 3490
875.432 881.045 3490
883.778 881.045 3490
892.123 881.045 3490
900.469 881.045 3490
906.992 879.278 3483
915.321 879.278 3483
919.672 875.491 3468
927.965 875.491 3468
940.308 879.278 3483
948.636 879.278 3483
956.965 879.278 3483
963.354 877.511 3476
967.473 873.724 3461
977.723 875.491 3468
990.281 879.278 3483
998.61 879.278 3483
1006.94 879.278 3483
1015.27 879.278 3483
1023.6 879.278 3483
1031.93 879.278 3483
1040.25 879.278 3483
1050.69 881.045 3490
1061.16 882.812 3497
1069.52 882.812 3497
1080.35 884.832 3505
1088.73 884.832 3505
1099.31 886.599 3512
1107.7 886.599 3512
1116.1 886.599 3512
1124.5 886.599 3512
1132.9 886.599 3512
1141.3 886.599 3512
1149.69 886.599 3512
1163.04 890.386 3527
1173.8 892.153 3534
1182.25 892.153 3534
1190.7 892.153 3534
1196.78 890.386 3527
1205.21 890.386 3527
1216.05 892.153 3534
1224.5 892.153 3534
1232.95 892.153 3534
1241.41 892.153 3534
1252.69 894.172 3542
1261.16 894.172 3542
1269.63 894.172 3542
1280.62 895.94 3549
1294.92 899.979 3565
1303.44 899.979 3565
1314.55 901.746 3572
1326.05 903.765 3580
1337.59 905.785 3588
1346.17 905.785 3588
1354.75 905.785 3588
1365.99 907.552 3595
1374.59 907.552 3595
1383.19 907.552 3595
1385.98 903.765 3580
1388.69 899.979 3565
1397.22 899.979 3565
1388 888.619 3520
1387.29 882.812 3497
1392.86 881.045 3490
1386.75 871.957 3454
1395.01 871.957 3454
1377.68 856.053 3391
1380.07 852.518 3377
1377.04 845.702 3350
1385.05 845.702 3350
1384.75 840.653 3330
1387.27 837.372 3317
1392.26 835.604 3310
1400.18 835.604 3310
1405.11 833.837 3303
1410.45 832.323 3297
1412.74 829.041 3284
1417.99 827.526 3278
1425.83 827.526 3278
1427.99 824.244 3265
1430.08 820.962 3252
1437.85 820.962 3252
1445.63 820.962 3252
1453.41 820.962 3252
1458.49 819.448 3246
1466.25 819.448 3246
1474.01 819.448 3246
1481.77 819.448 3246
1492.29 820.962 3252
1500.07 820.962 3252
1507.84 820.962 3252
1515.62 820.962 3252
1520.58 819.448 3246
1528.35 819.448 3246
1536.11 819.448 3246
1543.87 819.448 3246
1548.29 817.681 3239
1553.15 816.166 3233
1555.09 813.136 3221
1562.79 813.136 3221
1564.15 809.855 3208
1565.95 806.825 3196
1570.63 805.311 3190
1578.26 805.311 3190
1582.91 803.796 3184
1581.53 799.252 3166
1571.03 790.164 3130
1560.87 781.328 3095
1568.27 781.328 3095
1558.36 772.745 3061
1523.74 752.044 2979
1495.91 734.877 2911
1502.88 734.877 2911
1496.87 728.566 2886
1488.66 721.245 2857
1487.64 717.458 2842
1491.81 716.196 2837
1498.59 716.196 2837
1495.29 711.4 2818
1499.37 710.138 2813
1503.95 709.128 2809
1510.67 709.128 2809
1511.99 706.603 2799
1515.97 705.341 2794
1522.65 705.341 2794
1529.33 705.341 2794
1533.81 704.331 2790
1534.96 701.807 2780
1539.39 700.797 2776
1546.03 700.797 2776
1557.7 703.069 2785
1564.36 703.069 2785
1571.02 703.069 2785
1580.51 704.331 2790
1587.18 704.331 2790
1593.86 704.331 2790
1597.66 703.069 2785
1604.32 703.069 2785
1610.98 703.069 2785
2078.37 895.94 3549
2086.86 895.94 3549
2100.07 897.959 3557
2113.32 899.979 3565
2121.84 899.979 3565
2130.37 899.979 3565
2134.09 897.959 3557
2142.6 897.959 3557
2151.11 897.959 3557
2154.76 895.94 3549
2163.24 895.94 3549
2167.45 894.172 3542
2175.92 894.172 3542
2161.57 884.832 3505
2160.66 881.045 3490
2160.31 877.511 3476
2163.63 875.491 3468
2171.92 875.491 3468
2140.61 859.587 3405
2135.5 854.286 3384
2126.49 847.469 3357
2134.51 847.469 3357
2133.61 843.935 3343
2128.79 838.886 3323
2136.74 838.886 3323
2144.68 838.886 3323
2144.21 835.604 3310
2147.57 833.837 3303
2151.55 832.323 3297
2163.37 833.837 3303
2175.87 835.604 3310
2183.78 835.604 3310
2191.7 835.604 3310
2217.56 842.42 3337
2238.87 847.469 3357
2246.9 847.469 3357
2258.96 848.984 3363
2271.72 850.751 3370
2284.51 852.518 3377
2292.59 852.518 3377
2300.66 852.518 3377
2308.74 852.518 3377
2316.82 852.518 3377
2320.07 850.751 3370
2319.15 847.469 3357
2313.31 842.42 3337
2321.29 842.42 3337
2310.43 835.604 3310
2300.13 829.041 3284
2298.85 825.759 3271
2302.44 824.244 3265
2310.25 824.244 3265
2304.56 819.448 3246
2298.79 814.651 3227
2297.22 811.369 3214
2304.9 811.369 3214
2303.95 808.34 3202
2307.28 806.825 3196
2310.57 805.311 3190
2309.48 802.281 3178
2317.08 802.281 3178
2320.29 800.766 3172
2323.47 799.252 3166
2331.05 799.252 3166
2338.62 799.252 3166
2346.19 799.252 3166
2349.3 797.737 3160
2352.38 796.222 3154
2368.9 799.252 3166
2376.47 799.252 3166
2397.6 803.796 3184
2414.27 806.825 3196
2435.56 811.369 3214
2443.24 811.369 3214
2475.33 819.448 3246
2483.09 819.448 3246
-2549.41 867.744 3405
-2541.26 867.744 3405
-2538.33 869.528 3412
-2530.17 869.528 3412
-2522.01 869.528 3412
-2513.85 869.528 3412
-2521.12 874.879 3433
-2559.75 891.189 3497
-2584.22 902.657 3542
-2575.75 902.657 3542
-2578.15 906.48 3557
-2575.43 908.519 3565
-2577.7 912.341 3580
-2569.14 912.341 3580
-2560.58 912.341 3580
-2422.28 865.96 3398
-2444 876.663 3440
-2435.77 876.663 3440
-2427.54 876.663 3440
-2414.39 874.879 3433
-2406.18 874.879 3433
-2397.98 874.879 3433
-2404.38 880.231 3454
-2405.84 883.799 3468
-2407.91 887.622 3483
-2399.58 887.622 3483
-2391.26 887.622 3483
-2367.88 882.015 3461
-2359.6 882.015 3461
-2341.81 878.447 3447
-2314.61 871.312 3419
-2315.88 874.879 3433
-2326.49 882.015 3461
-2318.22 882.015 3461
-2353.99 898.835 3527
-2355.53 902.657 3542
-2351.7 904.441 3549
-2343.21 904.441 3549
-2345.25 908.519 3565
-2341.32 910.303 3572
-2332.77 910.303 3572
-2324.23 910.303 3572
-2315.69 910.303 3572
-2302.63 908.519 3565
-2294.1 908.519 3565
-2280.45 906.48 3557
-2271.94 906.48 3557
