1109.29 1157.27 2264
1114.71 1157.27 2264
1115.17 1152.16 2254
1120.56 1152.16 2254
1125.95 1152.16 2254
1132.85 1153.7 2257
1138.25 1153.7 2257
1143.64 1153.7 2257
1145.99 1150.63 2251
1151.37 1150.63 2251
1155.21 1149.1 2248
1159.04 1147.56 2245
1164.41 1147.56 2245
1169.77 1147.56 2245
1176.71 1149.1 2248
1182.09 1149.1 2248
1190.63 1152.16 2254
1199.74 1155.74 2261
1205.14 1155.74 2261
1210.55 1155.74 2261
1220.8 1160.34 2270
1229.47 1163.41 2276
1236.54 1164.94 2279
1241.99 1164.94 2279
1247.44 1164.94 2279
1251.24 1163.41 2276
1256.68 1163.41 2276
1262.12 1163.41 2276
1267.57 1163.41 2276
1273.01 1163.41 2276
1278.45 1163.41 2276
1282.2 1161.87 2273
1284.24 1158.81 2267
1291.37 1160.34 2270
1296.79 1160.34 2270
1302.22 1160.34 2270
1307.65 1160.34 2270
1309.61 1157.27 2264
1305.73 1149.1 2248
1311.1 1149.1 2248
1312.97 1146.03 2242
1318.33 1146.03 2242
1321.92 1144.49 2239
1327.27 1144.49 2239
1329.05 1141.43 2233
1339.77 1146.03 2242
1345.13 1146.03 2242
1350.49 1146.03 2242
1355.86 1146.03 2242
1363.04 1147.56 2245
1368.41 1147.56 2245
1373.78 1147.56 2245
1377.3 1146.03 2242
1382.66 1146.03 2242
1382.45 1141.43 2233
1385.93 1139.89 2230
1391.26 1139.89 2230
1392.84 1136.83 2224
1400.04 1138.36 2227
1405.36 1138.36 2227
1410.69 1138.36 2227
1416.02 1138.36 2227
1421.34 1138.36 2227
1424.74 1136.83 2224
1437.78 1142.96 2236
1443.13 1142.96 2236
1450.42 1144.49 2239
1457.72 1146.03 2242
1465.04 1147.56 2245
1470.41 1147.56 2245
1475.78 1147.56 2245
1479.17 1146.03 2242
1478.57 1141.43 2233
1483.91 1141.43 2233
1479.24 1133.76 2218
1482.54 1132.23 2215
1487.84 1132.23 2215
1493.13 1132.23 2215
1497.08 1131.2 2213
1503.73 1132.23 2215
1511.07 1133.76 2218
1516.37 1133.76 2218
1521.68 1133.76 2218
1537.31 1141.43 2233
1550.94 1147.56 2245
1560.46 1150.63 2251
1565.85 1150.63 2251
1571.23 1150.63 2251
1576.61 1150.63 2251
1573.56 1144.49 2239
1578.92 1144.49 2239
1584.27 1144.49 2239
1593.88 1147.56 2245
1605.66 1152.16 2254
1611.05 1152.16 2254
1616.44 1152.16 2254
1621.83 1152.16 2254
1627.22 1152.16 2254
1632.61 1152.16 2254
1638 1152.16 2254
1648.5 1155.74 2261
1653.9 1155.74 2261
1668.12 1161.87 2273
1673.55 1161.87 2273
1681.2 1163.41 2276
1686.65 1163.41 2276
1692.09 1163.41 2276
1693.06 1160.34 2270
1694 1157.27 2264
1699.41 1157.27 2264
1709.34 1160.34 2270
1714.77 1160.34 2270
1720.2 1160.34 2270
1725.63 1160.34 2270
1735.63 1163.41 2276
1741.07 1163.41 2276
-1573.07 1078.99 2101
-1568.05 1078.99 2101
-1566.74 1081.56 2106
-1563.93 1083.1 2109
-1558.89 1083.1 2109
-1553.84 1083.1 2109
-1548.8 1083.1 2109
-1543.76 1083.1 2109
-1544.55 1087.2 2117
-1539.49 1087.2 2117
-1536.6 1088.74 2120
-1535.14 1091.31 2125
-1543.74 1101.07 2144
-1538.61 1101.07 2144
-1543.5 1108.26 2158
-1548.32 1115.45 2172
-1555.2 1124.18 2189
-1549.97 1124.18 2189
-1553.2 1130.34 2201
-1554.27 1134.97 2210
-1551.09 1136.51 2213
-1545.8 1136.51 2213
-1540.5 1136.51 2213
-1524.81 1128.8 2198
-1519.55 1128.8 2198
-1514.29 1128.8 2198
-1517.28 1134.97 2210
-1511.99 1134.97 2210
-1506.71 1134.97 2210
-1499.38 1133.42 2207
-1494.11 1133.42 2207
-1486.81 1131.88 2204
-1481.54 1131.88 2204
-1466.22 1124.18 2189
-1453.64 1118.53 2178
-1444.44 1115.45 2172
-1439.25 1115.45 2172
-1432.07 1113.91 2169
-1419.65 1108.26 2158
-1412.52 1106.72 2155
-1407.37 1106.72 2155
-1397.01 1102.61 2147
-1388.64 1100.04 2142
-1383.51 1100.04 2142
-1378.39 1100.04 2142
-1373.27 1100.04 2142
-1364.32 1096.96 2136
-1359.21 1096.96 2136
-1359.17 1101.07 2144
-1354.04 1101.07 2144
-1348.92 1101.07 2144
-1340.66 1098.5 2139
-1335.54 1098.5 2139
-1325.45 1094.39 2131
-1318.5 1092.85 2128
-1313.41 1092.85 2128
-1308.32 1092.85 2128
-1301.39 1091.31 2125
-1298.14 1092.85 2128
-1325.26 1120.07 2181
-1335.78 1133.42 2207
-1330.5 1133.42 2207
-1325.22 1133.42 2207
-1319.95 1133.42 2207
-1314.67 1133.42 2207
-1298.71 1124.18 2189
-1291.7 1122.64 2186
-1285.3 1121.61 2184
-1281.25 1122.64 2186
-1276.02 1122.64 2186
-1279.51 1130.34 2201
-1275.99 1131.88 2204
-1270.72 1131.88 2204
-1265.45 1131.88 2204
-1260.18 1131.88 2204
-1243.52 1121.61 2184
-1238.3 1121.61 2184
-1231.38 1120.07 2181
-1221.1 1115.45 2172
-1209.75 1109.8 2161
-1196.78 1102.61 2147
-1191.65 1102.61 2147
-1183.75 1100.04 2142
-1175.33 1096.96 2136
-1168.57 1095.42 2133
-1165.11 1096.96 2136
-1160 1096.96 2136
-1159.22 1101.07 2144
-1154.09 1101.07 2144
-1148.97 1101.07 2144
-1143.84 1101.07 2144
-1146.15 1108.26 2158
-1146.8 1113.91 2169
-1143.2 1115.45 2172
-1138 1115.45 2172
-1132.81 1115.45 2172
-1127.61 1115.45 2172
-1122.42 1115.45 2172
-1117.23 1115.45 2172
-1106.4 1109.8 2161
-1101.23 1109.8 2161
-1103.17 1116.99 2175
-1097.97 1116.99 2175
-1097.29 1121.61 2184
-1092.06 1121.61 2184
-1086.84 1121.61 2184
-1078.65 1118.53 2178
-1073.44 1118.53 2178
-1069.7 1120.07 2181
-1065.95 1121.61 2184
-1060.73 1121.61 2184
-1056.47 1122.64 2186
-1057.02 1128.8 2198
-1056.07 1133.42 2207
-1050.79 1133.42 2207
-1045.51 1133.42 2207
-1040.23 1133.42 2207
-1034.96 1133.42 2207
-1025.48 1128.8 2198
-1018.83 1127.26 2195
-1019.12 1133.42 2207
-1016.6 1136.51 2213
-1011.31 1136.51 2213
-1006.02 1136.51 2213
-1001.63 1137.53 2215
-1003.08 1145.24 2230
-997.747 1145.24 2230
-992.415 1145.24 2230
-979.557 1136.51 2213
-974.265 1136.51 2213
-962.406 1128.8 2198
-949.747 1120.07 2181
-941.933 1116.99 2175
-936.732 1116.99 2175
-931.531 1116.99 2175
-923.774 1113.91 2169
-918.587 1113.91 2169
-913.401 1113.91 2169
-906.12 1111.34 2164
-900.945 1111.34 2164
-901.566 1118.53 2178
-896.358 1118.53 2178
-892.377 1120.07 2181
-887.161 1120.07 2181
-881.946 1120.07 2181
-875.525 1118.53 2178
-870.316 1118.53 2178
-863.916 1116.99 2175
-854.372 1111.34 2164
-851.16 1113.91 2169
-849.483 1118.53 2178
-844.275 1118.53 2178
-839.067 1118.53 2178
-836.921 1122.64 2186
-831.694 1122.64 2186
-826.467 1122.64 2186
-821.239 1122.64 2186
-816.012 1122.64 2186
-810.784 1122.64 2186
-805.557 1122.64 2186
-800.33 1122.64 2186
-793.284 1120.07 2181
-788.068 1120.07 2181
-780.699 1116.99 2175
-769.437 1108.26 2158
-760.38 1102.61 2147
-755.246 1102.61 2147
-750.112 1102.61 2147
-743.243 1100.04 2142
-737.087 1098.5 2139
-733.683 1101.07 2144
-728.556 1101.07 2144
-724.442 1102.61 2147
-719.307 1102.61 2147
-715.171 1104.15 2150
-710.03 1104.15 2150
-705.872 1105.69 2153
-702.351 1108.26 2158
-697.191 1108.26 2158
-692.03 1108.26 2158
-687.825 1109.8 2161
-682.657 1109.8 2161
-677.489 1109.8 2161
-674.811 1113.91 2169
-669.624 1113.91 2169
-664.437 1113.91 2169
-662.898 1120.07 2181
-659.19 1122.64 2186
-653.963 1122.64 2186
-649.626 1124.18 2189
-644.391 1124.18 2189
-639.157 1124.18 2189
-633.922 1124.18 2189
-629.549 1125.72 2192
-625.162 1127.26 2195
-619.913 1127.26 2195
-614.664 1127.26 2195
-608.582 1125.72 2192
-601.689 1122.64 2186
-596.461 1122.64 2186
-589.882 1120.07 2181
-584.666 1120.07 2181
-579.451 1120.07 2181
-574.235 1120.07 2181
-569.02 1120.07 2181
-563.805 1120.07 2181
-559.87 1122.64 2186
-554.642 1122.64 2186
-549.415 1122.64 2186
-544.188 1122.64 2186
-536.988 1118.53 2178
-531.78 1118.53 2178
-526.571 1118.53 2178
-522.081 1120.07 2181
-518.762 1124.18 2189
-514.231 1125.72 2192
-508.989 1125.72 2192
-503.747 1125.72 2192
-498.506 1125.72 2192
-493.264 1125.72 2192
-488.022 1125.72 2192
-482.12 1124.18 2189
-476.885 1124.18 2189
-471.651 1124.18 2189
-466.416 1124.18 2189
-463.078 1128.8 2198
-458.446 1130.34 2201
-454.418 1133.42 2207
-449.141 1133.42 2207
-443.863 1133.42 2207
-439.778 1136.51 2213
-434.879 1137.53 2215
-429.582 1137.53 2215
-424.285 1137.53 2215
-418.989 1137.53 2215
-413.692 1137.53 2215
-408.395 1137.53 2215
-402.734 1136.51 2213
-396.904 1134.97 2210
-389.492 1128.8 2198
-384.236 1128.8 2198
-378.98 1128.8 2198
-373.724 1128.8 2198
-368.468 1128.8 2198
-363.212 1128.8 2198
-356.979 1125.72 2192
-350.774 1122.64 2186
-345.547 1122.64 2186
-340.319 1122.64 2186
-335.092 1122.64 2186
-329.865 1122.64 2186
-325.083 1124.18 2189
-319.848 1124.18 2189
-314.614 1124.18 2189
-308.955 1122.64 2186
-303.728 1122.64 2186
-299.32 1125.72 2192
-294.078 1125.72 2192
-290.022 1130.34 2201
-285.535 1133.42 2207
-280.258 1133.42 2207
-274.98 1133.42 2207
-269.702 1133.42 2207
-264.425 1133.42 2207
-259.852 1136.51 2213
-256.17 1143.7 2227
-250.845 1143.7 2227
-246.511 1148.32 2236
-241.164 1148.32 2236
-235.818 1148.32 2236
-230.471 1148.32 2236
-225.124 1148.32 2236
-219.187 1145.24 2230
-213.854 1145.24 2230
-208.522 1145.24 2230
-203.189 1145.24 2230
-197.856 1145.24 2230
-192.524 1145.24 2230
-187.191 1145.24 2230
-181.859 1145.24 2230
-176.051 1142.16 2224
-170.733 1142.16 2224
-165.191 1140.61 2221
-159.664 1139.07 2218
-154.36 1139.07 2218
-149.057 1139.07 2218
-143.04 1133.42 2207
-137.762 1133.42 2207
-132.304 1131.88 2204
-127.034 1131.88 2204
-121.764 1131.88 2204
-117.392 1140.61 2221
-112.232 1142.16 2224
-106.914 1142.16 2224
-101.595 1142.16 2224
-96.2772 1142.16 2224
-90.5091 1136.51 2213
-85.1016 1134.97 2210
-79.9252 1136.51 2213
-74.6332 1136.51 2213
-69.4979 1139.07 2218
-64.5413 1145.24 2230
-59.2087 1145.24 2230
-53.8761 1145.24 2230
-49.1313 1159.1 2257
-43.986 1165.78 2270
-38.7616 1171.94 2282
-33.3046 1171.94 2282
-27.8477 1171.94 2282
-22.5183 1178.62 2295
-17.0747 1181.7 2301
-11.5723 1181.7 2301
-6.06996 1181.7 2301
107.837 1108.26 2158
113.311 1111.34 2164
118.486 1111.34 2164
123.661 1111.34 2164
128.836 1111.34 2164
134.01 1111.34 2164
139.185 1111.34 2164
144.56 1112.88 2167
150.917 1121.61 2184
156.497 1124.18 2189
161.731 1124.18 2189
167.424 1127.26 2195
172.673 1127.26 2195
177.922 1127.26 2195
183.17 1127.26 2195
188.419 1127.26 2195
193.404 1125.72 2192
198.917 1127.26 2195
204.445 1128.8 2198
209.701 1128.8 2198
214.957 1128.8 2198
219.612 1125.72 2192
224.854 1125.72 2192
230.096 1125.72 2192
235.337 1125.72 2192
241.238 1128.8 2198
247.167 1131.88 2204
252.437 1131.88 2204
258.409 1134.97 2210
264.052 1136.51 2213
269.587 1137.53 2215
274.884 1137.53 2215
281.319 1142.16 2224
287.024 1143.7 2227
292.349 1143.7 2227
297.675 1143.7 2227
302.592 1142.16 2224
307.91 1142.16 2224
313.229 1142.16 2224
318.547 1142.16 2224
323.865 1142.16 2224
331.404 1149.86 2239
337.209 1151.4 2242
342.57 1151.4 2242
348.863 1154.48 2248
354.711 1156.02 2251
362.174 1162.7 2264
367.587 1162.7 2264
374.484 1167.32 2273
379.92 1167.32 2273
385.355 1167.32 2273
390.79 1167.32 2273
396.226 1167.32 2273
401.131 1165.78 2270
406.022 1164.24 2267
411.443 1164.24 2267
414.474 1157.56 2254
419.864 1157.56 2254
425.254 1157.56 2254
430.644 1157.56 2254
435.453 1156.02 2251
440.249 1154.48 2248
444.435 1151.4 2242
449.796 1151.4 2242
452.721 1145.24 2230
458.054 1145.24 2230
463.387 1145.24 2230
468.719 1145.24 2230
474.052 1145.24 2230
477.45 1140.61 2221
482.109 1139.07 2218
486.753 1137.53 2215
492.05 1137.53 2215
496.224 1134.97 2210
498.786 1128.8 2198
504.042 1128.8 2198
509.298 1128.8 2198
513.149 1125.72 2192
517.682 1124.18 2189
522.2 1122.64 2186
527.427 1122.64 2186
530.705 1118.53 2178
535.175 1116.99 2175
538.886 1113.91 2169
546.33 1118.53 2178
551.538 1118.53 2178
556.746 1118.53 2178
561.955 1118.53 2178
567.163 1118.53 2178
572.371 1118.53 2178
577.579 1118.53 2178
582.788 1118.53 2178
586.376 1115.45 2172
591.57 1115.45 2172
595.39 1112.88 2167
601.958 1115.45 2172
607.152 1115.45 2172
614.883 1120.07 2181
620.098 1120.07 2181
625.314 1120.07 2181
631.975 1122.64 2186
640.7 1128.8 2198
645.956 1128.8 2198
651.212 1128.8 2198
660.948 1136.51 2213
666.24 1136.51 2213
671.532 1136.51 2213
676.824 1136.51 2213
679.342 1131.88 2204
684.613 1131.88 2204
686.127 1125.72 2192
689.476 1122.64 2186
694.703 1122.64 2186
699.931 1122.64 2186
705.158 1122.64 2186
710.386 1122.64 2186
715.613 1122.64 2186
720.84 1122.64 2186
726.068 1122.64 2186
729.622 1120.07 2181
736.523 1122.64 2186
741.75 1122.64 2186
746.977 1122.64 2186
751.517 1121.61 2184
756.739 1121.61 2184
760.915 1120.07 2181
766.131 1120.07 2181
771.346 1120.07 2181
774.425 1116.99 2175
778.551 1115.45 2172
783.745 1115.45 2172
788.939 1115.45 2172
794.133 1115.45 2172
799.326 1115.45 2172
804.52 1115.45 2172
809.714 1115.45 2172
813.783 1113.91 2169
818.969 1113.91 2169
825.296 1115.45 2172
831.637 1116.99 2175
836.838 1116.99 2175
843.201 1118.53 2178
848.409 1118.53 2178
853.617 1118.53 2178
858.825 1118.53 2178
867.207 1122.64 2186
873.632 1124.18 2189
878.867 1124.18 2189
884.101 1124.18 2189
890.555 1125.72 2192
898.248 1128.8 2198
909.67 1136.51 2213
914.962 1136.51 2213
924.828 1142.16 2224
933.911 1146.78 2233
939.25 1146.78 2233
944.59 1146.78 2233
952.482 1149.86 2239
962.97 1156.02 2251
972.655 1161.16 2261
978.062 1161.16 2261
983.468 1161.16 2261
988.875 1161.16 2261
992.523 1159.1 2257
1001.01 1162.7 2264
1006.43 1162.7 2264
1014.52 1165.78 2270
1024 1170.4 2279
1032.16 1173.48 2285
1037.62 1173.48 2285
1047.65 1178.62 2295
1055.89 1181.7 2301
1061.39 1181.7 2301
1066.9 1181.7 2301
1077.06 1186.83 2311
1082.59 1186.83 2311
1088.11 1186.83 2311
1088.91 1181.7 2301
1094.41 1181.7 2301
1087.96 1168.86 2276
1093.4 1168.86 2276
1097.4 1167.32 2273
1101.38 1165.78 2270
1087.3 1145.24 2230
1089.69 1142.16 2224
1095.01 1142.16 2224
1100.33 1142.16 2224
1107.14 1143.7 2227
1112.47 1143.7 2227
1117.79 1143.7 2227
1123.12 1143.7 2227
1128.44 1143.7 2227
1127.66 1137.53 2215
1132.96 1137.53 2215
1137.22 1136.51 2213
1140.97 1134.97 2210
1147.81 1136.51 2213
1154.14 1137.53 2215
1167.29 1145.24 2230
1172.62 1145.24 2230
1177.96 1145.24 2230
1189.66 1151.4 2242
1198.22 1154.48 2248
1203.59 1154.48 2248
1210.58 1156.02 2251
1217.58 1157.56 2254
1222.97 1157.56 2254
1228.36 1157.56 2254
1233.75 1157.56 2254
1239.14 1157.56 2254
1244.53 1157.56 2254
1248.26 1156.02 2251
1256.98 1159.1 2257
1262.38 1159.1 2257
1267.78 1159.1 2257
1273.18 1159.1 2257
1278.57 1159.1 2257
1287.95 1162.7 2264
1293.37 1162.7 2264
1298.78 1162.7 2264
1304.19 1162.7 2264
1305.56 1159.1 2257
1303.99 1152.94 2245
1309.35 1152.94 2245
1311.21 1149.86 2239
1316.56 1149.86 2239
1320.15 1148.32 2236
1325.49 1148.32 2236
1329.05 1146.78 2233
1339.77 1151.4 2242
1345.13 1151.4 2242
1350.49 1151.4 2242
1355.86 1151.4 2242
1361.22 1151.4 2242
1364.75 1149.86 2239
1370.1 1149.86 2239
1375.46 1149.86 2239
1378.96 1148.32 2236
1378.74 1143.7 2227
1380.33 1140.61 2221
1385.65 1140.61 2221
1384.07 1134.97 2210
1383.69 1130.34 2201
1388.96 1130.34 2201
1396.12 1131.88 2204
1401.39 1131.88 2204
1406.66 1131.88 2204
1417.7 1136.51 2213
1430.06 1142.16 2224
1435.38 1142.16 2224
1442.64 1143.7 2227
1447.97 1143.7 2227
1459.17 1148.32 2236
1464.51 1148.32 2236
1469.86 1148.32 2236
1467.29 1142.16 2224
1466.65 1137.53 2215
1471.95 1137.53 2215
1473.91 1134.97 2210
1477.19 1133.42 2207
1482.46 1133.42 2207
1487.74 1133.42 2207
1490.99 1131.88 2204
1496.26 1131.88 2204
1503.57 1133.42 2207
1508.85 1133.42 2207
1514.13 1133.42 2207
1521.47 1134.97 2210
1534.36 1140.61 2221
1539.67 1140.61 2221
1544.98 1140.61 2221
1550.29 1140.61 2221
1555.6 1140.61 2221
1560.91 1140.61 2221
1566.22 1140.61 2221
1567.29 1137.53 2215
1574.71 1139.07 2218
1580.02 1139.07 2218
1585.32 1139.07 2218
1590.63 1139.07 2218
1595.93 1139.07 2218
1597.62 1136.51 2213
1604.36 1137.53 2215
1609.66 1137.53 2215
1625.89 1145.24 2230
1635.62 1148.32 2236
1640.96 1148.32 2236
1659.56 1157.56 2254
1664.95 1157.56 2254
1670.34 1157.56 2254
1675.73 1157.56 2254
1681.12 1157.56 2254
1684.27 1156.02 2251
1689.65 1156.02 2251
1699.55 1159.1 2257
1707.97 1161.16 2261
1713.38 1161.16 2261
1718.78 1161.16 2261
1724.19 1161.16 2261
1729.6 1161.16 2261
-1573.07 1084.02 2101
-1568.05 1084.02 2101
-1566.74 1086.6 2106
-1563.93 1088.15 2109
-1558.89 1088.15 2109
-1553.84 1088.15 2109
-1548.8 1088.15 2109
-1543.76 1088.15 2109
-1544.55 1092.28 2117
-1539.49 1092.28 2117
-1536.6 1093.82 2120
-1535.14 1096.4 2125
-1543.74 1106.21 2144
-1538.61 1106.21 2144
-1543.5 1113.43 2158
-1548.32 1120.65 2172
-1555.2 1129.42 2189
-1549.97 1129.42 2189
-1553.2 1135.62 2201
-1554.27 1140.26 2210
-1551.09 1141.81 2213
-1545.8 1141.81 2213
-1540.5 1141.81 2213
-1524.81 1134.07 2198
-1519.55 1134.07 2198
-1514.29 1134.07 2198
-1517.28 1140.26 2210
-1511.99 1140.26 2210
-1506.71 1140.26 2210
-1499.38 1138.71 2207
-1494.11 1138.71 2207
-1486.81 1137.16 2204
-1481.54 1137.16 2204
-1466.22 1129.42 2189
-1453.64 1123.75 2178
-1444.44 1120.65 2172
-1439.25 1120.65 2172
-1432.07 1119.11 2169
-1419.65 1113.43 2158
-1412.52 1111.88 2155
-1407.37 1111.88 2155
-1397.01 1107.75 2147
-1388.64 1105.17 2142
-1383.51 1105.17 2142
-1378.39 1105.17 2142
-1373.27 1105.17 2142
-1364.32 1102.08 2136
-1354.12 1097.95 2128
-1352.2 1100.53 2133
-1347.1 1100.53 2133
-1342 1100.53 2133
-1335.64 1099.5 2131
-1330.55 1099.5 2131
-1321.72 1096.4 2125
-1318.5 1097.95 2128
-1313.41 1097.95 2128
-1308.32 1097.95 2128
-1301.39 1096.4 2125
-1298.14 1097.95 2128
-1302.78 1106.21 2144
-1318.23 1123.75 2178
-1313.02 1123.75 2178
-1309.61 1125.3 2181
-1304.4 1125.3 2181
-1299.18 1125.3 2181
-1286.85 1119.11 2169
-1278.7 1116.53 2164
-1273.53 1116.53 2164
-1270.11 1118.07 2167
-1264.93 1118.07 2167
-1274.28 1130.97 2192
-1269.04 1130.97 2192
-1263.8 1130.97 2192
-1258.56 1130.97 2192
-1248.74 1126.84 2184
-1240.1 1123.75 2178
-1234.89 1123.75 2178
-1224.6 1119.11 2169
-1214.92 1114.98 2161
-1201.92 1107.75 2147
-1192.32 1103.63 2139
-1187.21 1103.63 2139
-1180.43 1102.08 2136
-1170.92 1097.95 2128
-1165.84 1097.95 2128
-1162.38 1099.5 2131
-1157.29 1099.5 2131
-1152.19 1099.5 2131
-1151.4 1103.63 2139
-1146.29 1103.63 2139
-1141.17 1103.63 2139
-1136.06 1103.63 2139
-1130.94 1103.63 2139
-1138.99 1116.53 2164
-1133.81 1116.53 2164
-1132.81 1120.65 2172
-1127.61 1120.65 2172
-1122.42 1120.65 2172
-1104.37 1107.75 2147
-1099.23 1107.75 2147
-1099.7 1113.43 2158
-1094.54 1113.43 2158
-1089.38 1113.43 2158
-1088.74 1118.07 2167
-1089.06 1123.75 2178
-1083.85 1123.75 2178
-1078.65 1123.75 2178
-1071.96 1122.2 2175
-1066.76 1122.2 2175
-1064.49 1125.3 2181
-1059.27 1125.3 2181
-1055.51 1126.84 2184
-1050.28 1126.84 2184
-1051.76 1134.07 2198
-1046.5 1134.07 2198
-1041.25 1134.07 2198
-1034.58 1132.52 2195
-1029.33 1132.52 2195
-1022.68 1130.97 2192
-1013.72 1126.84 2184
-1008.5 1126.84 2184
-1003.28 1126.84 2184
-998.056 1126.84 2184
-993.743 1127.88 2186
-995.299 1135.62 2201
-990.035 1135.62 2201
-984.772 1135.62 2201
-979.509 1135.62 2201
-964.065 1123.75 2178
-958.857 1123.75 2178
-947.518 1116.53 2164
-938.425 1111.88 2155
-929.807 1107.75 2147
-924.673 1107.75 2147
-922.108 1110.85 2153
-916.96 1110.85 2153
-911.811 1110.85 2153
-905.399 1109.3 2150
-900.258 1109.3 2150
-895.117 1109.3 2150
-894.529 1114.98 2161
-889.361 1114.98 2161
-886.649 1118.07 2167
-881.467 1118.07 2167
-876.285 1118.07 2167
-868.691 1114.98 2161
-863.523 1114.98 2161
-858.356 1114.98 2161
-850.819 1111.88 2155
-848.02 1114.98 2161
-844.023 1116.53 2164
-838.848 1116.53 2164
-835.6 1119.11 2169
-831.561 1120.65 2172
-826.367 1120.65 2172
-821.174 1120.65 2172
-814.853 1119.11 2169
-809.666 1119.11 2169
-804.479 1119.11 2169
-798.555 1118.07 2167
-793.373 1118.07 2167
-787.1 1116.53 2164
-781.926 1116.53 2164
-773.52 1111.88 2155
-764.445 1106.21 2144
-757.547 1103.63 2139
-752.432 1103.63 2139
-746.269 1102.08 2136
-741.161 1102.08 2136
-736.053 1102.08 2136
-731.972 1103.63 2139
-726.857 1103.63 2139
-722.755 1105.17 2142
-718.302 1106.21 2144
-714.173 1107.75 2147
-709.039 1107.75 2147
-703.905 1107.75 2147
-699.747 1109.3 2150
-694.606 1109.3 2150
-690.427 1110.85 2153
-685.278 1110.85 2153
-680.13 1110.85 2153
-674.981 1110.85 2153
-670.455 1111.88 2155
-665.302 1111.88 2155
-661.987 1114.98 2161
-658.643 1118.07 2167
-654.064 1119.11 2169
-648.877 1119.11 2169
-644.581 1120.65 2172
-639.387 1120.65 2172
-634.193 1120.65 2172
-628.999 1120.65 2172
-623.805 1120.65 2172
-620.32 1123.75 2178
-615.959 1125.3 2181
-610.744 1125.3 2181
-605.528 1125.3 2181
-600.313 1125.3 2181
-595.097 1125.3 2181
-589.882 1125.3 2181
-584.666 1125.3 2181
-579.451 1125.3 2181
-574.235 1125.3 2181
-569.02 1125.3 2181
-563.805 1125.3 2181
-558.589 1125.3 2181
-553.374 1125.3 2181
-548.158 1125.3 2181
-542.943 1125.3 2181
-536.988 1123.75 2178
-531.78 1123.75 2178
-526.571 1123.75 2178
-522.081 1125.3 2181
-518.762 1129.42 2189
-514.231 1130.97 2192
-508.989 1130.97 2192
-503.747 1130.97 2192
-497.823 1129.42 2189
-492.589 1129.42 2189
-486.686 1127.88 2186
-481.459 1127.88 2186
-476.232 1127.88 2186
-471.651 1129.42 2189
-466.416 1129.42 2189
-461.181 1129.42 2189
-457.822 1134.07 2198
-453.183 1135.62 2201
-448.53 1137.16 2204
-443.26 1137.16 2204
-438.586 1138.71 2207
-434.486 1141.81 2213
-429.194 1141.81 2213
-423.902 1141.81 2213
-418.61 1141.81 2213
-413.318 1141.81 2213
-408.026 1141.81 2213
-402.188 1140.26 2210
-394.748 1134.07 2198
-387.898 1129.42 2189
-382.663 1129.42 2189
-376.911 1127.88 2186
-371.684 1127.88 2186
-366.456 1127.88 2186
-361.229 1127.88 2186
-355.187 1125.3 2181
-349.972 1125.3 2181
-344.282 1123.75 2178
-339.074 1123.75 2178
-333.866 1123.75 2178
-328.658 1123.75 2178
-323.449 1123.75 2178
-318.241 1123.75 2178
-313.033 1123.75 2178
-307.824 1123.75 2178
-302.616 1123.75 2178
-297.408 1123.75 2178
-292.2 1123.75 2178
-288.046 1127.88 2186
-284.759 1135.62 2201
-279.877 1137.16 2204
-274.606 1137.16 2204
-269.336 1137.16 2204
-264.065 1137.16 2204
-259.499 1140.26 2210
-255.48 1145.93 2221
-250.169 1145.93 2221
-245.519 1149.03 2227
-240.194 1149.03 2227
-234.868 1149.03 2227
-228.924 1145.93 2221
-223.311 1144.39 2218
-217.713 1142.84 2215
-212.416 1142.84 2215
-206.932 1141.81 2213
-201.64 1141.81 2213
-196.348 1141.81 2213
-191.229 1142.84 2215
-185.932 1142.84 2215
-180.635 1142.84 2215
-175.339 1142.84 2215
-170.042 1142.84 2215
-164.15 1138.71 2207
-158.441 1135.62 2201
-152.551 1130.97 2192
-147.309 1130.97 2192
-142.068 1130.97 2192
-136.451 1127.88 2186
-130.924 1125.3 2181
-125.708 1125.3 2181
-120.659 1126.84 2184
-115.436 1126.84 2184
-110.314 1127.88 2186
-105.087 1127.88 2186
-99.8596 1127.88 2186
-94.6322 1127.88 2186
-89.4048 1127.88 2186
-83.7538 1122.2 2175
-78.5527 1122.2 2175
-73.3517 1122.2 2175
-68.1506 1122.2 2175
-63.0363 1123.75 2178
-58.1998 1130.97 2192
-52.958 1130.97 2192
-48.1081 1140.26 2210
-43.3272 1153.67 2236
-38.235 1161.41 2251
-32.8522 1161.41 2251
-27.628 1168.12 2264
-22.273 1171.22 2270
-16.8447 1171.22 2270
-11.4164 1171.22 2270
-5.98818 1171.22 2270
107.837 1113.43 2158
112.997 1113.43 2158
118.158 1113.43 2158
123.318 1113.43 2158
128.181 1110.85 2153
133.329 1110.85 2153
138.478 1110.85 2153
144.36 1116.53 2164
149.88 1119.11 2169
156.139 1126.84 2184
161.362 1126.84 2184
166.966 1129.42 2189
172.201 1129.42 2189
177.678 1130.97 2192
182.92 1130.97 2192
188.162 1130.97 2192
193.404 1130.97 2192
198.917 1132.52 2195
204.445 1134.07 2198
209.701 1134.07 2198
214.957 1134.07 2198
219.612 1130.97 2192
224.854 1130.97 2192
230.096 1130.97 2192
235.337 1130.97 2192
241.238 1134.07 2198
247.167 1137.16 2204
252.437 1137.16 2204
258.409 1140.26 2210
264.052 1141.81 2213
269.587 1142.84 2215
274.884 1142.84 2215
281.319 1147.48 2224
287.024 1149.03 2227
292.349 1149.03 2227
297.675 1149.03 2227
302.592 1147.48 2224
307.91 1147.48 2224
313.229 1147.48 2224
318.547 1147.48 2224
323.865 1147.48 2224
331.404 1155.22 2239
337.209 1156.77 2242
342.57 1156.77 2242
348.863 1159.87 2248
354.711 1161.41 2251
362.174 1168.12 2264
367.587 1168.12 2264
374.484 1172.76 2273
379.92 1172.76 2273
385.355 1172.76 2273
390.79 1172.76 2273
396.226 1172.76 2273
401.131 1171.22 2270
406.022 1169.67 2267
411.443 1169.67 2267
414.474 1162.96 2254
419.864 1162.96 2254
425.254 1162.96 2254
430.644 1162.96 2254
435.453 1161.41 2251
440.249 1159.87 2248
444.435 1156.77 2242
449.796 1156.77 2242
452.721 1150.58 2230
458.054 1150.58 2230
463.387 1150.58 2230
468.719 1150.58 2230
474.052 1150.58 2230
477.45 1145.93 2221
482.109 1144.39 2218
486.753 1142.84 2215
492.05 1142.84 2215
496.224 1140.26 2210
498.786 1134.07 2198
504.042 1134.07 2198
509.298 1134.07 2198
513.149 1130.97 2192
517.682 1129.42 2189
522.2 1127.88 2186
527.427 1127.88 2186
530.705 1123.75 2178
535.175 1122.2 2175
538.886 1119.11 2169
546.33 1123.75 2178
551.538 1123.75 2178
556.746 1123.75 2178
561.955 1123.75 2178
567.163 1123.75 2178
572.371 1123.75 2178
577.579 1123.75 2178
582.788 1123.75 2178
586.376 1120.65 2172
591.57 1120.65 2172
595.39 1118.07 2167
601.958 1120.65 2172
607.152 1120.65 2172
614.883 1125.3 2181
620.098 1125.3 2181
625.314 1125.3 2181
631.975 1127.88 2186
640.7 1134.07 2198
645.956 1134.07 2198
651.212 1134.07 2198
660.948 1141.81 2213
666.24 1141.81 2213
671.532 1141.81 2213
676.824 1141.81 2213
679.342 1137.16 2204
684.613 1137.16 2204
686.127 1130.97 2192
689.476 1127.88 2186
692.161 1123.75 2178
697.369 1123.75 2178
702.578 1123.75 2178
707.786 1123.75 2178
712.994 1123.75 2178
718.202 1123.75 2178
723.411 1123.75 2178
727.615 1122.2 2175
732.816 1122.2 2175
740.053 1125.3 2181
745.269 1125.3 2181
750.484 1125.3 2181
755.7 1125.3 2181
760.915 1125.3 2181
766.131 1125.3 2181
769.224 1122.2 2175
774.425 1122.2 2175
778.551 1120.65 2172
783.745 1120.65 2172
788.939 1120.65 2172
794.133 1120.65 2172
799.326 1120.65 2172
802.668 1118.07 2167
807.85 1118.07 2167
813.032 1118.07 2167
818.969 1119.11 2169
824.156 1119.11 2169
830.49 1120.65 2172
835.684 1120.65 2172
843.201 1123.75 2178
848.409 1123.75 2178
853.617 1123.75 2178
858.825 1123.75 2178
865.224 1125.3 2181
872.435 1127.88 2186
877.662 1127.88 2186
882.889 1127.88 2186
888.117 1127.88 2186
895.796 1130.97 2192
905.971 1137.16 2204
911.241 1137.16 2204
920.254 1141.81 2213
928.892 1145.93 2221
935.465 1147.48 2224
940.783 1147.48 2224
948.654 1150.58 2230
956.553 1153.67 2236
965.772 1158.32 2245
972.438 1159.87 2248
977.814 1159.87 2248
983.189 1159.87 2248
985.926 1156.77 2242
992.614 1158.32 2245
997.983 1158.32 2245
1004.69 1159.87 2248
1015.91 1166.57 2261
1025.38 1171.22 2270
1030.81 1171.22 2270
1040.35 1175.86 2279
1045.8 1175.86 2279
1054.01 1178.96 2285
1059.48 1178.96 2285
1068.2 1182.57 2292
1073.68 1182.57 2292
1079.17 1182.57 2292
1081.33 1178.96 2285
1082.52 1174.31 2276
1077.44 1162.96 2254
1082.83 1162.96 2254
1086.78 1161.41 2251
1079.06 1147.48 2224
1073.16 1135.62 2201
1078.43 1135.62 2201
1085.17 1137.16 2204
1090.44 1137.16 2204
1102.67 1144.39 2218
1107.97 1144.39 2218
1113.27 1144.39 2218
1117.07 1142.84 2215
1119.83 1140.26 2210
1125.11 1140.26 2210
1130.4 1140.26 2210
1132.6 1137.16 2204
1137.87 1137.16 2204
1146.25 1140.26 2210
1153.1 1141.81 2213
1161.01 1144.39 2218
1166.31 1144.39 2218
1176.37 1149.03 2227
1184.88 1152.13 2233
1196.62 1158.32 2245
1201.98 1158.32 2245
1208.97 1159.87 2248
1217.58 1162.96 2254
1222.97 1162.96 2254
1228.36 1162.96 2254
1232.11 1161.41 2251
1237.49 1161.41 2251
1242.88 1161.41 2251
1248.26 1161.41 2251
1256.98 1164.51 2257
1262.38 1164.51 2257
1267.78 1164.51 2257
1273.18 1164.51 2257
1278.57 1164.51 2257
1287.95 1168.12 2264
1293.37 1168.12 2264
1298.78 1168.12 2264
1300.16 1164.51 2257
1305.56 1164.51 2257
1305.73 1159.87 2248
1311.1 1159.87 2248
1316.48 1159.87 2248
1321.86 1159.87 2248
1325.46 1158.32 2245
1330.83 1158.32 2245
1336.2 1158.32 2245
1341.57 1158.32 2245
1346.93 1158.32 2245
1355.92 1161.41 2251
1361.3 1161.41 2251
1366.68 1161.41 2251
1370.24 1159.87 2248
1375.61 1159.87 2248
1380.99 1159.87 2248
1382.66 1156.77 2242
1386.17 1155.22 2239
1384.06 1149.03 2227
1389.39 1149.03 2227
1392.84 1147.48 2224
1385.58 1137.16 2204
1388.96 1135.62 2201
1394.22 1135.62 2201
1389.95 1127.88 2186
1395.17 1127.88 2186
1404.24 1130.97 2192
1417.2 1137.16 2204
1422.47 1137.16 2204
1431.63 1140.26 2210
1438.87 1141.81 2213
1445.46 1142.84 2215
1450.76 1142.84 2215
1456.06 1142.84 2215
1460.03 1141.81 2213
1459.37 1137.16 2204
1464.64 1137.16 2204
1463.9 1132.52 2195
1469.15 1132.52 2195
1472.39 1130.97 2192
1479.65 1132.52 2195
1484.9 1132.52 2195
1490.15 1132.52 2195
1497.44 1134.07 2198
1504.75 1135.62 2201
1510.01 1135.62 2201
1517.34 1137.16 2204
1526.76 1140.26 2210
1534.12 1141.81 2213
1539.41 1141.81 2213
1544.7 1141.81 2213
1550 1141.81 2213
1548.96 1137.16 2204
1554.23 1137.16 2204
1557.38 1135.62 2201
1566.9 1138.71 2207
1574.32 1140.26 2210
1579.6 1140.26 2210
1584.89 1140.26 2210
1590.17 1140.26 2210
1582.46 1130.97 2192
1587.71 1130.97 2192
1595.13 1132.52 2195
1600.38 1132.52 2195
1605.63 1132.52 2195
1617.48 1137.16 2204
1641.89 1150.58 2230
1647.23 1150.58 2230
1652.56 1150.58 2230
1657.89 1150.58 2230
1663.22 1150.58 2230
1668.56 1150.58 2230
1671.64 1149.03 2227
1679.22 1150.58 2230
1684.55 1150.58 2230
1689.89 1150.58 2230
1695.22 1150.58 2230
1700.55 1150.58 2230
1705.88 1150.58 2230
-1573.07 1089.05 2101
-1568.05 1089.05 2101
-1566.74 1091.65 2106
-1563.93 1093.2 2109
-1558.89 1093.2 2109
-1553.84 1093.2 2109
-1548.8 1093.2 2109
-1537.9 1089.05 2101
-1532.88 1089.05 2101
-1525.67 1087.5 2098
-1528.63 1093.2 2109
-1531.53 1098.9 2120
-1534.38 1104.6 2131
-1529.29 1104.6 2131
-1533.49 1111.34 2144
-1540.48 1120.15 2161
-1543.13 1125.86 2172
-1537.93 1125.86 2172
-1544.74 1134.67 2189
-1539.5 1134.67 2189
-1534.27 1134.67 2189
-1529.03 1134.67 2189
-1521.71 1133.11 2186
-1516.48 1133.11 2186
-1517.48 1137.78 2195
-1512.23 1137.78 2195
-1509.04 1139.33 2198
-1505.83 1140.89 2201
-1502.62 1142.44 2204
-1497.35 1142.44 2204
-1492.08 1142.44 2204
-1476.69 1134.67 2189
-1471.45 1134.67 2189
-1454.83 1125.86 2172
-1447.63 1124.3 2169
-1441.12 1123.26 2167
-1435.94 1123.26 2167
-1422.83 1117.04 2155
-1414.39 1114.45 2150
-1404 1110.31 2142
-1398.88 1110.31 2142
-1391.81 1108.75 2139
-1386.69 1108.75 2139
-1379.64 1107.2 2136
-1374.53 1107.2 2136
-1369.42 1107.2 2136
-1359.21 1103.05 2128
-1354.12 1103.05 2128
-1352.2 1105.64 2133
-1347.1 1105.64 2133
-1342 1105.64 2133
-1335.64 1104.6 2131
-1330.55 1104.6 2131
-1321.72 1101.49 2125
-1318.5 1103.05 2128
-1313.41 1103.05 2128
-1308.32 1103.05 2128
-1301.39 1101.49 2125
-1298.14 1103.05 2128
-1302.78 1111.34 2144
-1318.23 1128.97 2178
-1313.02 1128.97 2178
-1309.61 1130.52 2181
-1304.4 1130.52 2181
-1299.18 1130.52 2181
-1286.85 1124.3 2169
-1278.7 1121.71 2164
-1273.53 1121.71 2164
-1270.11 1123.26 2167
-1264.93 1123.26 2167
-1274.28 1136.22 2192
-1269.04 1136.22 2192
-1263.8 1136.22 2192
-1258.56 1136.22 2192
-1248.74 1132.08 2184
-1240.1 1128.97 2178
-1234.89 1128.97 2178
-1224.6 1124.3 2169
-1214.92 1120.15 2161
-1201.92 1112.9 2147
-1192.32 1108.75 2139
-1187.21 1108.75 2139
-1180.43 1107.2 2136
-1170.92 1103.05 2128
-1165.84 1103.05 2128
-1162.38 1104.6 2131
-1157.29 1104.6 2131
-1152.19 1104.6 2131
-1151.4 1108.75 2139
-1146.29 1108.75 2139
-1141.17 1108.75 2139
-1136.06 1108.75 2139
-1130.94 1108.75 2139
-1138.99 1121.71 2164
-1133.81 1121.71 2164
-1132.81 1125.86 2172
-1127.61 1125.86 2172
-1122.42 1125.86 2172
-1104.37 1112.9 2147
-1099.23 1112.9 2147
-1099.7 1118.6 2158
-1094.54 1118.6 2158
-1089.38 1118.6 2158
-1088.74 1123.26 2167
-1089.06 1128.97 2178
-1083.85 1128.97 2178
-1078.65 1128.97 2178
-1071.96 1127.41 2175
-1066.76 1127.41 2175
-1064.49 1130.52 2181
-1059.27 1130.52 2181
-1055.51 1132.08 2184
-1050.28 1132.08 2184
-1051.76 1139.33 2198
-1046.5 1139.33 2198
-1041.25 1139.33 2198
-1034.58 1137.78 2195
-1029.33 1137.78 2195
-1022.68 1136.22 2192
-1013.72 1132.08 2184
-1008.5 1132.08 2184
-1003.28 1132.08 2184
-998.056 1132.08 2184
-993.743 1133.11 2186
-995.299 1140.89 2201
-990.035 1140.89 2201
-984.772 1140.89 2201
-979.509 1140.89 2201
-964.065 1128.97 2178
-958.857 1128.97 2178
-947.518 1121.71 2164
-938.425 1117.04 2155
-929.807 1112.9 2147
-924.673 1112.9 2147
-922.108 1116.01 2153
-916.96 1116.01 2153
-911.811 1116.01 2153
-905.399 1114.45 2150
-900.258 1114.45 2150
-895.117 1114.45 2150
-894.529 1120.15 2161
-889.361 1120.15 2161
-886.649 1123.26 2167
-881.467 1123.26 2167
-876.285 1123.26 2167
-866.279 1117.04 2155
-861.126 1117.04 2155
-855.178 1116.01 2153
-848.845 1114.45 2150
-844.881 1116.01 2153
-841.683 1118.6 2158
-836.522 1118.6 2158
-832.518 1120.15 2161
-827.35 1120.15 2161
-822.182 1120.15 2161
-817.015 1120.15 2161
-811.847 1120.15 2161
-805.56 1118.6 2158
-800.399 1118.6 2158
-793.396 1116.01 2153
-788.248 1116.01 2153
-783.099 1116.01 2153
-777.951 1116.01 2153
-769.572 1111.34 2144
-762.662 1108.75 2139
-754.714 1104.6 2131
-749.618 1104.6 2131
-741.378 1099.94 2122
-736.303 1099.94 2122
-732.263 1101.49 2125
-728.208 1103.05 2128
-723.119 1103.05 2128
-720.73 1107.2 2136
-715.622 1107.2 2136
-711.512 1108.75 2139
-706.397 1108.75 2139
-702.922 1111.34 2144
-697.795 1111.34 2144
-692.668 1111.34 2144
-687.541 1111.34 2144
-682.414 1111.34 2144
-678.234 1112.9 2147
-673.1 1112.9 2147
-668.9 1114.45 2150
-663.758 1114.45 2150
-659.536 1116.01 2153
-656.819 1120.15 2161
-652.556 1121.71 2164
-647.381 1121.71 2164
-642.206 1121.71 2164
-637.032 1121.71 2164
-632.733 1123.26 2167
-627.551 1123.26 2167
-622.943 1124.3 2169
-617.757 1124.3 2169
-612.57 1124.3 2169
-607.383 1124.3 2169
-604.695 1128.97 2178
-599.487 1128.97 2178
-594.279 1128.97 2178
-588.259 1127.41 2175
-583.862 1128.97 2178
-578.654 1128.97 2178
-573.446 1128.97 2178
-566.672 1125.86 2172
-563.029 1128.97 2178
-558.589 1130.52 2181
-553.374 1130.52 2181
-548.158 1130.52 2181
-542.943 1130.52 2181
-536.988 1128.97 2178
-531.78 1128.97 2178
-526.571 1128.97 2178
-522.081 1130.52 2181
-518.051 1133.11 2186
-514.231 1136.22 2192
-508.989 1136.22 2192
-503.747 1136.22 2192
-497.823 1134.67 2189
-492.589 1134.67 2189
-486.686 1133.11 2186
-481.459 1133.11 2186
-476.232 1133.11 2186
-471.004 1133.11 2186
-465.777 1133.11 2186
-460.549 1133.11 2186
-455.947 1134.67 2189
-452.565 1139.33 2198
-447.92 1140.89 2201
-442.657 1140.89 2201
-437.99 1142.44 2204
-432.719 1142.44 2204
-429.194 1147.11 2213
-423.902 1147.11 2213
-418.61 1147.11 2213
-412.758 1145.55 2210
-407.473 1145.55 2210
-398.913 1136.22 2192
-393.132 1134.67 2189
-387.012 1132.08 2184
-381.789 1132.08 2184
-376.049 1130.52 2181
-370.324 1128.97 2178
-365.115 1128.97 2178
-359.907 1128.97 2178
-354.21 1127.41 2175
-348.046 1124.3 2169
-343.334 1125.86 2172
-338.14 1125.86 2172
-332.946 1125.86 2172
-327.752 1125.86 2172
-322.558 1125.86 2172
-317.364 1125.86 2172
-311.739 1124.3 2169
-306.552 1124.3 2169
-300.671 1121.71 2164
-295.496 1121.71 2164
-290.724 1123.26 2167
-285.542 1123.26 2167
-282.171 1130.52 2181
-277.591 1133.11 2186
-272.363 1133.11 2186
-267.136 1133.11 2186
-261.909 1133.11 2186
-256.681 1133.11 2186
-251.454 1133.11 2186
-246.001 1132.08 2184
-240.999 1133.11 2186
-235.772 1133.11 2186
-230.544 1133.11 2186
-225.317 1133.11 2186
-219.284 1128.97 2178
-214.076 1128.97 2178
-208.868 1128.97 2178
-203.659 1128.97 2178
-198.451 1128.97 2178
-193.509 1130.52 2181
-188.553 1132.08 2184
-183.33 1132.08 2184
-178.107 1132.08 2184
-172.647 1130.52 2181
-167.432 1130.52 2181
-162.216 1130.52 2181
-156.785 1128.97 2178
-151.159 1125.86 2172
-145.965 1125.86 2172
-140.577 1124.3 2169
-135.39 1124.3 2169
-130.203 1124.3 2169
-125.017 1124.3 2169
-119.83 1124.3 2169
-114.643 1124.3 2169
-109.456 1124.3 2169
-104.27 1124.3 2169
-99.083 1124.3 2169
-93.8963 1124.3 2169
-88.7095 1124.3 2169
-83.3303 1121.71 2164
-78.1555 1121.71 2164
-72.8795 1120.15 2161
-67.7119 1120.15 2161
-62.6311 1121.71 2164
-57.536 1123.26 2167
-52.3541 1123.26 2167
-47.3462 1127.41 2175
-42.3583 1133.11 2186
-37.5895 1147.11 2213
-32.2976 1147.11 2213
-27.0056 1147.11 2213
-21.7137 1147.11 2213
-16.4217 1147.11 2213
-11.1298 1147.11 2213
-5.82199 1144 2207
107.837 1118.6 2158
112.997 1118.6 2158
118.158 1118.6 2158
123.032 1116.01 2153
128.002 1114.45 2150
133.144 1114.45 2150
138.285 1114.45 2150
143.76 1117.04 2155
149.535 1121.71 2164
154.924 1123.26 2167
160.106 1123.26 2167
165.441 1124.3 2169
171.335 1128.97 2178
176.544 1128.97 2178
181.752 1128.97 2178
186.96 1128.97 2178
191.904 1127.41 2175
197.92 1132.08 2184
203.143 1132.08 2184
208.366 1132.08 2184
213.588 1132.08 2184
218.811 1132.08 2184
224.033 1132.08 2184
228.941 1130.52 2181
234.479 1132.08 2184
239.921 1133.11 2186
245.821 1136.22 2192
251.063 1136.22 2192
257.006 1139.33 2198
262.262 1139.33 2198
267.883 1140.89 2201
273.147 1140.89 2201
279.548 1145.55 2210
284.833 1145.55 2210
290.118 1145.55 2210
295.403 1145.55 2210
300.279 1144 2207
305.557 1144 2207
310.834 1144 2207
316.112 1144 2207
321.39 1144 2207
328.295 1149.7 2218
334.502 1152.81 2224
339.82 1152.81 2224
346.535 1157.48 2233
352.347 1159.03 2236
359.614 1165.25 2248
366.451 1169.92 2257
371.848 1169.92 2257
377.914 1171.99 2261
383.321 1171.99 2261
388.727 1171.99 2261
394.134 1171.99 2261
397.774 1166.81 2251
402.619 1165.25 2248
407.995 1165.25 2248
412.267 1162.14 2242
416.511 1159.03 2236
421.858 1159.03 2236
427.205 1159.03 2236
431.391 1155.92 2230
434.374 1149.7 2218
438.686 1147.11 2213
443.978 1147.11 2213
446.834 1140.89 2201
452.097 1140.89 2201
456.737 1139.33 2198
461.993 1139.33 2198
466.612 1137.78 2195
471.216 1136.22 2192
475.805 1134.67 2189
480.381 1133.11 2186
485.608 1133.11 2186
490.835 1133.11 2186
496.063 1133.11 2186
501.29 1133.11 2186
506.517 1133.11 2186
509.872 1128.97 2178
515.08 1128.97 2178
518.855 1125.86 2172
524.049 1125.86 2172
528.512 1124.3 2169
533.207 1123.26 2167
538.389 1123.26 2167
544.072 1124.3 2169
549.259 1124.3 2169
554.446 1124.3 2169
559.633 1124.3 2169
565.6 1125.86 2172
570.794 1125.86 2172
575.988 1125.86 2172
580.379 1124.3 2169
585.026 1123.26 2167
590.208 1123.26 2167
593.742 1120.15 2161
600.572 1123.26 2167
606.313 1124.3 2169
611.5 1124.3 2169
616.687 1124.3 2169
621.873 1124.3 2169
628.795 1127.41 2175
634.87 1128.97 2178
640.079 1128.97 2178
647.657 1133.11 2186
653.78 1134.67 2189
659.015 1134.67 2189
664.25 1134.67 2189
669.484 1134.67 2189
674.719 1134.67 2189
679.953 1134.67 2189
683.623 1132.08 2184
686.953 1128.97 2178
692.161 1128.97 2178
697.369 1128.97 2178
702.578 1128.97 2178
707.786 1128.97 2178
712.994 1128.97 2178
718.202 1128.97 2178
723.411 1128.97 2178
727.615 1127.41 2175
732.816 1127.41 2175
740.053 1130.52 2181
745.269 1130.52 2181
750.484 1130.52 2181
755.7 1130.52 2181
760.915 1130.52 2181
766.131 1130.52 2181
769.224 1127.41 2175
774.425 1127.41 2175
778.551 1125.86 2172
783.745 1125.86 2172
788.939 1125.86 2172
794.133 1125.86 2172
799.326 1125.86 2172
802.668 1123.26 2167
807.85 1123.26 2167
813.032 1123.26 2167
818.969 1124.3 2169
824.156 1124.3 2169
830.49 1125.86 2172
835.684 1125.86 2172
843.201 1128.97 2178
848.409 1128.97 2178
853.617 1128.97 2178
858.825 1128.97 2178
865.224 1130.52 2181
872.435 1133.11 2186
877.662 1133.11 2186
882.889 1133.11 2186
888.117 1133.11 2186
895.796 1136.22 2192
905.971 1142.44 2204
911.241 1142.44 2204
920.254 1147.11 2213
928.892 1151.26 2221
935.465 1152.81 2224
940.783 1152.81 2224
948.654 1155.92 2230
956.553 1159.03 2236
965.772 1163.7 2245
972.438 1165.25 2248
977.814 1165.25 2248
983.189 1165.25 2248
985.926 1162.14 2242
992.614 1163.7 2245
997.983 1163.7 2245
1004.69 1165.25 2248
1015.91 1171.99 2261
1025.38 1176.65 2270
1030.81 1176.65 2270
1040.35 1181.32 2279
1045.8 1181.32 2279
1054.01 1184.43 2285
1059.48 1184.43 2285
1068.2 1188.06 2292
1073.68 1188.06 2292
1079.17 1188.06 2292
1081.33 1184.43 2285
1082.52 1179.76 2276
1077.44 1168.36 2254
1082.83 1168.36 2254
1086.78 1166.81 2251
1079.06 1152.81 2224
1073.16 1140.89 2201
1078.43 1140.89 2201
1085.17 1142.44 2204
1090.44 1142.44 2204
1102.67 1149.7 2218
1107.97 1149.7 2218
1113.27 1149.7 2218
1117.07 1148.15 2215
1119.83 1145.55 2210
1125.11 1145.55 2210
1130.4 1145.55 2210
1132.6 1142.44 2204
1137.87 1142.44 2204
1146.25 1145.55 2210
1153.1 1147.11 2213
1161.01 1149.7 2218
1166.31 1149.7 2218
1176.37 1154.37 2227
1184.88 1157.48 2233
1196.62 1163.7 2245
1201.98 1163.7 2245
1208.97 1165.25 2248
1215.96 1166.81 2251
1221.35 1166.81 2251
1226.73 1166.81 2251
1232.11 1166.81 2251
1237.49 1166.81 2251
1242.88 1166.81 2251
1248.26 1166.81 2251
1256.98 1169.92 2257
1262.38 1169.92 2257
1267.78 1169.92 2257
1273.18 1169.92 2257
1278.57 1169.92 2257
1287.95 1173.54 2264
1293.37 1173.54 2264
1298.78 1173.54 2264
1300.16 1169.92 2257
1305.56 1169.92 2257
1305.73 1165.25 2248
1311.1 1165.25 2248
1316.48 1165.25 2248
1321.86 1165.25 2248
1325.46 1163.7 2245
1330.83 1163.7 2245
1336.2 1163.7 2245
1341.57 1163.7 2245
1346.93 1163.7 2245
1355.92 1166.81 2251
1361.3 1166.81 2251
1366.68 1166.81 2251
1370.24 1165.25 2248
1375.61 1165.25 2248
1380.99 1165.25 2248
1384.51 1163.7 2245
1388.02 1162.14 2242
1393.39 1162.14 2242
1398.75 1162.14 2242
1394.71 1154.37 2227
1394.38 1149.7 2218
1390.85 1142.44 2204
1396.12 1142.44 2204
1397.58 1139.33 2198
1390.07 1128.97 2178
1400.4 1133.11 2186
1409.49 1136.22 2192
1422.47 1142.44 2204
1427.74 1142.44 2204
1438.87 1147.11 2213
1444.16 1147.11 2213
1449.45 1147.11 2213
1454.74 1147.11 2213
1454.1 1142.44 2204
1453.41 1137.78 2195
1458.66 1137.78 2195
1459.9 1134.67 2189
1465.14 1134.67 2189
1465 1130.52 2181
1470.21 1130.52 2181
1471.37 1127.41 2175
1476.57 1127.41 2175
1481.77 1127.41 2175
1489.02 1128.97 2178
1496.29 1130.52 2181
1501.51 1130.52 2181
1510.18 1133.11 2186
1517.48 1134.67 2189
1522.72 1134.67 2189
1527.95 1134.67 2189
1533.19 1134.67 2189
1534.91 1132.08 2184
1540.13 1132.08 2184
1545.35 1132.08 2184
1554.13 1134.67 2189
1559.36 1134.67 2189
1564.59 1134.67 2189
1569.83 1134.67 2189
1572.9 1133.11 2186
1572.36 1128.97 2178
1577.56 1128.97 2178
1582.77 1128.97 2178
1587.98 1128.97 2178
1597.58 1132.08 2184
1604.27 1133.11 2186
1618.33 1139.33 2198
1623.59 1139.33 2198
1635.51 1144 2207
1648.97 1149.7 2218
1654.27 1149.7 2218
1659.58 1149.7 2218
1664.88 1149.7 2218
1670.18 1149.7 2218
1675.49 1149.7 2218
1670.18 1142.44 2204
1668.61 1137.78 2195
1665.47 1132.08 2184
1670.7 1132.08 2184
-1570.82 1092.52 2098
-1565.81 1092.52 2098
-1563.02 1094.09 2101
-1558 1094.09 2101
-1552.97 1094.09 2101
-1547.95 1094.09 2101
-1542.93 1094.09 2101
-1528.39 1087.32 2088
-1525.58 1088.88 2091
-1520.58 1088.88 2091
-1517.03 1089.92 2093
-1515.64 1092.52 2098
-1520.7 1099.81 2112
-1515.65 1099.81 2112
-1524.19 1109.71 2131
-1530.5 1118.04 2147
-1531.05 1122.21 2155
-1525.9 1122.21 2155
-1520.74 1122.21 2155
-1515.59 1122.21 2155
-1510.44 1122.21 2155
-1499.69 1118.04 2147
-1511.96 1131.06 2172
-1508.85 1132.62 2175
-1511.25 1138.35 2186
-1506.03 1138.35 2186
-1506.98 1143.04 2195
-1501.73 1143.04 2195
-1496.48 1143.04 2195
-1491.23 1143.04 2195
-1485.98 1143.04 2195
-1469.27 1134.18 2178
-1464.06 1134.18 2178
-1440.09 1119.6 2150
-1430.95 1116.48 2144
-1420.5 1112.31 2136
-1415.39 1112.31 2136
-1410.29 1112.31 2136
-1397.94 1106.58 2125
-1387.62 1102.42 2117
-1382.55 1102.42 2117
-1377.49 1102.42 2117
-1370.48 1100.86 2114
-1364.14 1099.81 2112
-1359.09 1099.81 2112
-1354.04 1099.81 2112
-1352.18 1102.42 2117
-1349.03 1103.98 2120
-1343.96 1103.98 2120
-1338.89 1103.98 2120
-1333.82 1103.98 2120
-1326.87 1102.42 2117
-1321.81 1102.42 2117
-1313.63 1099.81 2112
-1309.82 1100.86 2114
-1309.7 1105.02 2122
-1304.63 1105.02 2122
-1299.56 1105.02 2122
-1296.31 1106.58 2125
-1297.91 1112.31 2136
-1296.44 1115.44 2142
-1291.32 1115.44 2142
-1286.19 1115.44 2142
-1281.07 1115.44 2142
-1275.95 1115.44 2142
-1270.83 1115.44 2142
-1265.7 1115.44 2142
-1261.76 1116.48 2144
-1263.08 1122.21 2155
-1257.93 1122.21 2155
-1266.14 1134.18 2178
-1264.41 1137.31 2184
-1259.19 1137.31 2184
-1253.96 1137.31 2184
-1248.74 1137.31 2184
-1234.98 1129.5 2169
-1229.79 1129.5 2169
-1220.09 1125.33 2161
-1208.74 1119.6 2150
-1197.44 1113.87 2139
-1190.65 1112.31 2136
-1185.54 1112.31 2136
-1177.67 1109.71 2131
-1166.52 1103.98 2120
-1158.17 1100.86 2114
-1153.11 1100.86 2114
-1143.71 1096.69 2106
-1138.67 1096.69 2106
-1135.25 1098.25 2109
-1131.82 1099.81 2112
-1126.77 1099.81 2112
-1121.72 1099.81 2112
-1115.08 1098.25 2109
-1110.04 1098.25 2109
-1103.42 1096.69 2106
-1102.56 1100.86 2114
-1100.62 1103.98 2120
-1095.55 1103.98 2120
-1090.48 1103.98 2120
-1087.97 1106.58 2125
-1086.96 1110.75 2133
-1084.91 1113.87 2139
-1079.79 1113.87 2139
-1080.2 1119.6 2150
-1077.56 1122.21 2155
-1072.41 1122.21 2155
-1067.26 1122.21 2155
-1065.06 1125.33 2161
-1059.89 1125.33 2161
-1056.19 1126.89 2164
-1051.01 1126.89 2164
-1047.29 1128.46 2167
-1044.51 1131.06 2172
-1042.19 1134.18 2178
-1036.98 1134.18 2178
-1031.77 1134.18 2178
-1025.15 1132.62 2175
-1019.95 1132.62 2175
-1014.75 1132.62 2175
-1008.15 1131.06 2172
-997.881 1125.33 2161
-992.713 1125.33 2161
-984.804 1122.21 2155
-981.014 1123.77 2158
-977.211 1125.33 2161
-972.043 1125.33 2161
-966.875 1125.33 2161
-961.708 1125.33 2161
-951.671 1119.6 2150
-946.53 1119.6 2150
-940.075 1118.04 2147
-932.763 1115.44 2142
-926.342 1113.87 2139
-921.227 1113.87 2139
-917.397 1115.44 2142
-912.275 1115.44 2142
-907.153 1115.44 2142
-902.03 1115.44 2142
-896.908 1115.44 2142
-891.786 1115.44 2142
-889.976 1119.6 2150
-886.892 1122.21 2155
-884.194 1125.33 2161
-879.026 1125.33 2161
-873.858 1125.33 2161
-866.279 1122.21 2155
-861.126 1122.21 2155
-855.178 1121.16 2153
-848.845 1119.6 2150
-844.881 1121.16 2153
-841.683 1123.77 2158
-836.522 1123.77 2158
-832.518 1125.33 2161
-827.35 1125.33 2161
-822.182 1125.33 2161
-817.015 1125.33 2161
-811.847 1125.33 2161
-805.56 1123.77 2158
-800.399 1123.77 2158
-793.396 1121.16 2153
-788.248 1121.16 2153
-783.099 1121.16 2153
-777.951 1121.16 2153
-769.572 1116.48 2144
-762.662 1113.87 2139
-754.714 1109.71 2131
-749.618 1109.71 2131
-741.378 1105.02 2122
-736.303 1105.02 2122
-732.263 1106.58 2125
-728.208 1108.15 2128
-723.119 1108.15 2128
-720.73 1112.31 2136
-715.622 1112.31 2136
-711.512 1113.87 2139
-706.397 1113.87 2139
-702.922 1116.48 2144
-697.795 1116.48 2144
-692.668 1116.48 2144
-687.541 1116.48 2144
-682.414 1116.48 2144
-678.234 1118.04 2147
-673.1 1118.04 2147
-668.9 1119.6 2150
-663.758 1119.6 2150
-659.536 1121.16 2153
-656.819 1125.33 2161
-652.556 1126.89 2164
-647.381 1126.89 2164
-642.206 1126.89 2164
-637.032 1126.89 2164
-632.733 1128.46 2167
-627.551 1128.46 2167
-622.943 1129.5 2169
-617.757 1129.5 2169
-612.57 1129.5 2169
-607.383 1129.5 2169
-604.695 1134.18 2178
-599.487 1134.18 2178
-594.279 1134.18 2178
-588.259 1132.62 2175
-583.862 1134.18 2178
-578.654 1134.18 2178
-573.446 1134.18 2178
-566.672 1131.06 2172
-563.029 1134.18 2178
-558.589 1135.75 2181
-553.374 1135.75 2181
-548.158 1135.75 2181
-542.943 1135.75 2181
-536.988 1134.18 2178
-531.78 1134.18 2178
-526.571 1134.18 2178
-522.081 1135.75 2181
-518.051 1138.35 2186
-514.231 1141.47 2192
-508.989 1141.47 2192
-503.747 1141.47 2192
-497.823 1139.91 2189
-492.589 1139.91 2189
-486.686 1138.35 2186
-481.459 1138.35 2186
-476.232 1138.35 2186
-471.004 1138.35 2186
-465.777 1138.35 2186
-460.549 1138.35 2186
-455.947 1139.91 2189
-452.565 1144.6 2198
-447.92 1146.16 2201
-442.657 1146.16 2201
-437.99 1147.72 2204
-432.719 1147.72 2204
-429.194 1152.41 2213
-423.902 1152.41 2213
-418.61 1152.41 2213
-412.758 1150.85 2210
-407.473 1150.85 2210
-398.913 1141.47 2192
-393.132 1139.91 2189
-387.012 1137.31 2184
-381.789 1137.31 2184
-376.049 1135.75 2181
-368.453 1128.46 2167
-363.271 1128.46 2167
-358.089 1128.46 2167
-352.907 1128.46 2167
-347.725 1128.46 2167
-342.069 1126.89 2164
-336.894 1126.89 2164
-331.72 1126.89 2164
-326.545 1126.89 2164
-320.925 1125.33 2161
-315.757 1125.33 2161
-310.589 1125.33 2161
-304.998 1123.77 2158
-299.837 1123.77 2158
-294.677 1123.77 2158
-288.041 1118.04 2147
-282.907 1118.04 2147
-278.161 1119.6 2150
-273.4 1121.16 2153
-268.501 1122.21 2155
-263.348 1122.21 2155
-258.194 1122.21 2155
-253.041 1122.21 2155
-247.888 1122.21 2155
-242.735 1122.21 2155
-237.03 1119.6 2150
-231.889 1119.6 2150
-226.748 1119.6 2150
-221.606 1119.6 2150
-216.163 1118.04 2147
-211.029 1118.04 2147
-206.182 1119.6 2150
-201.041 1119.6 2150
-196.173 1121.16 2153
-191.468 1123.77 2158
-186.308 1123.77 2158
-181.147 1123.77 2158
-176.232 1125.33 2161
-171.302 1126.89 2164
-166.127 1126.89 2164
-160.952 1126.89 2164
-155.561 1125.33 2161
-150.394 1125.33 2161
-145.226 1125.33 2161
-139.67 1122.21 2155
-134.891 1125.33 2161
-129.903 1126.89 2164
-124.728 1126.89 2164
-119.554 1126.89 2164
-114.379 1126.89 2164
-109.204 1126.89 2164
-103.741 1123.77 2158
-98.5805 1123.77 2158
-93.4201 1123.77 2158
-88.2596 1123.77 2158
-82.7911 1119.6 2150
-77.6498 1119.6 2150
