-791.442 1066.25 2414
-785.67 1066.25 2414
-779.897 1066.25 2414
-770.918 1061.83 2404
-766.124 1063.16 2407
-762.579 1066.25 2414
-761.196 1072.43 2428
-755.39 1072.43 2428
-755.141 1080.38 2446
-749.292 1080.38 2446
-745.57 1083.47 2453
-739.704 1083.47 2453
-733.838 1083.47 2453
-733.314 1091.43 2471
-729.76 1094.96 2479
-723.832 1094.96 2479
-729.778 1113.07 2520
-727.198 1118.37 2532
-721.143 1118.37 2532
-715.089 1118.37 2532
-709.034 1118.37 2532
-698.537 1111.3 2516
-692.52 1111.3 2516
-685.412 1109.53 2512
-677.512 1106.44 2505
-670.45 1104.68 2501
-664.469 1104.68 2501
-657.435 1102.91 2497
-651.464 1102.91 2497
-644.717 1101.58 2494
-638.754 1101.58 2494
-632.79 1101.58 2494
-627.58 1102.91 2497
-621.609 1102.91 2497
-615.638 1102.91 2497
-609.666 1102.91 2497
-603.695 1102.91 2497
-596.049 1099.82 2490
-590.094 1099.82 2490
-581.559 1094.96 2479
-573.077 1090.1 2468
-567.175 1090.1 2468
-562.866 1093.19 2475
-556.947 1093.19 2475
-551.029 1093.19 2475
-546.872 1096.73 2483
-542.46 1099.82 2490
-536.505 1099.82 2490
-531.403 1101.58 2494
-526.071 1102.91 2497
-520.933 1104.68 2501
-514.953 1104.68 2501
-508.972 1104.68 2501
-502.991 1104.68 2501
-497.011 1104.68 2501
-492.601 1108.21 2509
-486.601 1108.21 2509
-480.601 1108.21 2509
-474.601 1108.21 2509
-468.602 1108.21 2509
-462.602 1108.21 2509
-457.148 1109.53 2512
-451.141 1109.53 2512
-445.134 1109.53 2512
-439.127 1109.53 2512
-430.017 1101.58 2494
-423.373 1099.82 2490
-417.418 1099.82 2490
-411.464 1099.82 2490
-404.858 1098.05 2486
-398.432 1096.73 2483
-392.494 1096.73 2483
-384.689 1091.43 2471
-378.32 1090.1 2468
-372.418 1090.1 2468
-366.962 1091.43 2471
-361.053 1091.43 2471
-355.144 1091.43 2471
-349.235 1091.43 2471
-343.326 1091.43 2471
-335.506 1085.24 2457
-330.569 1088.33 2464
-325.6 1091.43 2471
-319.691 1091.43 2471
-313.782 1091.43 2471
-307.873 1091.43 2471
-301.108 1088.33 2464
-295.216 1088.33 2464
-290.146 1091.43 2471
-284.237 1091.43 2471
-278.328 1091.43 2471
-273.742 1096.73 2483
-267.805 1096.73 2483
-261.867 1096.73 2483
-256.651 1099.82 2490
-251.099 1101.58 2494
-245.135 1101.58 2494
-239.172 1101.58 2494
-233.208 1101.58 2494
-226.241 1096.73 2483
-220.304 1096.73 2483
-214.021 1094.96 2479
-208.429 1096.73 2483
-202.491 1096.73 2483
-196.553 1096.73 2483
-190.616 1096.73 2483
-184.678 1096.73 2483
-70.7199 996.903 2257
-65.3228 996.903 2257
-59.9256 996.903 2257
-54.311 992.927 2248
-48.9353 992.927 2248
-43.5597 992.927 2248
-38.184 992.927 2248
-32.6333 987.627 2236
-27.1399 982.327 2224
-21.8216 982.327 2224
-16.5033 982.327 2224
-11.1851 982.327 2224
-5.83782 977.468 2213
-0.542902 972.168 2201
4.72036 972.168 2201
9.98361 972.168 2201
15.2469 972.168 2201
20.5101 972.168 2201
25.7734 972.168 2201
30.9943 970.843 2198
36.201 969.518 2195
41.4499 969.518 2195
46.6988 969.518 2195
51.8767 968.193 2192
57.1184 968.193 2192
62.5308 970.843 2198
67.7869 970.843 2198
73.2424 973.493 2204
78.5128 973.493 2204
83.8973 974.818 2207
89.1749 974.818 2207
94.4525 974.818 2207
99.7301 974.818 2207
105.15 976.143 2210
110.585 977.468 2213
116.139 979.677 2218
121.443 979.677 2218
126.747 979.677 2218
132.408 982.327 2224
138.283 986.302 2233
143.623 986.302 2233
149.563 990.277 2242
154.925 990.277 2242
160.286 990.277 2242
165.204 987.627 2236
170.322 986.302 2233
175.426 984.977 2230
180.759 984.977 2230
186.091 984.977 2230
193.226 994.252 2251
200.55 1003.97 2273
206.801 1007.94 2282
212.258 1007.94 2282
218.669 1012.36 2292
225.617 1018.99 2307
231.835 1022.08 2314
237.369 1022.08 2314
243.847 1026.05 2323
249.402 1026.05 2323
255.396 1027.82 2327
260.96 1027.82 2327
266.869 1029.15 2330
274.311 1036.21 2346
280.398 1037.98 2350
286.018 1037.98 2350
295.733 1052.56 2383
303.582 1060.06 2400
313.445 1074.2 2432
319.261 1074.2 2432
327.883 1083.47 2453
333.749 1083.47 2453
341.692 1090.1 2468
347.594 1090.1 2468
353.925 1091.43 2471
361.581 1096.73 2483
369.147 1101.58 2494
375.111 1101.58 2494
381.533 1102.91 2497
387.505 1102.91 2497
393.476 1102.91 2497
400.726 1106.44 2505
406.717 1106.44 2505
415.837 1114.83 2524
422.541 1116.6 2528
429.265 1118.37 2532
435.32 1118.37 2532
441.374 1118.37 2532
446.722 1116.6 2528
452.768 1116.6 2528
458.087 1114.83 2524
463.387 1113.07 2520
465.874 1104.68 2501
471.854 1104.68 2501
475.733 1099.82 2490
480.334 1096.73 2483
484.704 1093.19 2475
490.623 1093.19 2475
495.739 1091.43 2471
497.385 1082.15 2450
506.941 1090.1 2468
512.842 1090.1 2468
520.215 1093.19 2475
526.134 1093.19 2475
532.052 1093.19 2475
537.971 1093.19 2475
543.889 1093.19 2475
548.919 1091.43 2471
557.522 1096.73 2483
564.141 1098.05 2486
571.92 1101.58 2494
577.884 1101.58 2494
583.848 1101.58 2494
589.812 1101.58 2494
595.776 1101.58 2494
600.775 1099.82 2490
607.704 1101.58 2494
615.39 1104.68 2501
621.371 1104.68 2501
627.351 1104.68 2501
635.358 1108.21 2509
641.358 1108.21 2509
647.357 1108.21 2509
653.357 1108.21 2509
658.306 1106.44 2505
662.174 1102.91 2497
668.145 1102.91 2497
670.337 1096.73 2483
673.006 1091.43 2471
678.915 1091.43 2471
684.824 1091.43 2471
690.733 1091.43 2471
696.642 1091.43 2471
703.688 1093.19 2475
709.607 1093.19 2475
719.862 1099.82 2490
725.816 1099.82 2490
732.946 1101.58 2494
738.91 1101.58 2494
744.874 1101.58 2494
746.322 1094.96 2479
749.822 1091.43 2471
758.178 1094.96 2479
764.106 1094.96 2479
770.034 1094.96 2479
775.962 1094.96 2479
783.151 1096.73 2483
791.314 1099.82 2490
797.268 1099.82 2490
808.061 1106.44 2505
815.351 1108.21 2509
821.351 1108.21 2509
827.351 1108.21 2509
833.35 1108.21 2509
836.674 1104.68 2501
842.655 1104.68 2501
848.635 1104.68 2501
854.616 1104.68 2501
859.22 1102.91 2497
864.152 1101.58 2494
872.558 1104.68 2501
878.539 1104.68 2501
884.519 1104.68 2501
890.5 1104.68 2501
896.48 1104.68 2501
902.461 1104.68 2501
908.442 1104.68 2501
917.347 1108.21 2509
927.395 1113.07 2520
933.421 1113.07 2520
939.448 1113.07 2520
945.474 1113.07 2520
951.5 1113.07 2520
963.225 1119.69 2535
969.287 1119.69 2535
975.349 1119.69 2535
981.411 1119.69 2535
987.473 1119.69 2535
993.535 1119.69 2535
996.837 1116.6 2528
1002.88 1116.6 2528
1008.93 1116.6 2528
1014.97 1116.6 2528
1021.02 1116.6 2528
1010 1098.05 2486
1015.94 1098.05 2486
1015.72 1091.43 2471
1023.29 1093.19 2475
1029.2 1093.19 2475
1035.12 1093.19 2475
1041.04 1093.19 2475
1045.27 1091.43 2471
1060.96 1101.58 2494
1068.21 1102.91 2497
1074.18 1102.91 2497
1080.15 1102.91 2497
1086.12 1102.91 2497
1092.09 1102.91 2497
1098.06 1102.91 2497
1100.94 1099.82 2490
1106.89 1099.82 2490
1114.64 1101.58 2494
1125.54 1106.44 2505
1131.53 1106.44 2505
1140.7 1109.53 2512
1152.19 1114.83 2524
1161.89 1118.37 2532
1167.95 1118.37 2532
1174 1118.37 2532
1183.32 1121.46 2539
1193.14 1124.99 2547
1199.23 1124.99 2547
1205.32 1124.99 2547
1211.41 1124.99 2547
1217.5 1124.99 2547
1219.75 1121.46 2539
1222.44 1118.37 2532
1226.55 1116.6 2528
1230.65 1114.83 2524
1240.61 1118.37 2532
1246.66 1118.37 2532
1258.16 1123.23 2543
1264.24 1123.23 2543
1270.32 1123.23 2543
1274.39 1121.46 2539
1280.46 1121.46 2539
1282.99 1118.37 2532
1289.04 1118.37 2532
1284.87 1109.53 2512
1290.88 1109.53 2512
1296.88 1109.53 2512
1302.89 1109.53 2512
1307.33 1108.21 2509
1309.15 1104.68 2501
1315.13 1104.68 2501
1321.11 1104.68 2501
1329.21 1106.44 2505
1335.2 1106.44 2505
1341.19 1106.44 2505
1342.88 1102.91 2497
1348.85 1102.91 2497
1353.19 1101.58 2494
1354.8 1098.05 2486
1360.74 1098.05 2486
1368.89 1099.82 2490
1374.84 1099.82 2490
1383.01 1101.58 2494
1390.65 1102.91 2497
1396.62 1102.91 2497
1402.59 1102.91 2497
1426.05 1116.6 2528
1436.06 1119.69 2535
1442.12 1119.69 2535
1450.47 1121.46 2539
1456.54 1121.46 2539
1462.61 1121.46 2539
1462.32 1116.6 2528
1468.36 1116.6 2528
1467.41 1111.3 2516
1473.43 1111.3 2516
1484.15 1114.83 2524
1492.54 1116.6 2528
1498.59 1116.6 2528
1507.02 1118.37 2532
1513.07 1118.37 2532
1519.13 1118.37 2532
1525.18 1118.37 2532
1521.56 1111.3 2516
1520.9 1106.44 2505
1526.89 1106.44 2505
1532.88 1106.44 2505
1533.95 1102.91 2497
1539.92 1102.91 2497
1539.08 1098.05 2486
1550 1101.58 2494
1555.97 1101.58 2494
1561.93 1101.58 2494
1567.89 1101.58 2494
1575.75 1102.91 2497
1581.72 1102.91 2497
1587.69 1102.91 2497
1598.77 1106.44 2505
1609.24 1109.53 2512
1615.25 1109.53 2512
1621.26 1109.53 2512
1627.26 1109.53 2512
1638.47 1113.07 2520
1652.33 1118.37 2532
1658.39 1118.37 2532
1664.44 1118.37 2532
1670.49 1118.37 2532
1676.55 1118.37 2532
1682.6 1118.37 2532
1683.32 1114.83 2524
1689.36 1114.83 2524
1700.77 1118.37 2532
1706.82 1118.37 2532
1712.88 1118.37 2532
1718.93 1118.37 2532
1724.99 1118.37 2532
1731.04 1118.37 2532
1739.16 1119.69 2535
1747.97 1121.46 2539
1754.04 1121.46 2539
1760.11 1121.46 2539
1766.19 1121.46 2539
1772.26 1121.46 2539
1778.33 1121.46 2539
1835.17 1130.29 2559
1841.29 1130.29 2559
1847.41 1130.29 2559
1831.08 1116.6 2528
1809.51 1099.82 2490
1804.52 1093.19 2475
1818.49 1098.05 2486
1838.38 1106.44 2505
1844.37 1106.44 2505
1858.48 1111.3 2516
1864.5 1111.3 2516
1870.52 1111.3 2516
1800.99 1063.16 2407
1806.75 1063.16 2407
1812.5 1063.16 2407
1792.58 1048.14 2373
1788.4 1042.4 2360
1794.04 1042.4 2360
1784.43 1033.56 2340
1790.03 1033.56 2340
-1796.98 1083.13 2439
-1791.14 1083.13 2439
-1785.31 1083.13 2439
-1779.48 1083.13 2439
-1783.83 1089.35 2453
-1777.96 1089.35 2453
-1772.1 1089.35 2453
-1738.15 1072.03 2414
-1705.11 1055.16 2376
-1695.13 1052.49 2370
-1689.47 1052.49 2370
-1673.85 1046.27 2356
-1671.05 1048.05 2360
-1665.41 1048.05 2360
-1663.98 1050.71 2366
-1658.33 1050.71 2366
-1659.65 1055.16 2376
-1688.08 1076.92 2425
-1682.28 1076.92 2425
-1676.48 1076.92 2425
-1616.26 1041.83 2346
-1608.59 1040.5 2343
-1602.99 1040.5 2343
-1597.38 1040.5 2343
-1596.54 1043.61 2350
-1590.92 1043.61 2350
-1585.3 1043.61 2350
-1490.46 1048.05 2360
-1499.29 1058.26 2383
-1508.63 1068.92 2407
-1502.87 1068.92 2407
-1508.31 1076.92 2425
-1502.52 1076.92 2425
-1496.72 1076.92 2425
-1486.61 1073.81 2418
-1476.55 1070.7 2411
-1447.6 1053.82 2373
-1443.75 1055.16 2376
-1438.07 1055.16 2376
-1440.82 1061.37 2390
-1445.32 1068.92 2407
-1439.56 1068.92 2407
-1433.8 1068.92 2407
-1428.05 1068.92 2407
-1416.38 1064.48 2397
-1410.65 1064.48 2397
-1404.92 1064.48 2397
-1395.1 1061.37 2390
-1270.96 1062.71 2393
-1282.16 1076.92 2425
-1276.36 1076.92 2425
-1281.56 1086.24 2446
-1277.8 1088.02 2450
-1271.94 1088.02 2450
-1266.08 1088.02 2450
-1260.22 1088.02 2450
-1265.12 1097.34 2471
-1259.21 1097.34 2471
-1253.3 1097.34 2471
-1214.85 1073.81 2418
-1209.07 1073.81 2418
-1203.29 1073.81 2418
-1184.06 1088.02 2450
-1178.2 1088.02 2450
-1172.34 1088.02 2450
-1178.39 1099.12 2475
-1176.26 1102.67 2483
-1170.32 1102.67 2483
-1164.38 1102.67 2483
-1159.85 1104.01 2486
-1153.9 1104.01 2486
-1147.96 1104.01 2486
-1142.01 1104.01 2486
-1136.07 1104.01 2486
-1130.12 1104.01 2486
-1124.18 1104.01 2486
-1113.28 1099.12 2475
-1107.37 1099.12 2475
-1108.12 1105.78 2490
-1103.94 1107.56 2494
-1097.97 1107.56 2494
-1092.01 1107.56 2494
-1086.05 1107.56 2494
-1080.08 1107.56 2494
-1074.12 1107.56 2494
-1066.44 1105.78 2490
-1049.41 1094.24 2464
-1043.52 1094.24 2464
-1028.79 1084.91 2443
-1012.48 1073.81 2418
-995.037 1061.37 2390
-986.424 1058.26 2383
-980.726 1058.26 2383
-968.071 1050.71 2366
-961.193 1049.38 2363
-950.286 1043.61 2350
-944.666 1043.61 2350
-936.249 1040.5 2343
-930.647 1040.5 2343
-928.992 1044.94 2353
-923.365 1044.94 2353
-917.738 1044.94 2353
-917.151 1050.71 2366
-911.493 1050.71 2366
-908.515 1053.82 2373
-902.841 1053.82 2373
-902.459 1060.04 2387
-899.005 1062.71 2393
-900.002 1070.7 2411
-894.237 1070.7 2411
-894.736 1078.25 2428
-891.493 1081.36 2435
-885.67 1081.36 2435
-879.847 1081.36 2435
-870.435 1076.92 2425
-864.636 1076.92 2425
-863.795 1083.13 2439
-857.963 1083.13 2439
-852.13 1083.13 2439
-848.727 1086.24 2446
-842.878 1086.24 2446
-837.029 1086.24 2446
-828.801 1083.13 2439
-822.968 1083.13 2439
-817.136 1083.13 2439
-807.645 1078.25 2428
-797.215 1072.03 2414
-789.147 1068.92 2407
-783.392 1068.92 2407
-776.667 1067.59 2404
-766.428 1061.37 2390
-760.713 1061.37 2390
-757.209 1064.48 2397
-754.612 1068.92 2407
-748.856 1068.92 2407
-746.496 1073.81 2418
-740.714 1073.81 2418
-737.972 1078.25 2428
-732.165 1078.25 2428
-726.359 1078.25 2428
-727.082 1088.02 2450
-726.522 1096.01 2468
-720.621 1096.01 2468
-725.434 1112.44 2505
-722.603 1117.33 2516
-716.586 1117.33 2516
-710.57 1117.33 2516
-704.553 1117.33 2516
-695.483 1112.44 2505
-689.493 1112.44 2505
-682.411 1110.67 2501
-675.348 1108.89 2497
-668.573 1107.56 2494
-662.609 1107.56 2494
-656.645 1107.56 2494
-650.681 1107.56 2494
-644.717 1107.56 2494
-638.754 1107.56 2494
-630.76 1104.01 2486
-624.815 1104.01 2486
-618.87 1104.01 2486
-612.925 1104.01 2486
-606.981 1104.01 2486
-601.036 1104.01 2486
-593.416 1100.9 2479
-587.487 1100.9 2479
-579.683 1097.34 2471
-568.898 1088.02 2450
-565.567 1092.9 2461
-561.274 1096.01 2468
-555.372 1096.01 2468
-551.029 1099.12 2475
-545.11 1099.12 2475
-539.192 1099.12 2475
-533.273 1099.12 2475
-530.551 1105.78 2490
-524.596 1105.78 2490
-519.475 1107.56 2494
-513.511 1107.56 2494
-508.158 1108.89 2497
-502.187 1108.89 2497
-496.216 1108.89 2497
-490.245 1108.89 2497
-484.274 1108.89 2497
-478.303 1108.89 2497
-473.088 1110.67 2501
-467.108 1110.67 2501
-461.127 1110.67 2501
-455.146 1110.67 2501
-449.166 1110.67 2501
-443.185 1110.67 2501
-437.204 1110.67 2501
-430.017 1107.56 2494
-423.373 1105.78 2490
-417.418 1105.78 2490
-411.464 1105.78 2490
-404.858 1104.01 2486
-398.432 1102.67 2483
-392.494 1102.67 2483
-384.689 1097.34 2471
-378.32 1096.01 2468
-372.418 1096.01 2468
-366.962 1097.34 2471
-361.053 1097.34 2471
-355.144 1097.34 2471
-349.235 1097.34 2471
-343.326 1097.34 2471
-335.506 1091.13 2457
-330.569 1094.24 2464
-325.6 1097.34 2471
-319.691 1097.34 2471
-313.782 1097.34 2471
-307.873 1097.34 2471
-301.108 1094.24 2464
-295.216 1094.24 2464
-290.146 1097.34 2471
-284.237 1097.34 2471
-278.328 1097.34 2471
-273.742 1102.67 2483
-267.805 1102.67 2483
-261.867 1102.67 2483
-256.651 1105.78 2490
-251.099 1107.56 2494
-245.135 1107.56 2494
-239.172 1107.56 2494
-233.208 1107.56 2494
-226.241 1102.67 2483
-220.304 1102.67 2483
-214.021 1100.9 2479
-208.429 1102.67 2483
-202.491 1102.67 2483
-196.553 1102.67 2483
-190.616 1102.67 2483
-184.678 1102.67 2483
-70.7199 1002.31 2257
-65.3228 1002.31 2257
-59.9256 1002.31 2257
-54.311 998.312 2248
-48.9353 998.312 2248
-43.5597 998.312 2248
-38.184 998.312 2248
-32.6333 992.983 2236
-27.1399 987.654 2224
-21.8216 987.654 2224
-16.5033 987.654 2224
-11.1851 987.654 2224
-5.83782 982.769 2213
-0.542902 977.44 2201
4.72036 977.44 2201
9.98361 977.44 2201
15.2469 977.44 2201
20.5101 977.44 2201
25.7734 977.44 2201
30.9943 976.108 2198
36.201 974.776 2195
41.4499 974.776 2195
46.6988 974.776 2195
51.8767 973.443 2192
57.1184 973.443 2192
62.5308 976.108 2198
67.7869 976.108 2198
73.2424 978.773 2204
78.5128 978.773 2204
83.8973 980.105 2207
89.1749 980.105 2207
94.4525 980.105 2207
99.7301 980.105 2207
105.15 981.437 2210
110.585 982.769 2213
116.139 984.99 2218
121.443 984.99 2218
126.747 984.99 2218
132.408 987.654 2224
138.283 991.651 2233
143.623 991.651 2233
149.563 995.648 2242
154.925 995.648 2242
160.286 995.648 2242
165.204 992.983 2236
170.322 991.651 2233
175.426 990.319 2230
180.759 990.319 2230
186.091 990.319 2230
193.741 1002.31 2257
200.55 1009.41 2273
207.708 1017.85 2292
213.188 1017.85 2292
220.1 1024.51 2307
226.888 1030.29 2320
233.138 1033.4 2327
238.702 1033.4 2327
244.267 1033.4 2327
250.153 1034.73 2330
255.725 1034.73 2330
261.297 1034.73 2330
268.701 1041.83 2346
274.779 1043.61 2350
280.398 1043.61 2350
286.018 1043.61 2350
294.492 1053.82 2373
302.696 1062.71 2393
312.543 1076.92 2425
318.342 1076.92 2425
325.076 1080.02 2432
331.845 1083.13 2439
338.646 1086.24 2446
344.495 1086.24 2446
350.344 1086.24 2446
357.213 1089.35 2453
364.263 1092.9 2461
370.148 1092.9 2461
376.033 1092.9 2461
382.383 1094.24 2464
388.276 1094.24 2464
396.567 1100.9 2479
402.495 1100.9 2479
410.895 1107.56 2494
417.36 1108.89 2497
423.331 1108.89 2497
429.302 1108.89 2497
435.273 1108.89 2497
441.244 1108.89 2497
447.215 1108.89 2497
453.186 1108.89 2497
457.135 1104.01 2486
460.285 1097.34 2471
466.194 1097.34 2471
469.428 1091.13 2457
475.304 1091.13 2457
481.179 1091.13 2457
487.055 1091.13 2457
491.526 1088.02 2450
495.151 1083.13 2439
501.805 1084.91 2443
508.271 1086.24 2446
515.591 1089.35 2453
521.457 1089.35 2453
527.323 1089.35 2453
534.058 1091.13 2457
540.813 1092.9 2461
546.698 1092.9 2461
552.583 1092.9 2461
560.056 1096.01 2468
566.646 1097.34 2471
572.555 1097.34 2471
578.464 1097.34 2471
584.373 1097.34 2471
590.281 1097.34 2471
596.19 1097.34 2471
602.099 1097.34 2471
608.008 1097.34 2471
614.911 1099.12 2475
620.829 1099.12 2475
628.774 1102.67 2483
634.711 1102.67 2483
640.649 1102.67 2483
646.587 1102.67 2483
649.371 1097.34 2471
654.484 1096.01 2468
660.386 1096.01 2468
666.287 1096.01 2468
666.197 1086.24 2446
673.145 1088.02 2450
679.835 1089.35 2453
685.701 1089.35 2453
691.567 1089.35 2453
697.433 1089.35 2453
703.299 1089.35 2453
712.345 1094.24 2464
718.237 1094.24 2464
724.129 1094.24 2464
730.021 1094.24 2464
735.914 1094.24 2464
737.591 1088.02 2450
745.574 1091.13 2457
752.673 1092.9 2461
759.482 1094.24 2464
765.374 1094.24 2464
771.267 1094.24 2464
777.159 1094.24 2464
783.051 1094.24 2464
795.027 1102.67 2483
800.964 1102.67 2483
809.177 1105.78 2490
815.131 1105.78 2490
821.085 1105.78 2490
827.04 1105.78 2490
831.656 1104.01 2486
837.601 1104.01 2486
843.545 1104.01 2486
849.49 1104.01 2486
853.026 1100.9 2479
857.568 1099.12 2475
867.325 1104.01 2486
873.269 1104.01 2486
880.629 1105.78 2490
886.583 1105.78 2490
892.538 1105.78 2490
898.492 1105.78 2490
902.993 1104.01 2486
908.938 1104.01 2486
914.883 1104.01 2486
920.828 1104.01 2486
926.772 1104.01 2486
932.717 1104.01 2486
937.529 1102.67 2483
943.467 1102.67 2483
946.346 1099.12 2475
966.5 1115.55 2512
975.604 1119.1 2520
981.63 1119.1 2520
987.656 1119.1 2520
995.26 1120.88 2524
1001.3 1120.88 2524
1007.33 1120.88 2524
1005.74 1112.44 2505
983.456 1081.36 2435
982.373 1073.81 2418
988.155 1073.81 2418
992.293 1072.03 2414
998.065 1072.03 2414
1008.41 1076.92 2425
1014.21 1076.92 2425
1025.9 1083.13 2439
1031.73 1083.13 2439
1042.24 1088.02 2450
1052.81 1092.9 2461
1062.99 1097.34 2471
1068.9 1097.34 2471
1074.81 1097.34 2471
1080.72 1097.34 2471
1086.63 1097.34 2471
1092.54 1097.34 2471
1098.45 1097.34 2471
1106.14 1099.12 2475
1117.01 1104.01 2486
1122.95 1104.01 2486
1133.89 1108.89 2497
1139.86 1108.89 2497
1145.83 1108.89 2497
1151.8 1108.89 2497
1157.77 1108.89 2497
1169.34 1114.22 2509
1184.24 1122.66 2528
1190.28 1122.66 2528
1196.33 1122.66 2528
1202.37 1122.66 2528
1208.42 1122.66 2528
1214.46 1122.66 2528
1207.47 1110.67 2501
1204.72 1102.67 2483
1214.07 1105.78 2490
1227.38 1112.44 2505
1233.37 1112.44 2505
1241.34 1114.22 2509
1248.83 1115.55 2512
1254.83 1115.55 2512
1260.84 1115.55 2512
1266.85 1115.55 2512
1269.31 1112.44 2505
1275.3 1112.44 2505
1273.62 1105.78 2490
1281.63 1107.56 2494
1287.59 1107.56 2494
1293.55 1107.56 2494
1299.52 1107.56 2494
1303.39 1105.78 2490
1305.66 1102.67 2483
1313.18 1104.01 2486
1323.37 1107.56 2494
1329.34 1107.56 2494
1335.3 1107.56 2494
1341.26 1107.56 2494
1347.23 1107.56 2494
1348.85 1104.01 2486
1350.98 1100.9 2479
1352.53 1097.34 2471
1358.44 1097.34 2471
1364.35 1097.34 2471
1370.26 1097.34 2471
1382.85 1102.67 2483
1396.62 1108.89 2497
1402.59 1108.89 2497
1408.56 1108.89 2497
1414.53 1108.89 2497
1420.5 1108.89 2497
1426.47 1108.89 2497
1428.43 1105.78 2490
1434.38 1105.78 2490
1440.34 1105.78 2490
1446.29 1105.78 2490
1448.16 1102.67 2483
1454.1 1102.67 2483
1468.27 1108.89 2497
1476.6 1110.67 2501
1482.58 1110.67 2501
1490.95 1112.44 2505
1496.94 1112.44 2505
1502.93 1112.44 2505
1508.92 1112.44 2505
1508.25 1107.56 2494
1514.22 1107.56 2494
1520.18 1107.56 2494
1526.15 1107.56 2494
1527.2 1104.01 2486
1531.29 1102.67 2483
1537.23 1102.67 2483
1545.03 1104.01 2486
1550.97 1104.01 2486
1559.42 1105.78 2490
1565.38 1105.78 2490
1571.33 1105.78 2490
1577.29 1105.78 2490
1583.24 1105.78 2490
1593.66 1108.89 2497
1604.76 1112.44 2505
1610.75 1112.44 2505
1616.74 1112.44 2505
1622.73 1112.44 2505
1631.32 1114.22 2509
1639.28 1115.55 2512
1645.29 1115.55 2512
1659.18 1120.88 2524
1665.22 1120.88 2524
1671.25 1120.88 2524
1671.97 1117.33 2516
1677.99 1117.33 2516
1689.36 1120.88 2524
1695.39 1120.88 2524
1701.43 1120.88 2524
1707.47 1120.88 2524
1713.5 1120.88 2524
1719.54 1120.88 2524
1725.57 1120.88 2524
1734.35 1122.66 2528
1740.4 1122.66 2528
1746.44 1122.66 2528
1752.49 1122.66 2528
1758.53 1122.66 2528
1764.58 1122.66 2528
1812.94 1122.66 2528
1818.99 1122.66 2528
1825.03 1122.66 2528
1792.69 1099.12 2475
1775.35 1084.91 2443
1773.17 1080.02 2432
1810.44 1099.12 2475
1816.36 1099.12 2475
1822.28 1099.12 2475
1756.46 1039.17 2340
1762.05 1039.17 2340
1767.65 1039.17 2340
1773.24 1039.17 2340
1778.84 1039.17 2340
1764.61 1027.62 2314
1770.14 1027.62 2314
-1796.98 1088.98 2439
-1791.14 1088.98 2439
-1785.31 1088.98 2439
-1764.16 1079.6 2418
-1768.56 1085.85 2432
-1762.74 1085.85 2432
-1756.93 1085.85 2432
-1738.15 1077.81 2414
-1700.8 1058.17 2370
-1685.12 1051.92 2356
-1679.49 1051.92 2356
-1673.85 1051.92 2356
-1668.22 1051.92 2356
-1662.58 1051.92 2356
-1656.95 1051.92 2356
-1649.21 1050.58 2353
-1643.59 1050.58 2353
-1633.09 1047.45 2346
-1630.25 1049.24 2350
-1624.63 1049.24 2350
-1619.01 1049.24 2350
-1610.65 1047.45 2346
-1605.04 1047.45 2346
-1599.43 1047.45 2346
-1596.54 1049.24 2350
-1590.92 1049.24 2350
-1585.3 1049.24 2350
-1484.82 1053.7 2360
-1479.17 1053.7 2360
-1473.53 1053.7 2360
-1497.12 1074.69 2407
-1491.36 1074.69 2407
-1485.61 1074.69 2407
-1458.95 1059.51 2373
-1447.15 1055.04 2363
-1441.5 1055.04 2363
-1437.67 1056.38 2366
-1432.01 1056.38 2366
-1432.38 1060.85 2376
-1433.31 1065.76 2387
-1427.6 1065.76 2387
-1421.89 1065.76 2387
-1416.18 1065.76 2387
-1403.97 1060.85 2376
-1396.53 1059.51 2373
-1390.85 1059.51 2373
-1381.09 1056.38 2366
-1274.68 1071.56 2400
-1293.26 1092.1 2446
-1287.41 1092.1 2446
-1294.66 1103.26 2471
-1288.75 1103.26 2471
-1282.84 1103.26 2471
-1276.93 1103.26 2471
-1265.88 1098.8 2461
-1269.21 1106.84 2479
-1263.28 1106.84 2479
-1257.36 1106.84 2479
-1247.39 1103.26 2471
-1221.89 1085.85 2432
-1216.07 1085.85 2432
-1203.29 1079.6 2418
-1197.51 1079.6 2418
-1170.04 1080.94 2421
-1176.28 1092.1 2446
-1170.43 1092.1 2446
-1166.48 1093.89 2450
-1160.63 1093.89 2450
-1154.77 1093.89 2450
-1148.91 1093.89 2450
-1144.45 1095.23 2453
-1145.55 1101.92 2468
-1141.03 1103.26 2471
-1135.12 1103.26 2471
-1129.21 1103.26 2471
-1123.3 1103.26 2471
-1117.39 1103.26 2471
-1108.34 1100.14 2464
-1105.58 1103.26 2471
-1106.34 1109.96 2486
-1103.94 1113.53 2494
-1097.97 1113.53 2494
-1092.01 1113.53 2494
-1086.05 1113.53 2494
-1080.08 1113.53 2494
-1074.12 1113.53 2494
-1066.44 1111.75 2490
-1049.41 1100.14 2464
-1043.52 1100.14 2464
-1027.1 1088.98 2439
-1012.48 1079.6 2418
-996.286 1068.44 2393
-986.424 1063.97 2383
-980.726 1063.97 2383
-968.071 1056.38 2366
-962.414 1056.38 2366
-950.286 1049.24 2350
-944.666 1049.24 2350
-939.047 1049.24 2350
-930.647 1046.11 2343
-928.992 1050.58 2353
-923.365 1050.58 2353
-917.738 1050.58 2353
-912.112 1050.58 2353
-909.182 1053.7 2360
-903.538 1053.7 2360
-897.895 1053.7 2360
-897.166 1059.51 2373
-896.751 1065.76 2387
-893.283 1068.44 2393
-887.56 1068.44 2393
-888.471 1076.47 2411
-883.804 1077.81 2414
-878.031 1077.81 2414
-872.259 1077.81 2414
-870.435 1082.73 2425
-864.636 1082.73 2425
-858.837 1082.73 2425
-853.038 1082.73 2425
-848.287 1084.06 2428
-844.91 1087.19 2435
-839.087 1087.19 2435
-833.264 1087.19 2435
-826.422 1085.85 2432
-820.606 1085.85 2432
-814.791 1085.85 2432
-806.647 1082.73 2425
-794.903 1074.69 2407
-788.164 1073.35 2404
-782.415 1073.35 2404
-773.113 1068.44 2393
-765.466 1065.76 2387
-757.53 1062.63 2380
-750.575 1060.85 2376
-746.148 1062.63 2380
-740.456 1062.63 2380
-735.691 1063.97 2383
-729.993 1063.97 2383
-727.334 1068.44 2393
-721.611 1068.44 2393
-717.085 1070.22 2397
-713.431 1073.35 2404
-717.985 1088.98 2439
-712.153 1088.98 2439
-714.719 1101.92 2468
-715.136 1111.75 2490
-711.175 1114.87 2497
-705.204 1114.87 2497
-699.233 1114.87 2497
-692.429 1113.53 2494
-686.465 1113.53 2494
-680.501 1113.53 2494
-673.455 1111.75 2490
-665.624 1108.62 2483
-660.484 1109.96 2486
-654.539 1109.96 2486
-649.638 1111.75 2490
-643.683 1111.75 2490
-637.729 1111.75 2490
-630.76 1109.96 2486
-624.061 1108.62 2483
-618.123 1108.62 2483
-612.186 1108.62 2483
-605.272 1106.84 2479
-599.344 1106.84 2479
-591.5 1103.26 2471
-585.592 1103.26 2471
-575.46 1095.23 2453
-567.272 1090.76 2443
-562.12 1092.1 2446
-559.682 1098.8 2461
-553.797 1098.8 2461
-547.912 1098.8 2461
-543.568 1101.92 2468
-537.667 1101.92 2468
-531.765 1101.92 2468
-525.011 1100.14 2464
-519.119 1100.14 2464
-513.227 1100.14 2464
-508.776 1103.26 2471
-502.867 1103.26 2471
-496.958 1103.26 2471
-493.434 1108.62 2483
-488.085 1109.96 2486
-482.14 1109.96 2486
-476.962 1111.75 2490
-471.007 1111.75 2490
-465.053 1111.75 2490
-459.099 1111.75 2490
-451.143 1106.84 2479
-445.215 1106.84 2479
-439.286 1106.84 2479
-433.358 1106.84 2479
-427.43 1106.84 2479
-418.952 1100.14 2464
-413.06 1100.14 2464
-407.168 1100.14 2464
-401.275 1100.14 2464
-393.137 1093.89 2450
-387.278 1093.89 2450
-380.797 1092.1 2446
-373.874 1088.98 2439
-368.042 1088.98 2439
-364.289 1095.23 2453
-358.423 1095.23 2453
-352.557 1095.23 2453
-346.691 1095.23 2453
-340.825 1095.23 2453
-332.502 1087.19 2435
-328.154 1092.1 2446
-323.755 1097.01 2457
-317.879 1097.01 2457
-312.004 1097.01 2457
-306.129 1097.01 2457
-300.253 1097.01 2457
-294.378 1097.01 2457
-288.972 1098.8 2461
-283.087 1098.8 2461
-277.54 1100.14 2464
-272.089 1101.92 2468
-266.51 1103.26 2471
-260.602 1103.26 2471
-255.93 1108.62 2483
-250.697 1111.75 2490
-244.742 1111.75 2490
-238.788 1111.75 2490
-232.179 1108.62 2483
-225.513 1105.05 2475
-219.594 1105.05 2475
-213.071 1101.92 2468
-207.757 1105.05 2475
-201.839 1105.05 2475
-195.92 1105.05 2475
-190.002 1105.05 2475
-183.786 1103.26 2471
-59.6866 1003.7 2248
-54.311 1003.7 2248
-48.9353 1003.7 2248
-43.4434 1001.02 2242
-38.0821 1001.02 2242
-32.3706 990.303 2218
-27.0666 990.303 2218
-21.7627 990.303 2218
-16.4588 990.303 2218
-11.1147 986.731 2210
-5.80616 982.713 2201
-0.541422 980.034 2195
4.71392 981.373 2198
9.97001 981.373 2198
15.2261 981.373 2198
20.4822 981.373 2198
25.7383 981.373 2198
30.952 980.034 2195
36.201 980.034 2195
41.3366 977.355 2189
46.5711 977.355 2189
51.8057 977.355 2189
57.0402 977.355 2189
62.5308 981.373 2198
67.7869 981.373 2198
73.2424 984.052 2204
78.5128 984.052 2204
83.7833 984.052 2204
89.0537 984.052 2204
94.4525 985.392 2207
99.7301 985.392 2207
105.008 985.392 2207
110.585 988.071 2213
115.877 988.071 2213
121.169 988.071 2213
126.461 988.071 2213
132.051 990.303 2218
137.726 992.982 2224
143.044 992.982 2224
148.963 997 2233
154.303 997 2233
159.643 997 2233
164.982 997 2233
170.322 997 2233
175.426 995.661 2230
180.759 995.661 2230
186.091 995.661 2230
193.741 1007.72 2257
200.55 1014.86 2273
207.979 1024.68 2295
213.467 1024.68 2295
221.341 1035.84 2320
227.182 1037.18 2323
235.743 1050.58 2353
241.369 1050.58 2353
247.311 1051.92 2356
253.374 1053.7 2360
259.018 1053.7 2360
264.661 1053.7 2360
270.648 1055.04 2363
276.299 1055.04 2363
282.308 1056.38 2366
287.965 1056.38 2366
294.492 1059.51 2373
302.696 1068.44 2393
312.543 1082.73 2425
318.342 1082.73 2425
325.076 1085.85 2432
331.845 1088.98 2439
338.646 1092.1 2446
344.495 1092.1 2446
350.344 1092.1 2446
357.213 1095.23 2453
364.263 1098.8 2461
370.148 1098.8 2461
376.033 1098.8 2461
382.383 1100.14 2464
388.276 1100.14 2464
396.567 1106.84 2479
402.495 1106.84 2479
410.895 1113.53 2494
417.36 1114.87 2497
423.331 1114.87 2497
429.302 1114.87 2497
435.273 1114.87 2497
441.244 1114.87 2497
447.215 1114.87 2497
453.186 1114.87 2497
457.135 1109.96 2486
460.285 1103.26 2471
466.194 1103.26 2471
469.428 1097.01 2457
475.304 1097.01 2457
481.179 1097.01 2457
487.055 1097.01 2457
491.526 1093.89 2450
495.151 1088.98 2439
501.805 1090.76 2443
508.271 1092.1 2446
515.591 1095.23 2453
521.457 1095.23 2453
527.323 1095.23 2453
534.058 1097.01 2457
540.813 1098.8 2461
546.698 1098.8 2461
552.583 1098.8 2461
560.056 1101.92 2468
566.646 1103.26 2471
572.555 1103.26 2471
578.464 1103.26 2471
584.373 1103.26 2471
590.281 1103.26 2471
596.19 1103.26 2471
602.099 1103.26 2471
608.008 1103.26 2471
614.911 1105.05 2475
620.829 1105.05 2475
628.774 1108.62 2483
634.711 1108.62 2483
640.649 1108.62 2483
646.587 1108.62 2483
649.371 1103.26 2471
654.484 1101.92 2468
660.386 1101.92 2468
666.287 1101.92 2468
666.197 1092.1 2446
673.145 1093.89 2450
679.835 1095.23 2453
685.701 1095.23 2453
691.567 1095.23 2453
697.433 1095.23 2453
703.299 1095.23 2453
712.345 1100.14 2464
718.237 1100.14 2464
724.129 1100.14 2464
730.021 1100.14 2464
735.914 1100.14 2464
737.591 1093.89 2450
745.574 1097.01 2457
752.673 1098.8 2461
759.482 1100.14 2464
765.374 1100.14 2464
771.267 1100.14 2464
777.159 1100.14 2464
783.051 1100.14 2464
795.027 1108.62 2483
800.964 1108.62 2483
809.177 1111.75 2490
815.131 1111.75 2490
821.085 1111.75 2490
827.04 1111.75 2490
831.656 1109.96 2486
837.601 1109.96 2486
843.545 1109.96 2486
849.49 1109.96 2486
853.026 1106.84 2479
857.568 1105.05 2475
863.487 1105.05 2475
869.405 1105.05 2475
876.739 1106.84 2479
882.667 1106.84 2479
888.595 1106.84 2479
893.079 1105.05 2475
897.545 1103.26 2471
906.379 1106.84 2479
913.779 1108.62 2483
919.716 1108.62 2483
925.654 1108.62 2483
931.592 1108.62 2483
934.509 1105.05 2475
940.427 1105.05 2475
936.786 1093.89 2450
934.181 1084.06 2428
931.857 1074.69 2407
937.613 1074.69 2407
943.368 1074.69 2407
950.702 1076.47 2411
959.244 1079.6 2418
965.026 1079.6 2418
970.808 1079.6 2418
974.975 1077.81 2414
977.904 1074.69 2407
983.659 1074.69 2407
986.538 1071.56 2400
992.277 1071.56 2400
1003.84 1077.81 2414
1012.54 1080.94 2421
1018.33 1080.94 2421
1024.12 1080.94 2421
1035.86 1087.19 2435
1048.1 1093.89 2450
1058.69 1098.8 2461
1064.58 1098.8 2461
1070.46 1098.8 2461
1076.35 1098.8 2461
1082.23 1098.8 2461
1088.12 1098.8 2461
1090.45 1095.23 2453
1096.31 1095.23 2453
1103.98 1097.01 2457
1109.85 1097.01 2457
1130.71 1111.75 2490
1136.67 1111.75 2490
1142.62 1111.75 2490
1148.57 1111.75 2490
1154.53 1111.75 2490
1163.75 1114.87 2497
1171.59 1116.66 2501
1177.57 1116.66 2501
1183.55 1116.66 2501
1189.53 1116.66 2501
1193.6 1114.87 2497
1199.57 1114.87 2497
1198.78 1108.62 2483
1195.5 1100.14 2464
1203.35 1101.92 2468
1216.6 1108.62 2483
1222.53 1108.62 2483
1229.96 1109.96 2486
1237.89 1111.75 2490
1243.84 1111.75 2490
1249.8 1111.75 2490
1255.75 1111.75 2490
1261.71 1111.75 2490
1267.66 1111.75 2490
1263.9 1103.26 2471
1269.81 1103.26 2471
1281.91 1108.62 2483
1287.85 1108.62 2483
1293.79 1108.62 2483
1293.44 1103.26 2471
1297.77 1101.92 2468
1311.6 1108.62 2483
1317.54 1108.62 2483
1323.47 1108.62 2483
1329.41 1108.62 2483
1335.35 1108.62 2483
1341.29 1108.62 2483
1345.05 1106.84 2479
1344.99 1101.92 2468
1350.89 1101.92 2468
1356.79 1101.92 2468
1362.69 1101.92 2468
1368.59 1101.92 2468
1376.17 1103.26 2471
1388.79 1108.62 2483
1400.9 1113.53 2494
1406.87 1113.53 2494
1412.83 1113.53 2494
1418.8 1113.53 2494
1424.76 1113.53 2494
1428.43 1111.75 2490
1434.38 1111.75 2490
1438.02 1109.96 2486
1443.97 1109.96 2486
1448.16 1108.62 2483
1454.1 1108.62 2483
1460.04 1108.62 2483
1465.98 1108.62 2483
1469.54 1106.84 2479
1482.02 1111.75 2490
1487.97 1111.75 2490
1496.33 1113.53 2494
1502.29 1113.53 2494
1508.25 1113.53 2494
1514.22 1113.53 2494
1520.18 1113.53 2494
1526.15 1113.53 2494
1527.2 1109.96 2486
1526.36 1105.05 2475
1529.8 1103.26 2471
1538.19 1105.05 2475
1544.11 1105.05 2475
1550.03 1105.05 2475
1558.46 1106.84 2479
1564.39 1106.84 2479
1570.32 1106.84 2479
1578.79 1108.62 2483
1593.66 1114.87 2497
1604.76 1118.44 2505
1610.75 1118.44 2505
1616.74 1118.44 2505
1622.73 1118.44 2505
1631.32 1120.23 2509
1637.32 1120.23 2509
1643.32 1120.23 2509
1653.92 1123.36 2516
1659.94 1123.36 2516
1665.96 1123.36 2516
1671.97 1123.36 2516
1677.99 1123.36 2516
1689.36 1126.93 2524
1695.39 1126.93 2524
1701.43 1126.93 2524
1707.47 1126.93 2524
1713.5 1126.93 2524
1719.54 1126.93 2524
1725.57 1126.93 2524
1734.35 1128.71 2528
1740.4 1128.71 2528
1746.44 1128.71 2528
1752.49 1128.71 2528
1752.97 1125.14 2520
1753.41 1121.57 2512
1726.17 1074.69 2407
1731.92 1074.69 2407
1737.68 1074.69 2407
1743.43 1074.69 2407
1747.01 1073.35 2404
1727.97 1058.17 2370
1721.2 1050.58 2353
1726.83 1050.58 2353
1731.69 1030.04 2307
1737.2 1030.04 2307
1742.72 1030.04 2307
1743.69 1027.36 2301
1749.19 1027.36 2301
1747.83 1023.34 2292
1753.31 1023.34 2292
-1773.4 1080.45 2407
-1775.72 1085.39 2418
-1769.94 1085.39 2418
-1764.16 1085.39 2418
-1768.56 1091.68 2432
-1762.74 1091.68 2432
-1756.93 1091.68 2432
-1738.15 1083.6 2414
-1700.8 1063.85 2370
-1685.12 1057.56 2356
-1679.49 1057.56 2356
-1673.85 1057.56 2356
-1668.22 1057.56 2356
-1662.58 1057.56 2356
-1656.95 1057.56 2356
-1651.32 1057.56 2356
-1643.59 1056.22 2353
-1635.87 1054.87 2350
-1632.33 1056.22 2353
-1626.71 1056.22 2353
-1621.08 1056.22 2353
-1615.45 1056.22 2353
-1609.83 1056.22 2353
-1604.2 1056.22 2353
-1598.57 1056.22 2353
-1592.95 1056.22 2353
-1587.32 1056.22 2353
-1484.82 1059.36 2360
-1479.17 1059.36 2360
-1473.53 1059.36 2360
-1497.12 1080.45 2407
-1491.36 1080.45 2407
-1485.61 1080.45 2407
-1458.95 1065.19 2373
-1447.15 1060.7 2363
-1441.5 1060.7 2363
-1437.67 1062.05 2366
-1432.01 1062.05 2366
-1432.38 1066.54 2376
-1433.31 1071.48 2387
-1427.6 1071.48 2387
-1421.89 1071.48 2387
-1416.18 1071.48 2387
-1403.97 1066.54 2376
-1396.53 1065.19 2373
-1390.85 1065.19 2373
-1381.09 1062.05 2366
-1274.68 1077.31 2400
-1293.26 1097.96 2446
-1287.41 1097.96 2446
-1294.66 1109.18 2471
-1288.75 1109.18 2471
-1287 1112.77 2479
-1281.07 1112.77 2479
-1275.14 1112.77 2479
-1269.21 1112.77 2479
-1263.28 1112.77 2479
-1257.36 1112.77 2479
-1247.39 1109.18 2471
-1221.89 1091.68 2432
-1216.07 1091.68 2432
-1203.29 1085.39 2418
-1197.51 1085.39 2418
-1170.04 1086.74 2421
-1176.28 1097.96 2446
-1170.43 1097.96 2446
-1166.48 1099.76 2450
-1160.63 1099.76 2450
-1154.77 1099.76 2450
-1148.91 1099.76 2450
-1118.32 1075.97 2397
-1112.59 1075.97 2397
-1136.41 1104.69 2461
-1130.53 1104.69 2461
-1124.64 1104.69 2461
-1118.76 1104.69 2461
-1112.87 1104.69 2461
-1105.19 1102.9 2457
-1097.52 1101.1 2453
-1093.44 1102.9 2457
-1095.53 1110.98 2475
-1089.61 1110.98 2475
-1092.01 1119.51 2494
-1086.05 1119.51 2494
-1080.08 1119.51 2494
-1074.12 1119.51 2494
-1057.02 1107.84 2468
-1040.47 1096.61 2443
-1034.63 1096.61 2443
-1024.15 1091.68 2432
-1012.48 1085.39 2418
-996.286 1074.17 2393
-986.424 1069.68 2383
-980.726 1069.68 2383
-968.071 1062.05 2366
-962.414 1062.05 2366
-950.286 1054.87 2350
-944.666 1054.87 2350
-939.047 1054.87 2350
-930.647 1051.73 2343
-925.044 1051.73 2343
-920.618 1053.07 2346
-915.008 1053.07 2346
-910.949 1054.87 2350
-906.485 1056.22 2353
-900.858 1056.22 2353
-895.231 1056.22 2353
-890.739 1057.56 2356
-895.248 1069.68 2383
-893.283 1074.17 2393
-887.56 1074.17 2393
-883.312 1075.97 2397
-878.678 1077.31 2400
-872.939 1077.31 2400
-867.2 1077.31 2400
-863.974 1080.45 2407
-858.218 1080.45 2407
-854.941 1083.6 2414
-849.168 1083.6 2414
-843.396 1083.6 2414
-843.869 1091.68 2432
-838.053 1091.68 2432
-832.238 1091.68 2432
-826.422 1091.68 2432
-820.606 1091.68 2432
-814.791 1091.68 2432
-804.318 1085.39 2418
-793.913 1079.11 2404
-784.557 1074.17 2393
-777.859 1072.82 2390
-772.143 1072.82 2390
-763.221 1068.33 2380
-753.074 1062.05 2366
-744.257 1057.56 2356
-739.877 1059.36 2360
-734.234 1059.36 2360
-728.59 1059.36 2360
-724.785 1062.05 2366
-722.167 1066.54 2376
-716.485 1066.54 2376
-712 1068.33 2380
-707.199 1069.68 2383
-706.505 1077.31 2400
-700.766 1077.31 2400
-706.321 1094.82 2439
-704.509 1101.1 2453
-700.922 1104.69 2461
-695.037 1104.69 2461
-689.152 1104.69 2461
-683.267 1104.69 2461
-677.382 1104.69 2461
-671.497 1104.69 2461
-666.423 1106.04 2464
-663.48 1110.98 2475
-658.624 1112.77 2479
-652.696 1112.77 2479
-647.811 1114.57 2483
-641.874 1114.57 2483
-635.936 1114.57 2483
-629.999 1114.57 2483
-621.045 1109.18 2471
-613.394 1106.04 2464
-607.501 1106.04 2464
-600.877 1104.69 2461
-594.992 1104.69 2461
-588.149 1102.9 2457
-582.274 1102.9 2457
-573.114 1096.61 2443
-563.789 1089.88 2428
-557.294 1088.53 2425
-553.087 1091.68 2432
-547.271 1091.68 2432
-541.455 1091.68 2432
-537.181 1094.82 2439
-531.349 1094.82 2439
-525.517 1094.82 2439
-518.193 1091.68 2432
-512.377 1091.68 2432
-506.561 1091.68 2432
-500.746 1091.68 2432
-494.93 1091.68 2432
-489.718 1093.02 2435
-486.876 1099.76 2450
-482.391 1102.9 2457
-476.516 1102.9 2457
-472.748 1107.84 2468
-466.846 1107.84 2468
-460.944 1107.84 2468
-455.042 1107.84 2468
-445.137 1097.96 2446
-439.288 1097.96 2446
-433.439 1097.96 2446
-427.065 1096.61 2443
-420.534 1094.82 2439
-412.831 1089.88 2428
-407.025 1089.88 2428
-400.723 1088.53 2425
-394.924 1088.53 2425
-388.002 1085.39 2418
-382.22 1085.39 2418
-375.815 1083.6 2414
-369.582 1082.25 2411
-363.817 1082.25 2411
-360.576 1089.88 2428
-354.77 1089.88 2428
-348.964 1089.88 2428
-343.158 1089.88 2428
-337.352 1089.88 2428
-330.18 1085.39 2418
-324.398 1085.39 2418
-320.461 1091.68 2432
-316.068 1096.61 2443
-310.226 1096.61 2443
-304.384 1096.61 2443
-298.909 1097.96 2446
-293.06 1097.96 2446
-287.211 1097.96 2446
-281.361 1097.96 2446
-275.512 1097.96 2446
-270.435 1101.1 2453
-265.432 1104.69 2461
-259.547 1104.69 2461
-254.383 1107.84 2468
-248.482 1107.84 2468
-242.58 1107.84 2468
-236.678 1107.84 2468
-230.776 1107.84 2468
-223.235 1099.76 2450
-217.376 1099.76 2450
-211.517 1099.76 2450
-205.91 1101.1 2453
-200.045 1101.1 2453
-195.049 1106.04 2464
-189.157 1106.04 2464
-183.265 1106.04 2464
-48.3476 996.963 2221
-43.0365 996.963 2221
-37.7254 996.963 2221
-32.2538 992.025 2210
-26.969 992.025 2210
-21.6842 992.025 2210
-16.3995 992.025 2210
-11.0694 987.985 2201
-5.79825 986.639 2198
-0.539942 982.599 2189
4.70105 983.945 2192
9.94279 983.945 2192
15.2053 985.292 2195
20.4542 985.292 2195
25.7031 985.292 2195
30.952 985.292 2195
36.201 985.292 2195
41.3366 982.599 2189
46.5711 982.599 2189
51.8057 982.599 2189
57.0402 982.599 2189
62.5308 986.639 2198
67.8795 987.985 2201
73.2424 989.332 2204
78.5128 989.332 2204
83.7833 989.332 2204
89.0537 989.332 2204
94.3241 989.332 2204
99.5946 989.332 2204
105.008 990.679 2207
110.435 992.025 2210
115.72 992.025 2210
121.005 992.025 2210
126.29 992.025 2210
131.872 994.27 2215
137.54 996.963 2221
142.851 996.963 2221
148.963 1002.35 2233
154.303 1002.35 2233
159.643 1002.35 2233
164.982 1002.35 2233
170.322 1002.35 2233
175.426 1001 2230
180.759 1001 2230
186.091 1001 2230
193.741 1013.12 2257
200.55 1020.3 2273
207.979 1030.18 2295
213.467 1030.18 2295
221.341 1041.4 2320
227.182 1042.75 2323
235.743 1056.22 2353
241.369 1056.22 2353
247.311 1057.56 2356
253.374 1059.36 2360
259.018 1059.36 2360
264.661 1059.36 2360
270.648 1060.7 2363
276.299 1060.7 2363
282.308 1062.05 2366
287.965 1062.05 2366
294.492 1065.19 2373
302.317 1072.82 2390
309.321 1077.31 2400
315.06 1077.31 2400
322.67 1083.6 2414
328.443 1083.6 2414
334.216 1083.6 2414
339.988 1083.6 2414
343.756 1077.31 2400
352.553 1086.74 2421
358.342 1086.74 2421
366.839 1094.82 2439
372.671 1094.82 2439
378.504 1094.82 2439
386.069 1099.76 2450
393.688 1104.69 2461
399.573 1104.69 2461
407.764 1110.98 2475
414.351 1112.77 2479
420.958 1114.57 2483
426.895 1114.57 2483
432.833 1114.57 2483
438.064 1112.77 2479
443.992 1112.77 2479
448.468 1109.18 2471
453.825 1107.84 2468
455.629 1097.96 2446
462.232 1099.76 2450
468.091 1099.76 2450
473.95 1099.76 2450
478.438 1096.61 2443
484.28 1096.61 2443
487.915 1091.68 2432
491.497 1086.74 2421
497.286 1086.74 2421
505.985 1093.02 2435
513.489 1096.61 2443
519.331 1096.61 2443
525.173 1096.61 2443
531.015 1096.61 2443
537.516 1097.96 2446
543.366 1097.96 2446
551.685 1102.9 2457
558.468 1104.69 2461
564.353 1104.69 2461
570.238 1104.69 2461
577.761 1107.84 2468
583.663 1107.84 2468
589.565 1107.84 2468
595.467 1107.84 2468
601.368 1107.84 2468
605.548 1104.69 2461
611.433 1104.69 2461
617.318 1104.69 2461
623.962 1106.04 2464
629.854 1106.04 2464
635.747 1106.04 2464
641.639 1106.04 2464
645.691 1102.9 2457
647.854 1096.61 2443
651.556 1093.02 2435
657.378 1093.02 2435
658.571 1085.39 2418
664.353 1085.39 2418
670.967 1086.74 2421
676.756 1086.74 2421
682.546 1086.74 2421
688.335 1086.74 2421
694.124 1086.74 2421
701.07 1088.53 2425
706.869 1088.53 2425
712.668 1088.53 2425
718.467 1088.53 2425
724.266 1088.53 2425
728.86 1086.74 2421
740.112 1094.82 2439
747.167 1096.61 2443
755.167 1099.76 2450
761.026 1099.76 2450
766.884 1099.76 2450
772.743 1099.76 2450
782.098 1104.69 2461
788.943 1106.04 2464
794.835 1106.04 2464
804.302 1110.98 2475
810.221 1110.98 2475
816.139 1110.98 2475
822.058 1110.98 2475
823.293 1104.69 2461
829.178 1104.69 2461
835.062 1104.69 2461
840.948 1104.69 2461
845.456 1102.9 2457
857.568 1110.98 2475
863.487 1110.98 2475
869.405 1110.98 2475
876.739 1112.77 2479
882.667 1112.77 2479
888.595 1112.77 2479
893.079 1110.98 2475
897.545 1109.18 2471
906.379 1112.77 2479
913.779 1114.57 2483
919.716 1114.57 2483
925.654 1114.57 2483
931.592 1114.57 2483
934.509 1110.98 2475
940.427 1110.98 2475
936.786 1099.76 2450
934.181 1089.88 2428
931.857 1080.45 2407
937.613 1080.45 2407
943.368 1080.45 2407
950.702 1082.25 2411
959.244 1085.39 2418
965.026 1085.39 2418
970.808 1085.39 2418
974.975 1083.6 2414
977.904 1080.45 2407
983.659 1080.45 2407
986.538 1077.31 2400
992.277 1077.31 2400
1003.84 1083.6 2414
1012.54 1086.74 2421
1018.33 1086.74 2421
1024.12 1086.74 2421
1035.86 1093.02 2435
1048.1 1099.76 2450
1058.69 1104.69 2461
1064.58 1104.69 2461
1070.46 1104.69 2461
1076.35 1104.69 2461
1082.23 1104.69 2461
1088.12 1104.69 2461
1090.45 1101.1 2453
1096.31 1101.1 2453
1103.98 1102.9 2457
1109.85 1102.9 2457
1130.71 1117.71 2490
1136.67 1117.71 2490
1142.62 1117.71 2490
1148.57 1117.71 2490
1154.53 1117.71 2490
1163.75 1120.85 2497
1171.59 1122.65 2501
1177.57 1122.65 2501
1183.55 1122.65 2501
1189.53 1122.65 2501
1193.6 1120.85 2497
1199.57 1120.85 2497
1198.78 1114.57 2483
1195.5 1106.04 2464
1203.35 1107.84 2468
1216.6 1114.57 2483
1222.53 1114.57 2483
1229.96 1115.92 2486
1237.89 1117.71 2490
1243.84 1117.71 2490
1249.8 1117.71 2490
1255.75 1117.71 2490
1261.71 1117.71 2490
1267.66 1117.71 2490
1263.9 1109.18 2471
1269.81 1109.18 2471
1281.91 1114.57 2483
1287.85 1114.57 2483
1293.79 1114.57 2483
1293.44 1109.18 2471
1297.77 1107.84 2468
1311.6 1114.57 2483
1317.54 1114.57 2483
1323.47 1114.57 2483
1329.41 1114.57 2483
1335.35 1114.57 2483
1341.29 1114.57 2483
1345.05 1112.77 2479
1344.99 1107.84 2468
1350.89 1107.84 2468
1356.79 1107.84 2468
1362.69 1107.84 2468
1368.59 1107.84 2468
1376.17 1109.18 2471
1388.79 1114.57 2483
1400.9 1119.51 2494
1406.87 1119.51 2494
1412.83 1119.51 2494
1418.8 1119.51 2494
1424.76 1119.51 2494
1428.43 1117.71 2490
1434.38 1117.71 2490
1438.02 1115.92 2486
1443.97 1115.92 2486
1448.16 1114.57 2483
1454.1 1114.57 2483
1460.04 1114.57 2483
1465.98 1114.57 2483
1469.54 1112.77 2479
1482.02 1117.71 2490
1487.97 1117.71 2490
1496.33 1119.51 2494
1502.29 1119.51 2494
1508.25 1119.51 2494
1509.36 1115.92 2486
1515.31 1115.92 2486
1521.25 1115.92 2486
1516.14 1107.84 2468
1519.57 1106.04 2464
1525.46 1106.04 2464
1533.84 1107.84 2468
1539.74 1107.84 2468
1545.65 1107.84 2468
1551.55 1107.84 2468
1557.45 1107.84 2468
1563.35 1107.84 2468
1573.7 1110.98 2475
1582.18 1112.77 2479
1590.67 1114.57 2483
1596.6 1114.57 2483
1611.58 1120.85 2497
1617.55 1120.85 2497
1623.52 1120.85 2497
1637.32 1126.24 2509
1643.32 1126.24 2509
1649.32 1126.24 2509
1655.32 1126.24 2509
1661.32 1126.24 2509
1667.32 1126.24 2509
1675.32 1127.59 2512
1684 1129.38 2516
1692.71 1131.18 2520
1698.73 1131.18 2520
1704.76 1131.18 2520
1710.79 1131.18 2520
1716.81 1131.18 2520
1722.84 1131.18 2520
1726.12 1129.38 2516
1732.14 1129.38 2516
1738.15 1129.38 2516
1741.4 1127.59 2512
1745.32 1126.24 2509
1745.73 1122.65 2501
1709.62 1066.54 2376
1715.3 1066.54 2376
1720.98 1066.54 2376
1722.3 1063.85 2370
1717.76 1057.56 2356
1721.2 1056.22 2353
1726.83 1056.22 2353
1722.68 1030.18 2295
1728.17 1030.18 2295
1733.65 1030.18 2295
1739.14 1030.18 2295
1744.63 1030.18 2295
1744.78 1027.04 2288
1750.25 1027.04 2288
-1771.19 1084.87 2404
-1765.44 1084.87 2404
-1761.89 1086.22 2407
-1756.13 1086.22 2407
-1755.47 1089.38 2414
-1749.69 1089.38 2414
-1743.92 1089.38 2414
-1738.15 1089.38 2414
-1690.75 1063.21 2356
-1680.83 1060.5 2350
-1677.35 1061.85 2353
-1671.72 1061.85 2353
-1668.22 1063.21 2356
-1662.58 1063.21 2356
-1656.95 1063.21 2356
-1651.32 1063.21 2356
-1636.6 1057.34 2343
-1635.87 1060.5 2350
-1632.33 1061.85 2353
-1626.71 1061.85 2353
-1621.08 1061.85 2353
-1615.45 1061.85 2353
-1609.83 1061.85 2353
-1604.2 1061.85 2353
-1598.57 1061.85 2353
-1592.95 1061.85 2353
-1587.32 1061.85 2353
-1465.94 1051.47 2330
-1472.91 1060.5 2350
-1467.29 1060.5 2350
-1467.89 1065.01 2360
-1462.24 1065.01 2360
-1456.6 1065.01 2360
-1450.96 1065.01 2360
-1445.31 1065.01 2360
-1439.67 1065.01 2360
-1434.02 1065.01 2360
-1432.01 1067.72 2366
-1426.35 1067.72 2366
-1426.7 1072.23 2376
-1421.02 1072.23 2376
-1415.34 1072.23 2376
-1409.66 1072.23 2376
-1402.2 1070.88 2373
-1390.64 1066.36 2363
-1384.99 1066.36 2363
-1377.59 1065.01 2360
-1274.68 1083.06 2400
-1293.26 1103.82 2446
-1287.41 1103.82 2446
-1294.66 1115.1 2471
-1288.75 1115.1 2471
-1287 1118.71 2479
-1281.07 1118.71 2479
-1275.14 1118.71 2479
-1269.21 1118.71 2479
-1263.28 1118.71 2479
-1257.36 1118.71 2479
-1247.39 1115.1 2471
-1221.89 1097.5 2432
-1216.07 1097.5 2432
-1203.29 1091.18 2418
-1197.51 1091.18 2418
-1163.28 1086.22 2407
-1157.52 1086.22 2407
-1151.77 1086.22 2407
-1151.25 1091.18 2418
-1145.47 1091.18 2418
-1139.68 1091.18 2418
-1128.74 1086.22 2407
-1118.32 1081.71 2397
-1112.59 1081.71 2397
-1136.41 1110.59 2461
-1130.53 1110.59 2461
-1124.64 1110.59 2461
-1118.76 1110.59 2461
-1112.87 1110.59 2461
-1105.19 1108.78 2457
-1097.52 1106.98 2453
-1093.44 1108.78 2457
-1095.53 1116.91 2475
-1089.61 1116.91 2475
-1092.01 1125.48 2494
-1086.05 1125.48 2494
-1080.08 1125.48 2494
-1074.12 1125.48 2494
-1057.02 1113.75 2468
-1040.47 1102.47 2443
-1034.63 1102.47 2443
-1024.15 1097.5 2432
-1012.48 1091.18 2418
-996.286 1079.9 2393
-986.424 1075.39 2383
-980.726 1075.39 2383
-968.071 1067.72 2366
-962.414 1067.72 2366
-950.286 1060.5 2350
-944.666 1060.5 2350
-939.047 1060.5 2350
-930.647 1057.34 2343
-925.044 1057.34 2343
-920.618 1058.69 2346
-915.008 1058.69 2346
-910.949 1060.5 2350
-906.485 1061.85 2353
-900.858 1061.85 2353
-895.231 1061.85 2353
-890.739 1063.21 2356
-895.248 1075.39 2383
-893.283 1079.9 2393
-887.56 1079.9 2393
-883.312 1081.71 2397
-878.678 1083.06 2400
-872.939 1083.06 2400
-867.2 1083.06 2400
-863.974 1086.22 2407
-858.218 1086.22 2407
-854.941 1089.38 2414
-849.168 1089.38 2414
-843.396 1089.38 2414
-843.869 1097.5 2432
-838.053 1097.5 2432
-832.238 1097.5 2432
-826.422 1097.5 2432
-820.606 1097.5 2432
-814.791 1097.5 2432
-804.318 1091.18 2418
-793.913 1084.87 2404
-784.557 1079.9 2393
-777.859 1078.55 2390
-772.143 1078.55 2390
-763.221 1074.04 2380
-753.074 1067.72 2366
-744.257 1063.21 2356
-739.877 1065.01 2360
-734.234 1065.01 2360
-728.59 1065.01 2360
-724.785 1067.72 2366
-722.167 1072.23 2376
-716.485 1072.23 2376
-712 1074.04 2380
-707.199 1075.39 2383
-706.505 1083.06 2400
-700.766 1083.06 2400
-706.321 1100.66 2439
-704.509 1106.98 2453
-700.922 1110.59 2461
-695.037 1110.59 2461
-689.152 1110.59 2461
-683.267 1110.59 2461
-677.382 1110.59 2461
-671.497 1110.59 2461
-666.423 1111.94 2464
-663.48 1116.91 2475
-658.624 1118.71 2479
-652.696 1118.71 2479
-647.811 1120.52 2483
-641.874 1120.52 2483
-635.936 1120.52 2483
-629.999 1120.52 2483
-621.045 1115.1 2471
-613.394 1111.94 2464
