-315.979 1072.56 2691
-309.544 1072.56 2691
-301.081 1065.39 2673
-294.689 1065.39 2673
-286.464 1058.61 2656
-280.112 1058.61 2656
-273.761 1058.61 2656
-267.41 1058.61 2656
-259.486 1052.24 2640
-253.173 1052.24 2640
-246.86 1052.24 2640
-240.547 1052.24 2640
-234.234 1052.24 2640
-228.611 1055.43 2648
-222.279 1055.43 2648
-215.947 1055.43 2648
-209.615 1055.43 2648
-202.976 1053.83 2644
-196.653 1053.83 2644
-190.906 1057.02 2652
-184.843 1058.61 2656
-178.492 1058.61 2656
-172.14 1058.61 2656
-165.789 1058.61 2656
-159.438 1058.61 2656
-153.086 1058.61 2656
-146.072 1053.83 2644
-87.9897 910.743 2285
-82.5255 910.743 2285
-77.0614 910.743 2285
-71.5973 910.743 2285
-66.22 911.938 2288
-60.7487 911.938 2288
-55.2774 911.938 2288
-49.8061 911.938 2288
-44.3348 911.938 2288
-38.8635 911.938 2288
-33.3922 911.938 2288
-27.9209 911.938 2288
-22.3907 909.547 2282
-16.9783 911.938 2288
-11.507 911.938 2288
-6.04622 913.533 2292
-0.565348 913.533 2292
4.91552 913.533 2292
10.3782 911.938 2288
15.8495 911.938 2288
21.2929 910.743 2285
26.757 910.743 2285
32.2211 910.743 2285
37.6358 909.547 2282
42.9794 907.156 2276
48.4221 907.156 2276
53.8647 907.156 2276
59.3073 907.156 2276
64.4938 903.568 2267
69.9149 903.568 2267
75.336 903.568 2267
80.6502 902.373 2264
86.0641 902.373 2264
91.478 902.373 2264
96.3356 897.191 2251
101.447 894.8 2245
106.816 894.8 2245
111.884 892.408 2239
117.239 892.408 2239
122.428 891.213 2236
127.604 890.017 2233
132.586 887.625 2227
137.912 887.625 2227
142.851 885.234 2221
148.163 885.234 2221
154.51 891.213 2236
160.072 892.408 2239
165.426 892.408 2239
170.78 892.408 2239
177.078 897.191 2251
182.704 898.387 2254
188.094 898.387 2254
194.342 902.373 2264
199.756 902.373 2264
205.17 902.373 2264
209.375 897.191 2251
260.237 1060.61 2661
266.6 1060.61 2661
277.785 1079.34 2708
284.785 1081.33 2713
291.273 1081.33 2713
297.761 1081.33 2713
303.688 1079.34 2708
309.132 1075.75 2699
315.586 1075.75 2699
321.086 1072.56 2691
323.261 1058.61 2656
329.116 1057.02 2652
335.458 1057.02 2652
341.8 1057.02 2652
347.616 1055.43 2648
352.879 1052.24 2640
359.192 1052.24 2640
365.505 1052.24 2640
371.818 1052.24 2640
378.131 1052.24 2640
383.716 1050.24 2635
394.458 1062.2 2665
400.83 1062.2 2665
411.176 1072.56 2691
417.611 1072.56 2691
424.046 1072.56 2691
430.481 1072.56 2691
437.565 1074.16 2695
445.493 1077.75 2704
452.627 1079.34 2708
459.103 1079.34 2708
469.361 1088.11 2730
481.468 1100.86 2762
488.072 1100.86 2762
494.677 1100.86 2762
496.382 1090.1 2735
506.232 1097.28 2753
514.492 1100.86 2762
521.096 1100.86 2762
527.701 1100.86 2762
529.857 1091.7 2739
536.406 1091.7 2739
545.731 1097.28 2753
552.315 1097.28 2753
558.898 1097.28 2753
565.481 1097.28 2753
572.064 1097.28 2753
577.597 1095.28 2748
582.255 1091.7 2739
586.01 1086.51 2726
592.529 1086.51 2726
597.949 1084.52 2721
602.678 1081.33 2713
606.022 1075.75 2699
612.476 1075.75 2699
612.968 1065.39 2673
621.445 1068.98 2682
628.795 1070.57 2686
635.218 1070.57 2686
641.641 1070.57 2686
642.033 1060.61 2661
644.254 1053.83 2644
650.576 1053.83 2644
656.899 1053.83 2644
660.964 1050.24 2635
666.252 1048.65 2631
673.566 1050.24 2635
682.189 1053.83 2644
688.512 1053.83 2644
701.404 1063.8 2669
708.847 1065.39 2673
716.577 1067.38 2678
722.981 1067.38 2678
729.385 1067.38 2678
735.789 1067.38 2678
742.193 1067.38 2678
747.199 1065.39 2673
753.591 1065.39 2673
759.983 1065.39 2673
766.375 1065.39 2673
772.767 1065.39 2673
779.159 1065.39 2673
789.371 1070.57 2686
797.276 1072.56 2691
804.905 1074.16 2695
811.35 1074.16 2695
817.795 1074.16 2695
825.463 1075.75 2699
831.917 1075.75 2699
838.371 1075.75 2699
844.825 1075.75 2699
847.179 1070.57 2686
855.191 1072.56 2691
861.626 1072.56 2691
873.545 1079.34 2708
887.17 1088.11 2730
895.335 1090.1 2735
901.875 1090.1 2735
908.415 1090.1 2735
914.955 1090.1 2735
921.496 1090.1 2735
928.036 1090.1 2735
937.651 1093.69 2744
944.213 1093.69 2744
950.775 1093.69 2744
957.337 1093.69 2744
962.142 1091.7 2739
967.277 1090.1 2735
973.817 1090.1 2735
980.357 1090.1 2735
986.898 1090.1 2735
994.891 1091.7 2739
1013.14 1104.45 2771
1023.08 1108.04 2780
1029.73 1108.04 2780
1036.37 1108.04 2780
1041.52 1106.44 2776
1048.16 1106.44 2776
1052.9 1104.45 2771
1058 1102.86 2767
1066.15 1104.45 2771
1072.78 1104.45 2771
1079.4 1104.45 2771
1086.03 1104.45 2771
1085.56 1097.28 2753
1092.14 1097.28 2753
1087.95 1086.51 2726
1090.85 1082.93 2717
1093.72 1079.34 2708
1100.19 1079.34 2708
1102.99 1075.75 2699
1109.44 1075.75 2699
1115.9 1075.75 2699
1124.43 1077.75 2704
1130.9 1077.75 2704
1137.36 1077.75 2704
1143.83 1077.75 2704
1150.3 1077.75 2704
1158.47 1079.34 2708
1164.95 1079.34 2708
1184.83 1091.7 2739
1195.3 1095.28 2748
1201.87 1095.28 2748
1208.44 1095.28 2748
1217.22 1097.28 2753
1225.58 1098.87 2757
1232.18 1098.87 2757
1238.77 1098.87 2757
1247.62 1100.86 2762
1254.23 1100.86 2762
1260.83 1100.86 2762
1269.73 1102.86 2767
1276.35 1102.86 2767
1282.96 1102.86 2767
1289.58 1102.86 2767
1296.2 1102.86 2767
1300.46 1100.86 2762
1304.7 1098.87 2757
1307.01 1095.28 2748
1313.58 1095.28 2748
1320.15 1095.28 2748
1326.72 1095.28 2748
1326.99 1090.1 2735
1346.69 1100.86 2762
1353.3 1100.86 2762
1359.9 1100.86 2762
1366.51 1100.86 2762
1384.55 1110.03 2785
1391.21 1110.03 2785
1421.46 1128.76 2832
1440.84 1138.73 2857
1462.36 1150.29 2886
1469.27 1150.29 2886
1483.84 1156.26 2901
1490.78 1156.26 2901
1497.71 1156.26 2901
1489.09 1144.31 2871
1486.06 1136.73 2852
1495.49 1138.73 2857
1502.32 1138.73 2857
1509.16 1138.73 2857
1515.99 1138.73 2857
1517.49 1134.74 2847
1514.13 1127.17 2828
1520.89 1127.17 2828
1517.39 1119.6 2809
1503.49 1104.45 2771
1495.4 1093.69 2744
1501.96 1093.69 2744
1491.48 1081.33 2713
1713.97 1125.18 2823
1723.77 1127.17 2828
1730.53 1127.17 2828
1737.29 1127.17 2828
1744.05 1127.17 2828
1750.82 1127.17 2828
1745.77 1119.6 2809
1749.37 1117.6 2804
1744.18 1110.03 2785
1750.83 1110.03 2785
1757.49 1110.03 2785
1767.32 1112.02 2790
1773.99 1112.02 2790
1780.67 1112.02 2790
1787.34 1112.02 2790
1794.01 1112.02 2790
1800.68 1112.02 2790
1807.35 1112.02 2790
1814.02 1112.02 2790
1811.56 1106.44 2776
1818.2 1106.44 2776
1818.92 1102.86 2767
1825.54 1102.86 2767
1825.53 1098.87 2757
1823.49 1093.69 2744
1824.05 1090.1 2735
1830.59 1090.1 2735
1833.77 1088.11 2730
1799.18 1063.8 2669
-1947.29 1070.19 2669
-1940.9 1070.19 2669
-1934.52 1070.19 2669
-1868.18 1036.91 2586
-1853.35 1032.1 2574
-1833.56 1024.48 2555
-1827.45 1024.48 2555
-1818.49 1022.87 2551
-1812.39 1022.87 2551
-1800.63 1019.67 2543
-1794.55 1019.67 2543
-1788.47 1019.67 2543
-1776.78 1016.46 2535
-1763.03 1012.05 2524
-1757 1012.05 2524
-1750.96 1012.05 2524
-1742.16 1010.44 2520
-1738.89 1012.05 2524
-1735.6 1013.65 2528
-1729.55 1013.65 2528
-1723.51 1013.65 2528
-1717.46 1013.65 2528
-1714.13 1015.26 2532
-1708.07 1015.26 2532
-1702.02 1015.26 2532
-1689.57 1026.08 2559
-1686.08 1027.69 2563
-1689.79 1033.7 2578
-1683.62 1033.7 2578
-1677.46 1033.7 2578
-1671.29 1033.7 2578
-1665.13 1033.7 2578
-1685.35 1050.14 2619
-1679.08 1050.14 2619
-1677.93 1053.35 2627
-1671.65 1053.35 2627
-1665.37 1053.35 2627
-1646.45 1045.33 2607
-1640.22 1045.33 2607
-1633.98 1045.33 2607
-1622.76 1042.12 2599
-1616.54 1042.12 2599
-1610.33 1042.12 2599
-1618.92 1051.74 2623
-1612.65 1051.74 2623
-1626.59 1064.98 2656
-1625.73 1068.59 2665
-1629.68 1075.4 2682
-1623.27 1075.4 2682
-1616.86 1075.4 2682
-1623.65 1084.22 2704
-1617.19 1084.22 2704
-1610.72 1084.22 2704
-1604.26 1084.22 2704
-1597.79 1084.22 2704
-1591.32 1084.22 2704
-1574.31 1077.01 2686
-1563.21 1073.8 2678
-1544.02 1064.98 2656
-1540.56 1066.98 2661
-1534.2 1066.98 2661
-1527.84 1066.98 2661
-1521.47 1066.98 2661
-1515.11 1066.98 2661
-1297.05 1050.14 2619
-1298.67 1056.56 2635
-1292.37 1056.56 2635
-1294.37 1063.37 2652
-1288.03 1063.37 2652
-1281.68 1063.37 2652
-1275.34 1063.37 2652
-1249.38 1046.93 2611
-1233.14 1038.51 2590
-1226.95 1038.51 2590
-1228.77 1045.33 2607
-1222.53 1045.33 2607
-1216.3 1045.33 2607
-1210.06 1045.33 2607
-1203.83 1045.33 2607
-1197.6 1045.33 2607
-1191.36 1045.33 2607
-1185.13 1045.33 2607
-1178.89 1045.33 2607
-1165.01 1038.51 2590
-1157.03 1036.91 2586
-1156.63 1042.12 2599
-1152.19 1043.72 2603
-1145.96 1043.72 2603
-1139.74 1043.72 2603
-1131.77 1042.12 2599
-1125.56 1042.12 2599
-1119.34 1042.12 2599
-1114.84 1043.72 2603
-1126.08 1060.16 2644
-1119.75 1060.16 2644
-1113.43 1060.16 2644
-1107.11 1060.16 2644
-1102.45 1061.77 2648
-1101.5 1066.98 2661
-1095.14 1066.98 2661
-1090.41 1068.59 2665
-1084.04 1068.59 2665
-1077.66 1068.59 2665
-1071.29 1068.59 2665
-1063.32 1066.98 2661
-1053.38 1063.37 2652
-1047.04 1063.37 2652
-1037.56 1060.16 2644
-1029.68 1058.56 2640
-1016.77 1051.74 2623
-1010.5 1051.74 2623
-1002.7 1050.14 2619
-996.435 1050.14 2619
-988.66 1048.54 2615
-982.406 1048.54 2615
-971.674 1043.72 2603
-963.966 1042.12 2599
-955.908 1040.12 2594
-949.705 1040.12 2594
-940.592 1036.91 2586
-931.518 1033.7 2578
-921.404 1029.29 2567
-912.414 1026.08 2559
-906.294 1026.08 2559
-895.954 1021.27 2547
-889.863 1021.27 2547
-878.568 1015.26 2532
-872.513 1015.26 2532
-815.033 1058.56 2640
-812.396 1063.37 2652
-806.055 1063.37 2652
-799.713 1063.37 2652
-793.371 1063.37 2652
-787.029 1063.37 2652
-778.333 1060.16 2644
-765.878 1051.74 2623
-758.448 1050.14 2619
-752.185 1050.14 2619
-744.783 1048.54 2615
-736.27 1045.33 2607
-727.796 1042.12 2599
-721.581 1042.12 2599
-715.366 1042.12 2599
-707.786 1040.12 2594
-701.583 1040.12 2594
-695.38 1040.12 2594
-690.506 1042.12 2599
-684.291 1042.12 2599
-679.119 1043.72 2603
-672.895 1043.72 2603
-666.67 1043.72 2603
-660.446 1043.72 2603
-655.226 1045.33 2607
-649.988 1046.93 2611
-646.703 1051.74 2623
-640.431 1051.74 2623
-639.235 1060.16 2644
-636.982 1066.98 2661
-636.544 1077.01 2686
-630.12 1077.01 2686
-626.716 1082.22 2699
-627.386 1094.65 2730
-624.042 1100.26 2744
-617.48 1100.26 2744
-612.922 1103.87 2753
-606.339 1103.87 2753
-601.716 1107.48 2762
-595.111 1107.48 2762
-588.507 1107.48 2762
-581.902 1107.48 2762
-575.297 1107.48 2762
-568.692 1107.48 2762
-562.088 1107.48 2762
-555.483 1107.48 2762
-548.878 1107.48 2762
-542.273 1107.48 2762
-535.668 1107.48 2762
-528.106 1105.47 2757
-521.513 1105.47 2757
-514.173 1103.87 2753
-505.009 1098.26 2739
-498.459 1098.26 2739
-491.909 1098.26 2739
-483.764 1094.65 2730
-472.691 1084.22 2704
-464.673 1080.61 2695
-458.229 1080.61 2695
-448.096 1071.79 2673
-443.852 1077.01 2686
-437.429 1077.01 2686
-431.006 1077.01 2686
-424.583 1077.01 2686
-418.16 1077.01 2686
-411.124 1075.4 2682
-400.787 1064.98 2656
-394.436 1064.98 2656
-386.916 1061.77 2648
-379.434 1058.56 2640
-373.121 1058.56 2640
-366.808 1058.56 2640
-359.812 1056.56 2635
-352.974 1054.95 2631
-347.21 1056.56 2635
-342.073 1060.16 2644
-335.75 1060.16 2644
-331.546 1066.98 2661
-325.182 1066.98 2661
-318.819 1066.98 2661
-312.456 1066.98 2661
-306.093 1066.98 2661
-297.815 1060.16 2644
-291.492 1060.16 2644
-283.336 1053.35 2627
-277.054 1053.35 2627
-270.772 1053.35 2627
-264.49 1053.35 2627
-258.208 1053.35 2627
-251.926 1053.35 2627
-246.018 1054.95 2631
-239.727 1054.95 2631
-234.234 1058.56 2640
-227.921 1058.56 2640
-221.608 1058.56 2640
-215.295 1058.56 2640
-208.982 1058.56 2640
-202.668 1058.56 2640
-196.355 1058.56 2640
-190.33 1060.16 2644
-184.286 1061.77 2648
-177.954 1061.77 2648
-171.622 1061.77 2648
-165.04 1060.16 2644
-158.717 1060.16 2644
-152.395 1060.16 2644
-145.575 1056.56 2635
-87.9897 916.216 2285
-82.5255 916.216 2285
-77.0614 916.216 2285
-71.5973 916.216 2285
-66.1332 916.216 2285
-60.5097 913.811 2279
-55.0599 913.811 2279
-49.6102 913.811 2279
-44.1604 913.811 2279
-38.7106 913.811 2279
-33.2608 913.811 2279
-27.811 913.811 2279
-22.3024 911.405 2273
-16.9115 913.811 2279
-11.4617 913.811 2279
-6.01984 915.014 2282
-0.562882 915.014 2282
4.89407 915.014 2282
10.3374 913.811 2279
15.7872 913.811 2279
21.237 913.811 2279
26.6868 913.811 2279
32.0942 912.608 2276
37.4874 911.405 2273
42.9228 911.405 2273
48.3582 911.405 2273
53.6517 908.999 2267
59.0727 908.999 2267
64.3231 906.593 2261
69.7299 906.593 2261
75.1366 906.593 2261
80.5433 906.593 2261
85.5699 902.583 2251
90.8315 901.381 2248
96.2072 901.381 2248
101.312 898.975 2242
106.673 898.975 2242
111.734 896.569 2236
117.081 896.569 2236
122.264 895.366 2233
127.432 894.163 2230
132.586 892.96 2227
137.912 892.96 2227
142.851 890.554 2221
147.962 889.351 2218
154.717 897.772 2239
160.286 898.975 2242
165.647 898.975 2242
171.466 901.381 2248
177.078 902.583 2251
183.515 907.796 2264
188.928 907.796 2264
194.6 908.999 2267
200.021 908.999 2267
205.442 908.999 2267
210.584 907.796 2264
260.237 1066.98 2661
266.6 1066.98 2661
272.964 1066.98 2661
284.261 1085.83 2708
290.736 1085.83 2708
297.212 1085.83 2708
303.239 1084.22 2704
308.674 1080.61 2695
315.119 1080.61 2695
318.461 1070.19 2669
323.261 1064.98 2656
328.62 1061.77 2648
334.952 1061.77 2648
341.284 1061.77 2648
346.566 1058.56 2640
352.879 1058.56 2640
358.512 1056.56 2635
364.813 1056.56 2635
371.114 1056.56 2635
376.842 1054.95 2631
383.134 1054.95 2631
394.458 1068.59 2665
400.83 1068.59 2665
411.176 1079.01 2691
417.611 1079.01 2691
424.046 1079.01 2691
430.481 1079.01 2691
436.916 1079.01 2691
441.868 1075.4 2682
448.282 1075.4 2682
453.169 1071.79 2673
459.561 1071.79 2673
469.788 1080.61 2695
476.233 1080.61 2695
482.677 1080.61 2695
489.122 1080.61 2695
497.221 1084.22 2704
508.531 1094.65 2730
515.059 1094.65 2730
521.587 1094.65 2730
524.827 1087.83 2713
532.881 1091.04 2721
542.956 1098.26 2739
549.506 1098.26 2739
556.056 1098.26 2739
562.605 1098.26 2739
569.155 1098.26 2739
573.813 1094.65 2730
579.491 1093.04 2726
583.215 1087.83 2713
589.703 1087.83 2713
596.19 1087.83 2713
599.568 1082.22 2699
600.184 1071.79 2673
606.576 1071.79 2673
609.07 1064.98 2656
616.58 1066.98 2661
622.943 1066.98 2661
629.306 1066.98 2661
635.669 1066.98 2661
640.826 1064.98 2656
644.254 1060.16 2644
650.576 1060.16 2644
656.899 1060.16 2644
660.964 1056.56 2635
666.252 1054.95 2631
672.544 1054.95 2631
681.157 1058.56 2640
687.47 1058.56 2640
694.834 1060.16 2644
702.218 1061.77 2648
708.55 1061.77 2648
714.882 1061.77 2648
721.214 1061.77 2648
727.546 1061.77 2648
733.879 1061.77 2648
740.211 1061.77 2648
746.543 1061.77 2648
752.875 1061.77 2648
759.207 1061.77 2648
765.539 1061.77 2648
771.872 1061.77 2648
779.379 1063.37 2652
785.721 1063.37 2652
792.063 1063.37 2652
798.405 1063.37 2652
805.96 1064.98 2656
815.064 1068.59 2665
821.437 1068.59 2665
827.81 1068.59 2665
834.182 1068.59 2665
835.193 1061.77 2648
842.797 1063.37 2652
849.138 1063.37 2652
860.964 1070.19 2669
874.496 1079.01 2691
880.931 1079.01 2691
887.366 1079.01 2691
893.801 1079.01 2691
895.887 1073.8 2678
908.018 1080.61 2695
914.463 1080.61 2695
927.058 1087.83 2713
933.546 1087.83 2713
940.034 1087.83 2713
946.521 1087.83 2713
949.847 1084.22 2704
947.118 1073.8 2678
951.742 1071.79 2673
961.36 1075.4 2682
967.773 1075.4 2682
991.622 1094.65 2730
1003.27 1100.26 2744
1009.83 1100.26 2744
1016.39 1100.26 2744
1022.95 1100.26 2744
1029.52 1100.26 2744
1036.08 1100.26 2744
1040.74 1098.26 2739
1047.29 1098.26 2739
1059.23 1103.87 2753
1065.81 1103.87 2753
1072.39 1103.87 2753
1078.98 1103.87 2753
1074.91 1093.04 2726
1081.43 1093.04 2726
1075.58 1080.61 2695
1080.42 1079.01 2691
1086.85 1079.01 2691
1093.29 1079.01 2691
1099.72 1079.01 2691
1102.46 1075.4 2682
1108.87 1075.4 2682
1116.95 1077.01 2686
1123.37 1077.01 2686
1129.79 1077.01 2686
1136.22 1077.01 2686
1142.64 1077.01 2686
1151.2 1079.01 2691
1157.64 1079.01 2691
1167.53 1082.22 2699
1173.99 1082.22 2699
1180.44 1082.22 2699
1181.18 1077.01 2686
1207.05 1094.65 2730
1219.81 1100.26 2744
1228.16 1101.87 2748
1234.73 1101.87 2748
1241.3 1101.87 2748
1247.87 1101.87 2748
1258.55 1105.47 2757
1265.14 1105.47 2757
1271.73 1105.47 2757
1278.33 1105.47 2757
1280.73 1101.87 2748
1287.3 1101.87 2748
1287.75 1096.65 2735
1285.77 1089.44 2717
1296.55 1093.04 2726
1303.07 1093.04 2726
1309.58 1093.04 2726
1320.45 1096.65 2735
1326.99 1096.65 2735
1346.69 1107.48 2762
1353.3 1107.48 2762
1359.9 1107.48 2762
1366.51 1107.48 2762
1384.55 1116.7 2785
1391.21 1116.7 2785
1404.89 1122.32 2799
1428.23 1135.55 2832
1445.14 1143.57 2852
1451.96 1143.57 2852
1458.78 1143.57 2852
1465.6 1143.57 2852
1472.42 1143.57 2852
1479.24 1143.57 2852
1473.55 1133.94 2828
1477.7 1131.94 2823
1494.44 1139.56 2842
1501.23 1139.56 2842
1508.03 1139.56 2842
1507.36 1133.94 2828
1506.09 1127.93 2813
1512.82 1127.93 2813
1517.39 1126.32 2809
1501.32 1109.48 2767
1480.68 1089.44 2717
1487.18 1089.44 2717
1491.48 1087.83 2713
1713.97 1131.94 2823
1723.77 1133.94 2828
1730.53 1133.94 2828
1737.29 1133.94 2828
1744.05 1133.94 2828
1750.82 1133.94 2828
1745.77 1126.32 2809
1749.37 1124.32 2804
1744.18 1116.7 2785
1750.83 1116.7 2785
1757.49 1116.7 2785
1767.32 1118.71 2790
1773.99 1118.71 2790
1780.67 1118.71 2790
1787.34 1118.71 2790
1794.01 1118.71 2790
1800.68 1118.71 2790
1807.35 1118.71 2790
1814.02 1118.71 2790
1811.56 1113.09 2776
1818.2 1113.09 2776
1818.92 1109.48 2767
1825.54 1109.48 2767
1825.53 1105.47 2757
1823.49 1100.26 2744
1824.05 1096.65 2735
1830.59 1096.65 2735
1833.77 1094.65 2730
1799.18 1070.19 2669
1872.35 1019.67 2543
1890.25 1026.08 2559
1905.26 1030.89 2571
1911.41 1030.89 2571
1917.55 1030.89 2571
1923.7 1030.89 2571
1941.11 1036.91 2586
1963.11 1045.33 2607
1969.34 1045.33 2607
1987.7 1051.74 2623
2009.94 1060.16 2644
2029.22 1066.98 2661
2035.59 1066.98 2661
-1902.05 1051.57 2607
-1895.82 1051.57 2607
-1889.58 1051.57 2607
-1859.51 1038.26 2574
-1839.67 1030.6 2555
-1830.69 1028.99 2551
-1824.59 1028.99 2551
-1818.49 1028.99 2551
-1812.39 1028.99 2551
-1794.96 1022.53 2535
-1788.9 1022.53 2535
-1782.84 1022.53 2535
-1766.26 1016.48 2520
-1760.24 1016.48 2520
-1754.21 1016.48 2520
-1748.19 1016.48 2520
-1739.39 1014.87 2516
-1733.38 1014.87 2516
-1732.85 1018.09 2524
-1729.55 1019.71 2528
-1723.51 1019.71 2528
-1717.46 1019.71 2528
-1711.42 1019.71 2528
-1705.37 1019.71 2528
-1699.33 1019.71 2528
-1684.29 1028.99 2551
-1683.45 1032.21 2559
-1677.33 1032.21 2559
-1671.21 1032.21 2559
-1667.7 1033.83 2563
-1661.57 1033.83 2563
-1662.54 1038.26 2574
-1656.39 1038.26 2574
-1650.23 1038.26 2574
-1677.93 1059.64 2627
-1671.65 1059.64 2627
-1665.37 1059.64 2627
-1628.14 1039.88 2578
-1621.97 1039.88 2578
-1615.81 1039.88 2578
-1609.64 1039.88 2578
-1600.99 1038.26 2574
-1594.84 1038.26 2574
-1604.11 1048.35 2599
-1597.9 1048.35 2599
-1601.48 1054.8 2615
-1602.55 1059.64 2627
-1613.89 1071.34 2656
-1607.53 1071.34 2656
-1604.2 1073.36 2661
-1608.04 1080.21 2678
-1601.64 1080.21 2678
-1595.23 1080.21 2678
-1593.58 1083.44 2686
-1587.15 1083.44 2686
-1580.73 1083.44 2686
-1569.62 1080.21 2678
-1548.04 1069.73 2652
-1537.05 1066.5 2644
-1530.72 1066.5 2644
-1524.4 1066.5 2644
-1512.91 1062.87 2635
-1293.09 1053.19 2611
-1290.79 1056.41 2619
-1284.52 1056.41 2619
-1286.07 1062.87 2635
-1279.77 1062.87 2635
-1273.47 1062.87 2635
-1259.47 1056.41 2619
-1245.55 1049.96 2603
-1231.24 1043.1 2586
-1226.95 1044.72 2590
-1222.64 1046.33 2594
-1216.44 1046.33 2594
-1210.23 1046.33 2594
-1202.17 1044.72 2590
-1195.98 1044.72 2590
-1187.95 1043.1 2586
-1187.71 1048.35 2599
-1181.49 1048.35 2599
-1175.28 1048.35 2599
-1161.41 1041.49 2582
-1155.24 1041.49 2582
-1156.63 1048.35 2599
-1152.19 1049.96 2603
-1145.96 1049.96 2603
-1139.74 1049.96 2603
-1131.77 1048.35 2599
-1125.56 1048.35 2599
-1119.34 1048.35 2599
-1114.84 1049.96 2603
-1126.08 1066.5 2644
-1119.75 1066.5 2644
-1113.43 1066.5 2644
-1107.11 1066.5 2644
-1095.37 1061.25 2631
-1101.5 1073.36 2661
-1095.14 1073.36 2661
-1090.41 1074.97 2665
-1084.04 1074.97 2665
-1077.66 1074.97 2665
-1071.29 1074.97 2665
-1063.32 1073.36 2661
-1051.79 1068.11 2648
-1045.46 1068.11 2648
-1037.56 1066.5 2644
-1029.68 1064.89 2640
-1010.57 1051.57 2607
-1004.34 1051.57 2607
-998.103 1051.57 2607
-990.347 1049.96 2603
-984.123 1049.96 2603
-977.898 1049.96 2603
-970.181 1048.35 2599
-962.111 1046.33 2594
-952.96 1043.1 2586
-943.847 1039.88 2578
-937.682 1039.88 2578
-927.543 1035.44 2567
-918.533 1032.21 2559
-908.135 1027.37 2547
-902.044 1027.37 2547
-891.732 1022.53 2535
-889.863 1027.37 2547
-883.772 1027.37 2547
-877.682 1027.37 2547
-871.591 1027.37 2547
-865.5 1027.37 2547
-856.71 1024.15 2539
-850.639 1024.15 2539
-844.567 1024.15 2539
-834.863 1019.71 2528
-815.033 1064.89 2640
-812.396 1069.73 2652
-806.055 1069.73 2652
-799.713 1069.73 2652
-793.371 1069.73 2652
-787.029 1069.73 2652
-778.333 1066.5 2644
-765.878 1058.03 2623
-758.448 1056.41 2619
-752.185 1056.41 2619
-744.783 1054.8 2615
-736.27 1051.57 2607
-727.796 1048.35 2599
-721.581 1048.35 2599
-715.366 1048.35 2599
-707.786 1046.33 2594
-701.583 1046.33 2594
-695.38 1046.33 2594
-690.506 1048.35 2599
-684.291 1048.35 2599
-679.119 1049.96 2603
-672.895 1049.96 2603
-666.67 1049.96 2603
-660.446 1049.96 2603
-655.226 1051.57 2607
-649.988 1053.19 2611
-646.703 1058.03 2623
-640.431 1058.03 2623
-639.235 1066.5 2644
-636.982 1073.36 2661
-636.544 1083.44 2686
-630.12 1083.44 2686
-626.716 1088.68 2699
-627.386 1101.19 2730
-624.042 1106.83 2744
-617.48 1106.83 2744
-612.922 1110.47 2753
-606.339 1110.47 2753
-601.716 1114.1 2762
-595.111 1114.1 2762
-588.507 1114.1 2762
-581.902 1114.1 2762
-575.297 1114.1 2762
-568.692 1114.1 2762
-562.088 1114.1 2762
-555.483 1114.1 2762
-548.878 1114.1 2762
-542.273 1114.1 2762
-535.668 1114.1 2762
-528.106 1112.08 2757
-521.513 1112.08 2757
-514.173 1110.47 2753
-505.009 1104.82 2739
-498.459 1104.82 2739
-491.909 1104.82 2739
-483.764 1101.19 2730
-472.691 1090.7 2704
-464.673 1087.07 2695
-458.229 1087.07 2695
-448.096 1078.2 2673
-443.852 1083.44 2686
-437.429 1083.44 2686
-431.006 1083.44 2686
-424.583 1083.44 2686
-418.16 1083.44 2686
-411.124 1081.83 2682
-400.787 1071.34 2656
-394.436 1071.34 2656
-386.916 1068.11 2648
-379.434 1064.89 2640
-373.121 1064.89 2640
-366.808 1064.89 2640
-359.812 1062.87 2635
-352.974 1061.25 2631
-347.21 1062.87 2635
-342.073 1066.5 2644
-335.75 1066.5 2644
-331.546 1073.36 2661
-325.182 1073.36 2661
-318.819 1073.36 2661
-312.456 1073.36 2661
-306.093 1073.36 2661
-297.815 1066.5 2644
-291.492 1066.5 2644
-283.336 1059.64 2627
-277.054 1059.64 2627
-270.772 1059.64 2627
-264.49 1059.64 2627
-258.208 1059.64 2627
-251.926 1059.64 2627
-246.018 1061.25 2631
-239.727 1061.25 2631
-234.234 1064.89 2640
-227.921 1064.89 2640
-221.608 1064.89 2640
-215.295 1064.89 2640
-208.982 1064.89 2640
-202.668 1064.89 2640
-196.355 1064.89 2640
-190.33 1066.5 2644
-184.286 1068.11 2648
-177.954 1068.11 2648
-171.622 1068.11 2648
-165.04 1066.5 2644
-158.717 1066.5 2644
-152.395 1066.5 2644
-145.575 1062.87 2635
-87.9897 921.69 2285
-82.5255 921.69 2285
-77.0614 921.69 2285
-71.5973 921.69 2285
-66.1332 921.69 2285
-60.5097 919.27 2279
-55.0599 919.27 2279
-49.5449 918.06 2276
-44.1022 918.06 2276
-38.6596 918.06 2276
-33.1733 916.85 2273
-27.7378 916.85 2273
-22.2435 914.43 2267
-16.8447 915.64 2270
-11.4164 915.64 2270
-5.99609 916.85 2273
-0.560662 916.85 2273
4.87477 916.85 2273
10.3102 916.85 2273
15.7456 916.85 2273
21.1252 914.43 2267
26.5462 914.43 2267
31.9673 914.43 2267
37.3389 913.22 2264
42.7528 913.22 2264
48.1668 913.22 2264
53.5097 912.009 2261
58.8122 910.396 2257
63.9533 906.766 2248
69.3289 906.766 2248
74.7046 906.766 2248
80.0802 906.766 2248
85.3419 905.556 2245
90.5891 904.345 2242
95.9504 904.345 2242
101.176 903.135 2239
106.388 901.925 2236
111.734 901.925 2236
117.081 901.925 2236
122.264 900.715 2233
127.432 899.505 2230
132.586 898.295 2227
137.912 898.295 2227
142.851 895.875 2221
148.363 897.085 2224
154.717 903.135 2239
160.286 904.345 2242
165.647 904.345 2242
171.695 907.976 2251
177.078 907.976 2251
183.515 913.22 2264
188.928 913.22 2264
194.6 914.43 2267
200.021 914.43 2267
205.442 914.43 2267
210.863 914.43 2267
254.565 1049.96 2603
260.79 1049.96 2603
270.297 1062.87 2635
279.327 1073.36 2661
286.549 1076.58 2669
292.932 1076.58 2669
299.314 1076.58 2669
305.696 1076.58 2669
312.079 1076.58 2669
316.91 1071.34 2656
320.705 1062.87 2635
326.51 1061.25 2631
332.802 1061.25 2631
339.093 1061.25 2631
345.385 1061.25 2631
351.676 1061.25 2631
357.968 1061.25 2631
364.259 1061.25 2631
369.424 1058.03 2623
375.123 1056.41 2619
380.804 1054.8 2615
387.057 1054.8 2615
393.31 1054.8 2615
398.952 1053.19 2611
397.126 1032.21 2559
405.137 1037.05 2571
411.285 1037.05 2571
419.868 1043.1 2586
428.194 1048.35 2599
434.409 1048.35 2599
440.624 1048.35 2599
449.59 1054.8 2615
457.935 1059.64 2627
464.217 1059.64 2627
470.499 1059.64 2627
476.78 1059.64 2627
485.453 1064.89 2640
492.511 1066.5 2644
498.834 1066.5 2644
505.156 1066.5 2644
514.768 1073.36 2661
524.46 1080.21 2678
536.811 1092.31 2708
543.287 1092.31 2708
553.416 1099.57 2726
559.935 1099.57 2726
566.454 1099.57 2726
571.081 1095.94 2717
575.665 1092.31 2708
581.281 1090.7 2704
587.747 1090.7 2704
593.114 1088.68 2699
592.904 1076.58 2669
599.286 1076.58 2669
605.669 1076.58 2669
608.152 1069.73 2652
615.421 1071.34 2656
621.772 1071.34 2656
628.124 1071.34 2656
630.653 1064.89 2640
636.966 1064.89 2640
644.254 1066.5 2644
650.576 1066.5 2644
656.899 1066.5 2644
657.954 1058.03 2623
664.226 1058.03 2623
670.499 1058.03 2623
676.771 1058.03 2623
683.043 1058.03 2623
693.783 1064.89 2640
700.096 1064.89 2640
706.409 1064.89 2640
712.722 1064.89 2640
719.035 1064.89 2640
725.348 1064.89 2640
731.661 1064.89 2640
737.974 1064.89 2640
745.415 1066.5 2644
751.738 1066.5 2644
758.06 1066.5 2644
764.383 1066.5 2644
770.706 1066.5 2644
777.028 1066.5 2644
783.351 1066.5 2644
789.674 1066.5 2644
795.996 1066.5 2644
802.319 1066.5 2644
807.418 1064.89 2640
813.731 1064.89 2640
820.044 1064.89 2640
826.357 1064.89 2640
829.831 1061.25 2631
836.123 1061.25 2631
842.414 1061.25 2631
852.9 1066.5 2644
863.122 1071.34 2656
869.473 1071.34 2656
875.824 1071.34 2656
885.165 1074.97 2665
891.538 1074.97 2665
899.258 1076.58 2669
905.641 1076.58 2669
916.465 1081.83 2682
922.879 1081.83 2682
929.292 1081.83 2682
935.706 1081.83 2682
940.714 1080.21 2678
941.106 1073.36 2661
947.469 1073.36 2661
956.7 1076.58 2669
963.082 1076.58 2669
974.187 1081.83 2682
1003.27 1106.83 2744
1009.83 1106.83 2744
1016.39 1106.83 2744
1022.95 1106.83 2744
1027.64 1104.82 2739
1034.19 1104.82 2739
1039.22 1103.2 2735
1042.32 1099.57 2726
1046.91 1097.56 2721
1053.42 1097.56 2721
1059.93 1097.56 2721
1066.43 1097.56 2721
1061.11 1085.46 2691
1067.55 1085.46 2691
1068.79 1080.21 2678
1063.15 1068.11 2648
1064.23 1062.87 2635
1070.53 1062.87 2635
1076.84 1062.87 2635
1083.14 1062.87 2635
1091.5 1064.89 2640
1101.14 1068.11 2648
1109.15 1069.73 2652
1115.49 1069.73 2652
1121.83 1069.73 2652
1128.17 1069.73 2652
1134.52 1069.73 2652
1135.7 1064.89 2640
1148.93 1071.34 2656
1155.28 1071.34 2656
1174.75 1083.44 2686
1181.18 1083.44 2686
1195.56 1090.7 2704
1213.58 1101.19 2730
1222.35 1103.2 2735
1228.89 1103.2 2735
1235.43 1103.2 2735
1241.97 1103.2 2735
1252.61 1106.83 2744
1259.18 1106.83 2744
1265.74 1106.83 2744
1272.3 1106.83 2744
1272.34 1101.19 2730
1278.87 1101.19 2730
1279.27 1095.94 2717
1271.1 1083.44 2686
1275.62 1081.83 2682
1283.95 1083.44 2686
1290.37 1083.44 2686
1307.41 1092.31 2708
1313.89 1092.31 2708
1333.53 1103.2 2735
1340.07 1103.2 2735
1359.9 1114.1 2762
1366.51 1114.1 2762
1373.11 1114.1 2762
1379.72 1114.1 2762
1393.35 1119.74 2776
1416.63 1133.05 2809
1435 1142.33 2832
1441.77 1142.33 2832
1448.55 1142.33 2832
1455.32 1142.33 2832
1462.09 1142.33 2832
1466.79 1140.72 2828
1461.05 1131.04 2804
1470.37 1133.05 2809
1484.45 1138.7 2823
1491.2 1138.7 2823
1497.95 1138.7 2823
1504.7 1138.7 2823
1506.09 1134.67 2813
1512.82 1134.67 2813
1517.39 1133.05 2809
1501.32 1116.11 2767
1480.68 1095.94 2717
1487.18 1095.94 2717
1488.73 1092.31 2708
1699.4 1129.02 2799
1709.14 1131.04 2804
1715.84 1131.04 2804
1722.55 1131.04 2804
1729.25 1131.04 2804
1735.96 1131.04 2804
1742.66 1131.04 2804
1737.52 1123.37 2785
1741.04 1121.36 2780
1747.69 1121.36 2780
1754.34 1121.36 2780
1764.15 1123.37 2785
1770.81 1123.37 2785
1777.47 1123.37 2785
1784.13 1123.37 2785
1790.79 1123.37 2785
1794.23 1121.36 2780
1792.45 1116.11 2767
1799.07 1116.11 2767
1802.42 1114.1 2762
1809.03 1114.1 2762
1815.63 1114.1 2762
1822.24 1114.1 2762
1822.88 1110.47 2753
1817.5 1103.2 2735
1820.71 1101.19 2730
1827.24 1101.19 2730
1833.77 1101.19 2730
1799.18 1076.58 2669
1872.35 1025.76 2543
1890.25 1032.21 2559
1905.26 1037.05 2571
1911.41 1037.05 2571
1917.55 1037.05 2571
1923.7 1037.05 2571
1941.11 1043.1 2586
1963.11 1051.57 2607
1969.34 1051.57 2607
1987.7 1058.03 2623
2009.94 1066.5 2644
2029.22 1073.36 2661
2035.59 1073.36 2661
-1892.57 1052.54 2594
-1886.36 1052.54 2594
-1880.16 1052.54 2594
-1859.51 1044.43 2574
-1845.43 1039.97 2563
-1833.56 1036.72 2555
-1827.45 1036.72 2555
-1818.49 1035.1 2551
-1812.39 1035.1 2551
-1792.84 1027.39 2532
-1786.78 1027.39 2532
-1780.73 1027.39 2532
-1760.66 1019.27 2512
-1754.65 1019.27 2512
-1751.43 1020.89 2516
-1745.41 1020.89 2516
-1739.39 1020.89 2516
-1733.38 1020.89 2516
-1732.85 1024.14 2524
-1729.55 1025.76 2528
-1723.51 1025.76 2528
-1717.46 1025.76 2528
-1711.42 1025.76 2528
-1705.37 1025.76 2528
-1699.33 1025.76 2528
-1685.25 1020.89 2516
-1675.87 1022.52 2520
-1669.85 1022.52 2520
-1679.01 1031.85 2543
-1680.82 1036.72 2555
-1674.71 1036.72 2555
-1668.6 1036.72 2555
-1665.09 1038.34 2559
-1658.97 1038.34 2559
-1652.85 1038.34 2559
-1641.59 1035.1 2551
-1635.49 1035.1 2551
-1624.28 1031.85 2543
-1618.2 1031.85 2543
-1600.07 1024.14 2524
-1611.09 1035.1 2551
-1604.99 1035.1 2551
-1598.89 1035.1 2551
-1592.79 1035.1 2551
-1586.68 1035.1 2551
-1585.54 1038.34 2559
-1584.36 1041.59 2567
-1578.22 1041.59 2567
-1583.72 1049.3 2586
-1579.97 1050.92 2590
-1579.25 1054.57 2599
-1573.04 1054.57 2599
-1569.23 1056.2 2603
-1572.61 1062.69 2619
-1583.7 1074.46 2648
-1577.36 1074.46 2648
-1573.4 1076.08 2652
-1567.06 1076.08 2652
-1560.72 1076.08 2652
-1554.38 1076.08 2652
-1543.37 1072.83 2644
-1524.84 1064.31 2623
-1518.56 1064.31 2623
-1509.99 1062.69 2619
-1503.72 1062.69 2619
-1287.07 1044.43 2574
-1280.92 1044.43 2574
-1276.75 1046.05 2578
-1280.93 1054.57 2599
-1274.72 1054.57 2599
-1270.45 1056.2 2603
-1264.23 1056.2 2603
-1258 1056.2 2603
-1251.78 1056.2 2603
-1237.42 1049.3 2586
-1227.43 1046.05 2578
-1216.05 1041.59 2567
-1211.8 1043.21 2571
-1205.65 1043.21 2571
-1199.5 1043.21 2571
-1193.35 1043.21 2571
-1188.59 1044.43 2574
-1182.44 1044.43 2574
-1176.28 1044.43 2574
-1171.94 1046.05 2578
-1165.78 1046.05 2578
-1159.61 1046.05 2578
-1151.66 1044.43 2574
-1149.06 1047.67 2582
-1150.42 1054.57 2599
-1144.2 1054.57 2599
-1137.99 1054.57 2599
-1131.77 1054.57 2599
-1125.56 1054.57 2599
-1115.46 1050.92 2590
-1114.84 1056.2 2603
-1112.02 1059.44 2611
-1115.94 1069.18 2635
-1109.64 1069.18 2635
-1103.34 1069.18 2635
-1095.37 1067.56 2631
-1092.81 1071.21 2640
-1086.49 1071.21 2640
-1090.41 1081.35 2665
-1084.04 1081.35 2665
-1077.66 1081.35 2665
-1067.67 1077.7 2656
-1061.32 1077.7 2656
-1051.79 1074.46 2648
-1045.46 1074.46 2648
-1035.99 1071.21 2640
-1019.93 1061.07 2615
-1010.57 1057.82 2607
-1004.34 1057.82 2607
-996.572 1056.2 2603
-990.347 1056.2 2603
-980.72 1052.54 2594
-974.517 1052.54 2594
-965.328 1049.3 2586
-959.144 1049.3 2586
-950.012 1046.05 2578
-939.82 1041.59 2567
-933.681 1041.59 2567
-924.652 1038.34 2559
-915.661 1035.1 2551
-908.135 1033.47 2547
-902.044 1033.47 2547
-891.732 1028.6 2535
-889.863 1033.47 2547
-883.772 1033.47 2547
-877.682 1033.47 2547
-871.591 1033.47 2547
-865.5 1033.47 2547
-856.71 1030.23 2539
-850.639 1030.23 2539
-844.567 1030.23 2539
-834.863 1025.76 2528
-811.02 1065.93 2627
-808.72 1071.21 2640
-802.407 1071.21 2640
-796.094 1071.21 2640
-784.695 1064.31 2623
-778.423 1064.31 2623
-769.796 1061.07 2615
-763.542 1061.07 2615
-757.289 1061.07 2615
-751.036 1061.07 2615
-738.802 1052.54 2594
-732.599 1052.54 2594
-725.275 1050.92 2590
-719.082 1050.92 2590
-712.888 1050.92 2590
-705.604 1049.3 2586
-698.338 1047.67 2582
-692.163 1047.67 2582
-687.052 1049.3 2586
-680.868 1049.3 2586
-676.771 1052.54 2594
-670.568 1052.54 2594
-664.365 1052.54 2594
-658.162 1052.54 2594
-651.959 1052.54 2594
-648.992 1057.82 2607
-645.717 1062.69 2619
-639.454 1062.69 2619
-637.059 1069.18 2635
-635.785 1077.7 2656
-635.596 1088.25 2682
-629.182 1088.25 2682
-625.787 1093.53 2695
-625.318 1104.08 2721
-620.858 1107.73 2730
-614.33 1107.73 2730
-612.922 1117.06 2753
-606.339 1117.06 2753
-601.716 1120.71 2762
-595.111 1120.71 2762
-588.507 1120.71 2762
-581.902 1120.71 2762
-575.297 1120.71 2762
-568.692 1120.71 2762
-562.088 1120.71 2762
-555.483 1120.71 2762
-548.878 1120.71 2762
-542.273 1120.71 2762
-535.668 1120.71 2762
-528.106 1118.68 2757
-521.513 1118.68 2757
-514.173 1117.06 2753
-505.009 1111.38 2739
-496.821 1107.73 2730
-490.293 1107.73 2730
-479.157 1097.18 2704
-471.118 1093.53 2695
-458.811 1079.73 2661
-452.448 1079.73 2661
-446.084 1079.73 2661
-441.043 1082.98 2669
-436.126 1086.63 2678
-429.723 1086.63 2678
-423.319 1086.63 2678
-414.268 1079.73 2661
-407.138 1077.7 2656
-398.976 1072.83 2644
-392.654 1072.83 2644
-385.747 1071.21 2640
-378.715 1069.18 2635
-371.849 1067.56 2631
-365.557 1067.56 2631
-359.266 1067.56 2631
-350.827 1061.07 2615
-345.628 1064.31 2623
-340.391 1067.56 2631
-334.099 1067.56 2631
-328.306 1069.18 2635
-323.105 1072.83 2644
-316.782 1072.83 2644
-310.46 1072.83 2644
-303.102 1069.18 2635
-295.449 1064.31 2623
-289.177 1064.31 2623
-282.042 1061.07 2615
-276.21 1062.69 2619
-269.947 1062.69 2619
-263.685 1062.69 2619
-256.635 1059.44 2611
-250.392 1059.44 2611
-245.27 1064.31 2623
-238.998 1064.31 2623
-233.435 1067.56 2631
-227.144 1067.56 2631
-221.188 1069.18 2635
-214.887 1069.18 2635
-208.586 1069.18 2635
-202.285 1069.18 2635
-195.984 1069.18 2635
-190.33 1072.83 2644
-184.008 1072.83 2644
-177.685 1072.83 2644
-171.363 1072.83 2644
-165.04 1072.83 2644
-158.717 1072.83 2644
-152.395 1072.83 2644
-145.133 1065.93 2627
-87.7586 924.729 2279
-82.3088 924.729 2279
-77.0614 927.164 2285
-71.5973 927.164 2285
-66.1332 927.164 2285
-60.5097 924.729 2279
-55.0599 924.729 2279
-49.5449 923.512 2276
-44.1022 923.512 2276
-38.6596 923.512 2276
-33.1733 922.295 2273
-27.7378 922.295 2273
-22.2435 919.86 2267
-16.8447 921.078 2270
-11.4164 921.078 2270
-5.99609 922.295 2273
-0.560662 922.295 2273
4.87477 922.295 2273
10.3102 922.295 2273
15.7456 922.295 2273
21.1252 919.86 2267
26.5462 919.86 2267
31.9673 919.86 2267
37.3389 918.643 2264
42.7528 918.643 2264
48.1668 918.643 2264
53.5097 917.426 2261
58.8122 915.803 2257
63.9533 912.151 2248
69.3289 912.151 2248
74.7046 912.151 2248
80.0802 912.151 2248
85.3419 910.933 2245
90.5891 909.716 2242
95.9504 909.716 2242
101.176 908.499 2239
106.388 907.282 2236
111.734 907.282 2236
117.081 907.282 2236
122.264 906.064 2233
127.432 904.847 2230
132.586 903.63 2227
137.912 903.63 2227
142.851 901.195 2221
148.363 902.413 2224
154.925 909.716 2242
160.286 909.716 2242
165.647 909.716 2242
171.695 913.368 2251
177.314 914.585 2254
183.758 919.86 2267
189.179 919.86 2267
194.857 921.078 2270
200.286 921.078 2270
205.714 921.078 2270
211.142 921.078 2270
254.565 1056.2 2603
260.79 1056.2 2603
270.297 1069.18 2635
279.327 1079.73 2661
286.549 1082.98 2669
292.932 1082.98 2669
299.314 1082.98 2669
305.696 1082.98 2669
312.079 1082.98 2669
316.91 1077.7 2656
320.705 1069.18 2635
326.51 1067.56 2631
332.802 1067.56 2631
339.093 1067.56 2631
345.385 1067.56 2631
351.676 1067.56 2631
357.968 1067.56 2631
364.259 1067.56 2631
369.424 1064.31 2623
375.123 1062.69 2619
380.804 1061.07 2615
387.057 1061.07 2615
393.31 1061.07 2615
398.952 1059.44 2611
397.747 1039.97 2563
405.137 1043.21 2571
411.285 1043.21 2571
419.868 1049.3 2586
428.194 1054.57 2599
434.409 1054.57 2599
440.624 1054.57 2599
449.59 1061.07 2615
457.935 1065.93 2627
464.217 1065.93 2627
470.499 1065.93 2627
476.78 1065.93 2627
485.453 1071.21 2640
492.511 1072.83 2644
498.834 1072.83 2644
505.156 1072.83 2644
514.768 1079.73 2661
524.46 1086.63 2678
536.811 1098.8 2708
543.287 1098.8 2708
553.416 1106.1 2726
559.935 1106.1 2726
566.454 1106.1 2726
571.081 1102.45 2717
575.665 1098.8 2708
581.281 1097.18 2704
587.747 1097.18 2704
593.114 1095.15 2699
592.904 1082.98 2669
599.286 1082.98 2669
605.669 1082.98 2669
608.152 1076.08 2652
615.421 1077.7 2656
621.772 1077.7 2656
628.124 1077.7 2656
630.653 1071.21 2640
636.966 1071.21 2640
644.254 1072.83 2644
650.576 1072.83 2644
656.899 1072.83 2644
657.954 1064.31 2623
659.161 1056.2 2603
664.364 1054.57 2599
670.579 1054.57 2599
676.794 1054.57 2599
684.06 1056.2 2603
694.527 1062.69 2619
700.79 1062.69 2619
707.053 1062.69 2619
713.316 1062.69 2619
720.678 1064.31 2623
726.95 1064.31 2623
733.222 1064.31 2623
740.622 1065.93 2627
746.904 1065.93 2627
754.333 1067.56 2631
760.625 1067.56 2631
766.916 1067.56 2631
773.208 1067.56 2631
779.499 1067.56 2631
785.791 1067.56 2631
792.082 1067.56 2631
798.374 1067.56 2631
800.995 1062.69 2619
807.258 1062.69 2619
813.521 1062.69 2619
819.784 1062.69 2619
826.047 1062.69 2619
832.309 1062.69 2619
838.572 1062.69 2619
847.416 1065.93 2627
856.297 1069.18 2635
862.599 1069.18 2635
868.9 1069.18 2635
875.201 1069.18 2635
881.502 1069.18 2635
892.183 1074.46 2648
898.515 1074.46 2648
904.847 1074.46 2648
912.556 1076.08 2652
918.898 1076.08 2652
925.239 1076.08 2652
931.581 1076.08 2652
936.508 1074.46 2648
941.416 1072.83 2644
952.04 1077.7 2656
958.391 1077.7 2656
974.187 1088.25 2682
1003.27 1113.41 2744
1009.83 1113.41 2744
1016.39 1113.41 2744
1022.95 1113.41 2744
1027.64 1111.38 2739
1034.19 1111.38 2739
1039.22 1109.76 2735
1040.41 1104.08 2721
1043.84 1100.83 2713
1050.32 1100.83 2713
1053.3 1097.18 2704
1056.24 1093.53 2695
1052.44 1082.98 2669
1058.82 1082.98 2669
1056.82 1074.46 2648
1056.33 1067.56 2631
1059.39 1064.31 2623
1065.66 1064.31 2623
1071.93 1064.31 2623
1076.56 1062.69 2619
1082.82 1062.69 2619
1089.09 1062.69 2619
1095.35 1062.69 2619
1101.61 1062.69 2619
1107.87 1062.69 2619
1114.14 1062.69 2619
1120.4 1062.69 2619
1124.94 1061.07 2615
1134.66 1064.31 2623
1142.67 1065.93 2627
1161.63 1077.7 2656
1167.98 1077.7 2656
1174.34 1077.7 2656
1196.25 1091.9 2691
1210.28 1098.8 2708
1216.75 1098.8 2708
1231.36 1106.1 2726
1237.88 1106.1 2726
1244.4 1106.1 2726
1250.92 1106.1 2726
1255.13 1104.08 2721
1261.64 1104.08 2721
1266.28 1102.45 2717
1272.78 1102.45 2717
1264.68 1089.87 2686
1256.9 1077.7 2656
1259.45 1074.46 2648
1265.78 1074.46 2648
1272.11 1074.46 2648
1292.93 1086.63 2678
1313.89 1098.8 2708
1324.75 1102.45 2717
1331.25 1102.45 2717
1337.75 1102.45 2717
1344.24 1102.45 2717
1350.74 1102.45 2717
1357.24 1102.45 2717
1383.81 1118.68 2757
1399.99 1126.39 2776
1427.91 1143.43 2818
1434.65 1143.43 2818
1441.39 1143.43 2818
1448.12 1143.43 2818
1454.86 1143.43 2818
1459.01 1141.41 2813
1455.83 1133.7 2794
1460.42 1132.07 2790
1469.2 1133.7 2794
1483.8 1139.78 2809
1490.52 1139.78 2809
1497.24 1139.78 2809
1503.95 1139.78 2809
1510.67 1139.78 2809
1494.7 1122.74 2767
1476.36 1104.08 2721
1475.78 1098.8 2708
1482.26 1098.8 2708
1699.4 1135.73 2799
1709.14 1137.75 2804
1715.84 1137.75 2804
1722.55 1137.75 2804
1729.25 1137.75 2804
1735.96 1137.75 2804
1736.45 1133.7 2794
1737.52 1130.04 2785
1741.04 1128.02 2780
1747.69 1128.02 2780
1754.34 1128.02 2780
1767.32 1132.07 2790
1773.99 1132.07 2790
1780.67 1132.07 2790
1784.13 1130.04 2785
1790.79 1130.04 2785
1791.64 1126.39 2776
1792.45 1122.74 2767
1799.07 1122.74 2767
1799.16 1118.68 2757
1805.75 1118.68 2757
1806.43 1115.03 2748
1813 1115.03 2748
1816.92 1113.41 2744
1814.18 1107.73 2730
1812.04 1102.45 2717
1818.54 1102.45 2717
1818.99 1098.8 2708
1799.18 1082.98 2669
1872.35 1031.85 2543
1890.25 1038.34 2559
1905.26 1043.21 2571
1911.41 1043.21 2571
1917.55 1043.21 2571
1923.7 1043.21 2571
1941.11 1049.3 2586
1963.11 1057.82 2607
1969.34 1057.82 2607
1987.7 1064.31 2623
2009.94 1072.83 2644
2029.22 1079.73 2661
2035.59 1079.73 2661
-1892.57 1058.76 2594
-1886.36 1058.76 2594
-1880.16 1058.76 2594
-1859.51 1050.59 2574
-1845.43 1046.11 2563
-1833.56 1042.84 2555
-1827.45 1042.84 2555
-1818.49 1041.21 2551
-1812.39 1041.21 2551
-1797.8 1036.31 2539
-1791.72 1036.31 2539
-1780.73 1033.45 2532
-1763.46 1026.92 2516
-1757.44 1026.92 2516
-1751.43 1026.92 2516
-1745.41 1026.92 2516
-1739.39 1026.92 2516
-1733.38 1026.92 2516
-1732.85 1030.19 2524
-1729.55 1031.82 2528
-1723.51 1031.82 2528
-1717.46 1031.82 2528
-1711.42 1031.82 2528
-1705.37 1031.82 2528
-1699.33 1031.82 2528
-1685.25 1026.92 2516
-1661.88 1016.31 2490
-1675.87 1028.55 2520
-1669.85 1028.55 2520
-1679.01 1037.94 2543
-1680.82 1042.84 2555
-1674.71 1042.84 2555
-1668.6 1042.84 2555
-1665.09 1044.47 2559
-1658.97 1044.47 2559
-1652.85 1044.47 2559
-1641.59 1041.21 2551
-1635.49 1041.21 2551
-1624.28 1037.94 2543
-1618.2 1037.94 2543
-1600.07 1030.19 2524
-1591.51 1028.55 2520
-1593.03 1033.45 2532
-1586.98 1033.45 2532
-1580.92 1033.45 2532
-1576.73 1034.68 2535
-1580.58 1041.21 2551
-1581.89 1046.11 2563
-1575.76 1046.11 2563
-1576.37 1050.59 2574
-1575.09 1053.86 2582
-1573.78 1057.13 2590
-1567.59 1057.13 2590
-1561.39 1057.13 2590
-1563.01 1062.43 2603
-1566.35 1068.96 2619
-1560.09 1068.96 2619
-1558.57 1072.23 2627
-1552.29 1072.23 2627
-1546.01 1072.23 2627
-1539.73 1072.23 2627
-1524.1 1065.7 2611
-1513.21 1062.43 2603
-1506.99 1062.43 2603
-1500.76 1062.43 2603
-1494.54 1062.43 2603
-1287.07 1050.59 2574
-1280.92 1050.59 2574
-1276.75 1052.23 2578
-1270.58 1052.23 2578
-1268.34 1055.49 2586
-1262.16 1055.49 2586
-1255.97 1055.49 2586
-1249.79 1055.49 2586
-1243.6 1055.49 2586
-1231.68 1050.59 2574
-1216.48 1042.84 2555
-1210.37 1042.84 2555
-1204.26 1042.84 2555
-1198.15 1042.84 2555
-1192.04 1042.84 2555
-1185.93 1042.84 2555
-1179.82 1042.84 2555
-1173.71 1042.84 2555
-1167.6 1042.84 2555
-1161.49 1042.84 2555
-1155.38 1042.84 2555
-1149.27 1042.84 2555
-1144.95 1044.47 2559
-1142.39 1047.74 2567
-1142.89 1053.86 2582
-1136.72 1053.86 2582
-1132.29 1055.49 2586
-1126.11 1055.49 2586
-1119.93 1055.49 2586
-1113.74 1055.49 2586
-1105.84 1053.86 2582
-1110.32 1064.06 2607
-1104.08 1064.06 2607
-1097.85 1064.06 2607
-1091.62 1064.06 2607
-1085.38 1064.06 2607
-1089.08 1073.86 2631
-1082.79 1073.86 2631
-1076.5 1073.86 2631
-1070.21 1073.86 2631
-1063.92 1073.86 2631
-1056.02 1072.23 2627
-1048.14 1070.59 2623
-1041.86 1070.59 2623
-1035.59 1070.59 2623
-1026.18 1067.33 2615
-1016.81 1064.06 2607
-1009.02 1062.43 2603
-1002.8 1062.43 2603
-988.532 1053.86 2582
-982.358 1053.86 2582
-976.183 1053.86 2582
-970.009 1053.86 2582
-960.848 1050.59 2574
-954.693 1050.59 2574
-948.538 1050.59 2574
-938.355 1046.11 2563
-932.227 1046.11 2563
-924.652 1044.47 2559
-915.661 1041.21 2551
-908.135 1039.57 2547
-902.044 1039.57 2547
-895.954 1039.57 2547
-889.863 1039.57 2547
-883.772 1039.57 2547
-877.682 1039.57 2547
-871.591 1039.57 2547
-865.5 1039.57 2547
-858.06 1037.94 2543
-851.979 1037.94 2543
-844.567 1036.31 2539
-834.863 1031.82 2528
-827.506 1030.19 2524
-821.471 1030.19 2524
-815.435 1030.19 2524
-806.08 1065.7 2611
-799.837 1065.7 2611
-793.593 1065.7 2611
-787.349 1065.7 2611
-781.106 1065.7 2611
-774.862 1065.7 2611
-758.904 1052.23 2578
-753.907 1053.86 2582
-747.733 1053.86 2582
-741.558 1053.86 2582
-735.384 1053.86 2582
-726.103 1049.37 2571
-719.955 1049.37 2571
-713.807 1049.37 2571
-707.659 1049.37 2571
-701.511 1049.37 2571
-695.363 1049.37 2571
-689.215 1049.37 2571
-685.989 1053.86 2582
-679.815 1053.86 2582
-674.684 1055.49 2586
-668.5 1055.49 2586
-662.316 1055.49 2586
-656.132 1055.49 2586
-650.954 1057.13 2590
-645.756 1058.76 2594
-644.731 1067.33 2615
-638.477 1067.33 2615
-635.125 1072.23 2627
-631.955 1077.53 2640
-630.619 1086.1 2661
-624.256 1086.1 2661
-622.769 1094.68 2682
-623.479 1107.33 2713
-618.811 1110.59 2721
-612.304 1110.59 2721
-609.805 1117.94 2739
-604.357 1119.98 2744
-598.666 1121.61 2748
-592.095 1121.61 2748
-586.589 1123.65 2753
-580.848 1125.29 2757
-574.256 1125.29 2757
-567.663 1125.29 2757
-561.07 1125.29 2757
-555.483 1127.33 2762
-548.878 1127.33 2762
-542.273 1127.33 2762
-535.668 1127.33 2762
-528.106 1125.29 2757
-521.513 1125.29 2757
-512.492 1119.98 2744
-503.349 1114.27 2730
-492.089 1103.66 2704
-485.623 1103.66 2704
-477.562 1099.98 2695
-462.902 1080.8 2648
-452.949 1072.23 2627
-448.877 1077.53 2640
-442.564 1077.53 2640
-437.573 1080.8 2648
-432.544 1084.06 2656
-426.192 1084.06 2656
-419.841 1084.06 2656
-411.622 1079.17 2644
-403.306 1073.86 2631
-397.015 1073.86 2631
-390.723 1073.86 2631
-384.432 1073.86 2631
-378.14 1073.86 2631
-371.849 1073.86 2631
-365.557 1073.86 2631
-357.627 1068.96 2619
-349.754 1064.06 2607
-344.047 1065.7 2611
-339.356 1070.59 2623
-333.084 1070.59 2623
-327.31 1072.23 2627
-321.028 1072.23 2627
-314.746 1072.23 2627
-308.464 1072.23 2627
-301.722 1070.59 2623
-293.647 1064.06 2607
-287.413 1064.06 2607
-280.747 1062.43 2603
-274.523 1062.43 2603
-268.298 1062.43 2603
-262.074 1062.43 2603
-255.849 1062.43 2603
-250.008 1064.06 2607
-244.148 1065.7 2611
-238.269 1067.33 2615
-232.725 1070.59 2623
-226.453 1070.59 2623
-220.516 1072.23 2627
-214.887 1075.49 2635
-208.586 1075.49 2635
-202.285 1075.49 2635
-195.984 1075.49 2635
-190.042 1077.53 2640
-184.008 1079.17 2644
-177.685 1079.17 2644
-171.363 1079.17 2644
-163.979 1072.23 2627
-157.697 1072.23 2627
-151.415 1072.23 2627
-145.133 1072.23 2627
-87.7586 930.189 2279
-82.3088 930.189 2279
-76.9602 931.413 2282
-71.5033 931.413 2282
-66.0463 931.413 2282
-60.5097 930.189 2279
-55.0599 930.189 2279
-49.5449 928.964 2276
-44.0441 927.74 2273
-38.6087 927.74 2273
-33.1295 926.515 2270
-27.6646 925.291 2267
-22.1846 922.842 2261
-16.7779 922.842 2261
-11.3712 922.842 2261
-5.97235 924.066 2264
-0.558442 924.066 2264
4.85547 924.066 2264
10.2558 922.842 2261
15.6625 922.842 2261
21.004 919.985 2254
26.394 919.985 2254
31.784 919.985 2254
37.0751 917.536 2248
42.4507 917.536 2248
47.8263 917.536 2248
53.131 916.311 2245
58.4995 916.311 2245
63.6973 913.862 2239
69.0514 913.862 2239
74.4055 913.862 2239
79.7596 913.862 2239
85.1138 913.862 2239
90.2255 911.414 2233
95.5652 911.414 2233
100.905 911.414 2233
106.245 911.414 2233
111.435 910.189 2230
116.767 910.189 2230
122.1 910.189 2230
127.261 908.965 2227
132.586 908.965 2227
137.912 908.965 2227
142.851 906.516 2221
148.363 907.74 2224
154.925 915.087 2242
160.286 915.087 2242
165.647 915.087 2242
171.695 918.76 2251
177.314 919.985 2254
183.758 925.291 2267
189.179 925.291 2267
194.857 926.515 2270
200.286 926.515 2270
205.714 926.515 2270
211.142 926.515 2270
253.294 1057.13 2590
259.487 1057.13 2590
267.014 1062.43 2603
276.598 1075.49 2635
282.899 1075.49 2635
289.2 1075.49 2635
295.501 1075.49 2635
301.802 1075.49 2635
308.103 1075.49 2635
314.404 1075.49 2635
318.758 1068.96 2619
325.021 1068.96 2619
331.284 1068.96 2619
337.546 1068.96 2619
343.809 1068.96 2619
349.537 1067.33 2615
355.791 1067.33 2615
362.044 1067.33 2615
367.734 1065.7 2611
372.832 1062.43 2603
378.474 1060.8 2599
384.689 1060.8 2599
389.55 1057.13 2590
393.91 1052.23 2578
397.747 1046.11 2563
405.137 1049.37 2571
411.285 1049.37 2571
417.433 1049.37 2571
424.075 1050.59 2574
432.236 1055.49 2586
438.42 1055.49 2586
446.839 1060.8 2599
453.751 1062.43 2603
459.976 1062.43 2603
466.917 1064.06 2607
473.151 1064.06 2607
479.385 1064.06 2607
485.619 1064.06 2607
494.872 1070.59 2623
501.144 1070.59 2623
509.738 1075.49 2635
518.585 1080.8 2648
530.864 1093.04 2678
537.268 1093.04 2678
546.311 1098.35 2691
552.746 1098.35 2691
559.181 1098.35 2691
565.616 1098.35 2691
570.138 1094.68 2682
573.757 1089.37 2669
580.139 1089.37 2669
585.642 1087.74 2665
592.015 1087.74 2665
598.388 1087.74 2665
604.761 1087.74 2665
607.235 1080.8 2648
612.641 1079.17 2644
614.983 1072.23 2627
621.265 1072.23 2627
627.547 1072.23 2627
630.934 1067.33 2615
636.213 1065.7 2611
642.456 1065.7 2611
648.7 1065.7 2611
654.944 1065.7 2611
659.161 1062.43 2603
664.364 1060.8 2599
670.579 1060.8 2599
676.794 1060.8 2599
684.06 1062.43 2603
