-939.289 -107.96 2886
-934.003 -108.147 2891
-927.09 -108.147 2891
-920.176 -108.147 2891
-913.263 -108.147 2891
-906.35 -108.147 2891
-899.437 -108.147 2891
-892.523 -108.147 2891
-885.61 -108.147 2891
-878.697 -108.147 2891
-871.784 -108.147 2891
-864.87 -108.147 2891
-857.957 -108.147 2891
-851.044 -108.147 2891
-844.13 -108.147 2891
-837.217 -108.147 2891
-830.304 -108.147 2891
-823.391 -108.147 2891
-816.477 -108.147 2891
-809.564 -108.147 2891
-802.651 -108.147 2891
-795.738 -108.147 2891
-788.824 -108.147 2891
-780.559 -107.96 2886
-773.658 -107.96 2886
-766.756 -107.96 2886
-759.855 -107.96 2886
-751.649 -107.773 2881
-744.76 -107.773 2881
-737.87 -107.773 2881
-729.713 -107.586 2876
-722.835 -107.586 2876
-715.958 -107.586 2876
-709.08 -107.586 2876
-700.982 -107.399 2871
-694.117 -107.399 2871
-687.251 -107.399 2871
-679.201 -107.212 2866
-671.409 -107.062 2862
-662.243 -106.688 2852
-655.423 -106.688 2852
-648.603 -106.688 2852
-640.658 -106.501 2847
-633.85 -106.501 2847
-628.143 -106.688 2852
-623.502 -107.062 2862
-616.658 -107.062 2862
-611.732 -107.399 2871
-606.973 -107.773 2881
-604.249 -108.521 2901
-597.312 -108.521 2901
-598.719 -110.055 2942
-604.555 -112.449 3006
-597.367 -112.449 3006
-590.179 -112.449 3006
-635.743 -122.624 3278
-641.696 -125.317 3350
-633.685 -125.317 3350
-625.674 -125.317 3350
-617.663 -125.317 3350
-609.652 -125.317 3350
-601.641 -125.317 3350
-594.871 -125.579 3357
-586.843 -125.579 3357
-578.816 -125.579 3357
-570.788 -125.579 3357
-564.94 -126.065 3370
-556.881 -126.065 3370
-551.102 -126.589 3384
-543.01 -126.589 3384
-534.918 -126.589 3384
-526.826 -126.589 3384
-518.734 -126.589 3384
-508.529 -126.065 3370
-499.431 -125.803 3363
-491.389 -125.803 3363
-483.347 -125.803 3363
-475.305 -125.803 3363
-468.235 -126.065 3370
-460.177 -126.065 3370
-454.935 -126.851 3391
-446.826 -126.851 3391
-438.717 -126.851 3391
-429.72 -126.589 3384
-421.628 -126.589 3384
-413.535 -126.589 3384
-404.604 -126.327 3377
-394.181 -125.579 3357
-385.348 -125.317 3350
-377.337 -125.317 3350
-369.326 -125.317 3350
-360.56 -125.055 3343
-352.566 -125.055 3343
-344.572 -125.055 3343
-336.578 -125.055 3343
-325.34 -123.821 3310
-317.425 -123.821 3310
-309.51 -123.821 3310
-300.957 -123.559 3303
-293.058 -123.559 3303
-284.642 -123.335 3297
-276.758 -123.335 3297
-268.874 -123.335 3297
-259.96 -122.848 3284
-252.568 -123.073 3290
-244.701 -123.073 3290
-236.833 -123.073 3290
-226.739 -121.876 3258
-145.024 -80.7267 2158
-139.864 -80.7267 2158
-134.704 -80.7267 2158
-129.543 -80.7267 2158
-124.094 -80.5397 2153
-118.946 -80.5397 2153
-113.639 -80.4274 2150
-108.195 -80.203 2144
-102.972 -80.1282 2142
-97.8496 -80.1282 2142
-92.7274 -80.1282 2142
-87.3599 -79.9037 2136
-82.1365 -79.7915 2133
-77.0359 -79.7915 2133
-71.8678 -79.7167 2131
-66.7719 -79.7167 2131
-61.3577 -79.3052 2120
-56.2881 -79.3052 2120
-51.0253 -79.0059 2112
-45.8007 -78.7067 2104
-40.6144 -78.4074 2096
-35.3814 -77.9211 2083
-30.4003 -77.9211 2083
-25.3582 -77.7341 2078
-20.3106 -77.4348 2070
-15.227 -76.7615 2052
-10.3201 -76.7615 2052
-5.36034 -76.0133 2032
-0.497516 -75.4522 2017
4.31502 -75.2651 2012
9.12632 -75.2651 2012
13.9376 -75.2651 2012
18.7303 -75.1903 2010
23.5368 -75.1903 2010
28.4138 -75.3773 2015
33.2323 -75.3773 2015
38.0886 -75.4522 2017
42.9118 -75.4522 2017
47.9244 -75.7514 2025
52.9492 -76.0133 2032
57.8083 -76.0133 2032
62.8833 -76.2751 2039
68.0915 -76.6492 2049
73.4544 -77.1355 2062
78.3853 -77.1355 2062
83.6394 -77.4348 2070
89.1457 -77.9211 2083
94.7142 -78.4074 2096
99.7264 -78.4074 2096
105.138 -78.7067 2104
110.274 -78.7815 2106
115.639 -79.0059 2112
120.689 -79.0059 2112
125.859 -79.0807 2114
131.286 -79.3052 2120
136.677 -79.4922 2125
141.758 -79.4922 2125
147.047 -79.6045 2128
152.35 -79.7167 2131
157.816 -79.9037 2136
162.923 -79.9037 2136
168.503 -80.1282 2142
173.788 -80.203 2144
178.915 -80.203 2144
184.041 -80.203 2144
189.168 -80.203 2144
194.295 -80.203 2144
199.701 -80.3152 2147
204.836 -80.3152 2147
209.97 -80.3152 2147
215.104 -80.3152 2147
220.238 -80.3152 2147
225.372 -80.3152 2147
230.506 -80.3152 2147
235.64 -80.3152 2147
241.111 -80.4274 2150
246.252 -80.4274 2150
251.393 -80.4274 2150
379.873 -114.506 3061
387.193 -114.506 3061
394.513 -114.506 3061
400.389 -114.095 3050
405.41 -113.459 3033
412.663 -113.459 3033
416.87 -112.636 3011
418.859 -111.252 2974
423.679 -110.653 2958
430.752 -110.653 2958
434.717 -109.868 2937
440.237 -109.494 2927
447.236 -109.494 2927
454.235 -109.494 2927
460.447 -109.307 2922
465.675 -108.895 2911
471.824 -108.708 2906
477.125 -108.334 2896
484.051 -108.334 2896
490.976 -108.334 2896
497.041 -108.147 2891
503.083 -107.96 2886
509.984 -107.96 2886
516.886 -107.96 2886
523.787 -107.96 2886
529.769 -107.773 2881
536.658 -107.773 2881
542.604 -107.586 2876
549.482 -107.586 2876
556.359 -107.586 2876
563.236 -107.586 2876
570.114 -107.586 2876
576.991 -107.586 2876
582.854 -107.399 2871
589.719 -107.399 2871
596.584 -107.399 2871
603.45 -107.399 2871
610.315 -107.399 2871
618.255 -107.586 2876
625.133 -107.586 2876
632.01 -107.586 2876
638.888 -107.586 2876
645.765 -107.586 2876
652.642 -107.586 2876
658.373 -107.399 2871
665.239 -107.399 2871
672.104 -107.399 2871
678.97 -107.399 2871
685.835 -107.399 2871
692.7 -107.399 2871
699.566 -107.399 2871
706.431 -107.399 2871
712.054 -107.212 2866
718.908 -107.212 2866
724.748 -107.062 2862
731.592 -107.062 2862
738.436 -107.062 2862
745.28 -107.062 2862
750.81 -106.875 2857
757.642 -106.875 2857
764.474 -106.875 2857
771.306 -106.875 2857
778.138 -106.875 2857
784.97 -106.875 2857
791.802 -106.875 2857
798.634 -106.875 2857
804.056 -106.688 2852
810.876 -106.688 2852
817.696 -106.688 2852
823.071 -106.501 2847
829.879 -106.501 2847
838.156 -106.688 2852
844.976 -106.688 2852
851.796 -106.688 2852
860.121 -106.875 2857
866.953 -106.875 2857
873.785 -106.875 2857
880.617 -106.875 2857
885.896 -106.688 2852
892.716 -106.688 2852
901.113 -106.875 2857
907.945 -106.875 2857
914.777 -106.875 2857
921.609 -106.875 2857
930.066 -107.062 2862
938.219 -107.212 2866
945.073 -107.212 2866
953.587 -107.399 2871
962.125 -107.586 2876
974.056 -108.147 2891
980.969 -108.147 2891
1003.6 -109.868 2937
1010.62 -109.868 2937
1017.65 -109.868 2937
1279.92 -135.38 3619
1288.57 -135.38 3619
1297.23 -135.38 3619
1317.07 -136.54 3650
1328.7 -136.839 3658
1337.45 -136.839 3658
1349.51 -137.176 3667
1364.2 -137.774 3683
1373.01 -137.774 3683
1381.82 -137.774 3683
1390.62 -137.774 3683
1396.39 -137.475 3675
1405.18 -137.475 3675
1395.5 -135.679 3627
1401.08 -135.38 3619
1400.38 -134.482 3595
1408.98 -134.482 3595
1411.66 -133.921 3580
1417.05 -133.622 3572
1413.62 -132.5 3542
1416.06 -131.938 3527
1424.5 -131.938 3527
1430.09 -131.677 3520
1435.24 -131.377 3512
1437.47 -130.816 3497
1445.83 -130.816 3497
1448.37 -130.292 3483
1444.57 -129.208 3454
1446.94 -128.684 3440
1455.17 -128.684 3440
1445.53 -127.113 3398
1447.66 -126.589 3384
1446.72 -125.803 3363
1454.76 -125.803 3363
1462.81 -125.803 3363
1468.22 -125.579 3357
1473.17 -125.317 3350
1475.44 -124.831 3337
1483.42 -124.831 3337
1482.46 -124.083 3317
1484.1 -123.559 3303
1489.29 -123.335 3297
1497.17 -123.335 3297
1501.86 -123.073 3290
1509.73 -123.073 3290
1532.82 -124.307 3323
1562.55 -126.065 3370
1570.61 -126.065 3370
1598.35 -127.636 3412
1619.69 -128.684 3440
1651.58 -130.554 3490
1659.92 -130.554 3490
1671.61 -130.816 3497
1683.82 -131.115 3505
1692.2 -131.115 3505
1707.86 -131.677 3520
1716.28 -131.677 3520
1724.7 -131.677 3520
1740.01 -132.2 3534
1748.46 -132.2 3534
1756.91 -132.2 3534
1765.36 -132.2 3534
1785.35 -133.061 3557
1809.49 -134.22 3588
1818.07 -134.22 3588
1846.51 -135.679 3627
1859.27 -135.978 3635
1867.97 -135.978 3635
1876.66 -135.978 3635
1503.57 -102.311 2735
1510.11 -102.311 2735
1557.69 -105.079 2809
1572.2 -105.603 2823
1578.96 -105.603 2823
1585.71 -105.603 2823
1592.46 -105.603 2823
1585.61 -104.705 2799
1592.3 -104.705 2799
1591 -104.182 2785
1594.79 -103.995 2780
1596.26 -103.658 2771
1602.88 -103.658 2771
1609.51 -103.658 2771
1616.13 -103.658 2771
1622.76 -103.658 2771
1629.39 -103.658 2771
1625.39 -102.985 2753
1629 -102.797 2748
1633.2 -102.648 2744
1636.77 -102.461 2739
1643.32 -102.461 2739
1647.46 -102.311 2735
1654 -102.311 2735
1657.5 -102.124 2730
1664.03 -102.124 2730
1670.56 -102.124 2730
1671.56 -101.787 2721
1678.07 -101.787 2721
1684.57 -101.787 2721
1686.11 -101.488 2713
1692.6 -101.488 2713
1699.08 -101.488 2713
1705.57 -101.488 2713
1712.06 -101.488 2713
1715.38 -101.301 2708
1721.85 -101.301 2708
1722.59 -100.965 2699
1729.04 -100.965 2699
1732.92 -100.815 2695
1736.79 -100.665 2691
1737.39 -100.329 2682
1743.8 -100.329 2682
1747.61 -100.179 2678
1748.12 -99.8423 2669
1751.87 -99.6926 2665
1758.24 -99.6926 2665
1764.61 -99.6926 2665
1765.01 -99.3559 2656
1771.36 -99.3559 2656
1777.71 -99.3559 2656
1784.06 -99.3559 2656
1787.72 -99.2063 2652
1788.65 -98.9071 2644
1792.25 -98.7574 2640
1798.57 -98.7574 2640
1804.88 -98.7574 2640
1811.19 -98.7574 2640
1814.06 -98.5704 2635
1820.36 -98.5704 2635
1823.89 -98.4207 2631
1827.4 -98.2711 2627
1833.68 -98.2711 2627
1839.96 -98.2711 2627
1843.44 -98.1215 2623
1849.71 -98.1215 2623
1855.98 -98.1215 2623
1862.25 -98.1215 2623
1868.52 -98.1215 2623
1871.94 -97.9718 2619
1872.46 -97.6726 2611
1878.71 -97.6726 2611
1884.95 -97.6726 2611
1888.3 -97.5229 2607
1894.53 -97.5229 2607
1897.85 -97.3733 2603
1904.07 -97.3733 2603
1907.36 -97.2237 2599
1909.9 -97.0366 2594
1913.14 -96.887 2590
1919.34 -96.887 2590
1925.53 -96.887 2590
1931.73 -96.887 2590
1934.93 -96.7374 2586
1941.11 -96.7374 2586
1947.29 -96.7374 2586
1950.46 -96.5877 2582
1956.63 -96.5877 2582
1956.72 -96.2885 2574
1962.88 -96.2885 2574
1969.03 -96.2885 2574
-2044.02 -95.5844 2730
-2050.92 -96.2146 2748
-2048.07 -96.3897 2753
-2041.49 -96.3897 2753
-2034.91 -96.3897 2753
-2031.27 -96.5297 2757
-2024.68 -96.5297 2757
-2018.08 -96.5297 2757
-2015.14 -96.7048 2762
-2012.17 -96.8799 2767
-2008.45 -97.0199 2771
-2001.83 -97.0199 2771
-2001.68 -97.335 2780
-1995.03 -97.335 2780
-1988.38 -97.335 2780
-1981.74 -97.335 2780
-1975.09 -97.335 2780
-1955.7 -96.7048 2762
-1949.09 -96.7048 2762
-2235.87 -111.69 3190
-2262.46 -113.406 3239
-2254.72 -113.406 3239
-2255.99 -113.861 3252
-2302.14 -116.592 3330
-2336.2 -118.728 3391
-2328.09 -118.728 3391
-2329.56 -119.218 3405
-2321.42 -119.218 3405
-2313.28 -119.218 3405
-2300.4 -118.973 3398
-2292.27 -118.973 3398
-2293.56 -119.463 3412
-2285.4 -119.463 3412
-2277.24 -119.463 3412
-2269.08 -119.463 3412
-2219.84 -117.292 3350
-2211.83 -117.292 3350
-2203.81 -117.292 3350
-2204.32 -117.747 3363
-2196.28 -117.747 3363
-2224.68 -119.708 3419
-2216.5 -119.708 3419
-2212.85 -119.953 3426
-2204.66 -119.953 3426
-2200.95 -120.198 3433
-2192.74 -120.198 3433
-2188.99 -120.443 3440
-2194.07 -121.179 3461
-2199.69 -121.949 3483
-2191.36 -121.949 3483
-2191.81 -122.439 3497
-2183.45 -122.439 3497
-2175.08 -122.439 3497
-2166.72 -122.439 3497
-2149.72 -121.949 3483
-2127.86 -121.179 3461
-2141.63 -122.439 3497
-2133.27 -122.439 3497
-2134.02 -122.964 3512
-2148.02 -124.26 3549
-2139.53 -124.26 3549
-2131.05 -124.26 3549
-2122.56 -124.26 3549
-2109.9 -124.015 3542
-2105.59 -124.26 3549
-2097.1 -124.26 3549
-2102.15 -125.065 3572
-2093.61 -125.065 3572
-2085.06 -125.065 3572
-2076.52 -125.065 3572
-2067.98 -125.065 3572
-2046.18 -124.26 3549
-2037.69 -124.26 3549
-2008.05 -122.964 3512
-1999.65 -122.964 3512
-2008.26 -124.015 3542
-2008.26 -124.54 3557
-1999.76 -124.54 3557
-1991.25 -124.54 3557
-1978.28 -124.26 3549
-1969.8 -124.26 3549
-1957.44 -124.015 3542
-1940.72 -123.489 3527
-1940.5 -124.015 3542
-1940.21 -124.54 3557
-1931.71 -124.54 3557
-1923.2 -124.54 3557
-1914.7 -124.54 3557
-1906.19 -124.54 3557
-1889.68 -124.015 3542
-1873.25 -123.489 3527
-1864.81 -123.489 3527
-1856.38 -123.489 3527
-1847.94 -123.489 3527
-1843.16 -123.735 3534
-1842.5 -124.26 3549
-1842.28 -124.82 3565
-1833.75 -124.82 3565
-1825.23 -124.82 3565
-1816.7 -124.82 3565
-1808.18 -124.82 3565
-1799.65 -124.82 3565
-1791.13 -124.82 3565
-1778.6 -124.54 3557
-1770.1 -124.54 3557
-1761.59 -124.54 3557
-1753.09 -124.54 3557
-1744.58 -124.54 3557
-1736.07 -124.54 3557
-1727.57 -124.54 3557
-1719.06 -124.54 3557
-1717.77 -125.065 3572
-1709.23 -125.065 3572
-1708.3 -125.625 3588
-1699.72 -125.625 3588
-1691.14 -125.625 3588
-1682.56 -125.625 3588
-1673.98 -125.625 3588
-1665.4 -125.625 3588
-1656.82 -125.625 3588
-1640.89 -125.065 3572
-1632.35 -125.065 3572
-1623.81 -125.065 3572
-1622.5 -125.625 3588
-1620.67 -126.15 3603
-1612.06 -126.15 3603
-1603.44 -126.15 3603
-1594.82 -126.15 3603
-1586.21 -126.15 3603
-1577.59 -126.15 3603
-1568.98 -126.15 3603
-1560.36 -126.15 3603
-1545.28 -125.625 3588
-1536.7 -125.625 3588
-1521.31 -125.065 3572
-1503.03 -124.26 3549
-1488.22 -123.735 3534
-1479.77 -123.735 3534
-1453 -122.194 3490
-1432.65 -121.179 3461
-1320.26 -112.32 3208
-1312.58 -112.32 3208
-1304.91 -112.32 3208
-1289.96 -111.69 3190
-1267.86 -110.43 3154
-1243.54 -108.959 3112
-1236.1 -108.959 3112
-1208.52 -107.174 3061
-1192.57 -106.403 3039
-1161.9 -104.303 2979
-1154.77 -104.303 2979
-1137.63 -103.392 2953
-1126.36 -103.007 2942
-1117.42 -102.832 2937
-1108.51 -102.657 2932
-1101.5 -102.657 2932
-1090.75 -102.307 2922
-1083.77 -102.307 2922
-1076.78 -102.307 2922
-1069.79 -102.307 2922
-1062.8 -102.307 2922
-1055.82 -102.307 2922
-1048.83 -102.307 2922
-1041.84 -102.307 2922
-1033.08 -102.132 2917
-1026.11 -102.132 2917
-1015.29 -101.747 2906
-1008.34 -101.747 2906
-997.945 -101.396 2896
-991.02 -101.396 2896
-982.396 -101.221 2891
-975.482 -101.221 2891
-968.569 -101.221 2891
-961.656 -101.221 2891
-954.743 -101.221 2891
-947.829 -101.221 2891
-940.916 -101.221 2891
-934.003 -101.221 2891
-927.09 -101.221 2891
-920.176 -101.221 2891
-913.263 -101.221 2891
-906.35 -101.221 2891
-899.437 -101.221 2891
-892.523 -101.221 2891
-885.61 -101.221 2891
-878.697 -101.221 2891
-871.784 -101.221 2891
-864.87 -101.221 2891
-857.957 -101.221 2891
-851.044 -101.221 2891
-844.13 -101.221 2891
-837.217 -101.221 2891
-830.304 -101.221 2891
-823.391 -101.221 2891
-816.477 -101.221 2891
-809.564 -101.221 2891
-802.651 -101.221 2891
-795.738 -101.221 2891
-788.824 -101.221 2891
-781.911 -101.221 2891
-774.998 -101.221 2891
-768.085 -101.221 2891
-759.855 -101.046 2886
-752.954 -101.046 2886
-746.052 -101.046 2886
-739.151 -101.046 2886
-730.981 -100.871 2881
-724.092 -100.871 2881
-717.202 -100.871 2881
-710.313 -100.871 2881
-702.203 -100.696 2876
-694.117 -100.521 2871
-687.251 -100.521 2871
-680.386 -100.521 2871
-672.347 -100.346 2866
-663.404 -100.031 2857
-656.572 -100.031 2857
-648.603 -99.8559 2852
-641.783 -99.8559 2852
-633.85 -99.6809 2847
-628.143 -99.8559 2852
-623.502 -100.206 2862
-616.658 -100.206 2862
-610.666 -100.346 2866
-604.866 -100.521 2871
-602.167 -101.221 2891
-595.253 -101.221 2891
-596.684 -102.657 2932
-596.913 -103.917 2968
-589.815 -103.917 2968
-582.718 -103.917 2968
-633.221 -114.316 3265
-629.053 -114.981 3284
-621.2 -114.981 3284
-616.896 -115.647 3303
-610.288 -115.892 3310
-602.373 -115.892 3310
-594.457 -115.892 3310
-588.846 -116.347 3323
-583.347 -116.837 3337
-576.402 -117.047 3343
-568.408 -117.047 3343
-561.587 -117.292 3350
-554.733 -117.537 3357
-548.822 -117.992 3370
-540.764 -117.992 3370
-532.705 -117.992 3370
-523.556 -117.747 3363
-515.514 -117.747 3363
-506.567 -117.537 3357
-497.5 -117.292 3350
-490.512 -117.537 3357
-483.347 -117.747 3363
-475.305 -117.747 3363
-467.263 -117.747 3363
-459.221 -117.747 3363
-451.179 -117.747 3363
-443.137 -117.747 3363
-435.095 -117.747 3363
-428.831 -118.238 3377
-420.755 -118.238 3377
-412.68 -118.238 3377
-402.927 -117.747 3363
-393.359 -117.292 3350
-384.543 -117.047 3343
-376.549 -117.047 3343
-367.893 -116.837 3337
-359.913 -116.837 3337
-351.195 -116.592 3330
-343.232 -116.592 3330
-335.269 -116.592 3330
-325.34 -115.892 3310
-317.425 -115.892 3310
-309.51 -115.892 3310
-300.41 -115.437 3297
-292.526 -115.437 3297
-284.642 -115.437 3297
-276.758 -115.437 3297
-268.874 -115.437 3297
-259.96 -114.981 3284
-252.568 -115.191 3290
-244.701 -115.191 3290
-236.833 -115.191 3290
-228.131 -114.771 3278
-145.024 -75.5572 2158
-139.864 -75.5572 2158
-134.704 -75.5572 2158
-129.243 -75.3821 2153
-124.094 -75.3821 2153
-118.946 -75.3821 2153
-113.322 -75.067 2144
-108.094 -74.997 2142
-102.972 -74.997 2142
-97.8496 -74.997 2142
-92.5976 -74.892 2139
-87.3599 -74.7869 2136
-82.1365 -74.6819 2133
-77.0359 -74.6819 2133
-71.8678 -74.6119 2131
-66.7719 -74.6119 2131
-61.4156 -74.2967 2122
-56.3412 -74.2967 2122
-51.0253 -73.9466 2112
-45.8442 -73.7365 2106
-40.6144 -73.3864 2096
-35.4154 -73.0013 2085
-30.4295 -73.0013 2085
-25.3582 -72.7562 2078
-20.3106 -72.4761 2070
-15.227 -71.8459 2052
-10.3201 -71.8459 2052
-5.36034 -71.1456 2032
-0.497023 -70.5504 2015
4.31073 -70.3753 2010
9.11725 -70.3753 2010
13.9099 -70.3053 2008
18.7117 -70.3053 2008
23.5134 -70.3053 2008
28.3715 -70.4454 2012
33.1828 -70.4454 2012
38.0508 -70.5504 2015
42.9118 -70.6204 2017
47.8534 -70.7955 2022
52.8189 -70.9706 2027
57.6661 -70.9706 2027
62.7291 -71.2156 2034
68.025 -71.6708 2047
73.2763 -72.0209 2057
78.1952 -72.0209 2057
83.5182 -72.3711 2067
89.1457 -72.9313 2083
94.5787 -73.2814 2093
99.5837 -73.2814 2093
105.138 -73.6665 2104
110.274 -73.7365 2106
115.639 -73.9466 2112
120.689 -73.9466 2112
125.859 -74.0166 2114
131.1 -74.1217 2117
136.484 -74.2967 2122
141.558 -74.2967 2122
147.047 -74.5068 2128
152.35 -74.6119 2131
158.037 -74.892 2139
163.152 -74.892 2139
168.503 -74.997 2142
173.788 -75.067 2144
178.915 -75.067 2144
184.041 -75.067 2144
189.168 -75.067 2144
194.295 -75.067 2144
199.701 -75.1721 2147
204.836 -75.1721 2147
209.97 -75.1721 2147
215.104 -75.1721 2147
220.238 -75.1721 2147
225.372 -75.1721 2147
230.506 -75.1721 2147
235.64 -75.1721 2147
240.774 -75.1721 2147
380.618 -107.384 3067
387.952 -107.384 3067
395.286 -107.384 3067
401.833 -107.174 3061
407.682 -106.788 3050
414.976 -106.788 3050
417.7 -105.633 3017
421.816 -104.863 2995
424.395 -103.742 2963
431.48 -103.742 2963
436.198 -103.182 2947
441.741 -102.832 2937
447.236 -102.482 2927
454.235 -102.482 2927
461.235 -102.482 2927
467.434 -102.307 2922
472.636 -101.922 2911
477.949 -101.572 2901
484.886 -101.572 2901
490.976 -101.396 2896
497.041 -101.221 2891
503.955 -101.221 2891
510.868 -101.221 2891
516.886 -101.046 2886
523.787 -101.046 2886
529.769 -100.871 2881
536.658 -100.871 2881
543.548 -100.871 2881
550.437 -100.871 2881
556.359 -100.696 2876
563.236 -100.696 2876
570.114 -100.696 2876
576.991 -100.696 2876
582.854 -100.521 2871
589.719 -100.521 2871
596.584 -100.521 2871
603.45 -100.521 2871
610.315 -100.521 2871
618.255 -100.696 2876
625.133 -100.696 2876
632.01 -100.696 2876
638.888 -100.696 2876
645.765 -100.696 2876
652.642 -100.696 2876
658.373 -100.521 2871
665.239 -100.521 2871
672.104 -100.521 2871
678.97 -100.521 2871
685.835 -100.521 2871
692.7 -100.521 2871
699.566 -100.521 2871
706.431 -100.521 2871
713.297 -100.521 2871
718.908 -100.346 2866
725.761 -100.346 2866
732.615 -100.346 2866
739.468 -100.346 2866
745.28 -100.206 2862
752.124 -100.206 2862
758.968 -100.206 2862
765.812 -100.206 2862
772.656 -100.206 2862
779.5 -100.206 2862
786.344 -100.206 2862
793.188 -100.206 2862
798.634 -100.031 2857
805.466 -100.031 2857
810.876 -99.8559 2852
817.696 -99.8559 2852
824.516 -99.8559 2852
831.336 -99.8559 2852
838.156 -99.8559 2852
846.457 -100.031 2857
853.289 -100.031 2857
860.121 -100.031 2857
866.953 -100.031 2857
873.785 -100.031 2857
880.617 -100.031 2857
887.449 -100.031 2857
895.846 -100.206 2862
903.952 -100.346 2866
910.805 -100.346 2866
917.659 -100.346 2866
924.512 -100.346 2866
931.366 -100.346 2866
939.856 -100.521 2871
946.721 -100.521 2871
955.247 -100.696 2876
967.143 -101.221 2891
975.741 -101.396 2896
982.666 -101.396 2896
1003.6 -102.832 2937
1014.07 -103.182 2947
1021.11 -103.182 2947
1028.16 -103.182 2947
1271.43 -125.87 3595
1280.03 -125.87 3595
1288.62 -125.87 3595
1300.11 -126.15 3603
1308.72 -126.15 3603
1317.34 -126.15 3603
1343.25 -127.796 3650
1351.98 -127.796 3650
1367.05 -128.391 3667
1375.81 -128.391 3667
1384.58 -128.391 3667
1378.15 -126.991 3627
1386.83 -126.991 3627
1392.42 -126.711 3619
1391.78 -125.87 3595
1394.54 -125.345 3580
1403.1 -125.345 3580
1408.51 -125.065 3572
1405.15 -124.015 3542
1410.42 -123.735 3534
1416.06 -123.489 3527
1424.5 -123.489 3527
1426.84 -122.964 3512
1429.11 -122.439 3497
1431.71 -121.949 3483
1440.04 -121.949 3483
1436.31 -120.934 3454
1438.72 -120.443 3440
1435.16 -119.463 3412
1443.32 -119.463 3412
1439.57 -118.483 3384
1438.68 -117.747 3363
1438.12 -117.047 3343
1446.11 -117.047 3343
1454.11 -117.047 3343
1459.48 -116.837 3337
1467.46 -116.837 3337
1466.59 -116.137 3317
1474.53 -116.137 3317
1476.2 -115.647 3303
1481.4 -115.437 3297
1480.7 -114.771 3278
1488.54 -114.771 3278
1496.38 -114.771 3278
1504.22 -114.771 3278
1526.82 -115.892 3310
1559.31 -117.747 3363
1567.35 -117.747 3363
1591.79 -118.973 3398
1619.69 -120.443 3440
1651.58 -122.194 3490
1659.92 -122.194 3490
1668.27 -122.194 3490
1676.61 -122.194 3490
1688.34 -122.439 3497
1700.58 -122.719 3505
1708.96 -122.719 3505
1717.35 -122.719 3505
1733.11 -123.244 3520
1744.99 -123.489 3527
1753.43 -123.489 3527
1761.86 -123.489 3527
1770.3 -123.489 3527
1805.46 -125.345 3580
1814.02 -125.345 3580
1834.29 -126.15 3603
1855.18 -126.991 3627
1863.86 -126.991 3627
1872.53 -126.991 3627
1844.9 -124.54 3557
1577.48 -100.031 2857
1584.31 -100.031 2857
1591.14 -100.031 2857
1595.18 -99.8559 2852
1596.38 -99.5058 2842
1600.35 -99.3308 2837
1599.21 -98.8406 2823
1605.96 -98.8406 2823
1599 -98.0003 2799
1600.53 -97.6852 2790
1601.44 -97.335 2780
1608.09 -97.335 2780
1612.41 -97.195 2776
1616.13 -97.0199 2771
1622.76 -97.0199 2771
1629.39 -97.0199 2771
1627.75 -96.5297 2757
1631.97 -96.3897 2753
1635.58 -96.2146 2748
1639.76 -96.0746 2744
1646.32 -96.0746 2744
1649.87 -95.8995 2739
1656.42 -95.8995 2739
1660.54 -95.7595 2735
1667.08 -95.7595 2735
1673.62 -95.7595 2735
1677.09 -95.5844 2730
1681.15 -95.4444 2726
1687.67 -95.4444 2726
1694.19 -95.4444 2726
1700.71 -95.4444 2726
1707.22 -95.4444 2726
1713.74 -95.4444 2726
1720.26 -95.4444 2726
1721.08 -95.1292 2717
1727.58 -95.1292 2717
1731.52 -94.9892 2713
1738.01 -94.9892 2713
1741.28 -94.8141 2708
1741.95 -94.499 2699
1745.81 -94.359 2695
1752.26 -94.359 2695
1750.22 -93.9038 2682
1754.01 -93.7638 2678
1754.5 -93.4486 2669
1760.88 -93.4486 2669
1764.61 -93.3086 2665
1765.01 -92.9935 2656
1771.36 -92.9935 2656
1777.71 -92.9935 2656
1784.06 -92.9935 2656
1790.41 -92.9935 2656
1791.35 -92.7134 2648
1794.97 -92.5733 2644
1801.29 -92.5733 2644
1807.61 -92.5733 2644
1811.19 -92.4333 2640
1817.5 -92.4333 2640
1823.82 -92.4333 2640
1826.66 -92.2582 2635
1830.18 -92.1182 2631
1836.47 -92.1182 2631
1842.77 -92.1182 2631
1846.25 -91.9781 2627
1852.53 -91.9781 2627
1858.81 -91.9781 2627
1865.09 -91.9781 2627
1871.37 -91.9781 2627
1877.66 -91.9781 2627
1878.2 -91.698 2619
1878.71 -91.4179 2611
1884.95 -91.4179 2611
1891.19 -91.4179 2611
1894.53 -91.2779 2607
1897.85 -91.1378 2603
1904.07 -91.1378 2603
1910.3 -91.1378 2603
1913.58 -90.9978 2599
1916.1 -90.8227 2594
1922.3 -90.8227 2594
1928.51 -90.8227 2594
1931.73 -90.6826 2590
1937.92 -90.6826 2590
1941.11 -90.5426 2586
1947.29 -90.5426 2586
1953.48 -90.5426 2586
1959.66 -90.5426 2586
1962.8 -90.4025 2582
1968.98 -90.4025 2582
1972.09 -90.2625 2578
-2047.76 -89.2078 2735
-2050.92 -89.6318 2748
-2048.07 -89.7949 2753
-2041.49 -89.7949 2753
-2034.91 -89.7949 2753
-2031.27 -89.9253 2757
-2024.68 -89.9253 2757
-2018.08 -89.9253 2757
-2015.14 -90.0884 2762
-2012.17 -90.2515 2767
-2008.45 -90.382 2771
-2001.83 -90.382 2771
-2001.68 -90.6755 2780
-1995.03 -90.6755 2780
-1988.38 -90.6755 2780
-1981.74 -90.6755 2780
-1975.09 -90.6755 2780
-1955.7 -90.0884 2762
-1949.09 -90.0884 2762
-2235.87 -104.049 3190
-2262.46 -105.647 3239
-2254.72 -105.647 3239
-2278.19 -107.115 3284
-2302.14 -108.615 3330
-2355.49 -111.518 3419
-2347.32 -111.518 3419
-2348.72 -111.974 3433
-2340.51 -111.974 3433
-2332.3 -111.974 3433
-2314.61 -111.518 3419
-2292.27 -110.833 3398
-2293.56 -111.29 3412
-2285.4 -111.29 3412
-2277.24 -111.29 3412
-2269.08 -111.29 3412
-2219.84 -109.267 3350
-2216.45 -109.496 3357
-2208.42 -109.496 3357
-2204.32 -109.691 3363
-2205.43 -110.148 3377
-2224.68 -111.518 3419
-2216.5 -111.518 3419
-2212.85 -111.746 3426
-2204.66 -111.746 3426
-2200.95 -111.974 3433
-2192.74 -111.974 3433
-2188.99 -112.203 3440
-2194.07 -112.888 3461
-2199.69 -113.605 3483
-2191.36 -113.605 3483
-2191.81 -114.062 3497
-2183.45 -114.062 3497
-2175.08 -114.062 3497
-2166.72 -114.062 3497
-2149.72 -113.605 3483
-2127.86 -112.888 3461
-2141.63 -114.062 3497
-2133.27 -114.062 3497
-2143.14 -115.04 3527
-2148.02 -115.758 3549
-2144.36 -116.019 3557
-2135.85 -116.019 3557
-2127.34 -116.019 3557
-2118.84 -116.019 3557
-2110.33 -116.019 3557
-2101.83 -116.019 3557
-2111.56 -117.03 3588
-2102.98 -117.03 3588
-2094.4 -117.03 3588
-2085.82 -117.03 3588
-2072.61 -116.769 3580
-2050.79 -116.019 3557
-2042.29 -116.019 3557
-2029.2 -115.758 3549
-2008.19 -115.04 3527
-2008.26 -115.53 3542
-2012.78 -116.28 3565
-2004.25 -116.28 3565
-1995.73 -116.28 3565
-1982.74 -116.019 3557
-1974.24 -116.019 3557
-1957.44 -115.53 3542
-1940.72 -115.04 3527
-1940.5 -115.53 3542
-1940.21 -116.019 3557
-1931.71 -116.019 3557
-1923.2 -116.019 3557
-1914.7 -116.019 3557
-1906.19 -116.019 3557
-1889.68 -115.53 3542
-1873.25 -115.04 3527
-1864.81 -115.04 3527
-1856.38 -115.04 3527
-1847.94 -115.04 3527
-1843.16 -115.269 3534
-1842.5 -115.758 3549
-1842.28 -116.28 3565
-1833.75 -116.28 3565
-1825.23 -116.28 3565
-1816.7 -116.28 3565
-1808.18 -116.28 3565
-1799.65 -116.28 3565
-1791.13 -116.28 3565
-1778.6 -116.019 3557
-1770.1 -116.019 3557
-1761.59 -116.019 3557
-1753.09 -116.019 3557
-1744.58 -116.019 3557
-1736.07 -116.019 3557
-1727.57 -116.019 3557
-1719.06 -116.019 3557
-1717.77 -116.508 3572
-1709.23 -116.508 3572
-1708.3 -117.03 3588
-1699.72 -117.03 3588
-1691.14 -117.03 3588
-1682.56 -117.03 3588
-1673.98 -117.03 3588
-1665.4 -117.03 3588
-1656.82 -117.03 3588
-1640.89 -116.508 3572
-1632.35 -116.508 3572
-1623.81 -116.508 3572
-1622.5 -117.03 3588
-1620.67 -117.519 3603
-1612.06 -117.519 3603
-1603.44 -117.519 3603
-1594.82 -117.519 3603
-1586.21 -117.519 3603
-1577.59 -117.519 3603
-1568.98 -117.519 3603
-1560.36 -117.519 3603
-1545.28 -117.03 3588
-1536.7 -117.03 3588
-1521.31 -116.508 3572
-1503.03 -115.758 3549
-1488.22 -115.269 3534
-1479.77 -115.269 3534
-1453 -113.834 3490
-1435.55 -113.116 3468
-1322.72 -104.831 3214
-1315.04 -104.831 3214
-1307.35 -104.831 3214
-1292.39 -104.244 3196
-1267.86 -102.874 3154
-1245.93 -101.7 3118
-1238.48 -101.7 3118
-1208.52 -99.8409 3061
-1192.57 -99.1234 3039
-1161.9 -97.1663 2979
-1154.77 -97.1663 2979
-1141.49 -96.6445 2963
-1130.57 -96.3183 2953
-1117.42 -95.7964 2937
-1110.4 -95.7964 2937
-1103.38 -95.7964 2937
-1092.62 -95.4702 2927
-1085.62 -95.4702 2927
-1080.46 -95.6333 2932
-1073.45 -95.6333 2932
-1066.44 -95.6333 2932
-1059.43 -95.6333 2932
-1052.42 -95.6333 2932
-1045.41 -95.6333 2932
-1034.85 -95.3072 2922
-1027.87 -95.3072 2922
-1019.13 -95.1441 2917
-1012.16 -95.1441 2917
-1001.39 -94.7853 2906
-994.442 -94.7853 2906
-987.493 -94.7853 2906
-980.544 -94.7853 2906
-971.919 -94.6222 2901
-964.982 -94.6222 2901
-956.394 -94.4591 2896
-949.469 -94.4591 2896
-942.543 -94.4591 2896
-935.618 -94.4591 2896
-928.693 -94.4591 2896
-921.768 -94.4591 2896
-914.843 -94.4591 2896
-907.917 -94.4591 2896
-900.992 -94.4591 2896
-894.067 -94.4591 2896
-887.142 -94.4591 2896
-880.216 -94.4591 2896
-873.291 -94.4591 2896
-866.366 -94.4591 2896
-857.957 -94.296 2891
-851.044 -94.296 2891
-844.13 -94.296 2891
-837.217 -94.296 2891
-830.304 -94.296 2891
-823.391 -94.296 2891
-816.477 -94.296 2891
-809.564 -94.296 2891
-804.039 -94.4591 2896
-797.114 -94.4591 2896
-790.189 -94.4591 2896
-781.911 -94.296 2891
-774.998 -94.296 2891
-768.085 -94.296 2891
-761.171 -94.296 2891
-754.258 -94.296 2891
-747.345 -94.296 2891
-739.151 -94.1329 2886
-732.25 -94.1329 2886
-725.348 -94.1329 2886
-718.447 -94.1329 2886
-711.546 -94.1329 2886
-703.424 -93.9698 2881
-695.326 -93.8068 2876
-688.448 -93.8068 2876
-680.386 -93.6437 2871
-672.347 -93.4806 2866
-663.404 -93.187 2857
-656.572 -93.187 2857
-649.74 -93.187 2857
-641.783 -93.024 2852
-634.963 -93.024 2852
-628.143 -93.024 2852
-623.502 -93.3501 2862
-616.658 -93.3501 2862
-609.814 -93.3501 2862
-603.813 -93.4806 2866
-600.084 -93.9698 2881
-593.194 -93.9698 2881
-591.393 -94.7853 2906
-590.678 -95.7964 2937
-583.655 -95.7964 2937
-576.632 -95.7964 2937
-629.536 -105.875 3246
-630.203 -107.31 3290
-622.335 -107.31 3290
-615.775 -107.539 3297
-608.997 -107.734 3303
-601.099 -107.734 3303
-593.2 -107.734 3303
-587.783 -108.191 3317
-583.347 -108.843 3337
-576.402 -109.039 3343
-568.408 -109.039 3343
-561.587 -109.267 3350
-553.576 -109.267 3350
-546.705 -109.496 3357
-538.678 -109.496 3357
-530.65 -109.496 3357
-521.533 -109.267 3350
-513.522 -109.267 3350
-505.511 -109.267 3350
-494.53 -108.615 3330
-488.466 -109.039 3343
-481.478 -109.267 3350
-473.467 -109.267 3350
-465.457 -109.267 3350
-457.446 -109.267 3350
-449.435 -109.267 3350
-441.424 -109.267 3350
-435.095 -109.691 3363
-427.053 -109.691 3363
-419.011 -109.691 3363
-410.969 -109.691 3363
-401.37 -109.267 3350
-392.537 -109.039 3343
-383.852 -108.843 3337
-375.873 -108.843 3337
-367.893 -108.843 3337
-359.158 -108.615 3330
-349.824 -108.191 3317
-341.892 -108.191 3317
-333.96 -108.191 3317
-325.34 -107.963 3310
-317.425 -107.963 3310
-309.51 -107.963 3310
-299.772 -107.31 3290
-291.905 -107.31 3290
-284.037 -107.31 3290
-276.17 -107.31 3290
-267.813 -107.115 3284
-259.485 -106.919 3278
-251.647 -106.919 3278
-243.808 -106.919 3278
-235.969 -106.919 3278
-228.131 -106.919 3278
-145.024 -70.3877 2158
-139.864 -70.3877 2158
-134.704 -70.3877 2158
-129.363 -70.2898 2155
-124.094 -70.2246 2153
-118.946 -70.2246 2153
-113.322 -69.9311 2144
-108.094 -69.8658 2142
-102.828 -69.768 2139
-97.7126 -69.768 2139
-92.5976 -69.768 2139
-87.3599 -69.6701 2136
-82.1365 -69.5723 2133
-77.0359 -69.5723 2133
-71.9352 -69.5723 2133
-66.7719 -69.507 2131
-61.4156 -69.2135 2122
-56.3412 -69.2135 2122
-51.0253 -68.8873 2112
-45.8442 -68.6916 2106
-40.6144 -68.3654 2096
-35.4154 -68.0066 2085
-30.4295 -68.0066 2085
-25.3582 -67.7783 2078
-20.2615 -67.3543 2065
-15.1899 -66.7672 2047
-10.2949 -66.7672 2047
-5.34188 -66.0496 2025
-0.49579 -65.5604 2010
4.30644 -65.4951 2008
9.10818 -65.4951 2008
13.8891 -65.3973 2005
18.6837 -65.3973 2005
23.5134 -65.4951 2008
28.3433 -65.5604 2010
33.1828 -65.6256 2012
37.9941 -65.6256 2012
42.8693 -65.7234 2015
47.7351 -65.7887 2017
52.7668 -66.0496 2025
57.6092 -66.0496 2025
62.6674 -66.2779 2032
67.9254 -66.6693 2044
73.2763 -67.0934 2057
78.1952 -67.0934 2057
83.4373 -67.3543 2065
89.1457 -67.9414 2083
94.5787 -68.2676 2093
99.5837 -68.2676 2093
105.138 -68.6264 2104
110.274 -68.6916 2106
115.748 -68.9525 2114
120.804 -68.9525 2114
125.859 -68.9525 2114
131.286 -69.1482 2120
136.677 -69.3113 2125
141.758 -69.3113 2125
147.047 -69.4092 2128
152.493 -69.5723 2133
158.037 -69.768 2139
163.152 -69.768 2139
168.503 -69.8658 2142
173.788 -69.9311 2144
178.915 -69.9311 2144
184.041 -69.9311 2144
189.168 -69.9311 2144
194.295 -69.9311 2144
199.701 -70.0289 2147
204.836 -70.0289 2147
209.97 -70.0289 2147
215.104 -70.0289 2147
220.546 -70.1268 2150
225.687 -70.1268 2150
230.828 -70.1268 2150
235.97 -70.1268 2150
241.111 -70.1268 2150
381.983 -100.395 3078
389.344 -100.395 3078
396.704 -100.395 3078
404.064 -100.395 3078
409.955 -100.037 3067
417.289 -100.037 3067
421.439 -99.2864 3044
424.07 -98.2101 3011
427.403 -97.3294 2984
434.539 -97.3294 2984
437.826 -96.4814 2958
442.493 -95.9595 2942
449.528 -95.9595 2942
456.563 -95.9595 2942
461.235 -95.4702 2927
467.434 -95.3072 2922
473.61 -95.1441 2917
478.773 -94.7853 2906
485.722 -94.7853 2906
491.824 -94.6222 2901
497.901 -94.4591 2896
503.955 -94.296 2891
510.868 -94.296 2891
517.781 -94.296 2891
523.787 -94.1329 2886
529.769 -93.9698 2881
536.658 -93.9698 2881
543.548 -93.9698 2881
550.437 -93.9698 2881
556.359 -93.8068 2876
563.236 -93.8068 2876
570.114 -93.8068 2876
576.991 -93.8068 2876
582.854 -93.6437 2871
589.719 -93.6437 2871
596.584 -93.6437 2871
603.45 -93.6437 2871
610.315 -93.6437 2871
618.255 -93.8068 2876
625.133 -93.8068 2876
632.01 -93.8068 2876
638.888 -93.8068 2876
645.765 -93.8068 2876
652.642 -93.8068 2876
658.373 -93.6437 2871
665.239 -93.6437 2871
672.104 -93.6437 2871
678.97 -93.6437 2871
685.835 -93.6437 2871
692.7 -93.6437 2871
699.566 -93.6437 2871
706.431 -93.6437 2871
713.297 -93.6437 2871
718.908 -93.4806 2866
725.761 -93.4806 2866
732.615 -93.4806 2866
739.468 -93.4806 2866
746.322 -93.4806 2866
752.124 -93.3501 2862
758.968 -93.3501 2862
765.812 -93.3501 2862
772.656 -93.3501 2862
779.5 -93.3501 2862
786.344 -93.3501 2862
793.188 -93.3501 2862
798.634 -93.187 2857
805.466 -93.187 2857
812.298 -93.187 2857
819.13 -93.187 2857
825.962 -93.187 2857
832.794 -93.187 2857
839.625 -93.187 2857
846.457 -93.187 2857
853.289 -93.187 2857
860.121 -93.187 2857
866.953 -93.187 2857
873.785 -93.187 2857
880.617 -93.187 2857
887.449 -93.187 2857
897.098 -93.4806 2866
903.952 -93.4806 2866
910.805 -93.4806 2866
917.659 -93.4806 2866
926.125 -93.6437 2871
932.99 -93.6437 2871
943.13 -93.9698 2881
950.019 -93.9698 2881
960.23 -94.296 2891
968.816 -94.4591 2896
979.11 -94.7853 2906
986.059 -94.7853 2906
1007.02 -96.1226 2947
1062.93 -100.754 3089
1072.39 -100.95 3095
1079.79 -100.95 3095
1087.2 -100.95 3095
1271.43 -117.258 3595
1280.03 -117.258 3595
1288.62 -117.258 3595
1275.21 -115.269 3534
1300.37 -116.769 3580
1308.93 -116.769 3580
1320.43 -117.03 3588
1329.01 -117.03 3588
1349.15 -118.041 3619
1357.81 -118.041 3619
1366.46 -118.041 3619
1375.11 -118.041 3619
1383.77 -118.041 3619
1377.42 -116.769 3580
1385.98 -116.769 3580
1385.58 -116.019 3557
1394.08 -116.019 3557
1396.68 -115.53 3542
1399.19 -115.04 3527
1398.85 -114.323 3505
1404.02 -114.062 3497
1412.38 -114.062 3497
1417.9 -113.834 3490
1420.52 -113.377 3476
1419.79 -112.659 3454
1428.05 -112.659 3454
1430.49 -112.203 3440
1427.01 -111.29 3412
1426.33 -110.605 3391
1434.44 -110.605 3391
1428.09 -109.496 3357
1430.12 -109.039 3343
1432.53 -108.615 3330
1440.49 -108.615 3330
1448.45 -108.615 3330
1456.41 -108.615 3330
1455.58 -107.963 3310
1460.4 -107.734 3303
1468.3 -107.734 3303
1470.39 -107.31 3290
1475.56 -107.115 3284
1474.83 -106.495 3265
1482.64 -106.495 3265
1490.45 -106.495 3265
1498.25 -106.495 3265
1523.59 -107.734 3303
1550.04 -109.039 3343
1558.03 -109.039 3343
1578.67 -109.92 3370
1609.8 -111.518 3419
1627.92 -112.203 3440
1636.14 -112.203 3440
1668.27 -113.834 3490
1676.61 -113.834 3490
1684.96 -113.834 3490
1693.31 -113.834 3490
1701.65 -113.834 3490
1713.43 -114.062 3497
1721.79 -114.062 3497
1730.15 -114.062 3497
1738.51 -114.062 3497
1739.88 -113.605 3483
1759.25 -114.323 3505
1786.3 -115.53 3542
1794.77 -115.53 3542
1822.58 -116.769 3580
1831.14 -116.769 3580
1839.7 -116.769 3580
1848.26 -116.769 3580
1844.9 -116.019 3557
1781.5 -111.518 3419
1789.67 -111.518 3419
1775.76 -110.148 3377
1765.88 -109.039 3343
1773.87 -109.039 3343
1774.94 -108.615 3330
1782.9 -108.615 3330
1790.86 -108.615 3330
1766.95 -106.691 3271
1754.16 -105.451 3233
1761.89 -105.451 3233
1723.09 -102.679 3148
1599.01 -94.4591 2896
1605.94 -94.4591 2896
1612.86 -94.4591 2896
1605.8 -93.6437 2871
1604.8 -93.187 2857
1608.82 -93.024 2852
1607.14 -92.5347 2837
1613.92 -92.5347 2837
1609.85 -91.915 2818
1608.56 -91.4583 2804
1607.2 -91.0017 2790
1613.87 -91.0017 2790
1614.74 -90.6755 2780
1619.05 -90.5451 2776
1622.76 -90.382 2771
1629.39 -90.382 2771
1630.7 -90.0884 2762
1634.34 -89.9253 2757
1638.55 -89.7949 2753
1642.15 -89.6318 2748
1648.72 -89.6318 2748
1652.88 -89.5013 2744
1659.44 -89.5013 2744
1662.97 -89.3382 2739
1669.52 -89.3382 2739
1676.07 -89.3382 2739
1680.16 -89.2078 2735
1681.15 -88.9142 2726
1687.67 -88.9142 2726
1694.19 -88.9142 2726
1700.71 -88.9142 2726
1707.22 -88.9142 2726
1713.74 -88.9142 2726
1720.26 -88.9142 2726
1726.78 -88.9142 2726
1727.58 -88.6207 2717
1734.07 -88.6207 2717
1740.57 -88.6207 2717
1744.5 -88.4902 2713
1747.76 -88.3271 2708
1748.4 -88.0335 2699
1754.86 -88.0335 2699
1758.7 -87.9031 2695
1754.01 -87.3486 2678
1760.41 -87.3486 2678
1766.82 -87.3486 2678
1767.26 -87.055 2669
1765.01 -86.631 2656
1771.36 -86.631 2656
1777.71 -86.631 2656
1784.06 -86.631 2656
1790.41 -86.631 2656
1796.76 -86.631 2656
1797.68 -86.3701 2648
1804.02 -86.3701 2648
1810.35 -86.3701 2648
1813.94 -86.2396 2644
1817.5 -86.1091 2640
1823.82 -86.1091 2640
1830.13 -86.1091 2640
1832.97 -85.946 2635
1839.27 -85.946 2635
1845.57 -85.946 2635
1849.06 -85.8156 2631
1855.35 -85.8156 2631
1864.47 -85.946 2635
1870.77 -85.946 2635
1877.07 -85.946 2635
1877.66 -85.6851 2627
1883.94 -85.6851 2627
1884.46 -85.4242 2619
1890.73 -85.4242 2619
1894.09 -85.2937 2615
1897.44 -85.1632 2611
1903.68 -85.1632 2611
1909.93 -85.1632 2611
1913.23 -85.0328 2607
1916.52 -84.9023 2603
1922.75 -84.9023 2603
1928.97 -84.9023 2603
1935.2 -84.9023 2603
1941.42 -84.9023 2603
1944.65 -84.7718 2599
1950.87 -84.7718 2599
1957.08 -84.7718 2599
1963.3 -84.7718 2599
1962.69 -84.4783 2590
1965.85 -84.3478 2586
1972.03 -84.3478 2586
1972.09 -84.0869 2578
-2047.76 -82.656 2735
-2050.92 -83.0489 2748
-2048.07 -83.2 2753
-2041.49 -83.2 2753
-2034.91 -83.2 2753
-2028.32 -83.2 2753
-2021.74 -83.2 2753
-2015.16 -83.2 2753
-2008.57 -83.2 2753
-2004.9 -83.3209 2757
-2005.55 -83.6231 2767
-1998.94 -83.6231 2767
-2001.68 -84.016 2780
-1995.03 -84.016 2780
-1988.38 -84.016 2780
-1981.74 -84.016 2780
-1968.69 -83.744 2771
-1955.7 -83.472 2762
-1949.09 -83.472 2762
-2235.87 -96.4069 3190
-2232.43 -96.5882 3196
-2224.79 -96.5882 3196
-2278.19 -99.2477 3284
-2297.3 -100.426 3323
-2355.49 -103.328 3419
-2347.32 -103.328 3419
-2348.72 -103.751 3433
-2340.51 -103.751 3433
-2332.3 -103.751 3433
-2314.61 -103.328 3419
-2292.27 -102.693 3398
-2288.85 -102.905 3405
-2280.71 -102.905 3405
-2272.57 -102.905 3405
-2255.11 -102.481 3391
-2219.84 -101.242 3350
-2216.45 -101.454 3357
-2208.42 -101.454 3357
-2204.32 -101.635 3363
-2205.43 -102.058 3377
-2197.35 -102.058 3377
-2189.27 -102.058 3377
-2208.33 -103.328 3419
-2200.15 -103.328 3419
-2191.98 -103.328 3419
-2179.33 -103.116 3412
-2171.17 -103.116 3412
-2180.76 -103.962 3440
-2185.8 -104.597 3461
-2177.52 -104.597 3461
-2187.42 -105.473 3490
-2179.07 -105.473 3490
-2170.73 -105.473 3490
-2162.38 -105.473 3490
-2149.72 -105.262 3483
-2123.56 -104.385 3454
-2141.63 -105.685 3497
-2133.27 -105.685 3497
-2147.39 -106.803 3534
-2152.86 -107.498 3557
-2149.18 -107.74 3565
-2140.65 -107.74 3565
-2132.13 -107.74 3565
-2123.6 -107.74 3565
-2128.72 -108.435 3588
-2120.14 -108.435 3588
-2115.68 -108.647 3595
-2107.09 -108.647 3595
-2098.49 -108.647 3595
-2085.82 -108.435 3588
-2077.24 -108.435 3588
-2068.66 -108.435 3588
-2060.08 -108.435 3588
-2029.2 -107.256 3549
-2016.73 -107.045 3542
-2021.3 -107.74 3565
-2012.78 -107.74 3565
-2004.25 -107.74 3565
-1995.73 -107.74 3565
-1987.2 -107.74 3565
-1978.68 -107.74 3565
-1961.31 -107.256 3549
-1944.57 -106.803 3534
-1936.12 -106.803 3534
-1932.03 -107.045 3542
-1923.56 -107.045 3542
-1915.09 -107.045 3542
-1906.62 -107.045 3542
-1898.15 -107.045 3542
-1889.68 -107.045 3542
-1876.96 -106.803 3534
-1861.11 -106.38 3520
-1852.69 -106.38 3520
-1844.28 -106.38 3520
-1839.51 -106.592 3527
-1842.5 -107.256 3549
-1842.28 -107.74 3565
-1833.75 -107.74 3565
-1825.23 -107.74 3565
-1816.7 -107.74 3565
-1808.18 -107.74 3565
-1795.61 -107.498 3557
-1783.09 -107.256 3549
-1771.1 -107.045 3542
-1762.63 -107.045 3542
-1754.16 -107.045 3542
-1745.69 -107.045 3542
-1737.22 -107.045 3542
-1724.85 -106.803 3534
-1716.4 -106.803 3534
-1707.95 -106.803 3534
-1699.5 -106.803 3534
-1691.04 -106.803 3534
-1682.59 -106.803 3534
-1674.14 -106.803 3534
-1676.53 -107.498 3557
-1668.03 -107.498 3557
-1659.52 -107.498 3557
-1651.02 -107.498 3557
-1642.51 -107.498 3557
-1623.44 -106.803 3534
-1621.84 -107.256 3549
-1613.35 -107.256 3549
-1612.1 -107.74 3565
-1606.73 -107.952 3572
-1598.19 -107.952 3572
-1589.64 -107.952 3572
-1581.1 -107.952 3572
-1572.56 -107.952 3572
-1564.02 -107.952 3572
-1555.48 -107.952 3572
-1546.94 -107.952 3572
-1535.38 -107.74 3565
-1526.85 -107.74 3565
-1518.33 -107.74 3565
-1496.67 -106.803 3534
-1485.28 -106.592 3527
-1476.84 -106.592 3527
-1453 -105.473 3490
-1435.55 -104.808 3468
-1333.01 -97.8877 3239
-1325.27 -97.8877 3239
-1317.52 -97.8877 3239
-1292.39 -96.5882 3196
-1270.27 -95.5002 3160
-1248.33 -94.4122 3124
-1240.86 -94.4122 3124
-1221.94 -93.5358 3095
-1198.84 -92.327 3055
-1178.67 -91.3296 3022
-1171.44 -91.3296 3022
-1147.65 -90.0301 2979
-1134.4 -89.5466 2963
-1123.51 -89.2443 2953
-1112.29 -88.9119 2942
-1105.25 -88.9119 2942
-1096.35 -88.7608 2937
-1087.47 -88.6097 2932
-1082.31 -88.7608 2937
-1075.28 -88.7608 2937
-1068.26 -88.7608 2937
-1061.24 -88.7608 2937
-1054.21 -88.7608 2937
-1047.19 -88.7608 2937
-1038.4 -88.6097 2932
-1031.38 -88.6097 2932
-1022.63 -88.4586 2927
-1015.63 -88.4586 2927
-1005.18 -88.1564 2917
-998.206 -88.1564 2917
-991.231 -88.1564 2917
-984.255 -88.1564 2917
-975.27 -87.975 2911
-966.645 -87.8239 2906
-959.696 -87.8239 2906
-952.747 -87.8239 2906
-945.798 -87.8239 2906
-938.849 -87.8239 2906
-931.9 -87.8239 2906
-924.951 -87.8239 2906
-918.002 -87.8239 2906
-911.052 -87.8239 2906
-904.103 -87.8239 2906
-897.154 -87.8239 2906
-890.205 -87.8239 2906
-881.736 -87.6728 2901
-874.799 -87.6728 2901
-867.862 -87.6728 2901
-859.441 -87.5217 2896
-852.516 -87.5217 2896
-845.59 -87.5217 2896
-838.665 -87.5217 2896
-831.74 -87.5217 2896
-824.815 -87.5217 2896
-817.89 -87.5217 2896
-810.964 -87.5217 2896
-804.039 -87.5217 2896
-797.114 -87.5217 2896
-790.189 -87.5217 2896
-783.263 -87.5217 2896
-776.338 -87.5217 2896
-769.413 -87.5217 2896
-762.488 -87.5217 2896
-755.563 -87.5217 2896
-748.637 -87.5217 2896
-740.432 -87.3706 2891
-732.25 -87.2195 2886
-725.348 -87.2195 2886
-718.447 -87.2195 2886
-711.546 -87.2195 2886
-704.645 -87.2195 2886
-696.534 -87.0684 2881
-689.645 -87.0684 2881
-681.571 -86.9173 2876
-673.52 -86.7662 2871
-665.494 -86.6151 2866
-658.641 -86.6151 2866
-650.877 -86.4942 2862
-642.908 -86.3431 2857
-634.963 -86.192 2852
-628.143 -86.192 2852
-623.502 -86.4942 2862
-616.658 -86.4942 2862
-609.814 -86.4942 2862
-603.813 -86.6151 2866
-600.084 -87.0684 2881
-593.194 -87.0684 2881
-591.393 -87.8239 2906
-599.125 -90.0301 2979
-592.001 -90.0301 2979
-584.878 -90.0301 2979
-629.536 -98.0993 3246
-630.203 -99.429 3290
-622.335 -99.429 3290
-615.775 -99.6406 3297
-608.997 -99.8219 3303
-601.099 -99.8219 3303
-593.2 -99.8219 3303
-587.783 -100.245 3317
-583.347 -100.849 3337
-576.402 -101.031 3343
-568.408 -101.031 3343
-561.587 -101.242 3350
-553.576 -101.242 3350
-546.705 -101.454 3357
-538.678 -101.454 3357
-530.65 -101.454 3357
-521.533 -101.242 3350
-513.522 -101.242 3350
-505.511 -101.242 3350
-494.53 -100.638 3330
-488.466 -101.031 3343
-482.484 -101.454 3357
-474.457 -101.454 3357
-466.429 -101.454 3357
-457.446 -101.242 3350
-449.435 -101.242 3350
-441.424 -101.242 3350
-435.095 -101.635 3363
-427.053 -101.635 3363
-419.011 -101.635 3363
-410.969 -101.635 3363
-401.37 -101.242 3350
-392.537 -101.031 3343
-383.852 -100.849 3337
-375.873 -100.849 3337
-367.893 -100.849 3337
-359.158 -100.638 3330
-349.824 -100.245 3317
-341.892 -100.245 3317
-333.96 -100.245 3317
-325.34 -100.033 3310
-317.425 -100.033 3310
-309.51 -100.033 3310
-299.772 -99.429 3290
-291.905 -99.429 3290
-284.037 -99.429 3290
-276.17 -99.429 3290
-267.813 -99.2477 3284
-259.485 -99.0664 3278
-251.647 -99.0664 3278
-243.808 -99.0664 3278
-235.969 -99.0664 3278
-228.131 -99.0664 3278
-218.141 -98.0993 3246
-210.379 -98.0993 3246
-134.704 -65.2182 2158
-129.363 -65.1275 2155
-124.094 -65.0671 2153
-118.946 -65.0671 2153
-113.322 -64.7951 2144
-108.094 -64.7346 2142
-102.828 -64.644 2139
-97.7126 -64.644 2139
-92.5976 -64.644 2139
-87.3599 -64.5533 2136
-82.1365 -64.4626 2133
-77.0359 -64.4626 2133
-71.9352 -64.4626 2133
-66.7719 -64.4022 2131
-61.4156 -64.1302 2122
-56.3412 -64.1302 2122
-51.0253 -63.828 2112
-45.8442 -63.6467 2106
-40.6144 -63.3444 2096
-35.4154 -63.012 2085
-30.4295 -63.012 2085
-25.3582 -62.8005 2078
-20.2615 -62.4076 2065
-15.1899 -61.8636 2047
-10.2949 -61.8636 2047
-5.34188 -61.1987 2025
-0.49579 -60.7454 2010
4.30644 -60.6849 2008
9.10818 -60.6849 2008
13.8891 -60.5943 2005
18.6837 -60.5943 2005
23.5134 -60.6849 2008
28.3433 -60.7454 2010
33.1828 -60.8058 2012
37.9941 -60.8058 2012
42.8693 -60.8965 2015
47.7351 -60.9569 2017
52.7668 -61.1987 2025
57.6092 -61.1987 2025
62.6674 -61.4103 2032
67.9254 -61.7729 2044
73.2763 -62.1658 2057
78.1952 -62.1658 2057
83.4373 -62.4076 2065
89.1457 -62.9516 2083
94.7142 -63.3444 2096
99.7264 -63.3444 2096
105.138 -63.5862 2104
110.431 -63.7373 2109
115.748 -63.8884 2114
120.804 -63.8884 2114
126.038 -63.9791 2117
131.41 -64.1302 2122
136.677 -64.2209 2125
141.758 -64.2209 2125
147.047 -64.3115 2128
152.493 -64.4626 2133
158.037 -64.644 2139
163.152 -64.644 2139
168.503 -64.7346 2142
173.788 -64.7951 2144
178.915 -64.7951 2144
184.041 -64.7951 2144
189.168 -64.7951 2144
194.839 -64.9764 2150
199.98 -64.9764 2150
205.122 -64.9764 2150
210.263 -64.9764 2150
215.705 -65.0671 2153
220.853 -65.0671 2153
226.002 -65.0671 2153
231.687 -65.2182 2158
236.848 -65.2182 2158
242.008 -65.2182 2158
247.168 -65.2182 2158
386.203 -94.0496 3112
393.644 -94.0496 3112
401.086 -94.0496 3112
408.528 -94.0496 3112
413.697 -93.5358 3095
421.098 -93.5358 3095
423.792 -92.5083 3061
428.013 -91.8434 3039
430.554 -90.8461 3006
437.742 -90.8461 3006
441.674 -90.1812 2984
448.058 -90.0301 2979
451.973 -89.3955 2958
459.046 -89.3955 2958
465.332 -89.2443 2953
469.834 -88.7608 2937
475.233 -88.4586 2927
479.597 -87.975 2911
486.558 -87.975 2911
492.671 -87.8239 2906
498.761 -87.6728 2901
504.826 -87.5217 2896
511.751 -87.5217 2896
518.677 -87.5217 2896
524.694 -87.3706 2891
530.688 -87.2195 2886
537.59 -87.2195 2886
543.548 -87.0684 2881
550.437 -87.0684 2881
557.326 -87.0684 2881
564.216 -87.0684 2881
570.114 -86.9173 2876
576.991 -86.9173 2876
582.854 -86.7662 2871
589.719 -86.7662 2871
596.584 -86.7662 2871
603.45 -86.7662 2871
610.315 -86.7662 2871
618.255 -86.9173 2876
625.133 -86.9173 2876
632.01 -86.9173 2876
638.888 -86.9173 2876
645.765 -86.9173 2876
652.642 -86.9173 2876
658.373 -86.7662 2871
665.239 -86.7662 2871
672.104 -86.7662 2871
678.97 -86.7662 2871
685.835 -86.7662 2871
692.7 -86.7662 2871
699.566 -86.7662 2871
706.431 -86.7662 2871
713.297 -86.7662 2871
718.908 -86.6151 2866
725.761 -86.6151 2866
732.615 -86.6151 2866
739.468 -86.6151 2866
746.322 -86.6151 2866
752.124 -86.4942 2862
758.968 -86.4942 2862
765.812 -86.4942 2862
772.656 -86.4942 2862
779.5 -86.4942 2862
786.344 -86.4942 2862
793.188 -86.4942 2862
798.634 -86.3431 2857
805.466 -86.3431 2857
812.298 -86.3431 2857
819.13 -86.3431 2857
825.962 -86.3431 2857
832.794 -86.3431 2857
841.095 -86.4942 2862
847.939 -86.4942 2862
854.783 -86.4942 2862
861.627 -86.4942 2862
868.471 -86.4942 2862
875.314 -86.4942 2862
880.617 -86.3431 2857
889.002 -86.4942 2862
897.098 -86.6151 2866
905.529 -86.7662 2871
913.983 -86.9173 2876
920.861 -86.9173 2876
929.351 -87.0684 2881
936.24 -87.0684 2881
946.403 -87.3706 2891
953.316 -87.3706 2891
965.212 -87.8239 2906
972.161 -87.8239 2906
991.239 -88.9119 2942
998.275 -88.9119 2942
1014.19 -89.6977 2968
1062.93 -93.3545 3089
1080.36 -94.2309 3118
1087.82 -94.2309 3118
1095.28 -94.2309 3118
1271.43 -108.647 3595
1280.03 -108.647 3595
1288.62 -108.647 3595
1275.21 -106.803 3534
1300.37 -108.193 3580
1308.93 -108.193 3580
1320.43 -108.435 3588
1329.01 -108.435 3588
1349.15 -109.372 3619
1357.81 -109.372 3619
1366.46 -109.372 3619
1375.11 -109.372 3619
1383.77 -109.372 3619
1377.42 -108.193 3580
1385.98 -108.193 3580
1385.58 -107.498 3557
1394.08 -107.498 3557
1396.68 -107.045 3542
