1135.29 692.724 3468
1146.22 694.321 3476
1156.86 695.72 3483
1167.53 697.118 3490
1175.88 697.118 3490
1184.22 697.118 3490
1192.57 697.118 3490
1203.32 698.516 3497
1211.68 698.516 3497
1222.84 700.114 3505
1236.49 703.11 3520
1252.69 707.505 3542
1261.16 707.505 3542
1272.13 708.903 3549
1288.92 713.497 3572
1303.27 716.693 3588
1311.85 716.693 3588
1325.95 719.689 3603
1340.5 722.885 3619
1357.73 727.48 3642
1366.43 727.48 3642
1384.58 732.473 3667
1393.35 732.473 3667
1402.12 732.473 3667
1410.89 732.473 3667
1416.17 730.675 3658
1412.85 724.483 3627
1421.52 724.483 3627
1420.73 719.689 3603
1423.39 716.693 3588
1422.79 712.099 3565
1422.09 707.505 3542
1430.56 707.505 3542
1417.9 697.118 3490
1408.67 688.529 3447
1399.65 680.139 3405
1407.79 680.139 3405
1398.47 671.75 3363
1392.71 665.158 3330
1397.73 663.76 3323
1405.68 663.76 3323
1397.03 655.97 3284
1399.32 653.373 3271
1398.97 649.578 3252
1404.15 648.38 3246
1411.91 648.38 3246
1419.68 648.38 3246
1424.36 646.981 3239
1429.45 645.783 3233
1437.18 645.783 3233
1444.92 645.783 3233
1452.65 645.783 3233
1460.38 645.783 3233
1468.11 645.783 3233
1475.84 645.783 3233
1486.32 646.981 3239
1494.07 646.981 3239
1501.81 646.981 3239
1509.56 646.981 3239
1517.31 646.981 3239
1522.23 645.783 3233
1527.12 644.584 3227
1534.83 644.584 3227
1539.68 643.386 3221
1535.38 638.392 3196
1537.22 635.995 3184
1544.84 635.995 3184
1540.75 631.201 3160
1539.49 627.606 3142
1538.14 624.01 3124
1545.61 624.01 3124
1538.66 618.218 3095
1532.08 612.625 3067
1508.79 600.44 3006
1504.89 596.046 2984
1512.02 596.046 2984
1511.01 592.85 2968
1492.02 582.663 2917
1493.35 580.466 2906
1500.29 580.466 2906
1496.87 576.471 2886
1488.66 570.678 2857
1495.49 570.678 2857
1497.07 568.68 2847
1503.87 568.68 2847
1508.03 567.682 2842
1512.16 566.683 2837
1518.94 566.683 2837
1525.73 566.683 2837
1529.81 565.684 2832
1528.99 562.888 2818
1533 561.889 2813
1539.73 561.889 2813
1541.51 560.091 2804
1545.45 559.093 2799
1549.37 558.094 2794
1556.05 558.094 2794
1560.5 557.295 2790
1559.31 554.498 2776
1563.12 553.5 2771
1574.85 555.297 2780
1587.18 557.295 2790
1593.86 557.295 2790
1608.56 560.091 2804
1626.21 563.887 2823
1666.51 575.472 2881
1673.4 575.472 2881
1680.29 575.472 2881
1939.04 653.373 3271
1970.07 661.163 3310
1977.99 661.163 3310
2063.9 687.131 3440
2076.34 688.529 3447
2084.58 688.529 3447
2092.83 688.529 3447
2101.07 688.529 3447
2100.75 685.732 3433
2108.95 685.732 3433
2104.21 681.538 3412
2108.04 680.139 3405
2103.13 675.945 3384
2085.64 667.755 3343
2128.08 678.741 3398
2136.21 678.741 3398
2144.33 678.741 3398
1798.54 562.888 2818
1805.27 562.888 2818
1824.23 566.683 2837
1831.01 566.683 2837
1850.75 570.678 2857
1857.59 570.678 2857
1864.42 570.678 2857
1861.43 567.682 2842
1900.43 577.469 2891
1907.35 577.469 2891
1914.26 577.469 2891
1898.58 570.678 2857
1905.41 570.678 2857
1918.27 572.476 2866
1925.12 572.476 2866
1931.97 572.476 2866
1938.83 572.476 2866
1976.23 581.464 2911
1983.19 581.464 2911
2001.09 584.66 2927
2008.09 584.66 2927
2015.09 584.66 2927
2022.09 584.66 2927
2025.62 583.661 2922
2024.96 581.464 2911
2031.92 581.464 2911
2043.08 582.663 2917
2050.06 582.663 2917
2057.03 582.663 2917
2064.01 582.663 2917
2070.98 582.663 2917
2073.68 581.464 2911
2092.08 584.66 2927
2106.25 586.658 2937
2113.28 586.658 2937
2120.3 586.658 2937
2127.32 586.658 2937
2134.35 586.658 2937
2141.37 586.658 2937
2148.39 586.658 2937
2132.67 580.466 2906
2124.89 576.471 2886
2120.71 573.474 2871
2134.99 575.472 2881
2141.88 575.472 2881
2159.95 578.468 2896
2217.01 591.851 2963
2244.36 597.244 2990
2251.51 597.244 2990
2274.52 601.439 3011
2315.07 610.228 3055
2379.39 625.209 3130
2386.87 625.209 3130
2394.36 625.209 3130
-2351.05 653.528 3233
-2343.32 653.528 3233
-2335.58 653.528 3233
-2332.17 654.74 3239
-2324.43 654.74 3239
-2316.68 654.74 3239
-2318.2 657.368 3252
-2319.66 659.996 3265
-2334.51 666.465 3297
-2326.63 666.465 3297
-2332.81 670.508 3317
-2324.88 670.508 3317
-2316.95 670.508 3317
-2309.02 670.508 3317
-2323.98 677.178 3350
-2324.95 679.806 3363
-2360.32 692.541 3426
-2352.12 692.541 3426
-2363.09 698.201 3454
-2374.6 704.063 3483
-2366.27 704.063 3483
-2357.94 704.063 3483
-2349.61 704.063 3483
-2360.78 709.925 3512
-2352.38 709.925 3512
-2358.66 714.373 3534
-2365.51 719.022 3557
-2357 719.022 3557
-2348.5 719.022 3557
-2345.25 720.639 3565
-2336.73 720.639 3565
-2328.2 720.639 3565
-2314.47 719.022 3557
-2305.97 719.022 3557
-2297.46 719.022 3557
-2288.96 719.022 3557
-2280.45 719.022 3557
-2271.94 719.022 3557
-2263.44 719.022 3557
-2249.86 717.405 3549
-2241.37 717.405 3549
-2228.48 715.99 3542
-2210.61 712.958 3527
-2206.55 714.373 3534
-2198.1 714.373 3534
-2189.65 714.373 3534
-2181.19 714.373 3534
-2172.74 714.373 3534
-2164.29 714.373 3534
-2155.84 714.373 3534
-2143.14 712.958 3527
-2125.63 709.925 3512
-2117.23 709.925 3512
-2095.62 705.478 3490
-2087.27 705.478 3490
-2078.93 705.478 3490
-2070.58 705.478 3490
-2062.24 705.478 3490
-2049.77 704.063 3483
-2032.65 701.031 3468
-2024.36 701.031 3468
-1999.79 695.371 3440
-1987.51 693.956 3433
-1979.3 693.956 3433
-1971.09 693.956 3433
-1950.87 689.711 3412
-1942.71 689.711 3412
-1934.55 689.711 3412
-1926.4 689.711 3412
-1902.49 684.051 3384
-1886.57 681.221 3370
-1878.51 681.221 3370
-1882.1 685.466 3391
-1873.99 685.466 3391
-1865.89 685.466 3391
-1861.61 686.881 3398
-1853.49 686.881 3398
-1845.36 686.881 3398
-1841.02 688.296 3405
-1832.88 688.296 3405
-1839.74 693.956 3433
-1831.53 693.956 3433
-1834.47 698.201 3454
-1833.62 701.031 3468
-1833.22 704.063 3483
-1824.89 704.063 3483
-1820.21 705.478 3490
-1823.29 709.925 3512
-1822.64 712.958 3527
-1814.21 712.958 3527
-1813.45 715.99 3542
-1812.63 719.022 3557
-1811.73 722.054 3572
-1803.19 722.054 3572
-1794.65 722.054 3572
-1790.1 723.671 3580
-1781.54 723.671 3580
-1772.98 723.671 3580
-1764.42 723.671 3580
-1755.86 723.671 3580
-1747.3 723.671 3580
-1738.74 723.671 3580
-1730.18 723.671 3580
-1728.83 726.703 3595
-1724.06 728.32 3603
-1715.45 728.32 3603
-1706.83 728.32 3603
-1698.21 728.32 3603
-1697.1 731.555 3619
-1692.18 733.172 3627
-1683.51 733.172 3627
-1693.3 741.258 3667
-1695.56 746.109 3691
-1694.05 749.343 3707
-1685.18 749.343 3707
-1680.39 751.163 3716
-1678.7 754.397 3732
-1673.35 756.014 3740
-1664.41 756.014 3740
-1655.47 756.014 3740
-1646.52 756.014 3740
-1637.58 756.014 3740
-1628.63 756.014 3740
-1605.4 749.343 3707
-1589.64 746.109 3691
-1580.82 746.109 3691
-1571.99 746.109 3691
-1532.67 731.555 3619
-1524.02 731.555 3619
-1515.36 731.555 3619
-1490.47 723.671 3580
-1475.7 720.639 3565
-1454.42 714.373 3534
-1445.97 714.373 3534
-1434.67 712.958 3527
-1426.24 712.958 3527
-1414.99 711.543 3520
-1406.57 711.543 3520
-1394.98 709.925 3512
-1389.74 711.543 3520
-1381.32 711.543 3520
-1375.63 712.958 3527
-1367.2 712.958 3527
-1364.54 715.99 3542
-1361.82 719.022 3557
-1359.02 722.054 3572
-1350.48 722.054 3572
-1344.94 723.671 3580
-1344.96 728.32 3603
-1339.31 729.938 3611
-1330.68 729.938 3611
-1330.83 734.789 3635
-1322.14 734.789 3635
-1315.98 736.204 3642
-1307.27 736.204 3642
-1301.41 737.821 3650
-1292.68 737.821 3650
-1283.95 737.821 3650
-1275.23 737.821 3650
-1266.5 737.821 3650
-1255.01 736.204 3642
-1243.91 734.789 3635
-1235.22 734.789 3635
-1226.52 734.789 3635
-1220.18 736.204 3642
-1211.47 736.204 3642
-1205.4 737.821 3650
-1196.67 737.821 3650
-1190.55 739.438 3658
-1181.8 739.438 3658
-1175.94 741.258 3667
-1167.17 741.258 3667
-1160.93 742.875 3675
-1152.14 742.875 3675
-1143.35 742.875 3675
-1134.56 742.875 3675
-1125.78 742.875 3675
-1114.56 741.258 3667
-1105.79 741.258 3667
-1097.02 741.258 3667
-1093 744.492 3683
-1091.26 749.343 3707
-1089.69 754.397 3732
-1080.77 754.397 3732
-1071.84 754.397 3732
-1065.2 756.014 3740
-1056.25 756.014 3740
-1047.31 756.014 3740
-1038.37 756.014 3740
-1029.42 756.014 3740
-1020.48 756.014 3740
-1011.54 756.014 3740
-1005 757.833 3749
-996.039 757.833 3749
-987.074 757.833 3749
-978.109 757.833 3749
-971.212 759.45 3757
-962.228 759.45 3757
-959.841 764.706 3783
-950.795 764.706 3783
-941.748 764.706 3783
-934.921 766.525 3792
-925.853 766.525 3792
-916.785 766.525 3792
-901.494 761.27 3766
-892.488 761.27 3766
-885.359 762.887 3774
-878.424 764.706 3783
-869.378 764.706 3783
-862.378 766.525 3792
-853.311 766.525 3792
-844.243 766.525 3792
-833.193 764.706 3783
-824.146 764.706 3783
-809.498 759.45 3757
-800.514 759.45 3757
-787.948 756.014 3740
-779.005 756.014 3740
-768.414 754.397 3732
-759.49 754.397 3732
-750.565 754.397 3732
-741.641 754.397 3732
-731.146 752.78 3724
-722.241 752.78 3724
-711.803 751.163 3716
-699.701 747.726 3699
-686.374 742.875 3675
-677.585 742.875 3675
-665.704 739.438 3658
-654.083 736.204 3642
-642.716 733.172 3627
-634.042 733.172 3627
-621.231 728.32 3603
-610.065 725.288 3588
-600.144 723.671 3580
-592.905 725.288 3588
-584.325 725.288 3588
-575.745 725.288 3588
-567.165 725.288 3588
-558.585 725.288 3588
-550.005 725.288 3588
-541.425 725.288 3588
-531.657 723.671 3580
-521.927 722.054 3572
-513.385 722.054 3572
-504.843 722.054 3572
-496.302 722.054 3572
-489.945 725.288 3588
-482.304 726.703 3595
-473.707 726.703 3595
-465.11 726.703 3595
-456.514 726.703 3595
-447.917 726.703 3595
-439.32 726.703 3595
-431.682 728.32 3603
-423.066 728.32 3603
-414.45 728.32 3603
-405.834 728.32 3603
-397.219 728.32 3603
-388.603 728.32 3603
-379.987 728.32 3603
-371.371 728.32 3603
-362.755 728.32 3603
-353.353 726.703 3595
-344.756 726.703 3595
-336.159 726.703 3595
-328.292 728.32 3603
-321.095 731.555 3619
-312.441 731.555 3619
-304.459 733.172 3627
-295.785 733.172 3627
-287.112 733.172 3627
-277.825 731.555 3619
-269.171 731.555 3619
-260.516 731.555 3619
-251.862 731.555 3619
-242.133 728.32 3603
-233.517 728.32 3603
-224.402 726.703 3595
-215.805 726.703 3595
-207.208 726.703 3595
-198.612 726.703 3595
-189.222 723.671 3580
-179.904 720.639 3565
-171.379 720.639 3565
-162.854 720.639 3565
-153.637 717.405 3549
-145.15 717.405 3549
-136.394 715.99 3542
-127.924 715.99 3542
-117.936 706.893 3497
-109.135 704.063 3483
-99.7641 696.786 3447
-91.3354 695.371 3440
-83.1093 695.371 3440
-74.5785 692.541 3426
-66.2503 691.126 3419
-58.1933 692.541 3426
-50.205 695.371 3440
-41.9789 695.371 3440
-33.8215 696.786 3447
-25.6826 699.616 3461
-17.4063 699.616 3461
-9.13 699.616 3461
-0.853696 699.616 3461
4.58739 432.383 2139
9.70239 432.383 2139
14.7966 431.777 2136
19.9044 431.777 2136
25.0825 432.99 2142
30.2047 432.99 2142
35.3269 432.99 2142
40.449 432.99 2142
45.5712 432.99 2142
50.6934 432.99 2142
55.8155 432.99 2142
60.8524 432.383 2139
65.8748 431.777 2136
70.9827 431.777 2136
76.0905 431.777 2136
81.3123 432.383 2139
86.4273 432.383 2139
91.7563 433.394 2144
96.8833 433.394 2144
102.153 434.001 2147
107.687 435.618 2155
113.154 436.831 2161
118.322 436.831 2161
123.947 438.448 2169
129.491 439.661 2175
135.063 440.873 2181
140.279 440.873 2181
145.694 441.48 2184
151.677 443.703 2195
157.14 444.31 2198
162.396 444.31 2198
168.339 446.129 2207
175.426 450.778 2230
181.488 452.598 2239
186.842 452.598 2239
192.711 453.811 2245
198.874 455.63 2254
205.17 457.651 2264
210.584 457.651 2264
217.429 460.683 2279
223.466 461.896 2285
228.93 461.896 2285
234.394 461.896 2285
239.228 460.683 2279
881.72 746.109 3691
890.546 746.109 3691
899.372 746.109 3691
902.293 741.258 3667
906.838 737.821 3650
909.797 733.172 3627
918.471 733.172 3627
921.009 728.32 3603
925.755 725.288 3588
934.334 725.288 3588
942.914 725.288 3588
951.495 725.288 3588
960.074 725.288 3588
968.654 725.288 3588
977.234 725.288 3588
983.616 723.671 3580
988.02 720.639 3565
990.116 715.99 3542
998.586 715.99 3542
1004.78 714.373 3534
1013.23 714.373 3534
1021.68 714.373 3534
1026.05 711.543 3520
1034.47 711.543 3520
1040.52 709.925 3512
1044.44 706.893 3497
1050.69 705.478 3490
1059.04 705.478 3490
1067.38 705.478 3490
1068.95 701.031 3468
1075.07 699.616 3461
1083.34 699.616 3461
1089.41 698.201 3454
1097.67 698.201 3454
1105.93 698.201 3454
1114.19 698.201 3454
1122.45 698.201 3454
1130.71 698.201 3454
1146.22 702.648 3476
1156.86 704.063 3483
1165.19 704.063 3483
1173.52 704.063 3483
1184.22 705.478 3490
1192.57 705.478 3490
1200.91 705.478 3490
1209.26 705.478 3490
1222.84 708.51 3505
1233.68 709.925 3512
1249.86 714.373 3534
1258.31 714.373 3534
1269.63 715.99 3542
1288.92 722.054 3572
1303.27 725.288 3588
1311.85 725.288 3588
1325.95 728.32 3603
1340.5 731.555 3619
1357.73 736.204 3642
1366.43 736.204 3642
1384.58 741.258 3667
1393.35 741.258 3667
1402.12 741.258 3667
1410.89 741.258 3667
1416.17 739.438 3658
1412.85 733.172 3627
1421.52 733.172 3627
1420.73 728.32 3603
1423.39 725.288 3588
1422.79 720.639 3565
1422.09 715.99 3542
1430.56 715.99 3542
1417.9 705.478 3490
1408.67 696.786 3447
1399.65 688.296 3405
1407.79 688.296 3405
1398.47 679.806 3363
1392.71 673.135 3330
1397.73 671.72 3323
1405.68 671.72 3323
1397.03 663.837 3284
1399.32 661.209 3271
1398.97 657.368 3252
1404.15 656.155 3246
1411.91 656.155 3246
1419.68 656.155 3246
1424.36 654.74 3239
1429.45 653.528 3233
1437.18 653.528 3233
1444.92 653.528 3233
1452.65 653.528 3233
1460.38 653.528 3233
1468.11 653.528 3233
1475.84 653.528 3233
1486.32 654.74 3239
1494.07 654.74 3239
1501.81 654.74 3239
1509.56 654.74 3239
1517.31 654.74 3239
1522.23 653.528 3233
1527.12 652.315 3227
1534.83 652.315 3227
1539.68 651.102 3221
1535.38 646.048 3196
1537.22 643.623 3184
1544.84 643.623 3184
1540.75 638.771 3160
1539.49 635.133 3142
1538.14 631.494 3124
1545.61 631.494 3124
1538.66 625.632 3095
1532.08 619.972 3067
1508.79 607.641 3006
1504.89 603.194 2984
1512.02 603.194 2984
1511.01 599.96 2968
1492.02 589.65 2917
1493.35 587.427 2906
1500.29 587.427 2906
1496.87 583.384 2886
1488.66 577.522 2857
1495.49 577.522 2857
1497.07 575.5 2847
1503.87 575.5 2847
1508.03 574.49 2842
1512.16 573.479 2837
1518.94 573.479 2837
1525.73 573.479 2837
1527.65 571.66 2828
1528.99 569.638 2818
1533 568.628 2813
1539.73 568.628 2813
1541.51 566.808 2804
1545.45 565.798 2799
1549.37 564.787 2794
1556.05 564.787 2794
1560.5 563.978 2790
1559.31 561.148 2776
1563.12 560.138 2771
1574.85 561.957 2780
1587.18 563.978 2790
1593.86 563.978 2790
1608.56 566.808 2804
1626.21 570.649 2823
1666.51 582.373 2881
1673.4 582.373 2881
1680.29 582.373 2881
1939.04 661.209 3271
1970.07 669.093 3310
1977.99 669.093 3310
2063.9 695.371 3440
2076.34 696.786 3447
2084.58 696.786 3447
2092.83 696.786 3447
2101.07 696.786 3447
2100.75 693.956 3433
2108.95 693.956 3433
2104.21 689.711 3412
2108.04 688.296 3405
2103.13 684.051 3384
2085.64 675.763 3343
2128.08 686.881 3398
2136.21 686.881 3398
2144.33 686.881 3398
1824.23 573.479 2837
1831.01 573.479 2837
1850.75 577.522 2857
1857.59 577.522 2857
1864.42 577.522 2857
1861.43 574.49 2842
1900.43 584.395 2891
1907.35 584.395 2891
1914.26 584.395 2891
1898.58 577.522 2857
1905.41 577.522 2857
1918.27 579.341 2866
1925.12 579.341 2866
1931.97 579.341 2866
1938.83 579.341 2866
1976.23 588.438 2911
1983.19 588.438 2911
2001.09 591.672 2927
2008.09 591.672 2927
2015.09 591.672 2927
2022.09 591.672 2927
2025.62 590.661 2922
2024.96 588.438 2911
2031.92 588.438 2911
2043.08 589.65 2917
2050.06 589.65 2917
2057.03 589.65 2917
2064.01 589.65 2917
2070.98 589.65 2917
2073.68 588.438 2911
2092.08 591.672 2927
2106.25 593.693 2937
2113.28 593.693 2937
2120.3 593.693 2937
2127.32 593.693 2937
2134.35 593.693 2937
2141.37 593.693 2937
2148.39 593.693 2937
2132.67 587.427 2906
2124.89 583.384 2886
2120.71 580.352 2871
2134.99 582.373 2881
2141.88 582.373 2881
2159.95 585.405 2896
2217.01 598.949 2963
2244.36 604.407 2990
2251.51 604.407 2990
2274.52 608.652 3011
2315.07 617.546 3055
2379.39 632.707 3130
2386.87 632.707 3130
2394.36 632.707 3130
-2351.05 661.272 3233
-2343.32 661.272 3233
-2469.95 699.316 3419
-2461.78 699.316 3419
-2453.6 699.316 3419
-2440.42 697.885 3412
-2397.33 687.862 3363
-2370.82 682.544 3337
-2362.84 682.544 3337
-2417.66 700.748 3426
-2409.47 700.748 3426
-2401.28 700.748 3426
-2393.09 700.748 3426
-2384.89 700.748 3426
-2386.41 703.612 3440
-2387.86 706.475 3454
-2379.61 706.475 3454
-2391.26 712.407 3483
-2387.72 713.839 3490
-2394.37 718.338 3512
-2385.97 718.338 3512
-2377.57 718.338 3512
-2369.17 718.338 3512
-2370.86 721.406 3527
-2362.43 721.406 3527
-2374.01 727.543 3557
-2365.51 727.543 3557
-2362.3 729.179 3565
-2353.78 729.179 3565
-2349.86 730.611 3572
-2341.32 730.611 3572
-2332.77 730.611 3572
-2319.68 729.179 3565
-2311.15 729.179 3565
-2302.63 729.179 3565
-2294.1 729.179 3565
-2280.45 727.543 3557
-2271.94 727.543 3557
-2263.44 727.543 3557
-2249.86 725.906 3549
-2241.37 725.906 3549
-2228.48 724.475 3542
-2215 722.838 3534
-2211.54 724.475 3542
-2203.07 724.475 3542
-2194.6 724.475 3542
-2186.13 724.475 3542
-2177.66 724.475 3542
-2169.19 724.475 3542
-2160.72 724.475 3542
-2147.39 722.838 3534
-2130.47 719.975 3520
-2122.05 719.975 3520
-2104.63 716.907 3505
-2091.46 715.27 3497
-2083.1 715.27 3497
-2074.73 715.27 3497
-2062.24 713.839 3490
-2049.77 712.407 3483
-2037.34 710.975 3476
-2029.03 710.975 3476
-1999.79 703.612 3440
-1987.51 702.18 3433
-1979.3 702.18 3433
-1971.09 702.18 3433
-1954.88 699.316 3419
-1942.71 697.885 3412
-1934.55 697.885 3412
-1926.4 697.885 3412
-1902.49 692.158 3384
-1886.57 689.294 3370
-1878.51 689.294 3370
-1882.1 693.589 3391
-1873.99 693.589 3391
-1865.89 693.589 3391
-1861.61 695.021 3398
-1853.49 695.021 3398
-1845.36 695.021 3398
-1841.02 696.453 3405
-1832.88 696.453 3405
-1839.74 702.18 3433
-1831.53 702.18 3433
-1834.47 706.475 3454
-1833.62 709.339 3468
-1833.22 712.407 3483
-1824.89 712.407 3483
-1820.21 713.839 3490
-1823.29 718.338 3512
-1822.64 721.406 3527
-1814.21 721.406 3527
-1813.45 724.475 3542
-1812.63 727.543 3557
-1811.73 730.611 3572
-1803.19 730.611 3572
-1794.65 730.611 3572
-1790.1 732.247 3580
-1781.54 732.247 3580
-1772.98 732.247 3580
-1764.42 732.247 3580
-1755.86 732.247 3580
-1747.3 732.247 3580
-1738.74 732.247 3580
-1730.18 732.247 3580
-1728.83 735.315 3595
-1724.06 736.951 3603
-1715.45 736.951 3603
-1706.83 736.951 3603
-1698.21 736.951 3603
-1697.1 740.224 3619
-1692.18 741.86 3627
-1683.51 741.86 3627
-1693.3 750.042 3667
-1695.56 754.951 3691
-1694.05 758.223 3707
-1685.18 758.223 3707
-1680.39 760.064 3716
-1678.7 763.337 3732
-1673.35 764.973 3740
-1664.41 764.973 3740
-1655.47 764.973 3740
-1646.52 764.973 3740
-1637.58 764.973 3740
-1628.63 764.973 3740
-1605.4 758.223 3707
-1589.64 754.951 3691
-1580.82 754.951 3691
-1571.99 754.951 3691
-1532.67 740.224 3619
-1524.02 740.224 3619
-1515.36 740.224 3619
-1493.8 733.883 3588
-1475.7 729.179 3565
-1457.71 724.475 3542
-1449.24 724.475 3542
-1437.52 722.838 3534
-1426.24 721.406 3527
-1414.99 719.975 3520
-1406.57 719.975 3520
-1398.15 719.975 3520
-1389.74 719.975 3520
-1381.32 719.975 3520
-1375.63 721.406 3527
-1367.2 721.406 3527
-1364.54 724.475 3542
-1361.82 727.543 3557
-1359.02 730.611 3572
-1350.48 730.611 3572
-1344.94 732.247 3580
-1344.96 736.951 3603
-1339.31 738.588 3611
-1330.68 738.588 3611
-1330.83 743.497 3635
-1322.14 743.497 3635
-1315.98 744.928 3642
-1307.27 744.928 3642
-1301.41 746.565 3650
-1292.68 746.565 3650
-1283.95 746.565 3650
-1275.23 746.565 3650
-1266.5 746.565 3650
-1257.77 746.565 3650
-1243.91 743.497 3635
-1235.22 743.497 3635
-1226.52 743.497 3635
-1220.18 744.928 3642
-1211.47 744.928 3642
-1205.4 746.565 3650
-1196.67 746.565 3650
-1190.55 748.201 3658
-1184.71 750.042 3667
-1175.94 750.042 3667
-1167.17 750.042 3667
-1160.93 751.678 3675
-1152.14 751.678 3675
-1145.84 753.314 3683
-1137.03 753.314 3683
-1128.23 753.314 3683
-1119.42 753.314 3683
-1110.61 753.314 3683
-1101.8 753.314 3683
-1093 753.314 3683
-1098.61 763.337 3732
-1092.03 764.973 3740
-1083.08 764.973 3740
-1079.02 768.45 3757
-1070.04 768.45 3757
-1061.05 768.45 3757
-1052.07 768.45 3757
-1040.86 766.814 3749
-1029.42 764.973 3740
-1022.93 766.814 3749
-1013.97 766.814 3749
-1005 766.814 3749
-996.039 766.814 3749
-987.074 766.814 3749
-978.109 766.814 3749
-971.212 768.45 3757
-964.533 770.291 3766
-959.841 773.768 3783
-950.795 773.768 3783
-941.748 773.768 3783
-934.921 775.609 3792
-925.853 775.609 3792
-916.785 775.609 3792
-901.494 770.291 3766
-892.488 770.291 3766
-885.359 771.927 3774
-878.424 773.768 3783
-869.378 773.768 3783
-862.378 775.609 3792
-853.311 775.609 3792
-844.243 775.609 3792
-833.193 773.768 3783
-824.146 773.768 3783
-809.498 768.45 3757
-800.514 768.45 3757
-787.948 764.973 3740
-779.005 764.973 3740
-770.061 764.973 3740
-761.118 764.973 3740
-752.174 764.973 3740
-741.641 763.337 3732
-732.717 763.337 3732
-723.792 763.337 3732
-711.803 760.064 3716
-702.917 760.064 3716
-687.868 753.314 3683
-679.06 753.314 3683
-668.797 751.678 3675
-656.956 748.201 3658
-644.133 743.497 3635
-635.441 743.497 3635
-621.231 736.951 3603
-611.255 735.315 3595
-601.485 733.883 3588
-592.905 733.883 3588
-584.325 733.883 3588
-575.745 733.883 3588
-567.165 733.883 3588
-558.585 733.883 3588
-550.005 733.883 3588
-541.425 733.883 3588
-531.657 732.247 3580
-521.927 730.611 3572
-513.385 730.611 3572
-503.854 729.179 3565
-496.302 730.611 3572
-487.76 730.611 3572
-481.365 733.883 3588
-472.785 733.883 3588
-465.11 735.315 3595
-456.514 735.315 3595
-447.917 735.315 3595
-439.32 735.315 3595
-430.723 735.315 3595
-422.127 735.315 3595
-413.53 735.315 3595
-404.933 735.315 3595
-396.337 735.315 3595
-387.74 735.315 3595
-379.143 735.315 3595
-370.546 735.315 3595
-361.95 735.315 3595
-352.665 733.883 3588
-344.085 733.883 3588
-335.505 733.883 3588
-327.563 735.315 3595
-319.676 736.951 3603
-312.441 740.224 3619
-303.787 740.224 3619
-295.133 740.224 3619
-286.479 740.224 3619
-277.211 738.588 3611
-268.576 738.588 3611
-259.941 738.588 3611
-250.749 736.951 3603
-241.595 735.315 3595
-232.999 735.315 3595
-223.965 733.883 3588
-214.905 732.247 3580
-206.344 732.247 3580
-197.783 732.247 3580
-188.429 729.179 3565
-179.097 725.906 3549
-170.61 725.906 3549
-162.123 725.906 3549
-153.637 725.906 3549
-144.864 724.475 3542
-135.816 721.406 3527
-127.382 721.406 3527
-117.936 715.27 3497
-108.916 710.975 3476
-99.7641 705.043 3447
-91.3354 703.612 3440
-83.1093 703.612 3440
-74.5785 700.748 3426
-66.2503 699.316 3419
-58.1933 700.748 3426
-50.1029 702.18 3433
-41.8935 702.18 3433
-33.8215 705.043 3447
-25.5787 705.043 3447
-17.3359 705.043 3447
-9.09306 705.043 3447
-0.848516 703.612 3440
4.59382 438.121 2142
9.71599 438.121 2142
14.7966 436.894 2136
19.9603 438.121 2142
25.0825 438.121 2142
30.2329 438.53 2144
35.3598 438.53 2144
40.4868 438.53 2144
45.5712 438.121 2142
50.6934 438.121 2142
55.8155 438.121 2142
60.8524 437.507 2139
65.8748 436.894 2136
70.9827 436.894 2136
76.0905 436.894 2136
81.1983 436.894 2136
86.4273 437.507 2139
91.7563 438.53 2144
96.8833 438.53 2144
102.153 439.144 2147
107.687 440.78 2155
113.154 442.007 2161
118.322 442.007 2161
123.947 443.644 2169
129.312 444.257 2172
134.877 445.484 2178
140.086 445.484 2178
145.494 446.098 2181
151.47 448.348 2192
157.14 449.575 2198
162.396 449.575 2198
167.881 450.189 2201
175.19 455.507 2227
181.245 457.348 2236
186.592 457.348 2236
192.196 457.961 2239
198.08 459.188 2245
204.264 461.029 2254
209.654 461.029 2254
216.857 464.915 2273
222.879 466.143 2279
228.329 466.143 2279
233.778 466.143 2279
239.228 466.143 2279
243.39 463.688 2267
885.542 758.223 3707
894.406 758.223 3707
903.271 758.223 3707
908.198 754.951 3691
913.05 751.678 3675
915.567 746.565 3650
924.295 746.565 3650
927.144 741.86 3627
931.689 738.588 3611
940.324 738.588 3611
948.959 738.588 3611
957.594 738.588 3611
966.229 738.588 3611
972.704 736.951 3603
981.32 736.951 3603
985.814 733.883 3588
992.177 732.247 3580
996.545 729.179 3565
1005.07 729.179 3565
1009.05 725.906 3549
1017.53 725.906 3549
1024 724.475 3542
1030.13 722.838 3534
1038.58 722.838 3534
1042.89 719.975 3520
1051.31 719.975 3520
1055.21 716.907 3505
1063.59 716.907 3505
1071.97 716.907 3505
1075.73 713.839 3490
1077.24 709.339 3468
1085.53 709.339 3468
1091.62 707.907 3461
1102.12 709.339 3468
1110.41 709.339 3468
1118.7 709.339 3468
1124.72 707.907 3461
1133 707.907 3461
1148.53 712.407 3483
1156.86 712.407 3483
1167.53 713.839 3490
1175.88 713.839 3490
1184.22 713.839 3490
1192.57 713.839 3490
1200.91 713.839 3490
1209.26 713.839 3490
1222.84 716.907 3505
1236.49 719.975 3520
1252.69 724.475 3542
1261.16 724.475 3542
1275 727.543 3557
1291.81 732.247 3580
1305.82 735.315 3595
1314.41 735.315 3595
1328.9 738.588 3611
1343.46 741.86 3627
1357.73 744.928 3642
1366.43 744.928 3642
1387.6 751.678 3675
1399.43 753.314 3683
1408.24 753.314 3683
1417.05 753.314 3683
1422.76 751.678 3675
1415.96 743.497 3635
1424.65 743.497 3635
1423.88 738.588 3611
1426.17 735.315 3595
1425.59 730.611 3572
1422.09 724.475 3542
1430.56 724.475 3542
1415.06 712.407 3483
1402.95 702.18 3433
1391.02 692.158 3384
1399.11 692.158 3384
1393.06 685.203 3350
1392.71 681.112 3330
1392.26 677.022 3310
1400.18 677.022 3310
1394.48 670.477 3278
1396.76 667.818 3265
1398.97 665.159 3252
1404.15 663.931 3246
1411.91 663.931 3246
1416.61 662.5 3239
1421.72 661.272 3233
1429.45 661.272 3233
1437.18 661.272 3233
1444.92 661.272 3233
1452.65 661.272 3233
1460.38 661.272 3233
1468.11 661.272 3233
1475.84 661.272 3233
1486.32 662.5 3239
1494.07 662.5 3239
1501.81 662.5 3239
1509.56 662.5 3239
1517.31 662.5 3239
1522.23 661.272 3233
1527.12 660.045 3227
1534.83 660.045 3227
1539.68 658.818 3221
1535.38 653.704 3196
1537.22 651.25 3184
1544.84 651.25 3184
1540.75 646.341 3160
1539.49 642.659 3142
1541.09 640.205 3130
1548.58 640.205 3130
1538.66 633.046 3095
1537.57 629.569 3078
1516.82 618.115 3022
1510.43 612.592 2995
1517.6 612.592 2995
1514.07 608.297 2974
1494.58 597.661 2922
1493.35 594.388 2906
1500.29 594.388 2906
1496.87 590.297 2886
1491.27 585.389 2862
1495.49 584.366 2857
1497.07 582.32 2847
1503.87 582.32 2847
1508.03 581.298 2842
1512.16 580.275 2837
1516.27 579.252 2832
1523.04 579.252 2832
1527.65 578.434 2828
1526.28 575.366 2813
1530.82 574.548 2809
1537.54 574.548 2809
1538.76 572.503 2799
1542.69 571.48 2794
1549.37 571.48 2794
1556.05 571.48 2794
1560.5 570.662 2790
1559.31 567.798 2776
1563.12 566.776 2771
1574.85 568.616 2780
1587.18 570.662 2790
1593.86 570.662 2790
1608.56 573.525 2804
1626.21 577.412 2823
1657.83 586.207 2866
1664.69 586.207 2866
1671.54 586.207 2866
1943.19 670.477 3278
1993.88 685.203 3350
2001.89 685.203 3350
2072.3 706.475 3454
2088.99 709.339 3468
2097.28 709.339 3468
2105.58 709.339 3468
2113.87 709.339 3468
2117.88 707.907 3461
2126.16 707.907 3461
2125.8 705.043 3447
2134.04 705.043 3447
2129.23 700.748 3426
2124.32 696.453 3405
2136.85 697.885 3412
2145.01 697.885 3412
2153.17 697.885 3412
2161.33 697.885 3412
2169.49 697.885 3412
2177.65 697.885 3412
1900.43 591.32 2891
1907.35 591.32 2891
1914.26 591.32 2891
1898.58 584.366 2857
1905.41 584.366 2857
1918.27 586.207 2866
1925.12 586.207 2866
1931.97 586.207 2866
1938.83 586.207 2866
2048.19 617.092 3017
2055.41 617.092 3017
2070.14 619.342 3028
2077.38 619.342 3028
2084.62 619.342 3028
2091.86 619.342 3028
2083.85 614.842 3006
2079.91 611.569 2990
2087.06 611.569 2990
2078.8 607.07 2968
2101.36 611.569 2990
2108.51 611.569 2990
2115.66 611.569 2990
2115 609.32 2979
2099.33 602.774 2947
2106.38 602.774 2947
2113.42 602.774 2947
2120.47 602.774 2947
2123.91 601.752 2942
2130.94 601.752 2942
2137.98 601.752 2942
2145.01 601.752 2942
2152.05 601.752 2942
2159.08 601.752 2942
2128.57 591.32 2891
2135.48 591.32 2891
2138.69 590.297 2886
2145.59 590.297 2886
2171.14 595.411 2911
2217.01 606.047 2963
2251.87 613.615 3000
2259.04 613.615 3000
2282.83 618.115 3022
2315.07 624.864 3055
2383.95 641.432 3136
2391.45 641.432 3136
2398.95 641.432 3136
-2351.05 669.017 3233
-2473.06 706.058 3412
-2469.95 707.507 3419
-2461.78 707.507 3419
-2453.6 707.507 3419
-2440.42 706.058 3412
-2397.33 695.918 3363
-2370.82 690.538 3337
-2362.84 690.538 3337
-2417.66 708.955 3426
-2409.47 708.955 3426
-2401.28 708.955 3426
-2393.09 708.955 3426
-2384.89 708.955 3426
-2386.41 711.852 3440
-2387.86 714.749 3454
-2379.61 714.749 3454
-2391.26 720.75 3483
-2387.72 722.199 3490
-2394.37 726.751 3512
-2385.97 726.751 3512
-2377.57 726.751 3512
-2369.17 726.751 3512
-2370.86 729.855 3527
-2362.43 729.855 3527
-2374.01 736.063 3557
-2365.51 736.063 3557
-2362.3 737.719 3565
-2353.78 737.719 3565
-2349.86 739.167 3572
-2341.32 739.167 3572
-2332.77 739.167 3572
-2319.68 737.719 3565
-2311.15 737.719 3565
-2302.63 737.719 3565
-2294.1 737.719 3565
-2280.45 736.063 3557
-2271.94 736.063 3557
-2263.44 736.063 3557
-2249.86 734.408 3549
-2241.37 734.408 3549
-2228.48 732.959 3542
-2215 731.304 3534
-2211.54 732.959 3542
-2203.07 732.959 3542
-2194.6 732.959 3542
-2186.13 732.959 3542
-2177.66 732.959 3542
-2169.19 732.959 3542
-2160.72 732.959 3542
-2147.39 731.304 3534
-2130.47 728.407 3520
-2122.05 728.407 3520
-2104.63 725.303 3505
-2091.46 723.647 3497
-2083.1 723.647 3497
-2074.73 723.647 3497
-2062.24 722.199 3490
-2049.77 720.75 3483
-2037.34 719.302 3476
-2029.03 719.302 3476
-1999.79 711.852 3440
-1987.51 710.404 3433
-1979.3 710.404 3433
-1971.09 710.404 3433
-1954.88 707.507 3419
-1942.71 706.058 3412
-1930.59 704.61 3405
-1922.44 704.61 3405
-1902.49 700.264 3384
-1882.65 695.918 3363
-1874.6 695.918 3363
-1870.45 697.367 3370
-1862.39 697.367 3370
-1858.18 698.815 3377
-1853.94 700.264 3384
-1849.67 701.712 3391
-1841.56 701.712 3391
-1837.23 703.161 3398
-1829.11 703.161 3398
-1832.24 707.507 3419
-1824.06 707.507 3419
-1827.04 711.852 3440
-1826.21 714.749 3454
-1825.32 717.646 3468
-1817.03 717.646 3468
-1816.56 720.75 3483
-1815.5 723.647 3497
-1814.89 726.751 3512
-1806.49 726.751 3512
-1809.36 731.304 3534
-1808.55 734.408 3549
-1804.12 736.063 3557
-1795.61 736.063 3557
-1794.65 739.167 3572
-1786.1 739.167 3572
-1781.54 740.823 3580
-1772.98 740.823 3580
-1764.42 740.823 3580
-1755.86 740.823 3580
-1747.3 740.823 3580
-1738.74 740.823 3580
-1730.18 740.823 3580
-1725.46 742.478 3588
-1720.23 743.927 3595
-1715.45 745.582 3603
-1706.83 745.582 3603
-1698.21 745.582 3603
-1689.6 745.582 3603
-1692.18 750.549 3627
-1683.51 750.549 3627
-1693.3 758.826 3667
-1688.21 760.482 3675
-1690.39 765.448 3699
-1681.54 765.448 3699
-1680.39 768.966 3716
-1678.7 772.277 3732
-1673.35 773.932 3740
-1664.41 773.932 3740
-1655.47 773.932 3740
-1646.52 773.932 3740
-1637.58 773.932 3740
-1628.63 773.932 3740
-1605.4 767.104 3707
-1589.64 763.793 3691
-1580.82 763.793 3691
-1571.99 763.793 3691
-1532.67 748.893 3619
-1524.02 748.893 3619
-1515.36 748.893 3619
-1493.8 742.478 3588
-1475.7 737.719 3565
-1457.71 732.959 3542
-1449.24 732.959 3542
-1437.52 731.304 3534
-1426.24 729.855 3527
-1414.99 728.407 3520
-1406.57 728.407 3520
-1398.15 728.407 3520
-1389.74 728.407 3520
-1381.32 728.407 3520
-1372.9 728.407 3520
-1364.48 728.407 3520
-1361.46 731.304 3534
-1358.75 734.408 3549
-1356.35 737.719 3565
-1347.83 737.719 3565
-1341.93 739.167 3572
-1344.96 745.582 3603
-1339.31 747.238 3611
-1330.68 747.238 3611
-1330.83 752.204 3635
-1322.14 752.204 3635
-1315.98 753.653 3642
-1307.27 753.653 3642
-1301.41 755.308 3650
-1292.68 755.308 3650
-1283.95 755.308 3650
-1275.23 755.308 3650
-1266.5 755.308 3650
-1257.77 755.308 3650
-1243.91 752.204 3635
-1235.22 752.204 3635
-1226.52 752.204 3635
-1220.18 753.653 3642
-1211.47 753.653 3642
-1205.4 755.308 3650
-1196.67 755.308 3650
-1187.94 755.308 3650
-1184.71 758.826 3667
-1175.94 758.826 3667
-1167.17 758.826 3667
-1160.93 760.482 3675
-1152.14 760.482 3675
-1145.84 762.137 3683
-1137.03 762.137 3683
-1128.23 762.137 3683
-1119.42 762.137 3683
-1110.61 762.137 3683
-1101.8 762.137 3683
-1093 762.137 3683
-1098.61 772.277 3732
-1092.03 773.932 3740
-1083.08 773.932 3740
-1079.02 777.45 3757
-1070.04 777.45 3757
-1061.05 777.45 3757
-1052.07 777.45 3757
-1040.86 775.795 3749
-1029.42 773.932 3740
-1022.93 775.795 3749
-1013.97 775.795 3749
-1005 775.795 3749
-996.039 775.795 3749
-987.074 775.795 3749
-978.109 775.795 3749
-971.212 777.45 3757
-964.533 779.313 3766
-957.557 780.968 3774
-948.533 780.968 3774
-939.508 780.968 3774
-930.483 780.968 3774
-921.458 780.968 3774
-912.433 780.968 3774
-901.494 779.313 3766
-892.488 779.313 3766
-883.482 779.313 3766
-874.477 779.313 3766
-865.471 779.313 3766
-858.285 780.968 3774
-849.26 780.968 3774
-840.235 780.968 3774
-831.21 780.968 3774
-820.443 779.313 3766
-809.498 777.45 3757
-800.514 777.45 3757
-787.948 773.932 3740
-779.005 773.932 3740
-770.061 773.932 3740
-761.118 773.932 3740
-752.174 773.932 3740
-743.231 773.932 3740
-732.717 772.277 3732
-723.792 772.277 3732
-713.336 770.621 3724
-702.917 768.966 3716
-689.362 763.793 3691
-680.536 763.793 3691
-670.253 762.137 3683
-660.009 760.482 3675
-644.133 752.204 3635
-635.441 752.204 3635
-621.231 745.582 3603
-612.615 745.582 3603
-601.485 742.478 3588
-592.905 742.478 3588
-584.325 742.478 3588
-575.745 742.478 3588
-567.165 742.478 3588
-558.585 742.478 3588
-550.005 742.478 3588
-541.425 742.478 3588
-531.657 740.823 3580
-521.927 739.167 3572
-513.385 739.167 3572
-503.854 737.719 3565
-496.302 739.167 3572
-487.76 739.167 3572
-481.365 742.478 3588
-472.785 742.478 3588
-465.11 743.927 3595
-456.514 743.927 3595
-447.917 743.927 3595
-439.32 743.927 3595
-430.723 743.927 3595
-422.127 743.927 3595
-413.53 743.927 3595
-404.933 743.927 3595
-396.337 743.927 3595
-387.74 743.927 3595
-379.143 743.927 3595
-370.546 743.927 3595
-361.95 743.927 3595
-352.665 742.478 3588
-344.085 742.478 3588
-335.505 742.478 3588
-327.563 743.927 3595
-319.676 745.582 3603
-312.441 748.893 3619
-303.787 748.893 3619
-295.133 748.893 3619
-286.479 748.893 3619
-277.211 747.238 3611
-268.576 747.238 3611
-259.941 747.238 3611
-250.749 745.582 3603
-241.595 743.927 3595
-232.999 743.927 3595
-223.965 742.478 3588
-214.905 740.823 3580
-206.344 740.823 3580
-197.783 740.823 3580
-188.429 737.719 3565
-179.097 734.408 3549
-170.61 734.408 3549
-162.123 734.408 3549
-153.637 734.408 3549
-144.864 732.959 3542
-135.816 729.855 3527
-127.382 729.855 3527
-117.936 723.647 3497
-108.916 719.302 3476
-99.7641 713.301 3447
-91.3354 711.852 3440
-83.1093 711.852 3440
-74.7309 710.404 3433
-66.2503 707.507 3419
-58.1933 708.955 3426
-50.1029 710.404 3433
-41.8935 710.404 3433
-33.8215 713.301 3447
-25.5787 713.301 3447
-17.3359 713.301 3447
-9.09306 713.301 3447
-0.848516 711.852 3440
4.60455 444.287 2147
9.73867 444.287 2147
14.852 443.666 2144
19.979 443.666 2144
25.1059 443.666 2144
30.2329 443.666 2144
35.3598 443.666 2144
40.4868 443.666 2144
45.5712 443.252 2142
50.6934 443.252 2142
55.8155 443.252 2142
60.8524 442.631 2139
65.9674 442.631 2139
71.0824 442.631 2139
76.0905 442.011 2136
81.1983 442.011 2136
86.4273 442.631 2139
91.7563 443.666 2144
96.8833 443.666 2144
102.153 444.287 2147
107.687 445.942 2155
113.154 447.184 2161
118.322 447.184 2161
123.947 448.839 2169
129.312 449.46 2172
134.877 450.702 2178
140.086 450.702 2178
145.494 451.323 2181
151.47 453.599 2192
157.14 454.84 2198
162.396 454.84 2198
167.881 455.461 2201
175.19 460.842 2227
181.245 462.704 2236
186.592 462.704 2236
192.196 463.325 2239
198.08 464.566 2245
204.264 466.429 2254
209.654 466.429 2254
216.857 470.361 2273
222.879 471.602 2279
228.329 471.602 2279
233.778 471.602 2279
239.228 471.602 2279
243.39 469.119 2267
887.692 768.966 3716
896.578 768.966 3716
905.464 768.966 3716
908.198 763.793 3691
915.037 762.137 3683
919.831 758.826 3667
928.6 758.826 3667
930.978 753.653 3642
935.817 750.549 3627
944.49 750.549 3627
953.164 750.549 3627
959.715 748.893 3619
966.229 747.238 3611
974.864 747.238 3611
983.499 747.238 3611
987.738 743.927 3595
994.394 742.478 3588
996.545 737.719 3565
1005.07 737.719 3565
1011.32 736.063 3557
1017.53 734.408 3549
1026.02 734.408 3549
1032.47 732.959 3542
1040.94 732.959 3542
1047.04 731.304 3534
1051.31 728.407 3520
1059.72 728.407 3520
1068.14 728.407 3520
1074.11 726.751 3512
1077.89 723.647 3497
1079.72 719.302 3476
1088.04 719.302 3476
1093.83 717.646 3468
1102.12 717.646 3468
1110.41 717.646 3468
1118.7 717.646 3468
1127 717.646 3468
1135.29 717.646 3468
1148.53 720.75 3483
1159.18 722.199 3490
1167.53 722.199 3490
1175.88 722.199 3490
1186.6 723.647 3497
1194.96 723.647 3497
1203.32 723.647 3497
1211.68 723.647 3497
1228.07 728.407 3520
1238.95 729.855 3527
1255.16 734.408 3549
1263.65 734.408 3549
1275 736.063 3557
1294.69 742.478 3588
1311.63 747.238 3611
1320.26 747.238 3611
1331.84 748.893 3619
1346.42 752.204 3635
1363.69 756.964 3658
1372.44 756.964 3658
1393.64 763.793 3691
1402.47 763.793 3691
1411.3 763.793 3691
1420.12 763.793 3691
1425.85 762.137 3683
1421.81 755.308 3650
1430.53 755.308 3650
1430.19 750.549 3627
1432.52 747.238 3611
1434.77 743.927 3595
1431.32 737.719 3565
1439.84 737.719 3565
1430.09 728.407 3520
1423.38 720.75 3483
1408.28 708.955 3426
1416.48 708.955 3426
1407.2 700.264 3384
1398.15 691.78 3343
1395.21 686.399 3317
1403.14 686.399 3317
1394.48 678.329 3278
1396.76 675.639 3265
1398.97 672.949 3252
1404.15 671.707 3246
1411.91 671.707 3246
1416.61 670.259 3239
1421.72 669.017 3233
1429.45 669.017 3233
1437.18 669.017 3233
1444.92 669.017 3233
1452.65 669.017 3233
1460.38 669.017 3233
1468.11 669.017 3233
1475.84 669.017 3233
1486.32 670.259 3239
1494.07 670.259 3239
1501.81 670.259 3239
1509.56 670.259 3239
1517.31 670.259 3239
1522.23 669.017 3233
1527.12 667.775 3227
1534.83 667.775 3227
1539.68 666.534 3221
1538.26 662.602 3202
1540.12 660.119 3190
1547.75 660.119 3190
1540.75 653.911 3160
1545.37 652.669 3154
1544.05 648.944 3136
1551.55 648.944 3136
1544.63 642.943 3107
1540.57 638.184 3084
1525.36 628.872 3039
1521.53 624.319 3017
1528.74 624.319 3017
1522.21 618.732 2990
1499.7 606.73 2932
1499 603.626 2917
1505.97 603.626 2917
1499.46 598.246 2891
1493.35 593.072 2866
1495.49 591.21 2857
1497.07 589.141 2847
1503.87 589.141 2847
1508.03 588.106 2842
1512.16 587.071 2837
1516.27 586.036 2832
1523.04 586.036 2832
1524.95 584.174 2823
1526.28 582.105 2813
1530.82 581.277 2809
1537.54 581.277 2809
1538.76 579.208 2799
1542.69 578.173 2794
1547.15 577.345 2790
1553.83 577.345 2790
1560.5 577.345 2790
1559.31 574.448 2776
1565.94 574.448 2776
1577.68 576.311 2785
1592.3 579.208 2799
1599 579.208 2799
1608.56 580.242 2804
1629.09 585.209 2828
1657.83 593.072 2866
1664.69 593.072 2866
1671.54 593.072 2866
1962.16 684.951 3310
2014.12 700.264 3384
2022.21 700.264 3384
2085.5 719.302 3476
2106.46 723.647 3497
2119.66 725.303 3505
2128.04 725.303 3505
2136.42 725.303 3505
2144.8 725.303 3505
2153.19 725.303 3505
2161.57 725.303 3505
2169.95 725.303 3505
2169.01 722.199 3490
2168.62 719.302 3476
2176.93 719.302 3476
2185.24 719.302 3476
2193.56 719.302 3476
2196.8 717.646 3468
2205.09 717.646 3468
2204.45 714.749 3454
2190.29 707.507 3419
2198.46 707.507 3419
2206.64 707.507 3419
2187.61 698.815 3377
2169.68 690.538 3337
2105.87 667.775 3227
2113.59 667.775 3227
2121.31 667.775 3227
2125.06 666.534 3221
2112.24 660.119 3190
2091.96 651.428 3148
2099.49 651.428 3148
2098.98 648.944 3136
2098.42 646.461 3124
2105.89 646.461 3124
2117.42 647.703 3130
2128.98 648.944 3136
2136.48 648.944 3136
2143.98 648.944 3136
2151.48 648.944 3136
2158.97 648.944 3136
2162.33 647.703 3130
2141.39 639.218 3089
2145.3 638.184 3084
2152.67 638.184 3084
2136.24 631.148 3050
2151.26 633.424 3061
2158.58 633.424 3061
2165.9 633.424 3061
2173.22 633.424 3061
2129.96 618.732 2990
2137.11 618.732 2990
2144.26 618.732 2990
2151.41 618.732 2990
2158.56 618.732 2990
2146.15 613.145 2963
2153.24 613.145 2963
2160.33 613.145 2963
2167.41 613.145 2963
2159.08 608.799 2942
2151.39 604.661 2922
2158.38 604.661 2922
2146.1 599.28 2896
2153.03 599.28 2896
2179.34 604.661 2922
2217.01 613.145 2963
2251.87 620.801 3000
2259.04 620.801 3000
2282.83 625.354 3022
2319.61 633.424 3061
2397.63 652.669 3154
2405.17 652.669 3154
2412.72 652.669 3154
-2473.06 714.232 3412
-2469.95 715.697 3419
-2461.78 715.697 3419
-2453.6 715.697 3419
-2445.43 715.697 3419
-2457.21 721.558 3447
-2448.97 721.558 3447
-2440.73 721.558 3447
-2437.42 723.023 3454
-2469.95 735.164 3512
-2461.56 735.164 3512
-2453.16 735.164 3512
-2439.89 733.699 3505
-2431.5 733.699 3505
-2423.12 733.699 3505
-2414.74 733.699 3505
-2406.36 733.699 3505
-2413.03 738.304 3527
-2404.6 738.304 3527
-2396.16 738.304 3527
-2387.73 738.304 3527
-2369.17 735.164 3512
-2375.56 739.77 3534
-2367.11 739.77 3534
-2374.01 744.584 3557
-2365.51 744.584 3557
-2362.3 746.259 3565
-2353.78 746.259 3565
-2349.86 747.724 3572
-2341.32 747.724 3572
-2332.77 747.724 3572
-2324.23 747.724 3572
-2315.69 747.724 3572
-2302.63 746.259 3565
-2294.1 746.259 3565
-2285.58 746.259 3565
-2277.05 746.259 3565
-2263.44 744.584 3557
-2254.93 744.584 3557
-2246.43 744.584 3557
-2232.89 742.91 3549
-2220.01 741.444 3542
-2215.91 742.91 3549
-2207.43 742.91 3549
-2198.94 742.91 3549
-2190.45 742.91 3549
-2181.97 742.91 3549
-2173.48 742.91 3549
-2160.72 741.444 3542
-2152.25 741.444 3542
-2130.47 736.839 3520
-2122.05 736.839 3520
-2108.83 735.164 3512
-2096.24 733.699 3505
-2083.1 732.025 3497
-2074.73 732.025 3497
-2066.37 732.025 3497
-2053.89 730.559 3490
-2041.44 729.094 3483
-2033.11 729.094 3483
-1999.79 720.093 3440
-1987.51 718.628 3433
-1979.3 718.628 3433
-1971.09 718.628 3433
-1954.88 715.697 3419
-1938.73 712.766 3405
-1926.62 711.301 3398
-1918.49 711.301 3398
-1902.49 708.37 3384
-1882.65 703.974 3363
-1871.26 702.718 3357
-1866.56 703.974 3363
-1858.52 703.974 3363
-1854.33 705.44 3370
-1850.11 706.905 3377
-1845.85 708.37 3384
-1837.76 708.37 3384
-1829.67 708.37 3384
-1825.34 709.836 3391
-1824.73 712.766 3405
-1816.59 712.766 3405
-1815.89 715.697 3419
-1818.81 720.093 3440
-1821.64 724.489 3461
-1813.36 724.489 3461
-1808.74 725.954 3468
-1808.23 729.094 3483
-1811.27 733.699 3505
-1802.89 733.699 3505
-1802.19 736.839 3520
-1800.91 739.77 3534
-1800.06 742.91 3549
-1791.58 742.91 3549
-1787.11 744.584 3557
-1778.6 744.584 3557
-1770.1 744.584 3557
-1761.59 744.584 3557
-1753.09 744.584 3557
-1744.58 744.584 3557
-1736.07 744.584 3557
-1734.85 747.724 3572
-1726.31 747.724 3572
-1721.62 749.399 3580
-1713.06 749.399 3580
-1704.5 749.399 3580
-1695.93 749.399 3580
-1698.21 754.213 3603
-1689.6 754.213 3603
-1688.45 757.563 3619
-1679.79 757.563 3619
-1685.45 764.052 3650
-1688.21 769.285 3675
-1690.39 774.309 3699
-1681.54 774.309 3699
-1672.7 774.309 3699
-1667.45 775.984 3707
-1669.77 781.217 3732
-1660.85 781.217 3732
-1655.47 782.892 3740
-1646.52 782.892 3740
-1637.58 782.892 3740
-1628.63 782.892 3740
-1605.4 775.984 3707
-1589.64 772.634 3691
-1580.82 772.634 3691
-1568.58 770.96 3683
-1532.67 757.563 3619
-1524.02 757.563 3619
-1515.36 757.563 3619
-1493.8 751.073 3588
-1475.7 746.259 3565
-1457.71 741.444 3542
-1449.24 741.444 3542
-1437.52 739.77 3534
-1426.24 738.304 3527
-1414.99 736.839 3520
-1406.57 736.839 3520
-1398.15 736.839 3520
-1389.74 736.839 3520
-1381.32 736.839 3520
-1372.9 736.839 3520
-1364.48 736.839 3520
-1361.46 739.77 3534
-1358.75 742.91 3549
-1356.35 746.259 3565
-1347.83 746.259 3565
-1344.94 749.399 3580
-1344.96 754.213 3603
-1342.28 757.563 3619
-1333.63 757.563 3619
-1330.83 760.912 3635
-1322.14 760.912 3635
-1318.87 764.052 3650
-1310.14 764.052 3650
-1301.41 764.052 3650
-1295.52 765.727 3658
-1286.77 765.727 3658
-1278.02 765.727 3658
-1269.27 765.727 3658
-1257.77 764.052 3650
-1243.91 760.912 3635
-1235.22 760.912 3635
-1226.52 760.912 3635
-1220.18 762.377 3642
-1211.47 762.377 3642
-1205.4 764.052 3650
-1196.67 764.052 3650
-1187.94 764.052 3650
-1184.71 767.611 3667
-1175.94 767.611 3667
-1167.17 767.611 3667
-1160.93 769.285 3675
-1152.14 769.285 3675
-1145.84 770.96 3683
-1137.03 770.96 3683
-1128.23 770.96 3683
-1119.42 770.96 3683
-1110.61 770.96 3683
-1101.8 770.96 3683
-1095.37 772.634 3691
-1100.97 782.892 3740
-1096.99 786.45 3757
-1088.01 786.45 3757
-1081.61 788.334 3766
-1072.6 788.334 3766
-1063.6 788.334 3766
-1054.59 788.334 3766
-1045.58 788.334 3766
-1034.1 786.45 3757
-1025.12 786.45 3757
-1016.13 786.45 3757
-1007.15 786.45 3757
-996.039 784.776 3749
-989.181 786.45 3757
-980.196 786.45 3757
-971.212 786.45 3757
-964.533 788.334 3766
-957.557 790.009 3774
-948.533 790.009 3774
-939.508 790.009 3774
-930.483 790.009 3774
-921.458 790.009 3774
-912.433 790.009 3774
-899.339 786.45 3757
-888.459 784.776 3749
-879.494 784.776 3749
-872.387 786.45 3757
-863.403 786.45 3757
-856.465 788.334 3766
-849.26 790.009 3774
-840.235 790.009 3774
-831.21 790.009 3774
-820.443 788.334 3766
-809.498 786.45 3757
-800.514 786.45 3757
-787.948 782.892 3740
-779.005 782.892 3740
-770.061 782.892 3740
-761.118 782.892 3740
-752.174 782.892 3740
-743.231 782.892 3740
-732.717 781.217 3732
-723.792 781.217 3732
-713.336 779.542 3724
-702.917 777.868 3716
-689.362 772.634 3691
-680.536 772.634 3691
-670.253 770.96 3683
-660.009 769.285 3675
-644.133 760.912 3635
-635.441 760.912 3635
-621.231 754.213 3603
-612.615 754.213 3603
-601.485 751.073 3588
-592.905 751.073 3588
-584.325 751.073 3588
-575.745 751.073 3588
-567.165 751.073 3588
-558.585 751.073 3588
-550.005 751.073 3588
-541.425 751.073 3588
-530.469 747.724 3572
-521.927 747.724 3572
-513.385 747.724 3572
-502.723 744.584 3557
-495.329 746.259 3565
-487.76 747.724 3572
-479.218 747.724 3572
-470.676 747.724 3572
-463.17 749.399 3580
-454.609 749.399 3580
-447.045 751.073 3588
-438.465 751.073 3588
-429.885 751.073 3588
-421.305 751.073 3588
-412.725 751.073 3588
-404.145 751.073 3588
-395.565 751.073 3588
-386.985 751.073 3588
-378.405 751.073 3588
-369.825 751.073 3588
-361.245 751.073 3588
-351.879 749.399 3580
-343.318 749.399 3580
-334.757 749.399 3580
-326.196 749.399 3580
-317.635 749.399 3580
-309.765 751.073 3588
-301.185 751.073 3588
-292.605 751.073 3588
-284.025 751.073 3588
-275.445 751.073 3588
-266.865 751.073 3588
-258.285 751.073 3588
-249.705 751.073 3588
-240.587 749.399 3580
-232.026 749.399 3580
-222.966 747.724 3572
-213.524 744.584 3557
-204.557 742.91 3549
-196.07 742.91 3549
-187.584 742.91 3549
-178.34 739.77 3534
-169.889 739.77 3534
-161.438 739.77 3534
-152.987 739.77 3534
-144.25 738.304 3527
-135.546 736.839 3520
-127.129 736.839 3520
-117.464 729.094 3483
-108.916 727.629 3476
-99.7641 721.558 3447
-91.3354 720.093 3440
-83.1093 720.093 3440
-74.7309 718.628 3433
-66.2503 715.697 3419
-58.0744 715.697 3419
-50.0007 717.162 3426
-41.8081 717.162 3426
-33.6842 718.628 3433
-25.4748 718.628 3433
-17.2655 718.628 3433
-9.05613 718.628 3433
-0.846789 718.628 3433
4.60455 449.43 2147
9.73867 449.43 2147
14.852 448.802 2144
19.979 448.802 2144
25.1059 448.802 2144
30.2329 448.802 2144
35.3598 448.802 2144
40.4868 448.802 2144
45.5712 448.383 2142
50.6934 448.383 2142
55.8155 448.383 2142
60.8524 447.755 2139
65.9674 447.755 2139
71.0824 447.755 2139
76.0905 447.127 2136
81.1983 447.127 2136
86.3061 447.127 2136
91.6707 448.383 2142
96.7929 448.383 2142
102.01 448.802 2144
107.587 450.686 2153
112.997 451.733 2158
118.158 451.733 2158
123.832 453.617 2167
129.133 454.035 2169
134.692 455.291 2175
139.893 455.291 2175
145.494 456.547 2181
151.262 458.222 2189
156.926 459.478 2195
162.175 459.478 2195
167.881 460.734 2201
175.19 466.176 2227
181.245 468.06 2236
186.592 468.06 2236
192.196 468.688 2239
198.08 469.944 2245
204.264 471.828 2254
209.654 471.828 2254
216.857 475.805 2273
222.292 475.805 2273
227.727 475.805 2273
233.163 475.805 2273
238.598 475.805 2273
243.39 474.549 2267
889.603 779.542 3724
898.508 779.542 3724
907.413 779.542 3724
910.167 774.309 3699
915.037 770.96 3683
921.838 769.285 3675
930.626 769.285 3675
935.068 765.727 3658
937.881 760.912 3635
944.49 759.237 3627
953.164 759.237 3627
961.837 759.237 3627
968.369 757.563 3619
974.864 755.888 3611
983.499 755.888 3611
989.936 754.213 3603
996.334 752.539 3595
998.502 747.724 3572
1007.04 747.724 3572
1011.32 744.584 3557
1017.53 742.91 3549
1026.02 742.91 3549
1032.47 741.444 3542
1040.94 741.444 3542
1047.04 739.77 3534
1053.4 738.304 3527
1059.72 736.839 3520
1068.14 736.839 3520
1076.56 736.839 3520
