-1280.51 953.07 3148
-1272.98 953.07 3148
-1260.63 949.437 3136
-1250.73 947.62 3130
-1243.25 947.62 3130
-1233.39 945.804 3124
-1225.92 945.804 3124
-1218.45 945.804 3124
-1210.98 945.804 3124
-1203.51 945.804 3124
-1196.04 945.804 3124
-1179.82 938.841 3101
-1172.4 938.841 3101
-1162.73 937.024 3095
-1163.92 943.987 3118
-1176.49 960.336 3172
-1175.54 965.786 3190
-1167.91 965.786 3190
-1160.28 965.786 3190
-1152.65 965.786 3190
-1145.03 965.786 3190
-1135.26 963.969 3184
-1123.39 960.336 3172
-1109.48 954.887 3154
-1101.93 954.887 3154
-1090.23 951.254 3142
-1078.58 947.62 3130
-1064.94 942.171 3112
-1057.49 942.171 3112
-1040.6 933.694 3084
-1031.22 931.877 3078
-1021.86 930.061 3072
-1014.52 930.061 3072
-1007.17 930.061 3072
-999.825 930.061 3072
-988.925 926.73 3061
-979.681 924.914 3055
-972.376 924.914 3055
-958.121 918.253 3033
-947.419 914.923 3022
-936.77 911.593 3011
-929.57 911.593 3011
-917.469 906.749 2995
-913.65 910.079 3006
-907.97 911.593 3011
-900.769 911.593 3011
-893.569 911.593 3011
-889.607 914.923 3022
-887.344 920.07 3039
-886.448 926.73 3061
-879.128 926.73 3061
-874.942 930.061 3072
-869.29 931.877 3078
-866.69 937.024 3095
-859.289 937.024 3095
-853.539 938.841 3101
-854.037 947.62 3130
-848.175 949.437 3136
-840.676 949.437 3136
-833.177 949.437 3136
-825.677 949.437 3136
-818.178 949.437 3136
-810.679 949.437 3136
-804.717 951.254 3142
-800.248 954.887 3154
-792.706 954.887 3154
-785.164 954.887 3154
-780.58 958.52 3166
-773.009 958.52 3166
-765.438 958.52 3166
-756.431 956.703 3160
-748.875 956.703 3160
-741.318 956.703 3160
-733.762 956.703 3160
-682.83 928.547 3067
-692.015 951.254 3142
-684.501 951.254 3142
-676.988 951.254 3142
-669.474 951.254 3142
-661.961 951.254 3142
-650.698 945.804 3124
-644.463 947.62 3130
-636.978 947.62 3130
-629.493 947.62 3130
-622.009 947.62 3130
-612.168 943.987 3118
-603.548 942.171 3112
-600.704 949.437 3136
-593.205 949.437 3136
-587.947 953.07 3148
-584.844 960.336 3172
-577.259 960.336 3172
-569.673 960.336 3172
-559.962 956.703 3160
-553.454 958.52 3166
-550.021 965.786 3190
-542.393 965.786 3190
-536.776 969.419 3202
-530.111 971.235 3208
-524.557 975.171 3221
-516.854 975.171 3221
-510.1 976.988 3227
-509.234 990.309 3271
-501.412 990.309 3271
-493.59 990.309 3271
-487.698 994.245 3284
-479.845 994.245 3284
-471.992 994.245 3284
-459.617 984.556 3252
-451.007 982.74 3246
-443.244 982.74 3246
-435.482 982.74 3246
-426.007 978.804 3233
-415.818 973.052 3214
-405.084 965.786 3190
-397.456 965.786 3190
-389.828 965.786 3190
-379.324 958.52 3166
-370.344 954.887 3154
-360.732 949.437 3136
-353.232 949.437 3136
-345.072 947.62 3130
-335.646 942.171 3112
-327.044 938.841 3101
-319.628 938.841 3101
-309.897 931.877 3078
-301.947 930.061 3072
-294.122 928.547 3067
-288.377 933.694 3084
-281.002 933.694 3084
-274.603 937.024 3095
-267.202 937.024 3095
-262.236 945.804 3124
-254.765 945.804 3124
-247.295 945.804 3124
-240.746 949.437 3136
-235.031 956.703 3160
-227.475 956.703 3160
-221.589 963.969 3184
-214.378 965.786 3190
-208.305 973.052 3214
-201.057 975.171 3221
-193.354 975.171 3221
-186.343 978.804 3233
-178.612 978.804 3233
-171.198 980.621 3239
-163.453 980.621 3239
-155.708 980.621 3239
-147.962 980.621 3239
-140.217 980.621 3239
-132.226 978.804 3233
-124.495 978.804 3233
-116.764 978.804 3233
-109.471 982.74 3246
-101.709 982.74 3246
-94.6703 990.309 3271
-88.0696 1004.24 3317
-80.2827 1006.05 3323
-72.3364 1006.05 3323
-64.3901 1006.05 3323
-22.8322 704.509 2327
-17.3419 707.536 2337
-11.7534 707.536 2337
-6.17284 708.445 2340
-0.577188 708.445 2340
5.01846 708.445 2340
10.6141 708.445 2340
16.2305 709.353 2343
21.8334 709.353 2343
27.4362 709.353 2343
32.9967 708.445 2340
38.5429 707.536 2337
44.0558 706.325 2333
49.6347 706.325 2333
55.2136 706.325 2333
60.8968 707.536 2337
66.4853 707.536 2337
72.0737 707.536 2337
77.6622 707.536 2337
83.1082 706.325 2333
88.459 704.509 2327
94.0236 704.509 2327
99.417 703.298 2323
104.836 702.39 2320
109.766 698.454 2307
115.282 698.454 2307
120.799 698.454 2307
125.823 695.729 2298
130.975 693.912 2292
136.218 692.701 2288
141.689 692.701 2288
146.968 691.793 2285
151.431 687.252 2270
156.652 686.344 2267
162.073 686.344 2267
167.494 686.344 2267
172.153 683.316 2257
177.314 682.408 2254
182.704 682.408 2254
187.844 681.5 2251
192.969 680.591 2248
198.08 679.683 2245
203.448 679.683 2245
208.817 679.683 2245
214.471 680.591 2248
220.434 682.408 2254
226.525 684.527 2261
232.24 685.435 2264
237.654 685.435 2264
243.39 686.344 2267
248.811 686.344 2267
255.241 689.068 2276
260.684 689.068 2276
266.126 689.068 2276
271.569 689.068 2276
277.012 689.068 2276
482.945 942.171 3112
490.387 942.171 3112
500.708 947.62 3130
508.193 947.62 3130
516.666 949.437 3136
524.165 949.437 3136
531.664 949.437 3136
539.164 949.437 3136
546.663 949.437 3136
550.981 943.987 3118
556.467 940.657 3107
560.63 935.208 3089
568.017 935.208 3089
574.472 933.694 3084
581.847 933.694 3084
589.222 933.694 3084
596.596 933.694 3084
603.971 933.694 3084
611.346 933.694 3084
700.103 943.987 3118
707.559 943.987 3118
721.894 953.07 3148
730.812 954.887 3154
738.355 954.887 3154
745.897 954.887 3154
753.439 954.887 3154
760.981 954.887 3154
768.523 954.887 3154
816.631 949.437 3136
825.707 951.254 3142
842.767 962.153 3178
850.367 962.153 3178
857.967 962.153 3178
865.566 962.153 3178
873.166 962.153 3178
877.439 958.52 3166
886.688 960.336 3172
897.656 963.969 3184
905.27 963.969 3184
912.884 963.969 3184
917.028 960.336 3172
917.618 953.07 3148
932.199 960.336 3172
939.784 960.336 3172
952.745 965.786 3190
960.374 965.786 3190
971.643 969.419 3202
979.3 969.419 3202
988.806 971.235 3208
1006.11 980.621 3239
1023.87 990.309 3271
1037.68 996.061 3290
1045.55 996.061 3290
1053.42 996.061 3290
1061.29 996.061 3290
1069.15 996.061 3290
1075.06 994.245 3284
1082.91 994.245 3284
1090.76 994.245 3284
1098.62 994.245 3284
1104.45 992.428 3278
1112.29 992.428 3278
1120.12 992.428 3278
1127.96 992.428 3278
1133.38 990.309 3271
1141.2 990.309 3271
1140.24 982.74 3246
1148 982.74 3246
1146.86 975.171 3221
1152.05 973.052 3214
1159.74 973.052 3214
1167.43 973.052 3214
1166.34 965.786 3190
1165.13 958.52 3166
1154.92 943.987 3118
1158.28 940.657 3107
1165.71 940.657 3107
1166.34 935.208 3089
1187.03 945.804 3124
1226.62 971.235 3208
1236.6 973.052 3214
1244.28 973.052 3214
1257.03 976.988 3227
1267.1 978.804 3233
1282.32 984.556 3252
1290.1 984.556 3252
1323.82 1004.24 3317
1339.78 1010.29 3337
1347.76 1010.29 3337
1355.74 1010.29 3337
1355.55 1004.24 3317
1360.6 1002.12 3310
1368.52 1002.12 3310
1368.11 996.061 3290
1373.47 994.245 3284
1378.8 992.428 3278
1386.64 992.428 3278
1394.48 992.428 3278
1399.32 990.309 3271
1401.55 986.373 3258
1406.75 984.556 3252
1414.52 984.556 3252
1422.3 984.556 3252
1430.08 984.556 3252
1437.85 984.556 3252
1445.63 984.556 3252
1453.41 984.556 3252
1461.18 984.556 3252
1466.25 982.74 3246
1474.01 982.74 3246
1473.1 976.988 3227
1480.82 976.988 3227
1488.53 976.988 3227
1496.25 976.988 3227
1506.76 978.804 3233
1514.49 978.804 3233
1522.23 978.804 3233
1529.96 978.804 3233
1537.69 978.804 3233
1545.42 978.804 3233
1553.15 978.804 3233
1557.98 976.988 3227
1565.7 976.988 3227
1573.42 976.988 3227
1578.19 975.171 3221
1582.45 973.052 3214
1590.14 973.052 3214
1591.86 969.419 3202
1599.51 969.419 3202
1607.17 969.419 3202
1617.85 971.235 3208
1625.52 971.235 3208
1633.2 971.235 3208
1637.8 969.419 3202
1645.45 969.419 3202
1653.11 969.419 3202
1651.43 963.969 3184
1649.67 958.52 3166
1654.1 956.703 3160
1661.65 956.703 3160
1647.03 943.987 3118
1642.28 937.024 3095
1608.1 913.409 3017
1615.32 913.409 3017
1610.7 906.749 2995
1617.86 906.749 2995
1625.02 906.749 2995
1632.19 906.749 2995
1639.35 906.749 2995
1646.51 906.749 2995
1647.6 903.418 2984
1649.19 900.391 2974
1656.3 900.391 2974
1660.06 898.574 2968
1646.93 887.675 2932
1645.48 883.134 2917
1655.29 884.648 2922
1662.28 884.648 2922
1669.26 884.648 2922
1676.25 884.648 2922
2119.04 931.877 3078
2126.41 931.877 3078
2137.93 933.694 3084
2148.78 935.208 3089
2180.6 945.804 3124
2188.07 945.804 3124
2203.97 949.437 3136
2211.47 949.437 3136
2218.97 949.437 3136
2226.47 949.437 3136
2242.51 953.07 3148
2250.04 953.07 3148
2257.57 953.07 3148
2265.1 953.07 3148
2272.63 953.07 3148
2271.46 949.437 3136
2278.96 949.437 3136
2290.83 951.254 3142
2298.35 951.254 3142
2310.26 953.07 3148
2317.79 953.07 3148
2325.32 953.07 3148
2332.85 953.07 3148
2362.68 962.153 3178
2374.75 963.969 3184
2395.84 969.419 3202
2403.49 969.419 3202
2411.15 969.419 3202
2418.81 969.419 3202
2426.46 969.419 3202
2425 965.786 3190
2428.05 963.969 3184
2426.49 960.336 3172
-1882.09 1000.28 3278
-1874.26 1000.28 3278
-1866.42 1000.28 3278
-1858.58 1000.28 3278
-1850.74 1000.28 3278
-1842.9 1000.28 3278
-1789.16 975.258 3196
-1754.76 960.611 3148
-1472.03 934.063 3061
-1480.98 944.438 3095
-1476.44 946.269 3101
-1469.02 946.269 3101
-1461.6 946.269 3101
-1451.38 944.438 3095
-1443.97 944.438 3095
-1433.79 942.607 3089
-1426.4 942.607 3089
-1419.02 942.607 3089
-1414.37 944.438 3095
-1414.7 949.626 3112
-1407.26 949.626 3112
-1407.91 955.118 3130
-1403.11 956.949 3136
-1398.28 958.78 3142
-1390.77 958.78 3142
-1383.25 958.78 3142
-1373.11 956.949 3136
-1383.9 969.766 3178
-1376.3 969.766 3178
-1368.7 969.766 3178
-1355.97 966.104 3166
-1348.4 966.104 3166
-1335.74 962.442 3154
-1315.57 953.287 3124
-1303.07 949.626 3112
-1295.63 949.626 3112
-1276.6 941.082 3084
-1285.68 953.287 3124
-1285.58 958.78 3142
-1278.07 958.78 3142
-1270.55 958.78 3142
-1255.8 953.287 3124
-1241.54 948.1 3107
-1234.11 948.1 3107
-1226.68 948.1 3107
-1223.57 951.457 3118
-1216.11 951.457 3118
-1208.65 951.457 3118
-1201.2 951.457 3118
-1193.74 951.457 3118
-1179.82 946.269 3101
-1172.4 946.269 3101
-1160.48 942.607 3089
-1163.92 951.457 3118
-1176.49 967.935 3172
-1175.54 973.427 3190
-1167.91 973.427 3190
-1160.28 973.427 3190
-1152.65 973.427 3190
-1145.03 973.427 3190
-1135.26 971.596 3184
-1117.02 962.442 3154
-1105.26 958.78 3142
-1097.74 958.78 3142
-1086.06 955.118 3130
-1072.38 949.626 3112
-1059.12 944.438 3095
-1045.94 939.251 3078
-1038.58 939.251 3078
-1023.51 932.232 3055
-1012.55 928.876 3044
-1005.27 928.876 3044
-997.991 928.876 3044
-990.712 928.876 3044
-983.433 928.876 3044
-974.55 927.35 3039
-967.283 927.35 3039
-951.171 918.806 3011
-940.522 915.449 3000
-923.392 905.684 2968
-916.295 905.684 2968
-909.198 905.684 2968
-902.1 905.684 2968
-895.003 905.684 2968
-889.701 907.515 2974
-882.589 907.515 2974
-881.659 913.923 2995
-882.381 922.162 3022
-880.077 927.35 3039
-872.81 927.35 3039
-871.809 934.063 3061
-867.596 937.42 3072
-860.249 937.42 3072
-852.903 937.42 3072
-851.888 944.438 3095
-846.124 946.269 3101
-848.175 956.949 3136
-840.676 956.949 3136
-833.177 956.949 3136
-825.677 956.949 3136
-818.178 956.949 3136
-810.679 956.949 3136
-804.717 958.78 3142
-800.248 962.442 3154
-792.706 962.442 3154
-785.164 962.442 3154
-780.58 966.104 3166
-773.009 966.104 3166
-765.438 966.104 3166
-756.431 964.273 3160
-748.875 964.273 3160
-741.318 964.273 3160
-733.762 964.273 3160
-695.87 923.993 3028
-675.087 915.449 3000
-682.83 935.894 3067
-692.015 958.78 3142
-684.501 958.78 3142
-676.988 958.78 3142
-669.474 958.78 3142
-661.961 958.78 3142
-650.698 953.287 3124
-644.463 955.118 3130
-636.978 955.118 3130
-629.493 955.118 3130
-622.009 955.118 3130
-612.168 951.457 3118
-603.548 949.626 3112
-600.704 956.949 3136
-593.205 956.949 3136
-587.947 960.611 3148
-584.844 967.935 3172
-577.259 967.935 3172
-569.673 967.935 3172
-559.962 964.273 3160
-553.454 966.104 3166
-550.021 973.427 3190
-542.393 973.427 3190
-536.776 977.089 3202
-530.111 978.92 3208
-524.557 982.887 3221
-516.854 982.887 3221
-510.1 984.718 3227
-509.234 998.145 3271
-501.412 998.145 3271
-493.59 998.145 3271
-487.698 1002.11 3284
-479.845 1002.11 3284
-471.992 1002.11 3284
-459.617 992.347 3252
-451.007 990.516 3246
-443.244 990.516 3246
-435.482 990.516 3246
-426.007 986.549 3233
-415.818 980.751 3214
-405.084 973.427 3190
-397.456 973.427 3190
-389.828 973.427 3190
-379.324 966.104 3166
-370.344 962.442 3154
-360.732 956.949 3136
-353.232 956.949 3136
-345.072 955.118 3130
-335.646 949.626 3112
-327.044 946.269 3101
-319.628 946.269 3101
-309.897 939.251 3078
-301.947 937.42 3072
-294.122 935.894 3067
-288.377 941.082 3084
-281.002 941.082 3084
-274.603 944.438 3095
-267.202 944.438 3095
-262.236 953.287 3124
-254.765 953.287 3124
-247.295 953.287 3124
-240.746 956.949 3136
-235.031 964.273 3160
-227.475 964.273 3160
-221.589 971.596 3184
-214.378 973.427 3190
-208.305 980.751 3214
-201.057 982.887 3221
-193.354 982.887 3221
-186.343 986.549 3233
-178.612 986.549 3233
-171.198 988.38 3239
-163.453 988.38 3239
-155.708 988.38 3239
-147.962 988.38 3239
-140.217 988.38 3239
-132.226 986.549 3233
-124.495 986.549 3233
-116.764 986.549 3233
-109.471 990.516 3246
-101.709 990.516 3246
-94.6703 998.145 3271
-88.0696 1012.18 3317
-80.2827 1014.01 3323
-72.3364 1014.01 3323
-64.3901 1014.01 3323
-22.8322 710.083 2327
-17.3419 713.135 2337
-11.7534 713.135 2337
-6.17284 714.05 2340
-0.577188 714.05 2340
5.01846 714.05 2340
10.6141 714.05 2340
16.2305 714.966 2343
21.8334 714.966 2343
27.4362 714.966 2343
32.9967 714.05 2340
38.5429 713.135 2337
44.1314 713.135 2337
49.7198 713.135 2337
55.3083 713.135 2337
60.8968 713.135 2337
66.4853 713.135 2337
72.0737 713.135 2337
77.6622 713.135 2337
83.2507 713.135 2337
88.5731 710.999 2330
94.1448 710.999 2330
99.5881 710.083 2327
104.836 707.947 2320
109.766 703.98 2307
115.282 703.98 2307
120.799 703.98 2307
125.823 701.234 2298
130.975 699.403 2292
136.218 698.182 2288
141.689 698.182 2288
146.968 697.267 2285
151.431 692.69 2270
156.652 691.774 2267
162.073 691.774 2267
167.494 691.774 2267
172.153 688.723 2257
177.314 687.807 2254
182.704 687.807 2254
188.094 687.807 2254
193.484 687.807 2254
198.08 685.061 2245
203.448 685.061 2245
208.817 685.061 2245
214.471 685.976 2248
220.727 688.723 2257
226.525 689.943 2261
232.24 690.859 2264
237.654 690.859 2264
243.712 692.69 2270
249.469 693.605 2273
255.577 695.436 2279
261.027 695.436 2279
266.477 695.436 2279
271.927 695.436 2279
277.377 695.436 2279
482.945 949.626 3112
490.387 949.626 3112
500.708 955.118 3130
508.193 955.118 3130
516.666 956.949 3136
524.165 956.949 3136
531.664 956.949 3136
539.164 956.949 3136
546.663 956.949 3136
552.041 953.287 3124
556.467 948.1 3107
561.719 944.438 3095
569.12 944.438 3095
574.472 941.082 3084
581.847 941.082 3084
591.323 944.438 3095
598.724 944.438 3095
606.125 944.438 3095
613.526 944.438 3095
693.591 942.607 3089
700.978 942.607 3089
715.015 951.457 3118
729.422 960.611 3148
736.95 960.611 3148
744.478 960.611 3148
753.439 962.442 3154
760.981 962.442 3154
768.523 962.442 3154
891.622 956.949 3136
899.122 956.949 3136
910.09 960.611 3148
922.865 966.104 3166
935.725 971.596 3184
943.339 971.596 3184
956.329 977.089 3202
963.986 977.089 3202
973.464 978.92 3208
981.135 978.92 3208
992.813 982.887 3221
1014.18 996.314 3265
1027.94 1002.11 3284
1037.68 1003.94 3290
1045.55 1003.94 3290
1053.42 1003.94 3290
1061.29 1003.94 3290
1069.15 1003.94 3290
1070.8 998.145 3271
1074.34 994.178 3258
1082.13 994.178 3258
1089.92 994.178 3258
1093.67 990.516 3246
1101.43 990.516 3246
1109.19 990.516 3246
1116.95 990.516 3246
1124.71 990.516 3246
1132.48 990.516 3246
1131.46 982.887 3221
1139.16 982.887 3221
1142.23 978.92 3208
1143.45 973.427 3190
1148.91 971.596 3184
1156.53 971.596 3184
1157.56 966.104 3166
1147.47 951.457 3118
1144.18 942.607 3089
1147.47 939.251 3078
1154.83 939.251 3078
1158.04 935.894 3067
1173.73 942.607 3089
1217.44 971.596 3184
1234.29 978.92 3208
1241.96 978.92 3208
1249.63 978.92 3208
1264.75 984.718 3227
1282.32 992.347 3252
1290.1 992.347 3252
1315.84 1006.08 3297
1328.94 1010.05 3310
1336.85 1010.05 3310
1344.77 1010.05 3310
1352.69 1010.05 3310
1360.6 1010.05 3310
1368.52 1010.05 3310
1368.11 1003.94 3290
1370.96 1000.28 3278
1378.8 1000.28 3278
1386.64 1000.28 3278
1394.48 1000.28 3278
1399.32 998.145 3271
1401.55 994.178 3258
1406.75 992.347 3252
1414.52 992.347 3252
1422.3 992.347 3252
1430.08 992.347 3252
1437.85 992.347 3252
1445.63 992.347 3252
1453.41 992.347 3252
1458.49 990.516 3246
1463.09 988.38 3239
1470.83 988.38 3239
1473.1 984.718 3227
1480.82 984.718 3227
1485.77 982.887 3221
1493.47 982.887 3221
1501.17 982.887 3221
1508.87 982.887 3221
1522.23 986.549 3233
1529.96 986.549 3233
1537.69 986.549 3233
1545.42 986.549 3233
1547.39 982.887 3221
1555.09 982.887 3221
1562.79 982.887 3221
1570.49 982.887 3221
1578.19 982.887 3221
1579.5 978.92 3208
1587.17 978.92 3208
1588.87 975.258 3196
1599.51 977.089 3202
1610.18 978.92 3208
1620.88 980.751 3214
1628.56 980.751 3214
1636.25 980.751 3214
1640.87 978.92 3208
1645.45 977.089 3202
1653.11 977.089 3202
1660.77 977.089 3202
1659.05 971.596 3184
1654.1 964.273 3160
1661.65 964.273 3160
1650.19 953.287 3124
1648.64 948.1 3107
1619.83 927.35 3039
1627.1 927.35 3039
1634.36 927.35 3039
1641.63 927.35 3039
1654.87 930.706 3050
1662.16 930.706 3050
1669.45 930.706 3050
1670.7 927.35 3039
1659.75 917.28 3006
1666.93 917.28 3006
1674.12 917.28 3006
1672.36 912.397 2990
1667.15 905.684 2968
1659.58 897.75 2942
1669.45 899.276 2947
1676.5 899.276 2947
1683.55 899.276 2947
1690.59 899.276 2947
1697.64 899.276 2947
2129.61 937.42 3072
2141.13 939.251 3078
2180.6 953.287 3124
2188.07 953.287 3124
2195.54 953.287 3124
2203.01 953.287 3124
2210.48 953.287 3124
2217.95 953.287 3124
2242.51 960.611 3148
2250.04 960.611 3148
2257.57 960.611 3148
2265.1 960.611 3148
2272.63 960.611 3148
2275.81 958.78 3142
2278.96 956.949 3136
2290.83 958.78 3142
2298.35 958.78 3142
2310.26 960.611 3148
2326.63 964.273 3160
2334.18 964.273 3160
2341.74 964.273 3160
2362.68 969.766 3178
2374.75 971.596 3184
2395.84 977.089 3202
2403.49 977.089 3202
2411.15 977.089 3202
2418.81 977.089 3202
2426.46 977.089 3202
2425 973.427 3190
2428.05 971.596 3184
2426.49 967.935 3172
-1803.01 934.63 3039
-1802.24 938.013 3050
-1794.95 938.013 3050
-1787.65 938.013 3050
-1773.94 934.63 3039
-1766.67 934.63 3039
-1874.63 1004.13 3265
-1866.82 1004.13 3265
-1859.02 1004.13 3265
-1851.21 1004.13 3265
-1843.4 1004.13 3265
-1779.93 973.688 3166
-1772.36 973.688 3166
-1754.76 968.152 3148
-1474.5 911.256 2963
-1475.34 916.177 2979
-1476.1 921.098 2995
-1468.94 921.098 2995
-1469.59 926.018 3011
-1475.99 934.63 3039
-1468.72 934.63 3039
-1472.03 941.396 3061
-1480.98 951.852 3095
-1476.44 953.698 3101
-1469.02 953.698 3101
-1461.6 953.698 3101
-1448.56 950.007 3089
-1441.18 950.007 3089
-1433.79 950.007 3089
-1426.4 950.007 3089
-1419.02 950.007 3089
-1414.37 951.852 3095
-1406.97 951.852 3095
-1399.57 951.852 3095
-1399.81 957.081 3112
-1403.11 964.462 3136
-1398.28 966.307 3142
-1390.77 966.307 3142
-1383.25 966.307 3142
-1373.11 964.462 3136
-1383.9 977.379 3178
-1376.3 977.379 3178
-1368.7 977.379 3178
-1355.97 973.688 3166
-1348.4 973.688 3166
-1335.74 969.997 3154
-1315.57 960.771 3124
-1303.07 957.081 3112
-1295.63 957.081 3112
-1281.15 951.852 3095
-1266.75 946.624 3078
-1278.21 960.771 3124
-1270.74 960.771 3124
-1263.27 960.771 3124
-1241.73 950.007 3089
-1236.74 951.852 3095
-1234.11 955.543 3107
-1226.68 955.543 3107
-1219.25 955.543 3107
-1216.11 958.926 3118
-1208.65 958.926 3118
-1201.2 958.926 3118
-1193.74 958.926 3118
-1179.82 953.698 3101
-1172.4 953.698 3101
-1152.21 943.241 3067
-1159.81 955.543 3107
-1169.81 969.997 3154
-1168.91 975.533 3172
-1161.32 975.533 3172
-1160.28 981.069 3190
-1152.65 981.069 3190
-1145.03 981.069 3190
-1135.26 979.224 3184
-1112.77 966.307 3142
-1101.03 962.616 3130
-1093.55 962.616 3130
-1079.82 957.081 3112
-1066.52 951.852 3095
-1049.54 943.241 3067
-1038.12 939.55 3055
-1030.82 939.55 3055
-1010.78 927.864 3017
-1003.57 927.864 3017
-1003.62 934.63 3039
-996.352 934.63 3039
-989.085 934.63 3039
-979.879 932.784 3033
-960.44 921.098 2995
-953.278 921.098 2995
-941.062 916.177 2979
-930.49 912.794 2968
-921.837 911.256 2963
-914.751 911.256 2963
-904.603 908.181 2953
-899.061 909.719 2958
-891.987 909.719 2958
-887.906 912.794 2968
-880.808 912.794 2968
-875.477 914.639 2974
-874.497 921.098 2995
-873.706 927.864 3017
-866.492 927.864 3017
-865.543 934.63 3039
-859.688 936.167 3044
-855.489 939.55 3055
-848.184 939.55 3055
-845.557 944.779 3072
-844.487 951.852 3095
-841.684 957.081 3112
-834.242 957.081 3112
-831.582 962.616 3130
-824.098 962.616 3130
-816.613 962.616 3130
-809.128 962.616 3130
-803.18 964.462 3136
-798.726 968.152 3148
-791.198 968.152 3148
-783.67 968.152 3148
-776.142 968.152 3148
-768.614 968.152 3148
-761.087 968.152 3148
-753.559 968.152 3148
-746.031 968.152 3148
-738.503 968.152 3148
-730.975 968.152 3148
-695.87 931.247 3028
-675.087 922.635 3000
-682.83 943.241 3067
-684.306 955.543 3107
-676.876 955.543 3107
-669.446 955.543 3107
-662.017 955.543 3107
-654.587 955.543 3107
-644.658 951.852 3095
-638.492 953.698 3101
-631.077 953.698 3101
-623.661 953.698 3101
-616.246 953.698 3101
-605.493 948.469 3084
-598.118 948.469 3084
-592.85 951.852 3095
-585.449 951.852 3095
-580.289 955.543 3107
-579.313 966.307 3142
-571.799 966.307 3142
-564.286 966.307 3142
-557.835 968.152 3148
-550.307 968.152 3148
-546.918 975.533 3172
-539.333 975.533 3172
-535.771 982.914 3196
-530.111 986.605 3208
-524.557 990.603 3221
-516.854 990.603 3221
-509.152 990.603 3221
-501.45 990.603 3221
-493.747 990.603 3221
-474.293 998.292 3246
-466.531 998.292 3246
-458.769 998.292 3246
-451.007 998.292 3246
-442.288 996.139 3239
-434.543 996.139 3239
-426.007 994.294 3233
-412.713 981.069 3190
-402.037 973.688 3166
-394.466 973.688 3166
-386.895 973.688 3166
-377.168 968.152 3148
-368.231 964.462 3136
-359.351 960.771 3124
-351.881 960.771 3124
-343.087 957.081 3112
-333.812 951.852 3095
-325.251 948.469 3084
-317.876 948.469 3084
-309.293 944.779 3072
-301.456 943.241 3067
-294.122 943.241 3067
-288.377 948.469 3084
-281.002 948.469 3084
-274.603 951.852 3095
-267.202 951.852 3095
-261.732 958.926 3118
-254.276 958.926 3118
-246.82 958.926 3118
-239.824 960.771 3124
-233.246 964.462 3136
-227.475 971.843 3160
-219.918 971.843 3160
-213.975 979.224 3184
-207.916 986.605 3208
-200.62 988.45 3214
-192.934 988.45 3214
-185.652 990.603 3221
-178.612 994.294 3233
-171.198 996.139 3239
-163.453 996.139 3239
-155.708 996.139 3239
-147.962 996.139 3239
-140.217 996.139 3239
-131.98 992.448 3227
-124.264 992.448 3227
-116.547 992.448 3227
-109.033 994.294 3233
-101.302 994.294 3233
-94.6703 1005.98 3271
-88.0696 1020.13 3317
-80.2827 1021.97 3323
-72.3364 1021.97 3323
-64.3901 1021.97 3323
-22.8322 715.658 2327
-17.3419 718.733 2337
-11.7534 718.733 2337
-6.17284 719.656 2340
-0.577188 719.656 2340
5.01846 719.656 2340
10.6141 719.656 2340
16.2305 720.578 2343
21.8334 720.578 2343
27.4362 720.578 2343
32.9967 719.656 2340
38.5429 718.733 2337
44.1314 718.733 2337
49.7198 718.733 2337
55.3083 718.733 2337
60.8968 718.733 2337
66.4853 718.733 2337
72.0737 718.733 2337
77.6622 718.733 2337
83.2507 718.733 2337
88.5731 716.58 2330
94.1448 716.58 2330
99.5881 715.658 2327
104.836 713.505 2320
109.766 709.507 2307
115.282 709.507 2307
120.799 709.507 2307
125.823 706.739 2298
130.975 704.893 2292
136.218 703.663 2288
141.689 703.663 2288
146.968 702.741 2285
151.431 698.128 2270
156.652 697.205 2267
162.073 697.205 2267
167.494 697.205 2267
172.153 694.129 2257
177.314 693.207 2254
182.704 693.207 2254
188.094 693.207 2254
193.484 693.207 2254
198.08 690.439 2245
203.448 690.439 2245
208.817 690.439 2245
214.471 691.362 2248
220.727 694.129 2257
226.525 695.36 2261
232.24 696.282 2264
237.654 696.282 2264
244.034 699.05 2273
249.798 699.973 2276
255.577 700.895 2279
261.027 700.895 2279
266.477 700.895 2279
271.927 700.895 2279
277.377 700.895 2279
482.945 957.081 3112
490.387 957.081 3112
500.708 962.616 3130
508.193 962.616 3130
516.666 964.462 3136
524.165 964.462 3136
531.664 964.462 3136
539.164 964.462 3136
546.663 964.462 3136
552.041 960.771 3124
557.363 957.081 3112
561.719 951.852 3095
569.12 951.852 3095
574.472 948.469 3084
581.847 948.469 3084
591.323 951.852 3095
598.724 951.852 3095
606.125 951.852 3095
613.526 951.852 3095
693.591 950.007 3089
700.978 950.007 3089
715.015 958.926 3118
729.422 968.152 3148
736.95 968.152 3148
744.478 968.152 3148
753.439 969.997 3154
760.981 969.997 3154
768.523 969.997 3154
891.622 964.462 3136
899.122 964.462 3136
910.09 968.152 3148
922.865 973.688 3166
941.015 984.76 3202
948.672 984.76 3202
959.913 988.45 3214
967.599 988.45 3214
977.409 990.603 3221
985.111 990.603 3221
996.512 994.294 3233
1018.22 1008.13 3278
1033.89 1015.82 3303
1041.78 1015.82 3303
1049.68 1015.82 3303
1057.58 1015.82 3303
1065.48 1015.82 3303
1073.38 1015.82 3303
1077.02 1011.82 3290
1078.62 1005.98 3271
1082.13 1001.98 3258
1089.92 1001.98 3258
1095.69 1000.14 3252
1101.43 998.292 3246
1109.19 998.292 3246
1116.95 998.292 3246
1124.71 998.292 3246
1132.48 998.292 3246
1131.46 990.603 3221
1139.16 990.603 3221
1142.23 986.605 3208
1143.45 981.069 3190
1148.91 979.224 3184
1156.53 979.224 3184
1157.56 973.688 3166
1147.47 958.926 3118
1144.18 950.007 3089
1147.47 946.624 3078
1154.83 946.624 3078
1158.04 943.241 3067
1173.73 950.007 3089
1217.44 979.224 3184
1234.29 986.605 3208
1241.96 986.605 3208
1249.63 986.605 3208
1264.75 992.448 3227
1282.32 1000.14 3252
1290.1 1000.14 3252
1315.84 1013.98 3297
1328.94 1017.97 3310
1336.85 1017.97 3310
1344.77 1017.97 3310
1363.72 1026.28 3337
1371.7 1026.28 3337
1379.68 1026.28 3337
1371.02 1013.98 3297
1375.98 1011.82 3290
1378.8 1008.13 3278
1386.64 1008.13 3278
1394.48 1008.13 3278
1399.32 1005.98 3271
1401.55 1001.98 3258
1406.75 1000.14 3252
1414.52 1000.14 3252
1422.3 1000.14 3252
1430.08 1000.14 3252
1437.85 1000.14 3252
1445.63 1000.14 3252
1453.41 1000.14 3252
1458.49 998.292 3246
1460.38 994.294 3233
1468.11 994.294 3233
1470.36 990.603 3221
1478.06 990.603 3221
1485.77 990.603 3221
1493.47 990.603 3221
1501.17 990.603 3221
1508.87 990.603 3221
1519.4 992.448 3227
1527.12 992.448 3227
1534.83 992.448 3227
1542.55 992.448 3227
1547.39 990.603 3221
1555.09 990.603 3221
1562.79 990.603 3221
1570.49 990.603 3221
1578.19 990.603 3221
1576.54 984.76 3202
1584.2 984.76 3202
1588.87 982.914 3196
1602.51 986.605 3208
1616.71 990.603 3221
1630.46 994.294 3233
1638.19 994.294 3233
1645.92 994.294 3233
1650.59 992.448 3227
1658.3 992.448 3227
1666.02 992.448 3227
1660.77 984.76 3202
1668.43 984.76 3202
1663.52 977.379 3178
1671.12 977.379 3178
1659.7 966.307 3142
1654.48 958.926 3118
1656.07 955.543 3107
1663.5 955.543 3107
1640.28 938.013 3050
1647.57 938.013 3050
1660.83 941.396 3061
1668.15 941.396 3061
1675.47 941.396 3061
1682.79 941.396 3061
1662.51 926.018 3011
1669.71 926.018 3011
1676.91 926.018 3011
1684.11 926.018 3011
1691.31 926.018 3011
1671.43 911.256 2963
1678.52 911.256 2963
1682.76 909.719 2958
1689.83 909.719 2958
1696.9 909.719 2958
1703.98 909.719 2958
2129.61 944.779 3072
2141.13 946.624 3078
2172.22 957.081 3112
2179.66 957.081 3112
2195.54 960.771 3124
2203.01 960.771 3124
2210.48 960.771 3124
2217.95 960.771 3124
2242.51 968.152 3148
2250.04 968.152 3148
2257.57 968.152 3148
2265.1 968.152 3148
2272.63 968.152 3148
2275.81 966.307 3142
2278.96 964.462 3136
2295.21 968.152 3148
2302.74 968.152 3148
2323.47 973.688 3166
2331.05 973.688 3166
2338.62 973.688 3166
2346.19 973.688 3166
2367.14 979.224 3184
2374.75 979.224 3184
2386.86 981.069 3190
2394.49 981.069 3190
2415.67 986.605 3208
2423.34 986.605 3208
2431.01 986.605 3208
2420.44 979.224 3184
2428.05 979.224 3184
2435.67 979.224 3184
-1793.6 933.231 3011
-1803.01 941.91 3039
-1802.24 945.319 3050
-1794.95 945.319 3050
-1787.65 945.319 3050
-1773.94 941.91 3039
-1766.67 941.91 3039
-1743.19 933.231 3011
-1717.54 923.313 2979
-1790.23 966.395 3118
-1793.06 971.974 3136
-1785.57 971.974 3136
-1778.07 971.974 3136
-1770.57 971.974 3136
-1766.44 973.834 3142
-1758.93 973.834 3142
-1751.41 973.834 3142
-1474.5 918.354 2963
-1477.82 924.863 2984
-1476.1 928.272 2995
-1474.33 931.682 3006
-1472.51 935.091 3017
-1478.41 943.459 3044
-1471.13 943.459 3044
-1469.15 946.869 3055
-1467.58 950.588 3067
-1470.72 957.407 3089
-1463.34 957.407 3089
-1455.95 957.407 3089
-1446.22 955.857 3084
-1438.84 955.857 3084
-1436.57 959.266 3095
-1429.17 959.266 3095
-1421.77 959.266 3095
-1414.37 959.266 3095
-1406.97 959.266 3095
-1399.57 959.266 3095
-1399.81 964.535 3112
-1397.74 968.255 3124
-1390.27 968.255 3124
-1382.8 968.255 3124
-1375.33 968.255 3124
-1360.42 962.986 3107
-1373.45 977.553 3154
-1365.91 977.553 3154
-1358.37 977.553 3154
-1350.83 977.553 3154
-1343.28 977.553 3154
-1333.2 975.693 3148
-1315.57 968.255 3124
-1303.07 964.535 3112
-1295.63 964.535 3112
-1281.15 959.266 3095
-1266.75 953.997 3078
-1243.44 941.91 3039
-1242.68 946.869 3055
-1235.37 946.869 3055
-1237.31 953.997 3078
-1234.35 957.407 3089
-1231.73 961.126 3101
-1224.31 961.126 3101
-1223.57 966.395 3118
-1216.11 966.395 3118
-1208.65 966.395 3118
-1201.2 966.395 3118
-1193.74 966.395 3118
-1184 964.535 3112
-1176.56 964.535 3112
-1162.73 959.266 3095
-1166.16 968.255 3124
-1165.36 973.834 3142
-1162.27 977.553 3154
-1154.73 977.553 3154
-1160.28 988.711 3190
-1152.65 988.711 3190
-1145.03 988.711 3190
-1130.98 983.132 3172
-1112.77 973.834 3142
-1096.81 966.395 3118
-1089.36 966.395 3118
-1076 961.126 3101
-1060.66 953.997 3078
-1045.43 946.869 3055
-1034.39 943.459 3044
-1027.11 943.459 3044
-1003.41 928.272 2995
-990.928 923.313 2979
-989.088 928.272 2995
-981.926 928.272 2995
-974.764 928.272 2995
-967.602 928.272 2995
-955.31 923.313 2979
-948.186 923.313 2979
-936.008 918.354 2963
-925.787 915.255 2953
-916.859 913.395 2947
-909.812 913.395 2947
-902.765 913.395 2947
-897.541 915.255 2953
-891.987 916.805 2958
-887.906 919.904 2968
-880.808 919.904 2968
-875.477 921.764 2974
-873.037 926.723 2990
-873.706 935.091 3017
-866.492 935.091 3017
-859.277 935.091 3017
-859.688 943.459 3044
-854.089 945.319 3050
-846.795 945.319 3050
-840.878 946.869 3055
-838.211 952.138 3072
-835.463 957.407 3089
-828.076 957.407 3089
-826.8 964.535 3112
-819.358 964.535 3112
-811.917 964.535 3112
-804.475 964.535 3112
-795.753 962.986 3107
-788.323 962.986 3107
-782.15 964.535 3112
-774.708 964.535 3112
-767.266 964.535 3112
-759.825 964.535 3112
-752.383 964.535 3112
-744.941 964.535 3112
-736.314 962.986 3107
-724.662 957.407 3089
-703.111 938.5 3028
-695.87 938.5 3028
-676.348 921.764 2974
-675.087 929.822 3000
-675.261 940.05 3033
-671.752 945.319 3050
-664.458 945.319 3050
-660.828 950.588 3067
-653.494 950.588 3067
-646.16 950.588 3067
-636.326 946.869 3055
-634.992 955.857 3084
-627.617 955.857 3084
-620.242 955.857 3084
-612.867 955.857 3084
-599.799 946.869 3055
-589.39 941.91 3039
-582.123 941.91 3039
-572.775 938.5 3028
-574.873 953.997 3078
-572.859 962.986 3107
-565.43 962.986 3107
-558 962.986 3107
-555.709 971.974 3136
-549.259 973.834 3142
-543.814 977.553 3154
-536.272 977.553 3154
-534.765 988.711 3190
-530.111 994.29 3208
-524.557 998.319 3221
-516.854 998.319 3221
-509.152 998.319 3221
-501.45 998.319 3221
-493.747 998.319 3221
-474.293 1006.07 3246
-466.531 1006.07 3246
-458.769 1006.07 3246
-450.034 1003.9 3239
-442.288 1003.9 3239
-434.543 1003.9 3239
-425.216 1000.18 3227
-410.384 983.132 3172
-400.513 977.553 3154
-391.476 973.834 3142
-383.962 973.834 3142
-374.292 968.255 3124
-365.413 964.535 3112
-356.015 959.266 3095
-348.614 959.266 3095
-340.001 955.857 3084
-332.626 955.857 3084
-323.985 952.138 3072
-316.639 952.138 3072
-307.582 946.869 3055
-301.456 950.588 3067
-294.122 950.588 3067
-287.255 952.138 3072
-279.909 952.138 3072
-273.628 955.857 3084
-267.202 959.266 3095
-259.801 959.266 3095
-252.4 959.266 3095
-244.999 959.266 3095
-238.519 962.986 3107
-231.908 966.395 3118
-226.611 975.693 3148
-219.083 975.693 3148
-212.765 981.272 3166
-206.361 986.851 3184
-200.245 994.29 3208
-192.574 994.29 3208
-185.248 996.149 3214
-177.949 998.319 3221
-170.881 1002.04 3233
-163.15 1002.04 3233
-155.419 1002.04 3233
-147.414 1000.18 3227
-139.697 1000.18 3227
-131.449 996.149 3214
-123.532 994.29 3208
-116.33 998.319 3221
-108.83 1000.18 3227
-101.114 1000.18 3227
-93.3968 1000.18 3227
-17.2677 721.232 2327
-11.7031 721.232 2327
-6.17284 725.261 2340
-0.577188 725.261 2340
5.01846 725.261 2340
10.6141 725.261 2340
16.2305 726.191 2343
21.8334 726.191 2343
27.4362 726.191 2343
32.9967 725.261 2340
38.5429 724.331 2337
44.1314 724.331 2337
49.7198 724.331 2337
55.3083 724.331 2337
60.8968 724.331 2337
66.4853 724.331 2337
72.0737 724.331 2337
77.6622 724.331 2337
83.2507 724.331 2337
88.8392 724.331 2337
94.4276 724.331 2337
99.7165 722.162 2330
104.972 719.992 2323
109.766 715.033 2307
115.282 715.033 2307
120.799 715.033 2307
125.659 711.314 2295
130.975 710.384 2292
136.04 708.214 2285
141.504 708.214 2285
146.775 707.285 2282
151.231 702.635 2267
156.652 702.635 2267
162.073 702.635 2267
167.273 701.706 2264
171.924 698.606 2254
177.314 698.606 2254
182.704 698.606 2254
188.094 698.606 2254
193.484 698.606 2254
198.08 695.817 2245
203.448 695.817 2245
208.817 695.817 2245
214.471 696.747 2248
220.727 699.536 2257
226.525 700.776 2261
232.24 701.706 2264
237.654 701.706 2264
244.034 704.495 2273
249.798 705.425 2276
255.577 706.355 2279
261.027 706.355 2279
266.477 706.355 2279
271.927 706.355 2279
277.377 706.355 2279
500.708 970.114 3130
508.193 970.114 3130
516.666 971.974 3136
524.165 971.974 3136
531.664 971.974 3136
538.132 970.114 3130
545.617 970.114 3130
552.041 968.255 3124
557.363 964.535 3112
561.719 959.266 3095
569.12 959.266 3095
574.472 955.857 3084
581.847 955.857 3084
591.323 959.266 3095
598.724 959.266 3095
606.125 959.266 3095
613.526 959.266 3095
693.591 957.407 3089
700.978 957.407 3089
712.492 962.986 3107
722.471 966.395 3118
731.332 968.255 3124
738.802 968.255 3124
746.273 968.255 3124
753.743 968.255 3124
761.213 968.255 3124
910.09 975.693 3148
922.865 981.272 3166
941.015 992.43 3202
948.672 992.43 3202
959.913 996.149 3214
967.599 996.149 3214
977.409 998.319 3221
985.111 998.319 3221
996.512 1002.04 3233
1018.22 1015.99 3278
1033.89 1023.73 3303
1041.78 1023.73 3303
1049.68 1023.73 3303
1057.58 1023.73 3303
1065.48 1023.73 3303
1073.38 1023.73 3303
1077.02 1019.7 3290
1078.62 1013.82 3271
1082.13 1009.79 3258
1089.92 1009.79 3258
1095.69 1007.93 3252
1101.43 1006.07 3246
1109.19 1006.07 3246
1116.95 1006.07 3246
1124.71 1006.07 3246
1127.94 1002.04 3233
1126.89 994.29 3208
1134.56 994.29 3208
1133.69 986.851 3184
1134.85 981.272 3166
1142.42 981.272 3166
1143.45 975.693 3148
1150.98 975.693 3148
1136.8 957.407 3089
1137.89 952.138 3072
1143.37 950.588 3067
1150.7 950.588 3067
1145.2 940.05 3033
1163.09 948.728 3061
1203.68 975.693 3148
1225.05 986.851 3184
1232.67 986.851 3184
1240.28 986.851 3184
1254.95 992.43 3202
1274.83 1002.04 3233
1282.56 1002.04 3233
1313.04 1019.7 3290
1326.13 1023.73 3303
1342.11 1029.93 3323
1350.05 1029.93 3323
1363.72 1034.27 3337
1371.7 1034.27 3337
1379.68 1034.27 3337
1376.43 1025.9 3310
1375.98 1019.7 3290
1378.8 1015.99 3278
1386.64 1015.99 3278
1394.48 1015.99 3278
1399.32 1013.82 3271
1401.55 1009.79 3258
1406.75 1007.93 3252
1414.52 1007.93 3252
1422.3 1007.93 3252
1430.08 1007.93 3252
1437.85 1007.93 3252
1445.63 1007.93 3252
1450.73 1006.07 3246
1458.49 1006.07 3246
1460.38 1002.04 3233
1468.11 1002.04 3233
1470.36 998.319 3221
1478.06 998.319 3221
1485.77 998.319 3221
1493.47 998.319 3221
1501.17 998.319 3221
1508.87 998.319 3221
1519.4 1000.18 3227
1527.12 1000.18 3227
1534.83 1000.18 3227
1542.55 1000.18 3227
1547.39 998.319 3221
1555.09 998.319 3221
1562.79 998.319 3221
1570.49 998.319 3221
1578.19 998.319 3221
1576.54 992.43 3202
1584.2 992.43 3202
1588.87 990.57 3196
1605.51 996.149 3214
1616.71 998.319 3221
1633.49 1003.9 3239
1641.23 1003.9 3239
1648.98 1003.9 3239
1650.59 1000.18 3227
1658.3 1000.18 3227
1666.02 1000.18 3227
1663.88 994.29 3208
1671.55 994.29 3208
1672.94 990.57 3196
1680.58 990.57 3196
1672.38 981.272 3166
1664.03 971.974 3136
1661.94 966.395 3118
1669.39 966.395 3118
1640.28 945.319 3050
1647.57 945.319 3050
1660.83 948.728 3061
1668.15 948.728 3061
1675.47 948.728 3061
1682.79 948.728 3061
1662.51 933.231 3011
1669.71 933.231 3011
1698.63 945.319 3050
1705.92 945.319 3050
1713.21 945.319 3050
1714.3 941.91 3039
1721.57 941.91 3039
1728.84 941.91 3039
1736.1 941.91 3039
1733.62 936.641 3022
1740.85 936.641 3022
2129.61 952.138 3072
2141.13 953.997 3078
2172.22 964.535 3112
2179.66 964.535 3112
2195.54 968.255 3124
2203.01 968.255 3124
2210.48 968.255 3124
2217.95 968.255 3124
2242.51 975.693 3148
2250.04 975.693 3148
2257.57 975.693 3148
2265.1 975.693 3148
2272.63 975.693 3148
2275.81 973.834 3142
2278.96 971.974 3136
2308.33 981.272 3166
2315.9 981.272 3166
2323.47 981.272 3166
2344.3 986.851 3184
2351.91 986.851 3184
2359.53 986.851 3184
2367.14 986.851 3184
2374.75 986.851 3184
2386.86 988.711 3190
2394.49 988.711 3190
2415.67 994.29 3208
2423.34 994.29 3208
2431.01 994.29 3208
2420.44 986.851 3184
2428.05 986.851 3184
2435.67 986.851 3184
-1804.47 923.89 2958
-1797.39 923.89 2958
-1803.03 930.449 2979
-1815.2 940.444 3011
-1811.6 942.318 3017
-1804.38 942.318 3017
-1797.17 942.318 3017
-1803.01 949.19 3039
-1802.24 952.625 3050
-1794.95 952.625 3050
-1787.65 952.625 3050
-1773.94 949.19 3039
-1766.67 949.19 3039
-1743.19 940.444 3011
-1717.54 930.449 2979
-1790.23 973.864 3118
-1793.06 979.486 3136
-1785.57 979.486 3136
-1778.07 979.486 3136
-1770.57 979.486 3136
-1766.44 981.36 3142
-1758.93 981.36 3142
-1751.41 981.36 3142
-1474.5 925.452 2963
-1477.82 932.011 2984
-1476.1 935.447 2995
-1476.79 940.444 3011
-1472.51 942.318 3017
-1478.41 950.751 3044
-1471.13 950.751 3044
-1474.92 957.935 3067
-1472.85 961.371 3078
-1470.72 964.806 3089
-1463.34 964.806 3089
-1455.95 964.806 3089
-1446.22 963.245 3084
-1443.97 966.68 3095
-1436.57 966.68 3095
-1429.17 966.68 3095
-1421.77 966.68 3095
-1414.37 966.68 3095
-1409.7 968.555 3101
-1402.28 968.555 3101
-1399.81 971.99 3112
-1397.74 975.738 3124
-1390.27 975.738 3124
-1382.8 975.738 3124
-1375.33 975.738 3124
-1360.42 970.429 3107
-1373.45 985.108 3154
-1365.91 985.108 3154
-1358.37 985.108 3154
-1350.83 985.108 3154
-1343.28 985.108 3154
-1333.2 983.234 3148
-1315.57 975.738 3124
-1303.07 971.99 3112
-1295.63 971.99 3112
-1281.15 966.68 3095
-1266.75 961.371 3078
-1243.44 949.19 3039
-1242.68 954.187 3055
-1235.37 954.187 3055
-1237.31 961.371 3078
-1234.35 964.806 3089
-1231.73 968.555 3101
-1224.31 968.555 3101
-1223.57 973.864 3118
-1218.45 975.738 3124
-1210.98 975.738 3124
-1203.51 975.738 3124
-1196.04 975.738 3124
-1184 971.99 3112
-1176.56 971.99 3112
-1164.99 968.555 3101
-1166.16 975.738 3124
-1165.36 981.36 3142
-1162.27 985.108 3154
-1154.73 985.108 3154
-1164.65 1000.1 3202
-1156.99 1000.1 3202
-1149.33 1000.1 3202
-1130.98 990.73 3172
-1112.77 981.36 3142
-1098.92 975.738 3124
-1091.45 975.738 3124
-1076 968.555 3101
-1062.73 963.245 3084
-1047.48 956.061 3061
-1034.39 950.751 3044
-1027.11 950.751 3044
-1003.41 935.447 2995
-990.928 930.449 2979
-990.739 937.009 3000
-983.566 937.009 3000
-976.392 937.009 3000
-969.218 937.009 3000
-956.913 932.011 2984
-949.777 932.011 2984
-936.008 925.452 2963
-925.787 922.329 2953
-916.859 920.455 2947
-911.664 922.329 2953
-904.603 922.329 2953
-900.581 925.452 2963
-895.003 927.014 2968
-887.906 927.014 2968
-880.808 927.014 2968
-875.477 928.888 2974
-873.037 933.885 2990
-873.706 942.318 3017
-866.492 942.318 3017
-863.834 947.316 3033
-859.688 950.751 3044
-854.089 952.625 3050
-846.795 952.625 3050
-840.878 954.187 3055
-838.211 959.497 3072
-830.865 959.497 3072
-823.519 959.497 3072
-820.69 964.806 3089
-813.303 964.806 3089
-805.916 964.806 3089
-798.529 964.806 3089
-789.862 963.245 3084
-779.443 959.497 3072
-772.096 959.497 3072
-764.75 959.497 3072
-757.404 959.497 3072
-748.837 957.935 3067
-741.503 957.935 3067
-734.169 957.935 3067
-725.413 956.061 3061
-708.944 943.88 3022
-696.609 937.009 3000
-689.435 937.009 3000
-676.348 928.888 2974
-673.962 935.447 2995
-667.914 937.009 3000
-668.008 947.316 3033
-660.755 947.316 3033
-654.795 949.19 3039
-647.528 949.19 3039
-640.261 949.19 3039
-631.744 947.316 3033
-626.756 950.751 3044
-620.698 952.625 3050
-613.404 952.625 3050
-606.111 952.625 3050
-596.658 949.19 3039
-583.96 940.444 3011
-576.76 940.444 3011
-563.506 930.449 2979
-564.414 943.88 3022
-564.378 956.061 3061
-562.154 964.806 3089
-554.767 964.806 3089
-548.444 966.68 3095
-542.091 968.555 3101
-541.745 981.36 3142
-534.232 981.36 3142
-528.73 985.108 3154
-521.188 985.108 3154
-516.577 990.73 3172
-508.992 990.73 3172
-501.406 990.73 3172
-491.019 985.108 3154
-483.477 985.108 3154
-423.139 985.108 3154
-415.597 985.108 3154
-408.055 985.108 3154
-398.227 979.486 3136
-389.233 975.738 3124
-381.763 975.738 3124
-372.854 971.99 3112
-364.121 968.555 3101
-354.75 963.245 3084
-347.375 963.245 3084
-339.339 961.371 3078
-331.331 959.497 3072
-322.193 954.187 3055
-314.887 954.187 3055
-306.474 950.751 3044
-301.456 957.935 3067
-294.122 957.935 3067
-286.787 957.935 3067
-279.453 957.935 3067
-272.119 957.935 3067
-265.217 959.497 3072
-259.298 964.806 3089
-251.911 964.806 3089
-244.524 964.806 3089
-236.754 963.245 3084
-229.751 964.806 3089
-224.452 973.864 3118
-216.995 973.864 3118
-211.556 983.234 3148
-205.194 988.856 3166
-198.372 992.604 3178
-190.773 992.604 3178
-183.173 992.604 3178
-176.237 996.352 3190
-168.926 998.226 3196
-161.283 998.226 3196
-153.64 998.226 3196
-145.998 998.226 3196
-138.355 998.226 3196
-130.222 994.478 3184
-121.453 985.108 3154
-113.911 985.108 3154
-106.368 985.108 3154
-98.8262 985.108 3154
-90.9367 981.36 3142
-17.2677 726.806 2327
-11.7031 726.806 2327
-6.17284 730.867 2340
-0.577188 730.867 2340
5.01846 730.867 2340
10.6141 730.867 2340
16.2305 731.804 2343
21.8334 731.804 2343
27.4362 731.804 2343
32.9967 730.867 2340
38.5429 729.93 2337
44.1314 729.93 2337
49.7198 729.93 2337
55.3083 729.93 2337
60.8968 729.93 2337
66.4853 729.93 2337
72.0737 729.93 2337
77.6622 729.93 2337
83.2507 729.93 2337
88.8392 729.93 2337
94.4276 729.93 2337
99.7165 727.743 2330
104.972 725.557 2323
109.766 720.56 2307
115.282 720.56 2307
120.642 719.623 2304
125.659 716.812 2295
130.747 714.625 2288
136.04 713.688 2285
141.504 713.688 2285
146.582 711.814 2279
151.231 708.066 2267
156.238 706.192 2261
161.644 706.192 2261
167.051 706.192 2261
171.695 703.069 2251
177.078 703.069 2251
182.461 703.069 2251
187.844 703.069 2251
193.226 703.069 2251
198.08 701.195 2245
203.448 701.195 2245
208.817 701.195 2245
214.185 701.195 2245
220.141 703.069 2251
226.525 706.192 2261
232.24 707.129 2264
237.654 707.129 2264
244.034 709.94 2273
249.798 710.877 2276
255.577 711.814 2279
261.027 711.814 2279
266.477 711.814 2279
271.927 711.814 2279
277.377 711.814 2279
499.748 975.738 3124
507.219 975.738 3124
516.666 979.486 3136
524.165 979.486 3136
531.664 979.486 3136
538.132 977.612 3130
545.617 977.612 3130
553.102 977.612 3130
558.437 973.864 3118
561.719 966.68 3095
569.12 966.68 3095
574.472 963.245 3084
581.847 963.245 3084
589.222 963.245 3084
596.596 963.245 3084
603.971 963.245 3084
611.346 963.245 3084
668.877 940.444 3011
693.591 964.806 3089
700.978 964.806 3089
708.365 964.806 3089
719.922 970.429 3107
727.352 970.429 3107
734.782 970.429 3107
735.284 961.371 3078
737.095 954.187 3055
911.825 985.108 3154
922.865 988.856 3166
941.015 1000.1 3202
948.672 1000.1 3202
959.913 1003.85 3214
971.513 1007.91 3227
981.05 1009.78 3233
988.781 1009.78 3233
1002.37 1015.72 3252
1021.95 1027.59 3290
1038.27 1036.02 3317
1046.2 1036.02 3317
1058.26 1040.08 3330
1072.63 1046.33 3350
1080.64 1046.33 3350
1088.65 1046.33 3350
1090.11 1040.08 3330
1093.79 1036.02 3317
1086.44 1021.65 3271
1094.27 1021.65 3271
1100.07 1019.78 3265
1107.87 1019.78 3265
1115.68 1019.78 3265
1123.49 1019.78 3265
1128.87 1017.59 3258
1132.48 1013.84 3246
1126.89 1001.97 3208
1134.56 1001.97 3208
1127.28 988.856 3166
1134.85 988.856 3166
1138.09 985.108 3154
1139.09 979.486 3136
1146.59 979.486 3136
1134.96 963.245 3084
1136.03 957.935 3067
1128.83 945.754 3028
1136.07 945.754 3028
1141.04 943.88 3022
1152.45 947.316 3033
1199.09 979.486 3136
1208.89 981.36 3142
1216.41 981.36 3142
1223.92 981.36 3142
1247.9 994.478 3184
1262.61 1000.1 3202
1270.26 1000.1 3202
1305.46 1021.65 3271
1323.72 1029.77 3297
1342.11 1037.89 3323
1350.05 1037.89 3323
1363.72 1042.27 3337
1371.7 1042.27 3337
1379.68 1042.27 3337
1376.43 1033.83 3310
1375.98 1027.59 3290
1378.8 1023.84 3278
1386.64 1023.84 3278
1394.48 1023.84 3278
1399.32 1021.65 3271
1401.55 1017.59 3258
1406.75 1015.72 3252
1414.52 1015.72 3252
1422.3 1015.72 3252
1430.08 1015.72 3252
1437.85 1015.72 3252
1445.63 1015.72 3252
1450.73 1013.84 3246
1452.65 1009.78 3233
1454.96 1006.03 3221
1462.66 1006.03 3221
1464.43 1001.97 3208
1472.1 1001.97 3208
1479.77 1001.97 3208
1487.44 1001.97 3208
1497.91 1003.85 3214
1505.59 1003.85 3214
1513.28 1003.85 3214
1520.97 1003.85 3214
1528.65 1003.85 3214
1536.34 1003.85 3214
1544.02 1003.85 3214
1555.09 1006.03 3221
1562.79 1006.03 3221
1570.49 1006.03 3221
1578.19 1006.03 3221
1576.54 1000.1 3202
1584.2 1000.1 3202
1588.87 998.226 3196
1605.51 1003.85 3214
1616.71 1006.03 3221
1633.49 1011.66 3239
1641.23 1011.66 3239
1648.98 1011.66 3239
1650.59 1007.91 3227
1658.3 1007.91 3227
1666.02 1007.91 3227
1663.88 1001.97 3208
1671.55 1001.97 3208
1672.94 998.226 3196
1680.58 998.226 3196
1672.38 988.856 3166
1664.03 979.486 3136
1661.94 973.864 3118
1669.39 973.864 3118
1640.28 952.625 3050
1647.57 952.625 3050
1660.83 956.061 3061
1668.15 956.061 3061
1675.47 956.061 3061
1682.79 956.061 3061
1662.51 940.444 3011
1669.71 940.444 3011
1698.63 952.625 3050
1705.92 952.625 3050
1713.21 952.625 3050
1714.3 949.19 3039
1721.57 949.19 3039
1728.84 949.19 3039
1736.1 949.19 3039
1733.62 943.88 3022
1740.85 943.88 3022
2091.48 942.318 3017
2125.13 954.187 3055
2132.43 954.187 3055
2139.74 954.187 3055
2187.1 971.99 3112
2194.54 971.99 3112
2201.99 971.99 3112
2193.1 964.806 3089
2188.38 959.497 3072
2256.46 979.486 3136
2263.96 979.486 3136
2271.46 979.486 3136
2278.96 979.486 3136
2321.46 994.478 3184
2329.07 994.478 3184
2336.68 994.478 3184
2353.13 998.226 3196
2360.78 998.226 3196
2368.42 998.226 3196
2367.14 994.478 3184
2374.75 994.478 3184
2382.37 994.478 3184
2415.67 1001.97 3208
2423.34 1001.97 3208
2435.56 1003.85 3214
2443.24 1003.85 3214
2450.93 1003.85 3214
2458.61 1003.85 3214
-1804.47 930.976 2958
-1797.39 930.976 2958
-1803.03 937.586 2979
-1815.2 947.657 3011
-1811.6 949.545 3017
-1804.38 949.545 3017
-1797.17 949.545 3017
-1796.48 953.008 3028
-1795.74 956.47 3039
-1788.47 956.47 3039
-1781.21 956.47 3039
-1767.52 953.008 3028
-1760.28 953.008 3028
-1743.19 947.657 3011
-1717.54 937.586 2979
-1770.71 970.633 3084
-1763.33 970.633 3084
-1755.96 970.633 3084
-1751.42 972.206 3089
-1744.03 972.206 3089
-1736.64 972.206 3089
-1729.26 972.206 3089
-1721.87 972.206 3089
-1474.5 932.55 2963
-1477.82 939.159 2984
-1470.68 939.159 2984
-1476.79 947.657 3011
-1472.51 949.545 3017
-1478.41 958.043 3044
-1471.13 958.043 3044
-1474.92 965.282 3067
-1472.85 968.744 3078
-1468.34 970.633 3084
-1460.97 970.633 3084
-1453.59 970.633 3084
-1446.22 970.633 3084
-1443.97 974.095 3095
-1436.57 974.095 3095
-1429.17 974.095 3095
-1421.77 974.095 3095
-1414.37 974.095 3095
-1409.7 975.983 3101
-1402.28 975.983 3101
-1399.81 979.445 3112
-1395.06 981.333 3118
-1390.27 983.222 3124
-1382.8 983.222 3124
-1375.33 983.222 3124
-1360.42 977.871 3107
-1373.45 992.664 3154
-1365.91 992.664 3154
-1358.37 992.664 3154
-1348.26 990.775 3148
-1340.73 990.775 3148
-1325.58 985.11 3130
-1313.04 981.333 3118
-1300.98 977.871 3107
-1293.55 977.871 3107
-1281.15 974.095 3095
-1252.76 958.043 3044
-1243.44 956.47 3039
-1236.17 956.47 3039
-1228.9 956.47 3039
-1232.89 965.282 3067
-1234.35 972.206 3089
-1231.73 975.983 3101
-1224.31 975.983 3101
-1223.57 981.333 3118
-1218.45 983.222 3124
-1210.98 983.222 3124
-1203.51 983.222 3124
