611.953 1105.53 2350
617.572 1105.53 2350
621.335 1102.24 2343
626.135 1100.83 2340
631.731 1100.83 2340
637.327 1100.83 2340
642.922 1100.83 2340
651.29 1105.53 2350
658.586 1108.36 2356
664.22 1108.36 2356
671.844 1111.65 2363
678.355 1113.06 2366
685.169 1114.94 2370
690.837 1114.94 2370
699.443 1119.65 2380
708.097 1124.35 2390
716.799 1129.06 2400
722.538 1129.06 2400
729.491 1130.94 2404
736.157 1132.35 2407
741.913 1132.35 2407
749.843 1135.64 2414
755.616 1135.64 2414
761.388 1135.64 2414
766.208 1134.23 2411
771.973 1134.23 2411
777.739 1134.23 2411
783.504 1134.23 2411
787.96 1132.35 2407
793.716 1132.35 2407
797.147 1129.06 2400
801.882 1127.64 2397
807.614 1127.64 2397
813.346 1127.64 2397
815.661 1122.94 2387
816.552 1116.35 2373
816.336 1108.36 2356
821.97 1108.36 2356
823.037 1102.24 2343
827.579 1100.83 2340
832.106 1099.42 2337
837.695 1099.42 2337
844.366 1100.83 2340
849.961 1100.83 2340
856.654 1102.24 2343
867.041 1108.36 2356
876.379 1113.06 2366
882.037 1113.06 2366
892.947 1119.65 2380
901.282 1122.94 2387
911.929 1129.06 2400
917.668 1129.06 2400
928.794 1135.64 2414
938.825 1140.82 2425
948.52 1145.52 2435
954.342 1145.52 2435
964.503 1150.7 2446
970.352 1150.7 2446
980.591 1155.87 2457
986.466 1155.87 2457
1005.67 1171.4 2490
1016.09 1176.57 2501
1023.71 1178.45 2505
1029.7 1178.45 2505
1038.58 1181.74 2512
1047.92 1185.51 2520
1057.29 1189.27 2528
1063.33 1189.27 2528
1071.07 1191.15 2532
1077.13 1191.15 2532
1083.18 1191.15 2532
1082.35 1183.63 2516
1085.34 1180.33 2509
1083.08 1171.4 2490
1080.72 1162.46 2471
1086.63 1162.46 2471
1083.25 1152.58 2450
1082.44 1145.52 2435
1086.93 1144.11 2432
1092.74 1144.11 2432
1098.56 1144.11 2432
1104.37 1144.11 2432
1105.17 1138.93 2421
1110.96 1138.93 2421
1108.9 1130.94 2404
1114.65 1130.94 2404
1120.4 1130.94 2404
1122.87 1127.64 2397
1128.6 1127.64 2397
1132.44 1125.76 2393
1130.08 1117.76 2376
1130.98 1113.06 2366
1136.64 1113.06 2366
1137.47 1108.36 2356
1143.1 1108.36 2356
1148.74 1108.36 2356
1154.37 1108.36 2356
1160 1108.36 2356
1165.64 1108.36 2356
1169.78 1106.94 2353
1175.41 1106.94 2353
1179.53 1105.53 2350
1185.15 1105.53 2350
1190.77 1105.53 2350
1196.39 1105.53 2350
1202.01 1105.53 2350
1207.63 1105.53 2350
1213.25 1105.53 2350
1218.87 1105.53 2350
1224.48 1105.53 2350
1226.44 1102.24 2343
1230.47 1100.83 2340
1241.34 1105.53 2350
1250.15 1108.36 2356
1255.78 1108.36 2356
1263.56 1110.24 2360
1272.43 1113.06 2366
1280.25 1114.94 2370
1285.91 1114.94 2370
1297.03 1119.65 2380
1302.72 1119.65 2380
1308.41 1119.65 2380
1315.76 1121.06 2383
1321.46 1121.06 2383
1329.38 1122.94 2387
1335.09 1122.94 2387
1342.49 1124.35 2390
1348.2 1124.35 2390
1353.92 1124.35 2390
1359.63 1124.35 2390
1365.35 1124.35 2390
1367.05 1121.06 2383
1372.74 1121.06 2383
1378.44 1121.06 2383
1384.14 1121.06 2383
1382.26 1114.94 2370
1366.26 1097.54 2333
1368.31 1094.71 2327
1375.64 1096.12 2330
1381.22 1096.12 2330
1386.79 1096.12 2330
1390.57 1094.71 2327
1396.13 1094.71 2327
1405.31 1097.54 2333
1410.89 1097.54 2333
1422.54 1102.24 2343
1436.07 1108.36 2356
1450.27 1114.94 2370
1455.93 1114.94 2370
1480.1 1129.06 2400
1488.32 1130.94 2404
1498.42 1134.23 2411
1504.18 1134.23 2411
1509.95 1134.23 2411
1540.23 1152.58 2450
1546.09 1152.58 2450
1551.95 1152.58 2450
1557.81 1152.58 2450
1563.67 1152.58 2450
1569.53 1152.58 2450
1572.81 1150.7 2446
1578.66 1150.7 2446
1584.51 1150.7 2446
1590.36 1150.7 2446
1596.21 1150.7 2446
1602.06 1150.7 2446
1607.91 1150.7 2446
1609.14 1147.4 2439
1614.97 1147.4 2439
1608.84 1138.93 2421
1609.96 1135.64 2414
1609.04 1130.94 2404
1614.79 1130.94 2404
1615.82 1127.64 2397
1621.55 1127.64 2397
1622.53 1124.35 2390
1628.25 1124.35 2390
1631.91 1122.94 2387
1637.62 1122.94 2387
1643.33 1122.94 2387
1644.2 1119.65 2380
1649.89 1119.65 2380
1655.58 1119.65 2380
1656.39 1116.35 2373
1648.05 1106.94 2353
1653.68 1106.94 2353
1652.25 1102.24 2343
1657.86 1102.24 2343
1663.46 1102.24 2343
1669.06 1102.24 2343
1670.38 1099.42 2337
1675.97 1099.42 2337
1681.55 1099.42 2337
1687.14 1099.42 2337
1692.73 1099.42 2337
1688.15 1092.83 2323
1689.33 1090.01 2317
1692.67 1088.6 2314
1698.21 1088.6 2314
1701.53 1087.19 2311
1707.06 1087.19 2311
1712.58 1087.19 2311
1718.11 1087.19 2311
1716.18 1082.48 2301
1711.95 1076.37 2288
1717.42 1076.37 2288
1725.91 1078.25 2292
1733.65 1079.66 2295
1739.14 1079.66 2295
1744.63 1079.66 2295
1754.69 1082.48 2301
1760.2 1082.48 2301
-1742.13 1125.35 2380
-1736.43 1125.35 2380
-1730.74 1125.35 2380
-1725.05 1125.35 2380
-1719.36 1125.35 2380
-1708.63 1122.04 2373
-1695.78 1117.31 2363
-1586.18 1107.85 2343
-1580.57 1107.85 2343
-1574.97 1107.85 2343
-1560.66 1101.71 2330
-1559.76 1105.02 2337
-1560.16 1109.27 2346
-1554.55 1109.27 2346
-1548.94 1109.27 2346
-1541.35 1107.85 2343
-1535.75 1107.85 2343
-1523.62 1103.12 2333
-1514.13 1100.29 2327
-1508.57 1100.29 2327
-1503.01 1100.29 2327
-1492.94 1096.98 2320
-1487.39 1096.98 2320
-1481.84 1096.98 2320
-1476.29 1096.98 2320
-1465.04 1092.72 2311
-1455.09 1089.41 2304
-1447.7 1087.99 2301
-1440.31 1086.58 2298
-1434.82 1086.58 2298
-1429.32 1086.58 2298
-1423.83 1086.58 2298
-1418.33 1086.58 2298
-1412.84 1086.58 2298
-1407.34 1086.58 2298
-1400.02 1085.16 2295
-1396.35 1086.58 2298
-1394.49 1089.41 2304
-1388.98 1089.41 2304
-1387.67 1092.72 2311
-1385.73 1095.56 2317
-1386.15 1100.29 2327
-1380.59 1100.29 2327
-1375.02 1100.29 2327
-1363.57 1095.56 2317
-1358.03 1095.56 2317
-1350.74 1094.14 2314
-1358.58 1105.02 2337
-1354.72 1106.43 2340
-1352.59 1109.27 2346
-1346.98 1109.27 2346
-1349.37 1115.89 2360
-1347.15 1118.73 2366
-1341.49 1118.73 2366
-1335.83 1118.73 2366
-1330.17 1118.73 2366
-1328.43 1122.04 2373
-1322.76 1122.04 2373
-1317.08 1122.04 2373
-1305.88 1117.31 2363
-1300.23 1117.31 2363
-1294.58 1117.31 2363
-1285.11 1114 2356
-1276.22 1111.16 2350
-1270.6 1111.16 2350
-1264.98 1111.16 2350
-1257.22 1109.27 2346
-1251.61 1109.27 2346
-1246 1109.27 2346
-1240.39 1109.27 2346
-1234.78 1109.27 2346
-1222.36 1103.12 2333
-1211.56 1098.4 2323
-1206.01 1098.4 2323
-1198.9 1096.98 2320
-1191.81 1095.56 2317
-1184.73 1094.14 2314
-1179.2 1094.14 2314
-1172.15 1092.72 2311
-1160.06 1086.58 2298
-1154.56 1086.58 2298
-1149.07 1086.58 2298
-1143.57 1086.58 2298
-1139.56 1087.99 2301
-1134.06 1087.99 2301
-1136.4 1095.56 2317
-1130.86 1095.56 2317
-1125.32 1095.56 2317
-1118.33 1094.14 2314
-1114.24 1095.56 2317
-1110.14 1096.98 2320
-1107.92 1100.29 2327
-1105.2 1103.12 2333
-1104.33 1107.85 2343
-1098.73 1107.85 2343
-1093.13 1107.85 2343
-1087.53 1107.85 2343
-1087.93 1114 2356
-1084.13 1115.89 2360
-1078.49 1115.89 2360
-1075.57 1118.73 2366
-1073.08 1122.04 2373
-1067.4 1122.04 2373
-1061.73 1122.04 2373
-1052.94 1118.73 2366
-1047.28 1118.73 2366
-1041.62 1118.73 2366
-1033.34 1115.89 2360
-1027.69 1115.89 2360
-1024.65 1118.73 2366
-1025.02 1125.35 2380
-1019.33 1125.35 2380
-1013.64 1125.35 2380
-1003.71 1120.62 2370
-998.045 1120.62 2370
-985.259 1112.58 2353
-974.22 1106.43 2340
-960.346 1096.98 2320
-954.798 1096.98 2320
-946.795 1094.14 2314
-930.686 1081.85 2288
-924.001 1080.43 2285
-918.537 1080.43 2285
-913.073 1080.43 2285
-908.8 1081.85 2288
-904.908 1083.74 2292
-899.427 1083.74 2292
-893.947 1083.74 2292
-886.915 1081.85 2288
-881.444 1081.85 2288
-875.973 1081.85 2288
-869.36 1080.43 2285
-863.896 1080.43 2285
-857.305 1079.01 2282
-851.848 1079.01 2282
-848.616 1081.85 2288
-843.145 1081.85 2288
-839.138 1083.74 2292
-834.748 1085.16 2295
-830.344 1086.58 2298
-824.849 1086.58 2298
-821.493 1089.41 2304
-815.984 1089.41 2304
-810.474 1089.41 2304
-801.82 1085.16 2295
-796.332 1085.16 2295
-790.844 1085.16 2295
-785.356 1085.16 2295
-779.868 1085.16 2295
-774.38 1085.16 2295
-768.892 1085.16 2295
-766.397 1089.41 2304
-760.888 1089.41 2304
-756.362 1090.83 2307
-750.845 1090.83 2307
-745.328 1090.83 2307
-738.85 1089.41 2304
-731.43 1086.58 2298
-725.935 1086.58 2298
-720.44 1086.58 2298
-714.011 1085.16 2295
-707.597 1083.74 2292
-702.116 1083.74 2292
-697.547 1085.16 2295
-692.059 1085.16 2295
-688.366 1087.99 2301
-685.831 1092.72 2311
-681.188 1094.14 2314
-675.655 1094.14 2314
-671.859 1096.98 2320
-666.311 1096.98 2320
-665.605 1105.02 2337
-660.017 1105.02 2337
-655.268 1106.43 2340
-649.672 1106.43 2340
-644.077 1106.43 2340
-637.663 1105.02 2337
-632.074 1105.02 2337
-627.29 1106.43 2340
-621.694 1106.43 2340
-616.099 1106.43 2340
-610.503 1106.43 2340
-604.907 1106.43 2340
-599.312 1106.43 2340
-591.94 1103.12 2333
-586.361 1103.12 2333
-580.035 1101.71 2330
-574.464 1101.71 2330
-568.892 1101.71 2330
-563.32 1101.71 2330
-557.03 1100.29 2327
-551.466 1100.29 2327
-545.901 1100.29 2327
-540.337 1100.29 2327
-534.772 1100.29 2327
-527.615 1096.98 2320
-522.068 1096.98 2320
-516.52 1096.98 2320
-511.633 1098.4 2323
-508.256 1103.12 2333
-502.677 1103.12 2333
-497.098 1103.12 2333
-491.52 1103.12 2333
-485.941 1103.12 2333
-480.362 1103.12 2333
-474.172 1101.71 2330
-468.601 1101.71 2330
-463.625 1103.12 2333
-458.046 1103.12 2333
-452.467 1103.12 2333
-446.888 1103.12 2333
-440.174 1100.29 2327
-434.61 1100.29 2327
-429.045 1100.29 2327
-423.481 1100.29 2327
-417.198 1098.4 2323
-411.643 1098.4 2323
-406.088 1098.4 2323
-401.74 1101.71 2330
-396.168 1101.71 2330
-390.596 1101.71 2330
-385.025 1101.71 2330
-379.453 1101.71 2330
-373.881 1101.71 2330
-368.309 1101.71 2330
-362.738 1101.71 2330
-357.166 1101.71 2330
-352.047 1103.12 2333
-346.468 1103.12 2333
-340.889 1103.12 2333
-335.31 1103.12 2333
-328.883 1100.29 2327
-323.319 1100.29 2327
-317.754 1100.29 2327
-312.189 1100.29 2327
-307.416 1103.12 2333
-302.742 1106.43 2340
-297.528 1107.85 2343
-291.925 1107.85 2343
-287.177 1111.16 2350
-281.558 1111.16 2350
-275.938 1111.16 2350
-270.319 1111.16 2350
-264.249 1109.27 2346
-258.308 1107.85 2343
-252.705 1107.85 2343
-247.102 1107.85 2343
-241.19 1106.43 2340
-235.594 1106.43 2340
-229.999 1106.43 2340
-224.115 1105.02 2337
-218.527 1105.02 2337
-212.301 1101.71 2330
-207.616 1106.43 2340
-202.021 1106.43 2340
-198.104 1115.89 2360
-193.52 1122.04 2373
-187.846 1122.04 2373
-182.171 1122.04 2373
-175.009 1112.58 2353
-168.447 1106.43 2340
-159.51 1083.74 2292
-154.03 1083.74 2292
-147.123 1073.34 2270
50.6934 1012.81 2142
55.8155 1012.81 2142
60.9377 1012.81 2142
66.1216 1013.76 2144
71.3482 1015.18 2147
76.4823 1015.18 2147
81.6165 1015.18 2147
86.7506 1015.18 2147
91.8847 1015.18 2147
217.143 1076.17 2276
224.15 1083.74 2292
231.835 1094.14 2314
237.369 1094.14 2314
244.582 1101.71 2330
250.905 1105.02 2337
256.493 1105.02 2337
262.082 1105.02 2337
268.014 1106.43 2340
273.96 1107.85 2343
279.563 1107.85 2343
285.531 1109.27 2346
291.141 1109.27 2346
297.637 1112.58 2353
303.65 1114 2356
309.284 1114 2356
314.918 1114 2356
321.096 1115.89 2360
327.57 1118.73 2366
334.214 1122.04 2373
339.888 1122.04 2373
345.563 1122.04 2373
351.238 1122.04 2373
356.912 1122.04 2373
362.587 1122.04 2373
367.175 1118.73 2366
371.887 1115.89 2360
377.531 1115.89 2360
382.038 1112.58 2353
387.17 1111.16 2350
392.79 1111.16 2350
398.409 1111.16 2350
404.029 1111.16 2350
408.428 1107.85 2343
413.501 1106.43 2340
419.096 1106.43 2340
424.692 1106.43 2340
429.736 1105.02 2337
434.58 1103.12 2333
439.592 1101.71 2330
445.164 1101.71 2330
449.382 1098.4 2323
454.937 1098.4 2323
459.302 1095.56 2317
466.047 1098.4 2323
471.602 1098.4 2323
478.595 1101.71 2330
485.621 1105.02 2337
491.84 1106.43 2340
497.436 1106.43 2340
503.676 1107.85 2343
509.931 1109.27 2346
515.541 1109.27 2346
521.151 1109.27 2346
527.659 1111.16 2350
533.279 1111.16 2350
538.898 1111.16 2350
543.591 1109.27 2346
548.499 1107.85 2343
555.757 1111.16 2350
561.377 1111.16 2350
566.996 1111.16 2350
572.616 1111.16 2350
577.251 1109.27 2346
583.855 1111.16 2350
589.474 1111.16 2350
595.094 1111.16 2350
600.714 1111.16 2350
606.333 1111.16 2350
611.953 1111.16 2350
614.156 1105.02 2337
619.744 1105.02 2337
625.333 1105.02 2337
630.921 1105.02 2337
636.51 1105.02 2337
642.098 1105.02 2337
647.687 1105.02 2337
656.909 1111.16 2350
662.529 1111.16 2350
670.991 1115.89 2360
677.495 1117.31 2363
684.013 1118.73 2366
689.671 1118.73 2366
699.443 1125.35 2380
706.023 1126.77 2383
713.812 1130.08 2390
719.527 1130.08 2390
726.153 1131.49 2393
733.099 1133.39 2397
738.831 1133.39 2397
747.669 1138.11 2407
753.425 1138.11 2407
759.181 1138.11 2407
764.937 1138.11 2407
770.692 1138.11 2407
776.448 1138.11 2407
779.929 1134.8 2400
784.686 1133.39 2397
790.418 1133.39 2397
796.15 1133.39 2397
799.54 1130.08 2390
804.245 1128.66 2387
809.953 1128.66 2387
810.877 1122.04 2373
812.078 1115.89 2360
812.871 1109.27 2346
818.481 1109.27 2346
820.929 1105.02 2337
826.518 1105.02 2337
832.106 1105.02 2337
837.695 1105.02 2337
844.366 1106.43 2340
849.961 1106.43 2340
856.654 1107.85 2343
867.041 1114 2356
874.157 1115.89 2360
879.8 1115.89 2360
890.321 1122.04 2373
898.639 1125.35 2380
908.13 1130.08 2390
913.845 1130.08 2390
927.64 1140.01 2411
937.277 1144.73 2421
943.066 1144.73 2421
948.855 1144.73 2421
960.165 1151.35 2435
965.988 1151.35 2435
977.797 1158.45 2450
983.656 1158.45 2450
1004.05 1175.47 2486
1011.62 1177.36 2490
1022.07 1182.56 2501
1028.05 1182.56 2501
1035.69 1184.45 2505
1043.34 1186.34 2509
1050.6 1187.76 2512
1056.6 1187.76 2512
1062.61 1187.76 2512
1068.62 1187.76 2512
1074.62 1187.76 2512
1079.34 1186.34 2509
1078.85 1179.25 2494
1078.29 1172.16 2479
1074.6 1161.76 2457
1080.47 1161.76 2457
1078.39 1153.25 2439
1070 1138.11 2407
1075.75 1138.11 2407
1081.51 1138.11 2407
1084.1 1134.8 2400
1089.84 1134.8 2400
1094.21 1133.39 2397
1099.94 1133.39 2397
1105.68 1133.39 2397
1108.16 1130.08 2390
1113.88 1130.08 2390
1118.19 1128.66 2387
1123.9 1128.66 2387
1124.4 1123.46 2376
1125.32 1118.73 2366
1124.77 1112.58 2353
1130.39 1112.58 2353
1132.64 1109.27 2346
1136.8 1107.85 2343
1143.86 1109.27 2346
1149.47 1109.27 2346
1155.08 1109.27 2346
1159.21 1107.85 2343
1163.32 1106.43 2340
1167.41 1105.02 2337
1173 1105.02 2337
1178.59 1105.02 2337
1182.15 1103.12 2333
1187.73 1103.12 2333
1193.31 1103.12 2333
1197.35 1101.71 2330
1201.37 1100.29 2327
1206.94 1100.29 2327
1212.5 1100.29 2327
1218.07 1100.29 2327
1223.63 1100.29 2327
1234.48 1105.02 2337
1243.25 1107.85 2343
1248.85 1107.85 2343
1259.81 1112.58 2353
1267.05 1114 2356
1274.84 1115.89 2360
1285.91 1120.62 2370
1291.58 1120.62 2370
1297.25 1120.62 2370
1302.91 1120.62 2370
1311.9 1123.46 2376
1317.58 1123.46 2376
1327.16 1126.77 2383
1335.09 1128.66 2387
1340.8 1128.66 2387
1346.51 1128.66 2387
1352.22 1128.66 2387
1357.92 1128.66 2387
1363.63 1128.66 2387
1367.05 1126.77 2383
1372.74 1126.77 2383
1378.44 1126.77 2383
1384.14 1126.77 2383
1382.26 1120.62 2370
1364.5 1101.71 2330
1368.31 1100.29 2327
1375.64 1101.71 2330
1381.22 1101.71 2330
1386.79 1101.71 2330
1390.57 1100.29 2327
1391.93 1096.98 2320
1405.31 1103.12 2333
1410.89 1103.12 2333
1422.54 1107.85 2343
1434.24 1112.58 2353
1450.27 1120.62 2370
1455.93 1120.62 2370
1467.77 1125.35 2380
1485.84 1134.8 2400
1491.58 1134.8 2400
1497.32 1134.8 2400
1503.06 1134.8 2400
1515.71 1140.01 2411
1521.48 1140.01 2411
1527.24 1140.01 2411
1543.82 1148.04 2428
1549.63 1148.04 2428
1559.92 1151.35 2435
1565.74 1151.35 2435
1571.56 1151.35 2435
1568.32 1144.73 2421
1574.1 1144.73 2421
1591.64 1153.25 2439
1597.47 1153.25 2439
1603.31 1153.25 2439
1595.28 1143.32 2418
1601.06 1143.32 2418
1604.19 1141.42 2414
1595.96 1131.49 2393
1599.67 1130.08 2390
1605.39 1130.08 2390
1609.08 1128.66 2387
1614.79 1128.66 2387
1613.03 1123.46 2376
1618.71 1123.46 2376
1624.39 1123.46 2376
1628.01 1122.04 2373
1633.69 1122.04 2373
1639.36 1122.04 2373
1645.04 1122.04 2373
1650.71 1122.04 2373
1647.31 1115.89 2360
1643.15 1109.27 2346
1648.76 1109.27 2346
1650.14 1106.43 2340
1653.61 1105.02 2337
1656.36 1103.12 2333
1661.94 1103.12 2333
1667.52 1103.12 2333
1673.1 1103.12 2333
1678.68 1103.12 2333
1684.26 1103.12 2333
1689.83 1103.12 2333
1688.15 1098.4 2323
1689.33 1095.56 2317
1694.87 1095.56 2317
1700.41 1095.56 2317
1705.95 1095.56 2317
1709.27 1094.14 2314
1712.58 1092.72 2311
1718.11 1092.72 2311
1716.18 1087.99 2301
1711.95 1081.85 2288
1715.17 1080.43 2285
1722.9 1081.85 2288
1731.39 1083.74 2292
1736.87 1083.74 2292
1742.35 1083.74 2292
1754.69 1087.99 2301
1760.2 1087.99 2301
-1563.03 1101.11 2317
-1557.49 1101.11 2317
-1551.95 1101.11 2317
-1546.41 1101.11 2317
-1540.87 1101.11 2317
-1535.33 1101.11 2317
-1529.79 1101.11 2317
-1520.3 1098.26 2311
-1514.78 1098.26 2311
-1509.25 1098.26 2311
-1501.12 1096.36 2307
-1493.66 1094.93 2304
-1488.15 1094.93 2304
-1480.71 1093.51 2301
-1475.21 1093.51 2301
-1469.71 1093.51 2301
-1464.2 1093.51 2301
-1458.7 1093.51 2301
-1449.41 1090.65 2295
-1443.92 1090.65 2295
-1438.43 1090.65 2295
-1432.94 1090.65 2295
-1425.59 1089.23 2292
-1420.11 1089.23 2292
-1414.63 1089.23 2292
-1409.15 1089.23 2292
-1401.22 1087.33 2288
-1393.92 1085.9 2285
-1392.71 1089.23 2292
-1390.86 1092.08 2298
-1385.36 1092.08 2298
-1387.67 1098.26 2311
-1385.73 1101.11 2317
-1386.15 1105.86 2327
-1380.59 1105.86 2327
-1375.02 1105.86 2327
-1360.04 1098.26 2311
-1354.51 1098.26 2311
-1348.99 1098.26 2311
-1345.21 1099.68 2314
-1350.67 1108.71 2333
-1345.09 1108.71 2333
-1339.51 1108.71 2333
-1333.93 1108.71 2333
-1328.36 1108.71 2333
-1322.78 1108.71 2333
-1313.81 1105.86 2327
-1308.25 1105.86 2327
-1304.36 1107.29 2330
-1298.79 1107.29 2330
-1293.22 1107.29 2330
-1280.46 1101.11 2317
-1274.92 1101.11 2317
-1269.38 1101.11 2317
-1263.84 1101.11 2317
-1259.93 1102.54 2320
-1254.38 1102.54 2320
-1259.6 1112.04 2340
-1254 1112.04 2340
-1248.41 1112.04 2340
-1242.81 1112.04 2340
-1237.22 1112.04 2340
-1230.04 1110.61 2337
-1217.12 1103.96 2323
-1211.56 1103.96 2323
-1206.01 1103.96 2323
-1198.9 1102.54 2320
-1191.81 1101.11 2317
-1184.73 1099.68 2314
-1179.2 1099.68 2314
-1172.15 1098.26 2311
-1160.06 1092.08 2298
-1149.54 1087.33 2288
-1144.07 1087.33 2288
-1138.6 1087.33 2288
-1131.64 1085.9 2285
-1129.62 1089.23 2292
-1124.14 1089.23 2292
-1118.66 1089.23 2292
-1113.18 1089.23 2292
-1113.5 1094.93 2304
-1109.43 1096.36 2307
-1110.14 1102.54 2320
-1104.59 1102.54 2320
-1100.46 1103.96 2323
-1094.91 1103.96 2323
-1092.64 1107.29 2330
-1087.06 1107.29 2330
-1084.74 1110.61 2337
-1080.54 1112.04 2340
-1079.54 1116.79 2350
-1073.92 1116.79 2350
-1071.02 1119.64 2356
-1069.91 1124.4 2366
-1064.25 1124.4 2366
-1058.6 1124.4 2366
-1044.04 1114.89 2346
-1038.43 1114.89 2346
-1032.82 1114.89 2346
-1027.21 1114.89 2346
-1021.6 1114.89 2346
-1017.72 1116.79 2350
-1016.41 1121.54 2360
-1010.76 1121.54 2360
-1005.12 1121.54 2360
-999.477 1121.54 2360
-993.834 1121.54 2360
-972.698 1103.96 2323
-965.893 1102.54 2320
-957.862 1099.68 2314
-952.329 1099.68 2314
-934.929 1085.9 2285
-925.804 1081.63 2276
-920.362 1081.63 2276
-916.125 1083.05 2279
-910.675 1083.05 2279
-905.226 1083.05 2279
-904.908 1089.23 2292
-899.427 1089.23 2292
-893.947 1089.23 2292
-886.915 1087.33 2288
-881.444 1087.33 2288
-875.973 1087.33 2288
-869.36 1085.9 2285
-863.896 1085.9 2285
-857.305 1084.48 2282
-851.848 1084.48 2282
-847.503 1085.9 2285
-842.039 1085.9 2285
-837.673 1087.33 2288
-833.657 1089.23 2292
-830.344 1092.08 2298
-824.849 1092.08 2298
-820.423 1093.51 2301
-814.921 1093.51 2301
-809.419 1093.51 2301
-801.82 1090.65 2295
-796.332 1090.65 2295
-786.364 1084.48 2282
-780.907 1084.48 2282
-775.45 1084.48 2282
-772.018 1087.33 2288
-767.887 1089.23 2292
-763.404 1090.65 2295
-757.916 1090.65 2295
-752.428 1090.65 2295
-746.94 1090.65 2295
-741.452 1090.65 2295
-735.964 1090.65 2295
-729.521 1089.23 2292
-721.828 1085.9 2285
-716.364 1085.9 2285
-709.967 1084.48 2282
-704.51 1084.48 2282
-698.134 1083.05 2279
-692.684 1083.05 2279
-686.33 1081.63 2276
-683.58 1085.9 2285
-681.083 1090.65 2295
-676.478 1092.08 2298
-670.983 1092.08 2298
-666.357 1093.51 2301
-663.726 1098.26 2311
-659.909 1101.11 2317
-654.368 1101.11 2317
-648.827 1101.11 2317
-644.12 1102.54 2320
-638.572 1102.54 2320
-633.024 1102.54 2320
-627.476 1102.54 2320
-624.609 1107.29 2330
-619.037 1107.29 2330
-613.466 1107.29 2330
-607.894 1107.29 2330
-602.322 1107.29 2330
-596.75 1107.29 2330
-591.179 1107.29 2330
-584.853 1105.86 2327
-579.288 1105.86 2327
-573.724 1105.86 2327
-568.159 1105.86 2327
-561.628 1103.96 2323
-555.355 1102.54 2320
-549.807 1102.54 2320
-544.259 1102.54 2320
-538.711 1102.54 2320
-532.474 1101.11 2317
-525.569 1098.26 2311
-520.042 1098.26 2311
-513.625 1096.36 2307
-509.651 1099.68 2314
-504.117 1099.68 2314
-498.584 1099.68 2314
-493.05 1099.68 2314
-487.517 1099.68 2314
-481.983 1099.68 2314
-476.45 1099.68 2314
-470.916 1099.68 2314
-465.986 1101.11 2317
-461.042 1102.54 2320
-455.494 1102.54 2320
-449.946 1102.54 2320
-444.398 1102.54 2320
-438.283 1101.11 2317
-432.742 1101.11 2317
-427.202 1101.11 2317
-421.661 1101.11 2317
-415.581 1099.68 2314
-410.58 1101.11 2317
-405.039 1101.11 2317
-400.016 1102.54 2320
-394.468 1102.54 2320
-389.423 1103.96 2323
-383.868 1103.96 2323
-378.313 1103.96 2323
-372.758 1103.96 2323
-366.729 1102.54 2320
-361.181 1102.54 2320
-355.633 1102.54 2320
-350.538 1103.96 2323
-344.983 1103.96 2323
-339.428 1103.96 2323
-333.873 1103.96 2323
-327.47 1101.11 2317
-321.929 1101.11 2317
-316.389 1101.11 2317
-310.848 1101.11 2317
-306.098 1103.96 2323
-301.837 1108.71 2333
-296.766 1110.61 2337
-291.177 1110.61 2337
-286.322 1113.47 2343
-280.719 1113.47 2343
-275.116 1113.47 2343
-269.513 1113.47 2343
-262.784 1108.71 2333
-256.875 1107.29 2330
-251.303 1107.29 2330
-245.731 1107.29 2330
-239.438 1103.96 2323
-233.883 1103.96 2323
-228.328 1103.96 2323
-222.485 1102.54 2320
-216.376 1099.68 2314
-210.569 1098.26 2311
-206.463 1105.86 2327
-200.898 1105.86 2327
-198.104 1121.54 2360
-193.52 1127.72 2373
-187.846 1127.72 2373
-182.171 1127.72 2373
-174.042 1112.04 2340
-165.855 1094.93 2304
-159.51 1089.23 2292
-154.03 1089.23 2292
-147.123 1078.77 2270
50.6934 1017.94 2142
55.8155 1017.94 2142
60.9377 1017.94 2142
66.1216 1018.89 2144
71.3482 1020.32 2147
76.4823 1020.32 2147
81.6165 1020.32 2147
86.7506 1020.32 2147
91.8847 1020.32 2147
218.669 1089.23 2292
226.008 1098.26 2311
232.136 1101.11 2317
237.676 1101.11 2317
245.316 1110.61 2337
251.549 1113.47 2343
257.152 1113.47 2343
262.755 1113.47 2343
268.358 1113.47 2343
273.96 1113.47 2343
280.398 1116.79 2350
286.018 1116.79 2350
291.638 1116.79 2350
297.637 1118.22 2353
303.65 1119.64 2356
309.284 1119.64 2356
314.918 1119.64 2356
321.096 1121.54 2360
327.57 1124.4 2366
334.214 1127.72 2373
339.888 1127.72 2373
345.563 1127.72 2373
351.238 1127.72 2373
356.912 1127.72 2373
362.587 1127.72 2373
367.175 1124.4 2366
371.887 1121.54 2360
377.531 1121.54 2360
382.038 1118.22 2353
387.17 1116.79 2350
392.79 1116.79 2350
398.409 1116.79 2350
404.029 1116.79 2350
408.428 1113.47 2343
413.501 1112.04 2340
419.096 1112.04 2340
424.692 1112.04 2340
429.736 1110.61 2337
434.58 1108.71 2333
439.592 1107.29 2330
445.164 1107.29 2330
449.382 1103.96 2323
454.937 1103.96 2323
459.302 1101.11 2317
466.047 1103.96 2323
471.602 1103.96 2323
478.595 1107.29 2330
485.621 1110.61 2337
491.84 1112.04 2340
497.436 1112.04 2340
503.676 1113.47 2343
509.931 1114.89 2346
515.541 1114.89 2346
521.151 1114.89 2346
527.659 1116.79 2350
533.279 1116.79 2350
538.898 1116.79 2350
543.591 1114.89 2346
548.499 1113.47 2343
554.102 1113.47 2343
559.704 1113.47 2343
565.307 1113.47 2343
570.91 1113.47 2343
575.775 1112.04 2340
581.37 1112.04 2340
586.966 1112.04 2340
592.562 1112.04 2340
597.39 1110.61 2337
602.979 1110.61 2337
608.567 1110.61 2337
611.528 1105.86 2327
617.092 1105.86 2327
624.262 1108.71 2333
629.841 1108.71 2333
635.42 1108.71 2333
640.999 1108.71 2333
646.578 1108.71 2333
655.791 1114.89 2346
661.401 1114.89 2346
668.148 1116.79 2350
676.635 1121.54 2360
683.146 1122.97 2363
688.796 1122.97 2363
697.386 1127.72 2373
705.134 1131.05 2380
711.722 1132.47 2383
718.624 1134.38 2387
724.332 1134.38 2387
730.04 1134.38 2387
737.598 1137.23 2393
744.563 1139.13 2397
750.295 1139.13 2397
756.027 1139.13 2397
761.759 1139.13 2397
767.491 1139.13 2397
770.964 1135.8 2390
775.705 1134.38 2387
780.103 1132.47 2383
785.802 1132.47 2383
789.175 1129.15 2376
794.857 1129.15 2376
800.539 1129.15 2376
806.22 1129.15 2376
807.46 1122.97 2363
808.637 1116.79 2350
809.753 1110.61 2337
815.341 1110.61 2337
817.417 1105.86 2327
822.981 1105.86 2327
829.614 1107.29 2330
835.186 1107.29 2330
841.84 1108.71 2333
847.419 1108.71 2333
854.46 1110.61 2337
862.257 1113.47 2343
872.675 1119.64 2356
878.309 1119.64 2356
885.443 1121.54 2360
895.995 1127.72 2373
906.99 1134.38 2387
912.698 1134.38 2387
919.56 1135.8 2390
933.405 1145.78 2411
939.171 1145.78 2411
944.936 1145.78 2411
953.462 1149.11 2418
959.244 1149.11 2418
970.614 1155.76 2432
976.429 1155.76 2432
986.688 1160.99 2443
1010 1181.42 2486
1015.94 1181.42 2486
1021.89 1181.42 2486
1029.49 1183.32 2490
1038.35 1186.65 2497
1044.32 1186.65 2497
1050.29 1186.65 2497
1056.27 1186.65 2497
1062.24 1186.65 2497
1068.21 1186.65 2497
1071.17 1183.32 2490
1068.9 1174.3 2471
1068.72 1167.64 2457
1063.66 1155.76 2432
1069.48 1155.76 2432
1064.24 1143.88 2407
1066.89 1140.55 2400
1072.62 1140.55 2400
1078.36 1140.55 2400
1082.75 1139.13 2397
1088.48 1139.13 2397
1094.21 1139.13 2397
1099.94 1139.13 2397
1101.06 1134.38 2387
1106.77 1134.38 2387
1112.48 1134.38 2387
1118.19 1134.38 2387
1123.9 1134.38 2387
1119.67 1124.4 2366
1123.9 1122.97 2363
1123.33 1116.79 2350
1128.95 1116.79 2350
1131.19 1113.47 2343
1136.8 1113.47 2343
1143.86 1114.89 2346
1149.47 1114.89 2346
1155.08 1114.89 2346
1157.72 1112.04 2340
1161.83 1110.61 2337
1167.41 1110.61 2337
1173 1110.61 2337
1176.57 1108.71 2333
1180.63 1107.29 2330
1186.21 1107.29 2330
1191.78 1107.29 2330
1195.81 1105.86 2327
1201.37 1105.86 2327
1204.86 1103.96 2323
1210.42 1103.96 2323
1212.83 1101.11 2317
1216.79 1099.68 2314
1225.5 1102.54 2320
1236.35 1107.29 2330
1241.92 1107.29 2330
1252.85 1112.04 2340
1260.06 1113.47 2343
1269.44 1116.79 2350
1278.32 1119.64 2356
1283.95 1119.64 2356
1289.58 1119.64 2356
1299.07 1122.97 2363
1306.37 1124.4 2366
1312.03 1124.4 2366
1323.26 1129.15 2376
1332.86 1132.47 2383
1340.8 1134.38 2387
1346.51 1134.38 2387
1352.22 1134.38 2387
1355.65 1132.47 2383
1361.35 1132.47 2383
1367.05 1132.47 2383
1372.74 1132.47 2383
1378.44 1132.47 2383
1384.14 1132.47 2383
1382.26 1126.3 2370
1364.5 1107.29 2330
1370.07 1107.29 2330
1375.64 1107.29 2330
1381.22 1107.29 2330
1386.79 1107.29 2330
1390.57 1105.86 2327
1391.93 1102.54 2320
1411.33 1113.47 2343
1416.94 1113.47 2343
1426.79 1116.79 2350
1436.07 1119.64 2356
1452.1 1127.72 2373
1457.78 1127.72 2373
1469.62 1132.47 2383
1477.79 1134.38 2387
1489.72 1139.13 2397
1495.45 1139.13 2397
1501.18 1139.13 2397
1508.8 1140.55 2400
1514.54 1140.55 2400
1520.28 1140.55 2400
1530.47 1143.88 2407
1536.22 1143.88 2407
1541.98 1143.88 2407
1543.23 1140.55 2400
1548.97 1140.55 2400
1557.3 1142.45 2404
1563.05 1142.45 2404
1568.8 1142.45 2404
1574.55 1142.45 2404
1580.3 1142.45 2404
1581.43 1139.13 2397
1587.16 1139.13 2397
1588.24 1135.8 2390
1584.62 1129.15 2376
1586.28 1126.3 2370
1591.95 1126.3 2370
1597.62 1126.3 2370
1603.29 1126.3 2370
1608.95 1126.3 2370
1614.62 1126.3 2370
1620.29 1126.3 2370
1625.96 1126.3 2370
1631.62 1126.3 2370
1634.53 1124.4 2366
1640.19 1124.4 2366
1643.76 1122.97 2363
1647.31 1121.54 2360
1641.05 1113.47 2343
1646.65 1113.47 2343
1648.02 1110.61 2337
1653.61 1110.61 2337
1656.36 1108.71 2333
1661.94 1108.71 2333
1667.52 1108.71 2333
1673.1 1108.71 2333
1678.68 1108.71 2333
1684.26 1108.71 2333
1689.83 1108.71 2333
1688.15 1103.96 2323
1689.33 1101.11 2317
1694.87 1101.11 2317
1700.41 1101.11 2317
1705.95 1101.11 2317
1709.27 1099.68 2314
1712.58 1098.26 2311
1718.11 1098.26 2311
1716.18 1093.51 2301
1711.95 1087.33 2288
1715.17 1085.9 2285
1720.64 1085.9 2285
1726.1 1085.9 2285
1731.56 1085.9 2285
1737.03 1085.9 2285
1742.49 1085.9 2285
1747.96 1085.9 2285
-1563.03 1106.66 2317
-1557.49 1106.66 2317
-1551.95 1106.66 2317
-1546.41 1106.66 2317
-1540.87 1106.66 2317
-1535.33 1106.66 2317
-1529.79 1106.66 2317
-1520.3 1103.79 2311
-1514.78 1103.79 2311
-1509.25 1103.79 2311
-1501.12 1101.88 2307
-1493.66 1100.45 2304
-1488.15 1100.45 2304
-1480.71 1099.02 2301
-1475.21 1099.02 2301
-1469.71 1099.02 2301
-1464.2 1099.02 2301
-1458.7 1099.02 2301
-1449.41 1096.15 2295
-1443.92 1096.15 2295
-1438.43 1096.15 2295
-1432.94 1096.15 2295
-1425.59 1094.72 2292
-1420.11 1094.72 2292
-1414.63 1094.72 2292
-1409.15 1094.72 2292
-1401.22 1092.81 2288
-1393.92 1091.38 2285
-1392.71 1094.72 2292
-1390.86 1097.59 2298
-1385.36 1097.59 2298
-1387.67 1103.79 2311
-1385.73 1106.66 2317
-1386.15 1111.44 2327
-1380.59 1111.44 2327
-1375.02 1111.44 2327
-1360.04 1103.79 2311
-1354.51 1103.79 2311
-1348.99 1103.79 2311
-1345.21 1105.23 2314
-1350.67 1114.3 2333
-1345.09 1114.3 2333
-1339.51 1114.3 2333
-1333.93 1114.3 2333
-1328.36 1114.3 2333
-1322.78 1114.3 2333
-1313.81 1111.44 2327
-1308.25 1111.44 2327
-1304.36 1112.87 2330
-1298.79 1112.87 2330
-1293.22 1112.87 2330
-1280.46 1106.66 2317
-1274.92 1106.66 2317
-1269.38 1106.66 2317
-1263.84 1106.66 2317
-1256.67 1105.23 2314
-1249.51 1103.79 2311
-1247.22 1106.66 2317
-1241.68 1106.66 2317
-1236.14 1106.66 2317
-1232.19 1108.09 2320
-1226.64 1108.09 2320
-1221.09 1108.09 2320
-1215.55 1108.09 2320
-1210 1108.09 2320
-1204.45 1108.09 2320
-1197.35 1106.66 2317
-1190.27 1105.23 2314
-1183.2 1103.79 2311
-1177.67 1103.79 2311
-1158.96 1091.38 2285
-1153.49 1091.38 2285
-1146.52 1089.94 2282
-1141.07 1089.94 2282
-1134.12 1088.51 2279
-1125.7 1085.64 2273
-1120.26 1085.64 2273
-1122.18 1092.81 2288
-1116.71 1092.81 2288
-1111.24 1092.81 2288
-1107.7 1094.72 2292
-1106.55 1099.02 2301
-1103.92 1101.88 2307
-1098.4 1101.88 2307
-1096.2 1105.23 2314
-1090.67 1105.23 2314
-1089.35 1109.53 2323
-1083.8 1109.53 2323
-1078.24 1109.53 2323
-1079.15 1116.21 2337
-1074.94 1117.65 2340
-1069.35 1117.65 2340
-1066.48 1120.51 2346
-1064.03 1123.85 2353
-1058.41 1123.85 2353
-1052.78 1123.85 2353
-1041.37 1117.65 2340
-1034.44 1116.21 2337
-1028.86 1116.21 2337
-1020.2 1112.87 2330
-1014.63 1112.87 2330
-1006.03 1109.53 2323
-1000.47 1109.53 2323
-994.917 1109.53 2323
-989.362 1109.53 2323
-983.807 1109.53 2323
-978.253 1109.53 2323
-963.486 1099.02 2301
-955.485 1096.15 2295
-947.099 1092.81 2288
-941.628 1092.81 2288
-930.02 1085.64 2273
-920.923 1081.35 2264
-914.296 1079.91 2261
-914.919 1087.08 2276
-909.477 1087.08 2276
-904.034 1087.08 2276
-899.776 1088.51 2279
-894.326 1088.51 2279
-888.876 1088.51 2279
-886.915 1092.81 2288
-881.444 1092.81 2288
-875.973 1092.81 2288
-870.501 1092.81 2288
-865.03 1092.81 2288
-858.432 1091.38 2285
-852.968 1091.38 2285
-847.503 1091.38 2285
-840.934 1089.94 2282
-836.575 1091.38 2285
-832.202 1092.81 2288
-829.26 1096.15 2295
-823.772 1096.15 2295
-818.284 1096.15 2295
-812.796 1096.15 2295
-807.308 1096.15 2295
-801.82 1096.15 2295
-791.821 1089.94 2282
-786.364 1089.94 2282
-780.907 1089.94 2282
-775.45 1089.94 2282
-768.981 1088.51 2279
-763.531 1088.51 2279
-761.075 1092.81 2288
-755.604 1092.81 2288
-751.444 1094.72 2292
-745.963 1094.72 2292
-740.482 1094.72 2292
-733.719 1092.81 2288
-726.338 1089.94 2282
-719.933 1088.51 2279
-714.483 1088.51 2279
-709.034 1088.51 2279
-700.805 1084.21 2270
-693.539 1081.35 2264
-689.037 1082.78 2267
-683.616 1082.78 2267
-680.887 1087.08 2276
-678.115 1091.38 2285
-675.595 1096.15 2295
-670.107 1096.15 2295
-664.619 1096.15 2295
-659.993 1097.59 2298
-655.352 1099.02 2301
-649.849 1099.02 2301
-645.187 1100.45 2304
-639.678 1100.45 2304
-634.168 1100.45 2304
-628.658 1100.45 2304
-622.337 1099.02 2301
-620.32 1105.23 2314
-615.584 1106.66 2317
-610.043 1106.66 2317
-604.502 1106.66 2317
-598.962 1106.66 2317
-594.189 1108.09 2320
-589.403 1109.53 2323
-583.848 1109.53 2323
-578.293 1109.53 2323
-571.998 1108.09 2320
-566.45 1108.09 2320
-559.452 1105.23 2314
-553.2 1103.79 2311
-547.674 1103.79 2311
-542.148 1103.79 2311
-536.621 1103.79 2311
-531.095 1103.79 2311
-523.977 1100.45 2304
-518.467 1100.45 2304
-512.29 1099.02 2301
-507.448 1100.45 2304
-502.592 1101.88 2307
-497.937 1103.79 2311
-492.411 1103.79 2311
-486.885 1103.79 2311
-481.358 1103.79 2311
-475.832 1103.79 2311
-470.306 1103.79 2311
-464.779 1103.79 2311
-459.849 1105.23 2314
-454.316 1105.23 2314
-448.782 1105.23 2314
-443.249 1105.23 2314
-437.148 1103.79 2311
-431.622 1103.79 2311
-426.095 1103.79 2311
-420.569 1103.79 2311
-415.043 1103.79 2311
-410.048 1105.23 2314
-404.514 1105.23 2314
-398.981 1105.23 2314
-393.448 1105.23 2314
-387.914 1105.23 2314
-382.381 1105.23 2314
-376.359 1103.79 2311
-370.19 1101.88 2307
-364.199 1100.45 2304
-358.69 1100.45 2304
-353.18 1100.45 2304
-347.671 1100.45 2304
-342.161 1100.45 2304
-336.652 1100.45 2304
-331.142 1100.45 2304
-324.784 1097.59 2298
-318.872 1096.15 2295
-313.794 1097.59 2298
-308.299 1097.59 2298
-303.199 1099.02 2301
-298.99 1103.79 2311
-293.845 1105.23 2314
-288.311 1105.23 2314
-282.778 1105.23 2314
-277.245 1105.23 2314
-271.711 1105.23 2314
-266.178 1105.23 2314
-259.856 1101.88 2307
-254.339 1101.88 2307
-248.822 1101.88 2307
-243.305 1101.88 2307
-237.789 1101.88 2307
-232.272 1101.88 2307
-226.755 1101.88 2307
-220.951 1100.45 2304
-214.319 1094.72 2292
-208.838 1094.72 2292
-204.422 1100.45 2304
-198.913 1100.45 2304
-193.403 1100.45 2304
-187.893 1100.45 2304
-182.146 1099.02 2301
-176.644 1099.02 2301
-170.472 1094.72 2292
-164.487 1091.38 2285
-158.397 1087.08 2276
-152.954 1087.08 2276
-147.123 1084.21 2270
-140.696 1076.57 2254
60.6817 1018.78 2133
65.9674 1021.64 2139
71.0824 1021.64 2139
76.1973 1021.64 2139
81.1983 1020.21 2136
218.669 1094.72 2292
226.008 1103.79 2311
232.136 1106.66 2317
237.676 1106.66 2317
245.316 1116.21 2337
251.549 1119.08 2343
257.152 1119.08 2343
262.755 1119.08 2343
268.358 1119.08 2343
273.96 1119.08 2343
280.398 1122.42 2350
286.018 1122.42 2350
291.638 1122.42 2350
297.257 1122.42 2350
303.65 1125.29 2356
309.284 1125.29 2356
314.918 1125.29 2356
321.096 1127.2 2360
326.739 1127.2 2360
333.228 1130.06 2366
338.886 1130.06 2366
345.126 1131.97 2370
350.793 1131.97 2370
356.461 1131.97 2370
361.517 1130.06 2366
366.709 1128.63 2363
371.887 1127.2 2360
377.531 1127.2 2360
381.551 1122.42 2350
387.17 1122.42 2350
392.79 1122.42 2350
398.409 1122.42 2350
404.029 1122.42 2350
407.905 1117.65 2340
413.501 1117.65 2340
419.096 1117.65 2340
424.692 1117.65 2340
429.736 1116.21 2337
434.58 1114.3 2333
439.592 1112.87 2330
445.164 1112.87 2330
449.382 1109.53 2323
454.937 1109.53 2323
459.302 1106.66 2317
466.047 1109.53 2323
471.602 1109.53 2323
478.595 1112.87 2330
485.621 1116.21 2337
491.84 1117.65 2340
497.436 1117.65 2340
503.676 1119.08 2343
509.931 1120.51 2346
515.541 1120.51 2346
521.151 1120.51 2346
527.659 1122.42 2350
533.279 1122.42 2350
538.898 1122.42 2350
543.591 1120.51 2346
548.499 1119.08 2343
554.102 1119.08 2343
559.704 1119.08 2343
565.307 1119.08 2343
570.91 1119.08 2343
575.775 1117.65 2340
581.37 1117.65 2340
586.966 1117.65 2340
592.562 1117.65 2340
597.39 1116.21 2337
602.979 1116.21 2337
608.567 1116.21 2337
611.528 1111.44 2327
617.092 1111.44 2327
624.262 1114.3 2333
629.841 1114.3 2333
635.42 1114.3 2333
640.999 1114.3 2333
646.578 1114.3 2333
655.791 1120.51 2346
661.401 1120.51 2346
668.148 1122.42 2350
676.635 1127.2 2360
683.146 1128.63 2363
688.796 1128.63 2363
697.386 1133.41 2373
705.134 1136.75 2380
711.722 1138.18 2383
718.624 1140.09 2387
724.332 1140.09 2387
730.04 1140.09 2387
737.598 1142.96 2393
744.563 1144.87 2397
750.295 1144.87 2397
756.027 1144.87 2397
761.759 1144.87 2397
767.491 1144.87 2397
770.964 1141.53 2390
775.705 1140.09 2387
780.103 1138.18 2383
785.802 1138.18 2383
789.175 1134.84 2376
794.857 1134.84 2376
800.539 1134.84 2376
806.22 1134.84 2376
807.46 1128.63 2363
808.637 1122.42 2350
809.753 1116.21 2337
815.341 1116.21 2337
817.417 1111.44 2327
822.981 1111.44 2327
829.614 1112.87 2330
835.186 1112.87 2330
841.84 1114.3 2333
847.419 1114.3 2333
854.46 1116.21 2337
862.257 1119.08 2343
872.675 1125.29 2356
878.309 1125.29 2356
885.443 1127.2 2360
895.995 1133.41 2373
906.99 1140.09 2387
912.698 1140.09 2387
919.56 1141.53 2390
933.405 1151.56 2411
939.171 1151.56 2411
944.936 1151.56 2411
953.462 1154.9 2418
959.244 1154.9 2418
970.614 1161.59 2432
976.429 1161.59 2432
986.688 1166.84 2443
1010 1187.38 2486
1015.94 1187.38 2486
1021.89 1187.38 2486
1029.49 1189.29 2490
1038.35 1192.63 2497
1044.32 1192.63 2497
1050.29 1192.63 2497
1056.27 1192.63 2497
1062.24 1192.63 2497
1068.21 1192.63 2497
1071.17 1189.29 2490
1068.9 1180.21 2471
1068.72 1173.53 2457
1063.66 1161.59 2432
1069.48 1161.59 2432
1064.24 1149.65 2407
1066.89 1146.3 2400
1072.62 1146.3 2400
1078.36 1146.3 2400
1082.75 1144.87 2397
1088.48 1144.87 2397
1094.21 1144.87 2397
1099.94 1144.87 2397
1101.06 1140.09 2387
1106.77 1140.09 2387
1112.48 1140.09 2387
1118.19 1140.09 2387
1123.9 1140.09 2387
1119.67 1130.06 2366
1119.14 1123.85 2353
1123.33 1122.42 2350
1128.95 1122.42 2350
1128.3 1116.21 2337
1136.8 1119.08 2343
1143.86 1120.51 2346
1149.47 1120.51 2346
1155.08 1120.51 2346
1156.24 1116.21 2337
1161.83 1116.21 2337
1167.41 1116.21 2337
1173 1116.21 2337
1175.06 1112.87 2330
1179.11 1111.44 2327
1182.64 1109.53 2323
1188.2 1109.53 2323
1193.75 1109.53 2323
1199.31 1109.53 2323
1201.75 1106.66 2317
1207.29 1106.66 2317
1206.03 1100.45 2304
1211.54 1100.45 2304
1220.74 1103.79 2311
1231.04 1108.09 2320
1236.59 1108.09 2320
1247.49 1112.87 2330
1253.07 1112.87 2330
1262.42 1116.21 2337
1271.26 1119.08 2343
1276.87 1119.08 2343
1282.47 1119.08 2343
1291.92 1122.42 2350
1297.54 1122.42 2350
1303.16 1122.42 2350
1314.35 1127.2 2360
1323.35 1130.06 2366
1329 1130.06 2366
1334.66 1130.06 2366
1340.32 1130.06 2366
1349.96 1133.41 2373
1359.63 1136.75 2380
1365.33 1136.75 2380
1371.02 1136.75 2380
1374.39 1134.84 2376
1380.08 1134.84 2376
1378.18 1128.63 2363
1364.5 1112.87 2330
1370.07 1112.87 2330
1379.78 1116.21 2337
1385.37 1116.21 2337
1390.95 1116.21 2337
1392.36 1112.87 2330
1397.93 1112.87 2330
1411.33 1119.08 2343
1416.94 1119.08 2343
1428.61 1123.85 2353
1440.33 1128.63 2363
1452.1 1133.41 2373
1457.78 1133.41 2373
1469.62 1138.18 2383
1475.32 1138.18 2383
1483.5 1140.09 2387
1489.21 1140.09 2387
1494.92 1140.09 2387
1506.91 1144.87 2397
1512.64 1144.87 2397
1518.38 1144.87 2397
1526.02 1146.3 2400
1531.76 1146.3 2400
1537.49 1146.3 2400
1538.73 1142.96 2393
1544.45 1142.96 2393
1550.18 1142.96 2393
1558.5 1144.87 2397
1564.23 1144.87 2397
1569.96 1144.87 2397
1575.7 1144.87 2397
1576.81 1141.53 2390
1582.52 1141.53 2390
1578.94 1134.84 2376
1577.95 1130.06 2366
1581.6 1128.63 2363
1587.25 1128.63 2363
1586.16 1123.85 2353
1591.79 1123.85 2353
1595.38 1122.42 2350
1601 1122.42 2350
1606.62 1122.42 2350
1609.49 1120.51 2346
1615.1 1120.51 2346
1620.71 1120.51 2346
1626.32 1120.51 2346
1631.93 1120.51 2346
1635.45 1119.08 2343
1638.95 1117.65 2340
1644.54 1117.65 2340
1645.2 1114.3 2333
1643.71 1109.53 2323
1647.13 1108.09 2320
1657.67 1111.44 2327
1667.52 1114.3 2333
1673.1 1114.3 2333
1678.68 1114.3 2333
1684.26 1114.3 2333
1689.83 1114.3 2333
1688.15 1109.53 2323
1689.33 1106.66 2317
1694.87 1106.66 2317
1700.41 1106.66 2317
1705.95 1106.66 2317
1709.27 1105.23 2314
1712.58 1103.79 2311
1718.11 1103.79 2311
1716.18 1099.02 2301
1711.95 1092.81 2288
1715.17 1091.38 2285
1720.64 1091.38 2285
1726.1 1091.38 2285
1729.29 1089.94 2282
1734.75 1089.94 2282
1742.49 1091.38 2285
1747.96 1091.38 2285
-1539.42 1095.41 2282
-1533.97 1095.41 2282
-1528.51 1095.41 2282
-1523.05 1095.41 2282
-1519.59 1096.85 2285
-1514.13 1096.85 2285
-1513.28 1100.21 2292
-1507.8 1100.21 2292
-1502.32 1100.21 2292
-1496.84 1100.21 2292
-1491.36 1100.21 2292
-1485.88 1100.21 2292
-1480.4 1100.21 2292
-1474.92 1100.21 2292
-1461.1 1093.97 2279
-1451.82 1091.09 2273
-1446.39 1091.09 2273
-1440.95 1091.09 2273
-1431.73 1088.21 2267
-1426.3 1088.21 2267
-1420.88 1088.21 2267
-1415.46 1088.21 2267
-1410.04 1088.21 2267
-1404.62 1088.21 2267
-1401.05 1089.65 2270
-1395.62 1089.65 2270
-1390.19 1089.65 2270
-1384.77 1089.65 2270
-1379.34 1089.65 2270
-1379.36 1093.97 2279
-1373.91 1093.97 2279
-1372.06 1096.85 2285
-1372.58 1101.65 2295
-1368.88 1103.09 2298
-1363.38 1103.09 2298
-1357.88 1103.09 2298
-1352.39 1103.09 2298
-1346.89 1103.09 2298
-1341.4 1103.09 2298
-1332.42 1100.21 2292
-1326.94 1100.21 2292
-1321.45 1100.21 2292
-1315.97 1100.21 2292
-1312.21 1101.65 2295
-1306.72 1101.65 2295
-1301.23 1101.65 2295
-1295.74 1101.65 2295
-1290.26 1101.65 2295
-1284.77 1101.65 2295
-1282.62 1104.53 2301
-1277.12 1104.53 2301
-1271.62 1104.53 2301
-1273.27 1110.77 2314
-1267.74 1110.77 2314
-1262.2 1110.77 2314
-1256.67 1110.77 2314
-1249.51 1109.33 2311
-1247.22 1112.21 2317
-1241.68 1112.21 2317
-1236.14 1112.21 2317
-1232.19 1113.65 2320
-1226.64 1113.65 2320
-1221.09 1113.65 2320
-1215.55 1113.65 2320
-1210 1113.65 2320
-1204.45 1113.65 2320
-1197.35 1112.21 2317
-1190.27 1110.77 2314
-1183.2 1109.33 2311
-1177.67 1109.33 2311
-1158.96 1096.85 2285
-1153.49 1096.85 2285
-1146.52 1095.41 2282
-1141.07 1095.41 2282
-1134.12 1093.97 2279
-1125.7 1091.09 2273
-1120.26 1091.09 2273
-1122.18 1098.29 2288
-1116.71 1098.29 2288
-1111.24 1098.29 2288
-1107.7 1100.21 2292
-1106.55 1104.53 2301
-1103.92 1107.41 2307
-1098.4 1107.41 2307
-1096.2 1110.77 2314
-1090.67 1110.77 2314
-1089.35 1115.09 2323
-1083.8 1115.09 2323
-1078.24 1115.09 2323
-1079.15 1121.81 2337
-1074.94 1123.25 2340
-1069.35 1123.25 2340
-1066.48 1126.13 2346
-1064.03 1129.49 2353
-1058.41 1129.49 2353
-1052.78 1129.49 2353
-1041.37 1123.25 2340
-1034.44 1121.81 2337
-1028.86 1121.81 2337
-1020.2 1118.45 2330
-1014.63 1118.45 2330
-1006.03 1115.09 2323
-1000.47 1115.09 2323
-994.917 1115.09 2323
-989.362 1115.09 2323
-983.807 1115.09 2323
-978.253 1115.09 2323
-963.486 1104.53 2301
-955.485 1101.65 2295
-947.099 1098.29 2288
-941.628 1098.29 2288
-930.02 1091.09 2273
-920.923 1086.77 2264
-914.296 1085.33 2261
-914.919 1092.53 2276
-909.477 1092.53 2276
-904.034 1092.53 2276
-899.776 1093.97 2279
-894.326 1093.97 2279
-888.876 1093.97 2279
-886.915 1098.29 2288
-881.444 1098.29 2288
-875.973 1098.29 2288
-870.501 1098.29 2288
-865.03 1098.29 2288
-858.432 1096.85 2285
-852.968 1096.85 2285
-847.503 1096.85 2285
-840.934 1095.41 2282
-836.575 1096.85 2285
-832.202 1098.29 2288
-829.26 1101.65 2295
-823.772 1101.65 2295
-818.284 1101.65 2295
-812.796 1101.65 2295
-807.308 1101.65 2295
-801.82 1101.65 2295
-791.821 1095.41 2282
-786.364 1095.41 2282
-780.907 1095.41 2282
-775.45 1095.41 2282
-768.981 1093.97 2279
-763.531 1093.97 2279
-761.075 1098.29 2288
-755.604 1098.29 2288
-751.444 1100.21 2292
-745.963 1100.21 2292
-740.482 1100.21 2292
-733.719 1098.29 2288
-726.338 1095.41 2282
-719.933 1093.97 2279
-714.483 1093.97 2279
-709.034 1093.97 2279
-700.805 1089.65 2270
-693.539 1086.77 2264
-689.037 1088.21 2267
-683.616 1088.21 2267
-680.887 1092.53 2276
-675.445 1092.53 2276
-672.651 1096.85 2285
-667.187 1096.85 2285
-661.723 1096.85 2285
-657.121 1098.29 2288
-651.649 1098.29 2288
-646.178 1098.29 2288
-640.707 1098.29 2288
-635.235 1098.29 2288
-629.764 1098.29 2288
-623.474 1096.85 2285
-618.821 1098.29 2288
-615.227 1101.65 2295
-609.739 1101.65 2295
-604.251 1101.65 2295
-598.763 1101.65 2295
-595.601 1105.97 2304
-590.86 1107.41 2307
-585.343 1107.41 2307
-579.826 1107.41 2307
-574.31 1107.41 2307
-568.053 1105.97 2304
-562.544 1105.97 2304
-556.309 1104.53 2301
-550.088 1103.09 2298
-545.304 1104.53 2301
-539.802 1104.53 2301
-534.299 1104.53 2301
-528.797 1104.53 2301
-523.294 1104.53 2301
-517.792 1104.53 2301
-511.622 1103.09 2298
-506.127 1103.09 2298
-501.938 1105.97 2304
-496.429 1105.97 2304
-490.919 1105.97 2304
-485.41 1105.97 2304
-479.9 1105.97 2304
-474.391 1105.97 2304
-468.271 1104.53 2301
-462.768 1104.53 2301
-457.862 1105.97 2304
-452.352 1105.97 2304
-446.843 1105.97 2304
-441.333 1105.97 2304
-435.824 1105.97 2304
-430.314 1105.97 2304
-424.805 1105.97 2304
-419.295 1105.97 2304
-413.785 1105.97 2304
-408.808 1107.41 2307
-403.291 1107.41 2307
-397.774 1107.41 2307
-392.257 1107.41 2307
-386.238 1105.97 2304
-380.728 1105.97 2304
-375.219 1105.97 2304
-368.746 1103.09 2298
-362.777 1101.65 2295
-357.289 1101.65 2295
-351.801 1101.65 2295
-346.313 1101.65 2295
-339.785 1098.29 2288
-334.314 1098.29 2288
-328.842 1098.29 2288
-322.947 1096.85 2285
-317.066 1095.41 2282
-311.609 1095.41 2282
-306.152 1095.41 2282
-300.695 1095.41 2282
-296.015 1098.29 2288
-291.432 1101.65 2295
-285.944 1101.65 2295
-280.456 1101.65 2295
-274.968 1101.65 2295
-269.48 1101.65 2295
-263.992 1101.65 2295
-258.166 1100.21 2292
-252.244 1098.29 2288
-246.773 1098.29 2288
-241.302 1098.29 2288
-236.243 1100.21 2292
-230.762 1100.21 2292
-225.281 1100.21 2292
-219.129 1096.85 2285
-213.665 1096.85 2285
-207.654 1093.97 2279
-203.003 1098.29 2288
-197.531 1098.29 2288
-192.06 1098.29 2288
-186.915 1100.21 2292
-181.434 1100.21 2292
-175.953 1100.21 2292
-170.175 1098.29 2288
-163.84 1092.53 2276
-158.188 1091.09 2273
-152.753 1091.09 2273
-146.928 1088.21 2267
-140.696 1081.97 2254
-132.965 1063.25 2215
-127.668 1063.25 2215
-122.095 1060.85 2210
60.6817 1023.89 2133
65.8748 1025.33 2136
70.9827 1025.33 2136
76.0905 1025.33 2136
81.1983 1025.33 2136
218.669 1100.21 2292
226.008 1109.33 2311
232.136 1112.21 2317
237.676 1112.21 2317
245.316 1121.81 2337
251.549 1124.69 2343
257.152 1124.69 2343
262.755 1124.69 2343
268.358 1124.69 2343
273.96 1124.69 2343
280.398 1128.05 2350
286.018 1128.05 2350
291.638 1128.05 2350
297.257 1128.05 2350
303.263 1129.49 2353
309.284 1130.93 2356
314.918 1130.93 2356
320.552 1130.93 2356
326.186 1130.93 2356
332.383 1132.85 2360
338.026 1132.85 2360
344.107 1134.29 2363
349.757 1134.29 2363
355.408 1134.29 2363
361.059 1134.29 2363
366.244 1132.85 2360
370.311 1128.05 2350
375.931 1128.05 2350
381.551 1128.05 2350
387.17 1128.05 2350
392.79 1128.05 2350
398.409 1128.05 2350
402.31 1123.25 2340
407.905 1123.25 2340
413.501 1123.25 2340
419.096 1123.25 2340
424.692 1123.25 2340
429.001 1119.89 2333
432.717 1115.09 2323
438.272 1115.09 2323
443.827 1115.09 2323
449.382 1115.09 2323
454.937 1115.09 2323
459.302 1112.21 2317
465.445 1113.65 2320
470.993 1113.65 2320
477.978 1117.01 2327
484.166 1118.45 2330
491.84 1123.25 2340
497.436 1123.25 2340
503.676 1124.69 2343
509.931 1126.13 2346
515.541 1126.13 2346
521.151 1126.13 2346
527.659 1128.05 2350
533.279 1128.05 2350
538.898 1128.05 2350
542.201 1123.25 2340
547.796 1123.25 2340
554.102 1124.69 2343
559.704 1124.69 2343
565.307 1124.69 2343
570.179 1123.25 2340
574.052 1119.89 2333
579.631 1119.89 2333
585.21 1119.89 2333
590.789 1119.89 2333
596.368 1119.89 2333
598.593 1113.65 2320
604.14 1113.65 2320
609.688 1113.65 2320
616.032 1115.09 2323
621.587 1115.09 2323
627.142 1115.09 2323
632.697 1115.09 2323
638.252 1115.09 2323
644.915 1117.01 2327
653.275 1121.81 2337
658.864 1121.81 2337
667.011 1126.13 2346
674.628 1129.49 2353
681.122 1130.93 2356
686.756 1130.93 2356
695.329 1135.73 2366
703.06 1139.09 2373
709.631 1140.53 2376
716.517 1142.45 2380
722.208 1142.45 2380
727.9 1142.45 2380
735.748 1145.81 2387
741.456 1145.81 2387
747.165 1145.81 2387
752.873 1145.81 2387
758.581 1145.81 2387
764.289 1145.81 2387
768.706 1143.89 2383
772.13 1140.53 2376
776.83 1139.09 2373
782.504 1139.09 2373
788.179 1139.09 2373
791.512 1135.73 2366
795.148 1132.85 2360
800.791 1132.85 2360
803.018 1128.05 2350
804.164 1121.81 2337
806.288 1117.01 2327
811.852 1117.01 2327
814.958 1113.65 2320
820.506 1113.65 2320
827.122 1115.09 2323
832.677 1115.09 2323
840.757 1118.45 2330
846.329 1118.45 2330
852.998 1119.89 2333
861.153 1123.25 2340
866.748 1123.25 2340
872.344 1123.25 2340
880.191 1126.13 2346
889.577 1130.93 2356
899.01 1135.73 2366
904.668 1135.73 2366
914.173 1140.53 2376
924.114 1145.81 2387
929.822 1145.81 2387
935.53 1145.81 2387
942.421 1147.25 2390
948.136 1147.25 2390
959.439 1153.97 2404
965.187 1153.97 2404
980.629 1165.49 2428
990.904 1170.77 2439
1002.46 1177.49 2453
1008.32 1177.49 2453
1014.19 1177.49 2453
1027.54 1186.13 2471
