-1125.78 707.661 3675
-1124.28 712.282 3699
-1122.98 717.096 3724
-1114.07 717.096 3724
-1114.96 723.451 3757
-1108.62 725.184 3766
-1101.95 726.724 3774
-1092.93 726.724 3774
-1083.9 726.724 3774
-1084.85 733.464 3809
-1075.74 733.464 3809
-1066.63 733.464 3809
-1057.52 733.464 3809
-1045.94 731.731 3800
-1036.85 731.731 3800
-1027.76 731.731 3800
-1016.53 730.19 3792
-1007.46 730.19 3792
-998.396 730.19 3792
-980.196 723.451 3757
-973.539 725.184 3766
-977.851 735.197 3818
-968.721 735.197 3818
-959.591 735.197 3818
-950.461 735.197 3818
-939.112 733.464 3809
-930.004 733.464 3809
-920.895 733.464 3809
-909.633 731.731 3800
-902.678 733.464 3809
-895.681 735.197 3818
-886.551 735.197 3818
-877.421 735.197 3818
-868.291 735.197 3818
-859.161 735.197 3818
-850.031 735.197 3818
-840.901 735.197 3818
-829.811 733.464 3809
-817.039 730.19 3792
-807.971 730.19 3792
-795.111 726.724 3774
-784.42 725.184 3766
-775.415 725.184 3766
-766.409 725.184 3766
-757.403 725.184 3766
-745.019 721.91 3749
-732.717 718.637 3732
-723.792 718.637 3732
-710.079 713.823 3707
-696.675 709.201 3683
-684.879 706.12 3667
-676.11 706.12 3667
-665.704 704.387 3658
-656.956 704.387 3658
-648.209 704.387 3658
-639.462 704.387 3658
-627.955 701.306 3642
-618.056 699.958 3635
-606.681 696.877 3619
-598.027 696.877 3619
-589.373 696.877 3619
-580.719 696.877 3619
-572.065 696.877 3619
-564.656 698.418 3627
-555.983 698.418 3627
-547.31 698.418 3627
-536.26 695.337 3611
-526.456 693.796 3603
-517.841 693.796 3603
-509.225 693.796 3603
-501.72 695.337 3611
-494.178 696.877 3619
-485.524 696.877 3619
-476.87 696.877 3619
-467.18 695.337 3611
-458.545 695.337 3611
-449.91 695.337 3611
-441.275 695.337 3611
-431.682 693.796 3603
-423.066 693.796 3603
-414.45 693.796 3603
-405.834 693.796 3603
-397.219 693.796 3603
-388.603 693.796 3603
-379.987 693.796 3603
-371.371 693.796 3603
-362.755 693.796 3603
-354.139 693.796 3603
-345.523 693.796 3603
-336.907 693.796 3603
-328.292 693.796 3603
-319.676 693.796 3603
-312.441 696.877 3619
-305.13 699.958 3635
-296.438 699.958 3635
-288.299 701.306 3642
-281.51 706.12 3667
-273.336 707.661 3675
-264.548 707.661 3675
-255.76 707.661 3675
-246.972 707.661 3675
-238.184 707.661 3675
-229.395 707.661 3675
-220.607 707.661 3675
-211.819 707.661 3675
-203.031 707.661 3675
-194.243 707.661 3675
-185.052 706.12 3667
-109.558 438.846 2279
-104.108 438.846 2279
-98.6582 438.846 2279
-93.2084 438.846 2279
-87.8741 439.424 2282
-82.4172 439.424 2282
-77.1626 440.579 2288
-71.6913 440.579 2288
-66.22 440.579 2288
-60.669 440.001 2285
-55.0599 438.846 2279
-49.5449 438.268 2276
-44.1022 438.268 2276
-38.6596 438.268 2276
-33.217 438.268 2276
-27.811 438.846 2279
-22.3613 438.846 2279
-16.9115 438.846 2279
-11.4466 438.268 2276
-6.00401 438.268 2276
-0.561402 438.268 2276
4.8812 438.268 2276
10.3238 438.268 2276
15.7664 438.268 2276
21.237 438.846 2279
26.7219 439.424 2282
32.1788 439.424 2282
37.6853 440.001 2285
43.1494 440.001 2285
48.6135 440.001 2285
54.0067 439.424 2282
59.3854 438.846 2279
64.9206 439.424 2282
70.3775 439.424 2282
75.8345 439.424 2282
81.1846 438.846 2279
86.5203 438.268 2276
91.8417 437.691 2273
97.2771 437.691 2273
102.577 437.113 2270
107.72 435.957 2264
113.134 435.957 2264
118.705 436.535 2267
124.126 436.535 2267
129.547 436.535 2267
134.789 435.957 2264
140.203 435.957 2264
145.617 435.957 2264
151.031 435.957 2264
156.445 435.957 2264
161.859 435.957 2264
167.273 435.957 2264
172.458 435.38 2261
177.865 435.38 2261
183.515 435.957 2264
188.928 435.957 2264
194.342 435.957 2264
199.756 435.957 2264
205.17 435.957 2264
210.305 435.38 2261
215.998 435.957 2264
221.412 435.957 2264
226.826 435.957 2264
232.24 435.957 2264
237.339 435.38 2261
241.994 434.032 2254
246.067 431.721 2242
251.428 431.721 2242
252.093 423.826 2201
257.006 423.249 2198
495.344 754.068 3916
504.709 754.068 3916
514.073 754.068 3916
522.234 752.335 3907
526.679 745.403 3871
534.69 743.67 3862
543.925 743.67 3862
550.582 740.203 3844
558.464 738.47 3835
553.573 720.177 3740
561.313 718.637 3732
570.237 718.637 3732
576.679 715.556 3716
586.826 717.096 3724
598.29 720.177 3740
608.695 721.91 3749
617.66 721.91 3749
629.466 725.184 3766
638.472 725.184 3766
651.948 730.19 3792
661.016 730.19 3792
670.083 730.19 3792
720.328 735.197 3818
729.458 735.197 3818
738.588 735.197 3818
843.739 673.385 3497
852.101 673.385 3497
860.463 673.385 3497
868.826 673.385 3497
877.188 673.385 3497
887.576 674.925 3505
895.958 674.925 3505
904.339 674.925 3505
912.721 674.925 3505
921.102 674.925 3505
929.484 674.925 3505
933.852 672.037 3490
944.087 673.385 3497
952.45 673.385 3497
960.812 673.385 3497
969.174 673.385 3497
979.773 674.925 3505
988.154 674.925 3505
996.536 674.925 3505
1002.62 673.385 3497
1013.3 674.925 3505
1021.68 674.925 3505
1030.06 674.925 3505
1038.44 674.925 3505
1046.83 674.925 3505
1048.58 670.689 3483
1056.91 670.689 3483
1065.24 670.689 3483
1068.95 667.801 3468
1077.24 667.801 3468
1085.53 667.801 3468
1089.41 665.105 3454
1104.66 669.341 3476
1112.97 669.341 3476
1121.29 669.341 3476
1129.6 669.341 3476
1137.91 669.341 3476
1143.58 667.801 3468
1151.88 667.801 3468
1162.85 669.341 3476
1171.16 669.341 3476
1184.22 672.037 3490
1192.57 672.037 3490
1200.91 672.037 3490
1209.26 672.037 3490
1215.16 670.689 3483
1228.41 673.385 3497
1242.08 676.273 3512
1250.47 676.273 3512
1266.76 680.51 3534
1283.51 684.939 3557
1292.01 684.939 3557
1300.52 684.939 3557
1311.97 686.479 3565
1326.05 689.367 3580
1340.2 692.256 3595
1348.8 692.256 3595
1366.46 696.877 3619
1375.11 696.877 3619
1383.77 696.877 3619
1392.42 696.877 3619
1397.98 695.337 3611
1394.54 689.367 3580
1403.1 689.367 3580
1402.59 684.939 3557
1401.97 680.51 3534
1404.84 677.814 3520
1398.4 670.689 3483
1406.73 670.689 3483
1394.74 661.061 3433
1382.93 651.626 3384
1377.04 645.078 3350
1385.05 645.078 3350
1379.34 638.724 3317
1381.42 636.028 3303
1383.85 633.525 3290
1389.18 632.369 3284
1397.03 632.369 3284
1399.32 629.866 3271
1404.56 628.711 3265
1409.34 627.363 3258
1417.13 627.363 3258
1419.68 625.052 3246
1421.72 622.549 3233
1429.45 622.549 3233
1437.18 622.549 3233
1442.23 621.393 3227
1449.95 621.393 3227
1457.67 621.393 3227
1465.38 621.393 3227
1473.1 621.393 3227
1480.82 621.393 3227
1488.53 621.393 3227
1496.25 621.393 3227
1503.97 621.393 3227
1511.68 621.393 3227
1516.58 620.238 3221
1515.29 616.579 3202
1522.94 616.579 3202
1527.73 615.424 3196
1520.96 609.647 3166
1522.74 607.337 3154
1530.28 607.337 3154
1523.2 601.56 3124
1522.34 598.286 3107
1520.91 594.82 3089
1528.29 594.82 3089
1513.31 586.155 3044
1496.11 576.719 2995
1471.65 564.588 2932
1476.14 563.625 2927
1483.14 563.625 2927
1479.45 559.581 2906
1473.61 554.767 2881
1475.36 552.842 2871
1482.22 552.842 2871
1481.83 550.146 2857
1480.85 547.258 2842
1485.02 546.295 2837
1489.18 545.332 2832
1495.95 545.332 2832
1502.72 545.332 2832
1507.36 544.562 2828
1514.13 544.562 2828
1520.89 544.562 2828
1524.95 543.599 2823
1526.28 541.673 2813
1530.82 540.903 2809
1537.54 540.903 2809
1536.01 538.015 2794
1542.69 538.015 2794
1547.15 537.244 2790
1553.83 537.244 2790
1557.7 536.282 2785
1559.31 534.549 2776
1565.94 534.549 2776
1585.61 538.977 2799
1592.3 538.977 2799
1599 538.977 2799
1611.43 540.903 2809
1623.33 542.636 2818
1630.07 542.636 2818
1636.81 542.636 2818
1646.46 543.599 2823
1658.48 545.332 2832
1668.2 546.295 2837
1674.98 546.295 2837
1684.73 547.258 2842
1691.52 547.258 2842
1780.19 573.638 2979
1787.31 573.638 2979
1797.45 574.601 2984
1814.26 577.682 3000
1821.43 577.682 3000
1828.61 577.682 3000
1835.78 577.682 3000
1823.3 571.52 2968
1830.39 571.52 2968
1824.49 567.477 2947
1806.06 559.581 2906
1806.77 557.656 2896
1807.43 555.73 2886
1814.33 555.73 2886
1821.23 555.73 2886
1821.8 553.805 2876
1825.5 552.842 2871
1832.36 552.842 2871
1839.23 552.842 2871
1871.81 560.544 2911
1878.77 560.544 2911
1885.74 560.544 2911
1892.7 560.544 2911
1880.08 554.767 2881
1867.98 549.183 2852
1861.65 545.332 2832
1868.42 545.332 2832
1869.23 543.599 2823
1869.34 541.673 2813
1873.4 540.903 2809
1880.11 540.903 2809
1883.47 539.94 2804
1880.74 537.244 2790
1884.03 536.282 2785
1890.69 536.282 2785
1891.22 534.549 2776
1897.86 534.549 2776
1898.32 532.816 2767
1901.5 531.853 2762
1908.1 531.853 2762
1914.7 531.853 2762
1911.57 529.157 2748
1918.14 529.157 2748
1924.71 529.157 2748
1924.96 527.424 2739
1925.16 525.691 2730
1928.86 524.921 2726
1935.38 524.921 2726
1941.9 524.921 2726
1948.42 524.921 2726
1954.94 524.921 2726
1970.81 527.424 2739
1980.97 528.387 2744
1987.53 528.387 2744
1997 529.157 2748
2007.21 530.12 2753
2016.72 530.89 2757
2023.32 530.89 2757
2029.91 530.89 2757
2040.2 531.853 2762
2057.18 534.549 2776
2063.81 534.549 2776
2073.43 535.319 2780
2090.56 538.015 2794
2104.75 539.94 2804
2111.45 539.94 2804
2176.32 554.767 2881
2190.79 556.693 2891
2236.47 566.514 2942
2243.51 566.514 2942
2250.54 566.514 2942
-2144.73 567.518 2911
-2137.77 567.518 2911
-2130.81 567.518 2911
-2123.85 567.518 2911
-2121.25 568.687 2917
-2114.28 568.687 2917
-2107.3 568.687 2917
-2114.72 572.586 2937
-2192.38 595.591 3055
-2185.08 595.591 3055
-2206.29 603.39 3095
-2228.01 611.383 3136
-2229.01 613.722 3148
-2221.48 613.722 3148
-2213.96 613.722 3148
-2210.63 614.892 3154
-2211.47 617.231 3166
-2203.9 617.231 3166
-2200.49 618.401 3172
-2192.91 618.401 3172
-2197.72 621.91 3190
-2190.1 621.91 3190
-2186.57 623.08 3196
-2208.25 631.463 3239
-2239.91 642.771 3297
-2232.02 642.771 3297
-2224.14 642.771 3297
-2220.29 643.94 3303
-2212.39 643.94 3303
-2204.49 643.94 3303
-2214.55 649.204 3330
-2233.09 657.003 3370
-2238.9 661.097 3391
-2230.79 661.097 3391
-2227.27 662.461 3398
-2228.28 665.191 3412
-2224.68 666.555 3419
-2216.5 666.555 3419
-2212.85 667.92 3426
-2213.66 670.649 3440
-2205.44 670.649 3440
-2197.21 670.649 3440
-2193.44 672.014 3447
-2185.2 672.014 3447
-2176.96 672.014 3447
-2164.31 670.649 3440
-2156.08 670.649 3440
-2139.11 667.92 3426
-2148.34 673.379 3454
-2140.08 673.379 3454
-2136.14 674.744 3461
-2137.08 677.668 3476
-2128.77 677.668 3476
-2120.46 677.668 3476
-2112.15 677.668 3476
-2098.99 676.108 3468
-2090.7 676.108 3468
-2078.21 674.744 3461
-2065.74 673.379 3454
-2057.48 673.379 3454
-2049.22 673.379 3454
-2040.96 673.379 3454
-2028.58 672.014 3447
-2008.03 667.92 3426
-1999.84 667.92 3426
-1983.51 665.191 3412
-1979.4 666.555 3419
-1971.23 666.555 3419
-1963.05 666.555 3419
-1954.88 666.555 3419
-1958.66 670.649 3440
-1950.43 670.649 3440
-1942.2 670.649 3440
-1922.17 666.555 3419
-1914 666.555 3419
-1909.72 667.92 3426
-1901.53 667.92 3426
-1893.34 667.92 3426
-1885.14 667.92 3426
-1876.95 667.92 3426
-1872.58 669.285 3433
-1864.37 669.285 3433
-1859.94 670.649 3440
-1855.49 672.014 3447
-1854.74 674.744 3461
-1846.47 674.744 3461
-1846.16 677.668 3476
-1837.85 677.668 3476
-1833.22 679.033 3483
-1824.89 679.033 3483
-1823.86 681.762 3497
-1819.65 683.322 3505
-1814.89 684.686 3512
-1806.49 684.686 3512
-1802.19 686.246 3520
-1800.91 688.975 3534
-1796.51 690.535 3542
-1788.04 690.535 3542
-1783.09 691.9 3549
-1774.6 691.9 3549
-1770.1 693.459 3557
-1761.59 693.459 3557
-1757.03 695.019 3565
-1748.5 695.019 3565
-1747.3 697.943 3580
-1738.74 697.943 3580
-1734.04 699.503 3588
-1740.37 705.547 3619
-1742.72 710.031 3642
-1734.01 710.031 3642
-1732.88 713.15 3658
-1732.15 716.464 3675
-1738.37 722.703 3707
-1729.5 722.703 3707
-1735.96 729.136 3740
-1779.19 751.166 3853
-1782.38 756.43 3880
-1773.1 756.43 3880
-1780.19 763.449 3916
-1787.56 770.662 3953
-1782.6 772.612 3963
-1773.13 772.612 3963
-1763.65 772.612 3963
-1754.17 772.612 3963
-1744.7 772.612 3963
-1735.22 772.612 3963
-1709.2 765.203 3925
-1649.57 742.588 3809
-1629.27 737.519 3783
-1620.22 737.519 3783
-1592.86 729.136 3740
-1545.8 711.59 3650
-1524.02 705.547 3619
-1515.36 705.547 3619
-1484.23 695.019 3565
-1462.87 688.975 3534
-1442.49 683.322 3505
-1434.1 683.322 3505
-1425.72 683.322 3505
-1417.34 683.322 3505
-1402.93 680.397 3490
-1394.58 680.397 3490
-1386.24 680.397 3490
-1383.81 683.322 3505
-1375.43 683.322 3505
-1372.9 686.246 3520
-1364.48 686.246 3520
-1361.46 688.975 3534
-1361.82 693.459 3557
-1359.02 696.384 3572
-1350.48 696.384 3572
-1350.57 700.868 3595
-1344.96 702.427 3603
-1345.25 707.106 3627
-1336.58 707.106 3627
-1330.83 708.666 3635
-1324.69 710.031 3642
-1315.98 710.031 3642
-1307.27 710.031 3642
-1298.56 710.031 3642
-1289.85 710.031 3642
-1281.14 710.031 3642
-1272.43 710.031 3642
-1263.72 710.031 3642
-1252.6 708.666 3635
-1241.17 707.106 3627
-1232.5 707.106 3627
-1221.12 705.547 3619
-1207.11 702.427 3603
-1198.49 702.427 3603
-1189.88 702.427 3603
-1181.26 702.427 3603
-1177.85 705.547 3619
-1171.78 707.106 3627
-1167.92 710.031 3642
-1159.21 710.031 3642
-1155.56 713.15 3658
-1152.14 716.464 3675
-1145.84 718.024 3683
-1137.03 718.024 3683
-1128.23 718.024 3683
-1126.71 722.703 3707
-1122.98 726.017 3724
-1114.07 726.017 3724
-1114.96 732.451 3757
-1110.98 735.765 3774
-1101.95 735.765 3774
-1092.93 735.765 3774
-1086.49 737.519 3783
-1084.85 742.588 3809
-1075.74 742.588 3809
-1066.63 742.588 3809
-1057.52 742.588 3809
-1045.94 740.834 3800
-1036.85 740.834 3800
-1027.76 740.834 3800
-1016.53 739.274 3792
-1007.46 739.274 3792
-998.396 739.274 3792
-984.632 735.765 3774
-975.607 735.765 3774
-977.851 744.343 3818
-968.721 744.343 3818
-959.591 744.343 3818
-950.461 744.343 3818
-939.112 742.588 3809
-930.004 742.588 3809
-920.895 742.588 3809
-909.633 740.834 3800
-902.678 742.588 3809
-895.681 744.343 3818
-886.551 744.343 3818
-877.421 744.343 3818
-868.291 744.343 3818
-859.161 744.343 3818
-850.031 744.343 3818
-840.901 744.343 3818
-829.811 742.588 3809
-817.039 739.274 3792
-807.971 739.274 3792
-797.008 737.519 3783
-786.087 735.765 3774
-777.062 735.765 3774
-768.037 735.765 3774
-757.403 734.205 3766
-748.398 734.205 3766
-734.287 729.136 3740
-725.344 729.136 3740
-713.336 726.017 3724
-699.701 721.143 3699
-684.879 714.905 3667
-676.11 714.905 3667
-667.342 714.905 3667
-658.573 714.905 3667
-648.209 713.15 3658
-639.462 713.15 3658
-627.955 710.031 3642
-618.056 708.666 3635
-606.681 705.547 3619
-598.027 705.547 3619
-589.373 705.547 3619
-580.719 705.547 3619
-572.065 705.547 3619
-564.656 707.106 3627
-555.983 707.106 3627
-547.31 707.106 3627
-536.26 703.987 3611
-526.456 702.427 3603
-517.841 702.427 3603
-509.225 702.427 3603
-501.72 703.987 3611
-494.178 705.547 3619
-485.524 705.547 3619
-476.87 705.547 3619
-467.18 703.987 3611
-458.545 703.987 3611
-449.91 703.987 3611
-441.275 703.987 3611
-431.682 702.427 3603
-423.066 702.427 3603
-414.45 702.427 3603
-404.933 700.868 3595
-396.337 700.868 3595
-387.74 700.868 3595
-379.143 700.868 3595
-370.546 700.868 3595
-361.95 700.868 3595
-353.353 700.868 3595
-344.756 700.868 3595
-336.159 700.868 3595
-326.925 699.503 3588
-318.966 700.868 3595
-311.06 702.427 3603
-303.116 703.987 3611
-294.481 703.987 3611
-287.112 707.106 3627
-279.053 708.666 3635
-270.881 710.031 3642
-262.172 710.031 3642
-253.463 710.031 3642
-245.291 711.59 3650
-236.563 711.59 3650
-227.835 711.59 3650
-219.107 711.59 3650
-210.378 711.59 3650
-201.65 711.59 3650
-192.499 710.031 3642
-109.702 444.89 2282
-104.245 444.89 2282
-98.788 444.89 2282
-93.2084 444.305 2279
-87.8741 444.89 2282
-82.4172 444.89 2282
-77.1626 446.06 2288
-71.6913 446.06 2288
-66.22 446.06 2288
-60.669 445.475 2285
-55.1324 444.89 2282
-49.6102 444.305 2279
-44.1604 444.305 2279
-38.7106 444.305 2279
-33.2608 444.305 2279
-27.811 444.305 2279
-22.3613 444.305 2279
-16.9115 444.305 2279
-11.4617 444.305 2279
-6.01192 444.305 2279
-0.561402 443.72 2276
4.88764 444.305 2279
10.3374 444.305 2279
15.7872 444.305 2279
21.2649 444.89 2282
26.757 445.475 2285
32.2211 445.475 2285
37.6853 445.475 2285
43.1494 445.475 2285
48.6135 445.475 2285
54.0777 445.475 2285
59.3854 444.305 2279
64.9206 444.89 2282
70.3775 444.89 2282
75.8345 444.89 2282
81.2914 444.89 2282
86.6343 444.305 2279
92.0841 444.305 2279
97.4055 443.72 2276
102.713 443.136 2273
107.863 441.966 2267
113.284 441.966 2267
118.705 441.966 2267
124.126 441.966 2267
129.547 441.966 2267
134.968 441.966 2267
140.389 441.966 2267
145.81 441.966 2267
151.231 441.966 2267
156.652 441.966 2267
162.073 441.966 2267
167.273 441.381 2264
172.458 440.796 2261
178.337 441.966 2267
183.758 441.966 2267
189.179 441.966 2267
194.6 441.966 2267
199.756 441.381 2264
205.17 441.381 2264
210.584 441.381 2264
215.998 441.381 2264
221.705 441.966 2267
227.126 441.966 2267
232.547 441.966 2267
237.654 441.381 2264
241.994 439.431 2254
246.725 438.262 2248
252.101 438.262 2248
254.041 432.413 2218
257.006 428.514 2198
491.929 758.185 3889
501.229 758.185 3889
510.529 758.185 3889
519.828 758.185 3889
524.23 751.166 3853
532.198 749.412 3844
541.39 749.412 3844
549.293 747.657 3835
555.988 744.343 3818
553.573 729.136 3740
562.516 729.136 3740
571.46 729.136 3740
579.162 727.577 3732
589.347 729.136 3740
599.73 730.891 3749
614.215 737.519 3783
623.262 737.519 3783
632.308 737.519 3783
642.88 739.274 3792
654.871 742.588 3809
663.979 742.588 3809
677.682 747.657 3835
686.853 747.657 3835
696.023 747.657 3835
705.194 747.657 3835
714.365 747.657 3835
725.233 749.412 3844
734.425 749.412 3844
743.618 749.412 3844
752.81 749.412 3844
763.786 751.166 3853
780.222 758.185 3889
795.003 763.449 3916
804.368 763.449 3916
813.732 763.449 3916
821.205 761.694 3907
830.547 761.694 3907
832.151 754.676 3871
841.408 754.676 3871
850.665 754.676 3871
859.921 754.676 3871
874.473 735.765 3774
883.497 735.765 3774
892.522 735.765 3774
879.808 718.024 3683
888.616 718.024 3683
885.727 708.666 3635
884.577 700.868 3595
878.018 688.975 3534
882.957 686.246 3520
894.92 688.975 3534
903.371 688.975 3534
911.822 688.975 3534
920.273 688.975 3534
928.723 688.975 3534
937.174 688.975 3534
937.865 683.322 3505
946.247 683.322 3505
960.62 687.611 3527
969.055 687.611 3527
977.489 687.611 3527
985.923 687.611 3527
996.33 688.975 3534
1004.78 688.975 3534
1013.23 688.975 3534
1019.66 687.611 3527
1028.09 687.611 3527
1036.53 687.611 3527
1044.96 687.611 3527
1053.4 687.611 3527
1052.8 681.762 3497
1061.16 681.762 3497
1069.52 681.762 3497
1073.57 679.033 3483
1079.72 677.668 3476
1088.04 677.668 3476
1096.35 677.668 3476
1106.89 679.033 3483
1115.21 679.033 3483
1123.54 679.033 3483
1129.6 677.668 3476
1137.91 677.668 3476
1143.58 676.108 3468
1154.53 677.668 3476
1162.85 677.668 3476
1171.16 677.668 3476
1184.22 680.397 3490
1192.57 680.397 3490
1200.91 680.397 3490
1209.26 680.397 3490
1215.16 679.033 3483
1231.22 683.322 3505
1244.91 686.246 3520
1253.32 686.246 3520
1266.76 688.975 3534
1283.51 693.459 3557
1294.92 695.019 3565
1303.44 695.019 3565
1314.55 696.384 3572
1329.01 699.503 3588
1343.19 702.427 3603
1351.8 702.427 3603
1369.48 707.106 3627
1381.19 708.666 3635
1389.89 708.666 3635
1398.58 708.666 3635
1407.27 708.666 3635
1403.5 702.427 3603
1412.11 702.427 3603
1411.66 697.943 3580
1411.1 693.459 3557
1410.42 688.975 3534
1401.21 680.397 3490
1409.55 680.397 3490
1412.21 677.668 3476
1397.23 666.555 3419
1388.14 658.367 3377
1396.22 658.367 3377
1390.15 651.739 3343
1387.27 646.67 3317
1386.79 642.771 3297
1394.68 642.771 3297
1397.03 640.236 3284
1402.32 639.067 3278
1404.56 636.532 3265
1409.34 635.167 3258
1417.13 635.167 3258
1419.68 632.828 3246
1421.72 630.294 3233
1429.45 630.294 3233
1437.18 630.294 3233
1442.23 629.124 3227
1449.95 629.124 3227
1457.67 629.124 3227
1465.38 629.124 3227
1473.1 629.124 3227
1483.57 630.294 3233
1491.3 630.294 3233
1499.03 630.294 3233
1506.76 630.294 3233
1514.49 630.294 3233
1519.4 629.124 3227
1518.13 625.42 3208
1525.8 625.42 3208
1527.73 623.08 3196
1520.96 617.231 3166
1525.64 616.062 3160
1533.19 616.062 3160
1523.2 609.043 3124
1527.73 607.874 3118
1523.86 603.39 3095
1531.26 603.39 3095
1516.29 594.617 3050
1498.61 584.869 3000
1482.19 575.706 2953
1478.66 571.612 2932
1485.67 571.612 2932
1476.9 565.568 2901
1473.61 561.669 2881
1475.36 559.719 2871
1482.22 559.719 2871
1479.24 556.015 2852
1480.85 554.066 2842
1485.02 553.091 2837
1489.18 552.116 2832
1495.95 552.116 2832
1502.72 552.116 2832
1507.36 551.336 2828
1514.13 551.336 2828
1520.89 551.336 2828
1524.95 550.361 2823
1526.28 548.412 2813
1530.82 547.632 2809
1537.54 547.632 2809
1541.51 546.657 2804
1542.69 544.708 2794
1547.15 543.928 2790
1553.83 543.928 2790
1557.7 542.953 2785
1561.55 541.978 2780
1565.94 541.199 2776
1585.61 545.682 2799
1595.15 546.657 2804
1601.85 546.657 2804
1613.72 548.412 2813
1623.33 549.387 2818
1655.52 557.965 2862
1662.36 557.965 2862
1669.21 557.965 2862
1658.48 552.116 2832
1665.26 552.116 2832
1672.03 552.116 2832
1684.73 554.066 2842
1691.52 554.066 2842
1698.32 554.066 2842
1871.81 567.518 2911
1878.77 567.518 2911
1885.74 567.518 2911
1892.7 567.518 2911
1880.08 561.669 2881
1886.97 561.669 2881
1878.08 556.99 2857
1884.91 556.99 2857
1881.81 554.066 2842
1888.61 554.066 2842
1888.74 552.116 2832
1895.51 552.116 2832
1902.28 552.116 2832
1902.99 550.361 2823
1902.97 548.412 2813
1909.7 548.412 2813
1910.29 546.657 2804
1913.58 545.682 2799
1916.84 544.708 2794
1920.77 543.928 2790
1927.44 543.928 2790
1927.18 541.978 2780
1927.57 540.224 2771
1927.91 538.469 2762
1934.52 538.469 2762
1931.28 535.74 2748
1935.04 534.96 2744
1928.86 531.451 2726
1935.38 531.451 2726
1941.9 531.451 2726
1944.84 530.476 2721
1954.94 531.451 2726
1964.33 532.231 2730
1977.36 533.985 2739
1983.91 533.985 2739
1994.09 534.96 2744
2007.21 536.715 2753
2020.38 538.469 2762
2026.99 538.469 2762
2033.59 538.469 2762
2043.89 539.444 2767
2060.14 541.978 2780
2066.79 541.978 2780
2080.89 543.928 2790
2098.04 546.657 2804
2122.76 551.336 2828
2129.52 551.336 2828
2164.99 558.745 2866
2190.79 563.618 2891
2236.47 573.561 2942
2243.51 573.561 2942
2250.54 573.561 2942
-2144.73 574.491 2911
-2137.77 574.491 2911
-2130.81 574.491 2911
-2123.85 574.491 2911
-2121.25 575.675 2917
-2114.28 575.675 2917
-2107.3 575.675 2917
-2233.29 614.159 3112
-2225.85 614.159 3112
-2244.07 621.263 3148
-2257.85 627.184 3178
-2250.25 627.184 3178
-2242.65 627.184 3178
-2235.05 627.184 3178
-2227.46 627.184 3178
-2228.24 629.552 3190
-2220.61 629.552 3190
-2221.31 631.92 3202
-2213.65 631.92 3202
-2223.22 636.854 3227
-2215.5 636.854 3227
-2224.89 641.788 3252
-2243.02 649.287 3290
-2239.91 650.669 3297
-2232.02 650.669 3297
-2224.14 650.669 3297
-2220.29 651.853 3303
-2212.39 651.853 3303
-2204.49 651.853 3303
-2214.55 657.181 3330
-2233.09 665.075 3370
-2238.9 669.22 3391
-2230.79 669.22 3391
-2227.27 670.601 3398
-2228.28 673.364 3412
-2224.68 674.746 3419
-2216.5 674.746 3419
-2212.85 676.127 3426
-2213.66 678.89 3440
-2205.44 678.89 3440
-2197.21 678.89 3440
-2193.44 680.271 3447
-2185.2 680.271 3447
-2176.96 680.271 3447
-2164.31 678.89 3440
-2156.08 678.89 3440
-2139.11 676.127 3426
-2148.34 681.653 3454
-2140.08 681.653 3454
-2136.14 683.034 3461
-2137.08 685.995 3476
-2128.77 685.995 3476
-2120.46 685.995 3476
-2112.15 685.995 3476
-2098.99 684.416 3468
-2090.7 684.416 3468
-2078.21 683.034 3461
-2065.74 681.653 3454
-2057.48 681.653 3454
-2049.22 681.653 3454
-2040.96 681.653 3454
-2028.58 680.271 3447
-2008.03 676.127 3426
-1999.84 676.127 3426
-1975.37 670.601 3398
-1963.19 669.22 3391
-1955.08 669.22 3391
-1946.97 669.22 3391
-1926.86 665.075 3370
-1934.74 670.601 3398
-1926.62 670.601 3398
-1918.49 670.601 3398
-1910.37 670.601 3398
-1902.24 670.601 3398
-1886.31 667.838 3384
-1878.22 667.838 3384
-1870.13 667.838 3384
-1862.03 667.838 3384
-1861.61 670.601 3398
-1857.3 671.983 3405
-1849.16 671.983 3405
-1841.02 671.983 3405
-1847.95 677.509 3433
-1847.24 680.271 3447
-1839 680.271 3447
-1838.19 683.034 3461
-1837.85 685.995 3476
-1833.22 687.376 3483
-1824.89 687.376 3483
-1820.21 688.758 3490
-1819.65 691.718 3505
-1811.27 691.718 3505
-1802.89 691.718 3505
-1802.19 694.678 3520
-1797.34 696.06 3527
-1796.51 699.02 3542
-1788.04 699.02 3542
-1779.57 699.02 3542
-1774.6 700.401 3549
-1770.1 701.98 3557
-1761.59 701.98 3557
-1753.09 701.98 3557
-1748.5 703.559 3565
-1747.3 706.519 3580
-1738.74 706.519 3580
-1734.04 708.098 3588
-1740.37 714.216 3619
-1742.72 718.755 3642
-1734.01 718.755 3642
-1732.88 721.913 3658
-1732.15 725.268 3675
-1738.37 731.583 3707
-1729.5 731.583 3707
-1732.24 736.517 3732
-1766.72 755.068 3826
-1778.25 763.949 3871
-1768.99 763.949 3871
-1780.19 772.829 3916
-1783.49 778.355 3944
-1778.11 780.131 3953
-1768.65 780.131 3953
-1763.65 782.105 3963
-1754.17 782.105 3963
-1744.7 782.105 3963
-1735.22 782.105 3963
-1709.2 774.606 3925
-1649.57 751.713 3809
-1629.27 746.582 3783
-1620.22 746.582 3783
-1592.86 738.096 3740
-1545.8 720.334 3650
-1524.02 714.216 3619
-1515.36 714.216 3619
-1484.23 703.559 3565
-1462.87 697.441 3534
-1442.49 691.718 3505
-1434.1 691.718 3505
-1425.72 691.718 3505
-1417.34 691.718 3505
-1402.93 688.758 3490
-1394.58 688.758 3490
-1386.24 688.758 3490
-1383.81 691.718 3505
-1375.43 691.718 3505
-1372.9 694.678 3520
-1364.48 694.678 3520
-1361.46 697.441 3534
-1361.82 701.98 3557
-1359.02 704.94 3572
-1350.48 704.94 3572
-1350.57 709.48 3595
-1344.96 711.058 3603
-1345.25 715.795 3627
-1336.58 715.795 3627
-1330.83 717.374 3635
-1324.69 718.755 3642
-1315.98 718.755 3642
-1307.27 718.755 3642
-1298.56 718.755 3642
-1289.85 718.755 3642
-1281.14 718.755 3642
-1272.43 718.755 3642
-1263.72 718.755 3642
-1252.6 717.374 3635
-1241.17 715.795 3627
-1232.5 715.795 3627
-1221.12 714.216 3619
-1207.11 711.058 3603
-1198.49 711.058 3603
-1189.88 711.058 3603
-1181.26 711.058 3603
-1177.85 714.216 3619
-1171.78 715.795 3627
-1167.92 718.755 3642
-1159.21 718.755 3642
-1155.56 721.913 3658
-1152.14 725.268 3675
-1145.84 726.846 3683
-1137.03 726.846 3683
-1128.23 726.846 3683
-1126.71 731.583 3707
-1122.98 734.938 3724
-1114.07 734.938 3724
-1114.96 741.451 3757
-1110.98 744.806 3774
-1101.95 744.806 3774
-1092.93 744.806 3774
-1086.49 746.582 3783
-1084.85 751.713 3809
-1075.74 751.713 3809
-1066.63 751.713 3809
-1057.52 751.713 3809
-1045.94 749.937 3800
-1036.85 749.937 3800
-1027.76 749.937 3800
-1016.53 748.358 3792
-1007.46 748.358 3792
-998.396 748.358 3792
-984.632 744.806 3774
-975.607 744.806 3774
-968.887 746.582 3783
-966.438 751.713 3809
-957.329 751.713 3809
-948.221 751.713 3809
-939.112 751.713 3809
-930.004 751.713 3809
-920.895 751.713 3809
-909.633 749.937 3800
-902.678 751.713 3809
-895.681 753.489 3818
-886.551 753.489 3818
-877.421 753.489 3818
-868.291 753.489 3818
-859.161 753.489 3818
-850.031 753.489 3818
-840.901 753.489 3818
-829.811 751.713 3809
-817.039 748.358 3792
-807.971 748.358 3792
-797.008 746.582 3783
-786.087 744.806 3774
-777.062 744.806 3774
-768.037 744.806 3774
-757.403 743.227 3766
-748.398 743.227 3766
-734.287 738.096 3740
-725.344 738.096 3740
-713.336 734.938 3724
-699.701 730.004 3699
-684.879 723.689 3667
-676.11 723.689 3667
-667.342 723.689 3667
-658.573 723.689 3667
-648.209 721.913 3658
-639.462 721.913 3658
-629.335 720.334 3650
-618.056 717.374 3635
-609.364 717.374 3635
-600.671 717.374 3635
-590.676 715.795 3627
-582.003 715.795 3627
-573.33 715.795 3627
-564.656 715.795 3627
-555.983 715.795 3627
-547.31 715.795 3627
-537.448 714.216 3619
-526.456 711.058 3603
-517.841 711.058 3603
-509.225 711.058 3603
-500.609 711.058 3603
-493.085 712.637 3611
-484.45 712.637 3611
-475.815 712.637 3611
-467.18 712.637 3611
-458.545 712.637 3611
-449.91 712.637 3611
-441.275 712.637 3611
-431.682 711.058 3603
-422.127 709.48 3595
-413.53 709.48 3595
-404.933 709.48 3595
-396.337 709.48 3595
-387.74 709.48 3595
-379.143 709.48 3595
-370.546 709.48 3595
-361.95 709.48 3595
-353.353 709.48 3595
-344.756 709.48 3595
-336.159 709.48 3595
-326.925 708.098 3588
-318.966 709.48 3595
-311.06 711.058 3603
-303.116 712.637 3611
-294.481 712.637 3611
-287.112 715.795 3627
-279.053 717.374 3635
-270.881 718.755 3642
-262.172 718.755 3642
-253.463 718.755 3642
-245.291 720.334 3650
-236.563 720.334 3650
-227.835 720.334 3650
-219.107 720.334 3650
-210.378 720.334 3650
-201.65 720.334 3650
-192.499 718.755 3642
-183.033 715.795 3627
-109.846 450.949 2285
-104.382 450.949 2285
-98.9179 450.949 2285
-93.4538 450.949 2285
-88.1052 451.541 2288
-82.6339 451.541 2288
-77.2975 452.33 2292
-71.8166 452.33 2292
-66.3357 452.33 2292
-60.7487 451.541 2288
-55.2049 450.949 2285
-49.6755 450.357 2282
-44.2185 450.357 2282
-38.7616 450.357 2282
-33.3046 450.357 2282
-27.8477 450.357 2282
-22.3907 450.357 2282
-16.9337 450.357 2282
-11.4617 449.765 2279
-6.01192 449.765 2279
-0.562142 449.765 2279
4.88764 449.765 2279
10.3374 449.765 2279
15.7872 449.765 2279
21.2649 450.357 2282
26.757 450.949 2285
32.2211 450.949 2285
37.6853 450.949 2285
43.1494 450.949 2285
48.6135 450.949 2285
54.0777 450.949 2285
59.3854 449.765 2279
64.9206 450.357 2282
70.3775 450.357 2282
75.8345 450.357 2282
81.2914 450.357 2282
86.6343 449.765 2279
92.0841 449.765 2279
97.4055 449.173 2276
102.713 448.581 2273
108.005 447.988 2270
113.433 447.988 2270
118.862 447.988 2270
124.126 447.396 2267
129.547 447.396 2267
134.968 447.396 2267
140.389 447.396 2267
145.81 447.396 2267
151.231 447.396 2267
156.652 447.396 2267
162.073 447.396 2267
167.494 447.396 2267
172.458 446.212 2261
178.337 447.396 2267
183.758 447.396 2267
189.179 447.396 2267
194.6 447.396 2267
199.756 446.804 2264
205.17 446.804 2264
210.584 446.804 2264
215.998 446.804 2264
221.705 447.396 2267
227.126 447.396 2267
232.547 447.396 2267
237.654 446.804 2264
241.994 444.831 2254
246.725 443.647 2248
252.101 443.647 2248
255.415 440.094 2230
257.006 433.779 2198
467.852 758.62 3844
477.045 758.62 3844
491.929 767.501 3889
501.229 767.501 3889
510.529 767.501 3889
519.828 767.501 3889
524.23 760.396 3853
532.198 758.62 3844
541.39 758.62 3844
549.293 756.844 3835
555.988 753.489 3818
553.573 738.096 3740
562.516 738.096 3740
571.46 738.096 3740
580.403 738.096 3740
590.765 739.872 3749
603.729 744.806 3774
614.215 746.582 3783
623.262 746.582 3783
635.149 749.937 3800
644.236 749.937 3800
656.418 753.489 3818
665.548 753.489 3818
677.682 756.844 3835
686.853 756.844 3835
696.023 756.844 3835
705.194 756.844 3835
716.041 758.62 3844
726.931 760.396 3853
736.145 760.396 3853
745.359 760.396 3853
758.097 763.949 3871
770.922 767.501 3889
783.833 771.053 3907
795.003 772.829 3916
804.368 772.829 3916
813.732 772.829 3916
823.096 772.829 3916
832.461 772.829 3916
839.89 771.053 3907
841.408 763.949 3871
850.665 763.949 3871
859.921 763.949 3871
869.178 763.949 3871
876.393 762.172 3862
881.5 758.62 3844
890.692 758.62 3844
897.777 756.844 3835
896.779 748.358 3792
889.603 734.938 3724
898.508 734.938 3724
901.321 730.004 3699
898.11 720.334 3650
895.161 711.058 3603
901.77 709.48 3595
910.367 709.48 3595
918.964 709.48 3595
925.755 708.098 3588
934.334 708.098 3588
942.914 708.098 3588
949.373 706.519 3580
951.78 701.98 3557
958.126 700.401 3549
968.791 701.98 3557
977.297 701.98 3557
985.803 701.98 3557
992.073 700.401 3549
1000.56 700.401 3549
1009.05 700.401 3549
1017.53 700.401 3549
1021.68 697.441 3534
1030.13 697.441 3534
1038.58 697.441 3534
1047.04 697.441 3534
1055.49 697.441 3534
1061.83 696.06 3527
1070.26 696.06 3527
1076.56 694.678 3520
1077.89 690.139 3497
1081.9 687.376 3483
1090.23 687.376 3483
1098.56 687.376 3483
1106.89 687.376 3483
1115.21 687.376 3483
1123.54 687.376 3483
1131.87 687.376 3483
1137.91 685.995 3476
1146.22 685.995 3476
1154.53 685.995 3476
1165.19 687.376 3483
1173.52 687.376 3483
1184.22 688.758 3490
1192.57 688.758 3490
1200.91 688.758 3490
1209.26 688.758 3490
1215.16 687.376 3483
1231.22 691.718 3505
1244.91 694.678 3520
1253.32 694.678 3520
1266.76 697.441 3534
1283.51 701.98 3557
1297.46 704.94 3572
1306 704.94 3572
1320.43 708.098 3588
1334.57 711.058 3603
1352.13 715.795 3627
1360.81 715.795 3627
1375.14 718.755 3642
1386.89 720.334 3650
1395.62 720.334 3650
1404.35 720.334 3650
1409.98 718.755 3642
1409.73 714.216 3619
1418.38 714.216 3619
1417.57 709.48 3595
1420.22 706.519 3580
1416.41 700.401 3549
1418.87 697.441 3534
1427.32 697.441 3534
1417.9 688.758 3490
1400.09 676.127 3426
1391.02 667.838 3384
1399.11 667.838 3384
1393.06 661.128 3350
1389.78 655.8 3323
1392.26 653.234 3310
1400.18 653.234 3310
1397.03 648.103 3284
1402.32 646.919 3278
1404.56 644.353 3265
1409.34 642.972 3258
1417.13 642.972 3258
1419.68 640.604 3246
1421.72 638.038 3233
1429.45 638.038 3233
1437.18 638.038 3233
1442.23 636.854 3227
1449.95 636.854 3227
1457.67 636.854 3227
1465.38 636.854 3227
1473.1 636.854 3227
1483.57 638.038 3233
1491.3 638.038 3233
1499.03 638.038 3233
1506.76 638.038 3233
1514.49 638.038 3233
1519.4 636.854 3227
1520.97 634.289 3214
1528.65 634.289 3214
1530.6 631.92 3202
1526.73 627.184 3178
1528.53 624.816 3166
1536.1 624.816 3166
1529.05 618.895 3136
1530.67 616.527 3124
1529.77 613.172 3107
1537.2 613.172 3107
1533.19 608.633 3084
1518.09 599.752 3039
1495.24 587.911 2979
1489.25 582.78 2953
1496.31 582.78 2953
1481.99 574.491 2911
1478.72 570.544 2891
1475.36 566.597 2871
1482.22 566.597 2871
1484.42 564.821 2862
1480.85 560.874 2842
1485.02 559.887 2837
1489.18 558.9 2832
1495.95 558.9 2832
1502.72 558.9 2832
1509.5 558.9 2832
1514.13 558.111 2828
1520.89 558.111 2828
1524.95 557.124 2823
1526.28 555.15 2813
1530.82 554.361 2809
1537.54 554.361 2809
1541.51 553.374 2804
1542.69 551.401 2794
1549.37 551.401 2794
1556.05 551.401 2794
1560.5 550.611 2790
1561.55 548.638 2780
1565.94 547.848 2776
1585.61 552.388 2799
1600.27 555.15 2813
1607 555.15 2813
1616.59 556.137 2818
1642.92 562.847 2852
1675.19 571.531 2896
1682.11 571.531 2896
1689.04 571.531 2896
2067.91 677.509 3433
2076.12 677.509 3433
2084.33 677.509 3433
2096.8 678.89 3440
2105.03 678.89 3440
2113.25 678.89 3440
1873.19 568.57 2881
1880.08 568.57 2881
1903.34 573.504 2906
1910.29 573.504 2906
1917.24 573.504 2906
1895.06 564.821 2862
1901.9 564.821 2862
1905.41 563.834 2857
1912.24 563.834 2857
1919.07 563.834 2857
1922.54 562.847 2852
1925.97 561.86 2847
1932.78 561.86 2847
1929.37 558.9 2832
1933.41 558.111 2828
1940.17 558.111 2828
1946.93 558.111 2828
1950.24 557.124 2823
1956.99 557.124 2823
1954 554.361 2809
1957.23 553.374 2804
1963.94 553.374 2804
1947.45 546.862 2771
1951.25 546.072 2767
1950.8 544.099 2757
1957.39 544.099 2757
1963.98 544.099 2757
1970.57 544.099 2757
1977.17 544.099 2757
1983.76 544.099 2757
2000.46 546.862 2771
2007.09 546.862 2771
2017.35 547.848 2776
2023.98 547.848 2776
2037.21 549.625 2785
2043.87 549.625 2785
2050.52 549.625 2785
2057.18 549.625 2785
2077.92 553.374 2804
2084.63 553.374 2804
2101.78 556.137 2818
2116 558.111 2828
2144.53 563.834 2857
2151.36 563.834 2857
2172.55 567.584 2876
2187 569.557 2886
2232.67 579.622 2937
2239.69 579.622 2937
2246.72 579.622 2937
-2262.33 627.606 3142
-2272.04 632.4 3166
-2264.47 632.4 3166
-2265.45 634.797 3178
-2270.64 638.392 3196
-2289.2 645.783 3233
-2281.47 645.783 3233
-2273.74 645.783 3233
-2266 645.783 3233
-2271.55 649.578 3252
-2263.77 649.578 3252
-2265.01 652.175 3265
-2261.35 653.373 3271
-2271.44 658.567 3297
-2263.56 658.567 3297
-2287.14 667.755 3343
-2297.56 673.148 3370
-2294.26 674.547 3377
-2286.18 674.547 3377
-2287.55 677.343 3391
-2284.15 678.741 3398
-2294.77 684.334 3426
-2286.58 684.334 3426
-2283.04 685.732 3433
-2288.75 689.927 3454
-2285.11 691.325 3461
-2276.84 691.325 3461
-2268.56 691.325 3461
-2264.86 692.724 3468
-2256.56 692.724 3468
-2248.27 692.724 3468
-2245.14 694.321 3476
-2236.83 694.321 3476
-2228.52 694.321 3476
-2220.21 694.321 3476
-2211.89 694.321 3476
-2203.58 694.321 3476
-2195.27 694.321 3476
-2181.92 692.724 3468
-2169.24 691.325 3461
-2160.97 691.325 3461
-2157.05 692.724 3468
-2148.75 692.724 3468
-2149.72 695.72 3483
-2141.39 695.72 3483
-2133.06 695.72 3483
-2124.73 695.72 3483
-2116.4 695.72 3483
-2108.07 695.72 3483
-2099.74 695.72 3483
-2087.21 694.321 3476
-2078.9 694.321 3476
-2070.59 694.321 3476
-2062.28 694.321 3476
-2049.24 692.724 3468
-2040.94 692.724 3468
-2016.24 687.131 3440
-2008.01 687.131 3440
-1979.44 680.139 3405
-1955.09 674.547 3377
-1938.94 671.75 3363
-1930.9 671.75 3363
-1922.86 671.75 3363
-1918.8 673.148 3370
-1910.74 673.148 3370
-1902.68 673.148 3370
-1890.69 671.75 3363
-1882.65 671.75 3363
-1874.6 671.75 3363
-1870.45 673.148 3370
-1862.39 673.148 3370
-1854.33 673.148 3370
-1853.94 675.945 3384
-1853.49 678.741 3398
-1845.36 678.741 3398
-1837.23 678.741 3398
-1832.88 680.139 3405
-1847.24 688.529 3447
-1839 688.529 3447
-1838.19 691.325 3461
-1837.85 694.321 3476
-1833.22 695.72 3483
-1824.89 695.72 3483
-1820.21 697.118 3490
-1819.65 700.114 3505
-1811.27 700.114 3505
-1802.89 700.114 3505
-1802.19 703.11 3520
-1797.34 704.509 3527
-1796.51 707.505 3542
-1788.04 707.505 3542
-1783.09 708.903 3549
-1774.6 708.903 3549
-1770.1 710.501 3557
-1761.59 710.501 3557
-1753.09 710.501 3557
-1744.58 710.501 3557
-1747.3 715.095 3580
-1738.74 715.095 3580
-1737.43 718.091 3595
-1740.37 722.885 3619
-1742.72 727.48 3642
-1734.01 727.48 3642
-1729.1 729.078 3650
-1728.38 732.473 3667
-1738.37 740.463 3707
-1729.5 740.463 3707
-1724.82 742.261 3716
-1763.03 762.635 3818
-1778.25 773.222 3871
-1768.99 773.222 3871
-1763.83 775.019 3880
-1783.49 787.803 3944
-1778.11 789.601 3953
-1768.65 789.601 3953
-1763.65 791.598 3963
-1754.17 791.598 3963
-1744.7 791.598 3963
-1735.22 791.598 3963
-1709.2 784.008 3925
-1649.57 760.837 3809
-1629.27 755.644 3783
-1620.22 755.644 3783
-1596.69 748.852 3749
-1549.19 730.675 3658
-1530.76 726.081 3635
-1522.06 726.081 3635
-1490.47 715.095 3580
-1462.87 705.907 3534
-1448.66 703.11 3520
-1440.24 703.11 3520
-1428.57 701.512 3512
-1417.34 700.114 3505
-1408.96 700.114 3505
-1400.58 700.114 3505
-1392.2 700.114 3505
-1386.58 701.512 3512
-1378.18 701.512 3512
-1372.9 703.11 3520
-1364.48 703.11 3520
-1367.24 708.903 3549
-1364.88 712.099 3565
-1367.77 718.091 3595
-1359.17 718.091 3595
-1353.58 719.689 3603
-1353.92 724.483 3627
-1348.22 726.081 3635
-1339.52 726.081 3635
-1333.39 727.48 3642
-1324.69 727.48 3642
-1318.87 729.078 3650
-1310.14 729.078 3650
-1301.41 729.078 3650
-1295.52 730.675 3658
-1286.77 730.675 3658
-1278.02 730.675 3658
-1269.27 730.675 3658
-1255.01 727.48 3642
-1243.91 726.081 3635
-1235.22 726.081 3635
-1223.82 724.483 3627
-1212.47 722.885 3619
-1201.16 721.287 3611
-1195.16 722.885 3619
-1186.51 722.885 3619
-1177.85 722.885 3619
-1174.37 726.081 3635
-1170.49 729.078 3650
-1161.76 729.078 3650
-1155.56 730.675 3658
-1154.65 735.669 3683
-1150.82 738.865 3699
-1141.97 738.865 3699
-1133.13 738.865 3699
-1126.71 740.463 3707
-1122.98 743.859 3724
-1114.07 743.859 3724
-1114.96 750.45 3757
-1110.98 753.846 3774
-1104.58 755.644 3783
-1095.54 755.644 3783
-1089.07 757.442 3792
-1084.85 760.837 3809
-1075.74 760.837 3809
-1066.63 760.837 3809
-1057.52 760.837 3809
-1048.41 760.837 3809
-1039.31 760.837 3809
-1027.76 759.04 3800
-1018.68 759.04 3800
-1002.68 753.846 3774
-993.656 753.846 3774
-984.632 753.846 3774
-975.607 753.846 3774
-968.887 755.644 3783
-966.438 760.837 3809
-957.329 760.837 3809
-948.221 760.837 3809
-939.112 760.837 3809
-930.004 760.837 3809
-920.895 760.837 3809
-909.633 759.04 3800
-900.546 759.04 3800
-893.57 760.837 3809
-884.461 760.837 3809
-877.421 762.635 3818
-868.291 762.635 3818
-859.161 762.635 3818
-850.031 762.635 3818
-840.901 762.635 3818
-829.811 760.837 3809
-817.039 757.442 3792
-807.971 757.442 3792
-797.008 755.644 3783
-786.087 753.846 3774
-777.062 753.846 3774
-768.037 753.846 3774
-757.403 752.248 3766
-748.398 752.248 3766
-734.287 747.055 3740
-725.344 747.055 3740
-714.868 745.457 3732
-699.701 738.865 3699
-686.374 734.071 3675
-677.585 734.071 3675
-668.797 734.071 3675
-658.573 732.473 3667
-648.209 730.675 3658
-639.462 730.675 3658
-629.335 729.078 3650
-618.056 726.081 3635
-609.364 726.081 3635
-600.671 726.081 3635
-590.676 724.483 3627
-582.003 724.483 3627
-573.33 724.483 3627
-563.411 722.885 3619
-554.757 722.885 3619
-546.103 722.885 3619
-537.448 722.885 3619
-526.456 719.689 3603
-517.841 719.689 3603
-509.225 719.689 3603
-500.609 719.689 3603
-493.085 721.287 3611
-484.45 721.287 3611
-475.815 721.287 3611
-467.18 721.287 3611
-458.545 721.287 3611
-449.91 721.287 3611
-440.298 719.689 3603
-431.682 719.689 3603
-421.305 716.693 3588
-412.725 716.693 3588
-404.145 716.693 3588
-395.565 716.693 3588
-387.74 718.091 3595
-379.143 718.091 3595
-370.546 718.091 3595
-361.95 718.091 3595
-352.665 716.693 3588
-344.085 716.693 3588
-334.757 715.095 3580
-326.196 715.095 3580
-318.345 716.693 3588
-310.369 718.091 3595
-301.772 718.091 3595
-293.176 718.091 3595
-285.212 719.689 3603
-277.825 722.885 3619
-269.766 724.483 3627
-261.092 724.483 3627
-252.419 724.483 3627
-243.746 724.483 3627
-235.591 726.081 3635
-226.899 726.081 3635
-218.206 726.081 3635
-209.514 726.081 3635
-200.822 726.081 3635
-192.129 726.081 3635
-183.033 724.483 3627
-109.846 456.422 2285
-104.382 456.422 2285
-98.9179 456.422 2285
-93.4538 456.422 2285
-88.1052 457.022 2288
-82.6339 457.022 2288
-77.2975 457.821 2292
-71.8166 457.821 2292
-66.3357 457.821 2292
-60.7487 457.022 2288
-55.2049 456.422 2285
-49.6755 455.823 2282
-44.2185 455.823 2282
-38.7616 455.823 2282
-33.3046 455.823 2282
-27.8477 455.823 2282
-22.3907 455.823 2282
-16.9337 455.823 2282
-11.4617 455.224 2279
-6.01192 455.224 2279
-0.562142 455.224 2279
4.88764 455.224 2279
10.3374 455.224 2279
15.7872 455.224 2279
21.2649 455.823 2282
26.757 456.422 2285
32.2211 456.422 2285
37.6853 456.422 2285
43.1494 456.422 2285
48.6135 456.422 2285
54.0777 456.422 2285
59.3854 455.224 2279
64.9206 455.823 2282
70.3775 455.823 2282
75.8345 455.823 2282
81.2914 455.823 2282
86.6343 455.224 2279
92.0841 455.224 2279
97.4055 454.625 2276
102.713 454.026 2273
108.005 453.426 2270
113.433 453.426 2270
118.862 453.426 2270
124.126 452.827 2267
129.547 452.827 2267
134.968 452.827 2267
140.389 452.827 2267
145.81 452.827 2267
151.231 452.827 2267
156.652 452.827 2267
162.073 452.827 2267
167.494 452.827 2267
172.458 451.629 2261
178.337 452.827 2267
183.758 452.827 2267
189.179 452.827 2267
194.6 452.827 2267
199.756 452.228 2264
205.17 452.228 2264
210.584 452.228 2264
215.998 452.228 2264
221.705 452.827 2267
227.126 452.827 2267
232.547 452.827 2267
237.654 452.228 2264
241.994 450.23 2254
246.725 449.032 2248
252.101 449.032 2248
255.415 445.436 2230
467.852 767.828 3844
477.045 767.828 3844
491.929 776.817 3889
501.229 776.817 3889
510.529 776.817 3889
517.422 773.222 3871
523.005 767.828 3844
530.952 766.031 3835
540.122 766.031 3835
548.004 764.233 3826
553.367 759.04 3800
553.573 747.055 3740
562.516 747.055 3740
571.46 747.055 3740
580.403 747.055 3740
590.765 748.852 3749
603.729 753.846 3774
614.215 755.644 3783
623.262 755.644 3783
635.149 759.04 3800
644.236 759.04 3800
656.418 762.635 3818
665.548 762.635 3818
677.682 766.031 3835
686.853 766.031 3835
696.023 766.031 3835
705.194 766.031 3835
716.041 767.828 3844
726.931 769.626 3853
736.145 769.626 3853
745.359 769.626 3853
758.097 773.222 3871
770.922 776.817 3889
783.833 780.413 3907
795.003 782.21 3916
804.368 782.21 3916
813.732 782.21 3916
823.096 782.21 3916
832.461 782.21 3916
839.89 780.413 3907
841.408 773.222 3871
850.665 773.222 3871
859.921 773.222 3871
869.178 773.222 3871
876.393 771.424 3862
881.5 767.828 3844
890.692 767.828 3844
897.777 766.031 3835
896.779 757.442 3792
889.603 743.859 3724
898.508 743.859 3724
901.321 738.865 3699
898.11 729.078 3650
895.161 719.689 3603
901.77 718.091 3595
910.367 718.091 3595
918.964 718.091 3595
925.755 716.693 3588
934.334 716.693 3588
942.914 716.693 3588
949.373 715.095 3580
951.78 710.501 3557
958.126 708.903 3549
968.791 710.501 3557
977.297 710.501 3557
985.803 710.501 3557
992.073 708.903 3549
1000.56 708.903 3549
1009.05 708.903 3549
1017.53 708.903 3549
1021.68 705.907 3534
1030.13 705.907 3534
1038.58 705.907 3534
1047.04 705.907 3534
1055.49 705.907 3534
1061.83 704.509 3527
1070.26 704.509 3527
1076.56 703.11 3520
1077.89 698.516 3497
1081.9 695.72 3483
1090.23 695.72 3483
1098.56 695.72 3483
1106.89 695.72 3483
1115.21 695.72 3483
1123.54 695.72 3483
1131.87 695.72 3483
1137.91 694.321 3476
1146.22 694.321 3476
1156.86 695.72 3483
1165.19 695.72 3483
1173.52 695.72 3483
1184.22 697.118 3490
1192.57 697.118 3490
1200.91 697.118 3490
1209.26 697.118 3490
1217.6 697.118 3490
1231.22 700.114 3505
1249.86 705.907 3534
1258.31 705.907 3534
1269.63 707.505 3542
1288.92 713.497 3572
1303.27 716.693 3588
1311.85 716.693 3588
1323.01 718.091 3595
1340.5 722.885 3619
1357.73 727.48 3642
1366.43 727.48 3642
1384.58 732.473 3667
1396.39 734.071 3675
1405.18 734.071 3675
1413.97 734.071 3675
1419.66 732.473 3667
1418.69 727.48 3642
1427.4 727.48 3642
1427.04 722.885 3619
1423.39 716.693 3588
1419.6 710.501 3557
1422.09 707.505 3542
1430.56 707.505 3542
1417.9 697.118 3490
1402.95 685.732 3433
1391.02 675.945 3384
1399.11 675.945 3384
1393.06 669.153 3350
1389.78 663.76 3323
1392.26 661.163 3310
1400.18 661.163 3310
1397.03 655.97 3284
1402.32 654.772 3278
1404.56 652.175 3265
1409.34 650.777 3258
1417.13 650.777 3258
1419.68 648.38 3246
1421.72 645.783 3233
1429.45 645.783 3233
1437.18 645.783 3233
1442.23 644.584 3227
1449.95 644.584 3227
1457.67 644.584 3227
1468.11 645.783 3233
1475.84 645.783 3233
1483.57 645.783 3233
1491.3 645.783 3233
1499.03 645.783 3233
1506.76 645.783 3233
1514.49 645.783 3233
1519.4 644.584 3227
1520.97 641.988 3214
1528.65 641.988 3214
1533.47 640.789 3208
1526.73 634.797 3178
1531.43 633.598 3172
1539.02 633.598 3172
1534.9 628.804 3148
1533.61 625.209 3130
1538.14 624.01 3124
1545.61 624.01 3124
1535.68 617.019 3089
1526.08 610.228 3055
1503.27 598.243 2995
1496.82 592.85 2968
1503.91 592.85 2968
1503.38 589.854 2953
1483.84 579.467 2901
1483.07 576.471 2886
1489.97 576.471 2886
1486.5 572.476 2866
1480.85 567.682 2842
1485.02 566.683 2837
1489.18 565.684 2832
1495.95 565.684 2832
1502.72 565.684 2832
1509.5 565.684 2832
1514.13 564.885 2828
1520.89 564.885 2828
1524.95 563.887 2823
1526.28 561.889 2813
1530.82 561.09 2809
1537.54 561.09 2809
1541.51 560.091 2804
1542.69 558.094 2794
1549.37 558.094 2794
1556.05 558.094 2794
1562.74 558.094 2794
1561.55 555.297 2780
1568.2 555.297 2780
1585.61 559.093 2799
1600.27 561.889 2813
1607 561.889 2813
1616.59 562.888 2818
1642.92 569.679 2852
1675.19 578.468 2896
1682.11 578.468 2896
1689.04 578.468 2896
2059.7 685.732 3433
2072.12 687.131 3440
2080.35 687.131 3440
2088.58 687.131 3440
2096.8 687.131 3440
2105.03 687.131 3440
2113.25 687.131 3440
2121.48 687.131 3440
2125.37 685.732 3433
1873.19 575.472 2881
1880.08 575.472 2881
1940.68 591.851 2963
1947.76 591.851 2963
1954.85 591.851 2963
1941.41 585.659 2932
1941.77 583.661 2922
1948.76 583.661 2922
1955.75 583.661 2922
1962.74 583.661 2922
1948.83 577.469 2891
1945.59 574.473 2876
1952.47 574.473 2876
1955.94 573.474 2871
1976.48 577.469 2891
1983.39 577.469 2891
1990.3 577.469 2891
1997.22 577.469 2891
1990.27 573.474 2871
1990.87 571.677 2862
1973.98 564.885 2828
1980.75 564.885 2828
1976.97 561.889 2813
1983.69 561.889 2813
1990.42 561.889 2813
1997.15 561.889 2813
2003.87 561.889 2813
2014.17 562.888 2818
2020.91 562.888 2818
2031.25 563.887 2823
2038 563.887 2823
2044.75 563.887 2823
2065.31 567.682 2842
2072.1 567.682 2842
2078.9 567.682 2842
2071.75 563.887 2823
2068.2 561.09 2809
2071.22 560.091 2804
2088.3 562.888 2818
2095.04 562.888 2818
2123.41 568.68 2847
2133.96 569.679 2852
2158.79 574.473 2876
2165.67 574.473 2876
2176.32 575.472 2881
2187 576.471 2886
2232.67 586.658 2937
2239.69 586.658 2937
2246.72 586.658 2937
-2283.93 641.197 3172
-2293.57 646.048 3196
-2285.93 646.048 3196
-2304.66 653.528 3233
-2301.19 654.74 3239
-2321.06 662.624 3278
-2313.22 662.624 3278
-2322.97 667.678 3303
-2315.07 667.678 3303
-2321.14 671.72 3323
-2313.19 671.72 3323
-2310.1 673.135 3330
-2311.13 675.763 3343
-2321.73 681.221 3370
-2313.68 681.221 3370
-2329.56 688.296 3405
-2350.05 696.786 3447
-2346.57 698.201 3454
-2338.31 698.201 3454
-2334.77 699.616 3461
-2326.49 699.616 3461
-2328.26 702.648 3476
-2319.95 702.648 3476
-2316.3 704.063 3483
