29.7393 102.983 2109
34.7826 102.983 2109
39.8825 103.129 2112
44.9329 103.129 2112
49.9834 103.129 2112
55.0338 103.129 2112
60.0842 103.129 2112
65.2889 103.374 2117
70.3513 103.374 2117
75.4137 103.374 2117
80.5901 103.52 2120
85.8617 103.764 2125
91.2 104.057 2131
96.2958 104.057 2131
101.63 104.301 2136
107.137 104.692 2144
112.264 104.692 2144
117.391 104.692 2144
122.861 104.985 2150
128.479 105.376 2158
133.825 105.522 2161
138.992 105.522 2161
144.56 105.815 2167
149.88 105.913 2169
155.496 106.206 2175
161.14 106.499 2181
166.356 106.499 2181
171.571 106.499 2181
177.192 106.743 2186
183.421 107.329 2198
188.677 107.329 2198
194.727 107.768 2207
200.548 108.061 2213
207.701 109.038 2233
213.04 109.038 2233
218.674 109.184 2236
225.223 109.77 2248
232.24 110.552 2264
237.654 110.552 2264
243.712 110.845 2270
249.798 111.138 2276
255.577 111.284 2279
261.027 111.284 2279
267.997 111.919 2292
274.552 112.358 2301
282.367 113.286 2320
287.915 113.286 2320
293.842 113.433 2323
301.975 114.409 2343
307.577 114.409 2343
313.18 114.409 2343
318.783 114.409 2343
422.963 144.196 2953
430.752 144.44 2958
437.826 144.44 2958
446.403 144.928 2968
453.501 144.928 2968
460.598 144.928 2968
467.695 144.928 2968
474.793 144.928 2968
481.078 144.684 2963
488.164 144.684 2963
495.249 144.684 2963
502.335 144.684 2963
508.561 144.44 2958
515.634 144.44 2958
522.708 144.44 2958
528.885 144.196 2953
535.947 144.196 2953
543.008 144.196 2953
550.07 144.196 2953
556 143.903 2947
563.047 143.903 2947
568.159 143.414 2937
575.183 143.414 2937
582.206 143.414 2937
588.226 143.17 2932
595.237 143.17 2932
602.249 143.17 2932
609.26 143.17 2932
616.271 143.17 2932
622.22 142.926 2927
629.219 142.926 2927
636.218 142.926 2927
643.218 142.926 2927
650.217 142.926 2927
656.094 142.682 2922
663.081 142.682 2922
670.068 142.682 2922
677.056 142.682 2922
684.043 142.682 2922
691.031 142.682 2922
698.018 142.682 2922
705.005 142.682 2922
711.993 142.682 2922
718.98 142.682 2922
725.968 142.682 2922
732.955 142.682 2922
739.942 142.682 2922
746.93 142.682 2922
753.917 142.682 2922
762.207 142.926 2927
769.206 142.926 2927
776.205 142.926 2927
783.205 142.926 2927
790.204 142.926 2927
795.841 142.682 2922
804.203 142.926 2927
811.202 142.926 2927
818.201 142.926 2927
825.201 142.926 2927
832.2 142.926 2927
839.199 142.926 2927
846.199 142.926 2927
853.198 142.926 2927
860.197 142.926 2927
868.678 143.17 2932
875.689 143.17 2932
882.701 143.17 2932
889.712 143.17 2932
896.723 143.17 2932
903.735 143.17 2932
906.087 142.438 2917
913.062 142.438 2917
921.614 142.682 2922
928.602 142.682 2922
938.791 143.17 2932
945.802 143.17 2932
952.814 143.17 2932
961.462 143.414 2937
968.485 143.414 2937
977.169 143.658 2942
985.877 143.903 2947
992.924 143.903 2947
999.971 143.903 2947
998.476 142.682 2922
1387.07 187.703 3844
1396.26 187.703 3844
1405.45 187.703 3844
1411.33 187.264 3835
1401.24 184.725 3783
1410.29 184.725 3783
1419.34 184.725 3783
1418.57 183.455 3757
1418.05 182.234 3732
1426.97 182.234 3732
1429.74 181.453 3716
1432.05 180.623 3699
1415.96 177.498 3635
1424.65 177.498 3635
1433.35 177.498 3635
1442.04 177.498 3635
1447.54 177.107 3627
1434.13 174.421 3572
1442.67 174.421 3572
1430.09 171.882 3520
1420.52 169.734 3476
1416.92 168.318 3447
1425.16 168.318 3447
1421.76 166.95 3419
1409.44 164.558 3370
1395.21 161.97 3317
1403.14 161.97 3317
1394.48 160.065 3278
1402.32 160.065 3278
1412.74 160.358 3284
1426.21 160.993 3297
1442.8 161.97 3317
1450.73 161.97 3317
1476.25 163.923 3357
1514.79 167.292 3426
1526.09 167.634 3433
1534.3 167.634 3433
1561.83 169.734 3476
1610.34 174.08 3565
1665.19 179.06 3667
1673.96 179.06 3667
1686.4 179.451 3675
1695.19 179.451 3675
1703.97 179.451 3675
1712.76 179.451 3675
1709.84 178.23 3650
1711.5 177.498 3635
1720.2 177.498 3635
1725.08 177.107 3627
1722.28 175.935 3603
1694.39 172.224 3527
1702.82 172.224 3527
1584.14 159.431 3265
1591.95 159.431 3265
1599.75 159.431 3265
1594.76 158.161 3239
1602.51 158.161 3239
1601.3 157.282 3221
1599.51 156.354 3202
1586.09 154.303 3160
1593.65 154.303 3160
1559.65 150.299 3078
1544.1 148.102 3033
1548.8 147.858 3028
1547.3 147.028 3011
1554.5 147.028 3011
1553.41 146.246 2995
1549.62 145.221 2974
1556.74 145.221 2974
1563.85 145.221 2974
1570.96 145.221 2974
1566.93 144.196 2953
1570.79 143.903 2947
1567.13 142.926 2927
1574.13 142.926 2927
1575.73 142.438 2917
1576.73 141.901 2906
1575.51 141.168 2891
1582.42 141.168 2891
1586.59 140.924 2886
1593.49 140.924 2886
1597.62 140.68 2881
1604.51 140.68 2881
1608.6 140.436 2876
1612.67 140.192 2871
1614.46 139.752 2862
1621.3 139.752 2862
1628.14 139.752 2862
1632.13 139.508 2857
1636.1 139.264 2852
1640.04 139.02 2847
1646.84 139.02 2847
1653.65 139.02 2847
1654.63 138.531 2837
1661.41 138.531 2837
1668.2 138.531 2837
1672.03 138.287 2832
1678.8 138.287 2832
1685.57 138.287 2832
1692.34 138.287 2832
1696.72 138.092 2828
1700.47 137.848 2823
1704.19 137.604 2818
1710.93 137.604 2818
1717.67 137.604 2818
1718.9 137.164 2809
1722.55 136.92 2804
1729.25 136.92 2804
1735.96 136.92 2804
1736.45 136.432 2794
1743.13 136.432 2794
1749.81 136.432 2794
1756.49 136.432 2794
1757.49 135.992 2785
1760.99 135.748 2780
1767.64 135.748 2780
1774.28 135.748 2780
1780.93 135.748 2780
1787.58 135.748 2780
1794.23 135.748 2780
1800.87 135.748 2780
1807.52 135.748 2780
1814.17 135.748 2780
1818.2 135.553 2776
1824.84 135.553 2776
1831.47 135.553 2776
1838.11 135.553 2776
1844.75 135.553 2776
1845.39 135.113 2767
1852 135.113 2767
1858.62 135.113 2767
1861.87 134.869 2762
1868.47 134.869 2762
1875.08 134.869 2762
1881.68 134.869 2762
1884.87 134.625 2757
1891.46 134.625 2757
1898.05 134.625 2757
1904.65 134.625 2757
1908.47 134.43 2753
1911.57 134.185 2748
1909.07 133.551 2735
1915.61 133.551 2735
1918.63 133.306 2730
1918.82 132.867 2721
1919.66 132.476 2713
1926.15 132.476 2713
1926.23 132.037 2704
1929.12 131.793 2699
1929.84 131.402 2691
1936.27 131.402 2691
1942.71 131.402 2691
1945.52 131.158 2686
1951.94 131.158 2686
1958.36 131.158 2686
1964.79 131.158 2686
1968.28 130.963 2682
1968.06 130.523 2673
1974.45 130.523 2673
1980.85 130.523 2673
1978.32 129.937 2661
1980.95 129.693 2656
1984.31 129.498 2652
1990.65 129.498 2652
1984.19 128.668 2635
1990.49 128.668 2635
2006.64 129.302 2648
2022.86 129.937 2661
2042.19 130.767 2678
2048.59 130.767 2678
-2120.39 145.071 2832
-2113.62 145.071 2832
-2106.84 145.071 2832
-2089.69 144.354 2818
-2086.65 144.61 2823
-2079.9 144.61 2823
-2073.15 144.61 2823
-2066.39 144.61 2823
-2059.64 144.61 2823
-2052.89 144.61 2823
-2046.14 144.61 2823
-2039.39 144.61 2823
-2029.04 144.354 2818
-2015.84 143.893 2809
-2011.99 144.098 2813
-2005.26 144.098 2813
-2012.03 145.071 2832
-2005.26 145.071 2832
-1998.49 145.071 2832
-1991.72 145.071 2832
-1952 142.664 2785
-1939.06 142.203 2776
-1932.42 142.203 2776
-1893.87 139.846 2730
-1878.35 139.18 2717
-1856.7 138.053 2695
-1850.25 138.053 2695
-1368.84 164.639 3214
-1361.15 164.639 3214
-1353.47 164.639 3214
-1345.78 164.639 3214
-1338.1 164.639 3214
-1322.96 163.717 3196
-1312.85 163.41 3190
-1305.22 163.41 3190
-1297.59 163.41 3190
-1287.54 163.103 3184
-1279.92 163.103 3184
-1272.31 163.103 3184
-1264.69 163.103 3184
-1257.08 163.103 3184
-1249.47 163.103 3184
-1241.85 163.103 3184
-1234.24 163.103 3184
-1226.62 163.103 3184
-1216.71 162.795 3178
-1195.42 160.951 3142
-1187.9 160.951 3142
-1167.24 159.158 3107
-1144.88 157.109 3067
-1131.24 156.238 3050
-1123.95 156.238 3050
-1112.63 155.675 3039
-1097.36 154.548 3017
-1087.97 154.241 3011
-1082.93 154.548 3017
-1075.71 154.548 3017
-1068.5 154.548 3017
-1061.28 154.548 3017
-1054.07 154.548 3017
-1048.59 154.804 3022
-1041.36 154.804 3022
-1034.14 154.804 3022
-1026.91 154.804 3022
-1025.42 155.675 3039
-1018.15 155.675 3039
-1012.55 155.931 3044
-1005.27 155.931 3044
-997.991 155.931 3044
-990.712 155.931 3044
-981.818 155.675 3039
-971.023 155.111 3028
-963.782 155.111 3028
-954.646 154.804 3022
-940.522 153.677 3000
-930.237 153.165 2990
-923.087 153.165 2990
-914.099 152.858 2984
-906.963 152.858 2984
-898.32 152.601 2979
-891.196 152.601 2979
-882.589 152.345 2974
-872.239 151.782 2963
-863.694 151.526 2958
-856.62 151.526 2958
-849.547 151.526 2958
-842.473 151.526 2958
-835.4 151.526 2958
-822.446 150.45 2937
-815.422 150.45 2937
-805.647 149.938 2927
-797.283 149.682 2922
-790.296 149.682 2922
-784.648 149.938 2927
-777.649 149.938 2927
-771.966 150.194 2932
-770.434 151.27 2953
-763.372 151.27 2953
-756.311 151.27 2953
-749.249 151.27 2953
-742.188 151.27 2953
-735.126 151.27 2953
-728.065 151.27 2953
-721.003 151.27 2953
-713.942 151.27 2953
-706.88 151.27 2953
-699.819 151.27 2953
-692.757 151.27 2953
-683.141 150.706 2942
-676.106 150.706 2942
-669.071 150.706 2942
-663.161 150.962 2947
-657.45 151.27 2953
-650.388 151.27 2953
-643.327 151.27 2953
-637.342 151.526 2958
-630.269 151.526 2958
-624.249 151.782 2963
-617.163 151.782 2963
-610.078 151.782 2963
-551.854 190.355 3716
-545.305 191.174 3732
-546.154 194.658 3800
-537.067 194.658 3800
-539.096 198.756 3880
-529.818 198.756 3880
-520.539 198.756 3880
-511.261 198.756 3880
-500.818 198.295 3871
-494.99 199.678 3898
-485.669 199.678 3898
-476.348 199.678 3898
-469.183 200.6 3916
-462.05 201.573 3935
-460.232 204.954 4001
-450.664 204.954 4001
-441.097 204.954 4001
-431.529 204.954 4001
-421.961 204.954 4001
-178.02 105.627 2062
-173.089 105.627 2062
-168.158 105.627 2062
-163.227 105.627 2062
-157.145 104.859 2047
-152.25 104.859 2047
-147.355 104.859 2047
-142.46 104.859 2047
-137.363 104.705 2044
-132.799 104.961 2049
-127.9 104.961 2049
-123.48 105.371 2057
-118.561 105.371 2057
-113.919 105.627 2062
-108.988 105.627 2062
-104.057 105.627 2062
-99.3663 105.884 2067
-94.6519 106.14 2072
-89.6971 106.14 2072
-84.9877 106.447 2078
-80.2882 106.806 2085
-75.4106 106.959 2088
-70.4176 106.959 2088
-65.6752 107.369 2096
-60.7209 107.472 2098
-55.8633 107.779 2104
-50.832 107.779 2104
-45.8442 107.881 2106
-40.8081 107.881 2106
-35.823 108.035 2109
-30.7798 108.035 2109
-25.7365 108.035 2109
-20.6932 108.035 2109
-15.65 108.035 2109
-10.6067 108.035 2109
-5.56347 108.035 2109
-0.520209 108.035 2109
4.52305 108.035 2109
9.56631 108.035 2109
14.6096 108.035 2109
19.6528 108.035 2109
24.6961 108.035 2109
29.7393 108.035 2109
34.7826 108.035 2109
39.8259 108.035 2109
44.9329 108.189 2112
49.9834 108.189 2112
55.0338 108.189 2112
60.0842 108.189 2112
65.2889 108.445 2117
70.3513 108.445 2117
75.4137 108.445 2117
80.5901 108.599 2120
85.8617 108.855 2125
91.2 109.162 2131
96.2958 109.162 2131
101.63 109.418 2136
107.137 109.828 2144
112.264 109.828 2144
117.391 109.828 2144
122.861 110.135 2150
128.479 110.545 2158
133.825 110.699 2161
138.992 110.699 2161
144.56 111.006 2167
149.88 111.109 2169
155.496 111.416 2175
160.919 111.57 2178
166.127 111.57 2178
171.571 111.723 2181
177.192 111.979 2186
183.421 112.594 2198
188.677 112.594 2198
194.727 113.055 2207
200.548 113.363 2213
207.701 114.387 2233
213.04 114.387 2233
218.674 114.541 2236
225.223 115.155 2248
232.24 115.975 2264
237.654 115.975 2264
243.712 116.282 2270
249.469 116.436 2273
255.577 116.743 2279
261.027 116.743 2279
267.529 117.204 2288
274.194 117.717 2298
281.636 118.536 2314
287.17 118.536 2314
293.842 118.997 2323
301.975 120.022 2343
307.577 120.022 2343
313.18 120.022 2343
318.783 120.022 2343
422.963 151.27 2953
430.752 151.526 2958
437.826 151.526 2958
446.403 152.038 2968
453.501 152.038 2968
460.598 152.038 2968
467.695 152.038 2968
474.793 152.038 2968
481.078 151.782 2963
488.164 151.782 2963
495.249 151.782 2963
502.335 151.782 2963
508.561 151.526 2958
515.634 151.526 2958
522.708 151.526 2958
528.885 151.27 2953
535.947 151.27 2953
543.008 151.27 2953
550.07 151.27 2953
556 150.962 2947
563.047 150.962 2947
568.159 150.45 2937
575.183 150.45 2937
582.206 150.45 2937
588.226 150.194 2932
595.237 150.194 2932
602.249 150.194 2932
609.26 150.194 2932
616.271 150.194 2932
622.22 149.938 2927
629.219 149.938 2927
636.218 149.938 2927
643.218 149.938 2927
650.217 149.938 2927
656.094 149.682 2922
663.081 149.682 2922
670.068 149.682 2922
677.056 149.682 2922
684.043 149.682 2922
691.031 149.682 2922
698.018 149.682 2922
705.005 149.682 2922
711.993 149.682 2922
718.98 149.682 2922
725.968 149.682 2922
732.955 149.682 2922
739.942 149.682 2922
746.93 149.682 2922
753.917 149.682 2922
762.207 149.938 2927
769.206 149.938 2927
776.205 149.938 2927
783.205 149.938 2927
790.204 149.938 2927
795.841 149.682 2922
804.203 149.938 2927
811.202 149.938 2927
818.201 149.938 2927
825.201 149.938 2927
832.2 149.938 2927
839.199 149.938 2927
846.199 149.938 2927
853.198 149.938 2927
860.197 149.938 2927
868.678 150.194 2932
875.689 150.194 2932
882.701 150.194 2932
889.712 150.194 2932
896.723 150.194 2932
903.735 150.194 2932
906.087 149.425 2917
913.062 149.425 2917
921.614 149.682 2922
928.602 149.682 2922
938.791 150.194 2932
945.802 150.194 2932
952.814 150.194 2932
959.825 150.194 2932
966.836 150.194 2932
975.508 150.45 2937
984.204 150.706 2942
991.239 150.706 2942
998.275 150.706 2942
998.476 149.682 2922
1387.07 196.912 3844
1396.26 196.912 3844
1405.45 196.912 3844
1401.77 195.119 3809
1401.24 193.787 3783
1410.29 193.787 3783
1409.58 192.455 3757
1415.54 192.045 3749
1411.97 190.355 3716
1420.86 190.355 3716
1426.28 189.894 3707
1432.05 189.484 3699
1415.96 186.205 3635
1424.65 186.205 3635
1433.35 186.205 3635
1442.04 186.205 3635
1447.54 185.796 3627
1434.13 182.978 3572
1442.67 182.978 3572
1430.09 180.315 3520
1417.25 177.651 3468
1414.04 176.216 3440
1422.26 176.216 3440
1407.2 173.348 3384
1401.08 171.606 3350
1386.79 168.891 3297
1381.14 167.252 3265
1388.95 167.252 3265
1396.76 167.252 3265
1412.74 168.225 3284
1426.21 168.891 3297
1442.8 169.916 3317
1450.73 169.916 3317
1476.25 171.965 3357
1514.79 175.499 3426
1526.09 175.858 3433
1534.3 175.858 3433
1551.95 176.934 3454
1576.47 178.778 3490
1665.19 187.845 3667
1673.96 187.845 3667
1686.4 188.255 3675
1695.19 188.255 3675
1703.97 188.255 3675
1712.76 188.255 3675
1709.84 186.974 3650
1711.5 186.205 3635
1720.2 186.205 3635
1713.67 184.566 3603
1491.36 158.236 3089
1498.75 158.236 3089
1506.13 158.236 3089
1496.86 156.495 3055
1490.87 155.111 3028
1487.23 153.984 3006
1494.42 153.984 3006
1493.61 153.165 2990
1497.75 152.858 2984
1483.7 150.706 2942
1490.74 150.706 2942
1497.77 150.706 2942
1504.81 150.706 2942
1504.14 149.938 2927
1511.14 149.938 2927
1515.54 149.682 2922
1516.8 149.118 2911
1523.76 149.118 2911
1530.72 149.118 2911
1537.68 149.118 2911
1541.99 148.862 2906
1548.94 148.862 2906
1553.21 148.606 2901
1560.15 148.606 2901
1564.38 148.35 2896
1568.6 148.094 2891
1570.06 147.581 2881
1576.95 147.581 2881
1583.84 147.581 2881
1587.97 147.325 2876
1594.84 147.325 2876
1601.72 147.325 2876
1605.8 147.069 2871
1607.61 146.608 2862
1614.46 146.608 2862
1621.3 146.608 2862
1628.14 146.608 2862
1629.28 146.096 2852
1636.1 146.096 2852
1640.04 145.84 2847
1646.84 145.84 2847
1653.65 145.84 2847
1654.63 145.327 2837
1661.41 145.327 2837
1668.2 145.327 2837
1672.03 145.071 2832
1678.8 145.071 2832
1685.57 145.071 2832
1692.34 145.071 2832
1696.72 144.866 2828
1700.47 144.61 2823
1704.19 144.354 2818
1710.93 144.354 2818
1717.67 144.354 2818
1718.9 143.893 2809
1722.55 143.637 2804
1729.25 143.637 2804
1735.96 143.637 2804
1736.45 143.125 2794
1743.13 143.125 2794
1749.81 143.125 2794
1756.49 143.125 2794
1757.49 142.664 2785
1760.99 142.407 2780
1767.64 142.407 2780
1774.28 142.407 2780
1780.93 142.407 2780
1787.58 142.407 2780
1794.23 142.407 2780
1800.87 142.407 2780
1807.52 142.407 2780
1814.17 142.407 2780
1818.2 142.203 2776
1824.84 142.203 2776
1831.47 142.203 2776
1838.11 142.203 2776
1844.75 142.203 2776
1845.39 141.742 2767
1852 141.742 2767
1858.62 141.742 2767
1861.87 141.485 2762
1868.47 141.485 2762
1875.08 141.485 2762
1881.68 141.485 2762
1884.87 141.229 2757
1891.46 141.229 2757
1898.05 141.229 2757
1904.65 141.229 2757
1908.47 141.024 2753
1911.57 140.768 2748
1909.07 140.102 2735
1915.61 140.102 2735
1918.63 139.846 2730
1918.82 139.385 2721
1919.66 138.975 2713
1926.15 138.975 2713
1926.23 138.514 2704
1929.12 138.258 2699
1929.84 137.848 2691
1936.27 137.848 2691
1942.71 137.848 2691
1945.52 137.592 2686
1951.94 137.592 2686
1958.36 137.592 2686
1964.79 137.592 2686
1968.28 137.387 2682
1968.06 136.926 2673
1974.45 136.926 2673
1980.85 136.926 2673
1978.32 136.312 2661
1980.95 136.055 2656
1984.31 135.851 2652
1990.65 135.851 2652
1984.19 134.98 2635
1990.49 134.98 2635
2000.58 135.236 2640
2016.02 135.851 2652
2029.22 136.312 2661
2035.59 136.312 2661
-2117.39 151.641 2828
-2110.63 151.641 2828
-2103.87 151.641 2828
-2085.98 150.837 2813
-2086.65 151.373 2823
-2079.9 151.373 2823
-2073.15 151.373 2823
-2066.39 151.373 2823
-2059.64 151.373 2823
-2052.89 151.373 2823
-2046.14 151.373 2823
-2035.78 151.105 2818
-2029.04 151.105 2818
-2018.71 150.837 2813
-2011.99 150.837 2813
-2005.26 150.837 2813
-2012.03 151.855 2832
-2005.26 151.855 2832
-1998.49 151.855 2832
-1991.72 151.855 2832
-1955.51 149.603 2790
-1939.06 148.853 2776
-1932.42 148.853 2776
-1919.54 148.37 2767
-1878.35 145.689 2717
-1859.45 144.724 2699
-1853 144.724 2699
-2044.72 199.256 3716
-2035.83 199.256 3716
-2026.94 199.256 3716
-1885.64 197.487 3683
-1876.84 197.487 3683
-1868.03 197.487 3683
-1846.6 196.146 3658
-1829.81 195.288 3642
-1368.84 172.339 3214
-1361.15 172.339 3214
-1353.47 172.339 3214
-1343.27 172.017 3208
-1335.6 172.017 3208
-1322.96 171.373 3196
-1312.85 171.052 3190
-1305.22 171.052 3190
-1297.59 171.052 3190
-1289.96 171.052 3190
-1282.33 171.052 3190
-1274.71 171.052 3190
-1267.08 171.052 3190
-1257.08 170.73 3184
-1251.82 171.052 3190
-1244.19 171.052 3190
-1236.56 171.052 3190
-1226.62 170.73 3184
-1219.01 170.73 3184
-1195.42 168.478 3142
-1187.9 168.478 3142
-1167.24 166.601 3107
-1151.23 165.368 3084
-1137.55 164.456 3067
-1130.21 164.456 3067
-1118.48 163.813 3055
-1099.18 162.043 3022
-1087.97 161.454 3011
-1082.93 161.775 3017
-1075.71 161.775 3017
-1068.5 161.775 3017
-1061.28 161.775 3017
-1054.07 161.775 3017
-1048.59 162.043 3022
-1041.36 162.043 3022
-1034.14 162.043 3022
-1026.91 162.043 3022
-1025.42 162.955 3039
-1018.15 162.955 3039
-1014.55 163.545 3050
-1007.25 163.545 3050
-999.958 163.545 3050
-992.665 163.545 3050
-983.433 163.223 3044
-974.55 162.955 3039
-967.283 162.955 3039
-954.646 162.043 3022
-943.971 161.454 3011
-933.348 160.864 3000
-926.174 160.864 3000
-915.937 160.327 2990
-908.787 160.327 2990
-899.828 160.006 2984
-892.692 160.006 2984
-885.556 160.006 2984
-875.477 159.47 2974
-865.153 158.88 2963
-858.068 158.88 2963
-849.547 158.612 2958
-842.473 158.612 2958
-835.4 158.612 2958
-822.446 157.486 2937
-815.422 157.486 2937
-805.647 156.949 2927
-798.647 156.949 2927
-791.648 156.949 2927
-784.648 156.949 2927
-777.649 156.949 2927
-771.966 157.217 2932
-770.434 158.343 2953
-763.372 158.343 2953
-756.311 158.343 2953
-749.249 158.343 2953
-742.188 158.343 2953
-735.126 158.343 2953
-728.065 158.343 2953
-721.003 158.343 2953
-715.151 158.612 2958
-708.077 158.612 2958
-701.004 158.612 2958
-693.93 158.612 2958
-683.141 157.754 2942
-676.106 157.754 2942
-669.071 157.754 2942
-662.036 157.754 2942
-656.114 158.022 2947
-649.067 158.022 2947
-642.019 158.022 2947
-634.972 158.022 2947
-627.925 158.022 2947
-623.195 158.612 2958
-616.122 158.612 2958
-609.048 158.612 2958
-550.517 198.774 3707
-544.137 199.685 3724
-548.741 204.726 3818
-539.611 204.726 3818
-539.096 208.05 3880
-529.818 208.05 3880
-520.539 208.05 3880
-511.261 208.05 3880
-504.312 209.016 3898
-497.276 209.981 3916
-487.912 209.981 3916
-478.547 209.981 3916
-470.261 210.463 3925
-469.799 214.539 4001
-461.267 215.021 4010
-451.678 215.021 4010
-442.089 215.021 4010
-432.5 215.021 4010
-422.911 215.021 4010
-178.02 110.567 2062
-173.089 110.567 2062
-168.158 110.567 2062
-163.227 110.567 2062
-158.296 110.567 2062
-153.365 110.567 2062
-148.435 110.567 2062
-143.017 110.192 2055
-138.438 110.46 2060
-133.642 110.567 2062
-128.711 110.567 2062
-123.96 110.728 2065
-119.138 110.835 2067
-114.195 110.835 2067
-109.252 110.835 2067
-104.309 110.835 2067
-99.6067 111.103 2072
-94.926 111.425 2078
-89.9569 111.425 2078
-84.9877 111.425 2078
-80.2111 111.693 2083
-75.4106 111.961 2088
-70.4176 111.961 2088
-65.6752 112.39 2096
-60.7209 112.497 2098
-55.8633 112.819 2104
-50.832 112.819 2104
-45.8007 112.819 2104
-40.8081 112.926 2106
-35.7721 112.926 2106
-30.7798 113.087 2109
-25.7365 113.087 2109
-20.6932 113.087 2109
-15.65 113.087 2109
-10.6067 113.087 2109
-5.55555 112.926 2106
-0.519469 112.926 2106
4.52305 113.087 2109
9.56631 113.087 2109
14.6096 113.087 2109
19.6528 113.087 2109
24.6961 113.087 2109
29.7393 113.087 2109
34.7826 113.087 2109
39.8259 113.087 2109
44.8691 113.087 2109
49.9124 113.087 2109
54.9556 113.087 2109
60.0842 113.248 2112
65.1964 113.355 2114
70.3513 113.516 2117
75.4137 113.516 2117
80.5901 113.677 2120
85.8617 113.945 2125
91.2 114.267 2131
96.2958 114.267 2131
101.63 114.535 2136
107.037 114.857 2142
112.264 114.964 2144
117.391 114.964 2144
122.861 115.286 2150
128.3 115.554 2155
133.825 115.875 2161
138.992 115.875 2161
144.694 116.304 2169
150.088 116.465 2172
155.496 116.626 2175
161.14 116.948 2181
166.356 116.948 2181
171.807 117.109 2184
177.922 117.699 2195
183.671 118.02 2201
188.934 118.02 2201
194.992 118.503 2210
200.73 118.771 2215
207.701 119.736 2233
213.04 119.736 2233
218.967 120.058 2239
225.523 120.701 2251
232.24 121.398 2264
237.654 121.398 2264
243.712 121.72 2270
249.798 122.042 2276
255.577 122.203 2279
261.027 122.203 2279
267.179 122.524 2285
273.478 122.9 2292
281.271 123.919 2311
286.798 123.919 2311
293.462 124.401 2320
300.299 124.937 2330
307.577 125.635 2343
313.18 125.635 2343
318.783 125.635 2343
426.687 159.738 2979
434.539 160.006 2984
441.674 160.006 2984
448.81 160.006 2984
455.945 160.006 2984
463.081 160.006 2984
470.217 160.006 2984
475.753 159.47 2974
482.864 159.47 2974
489.976 159.47 2974
497.088 159.47 2974
504.2 159.47 2974
511.311 159.47 2974
515.634 158.612 2958
522.708 158.612 2958
529.781 158.612 2958
536.854 158.612 2958
543.928 158.612 2958
551.001 158.612 2958
557.132 158.343 2953
563.047 158.022 2947
570.094 158.022 2947
577.141 158.022 2947
582.206 157.486 2937
588.226 157.217 2932
595.237 157.217 2932
602.249 157.217 2932
609.26 157.217 2932
616.271 157.217 2932
622.22 156.949 2927
629.219 156.949 2927
636.218 156.949 2927
643.218 156.949 2927
650.217 156.949 2927
657.216 156.949 2927
664.216 156.949 2927
670.068 156.681 2922
677.056 156.681 2922
684.043 156.681 2922
691.031 156.681 2922
698.018 156.681 2922
705.005 156.681 2922
711.993 156.681 2922
718.98 156.681 2922
725.968 156.681 2922
732.955 156.681 2922
739.942 156.681 2922
746.93 156.681 2922
753.917 156.681 2922
762.207 156.949 2927
769.206 156.949 2927
776.205 156.949 2927
783.205 156.949 2927
788.854 156.681 2922
795.841 156.681 2922
802.829 156.681 2922
809.816 156.681 2922
816.804 156.681 2922
825.201 156.949 2927
832.2 156.949 2927
839.199 156.949 2927
846.199 156.949 2927
853.198 156.949 2927
860.197 156.949 2927
868.678 157.217 2932
875.689 157.217 2932
882.701 157.217 2932
889.712 157.217 2932
896.723 157.217 2932
903.735 157.217 2932
906.087 156.413 2917
913.062 156.413 2917
921.614 156.681 2922
928.602 156.681 2922
938.791 157.217 2932
945.802 157.217 2932
952.814 157.217 2932
959.825 157.217 2932
963.539 156.681 2922
973.848 157.217 2932
980.859 157.217 2932
987.87 157.217 2932
994.881 157.217 2932
998.476 156.681 2922
1394.01 208.533 3889
1403.31 208.533 3889
1412.61 208.533 3889
1405.45 206.12 3844
1401.77 204.243 3809
1391.61 201.455 3757
1400.6 201.455 3757
1406.58 201.026 3749
1412.15 200.543 3740
1411.97 199.256 3716
1420.86 199.256 3716
1423.2 198.345 3699
1428.95 197.916 3691
1415.96 194.913 3635
1424.65 194.913 3635
1433.35 194.913 3635
1442.04 194.913 3635
1447.54 194.484 3627
1434.13 191.535 3572
1442.67 191.535 3572
1430.09 188.747 3520
1417.25 185.958 3468
1408.28 183.706 3426
1416.48 183.706 3426
1401.38 180.704 3370
1398.15 179.256 3343
1386.79 176.789 3297
1375.64 174.376 3252
1388.95 175.073 3265
1396.76 175.073 3265
1415.32 176.414 3290
1426.21 176.789 3297
1442.8 177.862 3317
1450.73 177.862 3317
1476.25 180.006 3357
1508.6 182.956 3412
1522.98 183.706 3426
1531.17 183.706 3426
1539.36 183.706 3426
1547.56 183.706 3426
1665.19 196.629 3667
1673.96 196.629 3667
1686.4 197.058 3675
1695.19 197.058 3675
1703.97 197.058 3675
1712.76 197.058 3675
1702.81 194.913 3635
1711.5 194.913 3635
1720.2 194.913 3635
1491.55 168.156 3136
1499.05 168.156 3136
1506.55 168.156 3136
1491.36 165.636 3089
1498.75 165.636 3089
1506.13 165.636 3089
1496.86 163.813 3055
1490.87 162.365 3028
1487.23 161.185 3006
1494.42 161.185 3006
1493.61 160.327 2990
1497.75 160.006 2984
1483.7 157.754 2942
1490.74 157.754 2942
1492.68 157.217 2932
1492.02 156.413 2917
1499 156.413 2917
1505.97 156.413 2917
1504.65 155.555 2901
1511.59 155.555 2901
1513.29 155.019 2891
1520.2 155.019 2891
1527.12 155.019 2891
1534.03 155.019 2891
1540.94 155.019 2891
1545.18 154.751 2886
1552.08 154.751 2886
1556.28 154.483 2881
1563.17 154.483 2881
1567.33 154.215 2876
1574.21 154.215 2876
1581.09 154.215 2876
1585.21 153.947 2871
1592.07 153.947 2871
1598.94 153.947 2871
1603.01 153.678 2866
1607.61 153.464 2862
1611.64 153.196 2857
1618.47 153.196 2857
1625.3 153.196 2857
1632.13 153.196 2857
1636.1 152.928 2852
1642.92 152.928 2852
1649.74 152.928 2852
1656.56 152.928 2852
1660.46 152.66 2847
1661.41 152.123 2837
1668.2 152.123 2837
1674.98 152.123 2837
1681.76 152.123 2837
1685.57 151.855 2832
1692.34 151.855 2832
1699.12 151.855 2832
1703.48 151.641 2828
1707.22 151.373 2823
1710.93 151.105 2818
1717.67 151.105 2818
1721.35 150.837 2813
1722.55 150.354 2804
1729.25 150.354 2804
1735.96 150.354 2804
1739.56 150.086 2799
1743.13 149.818 2794
1749.81 149.818 2794
1756.49 149.818 2794
1757.49 149.335 2785
1764.15 149.335 2785
1767.64 149.067 2780
1774.28 149.067 2780
1780.93 149.067 2780
1787.58 149.067 2780
1794.23 149.067 2780
1800.87 149.067 2780
1807.52 149.067 2780
1814.17 149.067 2780
1818.2 148.853 2776
1824.84 148.853 2776
1831.47 148.853 2776
1838.11 148.853 2776
1844.75 148.853 2776
1845.39 148.37 2767
1852 148.37 2767
1858.62 148.37 2767
1865.24 148.37 2767
1871.85 148.37 2767
1878.47 148.37 2767
1885.09 148.37 2767
1891.7 148.37 2767
1898.32 148.37 2767
1898.05 147.834 2757
1904.65 147.834 2757
1911.24 147.834 2757
1911.57 147.351 2748
1915.35 147.137 2744
1921.91 147.137 2744
1918.63 146.386 2730
1922.34 146.171 2726
1922.49 145.689 2717
1928.99 145.689 2717
1929.08 145.206 2708
1935.55 145.206 2708
1932.7 144.509 2695
1936.27 144.295 2691
1942.71 144.295 2691
1949.14 144.295 2691
1955.58 144.295 2691
1958.36 144.027 2686
1964.79 144.027 2686
1968.28 143.812 2682
1971.74 143.598 2678
1974.45 143.33 2673
1980.85 143.33 2673
1981.29 142.901 2665
1980.95 142.418 2656
1984.31 142.203 2652
1990.65 142.203 2652
1984.19 141.292 2635
1990.49 141.292 2635
1996.79 141.292 2635
2006.9 141.56 2640
2013.21 141.56 2640
2019.52 141.56 2640
-2117.39 158.415 2828
-2110.63 158.415 2828
-2103.87 158.415 2828
-2085.98 157.575 2813
-2086.65 158.135 2823
-2079.9 158.135 2823
-2073.15 158.135 2823
-2066.39 158.135 2823
-2059.64 158.135 2823
-2052.89 158.135 2823
-2046.14 158.135 2823
-2035.78 157.855 2818
-2029.04 157.855 2818
-2018.71 157.575 2813
-2022.72 158.415 2828
-2015.95 158.415 2828
-2012.03 158.639 2832
-2005.26 158.639 2832
-1998.49 158.639 2832
-1991.72 158.639 2832
-1961.81 156.791 2799
-1945.34 156.007 2785
-1938.68 156.007 2785
-1919.54 154.998 2767
-1887.34 152.926 2730
-1859.45 151.189 2699
-1853 151.189 2699
-1834.92 150.237 2682
-2035.29 205.413 3667
-2026.52 205.413 3667
-2044.72 208.158 3716
-2035.83 208.158 3716
-2035.67 209.054 3732
-2026.75 209.054 3732
-2017.82 209.054 3732
-2008.9 209.054 3732
-1999.97 209.054 3732
-1977.71 207.654 3707
-1951.85 205.861 3675
-1934.07 204.909 3658
-1938.49 206.31 3683
-1929.68 206.31 3683
-1920.87 206.31 3683
-1912.06 206.31 3683
-1903.26 206.31 3683
-1894.45 206.31 3683
-1885.64 206.31 3683
-1876.84 206.31 3683
-1868.03 206.31 3683
-1846.6 204.909 3658
-1829.81 204.013 3642
-1382.47 181.83 3246
-1374.7 181.83 3246
-1366.94 181.83 3246
-1348.71 180.43 3221
-1341.01 180.43 3221
-1330.41 180.038 3214
-1315.32 179.029 3196
-1307.67 179.029 3196
-1300.03 179.029 3196
-1292.39 179.029 3196
-1284.75 179.029 3196
-1277.1 179.029 3196
-1269.46 179.029 3196
-1261.82 179.029 3196
-1254.18 179.029 3196
-1244.19 178.693 3190
-1236.56 178.693 3190
-1226.62 178.357 3184
-1219.01 178.357 3184
-1195.42 176.005 3142
-1187.9 176.005 3142
-1167.24 174.044 3107
-1151.23 172.756 3084
-1143.85 172.756 3084
-1136.48 172.756 3084
-1126.91 172.419 3078
-1103.18 169.899 3033
-1087.97 168.666 3011
-1082.93 169.002 3017
-1075.71 169.002 3017
-1068.5 169.002 3017
-1061.28 169.002 3017
-1054.07 169.002 3017
-1048.59 169.283 3022
-1041.36 169.283 3022
-1034.14 169.283 3022
-1026.91 169.283 3022
-1025.42 170.235 3039
-1018.15 170.235 3039
-1014.55 170.851 3050
-1007.25 170.851 3050
-999.958 170.851 3050
-992.665 170.851 3050
-983.433 170.515 3044
-974.55 170.235 3039
-967.283 170.235 3039
-954.646 169.283 3022
-945.852 169.002 3017
-933.348 168.05 3000
-926.174 168.05 3000
-919 168.05 3000
-911.826 168.05 3000
-903.145 167.77 2995
-895.983 167.77 2995
-888.821 167.77 2995
-878.421 167.154 2984
-865.153 165.978 2963
-858.068 165.978 2963
-850.983 165.978 2963
-843.897 165.978 2963
-836.812 165.978 2963
-829.726 165.978 2963
-815.422 164.521 2937
-807.023 164.241 2932
-800.011 164.241 2932
-793 164.241 2932
-785.989 164.241 2932
-778.978 164.241 2932
-773.283 164.521 2937
-768.868 165.081 2947
-761.821 165.081 2947
-754.774 165.081 2947
-747.727 165.081 2947
-742.188 165.417 2953
-735.126 165.417 2953
-728.065 165.417 2953
-721.003 165.417 2953
-715.151 165.697 2958
-708.077 165.697 2958
-701.004 165.697 2958
-693.93 165.697 2958
-683.141 164.801 2942
-676.106 164.801 2942
-669.071 164.801 2942
-662.036 164.801 2942
-655.001 164.801 2942
-647.965 164.801 2942
-639.841 164.521 2937
-631.74 164.241 2932
-625.794 164.521 2937
-618.771 164.521 2937
-611.748 164.521 2937
-604.725 164.521 2937
-550.517 207.654 3707
-544.137 208.606 3724
-548.741 213.872 3818
-539.611 213.872 3818
-536.595 216.337 3862
-528.589 216.841 3871
-520.539 217.345 3880
-511.261 217.345 3880
-504.312 218.353 3898
-497.276 219.362 3916
-489.033 219.866 3925
-479.647 219.866 3925
-478.169 223.563 3991
-470.856 224.627 4010
-461.267 224.627 4010
-451.678 224.627 4010
-442.089 224.627 4010
-432.5 224.627 4010
-422.911 224.627 4010
-179.574 116.515 2080
-174.6 116.515 2080
-169.626 116.515 2080
-164.652 116.515 2080
-159.678 116.515 2080
-154.704 116.515 2080
-149.154 116.067 2072
-144.061 115.955 2070
-139.111 115.955 2070
-134.29 116.067 2072
-129.335 116.067 2072
-124.561 116.235 2075
-119.599 116.235 2075
-114.637 116.235 2075
-109.675 116.235 2075
-104.713 116.235 2075
-99.8951 116.403 2078
-94.926 116.403 2078
-89.9569 116.403 2078
-85.0695 116.515 2080
-80.2111 116.683 2083
-75.4106 116.963 2088
-70.4176 116.963 2088
-65.5812 117.243 2093
-60.6631 117.411 2096
-55.7836 117.691 2101
-50.7595 117.691 2101
-45.8007 117.859 2104
-40.8081 117.971 2106
-35.7721 117.971 2106
-30.7798 118.139 2109
-25.7365 118.139 2109
-20.6932 118.139 2109
-15.6277 117.971 2106
-10.5916 117.971 2106
-5.55555 117.971 2106
-0.519469 117.971 2106
4.52305 118.139 2109
9.56631 118.139 2109
14.6096 118.139 2109
19.6528 118.139 2109
24.6961 118.139 2109
29.7393 118.139 2109
34.7826 118.139 2109
39.8259 118.139 2109
44.8691 118.139 2109
49.9124 118.139 2109
54.9556 118.139 2109
60.0842 118.307 2112
65.1964 118.419 2114
70.3513 118.587 2117
75.4137 118.587 2117
80.476 118.587 2117
85.7405 118.868 2122
91.2 119.372 2131
96.2958 119.372 2131
101.63 119.652 2136
107.037 119.988 2142
112.421 120.268 2147
117.555 120.268 2147
123.032 120.604 2153
128.479 120.884 2158
134.01 121.22 2164
139.185 121.22 2164
144.894 121.668 2172
150.295 121.836 2175
155.496 121.836 2175
161.362 122.341 2184
166.585 122.341 2184
171.807 122.341 2184
177.922 122.957 2195
183.921 123.461 2204
189.192 123.461 2204
195.256 123.965 2213
201.001 124.245 2218
207.701 125.085 2233
213.04 125.085 2233
218.967 125.421 2239
225.523 126.094 2251
232.24 126.822 2264
237.654 126.822 2264
244.034 127.326 2273
249.798 127.494 2276
255.577 127.662 2279
261.027 127.662 2279
266.828 127.83 2282
273.001 128.166 2288
280.784 129.231 2307
286.301 129.231 2307
292.703 129.623 2314
299.912 130.351 2327
305.871 130.519 2330
311.443 130.519 2330
317.014 130.519 2330
436.856 170.851 3050
444.15 170.851 3050
451.443 170.851 3050
458.737 170.851 3050
464.349 170.235 3039
471.616 170.235 3039
476.205 169.283 3022
480.872 168.386 3006
486.274 167.77 2995
493.436 167.77 2995
499.762 167.49 2990
505.047 166.874 2979
511.311 166.594 2974
516.506 165.978 2963
523.591 165.978 2963
529.781 165.697 2958
536.854 165.697 2958
543.928 165.697 2958
551.001 165.697 2958
557.132 165.417 2953
564.193 165.417 2953
570.094 165.081 2947
577.141 165.081 2947
583.197 164.801 2942
588.226 164.241 2932
595.237 164.241 2932
602.249 164.241 2932
609.26 164.241 2932
616.271 164.241 2932
622.22 163.961 2927
629.219 163.961 2927
636.218 163.961 2927
643.218 163.961 2927
650.217 163.961 2927
657.216 163.961 2927
664.216 163.961 2927
671.215 163.961 2927
677.056 163.681 2922
684.043 163.681 2922
691.031 163.681 2922
698.018 163.681 2922
705.005 163.681 2922
711.993 163.681 2922
718.98 163.681 2922
725.968 163.681 2922
732.955 163.681 2922
739.942 163.681 2922
746.93 163.681 2922
753.917 163.681 2922
760.904 163.681 2922
767.892 163.681 2922
774.879 163.681 2922
781.867 163.681 2922
788.854 163.681 2922
795.841 163.681 2922
802.829 163.681 2922
809.816 163.681 2922
816.804 163.681 2922
823.791 163.681 2922
832.2 163.961 2927
839.199 163.961 2927
846.199 163.961 2927
851.741 163.681 2922
858.728 163.681 2922
868.678 164.241 2932
875.689 164.241 2932
882.701 164.241 2932
888.195 163.961 2927
895.194 163.961 2927
902.193 163.961 2927
907.64 163.681 2922
914.627 163.681 2922
921.614 163.681 2922
928.602 163.681 2922
937.19 163.961 2927
945.802 164.241 2932
952.814 164.241 2932
959.825 164.241 2932
966.836 164.241 2932
973.848 164.241 2932
987.884 165.417 2953
994.946 165.417 2953
1002.01 165.417 2953
998.476 163.681 2922
1394.01 217.849 3889
1403.31 217.849 3889
1412.61 217.849 3889
1402.16 214.824 3835
1392.2 211.911 3783
1388.65 210.007 3749
1397.61 210.007 3749
1403.2 209.503 3740
1403.08 208.158 3716
1405.51 207.206 3699
1414.36 207.206 3699
1420.12 206.758 3691
1419.66 205.413 3667
1415.96 203.621 3635
1424.65 203.621 3635
1433.35 203.621 3635
1442.04 203.621 3635
1447.54 203.173 3627
1428.11 199.252 3557
1436.61 199.252 3557
1423.99 196.339 3505
1405.81 192.698 3440
1402.53 191.129 3412
1410.69 191.129 3412
1395.98 188.048 3357
1389.78 186.144 3323
1381.32 183.959 3284
1375.64 182.166 3252
1383.42 182.166 3252
1391.19 182.166 3252
1415.32 184.295 3290
1426.21 184.687 3297
1434.1 184.687 3297
1441.98 184.687 3297
1464.38 186.536 3330
1493.12 189.169 3377
1507.42 189.953 3391
1515.53 189.953 3391
1523.64 189.953 3391
1531.75 189.953 3391
1539.86 189.953 3391
1484.05 175.668 3136
1491.55 175.668 3136
1499.05 175.668 3136
1506.55 175.668 3136
1491.36 173.036 3089
1498.75 173.036 3089
1484.19 170.515 3044
1467.46 167.77 2995
1464.28 166.594 2974
1468.43 166.258 2968
1475.52 166.258 2968
1477.63 165.697 2958
1479.18 165.081 2947
1478.66 164.241 2932
1485.67 164.241 2932
1485.05 163.401 2917
1488.95 163.065 2911
1490.78 162.505 2901
1497.71 162.505 2901
1502.06 162.224 2896
1506.38 161.944 2891
1510.67 161.664 2886
1517.57 161.664 2886
1524.48 161.664 2886
1528.72 161.384 2881
1535.61 161.384 2881
1542.5 161.384 2881
1549.39 161.384 2881
1553.58 161.104 2876
1560.46 161.104 2876
1564.61 160.824 2871
1571.48 160.824 2871
1575.59 160.544 2866
1582.45 160.544 2866
1589.3 160.544 2866
1596.15 160.544 2866
1603.01 160.544 2866
1607.61 160.32 2862
1614.46 160.32 2862
1621.3 160.32 2862
1628.14 160.32 2862
1632.13 160.04 2857
1638.96 160.04 2857
1645.8 160.04 2857
1652.63 160.04 2857
1659.46 160.04 2857
1663.38 159.76 2852
1667.27 159.48 2847
1674.08 159.48 2847
1677.93 159.2 2842
1684.73 159.2 2842
1688.55 158.919 2837
1695.33 158.919 2837
1702.12 158.919 2837
1703.48 158.415 2828
1707.22 158.135 2823
1713.97 158.135 2823
1720.72 158.135 2823
1721.35 157.575 2813
1722.55 157.071 2804
1729.25 157.071 2804
1735.96 157.071 2804
1739.56 156.791 2799
1746.25 156.791 2799
1749.81 156.511 2794
1756.49 156.511 2794
1760.65 156.287 2790
1764.15 156.007 2785
1770.81 156.007 2785
1777.47 156.007 2785
1780.93 155.727 2780
1787.58 155.727 2780
1794.23 155.727 2780
1800.87 155.727 2780
1807.52 155.727 2780
1814.17 155.727 2780
1818.2 155.502 2776
1824.84 155.502 2776
1831.47 155.502 2776
1838.11 155.502 2776
1844.75 155.502 2776
1845.39 154.998 2767
1852 154.998 2767
1858.62 154.998 2767
1865.24 154.998 2767
1871.85 154.998 2767
1878.47 154.998 2767
1885.09 154.998 2767
1891.7 154.998 2767
1898.32 154.998 2767
1898.05 154.438 2757
1904.65 154.438 2757
1911.24 154.438 2757
1911.57 153.934 2748
1915.35 153.71 2744
1921.91 153.71 2744
1922.15 153.206 2735
1922.34 152.702 2726
1925.32 152.422 2721
1931.83 152.422 2721
1935.49 152.197 2717
1939.12 151.973 2713
1939.16 151.469 2704
1939.15 150.965 2695
1945.59 150.965 2695
1952.04 150.965 2695
1958.48 150.965 2695
1962.01 150.741 2691
1968.45 150.741 2691
1971.21 150.461 2686
1974.69 150.237 2682
1981.1 150.237 2682
1987.52 150.237 2682
1987.24 149.733 2673
1984.68 149.061 2661
1984.31 148.556 2652
1990.65 148.556 2652
1984.19 147.604 2635
1990.49 147.604 2635
1996.79 147.604 2635
2003.09 147.604 2635
2009.4 147.604 2635
2012.64 147.38 2631
-2113.65 164.898 2823
-2106.9 164.898 2823
-2100.15 164.898 2823
-2085.98 164.314 2813
-2086.65 164.898 2823
-2079.9 164.898 2823
-2073.15 164.898 2823
-2066.39 164.898 2823
-2059.64 164.898 2823
-2049.26 164.606 2818
-2042.52 164.606 2818
-2035.78 164.606 2818
-2025.44 164.314 2813
-2018.71 164.314 2813
-2022.72 165.19 2828
-2015.95 165.19 2828
-2012.03 165.423 2832
-2005.26 165.423 2832
-1998.49 165.423 2832
-1988.9 165.19 2828
-1961.81 163.496 2799
-1945.34 162.678 2785
-1938.68 162.678 2785
-1919.54 161.627 2767
-1887.34 159.465 2730
-1859.45 157.655 2699
-1853 157.655 2699
-1834.92 156.662 2682
-2035.29 214.198 3667
-2026.52 214.198 3667
-2044.72 217.06 3716
-2035.83 217.06 3716
-2035.67 217.994 3732
-2026.75 217.994 3732
-2017.82 217.994 3732
-2008.9 217.994 3732
-1999.97 217.994 3732
-1977.71 216.534 3707
-1951.85 214.665 3675
-1934.07 213.672 3658
-1938.49 215.132 3683
-1929.68 215.132 3683
-1920.87 215.132 3683
-1912.06 215.132 3683
-1903.26 215.132 3683
-1894.45 215.132 3683
-1885.64 215.132 3683
-1876.84 215.132 3683
-1868.03 215.132 3683
-1846.6 213.672 3658
-1829.81 212.737 3642
-1419.96 192.585 3297
-1412.07 192.585 3297
-1404.19 192.585 3297
-1390.8 191.826 3284
-1374.94 190.716 3265
-1351.22 188.496 3227
-1343.51 188.496 3227
-1333.31 188.146 3221
-1322.72 187.737 3214
-1307.67 186.686 3196
-1300.03 186.686 3196
-1292.39 186.686 3196
-1287.16 187.036 3202
-1279.5 187.036 3202
-1271.84 187.036 3202
-1264.19 187.036 3202
-1256.53 187.036 3202
-1246.53 186.686 3196
-1238.89 186.686 3196
-1226.62 185.985 3184
-1219.01 185.985 3184
-1195.42 183.531 3142
-1187.9 183.531 3142
-1167.24 181.487 3107
-1151.23 180.143 3084
-1143.85 180.143 3084
-1136.48 180.143 3084
-1126.91 179.793 3078
-1103.18 177.164 3033
-1086.17 175.587 3006
-1078.98 175.587 3006
-1071.79 175.587 3006
-1064.6 175.587 3006
-1055.3 175.237 3000
-1048.13 175.237 3000
-1048.59 176.522 3022
-1041.36 176.522 3022
-1034.14 176.522 3022
-1026.91 176.522 3022
-1025.42 177.515 3039
-1018.15 177.515 3039
-1014.55 178.157 3050
-1007.25 178.157 3050
-999.958 178.157 3050
-992.665 178.157 3050
-983.433 177.807 3044
-974.55 177.515 3039
-967.283 177.515 3039
-954.646 176.522 3022
-945.852 176.23 3017
-933.348 175.237 3000
-928.027 175.587 3006
-920.838 175.587 3006
-913.65 175.587 3006
-904.653 175.237 3000
-897.479 175.237 3000
-890.305 175.237 3000
-881.659 174.945 2995
-865.153 173.075 2963
-859.516 173.368 2968
-852.419 173.368 2968
-845.321 173.368 2968
-838.224 173.368 2968
-831.126 173.368 2968
-816.81 171.849 2942
-808.399 171.557 2937
-802.74 171.849 2942
-797.057 172.141 2947
-790.01 172.141 2947
-782.963 172.141 2947
-773.283 171.557 2937
-768.868 172.141 2947
-761.821 172.141 2947
-754.774 172.141 2947
-747.727 172.141 2947
-742.188 172.491 2953
-735.126 172.491 2953
-728.065 172.491 2953
-721.003 172.491 2953
-715.151 172.783 2958
-708.077 172.783 2958
-701.004 172.783 2958
-693.93 172.783 2958
-683.141 171.849 2942
-676.106 171.849 2942
-669.071 171.849 2942
-662.036 171.849 2942
-655.001 171.849 2942
-647.965 171.849 2942
-639.841 171.557 2937
-631.74 171.265 2932
-625.794 171.557 2937
-618.771 171.557 2937
-611.748 171.557 2937
-604.725 171.557 2937
-550.517 216.534 3707
-544.137 217.527 3724
-548.741 223.018 3818
-539.611 223.018 3818
-536.595 225.588 3862
-531.047 227.165 3889
-522.954 227.691 3898
-513.633 227.691 3898
-506.64 228.742 3916
-504.387 232.013 3972
-497.256 233.123 3991
-487.713 233.123 3991
-481.643 234.817 4020
-474.261 235.927 4039
-464.603 235.927 4039
-454.945 235.927 4039
-442.089 234.233 4010
-432.5 234.233 4010
-422.911 234.233 4010
-185.258 121.965 2088
-180.264 121.965 2088
-175.271 121.965 2088
-170.034 121.79 2085
-164.652 121.497 2080
-159.678 121.497 2080
-154.704 121.497 2080
-149.73 121.497 2080
-144.2 121.03 2072
-139.245 121.03 2072
-134.809 121.497 2080
-129.835 121.497 2080
-124.861 121.497 2080
-119.887 121.497 2080
-114.913 121.497 2080
-109.939 121.497 2080
-104.965 121.497 2080
-99.9913 121.497 2080
-95.0174 121.497 2080
-90.0434 121.497 2080
-85.1922 121.673 2083
-80.2882 121.79 2085
-75.4106 121.965 2088
-70.4176 121.965 2088
-65.5812 122.257 2093
-60.7209 122.549 2098
-55.8633 122.899 2104
-50.832 122.899 2104
-45.8007 122.899 2104
-40.8081 123.016 2106
-35.823 123.191 2109
-30.7798 123.191 2109
-25.7365 123.191 2109
-20.6932 123.191 2109
-15.65 123.191 2109
-10.6067 123.191 2109
-5.55555 123.016 2106
-0.519469 123.016 2106
4.52305 123.191 2109
9.56631 123.191 2109
14.6096 123.191 2109
19.6528 123.191 2109
24.6961 123.191 2109
29.7393 123.191 2109
34.7826 123.191 2109
39.8259 123.191 2109
44.8691 123.191 2109
49.9124 123.191 2109
54.9556 123.191 2109
60.0842 123.367 2112
65.1964 123.483 2114
70.3513 123.659 2117
75.4137 123.659 2117
80.476 123.659 2117
85.7405 123.951 2122
91.2 124.476 2131
96.2958 124.476 2131
101.63 124.769 2136
107.037 125.119 2142
112.421 125.411 2147
117.555 125.411 2147
123.032 125.762 2153
128.479 126.054 2158
134.01 126.404 2164
139.185 126.404 2164
144.894 126.871 2172
150.295 127.047 2175
155.711 127.222 2178
161.362 127.572 2184
166.585 127.572 2184
171.965 127.689 2186
177.922 128.215 2195
183.921 128.741 2204
189.192 128.741 2204
195.256 129.266 2213
201.001 129.558 2218
207.98 130.61 2236
213.327 130.61 2236
218.967 130.785 2239
225.523 131.486 2251
232.24 132.245 2264
237.654 132.245 2264
244.034 132.771 2273
249.798 132.946 2276
255.577 133.121 2279
261.027 133.121 2279
266.828 133.297 2282
273.001 133.647 2288
280.784 134.757 2307
286.301 134.757 2307
292.703 135.166 2314
299.912 135.925 2327
305.871 136.101 2330
311.443 136.101 2330
317.014 136.101 2330
441.726 180.143 3084
449.101 180.143 3084
456.476 180.143 3084
462.046 179.442 3072
466.03 178.157 3050
473.324 178.157 3050
478.884 177.515 3039
483.431 176.522 3022
488.06 175.587 3006
495.248 175.587 3006
500.598 174.945 2995
506.912 174.653 2990
512.171 174.01 2979
516.506 173.075 2963
523.591 173.075 2963
530.676 173.075 2963
536.854 172.783 2958
543.928 172.783 2958
551.001 172.783 2958
558.075 172.783 2958
564.193 172.491 2953
570.094 172.141 2947
577.141 172.141 2947
583.197 171.849 2942
588.226 171.265 2932
595.237 171.265 2932
602.249 171.265 2932
609.26 171.265 2932
616.271 171.265 2932
623.283 171.265 2932
630.294 171.265 2932
637.305 171.265 2932
643.218 170.973 2927
650.217 170.973 2927
657.216 170.973 2927
664.216 170.973 2927
671.215 170.973 2927
677.056 170.681 2922
684.043 170.681 2922
691.031 170.681 2922
698.018 170.681 2922
705.005 170.681 2922
711.993 170.681 2922
718.98 170.681 2922
725.968 170.681 2922
732.955 170.681 2922
739.942 170.681 2922
746.93 170.681 2922
753.917 170.681 2922
760.904 170.681 2922
767.892 170.681 2922
774.879 170.681 2922
781.867 170.681 2922
788.854 170.681 2922
795.841 170.681 2922
802.829 170.681 2922
809.816 170.681 2922
816.804 170.681 2922
823.791 170.681 2922
832.2 170.973 2927
839.199 170.973 2927
846.199 170.973 2927
853.198 170.973 2927
860.197 170.973 2927
868.678 171.265 2932
875.689 171.265 2932
882.701 171.265 2932
888.195 170.973 2927
895.194 170.973 2927
902.193 170.973 2927
907.64 170.681 2922
914.627 170.681 2922
923.191 170.973 2927
930.191 170.973 2927
937.19 170.973 2927
947.415 171.557 2937
954.439 171.557 2937
961.462 171.557 2937
973.761 172.491 2953
984.144 173.075 2963
991.229 173.075 2963
998.315 173.075 2963
1003.7 172.783 2958
998.476 170.681 2922
1397.53 229.268 3925
1406.91 229.268 3925
1416.3 229.268 3925
1412.61 227.165 3889
1402.16 224.011 3835
1392.2 220.974 3783
1388.65 218.987 3749
1397.61 218.987 3749
1403.2 218.462 3740
1403.08 217.06 3716
1405.51 216.067 3699
1414.36 216.067 3699
1420.12 215.6 3691
1419.66 214.198 3667
1415.96 212.328 3635
1424.65 212.328 3635
1433.35 212.328 3635
1442.04 212.328 3635
1447.54 211.861 3627
1428.11 207.772 3557
1436.61 207.772 3557
1423.99 204.735 3505
1405.81 200.938 3440
1402.53 199.303 3412
1410.69 199.303 3412
1395.98 196.09 3357
1389.78 194.104 3323
1381.32 191.826 3284
1375.64 189.957 3252
1383.42 189.957 3252
1391.19 189.957 3252
1415.32 192.176 3290
1426.21 192.585 3297
1434.1 192.585 3297
1441.98 192.585 3297
1464.38 194.513 3330
1493.12 197.258 3377
1507.42 198.076 3391
1515.53 198.076 3391
1523.64 198.076 3391
1531.75 198.076 3391
1539.86 198.076 3391
1484.05 183.181 3136
1491.55 183.181 3136
1499.05 183.181 3136
1506.55 183.181 3136
1491.36 180.435 3089
1498.75 180.435 3089
1484.19 177.807 3044
1467.46 174.945 2995
1464.28 173.718 2974
1468.43 173.368 2968
1475.52 173.368 2968
1477.63 172.783 2958
1479.18 172.141 2947
1478.66 171.265 2932
1485.67 171.265 2932
1485.05 170.389 2917
1488.95 170.038 2911
1490.78 169.454 2901
1497.71 169.454 2901
1502.06 169.162 2896
1506.38 168.87 2891
1510.67 168.578 2886
1517.57 168.578 2886
1524.48 168.578 2886
1528.72 168.286 2881
1535.61 168.286 2881
1542.5 168.286 2881
1549.39 168.286 2881
1553.58 167.994 2876
1560.46 167.994 2876
1564.61 167.702 2871
1571.48 167.702 2871
1575.59 167.409 2866
1582.45 167.409 2866
1589.3 167.409 2866
1596.15 167.409 2866
1603.01 167.409 2866
1607.61 167.176 2862
1614.46 167.176 2862
1621.3 167.176 2862
1628.14 167.176 2862
1634.99 167.176 2862
1638.96 166.884 2857
1645.8 166.884 2857
1652.63 166.884 2857
1659.46 166.884 2857
1666.29 166.884 2857
1670.2 166.592 2852
1677.02 166.592 2852
1680.88 166.3 2847
1684.73 166.008 2842
1691.52 166.008 2842
1698.32 166.008 2842
1702.12 165.716 2837
1708.9 165.716 2837
1710.24 165.19 2828
1713.97 164.898 2823
1720.72 164.898 2823
1721.35 164.314 2813
1725.62 164.08 2809
1729.25 163.788 2804
1735.96 163.788 2804
1739.56 163.496 2799
1746.25 163.496 2799
1752.94 163.496 2799
1759.64 163.496 2799
1760.65 162.97 2790
1764.15 162.678 2785
1770.81 162.678 2785
1777.47 162.678 2785
1780.93 162.386 2780
1787.58 162.386 2780
1794.23 162.386 2780
1800.87 162.386 2780
1807.52 162.386 2780
1814.17 162.386 2780
1818.2 162.152 2776
1824.84 162.152 2776
1831.47 162.152 2776
1838.11 162.152 2776
1844.75 162.152 2776
1845.39 161.627 2767
1852 161.627 2767
1858.62 161.627 2767
1865.24 161.627 2767
1871.85 161.627 2767
1878.47 161.627 2767
1885.09 161.627 2767
1891.7 161.627 2767
1898.32 161.627 2767
1901.5 161.335 2762
1908.1 161.335 2762
1911.24 161.043 2757
1915.05 160.809 2753
