-985.533 153.984 3006
-974.764 153.421 2995
-967.602 153.421 2995
-958.837 153.165 2990
-951.687 153.165 2990
-944.537 153.165 2990
-937.387 153.165 2990
-930.237 153.165 2990
-926.174 153.677 3000
-919 153.677 3000
-911.826 153.677 3000
-906.462 153.984 3006
-899.274 153.984 3006
-892.085 153.984 3006
-884.897 153.984 3006
-871.285 152.858 2984
-864.149 152.858 2984
-852.419 152.038 2968
-842.473 151.526 2958
-832.293 150.962 2947
-822.446 150.45 2937
-815.422 150.45 2937
-804.27 149.682 2922
-797.283 149.682 2922
-793 150.194 2932
-785.989 150.194 2932
-778.978 150.194 2932
-773.283 150.45 2937
-766.259 150.45 2937
-760.529 150.706 2942
-753.494 150.706 2942
-746.458 150.706 2942
-739.423 150.706 2942
-732.388 150.706 2942
-725.353 150.706 2942
-715.876 150.194 2932
-708.865 150.194 2932
-703.05 150.45 2937
-696.027 150.45 2937
-689.004 150.45 2937
-681.98 150.45 2937
-674.957 150.45 2937
-667.934 150.45 2937
-659.785 150.194 2932
-652.774 150.194 2932
-645.763 150.194 2932
-635.484 149.425 2917
-626.138 148.862 2906
-618.124 148.606 2901
-611.187 148.606 2901
-603.208 148.35 2896
-572.191 200.6 3916
-562.826 200.6 3916
-554.734 201.061 3925
-549.239 202.495 3953
-546.34 204.954 4001
-536.773 204.954 4001
-528.391 205.415 4010
-521.389 206.44 4030
-515.435 207.925 4059
-505.729 207.925 4059
-497.245 208.437 4069
-489.911 209.462 4089
-480.132 209.462 4089
-470.354 209.462 4089
-223.235 125.503 2450
-217.376 125.503 2450
-211.517 125.503 2450
-200.034 122.071 2383
-193.276 121.405 2370
-181.909 117.717 2298
-176.414 117.717 2298
-170.918 117.717 2298
-164.703 117.204 2288
-159.023 117.051 2285
-153.559 117.051 2285
-147.706 116.743 2279
-141.695 116.282 2270
-135.306 115.463 2254
-129.916 115.463 2254
-124.194 115.155 2248
-118.502 114.848 2242
-111.778 113.465 2215
-106.097 113.055 2207
-100.819 113.055 2207
-95.2815 112.748 2201
-89.8956 112.594 2198
-84.4085 112.287 2192
-79.1667 112.287 2192
-73.7226 111.979 2186
-68.3386 111.723 2181
-62.9495 111.416 2175
-57.7484 111.416 2175
-52.2816 110.852 2164
-46.9762 110.545 2158
-41.6607 110.135 2150
-36.5194 110.135 2150
-31.2614 109.725 2142
-26.066 109.418 2136
-20.9091 109.162 2131
-15.8132 109.162 2131
-10.6721 108.701 2122
-5.58457 108.445 2117
-0.520209 108.035 2109
4.51662 107.881 2106
9.5527 107.881 2106
14.5541 107.625 2101
19.5783 107.625 2101
24.5673 107.472 2098
29.5842 107.472 2098
34.5682 107.369 2096
39.5804 107.369 2096
44.5287 107.215 2093
49.5337 107.215 2093
54.4866 107.113 2091
59.4868 107.113 2091
64.487 107.113 2091
69.4872 107.113 2091
74.4874 107.113 2091
79.4877 107.113 2091
84.4879 107.113 2091
89.4881 107.113 2091
94.4883 107.113 2091
99.4885 107.113 2091
104.489 107.113 2091
109.332 106.959 2088
114.325 106.959 2088
119.147 106.806 2085
123.835 106.549 2080
128.313 106.14 2072
133.268 106.14 2072
138.089 106.037 2070
142.141 105.371 2057
146.702 105.115 2052
151.609 105.115 2052
156.516 105.115 2052
161.423 105.115 2052
166.33 105.115 2052
171.237 105.115 2052
175.887 104.961 2049
181.051 105.115 2052
185.958 105.115 2052
190.865 105.115 2052
195.772 105.115 2052
200.679 105.115 2052
204.784 104.705 2044
209.467 104.603 2042
215.715 105.269 2055
220.629 105.269 2055
226.641 105.781 2065
231.803 105.884 2067
238.235 106.549 2080
243.209 106.549 2080
249.495 107.113 2091
256.077 107.779 2104
261.729 108.035 2109
266.772 108.035 2109
271.816 108.035 2109
439.985 160.029 3124
447.455 160.029 3124
454.926 160.029 3124
459.88 159.158 3107
463.85 157.98 3084
466.794 156.495 3055
474.099 156.495 3055
479.672 155.931 3044
484.391 155.111 3028
489.846 154.548 3017
497.061 154.548 3017
498.759 152.858 2984
504.2 152.345 2974
510.28 152.038 2968
515.634 151.526 2958
522.708 151.526 2958
529.781 151.526 2958
535.947 151.27 2953
543.008 151.27 2953
550.07 151.27 2953
557.132 151.27 2953
563.047 150.962 2947
569.127 150.706 2942
576.162 150.706 2942
582.206 150.45 2937
589.229 150.45 2937
595.237 150.194 2932
602.249 150.194 2932
609.26 150.194 2932
616.271 150.194 2932
623.283 150.194 2932
630.294 150.194 2932
636.218 149.938 2927
643.218 149.938 2927
650.217 149.938 2927
656.094 149.682 2922
663.081 149.682 2922
670.068 149.682 2922
677.056 149.682 2922
684.043 149.682 2922
691.031 149.682 2922
698.018 149.682 2922
705.005 149.682 2922
711.993 149.682 2922
718.98 149.682 2922
725.968 149.682 2922
732.955 149.682 2922
739.942 149.682 2922
746.93 149.682 2922
753.917 149.682 2922
762.207 149.938 2927
769.206 149.938 2927
776.205 149.938 2927
781.867 149.682 2922
788.854 149.682 2922
797.203 149.938 2927
804.203 149.938 2927
811.202 149.938 2927
818.201 149.938 2927
826.61 150.194 2932
833.622 150.194 2932
840.633 150.194 2932
847.644 150.194 2932
854.655 150.194 2932
861.667 150.194 2932
868.678 150.194 2932
874.196 149.938 2927
881.195 149.938 2927
886.677 149.682 2922
893.665 149.682 2922
900.652 149.682 2922
902.67 148.862 2906
909.619 148.862 2906
916.568 148.862 2906
923.517 148.862 2906
930.466 148.862 2906
934.19 148.35 2896
941.115 148.35 2896
948.04 148.35 2896
946.721 147.069 2871
951.926 146.813 2866
958.78 146.813 2866
965.633 146.813 2866
1440.11 204.442 3991
1449.66 204.442 3991
1459.2 204.442 3991
1451.45 202.034 3944
1460.88 202.034 3944
1446.45 198.756 3880
1445.6 197.373 3853
1444.62 195.99 3826
1447.31 195.119 3809
1456.42 195.119 3809
1452.06 193.326 3774
1457.99 192.916 3766
1447.51 190.355 3716
1456.4 190.355 3716
1465.29 190.355 3716
1474.17 190.355 3716
1476.27 189.484 3699
1485.12 189.484 3699
1464.89 185.796 3627
1451.21 182.978 3572
1441.37 180.673 3527
1428.84 178.061 3476
1437.15 178.061 3476
1427.58 175.858 3433
1424.08 174.424 3405
1409.09 171.606 3350
1417.1 171.606 3350
1391.5 167.559 3271
1396.76 167.252 3265
1410.16 167.918 3278
1420.59 168.225 3284
1428.44 168.225 3284
1436.3 168.225 3284
1485.16 156.802 3061
1492.48 156.802 3061
1527.73 159.722 3118
1535.18 159.722 3118
1542.64 159.722 3118
1533.19 157.98 3084
1532.08 157.109 3067
1525.36 155.675 3039
1518.5 154.241 3011
1525.7 154.241 3011
1508.47 151.782 2963
1507.37 150.962 2947
1501.57 149.682 2922
1508.55 149.682 2922
1515.54 149.682 2922
1516.8 149.118 2911
1521.14 148.862 2906
1525.46 148.606 2901
1532.4 148.606 2901
1539.34 148.606 2901
1546.27 148.606 2901
1553.21 148.606 2901
1560.15 148.606 2901
1567.08 148.606 2901
1571.31 148.35 2896
1575.51 148.094 2891
1582.42 148.094 2891
1589.34 148.094 2891
1596.25 148.094 2891
1600.39 147.837 2886
1607.29 147.837 2886
1611.4 147.581 2881
1615.48 147.325 2876
1622.35 147.325 2876
1629.23 147.325 2876
1633.26 147.069 2871
1637.27 146.813 2866
1641.83 146.608 2862
1645.8 146.352 2857
1652.63 146.352 2857
1659.46 146.352 2857
1663.38 146.096 2852
1667.27 145.84 2847
1674.08 145.84 2847
1674.98 145.327 2837
1681.76 145.327 2837
1685.57 145.071 2832
1692.34 145.071 2832
1693.72 144.61 2823
1700.47 144.61 2823
1704.19 144.354 2818
1707.9 144.098 2813
1714.62 144.098 2813
1718.9 143.893 2809
1722.55 143.637 2804
1726.17 143.381 2799
1732.86 143.381 2799
1736.45 143.125 2794
1743.13 143.125 2794
1747.31 142.92 2790
1753.98 142.92 2790
1754.34 142.407 2780
1760.99 142.407 2780
1765.09 142.203 2776
1771.73 142.203 2776
1778.37 142.203 2776
1785.01 142.203 2776
1791.64 142.203 2776
1800.87 142.407 2780
1807.52 142.407 2780
1814.17 142.407 2780
1820.82 142.407 2780
1827.47 142.407 2780
1834.11 142.407 2780
1840.76 142.407 2780
1847.41 142.407 2780
1851.39 142.203 2776
1858.03 142.203 2776
1861.31 141.946 2771
1867.93 141.946 2771
1871.85 141.742 2767
1878.47 141.742 2767
1887.81 141.946 2771
1894.44 141.946 2771
1901.06 141.946 2771
1904.94 141.742 2767
1911.55 141.742 2767
1914.7 141.485 2762
1917.83 141.229 2757
1918.14 140.768 2748
1924.71 140.768 2748
1924.96 140.307 2739
1928.69 140.102 2735
1931.69 139.846 2730
1938.22 139.846 2730
1941.9 139.641 2726
1944.84 139.385 2721
1951.35 139.385 2721
1957.86 139.385 2721
1952.09 138.514 2704
1958.56 138.514 2704
1965.02 138.514 2704
1971.49 138.514 2704
1977.95 138.514 2704
1984.42 138.514 2704
1987.21 138.258 2699
1990.7 138.053 2695
1997.15 138.053 2695
2003.59 138.053 2695
2010.04 138.053 2695
2016.48 138.053 2695
2022.93 138.053 2695
2036.15 138.514 2704
2042.62 138.514 2704
2055.9 138.975 2713
2068.47 139.385 2721
2081.84 139.846 2730
2088.37 139.846 2730
-2085.2 149.335 2785
-2078.54 149.335 2785
-2071.88 149.335 2785
-2065.22 149.335 2785
-2054.86 149.067 2780
-2051.9 149.335 2785
-2048.91 149.603 2790
-2042.24 149.603 2790
-2042.13 150.086 2799
-2039.08 150.354 2804
-2032.37 150.354 2804
-2025.67 150.354 2804
-2018.96 150.354 2804
-2012.26 150.354 2804
-2019.14 151.373 2823
-2012.39 151.373 2823
-2015.59 152.123 2837
-2008.8 152.123 2837
-2002.02 152.123 2837
-1995.23 152.123 2837
-1988.45 152.123 2837
-1971.89 151.373 2823
-1965.14 151.373 2823
-2084.75 200.543 3740
-2094.68 202.366 3774
-2085.65 202.366 3774
-2076.63 202.366 3774
-2067.6 202.366 3774
-2063.49 202.849 3783
-2054.44 202.849 3783
-2068.65 205.155 3826
-2059.5 205.155 3826
-2050.35 205.155 3826
-2032.13 204.243 3809
-2023.02 204.243 3809
-2013.91 204.243 3809
-2018.49 205.637 3835
-2009.32 205.637 3835
-2000.15 205.637 3835
-1986.3 205.155 3826
-1977.15 205.155 3826
-1898.56 197.916 3691
-1877.45 196.629 3667
-1868.68 196.629 3667
-1859.91 196.629 3667
-1842.56 195.717 3650
-1833.83 195.717 3650
-1456.42 180.328 3363
-1448.38 180.328 3363
-1440.34 180.328 3363
-1432.3 180.328 3363
-1413.24 178.934 3337
-1388.42 176.789 3297
-1372.58 175.77 3278
-1364.74 175.77 3278
-1338.27 173.357 3233
-1325.61 172.714 3221
-1317.9 172.714 3221
-1310.2 172.714 3221
-1299.67 172.339 3214
-1287.16 171.695 3202
-1050.03 155.823 2906
-1050.62 156.949 2927
-1043.62 156.949 2927
-1036.62 156.949 2927
-1031.38 157.217 2932
-1031.71 158.343 2953
-1033.67 159.738 2979
-1026.55 159.738 2979
-1019.42 159.738 2979
-1017.74 160.596 2995
-1014.29 161.185 3006
-1007.1 161.185 3006
-999.909 161.185 3006
-992.721 161.185 3006
-985.533 161.185 3006
-978.344 161.185 3006
-971.156 161.185 3006
-963.968 161.185 3006
-956.78 161.185 3006
-949.591 161.185 3006
-940.522 160.864 3000
-933.348 160.864 3000
-929.57 161.454 3011
-922.37 161.454 3011
-915.17 161.454 3011
-909.779 161.775 3017
-902.564 161.775 3017
-895.35 161.775 3017
-886.369 161.454 3011
-875.957 160.864 3000
-868.783 160.864 3000
-852.419 159.148 2968
-843.897 158.88 2963
-833.988 158.343 2953
-822.446 157.486 2937
-815.422 157.486 2937
-807.023 157.217 2932
-801.376 157.486 2937
-794.352 157.486 2937
-787.329 157.486 2937
-780.306 157.486 2937
-773.283 157.486 2937
-766.259 157.486 2937
-760.529 157.754 2942
-753.494 157.754 2942
-746.458 157.754 2942
-739.423 157.754 2942
-732.388 157.754 2942
-725.353 157.754 2942
-715.876 157.217 2932
-710.073 157.486 2937
-703.05 157.486 2937
-696.027 157.486 2937
-689.004 157.486 2937
-681.98 157.486 2937
-674.957 157.486 2937
-667.934 157.486 2937
-659.785 157.217 2932
-652.774 157.217 2932
-645.763 157.217 2932
-634.177 156.091 2911
-626.138 155.823 2906
-618.124 155.555 2901
-611.187 155.555 2901
-602.167 155.019 2891
-573.506 210.463 3925
-564.12 210.463 3925
-557.419 211.482 3944
-555.908 214.539 4001
-547.569 215.021 4010
-537.98 215.021 4010
-529.709 215.557 4020
-521.389 216.094 4030
-515.435 217.649 4059
-505.729 217.649 4059
-497.245 218.185 4069
-489.911 219.257 4089
-480.132 219.257 4089
-470.354 219.257 4089
-175.185 122.364 2282
-169.728 122.364 2282
-164.271 122.364 2282
-158.815 122.364 2282
-153.358 122.364 2282
-147.512 122.042 2276
-141.507 121.559 2267
-135.306 120.862 2254
-129.916 120.862 2254
-124.194 120.541 2248
-118.66 120.38 2245
-112.081 119.093 2221
-106.241 118.503 2210
-100.956 118.503 2210
-95.4114 118.181 2204
-90.0183 118.02 2201
-84.4085 117.538 2192
-79.1667 117.538 2192
-73.7226 117.216 2186
-68.4326 117.109 2184
-62.9495 116.626 2175
-57.7484 116.626 2175
-52.2816 116.036 2164
-46.9762 115.715 2158
-41.6607 115.286 2150
-36.5194 115.286 2150
-31.2614 114.857 2142
-26.066 114.535 2136
-20.9091 114.267 2131
-15.8132 114.267 2131
-10.6721 113.784 2122
-5.58457 113.516 2117
-0.520209 113.087 2109
4.51662 112.926 2106
9.5527 112.926 2106
14.5541 112.658 2101
19.5783 112.658 2101
24.5673 112.497 2098
29.5842 112.497 2098
34.5682 112.39 2096
39.5804 112.39 2096
44.5287 112.229 2093
49.5337 112.229 2093
54.4866 112.122 2091
59.4868 112.122 2091
64.3945 111.961 2088
69.4872 112.122 2091
74.4874 112.122 2091
79.4877 112.122 2091
84.4879 112.122 2091
89.4881 112.122 2091
94.4883 112.122 2091
99.4885 112.122 2091
104.489 112.122 2091
109.332 111.961 2088
114.325 111.961 2088
119.147 111.8 2085
123.835 111.532 2080
128.313 111.103 2072
133.268 111.103 2072
138.089 110.996 2070
142.694 110.728 2065
147.274 110.46 2060
152.201 110.46 2060
157.127 110.46 2060
162.053 110.46 2060
166.979 110.46 2060
171.905 110.46 2060
176.831 110.46 2060
181.933 110.567 2062
186.864 110.567 2062
191.795 110.567 2062
196.726 110.567 2062
200.972 110.192 2055
205.285 109.87 2049
210.185 109.87 2049
216.24 110.46 2060
221.166 110.46 2060
226.641 110.728 2065
232.7 111.264 2075
239.151 111.961 2088
244.144 111.961 2088
250.092 112.39 2096
256.321 112.926 2106
261.729 113.087 2109
266.772 113.087 2109
271.816 113.087 2109
440.83 167.834 3130
448.315 167.834 3130
455.799 167.834 3130
459.88 166.601 3107
463.85 165.368 3084
469.392 164.724 3072
476.738 164.724 3072
481.405 163.813 3055
486.151 162.955 3039
491.632 162.365 3028
498.873 162.365 3028
501.434 160.864 3000
505.895 160.006 2984
511.311 159.47 2974
516.506 158.88 2963
523.591 158.88 2963
529.781 158.612 2958
536.854 158.612 2958
543.928 158.612 2958
551.001 158.612 2958
557.132 158.343 2953
564.193 158.343 2953
570.094 158.022 2947
577.141 158.022 2947
583.197 157.754 2942
589.229 157.486 2937
596.252 157.486 2937
603.276 157.486 2937
609.26 157.217 2932
616.271 157.217 2932
622.22 156.949 2927
629.219 156.949 2927
636.218 156.949 2927
643.218 156.949 2927
650.217 156.949 2927
656.094 156.681 2922
663.081 156.681 2922
670.068 156.681 2922
677.056 156.681 2922
684.043 156.681 2922
691.031 156.681 2922
698.018 156.681 2922
705.005 156.681 2922
711.993 156.681 2922
718.98 156.681 2922
725.968 156.681 2922
732.955 156.681 2922
739.942 156.681 2922
746.93 156.681 2922
753.917 156.681 2922
762.207 156.949 2927
769.206 156.949 2927
776.205 156.949 2927
781.867 156.681 2922
788.854 156.681 2922
797.203 156.949 2927
804.203 156.949 2927
811.202 156.949 2927
818.201 156.949 2927
826.61 157.217 2932
833.622 157.217 2932
840.633 157.217 2932
847.644 157.217 2932
853.198 156.949 2927
860.197 156.949 2927
867.197 156.949 2927
874.196 156.949 2927
881.195 156.949 2927
886.677 156.681 2922
893.665 156.681 2922
900.652 156.681 2922
902.67 155.823 2906
909.619 155.823 2906
916.568 155.823 2906
923.517 155.823 2906
930.466 155.823 2906
937.415 155.823 2906
944.364 155.823 2906
951.314 155.823 2906
950.019 154.483 2881
953.587 153.947 2871
958.78 153.678 2866
965.633 153.678 2866
1434.15 214.539 4001
1443.72 214.539 4001
1453.29 214.539 4001
1455.91 213.52 3982
1448.14 211 3935
1457.54 211 3935
1443.1 207.568 3871
1438.85 205.637 3835
1441.6 204.726 3818
1440.85 203.332 3792
1449.92 203.332 3792
1452.06 202.366 3774
1454.5 201.455 3757
1447.51 199.256 3716
1456.4 199.256 3716
1465.29 199.256 3716
1474.17 199.256 3716
1476.27 198.345 3699
1485.12 198.345 3699
1464.89 194.484 3627
1451.21 191.535 3572
1441.37 189.122 3527
1428.84 186.387 3476
1437.15 186.387 3476
1424.67 183.706 3426
1412.37 181.079 3377
1400.67 178.559 3330
1408.64 178.559 3330
1388.95 175.073 3265
1396.76 175.073 3265
1420.91 177.111 3303
1428.81 177.111 3303
1436.71 177.111 3303
1444.61 177.111 3303
1457.07 162.633 3033
1464.32 162.633 3033
1485.16 164.135 3061
1492.48 164.135 3061
1499.8 164.135 3061
1485.46 161.775 3017
1484.26 160.864 3000
1491.43 160.864 3000
1485.62 159.47 2974
1487.21 158.88 2963
1486.23 158.022 2947
1493.27 158.022 2947
1490.14 156.949 2927
1488.95 156.091 2911
1495.91 156.091 2911
1502.88 156.091 2911
1502.06 155.287 2896
1508.98 155.287 2896
1513.29 155.019 2891
1517.57 154.751 2886
1524.48 154.751 2886
1531.38 154.751 2886
1538.28 154.751 2886
1545.18 154.751 2886
1552.08 154.751 2886
1558.98 154.751 2886
1565.88 154.751 2886
1570.06 154.483 2881
1579.69 154.751 2886
1586.59 154.751 2886
1593.49 154.751 2886
1597.62 154.483 2881
1604.51 154.483 2881
1605.8 153.947 2871
1612.67 153.947 2871
1619.53 153.947 2871
1626.4 153.947 2871
1633.26 153.947 2871
1637.27 153.678 2866
1641.83 153.464 2862
1648.68 153.464 2862
1655.52 153.464 2862
1659.46 153.196 2857
1663.38 152.928 2852
1670.2 152.928 2852
1677.02 152.928 2852
1677.93 152.392 2842
1681.76 152.123 2837
1688.55 152.123 2837
1695.33 152.123 2837
1699.12 151.855 2832
1700.47 151.373 2823
1707.22 151.373 2823
1707.9 150.837 2813
1714.62 150.837 2813
1718.9 150.622 2809
1722.55 150.354 2804
1729.25 150.354 2804
1735.96 150.354 2804
1739.56 150.086 2799
1743.13 149.818 2794
1749.81 149.818 2794
1756.49 149.818 2794
1757.49 149.335 2785
1760.99 149.067 2780
1767.64 149.067 2780
1774.28 149.067 2780
1778.37 148.853 2776
1785.01 148.853 2776
1794.23 149.067 2780
1800.87 149.067 2780
1807.52 149.067 2780
1814.17 149.067 2780
1820.82 149.067 2780
1827.47 149.067 2780
1834.11 149.067 2780
1840.76 149.067 2780
1847.41 149.067 2780
1854.06 149.067 2780
1860.7 149.067 2780
1864.67 148.853 2776
1867.93 148.584 2771
1874.56 148.584 2771
1881.19 148.584 2771
1887.81 148.584 2771
1894.44 148.584 2771
1901.06 148.584 2771
1907.69 148.584 2771
1914.32 148.584 2771
1918.17 148.37 2767
1921.31 148.102 2762
1924.42 147.834 2757
1931.02 147.834 2757
1931.28 147.351 2748
1931.51 146.869 2739
1935.23 146.654 2735
1941.77 146.654 2735
1941.9 146.171 2726
1948.42 146.171 2726
1954.94 146.171 2726
1961.45 146.171 2726
1954.98 145.206 2708
1958.56 144.992 2704
1965.02 144.992 2704
1974.4 145.206 2708
1980.88 145.206 2708
1987.36 145.206 2708
1990.89 144.992 2704
1993.66 144.724 2699
2000.11 144.724 2699
2003.59 144.509 2695
2010.04 144.509 2695
2016.48 144.509 2695
2022.93 144.509 2695
2029.37 144.509 2695
2035.82 144.509 2695
2049.08 144.992 2704
2058.59 145.206 2708
2065.06 145.206 2708
2071.54 145.206 2708
-2085.2 156.007 2785
-2078.54 156.007 2785
-2071.88 156.007 2785
-2065.22 156.007 2785
-2058.56 156.007 2785
-2055.58 156.287 2790
-2051.85 156.511 2794
-2045.17 156.511 2794
-2045.78 157.071 2804
-2042.71 157.351 2809
-2036 157.351 2809
-2029.28 157.351 2809
-2018.96 157.071 2804
-2012.26 157.071 2804
-2019.14 158.135 2823
-2012.39 158.135 2823
-2015.59 158.919 2837
-2008.8 158.919 2837
-2002.02 158.919 2837
-1995.23 158.919 2837
-1988.45 158.919 2837
-1971.89 158.135 2823
-1965.14 158.135 2823
-2057.31 205.861 3675
-2084.75 209.503 3740
-2094.68 211.407 3774
-2085.65 211.407 3774
-2076.63 211.407 3774
-2067.6 211.407 3774
-2063.49 211.911 3783
-2054.44 211.911 3783
-2068.65 214.32 3826
-2059.5 214.32 3826
-2050.35 214.32 3826
-2032.13 213.368 3809
-2023.02 213.368 3809
-2013.91 213.368 3809
-2018.49 214.824 3835
-2009.32 214.824 3835
-2000.15 214.824 3835
-1986.3 214.32 3826
-1977.15 214.32 3826
-1898.56 206.758 3691
-1877.45 205.413 3667
-1868.68 205.413 3667
-1859.91 205.413 3667
-1842.56 204.461 3650
-1833.83 204.461 3650
-1456.42 188.384 3363
-1448.38 188.384 3363
-1440.34 188.384 3363
-1432.3 188.384 3363
-1424.26 188.384 3363
-1410.74 187.656 3350
-1402.73 187.656 3350
-1372.65 184.687 3297
-1354 183.231 3271
-1335.89 181.83 3246
-1328.13 181.83 3246
-1320.37 181.83 3246
-1309.78 181.438 3239
-1302.03 181.438 3239
-1289.49 180.766 3227
-1281.77 180.766 3227
-1050.03 162.785 2906
-1050.62 163.961 2927
-1043.62 163.961 2927
-1036.62 163.961 2927
-1036.66 165.081 2947
-1031.71 165.417 2953
-1035.41 167.154 2984
-1028.27 167.154 2984
-1021.13 167.154 2984
-1017.74 167.77 2995
-1014.29 168.386 3006
-1007.1 168.386 3006
-1001.57 168.666 3011
-994.372 168.666 3011
-987.172 168.666 3011
-979.972 168.666 3011
-971.156 168.386 3006
-963.968 168.386 3006
-956.78 168.386 3006
-949.591 168.386 3006
-943.971 168.666 3011
-936.77 168.666 3011
-931.423 169.002 3017
-924.208 169.002 3017
-916.993 169.002 3017
-913.096 169.619 3028
-905.855 169.619 3028
-898.614 169.619 3028
-891.373 169.619 3028
-877.709 168.386 3006
-870.521 168.386 3006
-860.173 167.77 2995
-845.321 166.258 2968
-835.4 165.697 2958
-823.846 164.801 2942
-816.81 164.801 2942
-808.399 164.521 2937
-801.376 164.521 2937
-794.352 164.521 2937
-787.329 164.521 2937
-780.306 164.521 2937
-775.916 165.081 2947
-768.868 165.081 2947
-761.821 165.081 2947
-753.494 164.801 2942
-746.458 164.801 2942
-739.423 164.801 2942
-732.388 164.801 2942
-725.353 164.801 2942
-715.876 164.241 2932
-710.073 164.521 2937
-704.247 164.801 2942
-697.212 164.801 2942
-690.177 164.801 2942
-683.141 164.801 2942
-676.106 164.801 2942
-667.934 164.521 2937
-660.911 164.521 2937
-652.774 164.241 2932
-645.763 164.241 2932
-634.177 163.065 2911
-625.061 162.505 2901
-618.124 162.505 2901
-611.187 162.505 2901
-604.249 162.505 2901
-597.312 162.505 2901
-573.506 219.866 3925
-564.12 219.866 3925
-561.377 222.498 3972
-555.908 224.123 4001
-547.569 224.627 4010
-537.98 224.627 4010
-529.709 225.187 4020
-521.389 225.747 4030
-515.435 227.372 4059
-505.729 227.372 4059
-497.245 227.932 4069
-489.911 229.052 4089
-480.132 229.052 4089
-470.354 229.052 4089
-174.725 127.494 2276
-169.282 127.494 2276
-163.84 127.494 2276
-158.397 127.494 2276
-152.954 127.494 2276
-147.123 127.158 2270
-141.32 126.822 2264
-135.306 126.262 2254
-129.916 126.262 2254
-124.194 125.926 2248
-118.66 125.758 2245
-112.081 124.413 2221
-106.385 123.965 2213
-101.093 123.965 2213
-95.6712 123.797 2210
-90.0183 123.293 2201
-84.4085 122.789 2192
-79.1667 122.789 2192
-73.7226 122.453 2186
-68.4326 122.341 2184
-62.9495 121.836 2175
-57.7484 121.836 2175
-52.2816 121.22 2164
-46.9762 120.884 2158
-41.6607 120.436 2150
-36.5194 120.436 2150
-31.2614 119.988 2142
-26.1026 119.82 2139
-20.9091 119.372 2131
-15.8132 119.372 2131
-10.6721 118.868 2122
-5.58457 118.587 2117
-0.520209 118.139 2109
4.51662 117.971 2106
9.5527 117.971 2106
14.5541 117.691 2101
19.5503 117.523 2098
24.5439 117.411 2096
29.556 117.411 2096
34.5187 117.243 2093
39.5237 117.243 2093
44.4862 117.131 2091
49.4864 117.131 2091
54.4866 117.131 2091
59.4015 116.963 2088
64.3945 116.963 2088
69.3875 116.963 2088
74.3806 116.963 2088
79.3736 116.963 2088
84.4879 117.131 2091
89.4881 117.131 2091
94.4883 117.131 2091
99.4885 117.131 2091
104.489 117.131 2091
109.332 116.963 2088
114.325 116.963 2088
119.147 116.795 2085
124.013 116.683 2083
128.499 116.235 2075
133.461 116.235 2075
138.089 115.955 2070
142.832 115.787 2067
147.417 115.507 2062
152.348 115.507 2062
157.279 115.507 2062
162.446 115.675 2065
167.384 115.675 2065
172.322 115.675 2065
177.26 115.675 2065
182.375 115.787 2067
187.317 115.787 2067
192.26 115.787 2067
197.203 115.787 2067
201.657 115.507 2062
205.886 115.114 2055
211.314 115.394 2060
216.764 115.675 2065
221.702 115.675 2065
227.738 116.235 2075
233.597 116.683 2083
239.495 117.131 2091
244.495 117.131 2091
250.33 117.523 2098
256.321 117.971 2106
262.102 118.307 2112
267.152 118.307 2112
272.202 118.307 2112
440.83 175.332 3130
448.315 175.332 3130
455.799 175.332 3130
460.62 174.324 3112
466.407 173.708 3101
471.225 172.756 3084
478.6 172.756 3084
482.35 171.467 3061
487.91 170.851 3050
493.418 170.235 3039
500.685 170.235 3039
503.272 168.666 3011
507.76 167.77 2995
511.311 166.594 2974
516.506 165.978 2963
523.591 165.978 2963
530.676 165.978 2963
536.854 165.697 2958
543.928 165.697 2958
551.001 165.697 2958
557.132 165.417 2953
564.193 165.417 2953
570.094 165.081 2947
577.141 165.081 2947
583.197 164.801 2942
589.229 164.521 2937
596.252 164.521 2937
603.276 164.521 2937
609.26 164.241 2932
616.271 164.241 2932
623.283 164.241 2932
630.294 164.241 2932
637.305 164.241 2932
643.218 163.961 2927
650.217 163.961 2927
656.094 163.681 2922
663.081 163.681 2922
670.068 163.681 2922
677.056 163.681 2922
684.043 163.681 2922
691.031 163.681 2922
698.018 163.681 2922
705.005 163.681 2922
711.993 163.681 2922
720.21 163.961 2927
727.21 163.961 2927
734.209 163.961 2927
741.208 163.961 2927
748.208 163.961 2927
755.207 163.961 2927
762.207 163.961 2927
769.206 163.961 2927
776.205 163.961 2927
783.205 163.961 2927
788.854 163.681 2922
797.203 163.961 2927
804.203 163.961 2927
811.202 163.961 2927
818.201 163.961 2927
826.61 164.241 2932
833.622 164.241 2932
840.633 164.241 2932
847.644 164.241 2932
853.198 163.961 2927
860.197 163.961 2927
867.197 163.961 2927
874.196 163.961 2927
881.195 163.961 2927
886.677 163.681 2922
893.665 163.681 2922
900.652 163.681 2922
902.67 162.785 2906
909.619 162.785 2906
916.568 162.785 2906
923.517 162.785 2906
930.466 162.785 2906
937.415 162.785 2906
944.364 162.785 2906
951.314 162.785 2906
951.668 161.664 2886
956.908 161.384 2881
1434.15 224.123 4001
1443.72 224.123 4001
1453.29 224.123 4001
1442.02 220.93 3944
1427.89 217.345 3880
1423.84 215.328 3844
1433.03 215.328 3844
1432.47 213.872 3818
1434.8 212.864 3800
1437.43 211.911 3783
1446.47 211.911 3783
1445.52 210.455 3757
1444.82 209.054 3732
1447.51 208.158 3716
1456.4 208.158 3716
1465.29 208.158 3716
1474.17 208.158 3716
1469.89 206.31 3683
1478.7 206.31 3683
1461.65 202.725 3619
1451.21 200.092 3572
1438.5 197.179 3520
1428.84 194.714 3476
1437.15 194.714 3476
1427.58 192.305 3433
1401.08 187.656 3350
1400.67 186.536 3330
1408.64 186.536 3330
1388.95 182.895 3265
1396.76 182.895 3265
1420.91 185.023 3303
1431.84 185.415 3310
1439.75 185.415 3310
1447.67 185.415 3310
1457.07 169.899 3033
1464.32 169.899 3033
1471.57 169.899 3033
1478.83 169.899 3033
1478.24 169.002 3017
1464.28 166.594 2974
1468.43 166.258 2968
1475.52 166.258 2968
1475.13 165.417 2953
1476.67 164.801 2942
1476.14 163.961 2927
1483.14 163.961 2927
1481.99 163.065 2911
1486.4 162.785 2906
1488.21 162.224 2896
1495.13 162.224 2896
1499.46 161.944 2891
1503.77 161.664 2886
1508.06 161.384 2881
1514.95 161.384 2881
1521.83 161.384 2881
1523.42 160.824 2871
1530.28 160.824 2871
1539.83 161.104 2876
1546.7 161.104 2876
1553.58 161.104 2876
1560.46 161.104 2876
1567.33 161.104 2876
1574.21 161.104 2876
1581.09 161.104 2876
1587.97 161.104 2876
1592.07 160.824 2871
1598.94 160.824 2871
1605.8 160.824 2871
1612.67 160.824 2871
1619.53 160.824 2871
1626.4 160.824 2871
1633.26 160.824 2871
1637.27 160.544 2866
1641.83 160.32 2862
1648.68 160.32 2862
1655.52 160.32 2862
1662.36 160.32 2862
1669.21 160.32 2862
1670.2 159.76 2852
1677.02 159.76 2852
1680.88 159.48 2847
1684.73 159.2 2842
1688.55 158.919 2837
1695.33 158.919 2837
1699.12 158.639 2832
1703.48 158.415 2828
1707.22 158.135 2823
1710.93 157.855 2818
1717.67 157.855 2818
1721.35 157.575 2813
1725.62 157.351 2809
1729.25 157.071 2804
1735.96 157.071 2804
1739.56 156.791 2799
1746.25 156.791 2799
1749.81 156.511 2794
1756.49 156.511 2794
1757.49 156.007 2785
1764.15 156.007 2785
1767.64 155.727 2780
1774.28 155.727 2780
1780.93 155.727 2780
1787.58 155.727 2780
1797.45 156.007 2785
1804.11 156.007 2785
1810.77 156.007 2785
1817.43 156.007 2785
1824.09 156.007 2785
1827.47 155.727 2780
1834.11 155.727 2780
1840.76 155.727 2780
1847.41 155.727 2780
1854.06 155.727 2780
1860.7 155.727 2780
1864.67 155.502 2776
1867.93 155.222 2771
1874.56 155.222 2771
1881.19 155.222 2771
1887.81 155.222 2771
1894.44 155.222 2771
1901.06 155.222 2771
1907.69 155.222 2771
1914.32 155.222 2771
1918.17 154.998 2767
1921.31 154.718 2762
1924.42 154.438 2757
1931.02 154.438 2757
1931.28 153.934 2748
1931.51 153.43 2739
1938.06 153.43 2739
1944.61 153.43 2739
1944.75 152.926 2730
1951.28 152.926 2730
1954.94 152.702 2726
1961.45 152.702 2726
1958.59 151.973 2713
1961.45 151.693 2708
1967.93 151.693 2708
1974.4 151.693 2708
1980.88 151.693 2708
1987.36 151.693 2708
1993.83 151.693 2708
1997.35 151.469 2704
2003.82 151.469 2704
2006.57 151.189 2699
2010.04 150.965 2695
2016.48 150.965 2695
2022.93 150.965 2695
2029.37 150.965 2695
2035.82 150.965 2695
2045.29 151.189 2699
2055.55 151.469 2704
2062.01 151.469 2704
2068.48 151.469 2704
-2085.2 162.678 2785
-2078.54 162.678 2785
-2071.88 162.678 2785
-2061.51 162.386 2780
-2058.56 162.678 2785
-2055.58 162.97 2790
-2051.85 163.204 2794
-2045.17 163.204 2794
-2045.78 163.788 2804
-2042.71 164.08 2809
-2036 164.08 2809
-2029.28 164.08 2809
-2018.96 163.788 2804
-2012.26 163.788 2804
-2019.14 164.898 2823
-2012.39 164.898 2823
-2012.03 165.423 2832
-2005.26 165.423 2832
-1998.49 165.423 2832
-1991.72 165.423 2832
-1984.94 165.423 2832
-1971.89 164.898 2823
-1965.14 164.898 2823
-2057.31 214.665 3675
-2084.75 218.462 3740
-2094.68 220.448 3774
-2085.65 220.448 3774
-2076.63 220.448 3774
-2067.6 220.448 3774
-2063.49 220.974 3783
-2054.44 220.974 3783
-2045.4 220.974 3783
-2036.35 220.974 3783
-2027.3 220.974 3783
-1995.32 218.462 3740
-1968.85 216.534 3707
-1938.83 214.198 3667
-1942.7 215.6 3691
-1933.87 215.6 3691
-1925.04 215.6 3691
-1916.22 215.6 3691
-1907.39 215.6 3691
-1894.45 215.132 3683
-1877.45 214.198 3667
-1868.68 214.198 3667
-1859.91 214.198 3667
-1842.56 213.205 3650
-1833.83 213.205 3650
-1524.42 205.611 3520
-1516 205.611 3520
-1507.58 205.611 3520
-1492.77 204.735 3505
-1453.9 200.529 3433
-1430.95 198.485 3398
-1422.83 198.485 3398
-1389.3 194.922 3337
-1364.77 192.585 3297
-1351.53 191.826 3284
-1341.22 191.475 3278
-1333.39 191.475 3278
-1312.61 189.606 3246
-1304.85 189.606 3246
-1297.08 189.606 3246
-1289.32 189.606 3246
-1276.43 188.847 3233
-1266.34 188.496 3227
-1043.62 170.973 2927
-1036.62 170.973 2927
-1036.66 172.141 2947
-1031.71 172.491 2953
-1035.41 174.302 2984
-1028.27 174.302 2984
-1021.13 174.302 2984
-1019.44 175.237 3000
-1014.29 175.587 3006
-1007.1 175.587 3006
-1001.57 175.879 3011
-994.372 175.879 3011
-987.172 175.879 3011
-979.972 175.879 3011
-971.156 175.587 3006
-963.968 175.587 3006
-956.78 175.587 3006
-949.591 175.587 3006
-945.852 176.23 3017
-938.637 176.23 3017
-938.215 177.515 3039
-930.947 177.515 3039
-927.024 178.157 3050
-921.238 178.449 3055
-913.932 178.449 3055
-906.627 178.449 3055
-892.845 177.164 3033
-884.133 176.872 3028
-876.892 176.872 3028
-861.609 175.237 3000
-853.011 174.945 2995
-836.812 173.075 2963
-829.726 173.075 2963
-819.865 172.491 2953
-808.399 171.557 2937
-805.741 172.491 2953
-798.68 172.491 2953
-791.618 172.491 2953
-784.557 172.491 2953
-777.495 172.491 2953
-770.434 172.491 2953
-763.372 172.491 2953
-753.494 171.849 2942
-746.458 171.849 2942
-739.423 171.849 2942
-732.388 171.849 2942
-725.353 171.849 2942
-715.876 171.265 2932
-710.073 171.557 2937
-704.247 171.849 2942
-697.212 171.849 2942
-690.177 171.849 2942
-683.141 171.849 2942
-676.106 171.849 2942
-667.934 171.557 2937
-660.911 171.557 2937
-652.774 171.265 2932
-645.763 171.265 2932
-634.177 170.038 2911
-625.061 169.454 2901
-618.124 169.454 2901
-611.187 169.454 2901
-604.249 169.454 2901
-597.312 169.454 2901
-573.506 229.268 3925
-564.12 229.268 3925
-561.377 232.013 3972
-555.908 233.707 4001
-547.569 234.233 4010
-537.98 234.233 4010
-529.709 234.817 4020
-521.389 235.401 4030
-515.435 237.095 4059
-505.729 237.095 4059
-497.245 237.679 4069
-489.911 238.848 4089
-480.132 238.848 4089
-470.354 238.848 4089
-174.725 132.946 2276
-169.282 132.946 2276
-163.84 132.946 2276
-158.397 132.946 2276
-152.954 132.946 2276
-147.123 132.596 2270
-141.32 132.245 2264
-135.306 131.661 2254
-129.916 131.661 2254
-124.194 131.311 2248
-118.66 131.135 2245
-112.081 129.734 2221
-106.625 129.558 2218
-101.321 129.558 2218
-95.801 129.266 2213
-90.0183 128.565 2201
-84.4085 128.04 2192
-79.1667 128.04 2192
-73.8238 127.864 2189
-68.4326 127.572 2184
-62.9495 127.047 2175
-57.7484 127.047 2175
-52.3541 126.579 2167
-46.9762 126.054 2158
-41.6607 125.586 2150
-36.5194 125.586 2150
-31.2614 125.119 2142
-26.1026 124.944 2139
-20.9091 124.476 2131
-15.8132 124.476 2131
-10.6721 123.951 2122
-5.58457 123.659 2117
-0.520209 123.191 2109
4.51662 123.016 2106
9.5527 123.016 2106
14.5541 122.724 2101
19.5503 122.549 2098
24.5439 122.432 2096
29.556 122.432 2096
34.5187 122.257 2093
39.5237 122.257 2093
44.4862 122.14 2091
49.4864 122.14 2091
54.4866 122.14 2091
59.4015 121.965 2088
64.3945 121.965 2088
69.3875 121.965 2088
74.3806 121.965 2088
79.3736 121.965 2088
84.4879 122.14 2091
89.4881 122.14 2091
94.4883 122.14 2091
99.4885 122.14 2091
104.489 122.14 2091
109.489 122.14 2091
114.489 122.14 2091
119.147 121.79 2085
124.013 121.673 2083
128.499 121.205 2075
133.461 121.205 2075
138.223 121.03 2072
142.832 120.738 2067
147.632 120.621 2065
152.718 120.738 2067
157.661 120.738 2067
162.603 120.738 2067
167.789 120.913 2070
172.739 120.913 2070
177.689 120.913 2070
182.816 121.03 2072
187.771 121.03 2072
192.725 121.03 2072
197.68 121.03 2072
202.146 120.738 2067
206.888 120.621 2065
211.826 120.621 2065
217.499 121.03 2072
222.454 121.03 2072
227.738 121.205 2075
233.597 121.673 2083
239.495 122.14 2091
244.495 122.14 2091
250.33 122.549 2098
256.321 123.016 2106
262.102 123.367 2112
267.152 123.367 2112
272.46 123.483 2114
277.515 123.483 2114
282.571 123.483 2114
440.83 182.83 3130
448.315 182.83 3130
455.799 182.83 3130
461.508 182.129 3118
468.062 181.779 3112
471.225 180.143 3084
478.6 180.143 3084
484.084 179.442 3072
488.71 178.449 3055
493.418 177.515 3039
500.685 177.515 3039
505.111 176.522 3022
507.76 174.945 2995
511.311 173.718 2974
516.506 173.075 2963
523.591 173.075 2963
530.676 173.075 2963
536.854 172.783 2958
543.928 172.783 2958
551.001 172.783 2958
557.132 172.491 2953
564.193 172.491 2953
570.094 172.141 2947
577.141 172.141 2947
583.197 171.849 2942
589.229 171.557 2937
596.252 171.557 2937
603.276 171.557 2937
609.26 171.265 2932
616.271 171.265 2932
623.283 171.265 2932
630.294 171.265 2932
637.305 171.265 2932
643.218 170.973 2927
650.217 170.973 2927
656.094 170.681 2922
663.081 170.681 2922
670.068 170.681 2922
677.056 170.681 2922
684.043 170.681 2922
691.031 170.681 2922
698.018 170.681 2922
705.005 170.681 2922
711.993 170.681 2922
720.21 170.973 2927
727.21 170.973 2927
734.209 170.973 2927
741.208 170.973 2927
748.208 170.973 2927
755.207 170.973 2927
762.207 170.973 2927
769.206 170.973 2927
776.205 170.973 2927
783.205 170.973 2927
788.854 170.681 2922
797.203 170.973 2927
804.203 170.973 2927
811.202 170.973 2927
818.201 170.973 2927
826.61 171.265 2932
833.622 171.265 2932
840.633 171.265 2932
847.644 171.265 2932
853.198 170.973 2927
860.197 170.973 2927
867.197 170.973 2927
874.196 170.973 2927
881.195 170.973 2927
886.677 170.681 2922
893.665 170.681 2922
900.652 170.681 2922
902.67 169.746 2906
909.619 169.746 2906
918.145 170.038 2911
925.106 170.038 2911
932.067 170.038 2911
939.028 170.038 2911
945.989 170.038 2911
952.95 170.038 2911
953.316 168.87 2891
958.569 168.578 2886
1417.82 232.598 3982
1434.15 233.707 4001
1443.72 233.707 4001
1453.29 233.707 4001
1442.02 230.378 3944
1427.89 226.639 3880
1423.84 224.537 3844
1433.03 224.537 3844
1432.47 223.018 3818
1434.8 221.967 3800
1437.43 220.974 3783
1446.47 220.974 3783
1445.52 219.455 3757
1444.82 217.994 3732
1447.51 217.06 3716
1456.4 217.06 3716
1465.29 217.06 3716
1474.17 217.06 3716
1469.89 215.132 3683
1478.7 215.132 3683
1461.65 211.394 3619
1451.21 208.649 3572
1438.5 205.611 3520
1428.84 203.041 3476
1437.15 203.041 3476
1427.58 200.529 3433
1401.08 195.681 3350
1400.67 194.513 3330
1408.64 194.513 3330
1388.95 190.716 3265
1396.76 190.716 3265
1420.91 192.936 3303
1431.84 193.345 3310
1439.75 193.345 3310
1447.67 193.345 3310
1399.28 171.849 2942
1406.32 171.849 2942
1457.07 177.164 3033
1464.32 177.164 3033
1471.57 177.164 3033
1478.83 177.164 3033
1478.24 176.23 3017
1464.28 173.718 2974
1468.43 173.368 2968
1475.52 173.368 2968
1475.13 172.491 2953
1476.67 171.849 2942
1476.14 170.973 2927
1483.14 170.973 2927
1481.99 170.038 2911
1486.4 169.746 2906
1488.21 169.162 2896
1495.13 169.162 2896
1499.46 168.87 2891
1503.77 168.578 2886
1508.06 168.286 2881
1514.95 168.286 2881
1521.83 168.286 2881
1523.42 167.702 2871
1530.28 167.702 2871
1539.83 167.994 2876
1546.7 167.994 2876
1553.58 167.994 2876
1560.46 167.994 2876
1567.33 167.994 2876
1574.21 167.994 2876
1581.09 167.994 2876
1587.97 167.994 2876
1592.07 167.702 2871
1598.94 167.702 2871
1605.8 167.702 2871
1612.67 167.702 2871
1619.53 167.702 2871
1626.4 167.702 2871
1633.26 167.702 2871
1637.27 167.409 2866
1641.83 167.176 2862
1648.68 167.176 2862
1655.52 167.176 2862
1662.36 167.176 2862
1669.21 167.176 2862
1676.05 167.176 2862
1682.9 167.176 2862
1680.88 166.3 2847
1684.73 166.008 2842
1688.55 165.716 2837
1695.33 165.716 2837
1702.12 165.716 2837
1705.89 165.423 2832
1707.22 164.898 2823
1713.97 164.898 2823
1720.72 164.898 2823
1721.35 164.314 2813
1725.62 164.08 2809
1729.25 163.788 2804
1735.96 163.788 2804
1739.56 163.496 2799
1746.25 163.496 2799
1752.94 163.496 2799
1759.64 163.496 2799
1760.65 162.97 2790
1764.15 162.678 2785
1770.81 162.678 2785
1777.47 162.678 2785
1780.93 162.386 2780
1787.58 162.386 2780
1797.45 162.678 2785
1804.11 162.678 2785
1810.77 162.678 2785
1817.43 162.678 2785
1824.09 162.678 2785
1830.75 162.678 2785
1837.41 162.678 2785
1844.07 162.678 2785
1850.73 162.678 2785
1857.39 162.678 2785
1864.05 162.678 2785
1864.67 162.152 2776
1871.3 162.152 2776
1877.94 162.152 2776
1884.58 162.152 2776
1887.81 161.86 2771
1894.44 161.86 2771
1901.06 161.86 2771
1907.69 161.86 2771
1914.32 161.86 2771
1918.17 161.627 2767
1921.31 161.335 2762
1924.42 161.043 2757
1931.02 161.043 2757
1931.28 160.517 2748
1937.86 160.517 2748
1938.06 159.991 2739
1944.61 159.991 2739
1951.16 159.991 2739
1951.28 159.465 2730
1957.8 159.465 2730
1964.33 159.465 2730
1967.97 159.232 2726
1965.08 158.472 2713
1971.56 158.472 2713
1980.97 158.706 2717
1987.46 158.706 2717
1993.96 158.706 2717
2000.46 158.706 2717
2006.96 158.706 2717
2013.45 158.706 2717
2010.29 157.947 2704
2016.75 157.947 2704
2019.48 157.655 2699
2025.93 157.655 2699
2016.57 156.428 2678
2022.97 156.428 2678
2042.26 157.421 2695
2048.71 157.421 2695
2058.2 157.655 2699
2064.66 157.655 2699
-2078.46 168.802 2776
-2071.82 168.802 2776
-2071.88 169.35 2785
-2065.22 169.35 2785
-2068.91 170.201 2799
-2062.21 170.201 2799
-2055.52 170.201 2799
-2048.83 170.201 2799
-2049.43 170.809 2809
-2042.71 170.809 2809
-2036 170.809 2809
-2029.28 170.809 2809
-2018.96 170.505 2804
-2005.08 169.897 2794
-2011.99 171.052 2813
-2005.26 171.052 2813
-2005.64 171.66 2823
-1998.89 171.66 2823
-1992.14 171.66 2823
-1981.87 171.356 2818
-1965.32 170.505 2804
-1962.11 170.809 2809
-1955.39 170.809 2809
-1948.67 170.809 2809
-2020.72 215.807 3549
-2012.23 215.807 3549
-2008.26 216.293 3557
-1999.76 216.293 3557
-2057.31 223.468 3675
-2057.44 224.441 3691
-2048.61 224.441 3691
-2039.79 224.441 3691
-2022.16 223.468 3675
-1999.67 221.948 3650
-2008.94 223.955 3683
-2000.14 223.955 3683
-1991.33 223.955 3683
-1982.52 223.955 3683
-1973.71 223.955 3683
-1960.64 223.468 3675
-1942.82 222.435 3658
-1929.84 221.948 3650
-1921.12 221.948 3650
-1912.39 221.948 3650
-1903.66 221.948 3650
-1899.09 222.435 3658
-1890.34 222.435 3658
-1881.59 222.435 3658
-1872.84 222.435 3658
-1864.1 222.435 3658
-1855.35 222.435 3658
-1842.56 221.948 3650
-1833.83 221.948 3650
-1813.61 220.55 3627
-1804.93 220.55 3627
-1524.42 214.043 3520
-1516 214.043 3520
-1507.58 214.043 3520
-1492.77 213.131 3505
-1453.9 208.753 3433
-1430.95 206.625 3398
-1422.83 206.625 3398
-1389.3 202.915 3337
-1364.77 200.483 3297
-1351.53 199.693 3284
-1341.22 199.328 3278
-1333.39 199.328 3278
-1312.61 197.382 3246
-1304.85 197.382 3246
-1297.08 197.382 3246
-1289.32 197.382 3246
-1276.43 196.591 3233
-1266.34 196.227 3227
-1036.66 179.2 2947
-1031.71 179.565 2953
-1035.41 181.45 2984
-1028.27 181.45 2984
-1021.13 181.45 2984
-1019.44 182.423 3000
-1014.29 182.788 3006
-1007.1 182.788 3006
-1001.57 183.092 3011
-994.372 183.092 3011
-987.172 183.092 3011
-979.972 183.092 3011
-971.156 182.788 3006
-963.968 182.788 3006
-956.78 182.788 3006
-949.591 182.788 3006
-945.852 183.457 3017
-938.637 183.457 3017
-938.215 184.795 3039
-930.947 184.795 3039
-927.024 185.464 3050
-921.238 185.768 3055
-913.932 185.768 3055
-906.627 185.768 3055
-892.845 184.43 3033
-884.133 184.126 3028
-876.892 184.126 3028
-861.609 182.423 3000
-853.011 182.119 2995
-836.812 180.173 2963
-829.726 180.173 2963
-819.865 179.565 2953
-808.399 178.592 2937
-805.741 179.565 2953
-798.68 179.565 2953
-791.618 179.565 2953
-784.557 179.565 2953
-777.495 179.565 2953
-770.434 179.565 2953
-763.372 179.565 2953
-753.494 178.896 2942
-746.458 178.896 2942
-739.423 178.896 2942
-732.388 178.896 2942
-725.353 178.896 2942
-715.876 178.288 2932
-710.073 178.592 2937
-704.247 178.896 2942
-697.212 178.896 2942
-690.177 178.896 2942
-683.141 178.896 2942
-676.106 178.896 2942
-667.934 178.592 2937
-660.911 178.592 2937
-652.774 178.288 2932
-645.763 178.288 2932
-634.177 177.011 2911
-625.061 176.403 2901
-618.124 176.403 2901
-611.187 176.403 2901
-604.249 176.403 2901
-597.312 176.403 2901
-561.377 241.528 3972
-553.268 242.136 3982
-544.975 242.684 3991
-535.431 242.684 3991
-525.887 242.684 3991
-521.389 245.055 4030
-512.895 245.602 4039
-503.237 245.602 4039
-496.022 246.819 4059
-489.911 248.643 4089
-480.132 248.643 4089
-470.354 248.643 4089
-174.264 138.034 2270
-168.836 138.034 2270
-163.408 138.034 2270
-157.979 138.034 2270
-152.551 138.034 2270
-146.734 137.669 2264
-141.32 137.669 2264
-135.306 137.061 2254
-129.916 137.061 2254
-124.194 136.696 2248
-118.66 136.513 2245
-112.081 135.054 2221
-106.625 134.872 2218
-101.321 134.872 2218
-95.801 134.568 2213
-90.0183 133.838 2201
-84.4085 133.291 2192
-79.1667 133.291 2192
-73.8238 133.108 2189
-68.4326 132.804 2184
-62.9495 132.257 2175
-57.7484 132.257 2175
-52.3541 131.77 2167
-46.9109 131.041 2155
-41.6607 130.737 2150
-36.5194 130.737 2150
-31.2614 130.25 2142
-26.1026 130.068 2139
-20.9091 129.581 2131
-15.8132 129.581 2131
-10.662 128.912 2120
-5.58457 128.73 2117
-0.520209 128.244 2109
4.51662 128.061 2106
9.5527 128.061 2106
14.5541 127.757 2101
19.5503 127.575 2098
24.5439 127.453 2096
29.556 127.453 2096
34.5187 127.271 2093
39.5237 127.271 2093
44.4862 127.149 2091
49.4864 127.149 2091
54.4866 127.149 2091
59.4015 126.967 2088
64.3945 126.967 2088
69.3875 126.967 2088
74.3806 126.967 2088
79.3736 126.967 2088
84.4879 127.149 2091
89.4881 127.149 2091
94.4883 127.149 2091
99.4885 127.149 2091
104.489 127.149 2091
109.489 127.149 2091
114.489 127.149 2091
119.147 126.784 2085
124.013 126.663 2083
128.499 126.176 2075
133.461 126.176 2075
138.223 125.994 2072
142.832 125.69 2067
147.632 125.568 2065
152.718 125.69 2067
157.661 125.69 2067
162.603 125.69 2067
167.789 125.872 2070
172.739 125.872 2070
177.689 125.872 2070
182.816 125.994 2072
187.771 125.994 2072
192.725 125.994 2072
197.68 125.994 2072
202.146 125.69 2067
206.888 125.568 2065
211.826 125.568 2065
217.499 125.994 2072
222.454 125.994 2072
227.738 126.176 2075
233.597 126.663 2083
239.495 127.149 2091
244.495 127.149 2091
250.33 127.575 2098
256.321 128.061 2106
262.102 128.426 2112
267.152 128.426 2112
272.46 128.548 2114
277.515 128.548 2114
282.571 128.548 2114
440.83 190.328 3130
448.315 190.328 3130
455.799 190.328 3130
461.508 189.599 3118
468.062 189.234 3112
471.225 187.531 3084
478.6 187.531 3084
484.084 186.801 3072
488.71 185.768 3055
493.418 184.795 3039
500.685 184.795 3039
505.111 183.761 3022
507.76 182.119 2995
511.311 180.842 2974
516.506 180.173 2963
523.591 180.173 2963
530.676 180.173 2963
536.854 179.869 2958
543.928 179.869 2958
551.001 179.869 2958
557.132 179.565 2953
564.193 179.565 2953
570.094 179.2 2947
577.141 179.2 2947
583.197 178.896 2942
589.229 178.592 2937
596.252 178.592 2937
603.276 178.592 2937
609.26 178.288 2932
616.271 178.288 2932
623.283 178.288 2932
630.294 178.288 2932
637.305 178.288 2932
643.218 177.984 2927
650.217 177.984 2927
656.094 177.68 2922
663.081 177.68 2922
670.068 177.68 2922
677.056 177.68 2922
684.043 177.68 2922
691.031 177.68 2922
698.018 177.68 2922
705.005 177.68 2922
711.993 177.68 2922
720.21 177.984 2927
727.21 177.984 2927
734.209 177.984 2927
741.208 177.984 2927
748.208 177.984 2927
755.207 177.984 2927
762.207 177.984 2927
769.206 177.984 2927
776.205 177.984 2927
783.205 177.984 2927
788.854 177.68 2922
795.841 177.68 2922
804.203 177.984 2927
811.202 177.984 2927
818.201 177.984 2927
826.61 178.288 2932
833.622 178.288 2932
840.633 178.288 2932
847.644 178.288 2932
853.198 177.984 2927
860.197 177.984 2927
867.197 177.984 2927
874.196 177.984 2927
881.195 177.984 2927
886.677 177.68 2922
893.665 177.68 2922
900.652 177.68 2922
902.67 176.707 2906
909.619 176.707 2906
918.145 177.011 2911
925.106 177.011 2911
932.067 177.011 2911
939.028 177.011 2911
945.989 177.011 2911
952.95 177.011 2911
953.316 175.795 2891
958.569 175.491 2886
1417.82 242.136 3982
1427.34 242.136 3982
1436.87 242.136 3982
1442.76 241.528 3972
1425.2 237.029 3898
1414.65 233.745 3844
1407.54 231.069 3800
1416.63 231.069 3800
1419.34 230.036 3783
1421.96 229.002 3766
1427.55 228.455 3757
1436.53 228.455 3757
1442.44 227.968 3749
1441.73 226.448 3724
1444.01 225.414 3707
1452.87 225.414 3707
1461.74 225.414 3707
1467.43 224.928 3699
1466.7 223.468 3675
1475.48 223.468 3675
1461.65 220.063 3619
1448.37 216.78 3565
1435.24 213.557 3512
1428.84 211.368 3476
1437.15 211.368 3476
1427.58 208.753 3433
1398.15 203.28 3343
1397.73 202.064 3323
1405.68 202.064 3323
1385.97 198.112 3258
1393.76 198.112 3258
1420.91 200.848 3303
1431.84 201.274 3310
1439.75 201.274 3310
1447.67 201.274 3310
1399.28 178.896 2942
1406.32 178.896 2942
1433.53 181.45 2984
1440.66 181.45 2984
1447.8 181.45 2984
1454.94 181.45 2984
1454.23 180.477 2968
1453.94 179.565 2953
1458.04 179.2 2947
1465.08 179.2 2947
1469.63 178.896 2942
1469.14 177.984 2927
1468.07 177.011 2911
1475.03 177.011 2911
1479.45 176.707 2906
1481.28 176.099 2896
1485.64 175.795 2891
1492.55 175.795 2891
1494.28 175.187 2881
1501.17 175.187 2881
1505.44 174.883 2876
1509.69 174.579 2871
1516.55 174.579 2871
1520.76 174.275 2866
1527.62 174.275 2866
1534.47 174.275 2866
1541.32 174.275 2866
1548.18 174.275 2866
1555.03 174.275 2866
1561.89 174.275 2866
1568.74 174.275 2866
1575.59 174.275 2866
1582.45 174.275 2866
1589.3 174.275 2866
1596.15 174.275 2866
1603.01 174.275 2866
1612.67 174.579 2871
1619.53 174.579 2871
1626.4 174.579 2871
1633.26 174.579 2871
1637.27 174.275 2866
1641.83 174.032 2862
1648.68 174.032 2862
1655.52 174.032 2862
1662.36 174.032 2862
1669.21 174.032 2862
1676.05 174.032 2862
1682.9 174.032 2862
1680.88 173.12 2847
1684.73 172.816 2842
1688.55 172.512 2837
1695.33 172.512 2837
1702.12 172.512 2837
1705.89 172.208 2832
1707.22 171.66 2823
1713.97 171.66 2823
1720.72 171.66 2823
1721.35 171.052 2813
1725.62 170.809 2809
1729.25 170.505 2804
1735.96 170.505 2804
1739.56 170.201 2799
1746.25 170.201 2799
1752.94 170.201 2799
1759.64 170.201 2799
1760.65 169.654 2790
1764.15 169.35 2785
1770.81 169.35 2785
1777.47 169.35 2785
1784.13 169.35 2785
1790.79 169.35 2785
1797.45 169.35 2785
1804.11 169.35 2785
1814.02 169.654 2790
1820.7 169.654 2790
1827.37 169.654 2790
1830.75 169.35 2785
1837.41 169.35 2785
1844.07 169.35 2785
1850.73 169.35 2785
1857.39 169.35 2785
1864.05 169.35 2785
1870.71 169.35 2785
1871.3 168.802 2776
1877.94 168.802 2776
1884.58 168.802 2776
1887.81 168.498 2771
1894.44 168.498 2771
1904.5 168.802 2776
1911.13 168.802 2776
1917.77 168.802 2776
1920.94 168.498 2771
1921.31 167.951 2762
1924.42 167.647 2757
1931.02 167.647 2757
1934.8 167.404 2753
1941.38 167.404 2753
1944.43 167.1 2748
1951 167.1 2748
1957.57 167.1 2748
1964.14 167.1 2748
1961.39 166.309 2735
1967.93 166.309 2735
1970.86 166.005 2730
1974.49 165.762 2726
1983.92 166.005 2730
1990.45 166.005 2730
1996.97 166.005 2730
2003.5 166.005 2730
2010.03 166.005 2730
2013.6 165.762 2726
2020.12 165.762 2726
2022.92 165.458 2721
2029.43 165.458 2721
2023.22 164.424 2704
2029.68 164.424 2704
2022.6 163.33 2686
2029.02 163.33 2686
2042.26 163.877 2695
2048.71 163.877 2695
2058.2 164.12 2699
2064.66 164.12 2699
-2074.72 175.136 2771
-2078.54 176.021 2785
