1512.16 750.177 2837
1514.13 747.797 2828
1520.89 747.797 2828
1519.55 743.83 2813
1521.39 741.451 2804
1528.1 741.451 2804
1534.8 741.451 2804
1541.51 741.451 2804
1545.45 740.128 2799
1549.37 738.806 2794
1558.84 740.128 2799
1565.53 740.128 2799
1572.23 740.128 2799
1578.92 740.128 2799
1585.61 740.128 2799
1592.3 740.128 2799
1599 740.128 2799
1605.69 740.128 2799
1612.38 740.128 2799
1619.08 740.128 2799
1620.54 737.749 2790
2035.62 919.145 3476
2043.94 919.145 3476
2052.25 919.145 3476
2073.01 924.698 3497
2090.3 928.664 3512
2098.7 928.664 3512
2111.9 930.78 3520
2124.53 932.63 3527
2132.96 932.63 3527
2141.4 932.63 3527
2145.57 930.78 3520
2153.98 930.78 3520
2162.4 930.78 3520
2161.57 926.813 3505
2165 924.698 3497
2169.01 922.847 3490
2159.26 915.178 3461
2167.54 915.178 3461
2149.41 904.073 3419
2144.33 898.52 3398
2139.16 892.967 3377
2147.23 892.967 3377
2138.07 885.827 3350
2115.98 873.399 3303
2136.74 878.688 3323
2157.59 883.976 3343
2165.58 883.976 3343
2173.58 883.976 3343
2173.09 880.539 3330
2181.05 880.539 3330
2189.01 880.539 3330
2192.36 878.688 3323
2200.31 878.688 3323
2244.14 892.967 3377
2266.22 898.52 3398
2274.34 898.52 3398
2291.87 902.221 3412
2300.03 902.221 3412
2308.19 902.221 3412
2316.35 902.221 3412
2314.97 898.52 3398
2313.53 894.818 3384
2321.62 894.818 3384
2320.07 891.116 3370
2314.31 885.827 3350
2317.47 883.976 3343
2325.47 883.976 3343
2319.5 878.688 3323
2313.44 873.399 3303
2307.98 868.375 3284
2306.67 864.937 3271
2314.49 864.937 3271
2308.82 859.913 3252
2307.34 856.476 3239
2310.8 854.889 3233
2318.53 854.889 3233
2326.26 854.889 3233
2329.66 853.303 3227
2327.96 849.865 3214
2335.64 849.865 3214
2325.83 843.519 3190
2329.07 841.932 3184
2345.49 845.105 3196
2357.55 846.692 3202
2365.21 846.692 3202
2372.87 846.692 3202
2389.44 849.865 3214
2402.35 851.716 3221
2419.03 854.889 3233
2426.76 854.889 3233
2453.32 861.5 3258
2490.57 871.812 3297
2508.31 875.25 3310
2516.22 875.25 3310
2549.3 883.976 3343
2557.3 883.976 3343
-2416.13 861.033 3227
-2408.42 861.033 3227
-2400.7 861.033 3227
-2392.98 861.033 3227
-2375.66 857.564 3214
-2367.97 857.564 3214
-2360.29 857.564 3214
-2348.21 855.963 3208
-2340.54 855.963 3208
-2360.5 866.103 3246
-2352.74 866.103 3246
-2349.31 867.704 3252
-2368.9 877.843 3290
-2361.03 877.843 3290
-2405.37 897.321 3363
-2397.33 897.321 3363
-2389.29 897.321 3363
-2381.25 897.321 3363
-2373.21 897.321 3363
-2356.02 893.852 3350
-2348.01 893.852 3350
-2340 893.852 3350
-2396.12 921.602 3454
-2387.86 921.602 3454
-2379.61 921.602 3454
-2337.71 908.527 3405
-2329.56 908.527 3405
-2321.42 908.527 3405
-2313.28 908.527 3405
-2286.18 901.056 3377
-2278.1 901.056 3377
-2293.56 910.395 3412
-2299.46 915.998 3433
-2291.25 915.998 3433
-2297.01 921.602 3454
-2303.33 927.472 3476
-2299.64 929.339 3483
-2291.31 929.339 3483
-2282.98 929.339 3483
-2274.65 929.339 3483
-2266.32 929.339 3483
-2257.99 929.339 3483
-2249.66 929.339 3483
-2241.34 929.339 3483
-2237.49 931.207 3490
-2229.15 931.207 3490
-2230.35 935.209 3505
-2235.91 941.079 3527
-2227.48 941.079 3527
-2219.05 941.079 3527
-2210.61 941.079 3527
-2202.18 941.079 3527
-2203.07 945.082 3542
-2194.6 945.082 3542
-2186.13 945.082 3542
-2168.44 941.079 3527
-2160.01 941.079 3527
-2133.27 933.075 3497
-2124.91 933.075 3497
-2130.47 939.212 3520
-2122.05 939.212 3520
-2113.63 939.212 3520
-2096.24 935.209 3505
-2044.97 915.998 3433
-2074.73 933.075 3497
-2066.37 933.075 3497
-2058.01 933.075 3497
-2049.65 933.075 3497
-2041.29 933.075 3497
-2024.78 929.339 3483
-1975.35 910.395 3412
-1967.19 910.395 3412
-1959.03 910.395 3412
-1950.87 910.395 3412
-1938.73 908.527 3405
-1926.62 906.659 3398
-1918.49 906.659 3398
-1902.49 902.924 3384
-1886.57 899.188 3370
-1878.51 899.188 3370
-1882.1 904.792 3391
-1873.99 904.792 3391
-1869.74 906.659 3398
-1861.61 906.659 3398
-1880.21 919.734 3447
-1871.97 919.734 3447
-1863.73 919.734 3447
-1855.49 919.734 3447
-1847.24 919.734 3447
-1797.92 899.188 3370
-1786.14 897.321 3363
-1789.2 902.924 3384
-1781.11 902.924 3384
-1773.02 902.924 3384
-1764.93 902.924 3384
-1756.84 902.924 3384
-1784.92 921.602 3454
-1776.66 921.602 3454
-1768.4 921.602 3454
-1760.14 921.602 3454
-1751.88 921.602 3454
-1743.62 921.602 3454
-1731.84 919.734 3447
-1723.6 919.734 3447
-1701.42 912.263 3419
-1693.25 912.263 3419
-1685.07 912.263 3419
-1676.9 912.263 3419
-1394.98 899.188 3370
-1386.93 899.188 3370
-1378.87 899.188 3370
-1370.81 899.188 3370
-1365.58 901.056 3377
-1360.32 902.924 3384
-1357.82 906.659 3398
-1349.7 906.659 3398
-1344.33 908.527 3405
-1336.19 908.527 3405
-1328.05 908.527 3405
-1319.91 908.527 3405
-1311.76 908.527 3405
-1303.62 908.527 3405
-1295.48 908.527 3405
-1287.34 908.527 3405
-1279.19 908.527 3405
-1265.83 904.792 3391
-1275.89 917.866 3440
-1270.24 919.734 3447
-1262 919.734 3447
-1256.31 921.602 3454
-1253.1 925.337 3468
-1252.71 931.207 3490
-1244.36 931.207 3490
-1243.81 937.077 3512
-1235.41 937.077 3512
-1227.01 937.077 3512
-1218.61 937.077 3512
-1205.05 933.075 3497
-1191.89 929.339 3483
-1183.56 929.339 3483
-1170.17 925.337 3468
-1166.91 929.339 3483
-1160.91 931.207 3490
-1164.78 941.079 3527
-1156.35 941.079 3527
-1152.79 945.082 3542
-1151.75 951.219 3565
-1143.23 951.219 3565
-1134.7 951.219 3565
-1126.18 951.219 3565
-1110.44 945.082 3542
-1101.97 945.082 3542
-1086.71 939.212 3520
-1075.84 937.077 3512
-1067.44 937.077 3512
-1059.05 937.077 3512
-1048.55 935.209 3505
-1040.17 935.209 3505
-1031.79 935.209 3505
-1027.79 939.212 3520
-1019.37 939.212 3520
-1014.98 942.947 3534
-1006.52 942.947 3534
-998.074 942.947 3534
-989.623 942.947 3534
-981.172 942.947 3534
-972.721 942.947 3534
-964.27 942.947 3534
-952.033 939.212 3520
-939.594 935.209 3505
-929.088 933.075 3497
-926.781 939.212 3520
-930.104 951.219 3565
-921.579 951.219 3565
-916.896 955.221 3580
-908.335 955.221 3580
-899.774 955.221 3580
-891.213 955.221 3580
-880.68 953.086 3572
-872.138 953.086 3572
-863.596 953.086 3572
-855.055 953.086 3572
-846.513 953.086 3572
-839.848 955.221 3580
-831.287 955.221 3580
-822.726 955.221 3580
-814.165 955.221 3580
-803.804 953.086 3572
-795.262 953.086 3572
-781.655 946.95 3549
-783.19 959.223 3595
-781.488 967.762 3627
-772.814 967.762 3627
-764.141 967.762 3627
-755.468 967.762 3627
-646.867 901.056 3377
-638.792 901.056 3377
-664.335 949.084 3557
-655.829 949.084 3557
-647.323 949.084 3557
-638.817 949.084 3557
-637.045 959.223 3595
-628.448 959.223 3595
-619.852 959.223 3595
-611.255 959.223 3595
-601.485 957.356 3588
-592.905 957.356 3588
-581.719 953.086 3572
-565.956 941.079 3527
-554.045 935.209 3505
-545.663 935.209 3505
-537.282 935.209 3505
-528.9 935.209 3505
-519.331 933.075 3497
-508.923 929.339 3483
-500.594 929.339 3483
-492.265 929.339 3483
-485.881 933.075 3497
-478.611 935.209 3505
-471.169 937.077 3512
-462.77 937.077 3512
-456.313 941.079 3527
-447.879 941.079 3527
-439.445 941.079 3527
-431.01 941.079 3527
-421.738 939.212 3520
-413.32 939.212 3520
-404.903 939.212 3520
-396.485 939.212 3520
-388.068 939.212 3520
-379.651 939.212 3520
-375.135 949.084 3557
-366.63 949.084 3557
-358.124 949.084 3557
-348.832 946.95 3549
-340.345 946.95 3549
-331.858 946.95 3549
-323.371 946.95 3549
-314.885 946.95 3549
-306.398 946.95 3549
-297.911 946.95 3549
-289.424 946.95 3549
-280.384 945.082 3542
-271.299 942.947 3534
-262.849 942.947 3534
-253.894 941.079 3527
-244.972 939.212 3520
-236.017 937.077 3512
-227.619 937.077 3512
-219.221 937.077 3512
-210.823 937.077 3512
-201.56 933.075 3497
-193.197 933.075 3497
-184.465 931.207 3490
-175.766 929.339 3483
-167.437 929.339 3483
-159.428 931.207 3490
-151.083 931.207 3490
-142.737 931.207 3490
-134.391 931.207 3490
-126.046 931.207 3490
-117.464 929.339 3483
-109.135 929.339 3483
-100.806 929.339 3483
-92.663 931.207 3490
-84.4864 933.075 3497
-76.1241 933.075 3497
-67.7617 933.075 3497
-59.3993 933.075 3497
-51.0369 933.075 3497
-42.4182 927.472 3476
-23.0579 627.031 2350
-17.4383 627.031 2350
-11.8188 627.031 2350
-6.18075 625.163 2343
-0.577188 624.362 2340
5.01846 624.362 2340
10.6141 624.362 2340
16.1197 620.894 2327
21.6843 620.894 2327
27.2488 620.894 2327
32.8134 620.894 2327
38.378 620.894 2327
43.9425 620.894 2327
49.5071 620.894 2327
55.0716 620.894 2327
60.532 619.826 2323
66.0016 619.026 2320
71.5494 619.026 2320
76.9976 618.225 2317
82.3245 616.625 2311
87.6987 615.557 2307
93.2155 615.557 2307
98.7322 615.557 2307
103.978 613.956 2301
109.337 613.156 2298
114.683 612.355 2295
120.171 612.355 2295
125.495 611.555 2292
130.404 608.887 2282
135.504 607.286 2276
140.946 607.286 2276
146.389 607.286 2276
150.831 603.283 2261
155.754 601.416 2254
161.144 601.416 2254
166.312 600.615 2251
171.009 598.214 2242
176.134 597.413 2239
181.488 597.413 2239
186.091 595.012 2230
190.909 593.411 2224
196.227 593.411 2224
201.817 594.211 2227
207.701 595.812 2233
213.04 595.812 2233
218.38 595.812 2233
223.72 595.812 2233
229.06 595.812 2233
234.085 595.012 2230
239.417 595.012 2230
244.75 595.012 2230
250.082 595.012 2230
255.415 595.012 2230
260.748 595.012 2230
266.438 595.812 2233
271.778 595.812 2233
277.118 595.812 2233
472.392 812.205 3044
479.672 812.205 3044
486.951 812.205 3044
494.23 812.205 3044
501.509 812.205 3044
507.952 810.871 3039
516.067 812.205 3044
523.346 812.205 3044
530.625 812.205 3044
537.905 812.205 3044
545.184 812.205 3044
541.573 796.195 2984
548.709 796.195 2984
560.874 803.4 3011
568.074 803.4 3011
582.726 813.806 3050
590.019 813.806 3050
604.95 824.212 3089
612.337 824.212 3089
619.724 824.212 3089
627.111 824.212 3089
636.962 827.414 3101
644.378 827.414 3101
654.105 830.349 3112
661.547 830.349 3112
676.727 839.954 3148
684.255 839.954 3148
691.783 839.954 3148
755.444 861.033 3227
763.161 861.033 3227
772.311 862.634 3233
781.49 864.235 3239
789.235 864.235 3239
796.98 864.235 3239
803.235 862.634 3233
803.19 854.362 3202
812.367 855.963 3208
824.895 861.033 3227
832.611 861.033 3227
840.328 861.033 3227
849.622 862.634 3233
858.944 864.235 3239
866.689 864.235 3239
890.093 879.711 3297
906.965 888.516 3330
920.423 893.852 3350
928.434 893.852 3350
936.445 893.852 3350
944.456 893.852 3350
962.133 902.924 3384
970.226 902.924 3384
992.484 915.998 3433
1002.73 917.866 3440
1015.07 921.602 3454
1023.33 921.602 3454
1038.16 927.472 3476
1050.69 931.207 3490
1059.04 931.207 3490
1067.38 931.207 3490
1075.73 931.207 3490
1079.72 927.472 3476
1090.23 929.339 3483
1098.56 929.339 3483
1109.11 931.207 3490
1117.46 931.207 3490
1125.8 931.207 3490
1127 925.337 3468
1135.29 925.337 3468
1143.58 925.337 3468
1156.86 929.339 3483
1165.19 929.339 3483
1173.52 929.339 3483
1181.85 929.339 3483
1190.17 929.339 3483
1198.5 929.339 3483
1201.64 925.337 3468
1207.49 923.469 3461
1215.76 923.469 3461
1226.51 925.337 3468
1234.81 925.337 3468
1248.48 929.339 3483
1259.33 931.207 3490
1267.68 931.207 3490
1276.02 931.207 3490
1284.37 931.207 3490
1292.71 931.207 3490
1303.67 933.075 3497
1312.03 933.075 3497
1331.72 941.079 3527
1340.16 941.079 3527
1348.59 941.079 3527
1357.02 941.079 3527
1362.75 939.212 3520
1359.48 931.207 3490
1345.49 915.998 3433
1353.69 915.998 3433
1356.35 912.263 3419
1358.94 908.527 3405
1364.27 906.659 3398
1372.4 906.659 3398
1363.86 895.72 3357
1363.72 890.383 3337
1368.82 888.516 3330
1376.78 888.516 3330
1376.43 883.179 3310
1384.35 883.179 3310
1392.26 883.179 3310
1400.18 883.179 3310
1408.09 883.179 3310
1416.01 883.179 3310
1420.91 881.311 3303
1426.21 879.711 3297
1434.1 879.711 3297
1436.3 876.242 3284
1441.51 874.641 3278
1449.35 874.641 3278
1457.19 874.641 3278
1465.03 874.641 3278
1469.72 872.773 3271
1477.54 872.773 3271
1485.36 872.773 3271
1490.45 871.172 3265
1498.25 871.172 3265
1506.06 871.172 3265
1513.87 871.172 3265
1518.42 869.304 3258
1526.21 869.304 3258
1534 869.304 3258
1538.95 867.704 3252
1546.72 867.704 3252
1554.5 867.704 3252
1556.03 864.235 3239
1560.88 862.634 3233
1568.61 862.634 3233
1573.42 861.033 3227
1574.77 857.564 3214
1576.54 854.362 3202
1584.2 854.362 3202
1588.87 852.762 3196
1584.53 846.358 3172
1586.09 843.156 3160
1593.65 843.156 3160
1589.04 836.752 3136
1581.78 829.014 3107
1574.37 821.277 3078
1561.69 810.871 3039
1568.96 810.871 3039
1542.51 793.527 2974
1538.68 787.924 2953
1521.14 775.383 2906
1528.09 775.383 2906
1524.48 770.047 2886
1518.64 763.643 2862
1520.16 760.975 2852
1514.13 754.571 2828
1520.89 754.571 2828
1524.95 753.237 2823
1524.1 749.502 2809
1528.1 748.167 2804
1534.8 748.167 2804
1541.51 748.167 2804
1548.21 748.167 2804
1552.15 746.833 2799
1558.84 746.833 2799
1568.33 748.167 2804
1575.03 748.167 2804
1581.74 748.167 2804
1585.61 746.833 2799
1592.3 746.833 2799
1599 746.833 2799
1608.56 748.167 2804
1615.26 748.167 2804
1621.97 748.167 2804
1620.54 744.432 2790
2026.84 923.469 3461
2035.12 923.469 3461
2043.39 923.469 3461
2073.01 933.075 3497
2086.13 935.209 3505
2094.51 935.209 3505
2111.9 939.212 3520
2120.31 939.212 3520
2128.73 939.212 3520
2137.15 939.212 3520
2145.57 939.212 3520
2149.09 937.077 3512
2157.49 937.077 3512
2161.57 935.209 3505
2160.66 931.207 3490
2155.33 925.337 3468
2154.89 921.602 3454
2163.15 921.602 3454
2171.41 921.602 3454
2157.59 912.263 3419
2148.02 904.792 3391
2156.13 904.792 3391
2155.31 901.056 3377
2128.79 886.648 3323
2180.46 904.792 3391
2188.57 904.792 3391
2196.68 904.792 3391
2204.79 904.792 3391
2194.62 897.321 3363
2202.67 897.321 3363
2210.71 897.321 3363
2196.98 888.516 3330
2200.31 886.648 3323
2253.44 904.792 3391
2275.55 910.395 3412
2283.71 910.395 3412
2291.87 910.395 3412
2300.03 910.395 3412
2308.19 910.395 3412
2311.6 908.527 3405
2305.43 902.924 3384
2295.07 895.72 3357
2303.09 895.72 3357
2297.35 890.383 3337
2305.33 890.383 3337
2294.6 883.179 3310
2297.64 881.311 3303
2305.54 881.311 3303
2295.93 874.641 3278
2298.85 872.773 3271
2293.27 867.704 3252
2301.05 867.704 3252
2299.59 864.235 3239
2303.07 862.634 3233
2310.8 862.634 3233
2318.53 862.634 3233
2326.26 862.634 3233
2325.33 859.432 3221
2319.27 854.362 3202
2313.84 849.56 3184
2321.46 849.56 3184
2329.07 849.56 3184
2341.09 851.161 3190
2353.13 852.762 3196
2365.21 854.362 3202
2372.87 854.362 3202
2384.98 855.963 3208
2397.13 857.564 3214
2414.54 861.033 3227
2422.26 861.033 3227
2453.32 869.304 3258
2480.75 876.242 3284
2508.31 883.179 3310
2516.22 883.179 3310
2549.3 891.984 3343
2557.3 891.984 3343
-2406.4 865.263 3214
-2398.72 865.263 3214
-2391.03 865.263 3214
-2383.34 865.263 3214
-2375.66 865.263 3214
-2367.97 865.263 3214
-2347.07 860.418 3196
-2343.82 862.033 3202
-2340.54 863.648 3208
-2351.05 870.379 3233
-2343.32 870.379 3233
-2344.98 873.878 3246
-2368.9 885.724 3290
-2361.03 885.724 3290
-2405.37 905.377 3363
-2397.33 905.377 3363
-2389.29 905.377 3363
-2381.25 905.377 3363
-2373.21 905.377 3363
-2356.02 901.877 3350
-2348.01 901.877 3350
-2340 901.877 3350
-2362.13 916.684 3405
-2353.99 916.684 3405
-2345.85 916.684 3405
-2328.09 912.915 3391
-2319.98 912.915 3391
-2292.79 905.377 3363
-2284.74 905.377 3363
-2263.16 899.992 3343
-2255.17 899.992 3343
-2260.62 905.377 3363
-2280.71 916.684 3405
-2272.57 916.684 3405
-2283.04 924.222 3433
-2288.75 929.876 3454
-2280.49 929.876 3454
-2272.23 929.876 3454
-2263.97 929.876 3454
-2255.71 929.876 3454
-2247.45 929.876 3454
-2230.12 926.107 3440
-2217.37 924.222 3433
-2209.16 924.222 3433
-2233.01 937.683 3483
-2224.68 937.683 3483
-2216.35 937.683 3483
-2212.46 939.567 3490
-2204.11 939.567 3490
-2195.77 939.567 3490
-2187.42 939.567 3490
-2188.44 943.606 3505
-2189.39 947.644 3520
-2180.97 947.644 3520
-2172.55 947.644 3520
-2145.69 939.567 3490
-2137.35 939.567 3490
-2124.73 937.683 3483
-2094.53 927.991 3447
-2112.31 939.567 3490
-2103.96 939.567 3490
-2095.62 939.567 3490
-2083.09 937.683 3483
-2040.8 922.338 3426
-2057.53 933.645 3468
-2049.24 933.645 3468
-2053.89 939.567 3490
-2045.54 939.567 3490
-2037.2 939.567 3490
-2016.06 933.645 3468
-1975.35 918.568 3412
-1963.16 916.684 3405
-1955.01 916.684 3405
-1946.87 916.684 3405
-1926.77 911.03 3384
-1918.68 911.03 3384
-1910.59 911.03 3384
-1894.62 907.261 3370
-1882.65 905.377 3363
-1878.51 907.261 3370
-1870.45 907.261 3370
-1862.39 907.261 3370
-1862.03 911.03 3384
-1861.61 914.799 3398
-1853.49 914.799 3398
-1845.36 914.799 3398
-1837.23 914.799 3398
-1829.11 914.799 3398
-1820.98 914.799 3398
-1797.92 907.261 3370
-1779.24 901.877 3350
-1785.5 909.146 3377
-1781.11 911.03 3384
-1773.02 911.03 3384
-1764.93 911.03 3384
-1756.84 911.03 3384
-1781.3 927.991 3447
-1773.06 927.991 3447
-1764.81 927.991 3447
-1756.57 927.991 3447
-1748.33 927.991 3447
-1736.55 926.107 3440
-1728.33 926.107 3440
-1720.1 926.107 3440
-1697.94 918.568 3412
-1689.78 918.568 3412
-1678.17 916.684 3405
-1670.03 916.684 3405
-1392.09 905.377 3363
-1384.05 905.377 3363
-1376 905.377 3363
-1367.96 905.377 3363
-1354.66 901.877 3350
-1349.47 903.762 3357
-1349.43 909.146 3377
-1341.35 909.146 3377
-1341.57 914.799 3398
-1333.44 914.799 3398
-1325.32 914.799 3398
-1317.19 914.799 3398
-1306.37 912.915 3391
-1298.26 912.915 3391
-1290.15 912.915 3391
-1282.04 912.915 3391
-1271.31 911.03 3384
-1263.21 911.03 3384
-1257.72 912.915 3391
-1249.61 912.915 3391
-1241.5 912.915 3391
-1238.48 916.684 3405
-1237.93 922.338 3426
-1239.79 929.876 3454
-1231.53 929.876 3454
-1236.02 939.567 3490
-1227.67 939.567 3490
-1219.33 939.567 3490
-1210.98 939.567 3490
-1195.05 933.645 3468
-1162.81 914.799 3398
-1161.82 920.453 3419
-1153.64 920.453 3419
-1157.19 929.876 3454
-1158.58 937.683 3483
-1150.25 937.683 3483
-1141.92 937.683 3483
-1135.87 939.567 3490
-1144.32 953.567 3542
-1135.85 953.567 3542
-1127.38 953.567 3542
-1118.91 953.567 3542
-1098.84 943.606 3505
-1090.46 943.606 3505
-1079.61 941.452 3497
-1071.25 941.452 3497
-1062.89 941.452 3497
-1054.52 941.452 3497
-1046.16 941.452 3497
-1037.8 941.452 3497
-1025.31 937.683 3483
-1021.07 941.452 3497
-1012.71 941.452 3497
-1010.95 947.644 3520
-1002.54 947.644 3520
-994.12 947.644 3520
-979.262 941.452 3497
-973.121 943.606 3505
-964.739 943.606 3505
-956.358 943.606 3505
-947.976 943.606 3505
-937.45 941.452 3497
-923.508 935.798 3476
-918.882 939.567 3490
-916.276 945.49 3512
-907.878 945.49 3512
-899.48 945.49 3512
-891.081 945.49 3512
-882.683 945.49 3512
-874.285 945.49 3512
-864.161 943.606 3505
-855.779 943.606 3505
-847.398 943.606 3505
-839.016 943.606 3505
-834.19 947.644 3520
-836.329 959.759 3565
-827.804 959.759 3565
-819.279 959.759 3565
-803.704 951.413 3534
-795.253 951.413 3534
-788.583 953.567 3542
-780.113 953.567 3542
-773.168 955.451 3549
-773.085 965.951 3588
-764.505 965.951 3588
-755.925 965.951 3588
-747.345 965.951 3588
-646.867 909.146 3377
-638.792 909.146 3377
-645.098 929.876 3454
-644.766 941.452 3497
-636.404 941.452 3497
-628.042 941.452 3497
-627.653 953.567 3542
-619.183 953.567 3542
-610.713 953.567 3542
-602.243 953.567 3542
-591.259 949.528 3527
-582.825 949.528 3527
-574.391 949.528 3527
-560.019 939.567 3490
-545.983 929.876 3454
-537.723 929.876 3454
-532.836 935.798 3476
-524.524 935.798 3476
-516.212 935.798 3476
-503.662 927.991 3447
-495.42 927.991 3447
-487.177 927.991 3447
-480.879 931.76 3461
-476.563 939.567 3490
-469.156 941.452 3497
-460.794 941.452 3497
-453.466 943.606 3505
-445.085 943.606 3505
-436.703 943.606 3505
-428.322 943.606 3505
-418.143 939.567 3490
-409.798 939.567 3490
-401.452 939.567 3490
-393.106 939.567 3490
-384.761 939.567 3490
-378.788 945.49 3512
-371.233 947.644 3520
-362.816 947.644 3520
-354.398 947.644 3520
-345.981 947.644 3520
-338.235 949.528 3527
-329.801 949.528 3527
-321.367 949.528 3527
-312.933 949.528 3527
-304.499 949.528 3527
-296.064 949.528 3527
-287.63 949.528 3527
-279.196 949.528 3527
-270.762 949.528 3527
-262.328 949.528 3527
-252.814 945.49 3512
-244.416 945.49 3512
-235.009 941.452 3497
-226.647 941.452 3497
-218.285 941.452 3497
-209.922 941.452 3497
-201.56 941.452 3497
-193.197 941.452 3497
-184.095 937.683 3483
-175.766 937.683 3483
-166.716 933.645 3468
-158.789 935.798 3476
-150.476 935.798 3476
-142.164 935.798 3476
-133.852 935.798 3476
-125.54 935.798 3476
-117.228 935.798 3476
-108.665 933.645 3468
-100.372 933.645 3468
-92.4771 937.683 3483
-84.4864 941.452 3497
-76.1241 941.452 3497
-67.7617 941.452 3497
-59.3993 941.452 3497
-51.0369 941.452 3497
-42.4182 935.798 3476
-23.0579 632.66 2350
-17.4383 632.66 2350
-11.8188 632.66 2350
-6.18075 630.775 2343
-0.577188 629.968 2340
5.01846 629.968 2340
10.6141 629.968 2340
16.1197 626.468 2327
21.6843 626.468 2327
27.2488 626.468 2327
32.8134 626.468 2327
38.378 626.468 2327
43.9425 626.468 2327
49.5071 626.468 2327
55.0716 626.468 2327
60.532 625.391 2323
66.0016 624.583 2320
71.5494 624.583 2320
76.9976 623.776 2317
82.3245 622.161 2311
87.6987 621.084 2307
93.2155 621.084 2307
98.7322 621.084 2307
103.978 619.468 2301
109.337 618.661 2298
114.683 617.853 2295
120.171 617.853 2295
125.495 617.045 2292
130.404 614.353 2282
135.504 612.738 2276
140.946 612.738 2276
146.389 612.738 2276
150.831 608.7 2261
155.754 606.815 2254
161.144 606.815 2254
166.312 606.008 2251
171.009 603.585 2242
176.134 602.777 2239
181.488 602.777 2239
186.091 600.354 2230
190.909 598.739 2224
196.227 598.739 2224
201.817 599.546 2227
207.701 601.162 2233
213.04 601.162 2233
218.38 601.162 2233
223.72 601.162 2233
229.06 601.162 2233
234.085 600.354 2230
239.417 600.354 2230
244.75 600.354 2230
250.082 600.354 2230
255.415 600.354 2230
260.748 600.354 2230
266.438 601.162 2233
271.778 601.162 2233
277.118 601.162 2233
472.392 819.497 3044
479.672 819.497 3044
486.951 819.497 3044
494.23 819.497 3044
501.509 819.497 3044
506.949 816.535 3033
516.067 819.497 3044
523.346 819.497 3044
530.625 819.497 3044
537.905 819.497 3044
545.184 819.497 3044
541.573 803.344 2984
548.709 803.344 2984
560.874 810.612 3011
568.074 810.612 3011
582.726 821.112 3050
590.019 821.112 3050
604.95 831.611 3089
612.337 831.611 3089
619.724 831.611 3089
627.111 831.611 3089
636.962 834.842 3101
644.378 834.842 3101
654.105 837.803 3112
661.547 837.803 3112
676.727 847.495 3148
684.255 847.495 3148
691.783 847.495 3148
754.039 867.148 3221
761.742 867.148 3221
770.878 868.763 3227
778.594 868.763 3227
786.311 868.763 3227
794.028 868.763 3227
797.024 863.648 3208
800.18 858.802 3190
807.808 858.802 3190
818.504 862.033 3202
826.161 862.033 3202
833.818 862.033 3202
843.052 863.648 3208
855.762 868.763 3227
863.478 868.763 3227
879.564 877.109 3258
887.355 877.109 3258
897.069 878.994 3265
904.877 878.994 3265
912.684 878.994 3265
929.514 887.609 3297
948.771 898.377 3337
956.75 898.377 3337
982.365 914.799 3398
998.653 922.338 3426
1010.96 926.107 3440
1019.19 926.107 3440
1035.77 933.645 3468
1048.58 937.683 3483
1056.91 937.683 3483
1065.24 937.683 3483
1073.57 937.683 3483
1077.24 933.645 3468
1088.04 935.798 3476
1096.35 935.798 3476
1104.66 935.798 3476
1112.97 935.798 3476
1121.29 935.798 3476
1127 933.645 3468
1135.29 933.645 3468
1143.58 933.645 3468
1156.86 937.683 3483
1165.19 937.683 3483
1173.52 937.683 3483
1181.85 937.683 3483
1190.17 937.683 3483
1198.5 937.683 3483
1201.64 933.645 3468
1207.49 931.76 3461
1215.76 931.76 3461
1226.51 933.645 3468
1234.81 933.645 3468
1248.48 937.683 3483
1259.33 939.567 3490
1267.68 939.567 3490
1276.02 939.567 3490
1284.37 939.567 3490
1292.71 939.567 3490
1303.67 941.452 3497
1312.03 941.452 3497
1331.72 949.528 3527
1340.16 949.528 3527
1348.59 949.528 3527
1357.02 949.528 3527
1362.75 947.644 3520
1359.48 939.567 3490
1345.49 924.222 3433
1353.69 924.222 3433
1356.35 920.453 3419
1358.94 916.684 3405
1364.27 914.799 3398
1372.4 914.799 3398
1363.86 903.762 3357
1366.17 899.992 3343
1368.82 896.493 3330
1376.78 896.493 3330
1376.43 891.108 3310
1384.35 891.108 3310
1392.26 891.108 3310
1400.18 891.108 3310
1408.09 891.108 3310
1416.01 891.108 3310
1423.92 891.108 3310
1426.21 887.609 3297
1434.1 887.609 3297
1438.92 885.724 3290
1441.51 882.493 3278
1449.35 882.493 3278
1457.19 882.493 3278
1465.03 882.493 3278
1469.72 880.609 3271
1477.54 880.609 3271
1485.36 880.609 3271
1490.45 878.994 3265
1498.25 878.994 3265
1506.06 878.994 3265
1513.87 878.994 3265
1518.42 877.109 3258
1526.21 877.109 3258
1534 877.109 3258
1538.95 875.494 3252
1546.72 875.494 3252
1554.5 875.494 3252
1556.03 871.994 3239
1560.88 870.379 3233
1568.61 870.379 3233
1573.42 868.763 3227
1574.77 865.263 3214
1579.5 863.648 3208
1587.17 863.648 3208
1588.87 860.418 3196
1587.52 855.572 3178
1592.11 853.956 3172
1599.7 853.956 3172
1595.12 847.495 3148
1590.43 841.034 3124
1586.14 834.842 3101
1576.08 825.689 3067
1583.41 825.689 3067
1559.11 809.266 3006
1554.84 803.344 2984
1539.99 792.036 2942
1547.02 792.036 2942
1535.04 782.345 2906
1531.38 776.96 2886
1527.62 771.576 2866
1521.62 765.115 2842
1528.42 765.115 2842
1527.65 761.346 2828
1531.7 760 2823
1538.45 760 2823
1545.2 760 2823
1549.2 758.654 2818
1553.18 757.307 2813
1557.69 756.231 2809
1564.41 756.231 2809
1568.33 754.885 2804
1575.03 754.885 2804
1581.74 754.885 2804
1588.44 754.885 2804
1595.15 754.885 2804
1601.85 754.885 2804
1611.43 756.231 2809
1618.15 756.231 2809
1624.86 756.231 2809
1628.68 754.885 2804
2026.84 931.76 3461
2035.12 931.76 3461
2043.39 931.76 3461
2073.01 941.452 3497
2086.13 943.606 3505
2094.51 943.606 3505
2111.9 947.644 3520
2120.31 947.644 3520
2128.73 947.644 3520
2137.15 947.644 3520
2145.57 947.644 3520
2149.09 945.49 3512
2157.49 945.49 3512
2161.57 943.606 3505
2160.66 939.567 3490
2155.33 933.645 3468
2154.89 929.876 3454
2163.15 929.876 3454
2171.41 929.876 3454
2157.59 920.453 3419
2148.02 912.915 3391
2156.13 912.915 3391
2164.24 912.915 3391
2128.79 894.608 3323
2180.46 912.915 3391
2188.57 912.915 3391
2196.68 912.915 3391
2204.79 912.915 3391
2194.62 905.377 3363
2202.67 905.377 3363
2210.71 905.377 3363
2196.98 896.493 3330
2200.31 894.608 3323
2253.44 912.915 3391
2275.55 918.568 3412
2283.71 918.568 3412
2291.87 918.568 3412
2300.03 918.568 3412
2308.19 918.568 3412
2311.6 916.684 3405
2305.43 911.03 3384
2295.07 903.762 3357
2303.09 903.762 3357
2297.35 898.377 3337
2305.33 898.377 3337
2294.6 891.108 3310
2297.64 889.224 3303
2305.54 889.224 3303
2295.93 882.493 3278
2298.85 880.609 3271
2293.27 875.494 3252
2301.05 875.494 3252
2299.59 871.994 3239
2303.07 870.379 3233
2310.8 870.379 3233
2318.53 870.379 3233
2317.62 867.148 3221
2320.27 865.263 3214
2319.27 862.033 3202
2313.84 857.187 3184
2321.46 857.187 3184
2329.07 857.187 3184
2341.09 858.802 3190
2353.13 860.418 3196
2360.78 860.418 3196
2368.42 860.418 3196
2380.52 862.033 3202
2397.13 865.263 3214
2414.54 868.763 3227
2422.26 868.763 3227
2434.49 870.379 3233
2466.4 878.994 3265
2498.45 887.609 3297
2506.34 887.609 3297
2524.14 891.108 3310
2532.05 891.108 3310
-2406.4 872.963 3214
-2398.72 872.963 3214
-2391.03 872.963 3214
-2383.34 872.963 3214
-2375.66 872.963 3214
-2367.97 872.963 3214
-2347.07 868.074 3196
-2343.82 869.703 3202
-2340.54 871.333 3208
-2351.05 878.123 3233
-2343.32 878.123 3233
-2344.98 881.654 3246
-2368.9 893.605 3290
-2361.03 893.605 3290
-2405.37 913.433 3363
-2397.33 913.433 3363
-2389.29 913.433 3363
-2381.25 913.433 3363
-2373.21 913.433 3363
-2356.02 909.902 3350
-2348.01 909.902 3350
-2340 909.902 3350
-2208.08 861.555 3172
-2362.13 924.841 3405
-2353.99 924.841 3405
-2345.85 924.841 3405
-2328.09 921.038 3391
-2319.98 921.038 3391
-2292.79 913.433 3363
-2284.74 913.433 3363
-2263.16 908.001 3343
-2255.17 908.001 3343
-2260.62 913.433 3363
-2280.71 924.841 3405
-2272.57 924.841 3405
-2283.04 932.446 3433
-2288.75 938.15 3454
-2280.49 938.15 3454
-2272.23 938.15 3454
-2263.97 938.15 3454
-2255.71 938.15 3454
-2247.45 938.15 3454
-2230.12 934.347 3440
-2217.37 932.446 3433
-2209.16 932.446 3433
-2233.01 946.026 3483
-2224.68 946.026 3483
-2216.35 946.026 3483
-2212.46 947.928 3490
-2204.11 947.928 3490
-2195.77 947.928 3490
-2187.42 947.928 3490
-2188.44 952.002 3505
-2189.39 956.076 3520
-2180.97 956.076 3520
-2172.55 956.076 3520
-2145.69 947.928 3490
-2137.35 947.928 3490
-2124.73 946.026 3483
-2094.53 936.248 3447
-2112.31 947.928 3490
-2103.96 947.928 3490
-2095.62 947.928 3490
-2083.09 946.026 3483
-2040.8 930.544 3426
-2057.53 941.952 3468
-2049.24 941.952 3468
-2053.89 947.928 3490
-2045.54 947.928 3490
-2037.2 947.928 3490
-2016.06 941.952 3468
-1975.35 926.742 3412
-1963.16 924.841 3405
-1955.01 924.841 3405
-1946.87 924.841 3405
-1926.77 919.137 3384
-1918.68 919.137 3384
-1910.59 919.137 3384
-1894.62 915.334 3370
-1882.65 913.433 3363
-1878.51 915.334 3370
-1870.45 915.334 3370
-1862.39 915.334 3370
-1862.03 919.137 3384
-1861.61 922.939 3398
-1853.49 922.939 3398
-1845.36 922.939 3398
-1837.23 922.939 3398
-1829.11 922.939 3398
-1820.98 922.939 3398
-1797.92 915.334 3370
-1779.24 909.902 3350
-1774.93 911.803 3357
-1773.74 915.334 3370
-1765.68 915.334 3370
-1757.63 915.334 3370
-1749.57 915.334 3370
-1777.68 934.347 3440
-1769.46 934.347 3440
-1761.23 934.347 3440
-1753 934.347 3440
-1744.78 934.347 3440
-1733.02 932.446 3433
-1724.81 932.446 3433
-1709.6 928.643 3419
-1684.01 919.137 3384
-1675.91 919.137 3384
-1664.37 917.235 3377
-1652.86 915.334 3370
-1375.53 902.568 3323
-1367.58 902.568 3323
-1365.37 906.371 3337
-1357.39 906.371 3337
-1354.66 909.902 3350
-1349.47 911.803 3357
-1343.84 913.433 3363
-1344.13 919.137 3384
-1338.81 921.038 3391
-1330.7 921.038 3391
-1322.59 921.038 3391
-1314.48 921.038 3391
-1306.37 921.038 3391
-1298.26 921.038 3391
-1284.83 917.235 3377
-1276.75 917.235 3377
-1268.68 917.235 3377
-1260.6 917.235 3377
-1257.72 921.038 3391
-1249.61 921.038 3391
-1241.5 921.038 3391
-1230.84 919.137 3384
-1222.75 919.137 3384
-1229.74 930.544 3426
-1221.54 930.544 3426
-1215.83 932.446 3433
-1219.93 941.952 3468
-1211.64 941.952 3468
-1203.35 941.952 3468
-1170.93 922.939 3398
-1160.41 921.038 3391
-1152.3 921.038 3391
-1141.83 919.137 3384
-1140.77 924.841 3405
-1132.63 924.841 3405
-1138.36 936.248 3447
-1130.12 936.248 3447
-1124.15 938.15 3454
-1120.42 941.952 3468
-1116.93 946.026 3483
-1108.6 946.026 3483
-1100.28 946.026 3483
-1085.05 940.051 3461
-1078.95 941.952 3468
-1070.66 941.952 3468
-1066.96 946.026 3483
-1060.76 947.928 3490
-1052.41 947.928 3490
-1044.07 947.928 3490
-1033.64 946.026 3483
-1020.9 941.952 3468
-1019.03 947.928 3490
-1010.68 947.928 3490
-1002.34 947.928 3490
-993.993 947.928 3490
-985.647 947.928 3490
-975.341 946.026 3483
-968.956 947.928 3490
-960.61 947.928 3490
-952.265 947.928 3490
-943.919 947.928 3490
-935.573 947.928 3490
-923.508 944.125 3476
-909.404 938.15 3454
-914.45 952.002 3505
-906.068 952.002 3505
-911.005 966.126 3557
-902.499 966.126 3557
-893.993 966.126 3557
-885.487 966.126 3557
-857.011 944.125 3476
-846.745 941.952 3468
-838.452 941.952 3468
-830.159 941.952 3468
-821.866 941.952 3468
-813.573 941.952 3468
-805.28 941.952 3468
-796.987 941.952 3468
-644.186 913.433 3363
-636.144 913.433 3363
-628.102 913.433 3363
-622.641 917.235 3377
-620.935 926.742 3412
-612.776 926.742 3412
-617.198 946.026 3483
-608.869 946.026 3483
-601.747 947.928 3490
-593.402 947.928 3490
-585.056 947.928 3490
-575.554 946.026 3483
-567.225 946.026 3483
-551.996 934.347 3440
-540.45 928.643 3419
-533.364 930.544 3426
-526.245 932.446 3433
-518.035 932.446 3433
-509.826 932.446 3433
-500.594 930.544 3426
-492.401 930.544 3426
-481.241 924.841 3405
-474.071 926.742 3412
-470.691 936.248 3447
-462.448 936.248 3447
-454.205 936.248 3447
-445.963 936.248 3447
-437.72 936.248 3447
-429.477 936.248 3447
-421.234 936.248 3447
-412.153 934.347 3440
-403.105 932.446 3433
-394.895 932.446 3433
-385.897 930.544 3426
-377.705 930.544 3426
-373.287 940.051 3461
-368.069 947.928 3490
-359.724 947.928 3490
-351.378 947.928 3490
-343.032 947.928 3490
-335.358 949.829 3497
-326.996 949.829 3497
-318.633 949.829 3497
-311.602 953.903 3512
-303.204 953.903 3512
-294.805 953.903 3512
-286.407 953.903 3512
-277.455 952.002 3505
-269.073 952.002 3505
-260.692 952.002 3505
-251.734 949.829 3497
-242.885 947.928 3490
-234.539 947.928 3490
-226.193 947.928 3490
-217.848 947.928 3490
-208.662 944.125 3476
-200.349 944.125 3476
-192.037 944.125 3476
-183.725 944.125 3476
-175.009 941.952 3468
-166.38 940.051 3461
-158.423 941.952 3468
-150.13 941.952 3468
-141.837 941.952 3468
-133.544 941.952 3468
-125.251 941.952 3468
-116.722 940.051 3461
-108.226 938.15 3454
-99.9667 938.15 3454
-92.0788 941.952 3468
-83.9791 944.125 3476
-75.6669 944.125 3476
-67.3548 944.125 3476
-59.0426 944.125 3476
-50.7304 944.125 3476
-42.4182 944.125 3476
-23.0187 637.203 2346
-17.4087 637.203 2346
-11.7987 637.203 2346
-6.18075 636.388 2343
-0.577188 635.573 2340
5.01846 635.573 2340
10.6141 635.573 2340
16.1405 632.857 2330
21.7122 632.857 2330
27.284 632.857 2330
32.8557 632.857 2330
38.4274 632.857 2330
43.9425 632.042 2327
49.5071 632.042 2327
55.0716 632.042 2327
60.6362 632.042 2327
66.087 630.956 2323
71.642 630.956 2323
76.9976 629.326 2317
82.3245 627.697 2311
87.8508 627.697 2311
93.3771 627.697 2311
98.7322 626.61 2307
104.113 625.795 2304
109.337 624.166 2298
114.683 623.351 2295
120.171 623.351 2295
125.495 622.536 2292
130.404 619.82 2282
135.504 618.19 2276
140.946 618.19 2276
146.389 618.19 2276
150.831 614.116 2261
155.961 613.029 2257
161.358 613.029 2257
166.312 611.4 2251
171.009 608.955 2242
176.134 608.14 2239
181.488 608.14 2239
186.091 605.696 2230
191.166 604.881 2227
196.492 604.881 2227
202.361 606.511 2233
207.98 607.326 2236
213.327 607.326 2236
218.674 607.326 2236
224.021 607.326 2236
229.367 607.326 2236
234.4 606.511 2233
240.061 607.326 2236
245.408 607.326 2236
250.755 607.326 2236
256.102 607.326 2236
261.098 606.511 2233
266.796 607.326 2236
272.143 607.326 2236
277.49 607.326 2236
473.324 828.418 3050
480.617 828.418 3050
488.71 829.776 3055
496.016 829.776 3055
503.321 829.776 3055
510.627 829.776 3055
518.949 831.406 3061
527.301 833.036 3067
534.635 833.036 3067
541.969 833.036 3067
546.258 828.418 3050
547.562 819.455 3017
555.696 820.813 3022
568.139 828.418 3050
575.432 828.418 3050
589.222 837.653 3084
597.564 839.011 3089
612.98 850.147 3130
620.465 850.147 3130
627.949 850.147 3130
636.652 851.777 3136
644.151 851.777 3136
651.65 851.777 3136
662.933 856.666 3154
670.475 856.666 3154
678.017 856.666 3154
685.56 856.666 3154
691.783 855.036 3148
752.401 872.963 3214
760.086 872.963 3214
769.444 874.864 3221
777.147 874.864 3221
784.849 874.864 3221
792.551 874.864 3221
797.024 871.333 3208
798.675 864.814 3184
806.289 864.814 3184
813.903 864.814 3184
821.517 864.814 3184
829.131 864.814 3184
836.745 864.814 3184
850.723 871.333 3208
858.394 871.333 3208
871.195 876.494 3227
880.546 878.123 3233
893.497 883.284 3252
901.274 883.284 3252
909.05 883.284 3252
920.492 886.815 3265
937.398 895.506 3297
945.282 895.506 3297
972.247 913.433 3363
988.45 921.038 3391
1004.79 928.643 3419
1012.96 928.643 3419
1029.5 936.248 3447
1044.07 941.952 3468
1052.36 941.952 3468
1060.65 941.952 3468
1062.47 936.248 3447
1070.72 936.248 3447
1085.53 941.952 3468
1093.83 941.952 3468
1102.12 941.952 3468
1110.41 941.952 3468
1118.7 941.952 3468
1124.72 940.051 3461
1130.71 938.15 3454
1138.97 938.15 3454
1151.88 941.952 3468
1160.17 941.952 3468
1168.46 941.952 3468
1174.38 940.051 3461
1182.66 940.051 3461
1190.93 940.051 3461
1196.78 938.15 3454
1197.72 932.446 3433
1205.93 932.446 3433
1214.14 932.446 3433
1222.35 932.446 3433
1238.08 938.15 3454
1254.28 944.125 3476
1262.59 944.125 3476
1270.9 944.125 3476
1279.22 944.125 3476
1287.53 944.125 3476
1301.06 947.928 3490
1309.41 947.928 3490
1320.39 949.829 3497
1337.5 956.076 3520
1345.91 956.076 3520
1354.33 956.076 3520
1353.84 949.829 3497
1359.48 947.928 3490
1340 928.643 3419
1348.17 928.643 3419
1350.8 924.841 3405
1358.94 924.841 3405
1364.27 922.939 3398
1372.4 922.939 3398
1363.86 911.803 3357
1366.17 908.001 3343
1368.82 904.47 3330
1376.78 904.47 3330
1376.43 899.037 3310
1384.35 899.037 3310
1392.26 899.037 3310
1400.18 899.037 3310
1408.09 899.037 3310
1416.01 899.037 3310
1423.92 899.037 3310
1426.21 895.506 3297
1434.1 895.506 3297
1438.92 893.605 3290
1441.51 890.346 3278
1449.35 890.346 3278
1457.19 890.346 3278
1461.9 888.445 3271
1469.72 888.445 3271
1474.83 886.815 3265
1482.64 886.815 3265
1490.45 886.815 3265
1495.04 884.914 3258
1502.83 884.914 3258
1510.62 884.914 3258
1518.42 884.914 3258
1526.21 884.914 3258
1531.17 883.284 3252
1538.95 883.284 3252
1546.72 883.284 3252
1551.63 881.654 3246
1556.03 879.753 3239
1560.88 878.123 3233
1568.61 878.123 3233
1573.42 876.494 3227
1574.77 872.963 3214
1579.5 871.333 3208
1587.17 871.333 3208
1588.87 868.074 3196
1587.52 863.185 3178
1592.11 861.555 3172
1599.7 861.555 3172
1595.12 855.036 3148
1590.43 848.518 3124
1586.14 842.27 3101
1576.08 833.036 3067
1583.41 833.036 3067
1559.11 816.467 3006
1554.84 810.492 2984
1539.99 799.084 2942
1547.02 799.084 2942
1535.04 789.306 2906
1531.38 783.874 2886
1527.62 778.442 2866
1521.62 771.923 2842
1528.42 771.923 2842
1527.65 768.12 2828
1531.7 766.762 2823
1538.45 766.762 2823
1545.2 766.762 2823
1549.2 765.404 2818
1553.18 764.046 2813
1557.69 762.96 2809
1564.41 762.96 2809
1568.33 761.602 2804
1575.03 761.602 2804
1581.74 761.602 2804
1588.44 761.602 2804
1595.15 761.602 2804
1601.85 761.602 2804
1611.43 762.96 2809
1618.15 762.96 2809
1624.86 762.96 2809
1628.68 761.602 2804
1994.04 924.841 3405
2002.19 924.841 3405
2039.26 938.15 3454
2073.01 949.829 3497
2086.13 952.002 3505
2094.51 952.002 3505
2111.9 956.076 3520
2120.31 956.076 3520
2128.73 956.076 3520
2137.15 956.076 3520
2145.57 956.076 3520
2149.09 953.903 3512
2157.49 953.903 3512
2161.57 952.002 3505
2160.66 947.928 3490
2155.33 941.952 3468
2154.89 938.15 3454
2163.15 938.15 3454
2171.41 938.15 3454
2157.59 928.643 3419
2148.02 921.038 3391
2156.13 921.038 3391
2164.24 921.038 3391
2128.79 902.568 3323
2180.46 921.038 3391
2202.12 926.742 3412
2210.28 926.742 3412
2218.44 926.742 3412
2194.62 913.433 3363
2202.67 913.433 3363
2210.71 913.433 3363
2196.98 904.47 3330
2200.31 902.568 3323
2253.44 921.038 3391
2275.55 926.742 3412
2283.71 926.742 3412
2291.87 926.742 3412
2300.03 926.742 3412
2308.19 926.742 3412
2311.6 924.841 3405
2295.9 915.334 3370
2285.5 908.001 3343
2293.49 908.001 3343
2292.53 904.47 3330
2286.68 899.037 3310
2294.6 899.037 3310
2280.25 890.346 3278
2288.09 890.346 3278
2286.82 886.815 3265
2285.49 883.284 3252
2284.1 879.753 3239
2291.85 879.753 3239
2291.07 876.494 3227
2294.52 874.864 3221
2302.22 874.864 3221
2309.92 874.864 3221
2317.62 874.864 3221
2320.27 872.963 3214
2319.27 869.703 3202
2313.84 864.814 3184
2321.46 864.814 3184
2329.07 864.814 3184
2341.09 866.444 3190
2353.13 868.074 3196
2360.78 868.074 3196
2368.42 868.074 3196
2380.52 869.703 3202
2397.13 872.963 3214
2414.54 876.494 3227
2422.26 876.494 3227
2434.49 878.123 3233
2466.4 886.815 3265
2498.45 895.506 3297
2506.34 895.506 3297
2524.14 899.037 3310
2532.05 899.037 3310
-2401.91 879.018 3208
-2398.72 880.662 3214
-2391.03 880.662 3214
-2383.34 880.662 3214
-2371.22 879.018 3208
-2363.55 879.018 3208
-2338.26 872.442 3184
-2335.03 874.086 3190
-2340.54 879.018 3208
-2332.87 879.018 3208
-2325.2 879.018 3208
-2339.92 887.512 3239
-2345.85 892.718 3258
-2361.03 901.486 3290
-2353.16 901.486 3290
-2397.33 921.489 3363
-2389.29 921.489 3363
-2381.25 921.489 3363
-2215.66 869.154 3172
-2208.08 869.154 3172
-2352.42 929.161 3391
-2344.31 929.161 3391
-2336.2 929.161 3391
-2308.87 921.489 3363
-2300.83 921.489 3363
-2270.29 912.447 3330
-2262.32 912.447 3330
-2240.82 906.967 3310
-2232.91 906.967 3310
-2260.62 921.489 3363
-2266.64 927.243 3384
-2258.55 927.243 3384
-2273.73 936.833 3419
-2274.83 940.67 3433
-2271.25 942.588 3440
-2263.02 942.588 3440
-2254.8 942.588 3440
-2246.57 942.588 3440
-2238.34 942.588 3440
-2225.58 940.67 3433
-2203.81 934.915 3412
-2191.14 932.997 3405
-2183 932.997 3405
-2165.92 929.161 3391
-2197.9 946.424 3454
-2208.02 954.37 3483
-2199.69 954.37 3483
-2191.36 954.37 3483
-2183.03 954.37 3483
-2179.07 956.288 3490
-2170.73 956.288 3490
-2162.38 956.288 3490
-2154.04 956.288 3490
-2137.08 952.452 3476
-2128.77 952.452 3476
-2035.67 914.365 3337
-2031.33 916.009 3343
-2065.1 934.915 3412
-2056.94 934.915 3412
-2048.78 934.915 3412
-2040.62 934.915 3412
-2015.78 927.243 3384
-2045.07 944.506 3447
-2036.83 944.506 3447
-2040.94 950.26 3468
-2032.65 950.26 3468
-2024.36 950.26 3468
-1991.65 938.752 3426
-1935.4 916.009 3343
-1931.44 917.927 3350
-1923.43 917.927 3350
-1915.42 917.927 3350
-1907.41 917.927 3350
-1899.4 917.927 3350
-1891.39 917.927 3350
-1876.07 914.365 3337
-1864.17 912.447 3330
-1863.46 916.009 3343
-1855.46 916.009 3343
-1847.47 916.009 3343
-1839.47 916.009 3343
-1846.27 923.407 3370
-1845.85 927.243 3384
-1837.76 927.243 3384
-1829.67 927.243 3384
-1814.04 923.407 3370
-1805.98 923.407 3370
-1783.51 916.009 3343
-1775.52 916.009 3343
-1774.93 919.845 3357
-1773.74 923.407 3370
-1765.68 923.407 3370
-1757.63 923.407 3370
-1749.57 923.407 3370
-1777.68 942.588 3440
-1769.46 942.588 3440
-1761.23 942.588 3440
-1753 942.588 3440
-1744.78 942.588 3440
-1733.02 940.67 3433
-1724.81 940.67 3433
-1709.6 936.833 3419
-1684.01 927.243 3384
-1675.91 927.243 3384
-1664.37 925.325 3377
-1652.86 923.407 3370
-1361.83 896.28 3271
-1375.53 910.529 3323
-1367.58 910.529 3323
-1365.37 914.365 3337
-1357.39 914.365 3337
-1354.66 917.927 3350
-1349.47 919.845 3357
-1343.84 921.489 3363
-1344.13 927.243 3384
-1338.81 929.161 3391
-1330.7 929.161 3391
-1330.78 934.915 3412
-1322.62 934.915 3412
-1314.46 934.915 3412
-1300.94 931.079 3398
-1290.15 929.161 3391
-1282.04 929.161 3391
-1273.94 929.161 3391
-1260.6 925.325 3377
-1257.72 929.161 3391
-1249.61 929.161 3391
-1241.5 929.161 3391
-1230.84 927.243 3384
-1222.75 927.243 3384
-1229.74 938.752 3426
-1221.54 938.752 3426
-1215.83 940.67 3433
-1219.93 950.26 3468
-1211.64 950.26 3468
-1203.35 950.26 3468
-1170.93 931.079 3398
-1160.41 929.161 3391
-1152.3 929.161 3391
-1141.83 927.243 3384
-1140.77 932.997 3405
-1132.63 932.997 3405
-1138.36 944.506 3447
-1130.12 944.506 3447
-1124.15 946.424 3454
-1120.42 950.26 3468
-1116.93 954.37 3483
-1108.6 954.37 3483
-1100.28 954.37 3483
-1085.05 948.342 3461
-1078.95 950.26 3468
-1070.66 950.26 3468
-1066.96 954.37 3483
-1060.76 956.288 3490
-1052.41 956.288 3490
-1044.07 956.288 3490
-1033.64 954.37 3483
-1020.9 950.26 3468
-1019.03 956.288 3490
-1010.68 956.288 3490
-1002.34 956.288 3490
-993.993 956.288 3490
-985.647 956.288 3490
-975.341 954.37 3483
-968.956 956.288 3490
-960.61 956.288 3490
-952.265 956.288 3490
-943.919 956.288 3490
-935.573 956.288 3490
-923.508 952.452 3476
-909.404 946.424 3454
-914.45 960.398 3505
-906.068 960.398 3505
-913.054 976.839 3565
-904.529 976.839 3565
-896.004 976.839 3565
-887.479 976.839 3565
-876.982 974.647 3557
-846.745 950.26 3468
-838.452 950.26 3468
-830.159 950.26 3468
-821.866 950.26 3468
-817.092 954.37 3483
-808.763 954.37 3483
-800.434 954.37 3483
-644.186 921.489 3363
-636.144 921.489 3363
-628.102 921.489 3363
-622.641 925.325 3377
-620.935 934.915 3412
-612.776 934.915 3412
-617.198 954.37 3483
-608.869 954.37 3483
-601.747 956.288 3490
-593.402 956.288 3490
-585.056 956.288 3490
-575.554 954.37 3483
-567.225 954.37 3483
-551.996 942.588 3440
-540.45 936.833 3419
-533.364 938.752 3426
-526.245 940.67 3433
-518.035 940.67 3433
-509.826 940.67 3433
-500.594 938.752 3426
-492.401 938.752 3426
-481.241 932.997 3405
-474.071 934.915 3412
-470.691 944.506 3447
-462.448 944.506 3447
-454.205 944.506 3447
-445.963 944.506 3447
-426.291 919.845 3357
-418.263 919.845 3357
-409.38 917.927 3350
-400.531 916.009 3343
-391.01 912.447 3330
-383.047 912.447 3330
-378.125 919.845 3357
-370.098 919.845 3357
-364.982 927.243 3384
-360.581 936.833 3419
-359.002 954.37 3483
-350.673 954.37 3483
-342.344 954.37 3483
-296.987 942.588 3440
-288.761 942.588 3440
-280.535 942.588 3440
-273.417 946.424 3454
-265.158 946.424 3454
-256.898 946.424 3454
-248.639 946.424 3454
-240.379 946.424 3454
-231.179 942.588 3440
-222.953 942.588 3440
-214.727 942.588 3440
-206.501 942.588 3440
-198.275 942.588 3440
-190.048 942.588 3440
-181.822 942.588 3440
-173.596 942.588 3440
-165.37 942.588 3440
-157.464 944.506 3447
-149.221 944.506 3447
-141.265 946.424 3454
-133.005 946.424 3454
-124.745 946.424 3454
-116.486 946.424 3454
-107.788 942.588 3440
-99.5615 942.588 3440
-91.5213 944.506 3447
-83.6167 948.342 3461
-75.3404 948.342 3461
-67.0641 948.342 3461
-58.9067 950.26 3468
-50.6137 950.26 3468
-42.3206 950.26 3468
-23.0187 642.823 2346
-17.4087 642.823 2346
-11.7987 642.823 2346
-6.18075 642.001 2343
-0.577188 641.179 2340
5.01846 641.179 2340
10.6141 641.179 2340
16.1405 638.439 2330
21.7122 638.439 2330
27.284 638.439 2330
32.8557 638.439 2330
38.4274 638.439 2330
43.9992 638.439 2330
49.5709 638.439 2330
55.0716 637.617 2327
60.6362 637.617 2327
66.087 636.521 2323
71.642 636.521 2323
76.9976 634.877 2317
82.3245 633.233 2311
87.8508 633.233 2311
93.3771 633.233 2311
98.7322 632.137 2307
104.113 631.315 2304
109.337 629.67 2298
114.833 629.67 2298
120.328 629.67 2298
125.276 626.93 2288
130.404 625.286 2282
135.682 624.464 2279
141.132 624.464 2279
146.389 623.642 2276
151.031 620.354 2264
155.961 618.436 2257
161.358 618.436 2257
166.534 617.614 2254
171.237 615.148 2245
176.37 614.326 2242
181.731 614.326 2242
186.091 611.038 2230
191.424 611.038 2230
196.492 610.216 2227
202.361 611.86 2233
208.259 613.504 2239
213.613 613.504 2239
218.967 613.504 2239
224.321 613.504 2239
229.675 613.504 2239
234.714 612.682 2236
240.383 613.504 2239
245.738 613.504 2239
251.092 613.504 2239
256.102 612.682 2236
261.449 612.682 2236
266.796 612.682 2236
272.143 612.682 2236
277.49 612.682 2236
477.669 843.397 3078
485.029 843.397 3078
492.39 843.397 3078
503.484 849.699 3101
510.9 849.699 3101
518.315 849.699 3101
526.748 851.343 3107
534.178 851.343 3107
541.607 851.343 3107
546.917 848.055 3095
550.198 841.753 3072
550.466 831.066 3033
555.696 828.052 3022
569.07 837.095 3055
576.375 837.095 3055
589.222 845.041 3084
604.334 856.001 3124
612.98 857.645 3130
620.465 857.645 3130
627.949 857.645 3130
636.652 859.289 3136
646.616 862.577 3148
654.144 862.577 3148
662.933 864.221 3154
670.475 864.221 3154
678.017 864.221 3154
685.56 864.221 3154
691.783 862.577 3148
755.444 884.224 3227
763.161 884.224 3227
773.744 887.512 3239
781.49 887.512 3239
789.235 887.512 3239
792.551 882.58 3221
798.515 880.662 3214
798.675 872.442 3184
806.289 872.442 3184
815.437 874.086 3190
823.065 874.086 3190
830.693 874.086 3190
839.898 875.73 3196
850.723 879.018 3208
858.394 879.018 3208
869.575 882.58 3221
878.912 884.224 3227
886.629 884.224 3227
894.345 884.224 3227
902.062 884.224 3227
916.827 891.074 3252
931.996 898.198 3278
939.834 898.198 3278
962.706 912.447 3330
980.289 921.489 3363
996.559 929.161 3391
1004.67 929.161 3391
1021.14 936.833 3419
1037.75 944.506 3447
1045.99 944.506 3447
1054.23 944.506 3447
1060.32 942.588 3440
1066.37 940.67 3433
1076.77 942.588 3440
1084.99 942.588 3440
1093.22 942.588 3440
1101.45 942.588 3440
1109.67 942.588 3440
1117.9 942.588 3440
1121.54 938.752 3426
1127.43 936.833 3419
1140.25 940.67 3433
1148.46 940.67 3433
1156.67 940.67 3433
1160.13 936.833 3419
1168.31 936.833 3419
1176.48 936.833 3419
1179.81 932.997 3405
1175.74 923.407 3370
1183.8 923.407 3370
1191.86 923.407 3370
1199.91 923.407 3370
1223.03 934.915 3412
1231.19 934.915 3412
1241.89 936.833 3419
1250.06 936.833 3419
1258.24 936.833 3419
1266.42 936.833 3419
1279.81 940.67 3433
1288.02 940.67 3433
1309.44 950.26 3468
1328.76 958.206 3497
1337.12 958.206 3497
1345.48 958.206 3497
1351.13 956.288 3490
1342.73 944.506 3447
1340 936.833 3419
1348.17 936.833 3419
1348.02 931.079 3398
1356.15 931.079 3398
1361.46 929.161 3391
1369.57 929.161 3391
1363.86 919.845 3357
1366.17 916.009 3343
1368.82 912.447 3330
1376.78 912.447 3330
1379.34 908.885 3317
1387.27 908.885 3317
1395.21 908.885 3317
1403.14 908.885 3317
1411.07 908.885 3317
1416.01 906.967 3310
1423.92 906.967 3310
1426.21 903.404 3297
1434.1 903.404 3297
1438.92 901.486 3290
1441.51 898.198 3278
1449.35 898.198 3278
1457.19 898.198 3278
