-1969.54 270.275 3595
-1960.94 270.275 3595
-1952.35 270.275 3595
-1935.64 269.147 3580
-1931.38 269.749 3588
-1922.8 269.749 3588
-1914.22 269.749 3588
-1901.4 269.147 3580
-1900.77 270.275 3595
-1896.38 270.876 3603
-1887.76 270.876 3603
-1887.49 272.079 3619
-1887.14 273.282 3635
-1882.07 273.808 3642
-1873.36 273.808 3642
-1864.65 273.808 3642
-1855.94 273.808 3642
-1847.23 273.808 3642
-1830.95 272.681 3627
-1833.83 274.41 3650
-1845.61 277.492 3691
-1840.76 278.094 3699
-1831.92 278.094 3699
-1823.07 278.094 3699
-1525.05 261.855 3483
-1516.72 261.855 3483
-1508.39 261.855 3483
-1500.06 261.855 3483
-1491.73 261.855 3483
-1471.05 259.674 3454
-1433.15 254.412 3384
-1416.21 252.833 3363
-1408.17 252.833 3363
-1389.3 250.878 3337
-1381.32 250.878 3337
-1373.34 250.878 3337
-1362.5 250.352 3330
-1354.54 250.352 3330
-1330.4 247.345 3290
-1320.12 246.894 3284
-1317.46 247.871 3297
-1309.58 247.871 3297
-1301.69 247.871 3297
-1286.35 246.443 3278
-1268.37 244.488 3252
-1260.6 244.488 3252
-1247.81 243.511 3239
-1235.47 242.608 3227
-1211.4 239.376 3184
-1203.78 239.376 3184
-1182.64 236.669 3148
-1172.88 236.218 3142
-1158.69 234.865 3124
-1151.22 234.865 3124
-1076.76 230.128 3061
-1071.54 230.58 3067
-1064.2 230.58 3067
-1056.87 230.58 3067
-1049.54 230.58 3067
-1040.16 230.128 3061
-1032.84 230.128 3061
-1023.51 229.677 3055
-1016.21 229.677 3055
-1008.9 229.677 3055
-1001.6 229.677 3055
-985.505 227.647 3028
-976.325 227.196 3022
-967.495 226.82 3017
-960.281 226.82 3017
-953.066 226.82 3017
-943.971 226.369 3011
-930.237 224.791 2990
-926.174 225.542 3000
-919 225.542 3000
-913.65 225.993 3006
-906.462 225.993 3006
-899.274 225.993 3006
-892.085 225.993 3006
-884.897 225.993 3006
-868.365 223.588 2974
-861.254 223.588 2974
-850.983 222.761 2963
-839.34 221.558 2947
-830.881 221.182 2942
-816.845 219.302 2917
-809.87 219.302 2917
-799.866 218.475 2906
-794.282 218.851 2911
-787.32 218.851 2911
-780.359 218.851 2911
-770.741 218.1 2901
-763.804 218.1 2901
-756.867 218.1 2901
-749.93 218.1 2901
-742.993 218.1 2901
-736.056 218.1 2901
-729.118 218.1 2901
-722.181 218.1 2901
-714.011 217.724 2896
-705.865 217.348 2891
-695.326 216.22 2876
-689.645 216.596 2881
-682.756 216.596 2881
-675.866 216.596 2881
-668.977 216.596 2881
-662.088 216.596 2881
-651.787 215.468 2866
-644.934 215.468 2866
-638.08 215.468 2866
-632.328 215.844 2871
-625.462 215.844 2871
-618.597 215.844 2871
-611.732 215.844 2871
-604.866 215.844 2871
-598.001 215.844 2871
-590.106 215.468 2866
-714.128 302.979 4030
-704.492 302.979 4030
-694.855 302.979 4030
-685.218 302.979 4030
-672.228 301.475 4010
-662.639 301.475 4010
-649.955 300.047 3991
-638.968 299.37 3982
-622.016 295.836 3935
-614.007 296.513 3944
-604.576 296.513 3944
-595.145 296.513 3944
-587.05 297.19 3953
-583.15 300.047 3991
-573.606 300.047 3991
-568.161 302.227 4020
-558.548 302.227 4020
-550.3 302.979 4030
-540.663 302.979 4030
-531.026 302.979 4030
-521.389 302.979 4030
-511.752 302.979 4030
-503.237 303.655 4039
-493.578 303.655 4039
-485.118 304.407 4049
-476.61 305.159 4059
-466.904 305.159 4059
-457.197 305.159 4059
-448.593 305.911 4069
-438.863 305.911 4069
-429.133 305.911 4069
-401.908 307.414 4089
-392.13 307.414 4089
-382.352 307.414 4089
-372.574 307.414 4089
-362.796 307.414 4089
-353.018 307.414 4089
-342.401 306.662 4079
-332.646 306.662 4079
-322.101 305.911 4069
-312.37 305.911 4069
-302.64 305.911 4069
-292.19 305.159 4059
-278.447 300.798 4001
-268.88 300.798 4001
-105.874 157.729 2098
-101.145 158.18 2104
-96.1137 158.18 2104
-91.0824 158.18 2104
-86.0511 158.18 2104
-81.0198 158.18 2104
-76.0607 158.331 2106
-71.0247 158.331 2106
-65.9886 158.331 2106
-60.8078 157.955 2101
-55.7836 157.955 2101
-50.7595 157.955 2101
-45.6701 157.729 2098
-40.6144 157.579 2096
-35.6022 157.579 2096
-30.59 157.579 2096
-25.5168 157.203 2091
-20.4872 156.978 2088
-15.4942 156.978 2088
-10.5011 156.978 2088
-5.50016 156.752 2085
-0.514289 156.752 2085
4.46729 156.602 2083
9.47105 156.978 2088
14.4641 156.978 2088
19.4851 157.203 2091
24.4853 157.203 2091
29.4855 157.203 2091
34.4857 157.203 2091
39.486 157.203 2091
44.4862 157.203 2091
49.4864 157.203 2091
54.4084 156.978 2088
59.3161 156.752 2085
64.2403 156.602 2083
69.2214 156.602 2083
74.0956 156.376 2080
78.9935 156.226 2078
83.8414 156 2075
88.8033 156 2075
93.4038 155.399 2067
98.2515 155.248 2065
102.94 154.872 2060
107.447 154.271 2052
112.354 154.271 2052
116.804 153.67 2044
121.691 153.67 2044
126.146 153.143 2037
131.017 153.143 2037
135.888 153.143 2037
141.105 153.519 2042
145.988 153.519 2042
151.018 153.67 2044
155.906 153.67 2044
160.794 153.67 2044
165.682 153.67 2044
170.987 154.045 2049
175.887 154.045 2049
181.316 154.497 2055
186.411 154.647 2057
192.074 155.248 2065
197.012 155.248 2065
202.928 156 2075
208.892 156.752 2085
215.006 157.579 2096
220.019 157.579 2096
226.426 158.556 2109
232.018 158.932 2114
237.074 158.932 2114
242.129 158.932 2114
247.184 158.932 2114
429.942 237.571 3160
437.499 237.571 3160
445.055 237.571 3160
445.737 233.963 3112
453.178 233.963 3112
459.88 233.587 3107
464.602 232.233 3089
465.113 228.85 3044
472.392 228.85 3044
477.938 228.023 3033
484.391 227.647 3028
488.872 226.369 3011
496.072 226.369 3011
502.437 225.993 3006
505.047 223.964 2979
510.28 223.137 2968
516.506 222.761 2963
523.591 222.761 2963
530.676 222.761 2963
535.947 222.009 2953
543.008 222.009 2953
550.07 222.009 2953
557.132 222.009 2953
563.047 221.558 2947
567.192 220.43 2932
574.203 220.43 2932
581.215 220.43 2932
588.226 220.43 2932
594.222 220.054 2927
601.222 220.054 2927
607.182 219.678 2922
614.169 219.678 2922
621.157 219.678 2922
628.144 219.678 2922
635.132 219.678 2922
642.119 219.678 2922
649.106 219.678 2922
656.094 219.678 2922
663.081 219.678 2922
670.068 219.678 2922
675.897 219.302 2917
684.043 219.678 2922
691.031 219.678 2922
698.018 219.678 2922
705.005 219.678 2922
711.993 219.678 2922
718.98 219.678 2922
725.968 219.678 2922
732.955 219.678 2922
739.942 219.678 2922
746.93 219.678 2922
753.917 219.678 2922
762.207 220.054 2927
769.206 220.054 2927
776.205 220.054 2927
783.205 220.054 2927
790.204 220.054 2927
797.203 220.054 2927
804.203 220.054 2927
811.202 220.054 2927
818.201 220.054 2927
825.201 220.054 2927
832.2 220.054 2927
839.199 220.054 2927
846.199 220.054 2927
851.741 219.678 2922
858.728 219.678 2922
865.715 219.678 2922
872.703 219.678 2922
879.69 219.678 2922
886.677 219.678 2922
893.665 219.678 2922
900.652 219.678 2922
906.087 219.302 2917
913.062 219.302 2917
920.037 219.302 2917
925.106 218.851 2911
932.067 218.851 2911
939.028 218.851 2911
945.989 218.851 2911
952.95 218.851 2911
1399.02 301.475 4010
1408.61 301.475 4010
1418.2 301.475 4010
1417.82 299.37 3982
1416.95 297.19 3953
1426.4 297.19 3953
1425.68 295.085 3925
1428.49 293.731 3907
1427.89 291.702 3880
1420.5 288.318 3835
1429.68 288.318 3835
1422.71 285.086 3792
1412.15 281.176 3740
1415.01 279.973 3724
1423.92 279.973 3724
1429.74 279.372 3716
1428.95 277.492 3691
1434.66 276.891 3683
1443.47 276.891 3683
1449.12 276.289 3675
1457.91 276.289 3675
1450.73 273.282 3635
1440.55 269.749 3588
1449.13 269.749 3588
1432.93 265.163 3527
1411.53 259.674 3454
1402.53 256.517 3412
1410.69 256.517 3412
1390.15 251.329 3343
1378.91 247.871 3297
1367.86 244.488 3252
1354.49 240.729 3202
1362.15 240.729 3202
1369.8 240.729 3202
1407.14 245.916 3271
1446.11 251.329 3343
1487.16 257.043 3419
1495.34 257.043 3419
1515.83 259.148 3447
1530.26 260.201 3461
1538.54 260.201 3461
1546.81 260.201 3461
1564.98 261.855 3483
1573.3 261.855 3483
1581.63 261.855 3483
1424.9 226.369 3011
1432.1 226.369 3011
1439.3 226.369 3011
1441.22 225.542 3000
1435.84 223.588 2974
1442.95 223.588 2974
1432.02 220.806 2937
1436.59 220.43 2932
1441.14 220.054 2927
1445.67 219.678 2922
1452.66 219.678 2922
1457.15 219.302 2917
1458.6 218.475 2906
1463.03 218.1 2901
1469.96 218.1 2901
1471.81 217.348 2891
1478.72 217.348 2891
1483.07 216.972 2886
1489.97 216.972 2886
1489.09 215.844 2871
1495.96 215.844 2871
1502.82 215.844 2871
1507.06 215.468 2866
1513.91 215.468 2866
1520.76 215.468 2866
1522.82 214.792 2857
1529.65 214.792 2857
1536.48 214.792 2857
1540.62 214.416 2852
1547.44 214.416 2852
1551.53 214.04 2847
1558.34 214.04 2847
1562.4 213.664 2842
1569.19 213.664 2842
1581.54 214.416 2852
1588.36 214.416 2852
1595.18 214.416 2852
1602 214.416 2852
1606 214.04 2847
1612.8 214.04 2847
1619.61 214.04 2847
1626.42 214.04 2847
1633.23 214.04 2847
1642.92 214.416 2852
1649.74 214.416 2852
1656.56 214.416 2852
1663.38 214.416 2852
1670.2 214.416 2852
1677.02 214.416 2852
1683.84 214.416 2852
1687.69 214.04 2847
1694.5 214.04 2847
1701.31 214.04 2847
1705.12 213.664 2842
1708.9 213.288 2837
1715.68 213.288 2837
1719.43 212.912 2832
1726.2 212.912 2832
1727.47 212.235 2823
1734.22 212.235 2823
1737.89 211.859 2818
1744.63 211.859 2818
1751.36 211.859 2818
1754.98 211.484 2813
1761.71 211.484 2813
1768.44 211.484 2813
1772.64 211.183 2809
1773.02 210.431 2799
1779.72 210.431 2799
1786.41 210.431 2799
1789.9 210.055 2794
1796.58 210.055 2794
1800.68 209.754 2790
1807.35 209.754 2790
1814.02 209.754 2790
1820.7 209.754 2790
1827.37 209.754 2790
1830.75 209.379 2785
1837.41 209.379 2785
1840.76 209.003 2780
1847.41 209.003 2780
1854.06 209.003 2780
1860.7 209.003 2780
1867.35 209.003 2780
1874 209.003 2780
1877.94 208.702 2776
1884.58 208.702 2776
1891.22 208.702 2776
1894.44 208.326 2771
1901.06 208.326 2771
1907.69 208.326 2771
1914.32 208.326 2771
1920.94 208.326 2771
1917.83 207.273 2757
1921.63 206.973 2753
1928.22 206.973 2753
1934.8 206.973 2753
1935.04 206.296 2744
1938.06 205.92 2739
1944.61 205.92 2739
1948.31 205.619 2735
1954.85 205.619 2735
1957.8 205.244 2730
1964.33 205.244 2730
1964.36 204.567 2721
1965.08 203.966 2713
1971.56 203.966 2713
1978.05 203.966 2713
1984.54 203.966 2713
1991.03 203.966 2713
2003.4 204.567 2721
2009.91 204.567 2721
2016.42 204.567 2721
2010.29 203.289 2704
2016.75 203.289 2704
2019.48 202.913 2699
2025.93 202.913 2699
2016.57 201.334 2678
2022.97 201.334 2678
2029.38 201.334 2678
2035.78 201.334 2678
2042.19 201.334 2678
2048.59 201.334 2678
-2088.94 216.438 2790
-2085.26 216.748 2794
-2082.29 217.136 2799
-2075.6 217.136 2799
-2068.91 217.136 2799
-2062.21 217.136 2799
-2055.52 217.136 2799
-2048.83 217.136 2799
-2042.13 217.136 2799
-2035.44 217.136 2799
-2028.75 217.136 2799
-2018.44 216.748 2794
-2005.28 216.05 2785
-2005.08 216.748 2794
-2005.55 217.524 2804
-1998.85 217.524 2804
-1998.53 218.222 2813
-1991.81 218.222 2813
-1992.14 218.998 2823
-1985.39 218.998 2823
-1978.64 218.998 2823
-1975.38 219.386 2828
-1968.62 219.386 2828
-1961.85 219.386 2828
-2093.61 277.103 3572
-2085.06 277.103 3572
-2076.52 277.103 3572
-2063.93 276.56 3565
-2055.4 276.56 3565
-2046.88 276.56 3565
-2038.35 276.56 3565
-2029.83 276.56 3565
-2012.23 275.318 3549
-2003.74 275.318 3549
-1995.26 275.318 3549
-1999.65 277.103 3572
-1991.11 277.103 3572
-1982.56 277.103 3572
-1974.02 277.103 3572
-1961.63 276.56 3565
-1953.1 276.56 3565
-1952.76 277.723 3580
-1944.2 277.723 3580
-1935.64 277.723 3580
-1931.38 278.344 3588
-1922.8 278.344 3588
-1914.22 278.344 3588
-1901.4 277.723 3580
-1900.77 278.887 3595
-1896.38 279.507 3603
-1887.76 279.507 3603
-1887.49 280.749 3619
-1887.14 281.99 3635
-1882.07 282.533 3642
-1873.36 282.533 3642
-1864.65 282.533 3642
-1855.94 282.533 3642
-1847.23 282.533 3642
-1830.95 281.369 3627
-1833.83 283.154 3650
-1845.61 286.334 3691
-1840.76 286.955 3699
-1831.92 286.955 3699
-1823.07 286.955 3699
-1810.3 286.334 3691
-1947.9 309.607 3991
-1938.35 309.607 3991
-1928.81 309.607 3991
-1928.4 311.081 4010
-1918.81 311.081 4010
-1909.23 311.081 4010
-1912.81 316.434 4079
-1903.06 316.434 4079
-1893.31 316.434 4079
-1883.55 316.434 4079
-1873.8 316.434 4079
-1864.04 316.434 4079
-1525.05 270.198 3483
-1516.72 270.198 3483
-1508.39 270.198 3483
-1500.06 270.198 3483
-1491.73 270.198 3483
-1471.05 267.949 3454
-1439.08 263.604 3398
-1416.21 260.889 3363
-1408.17 260.889 3363
-1389.3 258.872 3337
-1381.32 258.872 3337
-1373.34 258.872 3337
-1362.5 258.329 3330
-1354.54 258.329 3330
-1341.32 257.321 3317
-1325.35 255.769 3297
-1317.46 255.769 3297
-1309.58 255.769 3297
-1301.69 255.769 3297
-1291.06 255.226 3290
-1268.37 252.278 3252
-1260.6 252.278 3252
-1247.81 251.27 3239
-1235.47 250.339 3227
-1211.4 247.003 3184
-1203.78 247.003 3184
-1182.64 244.21 3148
-1172.88 243.745 3142
-1158.69 242.348 3124
-1151.22 242.348 3124
-1108.6 234.901 3028
-1076.76 237.461 3061
-1071.54 237.927 3067
-1064.2 237.927 3067
-1056.87 237.927 3067
-1049.54 237.927 3067
-1040.16 237.461 3061
-1032.84 237.461 3061
-1023.51 236.996 3055
-1016.21 236.996 3055
-1008.9 236.996 3055
-1001.6 236.996 3055
-994.292 236.996 3055
-976.325 234.436 3022
-967.495 234.048 3017
-960.281 234.048 3017
-953.066 234.048 3017
-943.971 233.582 3011
-930.237 231.953 2990
-928.027 233.194 3006
-920.838 233.194 3006
-913.65 233.194 3006
-909.779 234.048 3017
-902.564 234.048 3017
-895.35 234.048 3017
-886.369 233.582 3011
-879.169 233.582 3011
-871.969 233.582 3011
-855.578 231.1 2979
-843.897 229.859 2963
-836.812 229.859 2963
-829.726 229.859 2963
-816.81 228.23 2942
-805.647 227.066 2927
-795.919 226.29 2917
-788.943 226.29 2917
-781.968 226.29 2917
-774.992 226.29 2917
-768.017 226.29 2917
-761.042 226.29 2917
-754.066 226.29 2917
-745.554 225.825 2911
-738.593 225.825 2911
-730.375 225.437 2906
-723.426 225.437 2906
-715.244 225.049 2901
-707.086 224.661 2896
-695.326 223.109 2876
-689.645 223.497 2881
-682.756 223.497 2881
-675.866 223.497 2881
-668.977 223.497 2881
-662.088 223.497 2881
-651.787 222.334 2866
-644.934 222.334 2866
-638.08 222.334 2866
-632.328 222.722 2871
-625.462 222.722 2871
-618.597 222.722 2871
-611.732 222.722 2871
-604.866 222.722 2871
-598.001 222.722 2871
-590.106 222.334 2866
-582.438 222.023 2862
-714.128 312.633 4030
-704.492 312.633 4030
-694.855 312.633 4030
-685.218 312.633 4030
-672.228 311.081 4010
-662.639 311.081 4010
-649.955 309.607 3991
-638.968 308.909 3982
-622.016 305.263 3935
-614.007 305.961 3944
-604.576 305.961 3944
-595.145 305.961 3944
-587.05 306.659 3953
-585.926 311.081 4010
-576.337 311.081 4010
-568.161 311.857 4020
-558.548 311.857 4020
-550.3 312.633 4030
-540.663 312.633 4030
-531.026 312.633 4030
-522.554 313.331 4039
-512.895 313.331 4039
-503.237 313.331 4039
-496.022 314.882 4059
-486.316 314.882 4059
-476.61 314.882 4059
-468.054 315.658 4069
-458.324 315.658 4069
-448.593 315.658 4069
-438.863 315.658 4069
-431.242 317.21 4089
-421.464 317.21 4089
-411.686 317.21 4089
-401.908 317.21 4089
-392.13 317.21 4089
-382.352 317.21 4089
-372.574 317.21 4089
-362.796 317.21 4089
-353.018 317.21 4089
-342.401 316.434 4079
-332.646 316.434 4079
-322.101 315.658 4069
-312.37 315.658 4069
-302.64 315.658 4069
-292.19 314.882 4059
-278.447 310.383 4001
-268.88 310.383 4001
-255.618 305.961 3944
-105.874 162.755 2098
-101.145 163.221 2104
-96.1137 163.221 2104
-91.0824 163.221 2104
-86.0511 163.221 2104
-81.0198 163.221 2104
-76.0607 163.376 2106
-71.0247 163.376 2106
-65.9886 163.376 2106
-60.8078 162.988 2101
-55.7836 162.988 2101
-50.7595 162.988 2101
-45.6701 162.755 2098
-40.6144 162.6 2096
-35.6022 162.6 2096
-30.59 162.6 2096
-25.5168 162.212 2091
-20.4872 161.979 2088
-15.4942 161.979 2088
-10.5011 161.979 2088
-5.50016 161.747 2085
-0.514289 161.747 2085
4.46729 161.591 2083
9.47105 161.979 2088
14.4641 161.979 2088
19.4851 162.212 2091
24.4853 162.212 2091
29.4855 162.212 2091
34.4857 162.212 2091
39.486 162.212 2091
44.4862 162.212 2091
49.4864 162.212 2091
54.4084 161.979 2088
59.3161 161.747 2085
64.2403 161.591 2083
69.2214 161.591 2083
74.0956 161.359 2080
78.9935 161.204 2078
83.9626 161.204 2078
88.9317 161.204 2078
93.7653 160.971 2075
98.3466 160.35 2067
103.04 159.962 2062
107.866 159.807 2060
112.792 159.807 2060
117.261 159.187 2052
121.989 158.954 2049
126.889 158.954 2049
131.789 158.954 2049
136.688 158.954 2049
141.796 159.187 2052
147.06 159.574 2057
151.979 159.574 2057
156.898 159.574 2057
161.817 159.574 2057
166.979 159.807 2060
171.905 159.807 2060
176.831 159.807 2060
182.198 160.195 2065
187.136 160.195 2065
193.004 160.971 2075
197.966 160.971 2075
203.906 161.747 2085
209.994 162.6 2096
215.827 163.221 2104
220.858 163.221 2104
227.607 164.462 2120
233.555 165.082 2128
239.541 165.703 2136
244.649 165.703 2136
249.756 165.703 2136
429.942 245.141 3160
437.499 245.141 3160
445.055 245.141 3160
445.737 241.417 3112
453.178 241.417 3112
459.88 241.03 3107
464.602 239.633 3089
465.113 236.142 3044
472.392 236.142 3044
477.938 235.289 3033
485.191 235.289 3033
489.846 234.048 3017
497.061 234.048 3017
503.272 233.582 3011
505.047 231.1 2979
511.311 230.712 2974
517.377 230.246 2968
524.475 230.246 2968
531.572 230.246 2968
537.762 229.859 2963
543.928 229.471 2958
551.001 229.471 2958
558.075 229.471 2958
564.193 229.083 2953
568.159 227.842 2937
575.183 227.842 2937
582.206 227.842 2937
589.229 227.842 2937
595.237 227.454 2932
602.249 227.454 2932
607.182 226.678 2922
614.169 226.678 2922
621.157 226.678 2922
628.144 226.678 2922
635.132 226.678 2922
642.119 226.678 2922
649.106 226.678 2922
656.094 226.678 2922
663.081 226.678 2922
670.068 226.678 2922
675.897 226.29 2917
684.043 226.678 2922
691.031 226.678 2922
698.018 226.678 2922
705.005 226.678 2922
711.993 226.678 2922
718.98 226.678 2922
725.968 226.678 2922
732.955 226.678 2922
739.942 226.678 2922
746.93 226.678 2922
753.917 226.678 2922
762.207 227.066 2927
769.206 227.066 2927
776.205 227.066 2927
783.205 227.066 2927
790.204 227.066 2927
797.203 227.066 2927
804.203 227.066 2927
811.202 227.066 2927
818.201 227.066 2927
825.201 227.066 2927
832.2 227.066 2927
839.199 227.066 2927
846.199 227.066 2927
851.741 226.678 2922
858.728 226.678 2922
865.715 226.678 2922
872.703 226.678 2922
879.69 226.678 2922
886.677 226.678 2922
893.665 226.678 2922
900.652 226.678 2922
906.087 226.29 2917
913.062 226.29 2917
920.037 226.29 2917
925.106 225.825 2911
932.067 225.825 2911
939.028 225.825 2911
945.989 225.825 2911
952.95 225.825 2911
1399.02 311.081 4010
1408.61 311.081 4010
1418.2 311.081 4010
1417.82 308.909 3982
1416.95 306.659 3953
1426.4 306.659 3953
1425.68 304.487 3925
1428.49 303.091 3907
1427.89 300.996 3880
1420.5 297.505 3835
1429.68 297.505 3835
1422.71 294.169 3792
1412.15 290.135 3740
1415.01 288.894 3724
1423.92 288.894 3724
1429.74 288.274 3716
1428.95 286.334 3691
1434.66 285.714 3683
1443.47 285.714 3683
1449.12 285.093 3675
1457.91 285.093 3675
1450.73 281.99 3635
1440.55 278.344 3588
1449.13 278.344 3588
1432.93 273.612 3527
1408.67 267.406 3447
1402.53 264.69 3412
1410.69 264.69 3412
1390.15 259.338 3343
1378.91 255.769 3297
1367.86 252.278 3252
1354.49 248.399 3202
1362.15 248.399 3202
1369.8 248.399 3202
1407.14 253.752 3271
1446.11 259.338 3343
1487.16 265.233 3419
1495.34 265.233 3419
1515.83 267.406 3447
1530.26 268.492 3461
1538.54 268.492 3461
1546.81 268.492 3461
1564.98 270.198 3483
1573.3 270.198 3483
1581.63 270.198 3483
1441.24 237.461 3061
1448.56 237.461 3061
1455.88 237.461 3061
1444.56 234.436 3022
1441.22 232.729 3000
1435.84 230.712 2974
1442.95 230.712 2974
1432.02 227.842 2937
1436.59 227.454 2932
1441.14 227.066 2927
1445.67 226.678 2922
1452.66 226.678 2922
1454.15 225.825 2911
1458.6 225.437 2906
1457.98 224.273 2891
1464.9 224.273 2891
1471.81 224.273 2891
1478.72 224.273 2891
1480.5 223.497 2881
1487.39 223.497 2881
1489.09 222.722 2871
1495.96 222.722 2871
1500.2 222.334 2866
1507.06 222.334 2866
1513.91 222.334 2866
1515.99 221.636 2857
1522.82 221.636 2857
1526.98 221.248 2852
1533.8 221.248 2852
1540.62 221.248 2852
1544.72 220.86 2847
1548.81 220.472 2842
1555.6 220.472 2842
1559.65 220.084 2837
1566.43 220.084 2837
1578.76 220.86 2847
1585.57 220.86 2847
1592.38 220.86 2847
1599.19 220.86 2847
1606 220.86 2847
1612.8 220.86 2847
1619.61 220.86 2847
1626.42 220.86 2847
1633.23 220.86 2847
1642.92 221.248 2852
1649.74 221.248 2852
1656.56 221.248 2852
1663.38 221.248 2852
1670.2 221.248 2852
1677.02 221.248 2852
1683.84 221.248 2852
1690.66 221.248 2852
1694.5 220.86 2847
1701.31 220.86 2847
1705.12 220.472 2842
1711.91 220.472 2842
1715.68 220.084 2837
1722.47 220.084 2837
1729.25 220.084 2837
1727.47 218.998 2823
1734.22 218.998 2823
1740.97 218.998 2823
1747.72 218.998 2823
1751.36 218.61 2818
1754.98 218.222 2813
1761.71 218.222 2813
1768.44 218.222 2813
1772.64 217.912 2809
1776.19 217.524 2804
1779.72 217.136 2799
1786.41 217.136 2799
1789.9 216.748 2794
1796.58 216.748 2794
1800.68 216.438 2790
1807.35 216.438 2790
1814.02 216.438 2790
1820.7 216.438 2790
1827.37 216.438 2790
1830.75 216.05 2785
1837.41 216.05 2785
1840.76 215.662 2780
1847.41 215.662 2780
1854.06 215.662 2780
1860.7 215.662 2780
1867.35 215.662 2780
1874 215.662 2780
1877.94 215.352 2776
1884.58 215.352 2776
1891.22 215.352 2776
1894.44 214.964 2771
1901.06 214.964 2771
1907.69 214.964 2771
1914.32 214.964 2771
1920.94 214.964 2771
1917.83 213.878 2757
1924.42 213.878 2757
1931.02 213.878 2757
1934.8 213.568 2753
1935.04 212.869 2744
1941.6 212.869 2744
1948.16 212.869 2744
1954.72 212.869 2744
1957.71 212.482 2739
1961.39 212.171 2735
1967.93 212.171 2735
1967.97 211.473 2726
1970.87 211.085 2721
1971.56 210.465 2713
1978.05 210.465 2713
1990.39 211.085 2721
1996.9 211.085 2721
2003.4 211.085 2721
2009.91 211.085 2721
2016.42 211.085 2721
2013.26 210.077 2708
2019.73 210.077 2708
2019.48 209.378 2699
2025.93 209.378 2699
2029.37 209.068 2695
2022.97 207.749 2678
2029.38 207.749 2678
2035.78 207.749 2678
2042.19 207.749 2678
2048.59 207.749 2678
-2088.94 223.121 2790
-2085.26 223.441 2794
-2082.29 223.841 2799
-2075.6 223.841 2799
-2068.91 223.841 2799
-2065.9 224.241 2804
-2059.19 224.241 2804
-2052.49 224.241 2804
-2045.78 224.241 2804
-2039.08 224.241 2804
-2032.37 224.241 2804
-2015.55 223.121 2790
-2005.28 222.722 2785
-2005.08 223.441 2794
-2005.55 224.241 2804
-1998.85 224.241 2804
-1998.53 224.961 2813
-1991.81 224.961 2813
-1992.14 225.76 2823
-1985.39 225.76 2823
-1978.64 225.76 2823
-1981.66 226.88 2837
-1985.32 228.08 2852
-1978.5 228.08 2852
-1971.68 228.08 2852
-2093.61 285.659 3572
-2085.06 285.659 3572
-2076.52 285.659 3572
-2063.93 285.1 3565
-2055.4 285.1 3565
-2046.88 285.1 3565
-2038.35 285.1 3565
-2029.83 285.1 3565
-2012.23 283.82 3549
-2003.74 283.82 3549
-1995.26 283.82 3549
-1999.65 285.659 3572
-1991.11 285.659 3572
-1982.56 285.659 3572
-1974.02 285.659 3572
-1961.63 285.1 3565
-1953.1 285.1 3565
-1948.4 285.659 3572
-1939.85 285.659 3572
-1931.31 285.659 3572
-1927.08 286.299 3580
-1918.52 286.299 3580
-1909.96 286.299 3580
-1897.15 285.659 3572
-1888.6 285.659 3572
-1892.17 287.499 3595
-1883.57 287.499 3595
-1879.15 288.138 3603
-1878.84 289.418 3619
-1874.32 290.058 3627
-1865.64 290.058 3627
-1856.97 290.058 3627
-1848.3 290.058 3627
-1839.62 290.058 3627
-1830.95 290.058 3627
-1829.81 291.257 3642
-1845.61 295.176 3691
-1840.76 295.816 3699
-1831.92 295.816 3699
-1823.07 295.816 3699
-1810.3 295.176 3691
-1947.9 319.168 3991
-1938.35 319.168 3991
-1928.81 319.168 3991
-1928.4 320.687 4010
-1918.81 320.687 4010
-1909.23 320.687 4010
-1912.81 326.205 4079
-1903.06 326.205 4079
-1893.31 326.205 4079
-1883.55 326.205 4079
-1873.8 326.205 4079
-1864.04 326.205 4079
-1525.05 278.542 3483
-1516.72 278.542 3483
-1508.39 278.542 3483
-1497.05 277.982 3476
-1488.74 277.982 3476
-1471.05 276.223 3454
-1439.08 271.744 3398
-1410.74 267.906 3350
-1402.73 267.906 3350
-1386.39 266.306 3330
-1375.53 265.746 3323
-1367.58 265.746 3323
-1359.64 265.746 3323
-1351.69 265.746 3323
-1341.32 265.267 3317
-1325.35 263.667 3297
-1317.46 263.667 3297
-1309.58 263.667 3297
-1301.69 263.667 3297
-1291.06 263.107 3290
-1268.37 260.068 3252
-1260.6 260.068 3252
-1245.5 258.549 3233
-1235.47 258.069 3227
-1211.4 254.63 3184
-1203.78 254.63 3184
-1182.64 251.751 3148
-1172.88 251.271 3142
-1158.69 249.832 3124
-1151.22 249.832 3124
-1108.6 242.155 3028
-1069.02 243.034 3039
-1069.44 244.794 3061
-1062.12 244.794 3061
-1054.8 244.794 3061
-1047.48 244.794 3061
-1036.43 243.914 3050
-1029.13 243.914 3050
-1021.84 243.914 3050
-1016.21 244.314 3055
-1008.9 244.314 3055
-1001.6 244.314 3055
-994.292 244.314 3055
-974.71 241.275 3017
-967.495 241.275 3017
-960.281 241.275 3017
-951.171 240.795 3011
-938.955 239.516 2995
-930.237 239.116 2990
-928.027 240.395 3006
-920.838 240.395 3006
-913.65 240.395 3006
-909.779 241.275 3017
-902.564 241.275 3017
-895.35 241.275 3017
-886.369 240.795 3011
-879.169 240.795 3011
-871.969 240.795 3011
-855.578 238.236 2979
-843.897 236.956 2963
-836.812 236.956 2963
-829.726 236.956 2963
-816.81 235.277 2942
-805.647 234.078 2927
-795.919 233.278 2917
-788.943 233.278 2917
-781.968 233.278 2917
-774.992 233.278 2917
-768.017 233.278 2917
-761.042 233.278 2917
-754.066 233.278 2917
-745.554 232.798 2911
-738.593 232.798 2911
-730.375 232.398 2906
-723.426 232.398 2906
-715.244 231.998 2901
-707.086 231.598 2896
-695.326 229.999 2876
-689.645 230.399 2881
-682.756 230.399 2881
-675.866 230.399 2881
-668.977 230.399 2881
-662.088 230.399 2881
-651.787 229.199 2866
-644.934 229.199 2866
-638.08 229.199 2866
-632.328 229.599 2871
-625.462 229.599 2871
-618.597 229.599 2871
-611.732 229.599 2871
-604.866 229.599 2871
-598.001 229.599 2871
-590.106 229.199 2866
-582.438 228.879 2862
-704.492 322.286 4030
-694.855 322.286 4030
-685.218 322.286 4030
-672.228 320.687 4010
-662.639 320.687 4010
-649.955 319.168 3991
-638.968 318.448 3982
-622.016 314.689 3935
-614.007 315.409 3944
-604.576 315.409 3944
-595.145 315.409 3944
-587.05 316.129 3953
-585.926 320.687 4010
-576.337 320.687 4010
-568.161 321.487 4020
-558.548 321.487 4020
-550.3 322.286 4030
-540.663 322.286 4030
-531.026 322.286 4030
-522.554 323.006 4039
-512.895 323.006 4039
-503.237 323.006 4039
-496.022 324.606 4059
-486.316 324.606 4059
-476.61 324.606 4059
-468.054 325.405 4069
-458.324 325.405 4069
-448.593 325.405 4069
-438.863 325.405 4069
-431.242 327.005 4089
-421.464 327.005 4089
-411.686 327.005 4089
-401.908 327.005 4089
-392.13 327.005 4089
-382.352 327.005 4089
-371.663 326.205 4079
-361.909 326.205 4079
-352.155 326.205 4079
-339.043 323.006 4039
-329.384 323.006 4039
-319.726 323.006 4039
-310.067 323.006 4039
-300.409 323.006 4039
-289.383 321.487 4020
-278.447 319.967 4001
-268.88 319.967 4001
-255.618 315.409 3944
-105.52 167.221 2091
-100.76 167.621 2096
-95.7483 167.621 2096
-90.7361 167.621 2096
-85.9284 168.021 2101
-80.9043 168.021 2101
-75.8801 168.021 2101
-70.856 168.021 2101
-65.8319 168.021 2101
-60.8078 168.021 2101
-55.7836 168.021 2101
-50.6387 167.621 2096
-45.6265 167.621 2096
-40.6144 167.621 2096
-35.6022 167.621 2096
-30.5462 167.381 2093
-25.4802 166.981 2088
-20.4872 166.981 2088
-15.4719 166.741 2085
-10.486 166.741 2085
-5.50016 166.741 2085
-0.513796 166.581 2083
4.46729 166.581 2083
9.47105 166.981 2088
14.4641 166.981 2088
19.4571 166.981 2088
24.4853 167.221 2091
29.4855 167.221 2091
34.4857 167.221 2091
39.486 167.221 2091
44.4862 167.221 2091
49.4864 167.221 2091
54.4084 166.981 2088
59.3161 166.741 2085
64.2403 166.581 2083
69.2214 166.581 2083
74.0956 166.341 2080
78.9935 166.181 2078
83.9626 166.181 2078
88.9317 166.181 2078
93.7653 165.942 2075
98.3466 165.302 2067
103.04 164.902 2062
107.866 164.742 2060
112.792 164.742 2060
117.261 164.102 2052
121.989 163.862 2049
126.889 163.862 2049
131.789 163.862 2049
136.688 163.862 2049
141.796 164.102 2052
147.06 164.502 2057
151.979 164.502 2057
156.898 164.502 2057
161.817 164.502 2057
166.979 164.742 2060
171.905 164.742 2060
176.831 164.742 2060
182.198 165.142 2065
187.136 165.142 2065
193.004 165.942 2075
197.966 165.942 2075
203.906 166.741 2085
209.994 167.621 2096
215.827 168.261 2104
220.858 168.261 2104
227.607 169.54 2120
233.555 170.18 2128
239.541 170.82 2136
244.649 170.82 2136
249.756 170.82 2136
431.957 245.274 3067
442.442 247.033 3089
449.829 247.033 3089
457.216 247.033 3089
461.293 245.274 3067
464.349 243.034 3039
471.616 243.034 3039
477.938 242.555 3033
485.191 242.555 3033
489.846 241.275 3017
497.061 241.275 3017
503.272 240.795 3011
505.047 238.236 2979
511.311 237.836 2974
517.377 237.356 2968
524.475 237.356 2968
531.572 237.356 2968
537.762 236.956 2963
543.928 236.557 2958
551.001 236.557 2958
558.075 236.557 2958
564.193 236.157 2953
568.159 234.877 2937
575.183 234.877 2937
582.206 234.877 2937
589.229 234.877 2937
595.237 234.477 2932
602.249 234.477 2932
607.182 233.678 2922
614.169 233.678 2922
621.157 233.678 2922
628.144 233.678 2922
635.132 233.678 2922
642.119 233.678 2922
649.106 233.678 2922
656.094 233.678 2922
663.081 233.678 2922
670.068 233.678 2922
675.897 233.278 2917
684.043 233.678 2922
691.031 233.678 2922
698.018 233.678 2922
705.005 233.678 2922
711.993 233.678 2922
718.98 233.678 2922
725.968 233.678 2922
732.955 233.678 2922
739.942 233.678 2922
746.93 233.678 2922
753.917 233.678 2922
762.207 234.078 2927
769.206 234.078 2927
776.205 234.078 2927
783.205 234.078 2927
790.204 234.078 2927
797.203 234.078 2927
804.203 234.078 2927
811.202 234.078 2927
818.201 234.078 2927
825.201 234.078 2927
832.2 234.078 2927
839.199 234.078 2927
846.199 234.078 2927
851.741 233.678 2922
858.728 233.678 2922
865.715 233.678 2922
872.703 233.678 2922
879.69 233.678 2922
886.677 233.678 2922
893.665 233.678 2922
900.652 233.678 2922
906.087 233.278 2917
913.062 233.278 2917
920.037 233.278 2917
927.013 233.278 2917
933.988 233.278 2917
940.964 233.278 2917
947.939 233.278 2917
954.915 233.278 2917
1399.02 320.687 4010
1408.61 320.687 4010
1418.2 320.687 4010
1417.82 318.448 3982
1416.95 316.129 3953
1426.4 316.129 3953
1422.41 313.17 3916
1425.2 311.73 3898
1424.58 309.571 3871
1420.5 306.692 3835
1429.68 306.692 3835
1422.71 303.253 3792
1412.15 299.095 3740
1415.01 297.815 3724
1423.92 297.815 3724
1429.74 297.175 3716
1428.95 295.176 3691
1434.66 294.536 3683
1443.47 294.536 3683
1449.12 293.896 3675
1457.91 293.896 3675
1450.73 290.698 3635
1440.55 286.939 3588
1449.13 286.939 3588
1432.93 282.061 3527
1408.67 275.663 3447
1402.53 272.864 3412
1410.69 272.864 3412
1390.15 267.346 3343
1378.91 263.667 3297
1367.86 260.068 3252
1354.49 256.07 3202
1362.15 256.07 3202
1369.8 256.07 3202
1407.14 261.588 3271
1446.11 267.346 3343
1487.16 273.424 3419
1495.34 273.424 3419
1515.83 275.663 3447
1530.26 276.782 3461
1538.54 276.782 3461
1546.81 276.782 3461
1564.98 278.542 3483
1573.3 278.542 3483
1581.63 278.542 3483
1441.24 244.794 3061
1448.56 244.794 3061
1455.88 244.794 3061
1444.56 241.675 3022
1441.22 239.915 3000
1435.84 237.836 2974
1442.95 237.836 2974
1432.02 234.877 2937
1436.59 234.477 2932
1441.14 234.078 2927
1445.67 233.678 2922
1452.66 233.678 2922
1454.15 232.798 2911
1458.6 232.398 2906
1457.98 231.199 2891
1464.9 231.199 2891
1471.81 231.199 2891
1478.72 231.199 2891
1480.5 230.399 2881
1487.39 230.399 2881
1489.09 229.599 2871
1495.96 229.599 2871
1500.2 229.199 2866
1507.06 229.199 2866
1513.91 229.199 2866
1515.99 228.479 2857
1522.82 228.479 2857
1526.98 228.08 2852
1533.8 228.08 2852
1540.62 228.08 2852
1544.72 227.68 2847
1548.81 227.28 2842
1555.6 227.28 2842
1559.65 226.88 2837
1566.43 226.88 2837
1578.76 227.68 2847
1585.57 227.68 2847
1592.38 227.68 2847
1599.19 227.68 2847
1606 227.68 2847
1612.8 227.68 2847
1619.61 227.68 2847
1626.42 227.68 2847
1633.23 227.68 2847
1642.92 228.08 2852
1649.74 228.08 2852
1656.56 228.08 2852
1663.38 228.08 2852
1670.2 228.08 2852
1677.02 228.08 2852
1683.84 228.08 2852
1690.66 228.08 2852
1694.5 227.68 2847
1701.31 227.68 2847
1705.12 227.28 2842
1711.91 227.28 2842
1715.68 226.88 2837
1722.47 226.88 2837
1729.25 226.88 2837
1727.47 225.76 2823
1734.22 225.76 2823
1740.97 225.76 2823
1747.72 225.76 2823
1751.36 225.361 2818
1754.98 224.961 2813
1761.71 224.961 2813
1768.44 224.961 2813
1772.64 224.641 2809
1776.19 224.241 2804
1779.72 223.841 2799
1786.41 223.841 2799
1789.9 223.441 2794
1796.58 223.441 2794
1800.68 223.121 2790
1807.35 223.121 2790
1814.02 223.121 2790
1820.7 223.121 2790
1827.37 223.121 2790
1830.75 222.722 2785
1837.41 222.722 2785
1840.76 222.322 2780
1847.41 222.322 2780
1854.06 222.322 2780
1860.7 222.322 2780
1867.35 222.322 2780
1874 222.322 2780
1877.94 222.002 2776
1884.58 222.002 2776
1891.22 222.002 2776
1894.44 221.602 2771
1901.06 221.602 2771
1907.69 221.602 2771
1914.32 221.602 2771
1920.94 221.602 2771
1917.83 220.482 2757
1924.42 220.482 2757
1931.02 220.482 2757
1937.61 220.482 2757
1937.86 219.763 2748
1941.6 219.443 2744
1948.16 219.443 2744
1954.72 219.443 2744
1961.28 219.443 2744
1967.84 219.443 2744
1974.41 219.443 2744
1970.86 218.323 2730
1974.49 218.003 2726
1977.38 217.603 2721
1983.88 217.603 2721
1990.39 217.603 2721
1996.9 217.603 2721
2007.08 218.003 2726
2013.6 218.003 2726
2020.12 218.003 2726
2026.64 218.003 2726
2029.43 217.603 2721
2029.95 216.964 2713
2036.44 216.964 2713
2032.38 215.844 2699
2029.02 214.804 2686
2035.44 214.804 2686
2041.86 214.804 2686
2048.29 214.804 2686
2054.71 214.804 2686
-2091.94 230.134 2794
-2085.26 230.134 2794
-2082.29 230.546 2799
-2075.6 230.546 2799
-2072.6 230.958 2804
-2065.9 230.958 2804
-2059.19 230.958 2804
-2052.49 230.958 2804
-2045.78 230.958 2804
-2039.08 230.958 2804
-2032.37 230.958 2804
-2018.44 230.134 2794
-2005.28 229.393 2785
-2005.08 230.134 2794
-2001.97 230.546 2799
-1995.28 230.546 2799
-1995.69 231.37 2809
-1991.81 231.699 2813
-1988.61 232.111 2818
-1981.87 232.111 2818
-1975.13 232.111 2818
-1981.66 233.676 2837
-1985.32 234.912 2852
-1978.5 234.912 2852
-1978.6 235.735 2862
-1974.51 236.065 2866
-1967.65 236.065 2866
-1960.8 236.065 2866
-1953.84 240.266 2917
-1946.86 240.266 2917
-1939.89 240.266 2917
-2119.23 294.216 3572
-2110.69 294.216 3572
-2106.86 294.875 3580
-2098.29 294.875 3580
-2089.73 294.875 3580
-2081.17 294.875 3580
-2067.98 294.216 3572
-2059.44 294.216 3572
-2050.9 294.216 3572
-2042.36 294.216 3572
-2033.81 294.216 3572
-2025.27 294.216 3572
-2016.73 294.216 3572
-1995.26 292.322 3549
-1999.65 294.216 3572
-1991.11 294.216 3572
-1982.56 294.216 3572
-1974.02 294.216 3572
-1961.63 293.64 3565
-1953.1 293.64 3565
-1944.58 293.64 3565
-1936.05 293.64 3565
-1931.31 294.216 3572
-1922.77 294.216 3572
-1914.23 294.216 3572
-1905.69 294.216 3572
-1897.15 294.216 3572
-1888.6 294.216 3572
-1888.48 295.534 3588
-1879.9 295.534 3588
-1874.97 296.111 3595
-1874.68 297.428 3611
-1874.32 298.746 3627
-1865.64 298.746 3627
-1861.07 299.405 3635
-1852.38 299.405 3635
-1843.68 299.405 3635
-1830.95 298.746 3627
-1826.3 299.405 3635
-1849.61 304.677 3699
-1853.2 306.736 3724
-1844.3 306.736 3724
-1835.39 306.736 3724
-1830.41 307.395 3732
-1947.9 328.728 3991
-1938.35 328.728 3991
-1928.81 328.728 3991
-1928.4 330.293 4010
-1951.83 335.976 4079
-1942.08 335.976 4079
-1932.32 335.976 4079
-1927.28 336.8 4089
-1917.5 336.8 4089
-1907.73 336.8 4089
-1893.31 335.976 4079
-1883.55 335.976 4079
-1873.8 335.976 4079
-1864.04 335.976 4079
-1858.84 336.8 4089
-1849.06 336.8 4089
-1839.28 336.8 4089
-1829.5 336.8 4089
-1819.72 336.8 4089
-1792.24 333.505 4049
-1782.56 333.505 4049
-1605.61 302.041 3667
-1596.85 302.041 3667
-1570.75 298.746 3627
-1516 289.933 3520
-1507.58 289.933 3520
-1480.42 286.309 3476
-1445.01 281.037 3412
-1433.9 280.461 3405
-1425.76 280.461 3405
-1389.3 274.86 3337
-1381.32 274.86 3337
-1375.81 275.354 3343
-1367.82 275.354 3343
-1359.83 275.354 3343
-1346.58 274.283 3330
-1335.8 273.707 3323
-1327.85 273.707 3323
-1319.91 273.707 3323
-1306.83 272.636 3310
-1293.81 271.565 3297
-1270.71 268.353 3258
-1262.92 268.353 3258
-1245.5 266.294 3233
-1237.77 266.294 3233
-1209.11 261.763 3178
-1201.51 261.763 3178
-1182.64 259.292 3148
-1166.16 257.316 3124
-1150.16 255.421 3101
-1142.74 255.421 3101
-1108.6 249.408 3028
-1089.36 246.69 2995
-1070.63 244.054 2963
-1057.8 242.737 2947
-1066.09 246.278 2990
-1058.94 246.278 2990
-1069.02 250.314 3039
-1063.5 250.726 3044
-1056.22 250.726 3044
-1048.95 250.726 3044
-1041.67 250.726 3044
-1026.91 248.914 3022
-1027.11 250.726 3044
-1019.83 250.726 3044
-1016.21 251.632 3055
-1008.9 251.632 3055
-1001.6 251.632 3055
-994.292 251.632 3055
-972.772 248.008 3011
-965.571 248.008 3011
-958.371 248.008 3011
-946.117 246.69 2995
-938.955 246.69 2995
-925.259 244.96 2974
-936.362 249.82 3033
-929.109 249.82 3033
-921.857 249.82 3033
-913.096 249.408 3028
-905.855 249.408 3028
-898.614 249.408 3028
-888.135 248.502 3017
-879.169 248.008 3011
-871.969 248.008 3011
-857.014 245.784 2984
-847.03 244.96 2974
-836.812 244.054 2963
-829.726 244.054 2963
-816.81 242.325 2942
-805.647 241.089 2927
-798.647 241.089 2927
-791.648 241.089 2927
-784.648 241.089 2927
-774.992 240.266 2917
-769.333 240.677 2922
-762.346 240.677 2922
-755.359 240.677 2922
-748.371 240.677 2922
-740.115 240.266 2917
-731.632 239.771 2911
-724.671 239.771 2911
-715.244 238.948 2901
-708.307 238.948 2901
-695.326 236.888 2876
-689.645 237.3 2881
-682.756 237.3 2881
-675.866 237.3 2881
-668.977 237.3 2881
-662.088 237.3 2881
-651.787 236.065 2866
-644.934 236.065 2866
-638.08 236.065 2866
-632.328 236.477 2871
-625.462 236.477 2871
-619.674 236.888 2876
-612.797 236.888 2876
-605.919 236.888 2876
-598.001 236.477 2871
-589.282 235.735 2862
-582.438 235.735 2862
-702.743 331.117 4020
-693.13 331.117 4020
-683.517 331.117 4020
-672.228 330.293 4010
-662.639 330.293 4010
-645.395 326.422 3963
-635.919 326.422 3963
-622.016 324.115 3935
-614.007 324.857 3944
-604.576 324.857 3944
-595.145 324.857 3944
-587.05 325.598 3953
-585.926 330.293 4010
-576.337 330.293 4010
-568.161 331.117 4020
-558.548 331.117 4020
-551.529 332.682 4039
-541.871 332.682 4039
-532.212 332.682 4039
-526.435 335.153 4069
-516.705 335.153 4069
-506.975 335.153 4069
-497.245 335.153 4069
-487.514 335.153 4069
-477.784 335.153 4069
-469.204 335.976 4079
-459.45 335.976 4079
-449.696 335.976 4079
-439.942 335.976 4079
-431.242 336.8 4089
-421.464 336.8 4089
-411.686 336.8 4089
-401.908 336.8 4089
-392.13 336.8 4089
-381.417 335.976 4079
-368.018 332.682 4039
-357.561 331.94 4030
-347.924 331.94 4030
-338.287 331.94 4030
-326.285 329.552 4001
-316.718 329.552 4001
-307.15 329.552 4001
-297.583 329.552 4001
-285.927 327.163 3972
-275.803 326.422 3963
-266.326 326.422 3963
-256.849 326.422 3963
-247.373 326.422 3963
-237.896 326.422 3963
-228.419 326.422 3963
-105.217 171.736 2085
-100.52 172.23 2091
-95.5199 172.23 2091
-90.5196 172.23 2091
-85.7239 172.642 2096
-80.7117 172.642 2096
-75.6996 172.642 2096
-70.6874 172.642 2096
-65.6752 172.642 2096
-60.6631 172.642 2096
-55.6509 172.642 2096
-50.6387 172.642 2096
-45.5612 172.395 2093
-40.5175 172.23 2091
-35.5173 172.23 2091
-30.5171 172.23 2091
-25.4802 171.983 2088
-20.4578 171.736 2085
-15.4719 171.736 2085
-10.486 171.736 2085
-5.50016 171.736 2085
-0.513796 171.571 2083
4.46729 171.571 2083
9.45744 171.736 2085
14.4433 171.736 2085
19.4571 171.983 2088
24.4502 171.983 2088
29.4432 171.983 2088
34.4363 171.983 2088
39.4293 171.983 2088
44.4223 171.983 2088
49.4154 171.983 2088
54.4084 171.983 2088
59.4015 171.983 2088
64.302 171.736 2085
69.2878 171.736 2085
74.2025 171.571 2083
79.0695 171.324 2080
84.0434 171.324 2080
89.0173 171.324 2080
93.9009 171.159 2078
98.7273 170.912 2075
103.289 170.253 2067
107.97 169.841 2062
112.901 169.841 2062
117.832 169.841 2062
122.168 169.018 2052
127.075 169.018 2052
132.303 169.43 2057
137.222 169.43 2057
142.694 170.089 2065
147.632 170.089 2065
152.57 170.089 2065
157.508 170.089 2065
162.839 170.5 2070
167.951 170.665 2072
172.906 170.665 2072
177.861 170.665 2072
183.08 170.912 2075
188.314 171.159 2078
193.935 171.736 2085
198.92 171.736 2085
204.689 172.395 2093
210.796 173.301 2104
217.161 174.372 2117
222.223 174.372 2117
228.466 175.278 2128
234.433 175.937 2136
239.877 176.184 2139
244.992 176.184 2139
250.107 176.184 2139
439.291 252.621 3067
446.625 252.621 3067
453.959 252.621 3067
459.489 251.632 3055
463.432 249.82 3033
470.685 249.82 3033
477.938 249.82 3033
485.191 249.82 3033
489.846 248.502 3017
497.061 248.502 3017
503.272 248.008 3011
505.047 245.372 2979
511.311 244.96 2974
517.377 244.466 2968
524.475 244.466 2968
531.572 244.466 2968
537.762 244.054 2963
544.847 244.054 2963
551.933 244.054 2963
558.075 243.643 2958
564.193 243.231 2953
568.159 241.913 2937
575.183 241.913 2937
582.206 241.913 2937
589.229 241.913 2937
595.237 241.501 2932
602.249 241.501 2932
607.182 240.677 2922
614.169 240.677 2922
621.157 240.677 2922
628.144 240.677 2922
635.132 240.677 2922
642.119 240.677 2922
649.106 240.677 2922
656.094 240.677 2922
663.081 240.677 2922
670.068 240.677 2922
675.897 240.266 2917
682.873 240.266 2917
691.031 240.677 2922
698.018 240.677 2922
705.005 240.677 2922
711.993 240.677 2922
718.98 240.677 2922
725.968 240.677 2922
732.955 240.677 2922
739.942 240.677 2922
746.93 240.677 2922
753.917 240.677 2922
760.904 240.677 2922
767.892 240.677 2922
776.205 241.089 2927
783.205 241.089 2927
790.204 241.089 2927
797.203 241.089 2927
804.203 241.089 2927
811.202 241.089 2927
816.804 240.677 2922
825.201 241.089 2927
832.2 241.089 2927
839.199 241.089 2927
846.199 241.089 2927
851.741 240.677 2922
858.728 240.677 2922
865.715 240.677 2922
871.209 240.266 2917
878.185 240.266 2917
885.16 240.266 2917
892.136 240.266 2917
899.111 240.266 2917
906.087 240.266 2917
913.062 240.266 2917
920.037 240.266 2917
927.013 240.266 2917
933.988 240.266 2917
940.964 240.266 2917
947.939 240.266 2917
954.915 240.266 2917
1382.63 326.422 3963
1392.1 326.422 3963
1401.58 326.422 3963
1411.06 326.422 3963
1403.69 322.55 3916
1413.05 322.55 3916
1406.07 318.844 3871
1415.33 318.844 3871
1424.58 318.844 3871
1420.5 315.879 3835
1429.68 315.879 3835
1422.71 312.337 3792
1412.15 308.054 3740
1411.97 306.077 3716
1420.86 306.077 3716
1429.74 306.077 3716
1425.85 303.359 3683
1434.66 303.359 3683
1443.47 303.359 3683
1449.12 302.7 3675
1457.91 302.7 3675
1450.73 299.405 3635
1440.55 295.534 3588
1449.13 295.534 3588
1430.09 289.933 3520
1402.95 282.767 3433
1399.65 280.461 3405
1407.79 280.461 3405
1379.34 273.212 3317
1370.96 270 3278
1362.4 266.788 3239
1351.95 263.246 3196
1362.15 263.74 3202
1369.8 263.74 3202
1407.14 269.424 3271
1446.11 275.354 3343
1487.16 281.614 3419
1495.34 281.614 3419
1515.83 283.92 3447
1530.26 285.073 3461
1538.54 285.073 3461
1546.81 285.073 3461
1555.09 285.073 3461
1563.37 285.073 3461
1571.64 285.073 3461
1441.24 252.126 3061
1448.56 252.126 3061
1455.88 252.126 3061
1444.56 248.914 3022
1441.22 247.102 3000
1435.84 244.96 2974
1442.95 244.96 2974
1432.02 241.913 2937
1436.59 241.501 2932
1441.14 241.089 2927
1445.67 240.677 2922
1452.66 240.677 2922
1454.15 239.771 2911
1458.6 239.359 2906
1457.98 238.124 2891
1464.9 238.124 2891
1469.27 237.712 2886
1476.17 237.712 2886
1477.93 236.888 2876
1484.81 236.888 2876
1489.09 236.477 2871
1493.35 236.065 2866
1500.2 236.065 2866
1504.95 235.735 2862
1511.8 235.735 2862
1515.99 235.323 2857
1520.16 234.912 2852
1524.3 234.5 2847
1531.11 234.5 2847
1535.21 234.088 2842
1542.01 234.088 2842
1546.08 233.676 2837
1552.87 233.676 2837
1559.65 233.676 2837
1566.43 233.676 2837
1578.76 234.5 2847
1585.57 234.5 2847
1592.38 234.5 2847
1599.19 234.5 2847
1606 234.5 2847
1612.8 234.5 2847
1619.61 234.5 2847
1626.42 234.5 2847
1633.23 234.5 2847
1642.92 234.912 2852
1649.74 234.912 2852
1656.56 234.912 2852
1663.38 234.912 2852
1670.2 234.912 2852
1677.02 234.912 2852
1683.84 234.912 2852
1690.66 234.912 2852
1694.5 234.5 2847
1701.31 234.5 2847
1705.12 234.088 2842
1711.91 234.088 2842
1715.68 233.676 2837
1722.47 233.676 2837
1729.25 233.676 2837
1727.47 232.523 2823
1734.22 232.523 2823
1740.97 232.523 2823
1747.72 232.523 2823
1751.36 232.111 2818
1754.98 231.699 2813
1761.71 231.699 2813
1768.44 231.699 2813
1772.64 231.37 2809
1776.19 230.958 2804
1779.72 230.546 2799
1786.41 230.546 2799
1789.9 230.134 2794
1796.58 230.134 2794
1800.68 229.805 2790
1807.35 229.805 2790
1814.02 229.805 2790
1820.7 229.805 2790
1824.09 229.393 2785
1827.47 228.981 2780
1834.11 228.981 2780
1840.76 228.981 2780
1847.41 228.981 2780
1854.06 228.981 2780
1860.7 228.981 2780
1867.35 228.981 2780
1871.3 228.652 2776
1877.94 228.652 2776
1884.58 228.652 2776
1891.22 228.652 2776
1894.44 228.24 2771
1901.06 228.24 2771
1907.69 228.24 2771
1914.32 228.24 2771
1920.94 228.24 2771
1917.83 227.087 2757
1924.42 227.087 2757
1931.02 227.087 2757
1937.61 227.087 2757
1937.86 226.345 2748
1941.6 226.016 2744
1948.16 226.016 2744
1954.72 226.016 2744
1961.28 226.016 2744
1967.84 226.016 2744
1974.41 226.016 2744
1970.86 224.863 2730
1974.49 224.533 2726
1977.38 224.122 2721
1983.88 224.122 2721
1990.39 224.122 2721
1996.9 224.122 2721
2007.08 224.533 2726
2013.6 224.533 2726
2020.12 224.533 2726
2026.64 224.533 2726
2029.43 224.122 2721
2029.95 223.463 2713
2036.44 223.463 2713
2032.38 222.309 2699
2029.02 221.239 2686
2035.44 221.239 2686
2041.86 221.239 2686
2048.29 221.239 2686
2054.71 221.239 2686
-2095.68 237.251 2799
-2088.99 237.251 2799
-2086.01 237.675 2804
-2079.31 237.675 2804
-2072.6 237.675 2804
-2065.9 237.675 2804
-2059.19 237.675 2804
-2052.49 237.675 2804
-2045.78 237.675 2804
-2039.08 237.675 2804
-2032.37 237.675 2804
-2018.44 236.827 2794
-2008.88 236.488 2790
-2005.08 236.827 2794
-2001.97 237.251 2799
-1995.28 237.251 2799
-1995.69 238.099 2809
-1991.81 238.438 2813
-1988.61 238.862 2818
-1981.87 238.862 2818
-1975.13 238.862 2818
-1981.66 240.472 2837
-1985.32 241.744 2852
-1978.5 241.744 2852
-1981.36 242.93 2866
-1977.95 243.354 2871
-1974.52 243.778 2876
-1967.64 243.778 2876
-1960.76 243.778 2876
-1978.15 247.677 2922
-1971.16 247.677 2922
-1964.18 247.677 2922
-1957.19 247.677 2922
-1980.9 251.576 2968
-1973.81 251.576 2968
-1966.71 251.576 2968
-2119.23 302.773 3572
-2110.69 302.773 3572
-2106.86 303.451 3580
-2098.29 303.451 3580
-2089.73 303.451 3580
-2081.17 303.451 3580
-2067.98 302.773 3572
-2059.44 302.773 3572
-2050.9 302.773 3572
-2042.36 302.773 3572
-2033.81 302.773 3572
-2025.27 302.773 3572
-2016.73 302.773 3572
-1995.26 300.823 3549
-1999.65 302.773 3572
-1991.11 302.773 3572
-1982.56 302.773 3572
-1974.02 302.773 3572
-1961.63 302.18 3565
-1953.1 302.18 3565
-1944.58 302.18 3565
-1936.05 302.18 3565
-1931.31 302.773 3572
-1922.77 302.773 3572
-1914.23 302.773 3572
-1905.69 302.773 3572
-1893.43 302.18 3565
-1884.9 302.18 3565
-1884.27 303.451 3580
-1875.71 303.451 3580
-1874.97 304.722 3595
-1870.53 305.401 3603
-1874.32 307.435 3627
-1865.64 307.435 3627
-1861.07 308.113 3635
-1852.38 308.113 3635
-1843.68 308.113 3635
-1830.95 307.435 3627
-1829.81 308.706 3642
-1858.11 314.979 3716
-1853.2 315.657 3724
-1844.3 315.657 3724
-1835.39 315.657 3724
-1842.67 318.454 3757
-1859.07 322.862 3809
-1849.96 322.862 3809
-1915.28 335.915 3963
-1919.27 338.288 3991
-1951.83 345.748 4079
-1942.08 345.748 4079
-1937.06 346.595 4089
-1927.28 346.595 4089
-1917.5 346.595 4089
-1907.73 346.595 4089
-1888.66 344.9 4069
-1869.7 343.205 4049
-1864.61 344.052 4059
-1854.9 344.052 4059
-1858.84 346.595 4089
-1849.06 346.595 4089
-1839.28 346.595 4089
-1829.5 346.595 4089
-1819.72 346.595 4089
-1792.24 343.205 4049
-1782.56 343.205 4049
-1619.63 313.538 3699
-1610.78 313.538 3699
-1570.75 307.435 3627
-1519.01 298.959 3527
-1510.58 298.959 3527
-1483.4 295.229 3483
-1462.79 292.771 3454
-1433.9 288.617 3405
-1425.76 288.617 3405
-1397.63 284.549 3357
-1386.71 283.956 3350
-1378.7 283.956 3350
-1370.68 283.956 3350
-1362.67 283.956 3350
-1354.66 283.956 3350
-1341.43 282.854 3337
-1333.45 282.854 3337
-1325.47 282.854 3337
-1311.96 281.667 3323
-1293.81 279.463 3297
-1270.71 276.157 3258
-1262.92 276.157 3258
-1245.5 274.038 3233
-1237.77 274.038 3233
-1209.11 269.376 3178
-1201.51 269.376 3178
-1175.88 265.308 3130
-1168.4 265.308 3130
-1147.93 262.341 3095
-1140.53 262.341 3095
-1108.6 256.662 3028
-1089.36 253.865 2995
-1080.39 253.441 2990
-1073.24 253.441 2990
-1066.09 253.441 2990
-1058.94 253.441 2990
-1061.28 255.729 3017
-1061.76 257.594 3039
-1054.49 257.594 3039
-1047.22 257.594 3039
-1034.14 256.153 3022
