1530.78 -1450.68 3724
1539.68 -1450.68 3724
1548.59 -1450.68 3724
1554.15 -1447.56 3716
1552.52 -1437.82 3691
1561.34 -1437.82 3691
1563.36 -1431.59 3675
1561.46 -1421.85 3650
1566.74 -1418.73 3642
1575.45 -1418.73 3642
-2869.21 -1512.6 3907
-2859.87 -1512.6 3907
-2850.52 -1512.6 3907
-2834.64 -1509.12 3898
-2825.32 -1509.12 3898
-2815.99 -1509.12 3898
-2806.67 -1509.12 3898
-2790.89 -1505.64 3889
-2775.16 -1502.15 3880
-2746.63 -1491.7 3853
-2737.42 -1491.7 3853
-2715.46 -1484.73 3835
-2699.94 -1481.25 3826
-2690.79 -1481.25 3826
-2681.64 -1481.25 3826
-2666.9 -1478.15 3818
-2657.77 -1478.15 3818
-2648.64 -1478.15 3818
-2639.51 -1478.15 3818
-2630.38 -1478.15 3818
-2621.25 -1478.15 3818
-2612.12 -1478.15 3818
-2602.99 -1478.15 3818
-2593.86 -1478.15 3818
-2584.73 -1478.15 3818
-2575.6 -1478.15 3818
-2566.47 -1478.15 3818
-2522.51 -1458.02 3766
-2490.81 -1444.85 3732
-2465.26 -1435.17 3707
-2456.4 -1435.17 3707
-1357.42 -1444.85 3732
-1348.5 -1444.85 3732
-1348.55 -1454.53 3757
-1361.31 -1478.15 3818
-1352.18 -1478.15 3818
-1343.05 -1478.15 3818
-1333.92 -1478.15 3818
-1324.79 -1478.15 3818
-1300.5 -1461.11 3774
-1294.55 -1464.6 3783
-1285.51 -1464.6 3783
-1276.46 -1464.6 3783
-1261.72 -1458.02 3766
-1247.06 -1451.43 3749
-1238.09 -1451.43 3749
-1229.13 -1451.43 3749
-1220.16 -1451.43 3749
-1213.78 -1454.53 3757
-1204.8 -1454.53 3757
-1195.82 -1454.53 3757
-1186.83 -1454.53 3757
-1183.18 -1461.11 3774
-1174.15 -1461.11 3774
-1165.13 -1461.11 3774
-1158.86 -1464.6 3783
-1149.81 -1464.6 3783
-1140.77 -1464.6 3783
-96.8446 -820.763 2120
-91.775 -820.763 2120
-87.0327 -823.86 2128
-82.0595 -825.022 2131
-76.9636 -825.022 2131
-71.8678 -825.022 2131
-66.7719 -825.022 2131
-61.3577 -820.763 2120
-56.2881 -820.763 2120
-51.1461 -819.602 2117
-46.0837 -819.602 2117
-40.9632 -818.44 2114
-35.9079 -818.44 2114
-30.8527 -818.44 2114
-25.7731 -817.666 2112
-20.6638 -815.343 2106
-15.6129 -814.569 2104
-10.5816 -814.569 2104
-5.53445 -812.246 2098
-0.517496 -812.246 2098
4.48445 -809.536 2091
9.48466 -809.536 2091
14.4849 -809.536 2091
19.4851 -809.536 2091
24.4853 -809.536 2091
29.4855 -809.536 2091
34.4363 -808.374 2088
39.3726 -807.213 2085
44.4223 -808.374 2088
49.5337 -810.31 2093
54.5387 -810.31 2093
59.5437 -810.31 2093
64.7029 -812.246 2098
69.8196 -813.407 2101
74.8437 -813.407 2101
79.8678 -813.407 2101
85.0132 -814.569 2104
90.1301 -815.343 2106
95.4373 -817.666 2112
100.488 -817.666 2112
105.538 -817.666 2112
110.589 -817.666 2112
115.913 -819.602 2117
120.975 -819.602 2117
126.038 -819.602 2117
131.41 -821.537 2122
136.87 -823.86 2128
141.959 -823.86 2128
147.393 -825.796 2133
152.493 -825.796 2133
157.594 -825.796 2133
162.695 -825.796 2133
167.795 -825.796 2133
173.382 -828.119 2139
178.748 -829.28 2142
183.87 -829.28 2142
188.992 -829.28 2142
194.295 -830.055 2144
199.701 -831.216 2147
204.836 -831.216 2147
210.263 -832.378 2150
215.404 -832.378 2150
220.546 -832.378 2150
1437.43 -1464.6 3783
1446.47 -1464.6 3783
1455.52 -1464.6 3783
1461.08 -1461.11 3774
1437.78 -1428.98 3691
1446.6 -1428.98 3691
1449.12 -1422.79 3675
1454.73 -1419.69 3667
1463.5 -1419.69 3667
1472.27 -1419.69 3667
1487.5 -1425.88 3683
1496.31 -1425.88 3683
1508.39 -1428.98 3691
1530.78 -1441.76 3724
1539.68 -1441.76 3724
1548.59 -1441.76 3724
1554.15 -1438.66 3716
1552.52 -1428.98 3691
1561.34 -1428.98 3691
1563.36 -1422.79 3675
1561.46 -1413.11 3650
1566.74 -1410.01 3642
1575.45 -1410.01 3642
-2869.21 -1503.25 3907
-2859.87 -1503.25 3907
-2850.52 -1503.25 3907
-2834.64 -1499.78 3898
-2825.32 -1499.78 3898
-2815.99 -1499.78 3898
-2806.67 -1499.78 3898
-2790.89 -1496.32 3889
-2775.16 -1492.86 3880
-2746.63 -1482.47 3853
-2737.42 -1482.47 3853
-2715.46 -1475.54 3835
-2699.94 -1472.08 3826
-2690.79 -1472.08 3826
-2681.64 -1472.08 3826
-2666.9 -1469 3818
-2657.77 -1469 3818
-2648.64 -1469 3818
-2639.51 -1469 3818
-2630.38 -1469 3818
-2621.25 -1469 3818
-2612.12 -1469 3818
-2602.99 -1469 3818
-2593.86 -1469 3818
-2584.73 -1469 3818
-2575.6 -1469 3818
-2566.47 -1469 3818
-2522.51 -1448.99 3766
-2490.81 -1435.91 3732
-2465.26 -1426.29 3707
-2456.4 -1426.29 3707
-1357.42 -1435.91 3732
-1348.5 -1435.91 3732
-1348.55 -1445.53 3757
-1361.31 -1469 3818
-1352.18 -1469 3818
-1343.05 -1469 3818
-1333.92 -1469 3818
-1324.79 -1469 3818
-1300.5 -1452.07 3774
-1294.55 -1455.54 3783
-1285.51 -1455.54 3783
-1276.46 -1455.54 3783
-1258.7 -1445.53 3757
-1247.06 -1442.45 3749
-1238.09 -1442.45 3749
-1229.13 -1442.45 3749
-1220.16 -1442.45 3749
-1213.78 -1445.53 3757
-1204.8 -1445.53 3757
-1195.82 -1445.53 3757
-1186.83 -1445.53 3757
-1183.18 -1452.07 3774
-1174.15 -1452.07 3774
-1165.13 -1452.07 3774
-1158.86 -1455.54 3783
-1149.81 -1455.54 3783
-1140.77 -1455.54 3783
-96.8446 -815.685 2120
-91.775 -815.685 2120
-86.7873 -816.454 2122
-82.0595 -819.917 2131
-76.9636 -819.917 2131
-71.8678 -819.917 2131
-66.7719 -819.917 2131
-61.3577 -815.685 2120
-56.2881 -815.685 2120
-51.1461 -814.53 2117
-46.0837 -814.53 2117
-40.9632 -813.376 2114
-35.9079 -813.376 2114
-30.8527 -813.376 2114
-25.7731 -812.607 2112
-20.6638 -810.298 2106
-15.6129 -809.529 2104
-10.5816 -809.529 2104
-5.53445 -807.22 2098
-0.517496 -807.22 2098
4.48445 -804.527 2091
9.48466 -804.527 2091
14.4849 -804.527 2091
19.4851 -804.527 2091
24.4502 -803.372 2088
29.4432 -803.372 2088
34.4363 -803.372 2088
39.3349 -801.449 2083
44.3585 -802.218 2085
49.4864 -804.527 2091
54.4866 -804.527 2091
59.5437 -805.296 2093
64.6412 -806.45 2096
69.8196 -808.374 2101
74.8437 -808.374 2101
79.8678 -808.374 2101
85.0132 -809.529 2104
90.1301 -810.298 2106
95.4373 -812.607 2112
100.488 -812.607 2112
105.538 -812.607 2112
110.589 -812.607 2112
115.913 -814.53 2117
120.975 -814.53 2117
126.038 -814.53 2117
131.41 -816.454 2122
136.87 -818.763 2128
141.959 -818.763 2128
147.393 -820.686 2133
152.493 -820.686 2133
157.594 -820.686 2133
162.695 -820.686 2133
167.795 -820.686 2133
173.382 -822.995 2139
178.748 -824.149 2142
183.87 -824.149 2142
188.992 -824.149 2142
194.295 -824.919 2144
199.701 -826.073 2147
204.836 -826.073 2147
210.263 -827.227 2150
215.404 -827.227 2150
220.546 -827.227 2150
1437.43 -1455.54 3783
1446.47 -1455.54 3783
1455.52 -1455.54 3783
1464.57 -1455.54 3783
1444.01 -1426.29 3707
1452.87 -1426.29 3707
1455.43 -1420.14 3691
1461.08 -1417.06 3683
1469.89 -1417.06 3683
1478.7 -1417.06 3683
1493.97 -1423.22 3699
1502.81 -1423.22 3699
1521.87 -1432.83 3724
1534.07 -1435.91 3732
1542.99 -1435.91 3732
1551.92 -1435.91 3732
1557.49 -1432.83 3724
1555.88 -1423.22 3699
1564.73 -1423.22 3699
1563.36 -1413.98 3675
1561.46 -1404.36 3650
1566.74 -1401.28 3642
1575.45 -1401.28 3642
1577.64 -1395.51 3627
-2842.77 -1480.12 3871
-2840.1 -1483.56 3880
-2830.83 -1483.56 3880
-2821.55 -1483.56 3880
-2812.27 -1483.56 3880
-2802.99 -1483.56 3880
-2793.71 -1483.56 3880
-2784.43 -1483.56 3880
-2755.84 -1473.24 3853
-2740.21 -1469.8 3844
-2731.02 -1469.8 3844
-2715.46 -1466.36 3835
-2694.29 -1459.86 3818
-2678.83 -1456.41 3809
-2676.03 -1459.86 3818
-2666.9 -1459.86 3818
-2657.77 -1459.86 3818
-2648.64 -1459.86 3818
-2639.51 -1459.86 3818
-2630.38 -1459.86 3818
-2621.25 -1459.86 3818
-2612.12 -1459.86 3818
-2602.99 -1459.86 3818
-2593.86 -1459.86 3818
-2584.73 -1459.86 3818
-2551.99 -1446.47 3783
-2542.94 -1446.47 3783
-2522.51 -1439.97 3766
-2474.13 -1417.41 3707
-2449.3 -1408.24 3683
-1339.6 -1408.24 3683
-1345.61 -1423.91 3724
-1348.55 -1436.53 3757
-1339.56 -1436.53 3757
-1336.6 -1443.03 3774
-1327.57 -1443.03 3774
-1318.55 -1443.03 3774
-1309.52 -1443.03 3774
-1297.74 -1439.97 3766
-1294.55 -1446.47 3783
-1285.51 -1446.47 3783
-1276.46 -1446.47 3783
-1258.7 -1436.53 3757
-1247.06 -1433.47 3749
-1238.09 -1433.47 3749
-1229.13 -1433.47 3749
-1220.16 -1433.47 3749
-1213.78 -1436.53 3757
-1204.8 -1436.53 3757
-1195.82 -1436.53 3757
-1186.83 -1436.53 3757
-1183.18 -1443.03 3774
-1174.15 -1443.03 3774
-1165.13 -1443.03 3774
-1158.86 -1446.47 3783
-1149.81 -1446.47 3783
-1140.77 -1446.47 3783
-96.936 -811.371 2122
-91.8616 -811.371 2122
-86.7873 -811.371 2122
-82.0595 -814.812 2131
-76.9636 -814.812 2131
-71.8678 -814.812 2131
-66.7719 -814.812 2131
-61.3577 -810.606 2120
-56.2881 -810.606 2120
-51.1461 -809.459 2117
-46.0837 -809.459 2117
-41.0213 -809.459 2117
-35.9079 -808.312 2114
-30.8527 -808.312 2114
-25.7731 -807.547 2112
-20.6638 -805.253 2106
-15.6129 -804.488 2104
-10.5816 -804.488 2104
-5.53445 -802.194 2098
-0.517496 -802.194 2098
4.47801 -798.371 2088
9.47105 -798.371 2088
14.4641 -798.371 2088
19.4851 -799.518 2091
24.4853 -799.518 2091
29.4855 -799.518 2091
34.4363 -798.371 2088
39.3349 -796.459 2083
44.4223 -798.371 2088
49.4864 -799.518 2091
54.4866 -799.518 2091
59.5437 -800.282 2093
64.6412 -801.429 2096
69.9193 -804.488 2104
74.9505 -804.488 2104
79.9818 -804.488 2104
85.094 -805.253 2106
90.3868 -807.547 2112
95.4373 -807.547 2112
100.488 -807.547 2112
105.638 -808.312 2114
110.85 -809.459 2117
115.913 -809.459 2117
120.975 -809.459 2117
126.216 -810.606 2120
131.595 -812.518 2125
137.063 -814.812 2131
142.159 -814.812 2131
147.393 -815.577 2133
152.493 -815.577 2133
157.816 -816.724 2136
162.923 -816.724 2136
168.031 -816.724 2136
173.382 -817.871 2139
178.748 -819.018 2142
183.87 -819.018 2142
188.992 -819.018 2142
194.295 -819.783 2144
199.422 -819.783 2144
204.549 -819.783 2144
209.97 -820.93 2147
215.104 -820.93 2147
220.238 -820.93 2147
1446.47 -1446.47 3783
1455.52 -1446.47 3783
1464.57 -1446.47 3783
1456.86 -1430.03 3740
1465.81 -1430.03 3740
1458.58 -1414.35 3699
1467.43 -1414.35 3699
1469.89 -1408.24 3683
1481.91 -1411.3 3691
1500.83 -1420.85 3716
1509.72 -1420.85 3716
1521.87 -1423.91 3724
1537.35 -1430.03 3740
1546.3 -1430.03 3740
1555.24 -1430.03 3740
1557.49 -1423.91 3724
1555.88 -1414.35 3699
1564.73 -1414.35 3699
1563.36 -1405.18 3675
1561.46 -1395.62 3650
1563.73 -1389.88 3635
1572.43 -1389.88 3635
1581.12 -1389.88 3635
-2842.77 -1470.85 3871
-2873.04 -1491.37 3925
-2877.52 -1498.59 3944
-2868.09 -1498.59 3944
-2858.66 -1498.59 3944
-2822.5 -1484.53 3907
-2813.15 -1484.53 3907
-2803.81 -1484.53 3907
-2794.47 -1484.53 3907
-2765.88 -1474.27 3880
-2756.6 -1474.27 3880
-2734.58 -1467.43 3862
-2699.94 -1453.75 3826
-2690.79 -1453.75 3826
-2681.64 -1453.75 3826
-2672.49 -1453.75 3826
-2663.34 -1453.75 3826
-2654.19 -1453.75 3826
-2645.04 -1453.75 3826
-2630.38 -1450.71 3818
-2615.07 -1447.29 3809
-2599.81 -1443.87 3800
-2590.72 -1443.87 3800
-2581.63 -1443.87 3800
-2572.54 -1443.87 3800
-2551.99 -1437.41 3783
-2542.94 -1437.41 3783
-2499.74 -1418.03 3732
-2463.45 -1402.45 3691
-2443.98 -1396.37 3675
-2403.39 -1378.14 3627
-2394.71 -1378.14 3627
-1336.69 -1396.37 3675
-1327.9 -1396.37 3675
-1336.7 -1414.99 3724
-1327.8 -1414.99 3724
-1330.58 -1427.53 3757
-1324.76 -1430.95 3766
-1315.75 -1430.95 3766
-1306.75 -1430.95 3766
-1294.64 -1427.53 3757
-1285.66 -1427.53 3757
-1276.67 -1427.53 3757
-1267.69 -1427.53 3757
-1258.7 -1427.53 3757
-1247.06 -1424.49 3749
-1238.09 -1424.49 3749
-1223.56 -1418.03 3732
-1214.63 -1418.03 3732
-1208.29 -1421.07 3740
-1202.23 -1424.49 3749
-1193.27 -1424.49 3749
-1186.83 -1427.53 3757
-1177.85 -1427.53 3757
-1174.15 -1433.99 3774
-1165.13 -1433.99 3774
-1156.1 -1433.99 3774
-1147.08 -1433.99 3774
-1138.05 -1433.99 3774
-96.936 -806.288 2122
-91.8616 -806.288 2122
-87.0327 -808.567 2128
-82.0595 -809.707 2131
-76.9636 -809.707 2131
-71.8678 -809.707 2131
-66.7719 -809.707 2131
-61.3577 -805.528 2120
-56.2881 -805.528 2120
-51.1461 -804.388 2117
-46.0837 -804.388 2117
-41.0213 -804.388 2117
-35.9079 -803.248 2114
-30.8527 -803.248 2114
-25.7731 -802.488 2112
-20.6638 -800.208 2106
-15.5684 -797.168 2098
-10.5514 -797.168 2098
-5.53445 -797.168 2098
-0.517003 -796.408 2096
4.48445 -794.509 2091
9.48466 -794.509 2091
14.4849 -794.509 2091
19.4851 -794.509 2091
24.4853 -794.509 2091
29.4855 -794.509 2091
34.4363 -793.369 2088
39.3726 -792.229 2085
44.4862 -794.509 2091
49.5337 -795.269 2093
54.5387 -795.269 2093
59.5437 -795.269 2093
64.6412 -796.408 2096
69.9193 -799.448 2104
74.9505 -799.448 2104
79.9818 -799.448 2104
85.094 -800.208 2106
90.3868 -802.488 2112
95.4373 -802.488 2112
100.488 -802.488 2112
105.638 -803.248 2114
110.85 -804.388 2117
116.077 -805.528 2120
121.147 -805.528 2120
126.216 -805.528 2120
131.595 -807.427 2125
137.063 -809.707 2131
142.159 -809.707 2131
147.393 -810.467 2133
152.493 -810.467 2133
157.816 -811.607 2136
162.923 -811.607 2136
168.031 -811.607 2136
173.382 -812.747 2139
178.748 -813.887 2142
183.87 -813.887 2142
188.992 -813.887 2142
194.295 -814.647 2144
199.422 -814.647 2144
204.549 -814.647 2144
209.676 -814.647 2144
214.803 -814.647 2144
219.93 -814.647 2144
1446.47 -1437.41 3783
1455.52 -1437.41 3783
1464.57 -1437.41 3783
1463.49 -1427.53 3757
1472.47 -1427.53 3757
1461.74 -1408.53 3707
1467.43 -1405.49 3699
1476.27 -1405.49 3699
1485.12 -1405.49 3699
1500.83 -1411.95 3716
1509.72 -1411.95 3716
1528.41 -1421.07 3740
1541.05 -1424.49 3749
1550.02 -1424.49 3749
1558.98 -1424.49 3749
1560.84 -1418.03 3732
1555.88 -1405.49 3699
1564.73 -1405.49 3699
1563.36 -1396.37 3675
1561.46 -1386.88 3650
1566.74 -1383.84 3642
1575.45 -1383.84 3642
1581.12 -1381.18 3635
-2910.33 -1496.31 3963
-2900.86 -1496.31 3963
-2891.38 -1496.31 3963
-2874.63 -1492.54 3953
-2865.18 -1492.54 3953
-2849.23 -1489.14 3944
-2839.79 -1489.14 3944
-2803.81 -1475.17 3907
-2794.47 -1475.17 3907
-2785.12 -1475.17 3907
-2775.78 -1475.17 3907
-2747.32 -1464.97 3880
-2725.34 -1458.18 3862
-2716.1 -1458.18 3862
-2706.87 -1458.18 3862
-2691.35 -1454.78 3853
-2682.13 -1454.78 3853
-2654.19 -1444.58 3826
-2645.04 -1444.58 3826
-2630.38 -1441.56 3818
-2615.07 -1438.17 3809
-2588.17 -1428.35 3783
-2579.13 -1428.35 3783
-2558.53 -1421.93 3766
-2543.43 -1418.53 3757
-2529.05 -1415.51 3749
-2520.09 -1415.51 3749
-2494.38 -1406.07 3724
-2452.77 -1387.57 3675
-2427.36 -1378.13 3650
-2403.39 -1369.45 3627
-2394.71 -1369.45 3627
-2345.25 -1346.04 3565
-2341.32 -1348.68 3572
-2332.77 -1348.68 3572
-2324.23 -1348.68 3572
-1324.69 -1375.11 3642
-1325.01 -1384.55 3667
-1321.98 -1390.59 3683
-1313.18 -1390.59 3683
-1330.58 -1418.53 3757
-1324.76 -1421.93 3766
-1315.75 -1421.93 3766
-1306.75 -1421.93 3766
-1294.64 -1418.53 3757
-1285.66 -1418.53 3757
-1276.67 -1418.53 3757
-1267.69 -1418.53 3757
-1256.02 -1415.51 3749
-1247.06 -1415.51 3749
-1238.09 -1415.51 3749
-1212.74 -1396.63 3699
-1206.49 -1399.65 3707
-1200.54 -1403.05 3716
-1196.78 -1409.09 3732
-1187.86 -1409.09 3732
-1184.3 -1415.51 3749
-1175.34 -1415.51 3749
-1168.86 -1418.53 3757
-1159.88 -1418.53 3757
-1150.89 -1418.53 3757
-1139.48 -1415.51 3749
-1130.51 -1415.51 3749
-96.936 -801.204 2122
-91.8616 -801.204 2122
-87.0327 -803.47 2128
-82.0595 -804.602 2131
-76.9636 -804.602 2131
-71.8678 -804.602 2131
-66.7719 -804.602 2131
-61.3577 -800.449 2120
-56.2881 -800.449 2120
-51.1461 -799.316 2117
-46.0837 -799.316 2117
-41.0213 -799.316 2117
-35.9079 -798.184 2114
-30.8527 -798.184 2114
-25.7731 -797.429 2112
-20.6638 -795.163 2106
-15.5684 -792.143 2098
-10.5514 -792.143 2098
-5.53445 -792.143 2098
-0.517003 -791.388 2096
4.48873 -790.255 2093
9.49373 -790.255 2093
14.4987 -790.255 2093
19.5037 -790.255 2093
24.5087 -790.255 2093
29.5137 -790.255 2093
34.4857 -789.5 2091
39.486 -789.5 2091
44.4862 -789.5 2091
49.5337 -790.255 2093
54.5387 -790.255 2093
59.5437 -790.255 2093
64.6412 -791.388 2096
69.9193 -794.408 2104
74.9505 -794.408 2104
80.0579 -795.163 2106
85.094 -795.163 2106
90.3868 -797.429 2112
95.4373 -797.429 2112
100.488 -797.429 2112
105.638 -798.184 2114
110.85 -799.316 2117
116.077 -800.449 2120
121.147 -800.449 2120
126.216 -800.449 2120
131.595 -802.337 2125
137.063 -804.602 2131
142.159 -804.602 2131
147.393 -805.358 2133
152.493 -805.358 2133
157.816 -806.49 2136
162.923 -806.49 2136
168.031 -806.49 2136
173.382 -807.623 2139
178.748 -808.756 2142
183.87 -808.756 2142
188.992 -808.756 2142
194.295 -809.511 2144
199.422 -809.511 2144
204.549 -809.511 2144
209.676 -809.511 2144
214.803 -809.511 2144
219.93 -809.511 2144
224.217 -806.49 2136
1446.47 -1428.35 3783
1455.52 -1428.35 3783
1464.57 -1428.35 3783
1463.49 -1418.53 3757
1472.47 -1418.53 3757
1461.74 -1399.65 3707
1467.43 -1396.63 3699
1476.27 -1396.63 3699
1485.12 -1396.63 3699
1500.83 -1403.05 3716
1509.72 -1403.05 3716
1528.41 -1412.11 3740
1541.05 -1415.51 3749
1550.02 -1415.51 3749
1558.98 -1415.51 3749
1560.84 -1409.09 3732
1555.88 -1396.63 3699
1564.73 -1396.63 3699
1559.96 -1384.55 3667
1561.46 -1378.13 3650
1566.74 -1375.11 3642
1575.45 -1375.11 3642
1581.12 -1372.47 3635
-2910.33 -1486.82 3963
-2900.86 -1486.82 3963
-2891.38 -1486.82 3963
-2874.63 -1483.07 3953
-2865.18 -1483.07 3953
-2849.23 -1479.69 3944
-2839.79 -1479.69 3944
-2803.81 -1465.81 3907
-2794.47 -1465.81 3907
-2785.12 -1465.81 3907
-2775.78 -1465.81 3907
-2747.32 -1455.68 3880
-2725.34 -1448.93 3862
-2716.1 -1448.93 3862
-2706.87 -1448.93 3862
-2691.35 -1445.55 3853
-2682.13 -1445.55 3853
-2654.19 -1435.42 3826
-2645.04 -1435.42 3826
-2630.38 -1432.42 3818
-2615.07 -1429.04 3809
-2588.17 -1419.29 3783
-2579.13 -1419.29 3783
-2558.53 -1412.91 3766
-2543.43 -1409.53 3757
-2529.05 -1406.53 3749
-2520.09 -1406.53 3749
-2494.38 -1397.15 3724
-2452.77 -1378.77 3675
-2427.36 -1369.39 3650
-2403.39 -1360.76 3627
-2394.71 -1360.76 3627
-2355.12 -1343.13 3580
-2341.32 -1340.12 3572
-2332.77 -1340.12 3572
-2324.23 -1340.12 3572
-2315.69 -1340.12 3572
-1324.69 -1366.39 3642
-1325.01 -1375.77 3667
-1324.86 -1384.77 3691
-1316.03 -1384.77 3691
-1330.58 -1409.53 3757
-1324.76 -1412.91 3766
-1315.75 -1412.91 3766
-1306.75 -1412.91 3766
-1294.64 -1409.53 3757
-1285.66 -1409.53 3757
-1276.67 -1409.53 3757
-1267.69 -1409.53 3757
-1256.02 -1406.53 3749
-1247.06 -1406.53 3749
-1238.09 -1406.53 3749
-1212.74 -1387.77 3699
-1209.42 -1394.15 3716
-1208.29 -1403.15 3740
-1202.23 -1406.53 3749
-1193.27 -1406.53 3749
-1192.2 -1415.91 3774
-1183.18 -1415.91 3774
-1176.95 -1419.29 3783
-1167.91 -1419.29 3783
-1158.86 -1419.29 3783
-1149.81 -1419.29 3783
-1140.77 -1419.29 3783
-1131.72 -1419.29 3783
-96.936 -796.121 2122
-91.8616 -796.121 2122
-87.0327 -798.372 2128
-81.944 -798.372 2128
-76.8553 -798.372 2128
-71.6654 -797.247 2125
-66.5839 -797.247 2125
-61.3577 -795.371 2120
-56.2881 -795.371 2120
-51.1461 -794.245 2117
-46.0837 -794.245 2117
-41.0213 -794.245 2117
-35.9079 -793.12 2114
-30.8527 -793.12 2114
-25.7731 -792.369 2112
-20.6638 -790.118 2106
-15.5684 -787.117 2098
-10.5514 -787.117 2098
-5.53445 -787.117 2098
-0.517003 -786.367 2096
4.48873 -785.241 2093
9.49373 -785.241 2093
14.4987 -785.241 2093
19.5037 -785.241 2093
24.5087 -785.241 2093
29.5137 -785.241 2093
34.4857 -784.491 2091
39.486 -784.491 2091
44.4862 -784.491 2091
49.5337 -785.241 2093
54.5387 -785.241 2093
59.5437 -785.241 2093
64.6412 -786.367 2096
69.9193 -789.368 2104
74.9505 -789.368 2104
80.0579 -790.118 2106
85.094 -790.118 2106
90.3868 -792.369 2112
95.4373 -792.369 2112
100.488 -792.369 2112
105.638 -793.12 2114
110.85 -794.245 2117
116.077 -795.371 2120
121.147 -795.371 2120
126.216 -795.371 2120
131.595 -797.247 2125
136.87 -798.372 2128
141.959 -798.372 2128
147.393 -800.248 2133
152.493 -800.248 2133
157.816 -801.373 2136
162.923 -801.373 2136
168.031 -801.373 2136
173.382 -802.499 2139
178.748 -803.625 2142
183.87 -803.625 2142
188.992 -803.625 2142
194.295 -804.375 2144
199.422 -804.375 2144
204.549 -804.375 2144
209.676 -804.375 2144
214.803 -804.375 2144
219.93 -804.375 2144
224.217 -801.373 2136
1446.47 -1419.29 3783
1455.52 -1419.29 3783
1464.57 -1419.29 3783
1466.99 -1412.91 3766
1476 -1412.91 3766
1465.29 -1394.15 3716
1470.6 -1390.77 3707
1476.27 -1387.77 3699
1485.12 -1387.77 3699
1504.06 -1397.15 3724
1512.97 -1397.15 3724
1528.41 -1403.15 3740
1544.34 -1409.53 3757
1553.33 -1409.53 3757
1562.31 -1409.53 3757
1560.84 -1400.15 3732
1555.88 -1387.77 3699
1564.73 -1387.77 3699
1559.96 -1375.77 3667
1564.88 -1372.39 3658
1570.19 -1369.39 3650
1578.91 -1369.39 3650
1584.16 -1366.39 3642
-2910.33 -1477.32 3963
-2900.86 -1477.32 3963
-2891.38 -1477.32 3963
-2874.63 -1473.6 3953
-2865.18 -1473.6 3953
-2849.23 -1470.24 3944
-2839.79 -1470.24 3944
-2803.81 -1456.45 3907
-2794.47 -1456.45 3907
-2785.12 -1456.45 3907
-2775.78 -1456.45 3907
-2747.32 -1446.38 3880
-2725.34 -1439.67 3862
-2716.1 -1439.67 3862
-2706.87 -1439.67 3862
-2691.35 -1436.32 3853
-2682.13 -1436.32 3853
-2654.19 -1426.25 3826
-2645.04 -1426.25 3826
-2630.38 -1423.27 3818
-2615.07 -1419.92 3809
-2588.17 -1410.22 3783
-2579.13 -1410.22 3783
-2558.53 -1403.89 3766
-2543.43 -1400.53 3757
-2529.05 -1397.55 3749
-2520.09 -1397.55 3749
-2494.38 -1388.23 3724
-2452.77 -1369.96 3675
-2422.04 -1357.66 3642
-2387.48 -1343.12 3603
-2378.87 -1343.12 3603
-2355.12 -1334.55 3580
-2341.32 -1331.57 3572
-2332.77 -1331.57 3572
-2324.23 -1331.57 3572
-2315.69 -1331.57 3572
-1319.23 -1352.07 3627
-1318.87 -1360.64 3650
-1324.86 -1375.93 3691
-1316.03 -1375.93 3691
-1327.74 -1397.55 3749
-1324.76 -1403.89 3766
-1315.75 -1403.89 3766
-1306.75 -1403.89 3766
-1294.64 -1400.53 3757
-1279.84 -1394.19 3740
-1270.9 -1394.19 3740
-1261.95 -1394.19 3740
-1250.33 -1391.21 3732
-1238.74 -1388.23 3724
-1229.84 -1388.23 3724
-1210.11 -1375.93 3691
-1209.42 -1385.25 3716
-1208.29 -1394.19 3740
-1202.23 -1397.55 3749
-1193.27 -1397.55 3749
-1192.2 -1406.87 3774
-1183.18 -1406.87 3774
-1176.95 -1410.22 3783
-1167.91 -1410.22 3783
-1158.86 -1410.22 3783
-1149.81 -1410.22 3783
-1140.77 -1410.22 3783
-1131.72 -1410.22 3783
-87.0327 -793.274 2128
-81.944 -793.274 2128
-76.8553 -793.274 2128
-71.6654 -792.156 2125
-66.4899 -791.038 2122
-61.2708 -789.174 2117
-56.2085 -789.174 2117
-51.1461 -789.174 2117
-46.0837 -789.174 2117
-41.0213 -789.174 2117
-35.9079 -788.056 2114
-30.8527 -788.056 2114
-25.7731 -787.31 2112
-20.6638 -785.073 2106
-15.5684 -782.091 2098
-10.5514 -782.091 2098
-5.53445 -782.091 2098
-0.517003 -781.346 2096
4.49517 -781.346 2096
9.50734 -781.346 2096
14.4987 -780.227 2093
19.5037 -780.227 2093
24.5087 -780.227 2093
29.5137 -780.227 2093
34.5187 -780.227 2093
39.486 -779.482 2091
44.4862 -779.482 2091
49.5337 -780.227 2093
54.5387 -780.227 2093
59.5437 -780.227 2093
64.6412 -781.346 2096
69.9193 -784.328 2104
74.9505 -784.328 2104
80.0579 -785.073 2106
85.094 -785.073 2106
90.3868 -787.31 2112
95.4373 -787.31 2112
100.488 -787.31 2112
105.638 -788.056 2114
110.85 -789.174 2117
116.077 -790.292 2120
121.147 -790.292 2120
126.216 -790.292 2120
131.595 -792.156 2125
136.677 -792.156 2125
141.758 -792.156 2125
147.255 -794.393 2131
152.493 -795.138 2133
157.816 -796.257 2136
162.923 -796.257 2136
168.031 -796.257 2136
173.382 -797.375 2139
178.748 -798.493 2142
183.87 -798.493 2142
188.992 -798.493 2142
194.295 -799.239 2144
199.422 -799.239 2144
204.549 -799.239 2144
209.676 -799.239 2144
214.803 -799.239 2144
219.93 -799.239 2144
224.217 -796.257 2136
1446.47 -1410.22 3783
1455.52 -1410.22 3783
1464.57 -1410.22 3783
1466.99 -1403.89 3766
1476 -1403.89 3766
1465.29 -1385.25 3716
1470.6 -1381.89 3707
1476.27 -1378.91 3699
1485.12 -1378.91 3699
1504.06 -1388.23 3724
1512.97 -1388.23 3724
1528.41 -1394.19 3740
1544.34 -1400.53 3757
1553.33 -1400.53 3757
1562.31 -1400.53 3757
1557.49 -1388.23 3724
1555.88 -1378.91 3699
1564.73 -1378.91 3699
1563.36 -1369.96 3675
1564.88 -1363.63 3658
1573.63 -1363.63 3658
1582.37 -1363.63 3658
1587.64 -1360.64 3650
-2910.33 -1467.83 3963
-2900.86 -1467.83 3963
-2891.38 -1467.83 3963
-2868.09 -1460.79 3944
-2858.66 -1460.79 3944
-2835.5 -1453.76 3925
-2826.11 -1453.76 3925
-2803.81 -1447.09 3907
-2794.47 -1447.09 3907
-2778.71 -1443.76 3898
-2769.39 -1443.76 3898
-2747.32 -1437.09 3880
-2725.34 -1430.42 3862
-2716.1 -1430.42 3862
-2706.87 -1430.42 3862
-2697.63 -1430.42 3862
-2688.4 -1430.42 3862
-2666.68 -1423.76 3844
-2657.49 -1423.76 3844
-2630.38 -1414.13 3818
-2597.22 -1401.16 3783
-2582.02 -1397.83 3774
-2572.99 -1397.83 3774
-2558.53 -1394.87 3766
-2549.53 -1394.87 3766
-2534.45 -1391.53 3757
-2525.47 -1391.53 3757
-2505.1 -1385.24 3740
-2463.45 -1367.09 3691
-2432.68 -1354.86 3658
-2408.69 -1346.35 3635
-2400 -1346.35 3635
-2370.25 -1334.49 3603
-2356.39 -1331.53 3595
-2338 -1325.97 3580
-2329.44 -1325.97 3580
-2315.69 -1323.01 3572
-1342.51 -1367.09 3691
-1333.68 -1367.09 3691
-1336.7 -1379.31 3724
-1327.8 -1379.31 3724
-1327.74 -1388.57 3749
-1318.78 -1388.57 3749
-1309.81 -1388.57 3749
-1300.85 -1388.57 3749
-1288.78 -1385.24 3740
-1279.84 -1385.24 3740
-1270.9 -1385.24 3740
-1261.95 -1385.24 3740
-1250.33 -1382.27 3732
-1238.74 -1379.31 3724
-1229.84 -1379.31 3724
-1218.31 -1376.35 3716
-1217.23 -1385.24 3740
-1211.2 -1388.57 3749
-1210.25 -1397.83 3774
-1201.23 -1397.83 3774
-1195.04 -1401.16 3783
-1196.97 -1414.13 3818
-1190.33 -1417.09 3826
-1181.18 -1417.09 3826
-1172.03 -1417.09 3826
-1168.35 -1423.76 3844
-1159.16 -1423.76 3844
-1149.97 -1423.76 3844
-81.7129 -785.955 2122
-76.6386 -785.955 2122
-71.5642 -785.955 2122
-66.3332 -784.103 2117
-61.2708 -784.103 2117
-56.2085 -784.103 2117
-51.0736 -782.991 2114
-46.0184 -782.991 2114
-40.9632 -782.991 2114
-35.9079 -782.991 2114
-30.8527 -782.991 2114
-25.7731 -782.251 2112
-20.6638 -780.028 2106
-15.6129 -779.288 2104
-10.5816 -779.288 2104
-5.53445 -777.065 2098
-0.517496 -777.065 2098
4.49946 -777.065 2098
9.51641 -777.065 2098
14.5195 -776.325 2096
19.5317 -776.325 2096
24.5439 -776.325 2096
29.556 -776.325 2096
34.5682 -776.325 2096
39.5804 -776.325 2096
44.5925 -776.325 2096
49.6047 -776.325 2096
54.6169 -776.325 2096
59.6291 -776.325 2096
64.7029 -777.065 2098
69.9193 -779.288 2104
74.9505 -779.288 2104
80.0579 -780.028 2106
85.094 -780.028 2106
90.3868 -782.251 2112
95.4373 -782.251 2112
100.488 -782.251 2112
105.638 -782.991 2114
110.693 -782.991 2114
115.913 -784.103 2117
120.975 -784.103 2117
126.216 -785.214 2120
131.41 -785.955 2122
136.677 -787.066 2125
141.758 -787.066 2125
147.255 -789.288 2131
152.35 -789.288 2131
157.594 -790.029 2133
162.695 -790.029 2133
168.031 -791.14 2136
173.139 -791.14 2136
178.497 -792.251 2139
183.612 -792.251 2139
188.992 -793.362 2142
194.295 -794.103 2144
199.422 -794.103 2144
204.549 -794.103 2144
209.676 -794.103 2144
215.705 -797.436 2153
221.059 -798.177 2155
226.212 -798.177 2155
231.365 -798.177 2155
1449.92 -1404.5 3792
1458.98 -1404.5 3792
1468.05 -1404.5 3792
1466.99 -1394.87 3766
1476 -1394.87 3766
1465.29 -1376.35 3716
1474.17 -1376.35 3716
1476.27 -1370.05 3699
1485.12 -1370.05 3699
1504.06 -1379.31 3724
1512.97 -1379.31 3724
1532.09 -1388.57 3749
1544.34 -1391.53 3757
1553.33 -1391.53 3757
1562.31 -1391.53 3757
1557.49 -1379.31 3724
1559.25 -1373.01 3707
1568.11 -1373.01 3707
1570.17 -1367.09 3691
1572.15 -1361.16 3675
1580.94 -1361.16 3675
1589.73 -1361.16 3675
1591.12 -1354.86 3658
-2894.55 -1441.04 3916
-2885.18 -1441.04 3916
-2882.43 -1444.35 3925
-2873.04 -1444.35 3925
-2863.66 -1444.35 3925
-2854.27 -1444.35 3925
-2844.89 -1444.35 3925
-2829 -1441.04 3916
-2819.63 -1441.04 3916
-2803.81 -1437.73 3907
-2781.59 -1431.11 3889
-2772.29 -1431.11 3889
-2762.99 -1431.11 3889
-2740.95 -1424.48 3871
-2725.34 -1421.17 3862
-2716.1 -1421.17 3862
-2706.87 -1421.17 3862
-2697.63 -1421.17 3862
-2688.4 -1421.17 3862
-2666.68 -1414.55 3844
-2657.49 -1414.55 3844
-2642.09 -1411.24 3835
-2621.25 -1404.98 3818
-2588.17 -1392.1 3783
-2579.13 -1392.1 3783
-2563.97 -1388.79 3774
-2549.53 -1385.84 3766
-2540.52 -1385.84 3766
-2531.52 -1385.84 3766
-2516.48 -1382.53 3757
-2485.47 -1370.39 3724
-2438.66 -1349.41 3667
-2418.63 -1343.16 3650
-2409.9 -1343.16 3650
-2395.91 -1340.21 3642
-2366.88 -1328.81 3611
-2353.02 -1325.86 3603
-2344.4 -1325.86 3603
-2330.6 -1322.92 3595
-1345.42 -1361.19 3699
-1345.61 -1370.39 3724
-1342.44 -1376.28 3740
-1333.5 -1376.28 3740
-1327.74 -1379.59 3749
-1321.59 -1382.53 3757
-1312.61 -1382.53 3757
-1303.62 -1382.53 3757
-1291.88 -1379.59 3749
-1288.74 -1385.84 3766
-1279.73 -1385.84 3766
-1270.73 -1385.84 3766
-1261.72 -1385.84 3766
-1247.06 -1379.59 3749
-1238.09 -1379.59 3749
-1226.18 -1376.28 3740
-1220.16 -1379.59 3749
-1213.78 -1382.53 3757
-1210.25 -1388.79 3774
-1201.23 -1388.79 3774
-1197.89 -1395.41 3792
-1196.97 -1404.98 3818
-1193.13 -1411.24 3835
-1183.96 -1411.24 3835
-1174.79 -1411.24 3835
-1168.35 -1414.55 3844
-1159.16 -1414.55 3844
-1149.97 -1414.55 3844
-81.7129 -780.871 2122
-76.7469 -781.975 2125
-71.6654 -781.975 2125
-66.5839 -781.975 2125
-61.5024 -781.975 2125
-56.4209 -781.975 2125
-51.2669 -780.871 2122
-46.1925 -780.871 2122
-41.1182 -780.871 2122
-36.0099 -780.135 2120
-30.9403 -780.135 2120
-25.7975 -777.927 2114
-20.6932 -776.087 2109
-15.6277 -774.983 2106
-10.5916 -774.983 2106
-5.55555 -774.983 2106
-0.518236 -773.143 2101
4.50589 -773.143 2101
9.54363 -774.247 2104
14.5749 -774.247 2104
19.6062 -774.247 2104
24.6375 -774.247 2104
29.6688 -774.247 2104
34.6507 -773.143 2101
39.5804 -771.304 2096
44.5925 -771.304 2096
49.6047 -771.304 2096
54.6169 -771.304 2096
59.6291 -771.304 2096
64.7029 -772.039 2098
69.9193 -774.247 2104
74.9505 -774.247 2104
80.0579 -774.983 2106
85.094 -774.983 2106
90.3868 -777.191 2112
95.4373 -777.191 2112
100.488 -777.191 2112
105.638 -777.927 2114
110.693 -777.927 2114
115.913 -779.031 2117
120.975 -779.031 2117
126.216 -780.135 2120
131.41 -780.871 2122
136.677 -781.975 2125
141.758 -781.975 2125
147.255 -784.183 2131
152.35 -784.183 2131
157.594 -784.919 2133
162.695 -784.919 2133
168.031 -786.023 2136
173.139 -786.023 2136
178.497 -787.127 2139
183.612 -787.127 2139
188.992 -788.231 2142
194.295 -788.967 2144
199.422 -788.967 2144
204.549 -788.967 2144
209.676 -788.967 2144
215.705 -792.279 2153
221.059 -793.015 2155
226.212 -793.015 2155
231.365 -793.015 2155
1449.92 -1395.41 3792
1458.98 -1395.41 3792
1468.05 -1395.41 3792
1466.99 -1385.84 3766
1476 -1385.84 3766
1465.29 -1367.44 3716
1474.17 -1367.44 3716
1476.27 -1361.19 3699
1481.91 -1358.24 3691
1504.06 -1370.39 3724
1512.97 -1370.39 3724
1532.09 -1379.59 3749
1541.05 -1379.59 3749
1550.02 -1379.59 3749
1555.24 -1376.28 3740
1554.15 -1367.44 3716
1559.25 -1364.13 3707
1568.11 -1364.13 3707
1570.17 -1358.24 3691
1572.15 -1352.36 3675
1580.94 -1352.36 3675
1589.73 -1352.36 3675
1591.12 -1346.1 3658
-2894.55 -1431.66 3916
-2885.18 -1431.66 3916
-2875.82 -1431.66 3916
-2866.45 -1431.66 3916
-2857.09 -1431.66 3916
-2847.73 -1431.66 3916
-2838.36 -1431.66 3916
-2815.99 -1425.08 3898
-2806.67 -1425.08 3898
-2797.35 -1425.08 3898
-2781.59 -1421.79 3889
-2772.29 -1421.79 3889
-2762.99 -1421.79 3889
-2747.32 -1418.5 3880
-2725.34 -1411.92 3862
-2716.1 -1411.92 3862
-2706.87 -1411.92 3862
-2697.63 -1411.92 3862
-2688.4 -1411.92 3862
-2679.16 -1411.92 3862
-2669.93 -1411.92 3862
-2648.29 -1405.34 3844
-2632.92 -1402.05 3835
-2612.12 -1395.83 3818
-2602.99 -1395.83 3818
-2587.75 -1392.54 3809
-2572.54 -1389.25 3800
-2558.06 -1386.33 3792
-2548.99 -1386.33 3792
-2527.87 -1379.75 3774
-2502.16 -1370.61 3749
-2465.26 -1355.25 3707
-2456.4 -1355.25 3707
-2415.18 -1337.34 3658
-2401.17 -1334.41 3650
-2387.2 -1331.49 3642
-2358.24 -1320.16 3611
-2349.61 -1320.16 3611
-2335.79 -1317.23 3603
-1345.42 -1352.33 3699
-1348.5 -1364.39 3732
-1345.67 -1370.61 3749
-1336.71 -1370.61 3749
-1330.58 -1373.53 3757
-1327.57 -1379.75 3774
-1318.55 -1379.75 3774
-1309.52 -1379.75 3774
-1297.74 -1376.82 3766
-1288.74 -1376.82 3766
-1282.45 -1379.75 3774
-1273.42 -1379.75 3774
-1264.4 -1379.75 3774
-1255.38 -1379.75 3774
-1246.35 -1379.75 3774
-1229.13 -1370.61 3749
-1222.77 -1373.53 3757
-1216.69 -1376.82 3766
-1216.02 -1386.33 3792
-1206.96 -1386.33 3792
-1197.89 -1386.33 3792
-1196.97 -1395.83 3818
-1193.13 -1402.05 3835
-1183.96 -1402.05 3835
-1174.79 -1402.05 3835
-1168.35 -1405.34 3844
-1159.16 -1405.34 3844
-1149.97 -1405.34 3844
-81.5204 -773.96 2117
-76.7469 -776.885 2125
-71.6654 -776.885 2125
-66.5839 -776.885 2125
-61.5024 -776.885 2125
-56.4209 -776.885 2125
-51.2669 -775.788 2122
-46.1925 -775.788 2122
-41.1182 -775.788 2122
-36.0099 -775.057 2120
-30.9403 -775.057 2120
-25.7975 -772.863 2114
-20.6932 -771.035 2109
-15.6277 -769.938 2106
-10.5916 -769.938 2106
-5.55555 -769.938 2106
-0.518236 -768.111 2101
4.50589 -768.111 2101
9.54363 -769.207 2104
14.5749 -769.207 2104
19.6062 -769.207 2104
24.6375 -769.207 2104
29.6688 -769.207 2104
34.6507 -768.111 2101
39.5804 -766.283 2096
44.5925 -766.283 2096
49.6047 -766.283 2096
54.6169 -766.283 2096
59.6291 -766.283 2096
64.7029 -767.014 2098
69.9193 -769.207 2104
74.9505 -769.207 2104
80.0579 -769.938 2106
85.094 -769.938 2106
90.3868 -772.132 2112
95.4373 -772.132 2112
100.488 -772.132 2112
105.638 -772.863 2114
110.693 -772.863 2114
115.913 -773.96 2117
120.975 -773.96 2117
126.038 -773.96 2117
131.41 -775.788 2122
136.677 -776.885 2125
141.758 -776.885 2125
147.047 -777.982 2128
152.35 -779.078 2131
157.594 -779.81 2133
162.695 -779.81 2133
167.795 -779.81 2133
173.139 -780.906 2136
178.247 -780.906 2136
183.355 -780.906 2136
188.727 -782.003 2139
194.114 -783.1 2142
199.236 -783.1 2142
204.359 -783.1 2142
209.676 -783.831 2144
215.705 -787.121 2153
221.059 -787.853 2155
226.212 -787.853 2155
231.365 -787.853 2155
1460.61 -1405.34 3844
1469.8 -1405.34 3844
1478.99 -1405.34 3844
1484.7 -1402.05 3835
1477.12 -1386.33 3792
1486.19 -1386.33 3792
1468.44 -1361.47 3724
1474.17 -1358.54 3716
1483.06 -1358.54 3716
1495.16 -1361.47 3724
1521.03 -1376.82 3766
1530.03 -1376.82 3766
1539.04 -1376.82 3766
1548.04 -1376.82 3766
1557.05 -1376.82 3766
1558.98 -1370.61 3749
1560.84 -1364.39 3732
1563.03 -1358.54 3716
1571.92 -1358.54 3716
1576.98 -1355.25 3707
1579 -1349.4 3691
1587.82 -1349.4 3691
1596.65 -1349.4 3691
1605.48 -1349.4 3691
-2921.9 -1435.72 3953
-2912.44 -1435.72 3953
-2902.99 -1435.72 3953
-2880.36 -1429.18 3935
-2870.95 -1429.18 3935
-2861.54 -1429.18 3935
-2838.36 -1422.28 3916
-2815.99 -1415.74 3898
-2806.67 -1415.74 3898
-2797.35 -1415.74 3898
-2788.03 -1415.74 3898
-2778.71 -1415.74 3898
-2769.39 -1415.74 3898
-2747.32 -1409.21 3880
-2725.34 -1402.67 3862
-2716.1 -1402.67 3862
-2706.87 -1402.67 3862
-2697.63 -1402.67 3862
-2688.4 -1402.67 3862
-2679.16 -1402.67 3862
-2669.93 -1402.67 3862
-2648.29 -1396.13 3844
-2632.92 -1392.86 3835
-2617.59 -1389.59 3826
-2608.44 -1389.59 3826
-2593.86 -1386.69 3818
-2578.64 -1383.42 3809
-2558.06 -1377.24 3792
-2548.99 -1377.24 3792
-2539.93 -1377.24 3792
-2518.84 -1370.71 3774
-2493.19 -1361.63 3749
-2484.23 -1361.63 3749
-2415.18 -1328.58 3658
-2401.17 -1325.67 3650
-2387.2 -1322.76 3642
-2358.24 -1311.51 3611
-2349.61 -1311.51 3611
-2335.79 -1308.6 3603
-1345.42 -1343.47 3699
-1348.5 -1355.45 3732
-1345.67 -1361.63 3749
-1336.71 -1361.63 3749
-1330.58 -1364.53 3757
-1327.57 -1370.71 3774
-1318.55 -1370.71 3774
-1309.52 -1370.71 3774
-1297.74 -1367.8 3766
-1288.74 -1367.8 3766
-1282.45 -1370.71 3774
-1273.42 -1370.71 3774
-1264.4 -1370.71 3774
-1255.38 -1370.71 3774
-1246.35 -1370.71 3774
-1229.13 -1361.63 3749
-1222.77 -1364.53 3757
-1216.69 -1367.8 3766
-1216.02 -1377.24 3792
-1206.96 -1377.24 3792
-1197.89 -1377.24 3792
-1196.97 -1386.69 3818
-1193.13 -1392.86 3835
-1183.96 -1392.86 3835
-1174.79 -1392.86 3835
-1165.62 -1392.86 3835
-1156.45 -1392.86 3835
-1147.28 -1392.86 3835
-81.944 -772.884 2128
-76.8553 -772.884 2128
-71.7666 -772.884 2128
-66.6779 -772.884 2128
-61.5024 -771.794 2125
-56.4209 -771.794 2125
-51.3393 -771.794 2125
-46.2578 -771.794 2125
-41.1763 -771.794 2125
-36.0948 -771.794 2125
-31.0133 -771.794 2125
-25.8707 -769.978 2120
-20.7423 -767.799 2114
-15.65 -765.983 2109
-10.6067 -765.983 2109
-5.55555 -764.894 2106
-0.519469 -764.894 2106
4.51233 -764.167 2104
9.54363 -764.167 2104
14.5749 -764.167 2104
19.6062 -764.167 2104
24.6375 -764.167 2104
29.6688 -764.167 2104
34.7001 -764.167 2104
39.6181 -761.988 2098
44.6351 -761.988 2098
49.652 -761.988 2098
54.5387 -760.172 2093
59.5437 -760.172 2093
64.7029 -761.988 2098
69.9193 -764.167 2104
74.9505 -764.167 2104
80.0579 -764.894 2106
85.094 -764.894 2106
90.2584 -765.983 2109
95.4373 -767.073 2112
100.488 -767.073 2112
105.538 -767.073 2112
110.589 -767.073 2112
115.748 -767.799 2114
120.804 -767.799 2114
126.038 -768.889 2117
131.286 -769.978 2120
136.484 -770.705 2122
141.558 -770.705 2122
146.84 -771.794 2125
152.136 -772.884 2128
157.446 -773.973 2131
162.542 -773.973 2131
167.638 -773.973 2131
172.896 -774.7 2133
177.997 -774.7 2133
183.097 -774.7 2133
188.463 -775.789 2136
193.842 -776.879 2139
198.957 -776.879 2139
204.072 -776.879 2139
209.481 -777.969 2142
214.603 -777.969 2142
219.725 -777.969 2142
223.902 -774.7 2133
1460.61 -1396.13 3844
1469.8 -1396.13 3844
1478.99 -1396.13 3844
1484.7 -1392.86 3835
1480.24 -1380.15 3800
1489.32 -1380.15 3800
1471.6 -1355.45 3732
1477.35 -1352.55 3724
1486.25 -1352.55 3724
1498.37 -1355.45 3732
1527.89 -1373.98 3783
1536.94 -1373.98 3783
1545.98 -1373.98 3783
1555.03 -1373.98 3783
1564.08 -1373.98 3783
1558.98 -1361.63 3749
1560.84 -1355.45 3732
1566.4 -1352.55 3724
1575.3 -1352.55 3724
1576.98 -1346.37 3707
1582.42 -1343.47 3699
1591.27 -1343.47 3699
1600.11 -1343.47 3699
1605.48 -1340.56 3691
-2921.9 -1426.25 3953
-2912.44 -1426.25 3953
-2902.99 -1426.25 3953
-2880.36 -1419.76 3935
-2870.95 -1419.76 3935
-2861.54 -1419.76 3935
-2831.84 -1409.65 3907
-2815.99 -1406.41 3898
-2806.67 -1406.41 3898
-2797.35 -1406.41 3898
-2788.03 -1406.41 3898
-2778.71 -1406.41 3898
-2769.39 -1406.41 3898
-2747.32 -1399.91 3880
-2725.34 -1393.42 3862
-2716.1 -1393.42 3862
-2706.87 -1393.42 3862
-2697.63 -1393.42 3862
-2688.4 -1393.42 3862
-2679.16 -1393.42 3862
-2669.93 -1393.42 3862
-2648.29 -1386.92 3844
-2632.92 -1383.67 3835
-2617.59 -1380.43 3826
-2608.44 -1380.43 3826
-2593.86 -1377.54 3818
-2578.64 -1374.29 3809
-2558.06 -1368.16 3792
-2548.99 -1368.16 3792
-2539.93 -1368.16 3792
-2518.84 -1361.67 3774
-2493.19 -1352.65 3749
-2484.23 -1352.65 3749
-2458.76 -1343.63 3724
-2412.35 -1323.06 3667
-2397.69 -1319.81 3658
-2388.94 -1319.81 3658
-2380.19 -1319.81 3658
-2335.79 -1299.97 3603
-1354.64 -1352.65 3749
-1348.55 -1355.53 3757
-1339.56 -1355.53 3757
-1339.79 -1364.91 3783
-1330.74 -1364.91 3783
-1321.69 -1364.91 3783
-1312.65 -1364.91 3783
-1303.6 -1364.91 3783
-1300.37 -1371.05 3800
-1291.28 -1371.05 3800
-1282.2 -1371.05 3800
-1273.11 -1371.05 3800
-1264.02 -1371.05 3800
-1254.94 -1371.05 3800
-1245.85 -1371.05 3800
-1242.62 -1377.54 3818
-1233.49 -1377.54 3818
-1224.36 -1377.54 3818
-1212.37 -1374.29 3809
-1203.26 -1374.29 3809
-1196.97 -1377.54 3818
-1193.13 -1383.67 3835
-1183.96 -1383.67 3835
-1174.79 -1383.67 3835
-1165.62 -1383.67 3835
-1156.45 -1383.67 3835
-1147.28 -1383.67 3835
-81.944 -767.786 2128
-76.8553 -767.786 2128
-71.7666 -767.786 2128
-66.6779 -767.786 2128
-61.5892 -767.786 2128
-56.5005 -767.786 2128
-51.4118 -767.786 2128
-46.3231 -767.786 2128
-41.2344 -767.786 2128
-36.0948 -766.704 2125
-31.0133 -766.704 2125
-25.8707 -764.9 2120
-20.7717 -763.817 2117
-15.6722 -762.013 2112
-10.6218 -762.013 2112
-5.56347 -760.931 2109
-0.519469 -759.849 2106
4.51233 -759.127 2104
9.54363 -759.127 2104
14.5749 -759.127 2104
19.6249 -759.849 2106
24.661 -759.849 2106
29.697 -759.849 2106
34.7001 -759.127 2104
39.6181 -756.962 2098
44.6351 -756.962 2098
49.652 -756.962 2098
54.5387 -755.158 2093
59.5437 -755.158 2093
64.7029 -756.962 2098
69.9193 -759.127 2104
74.9505 -759.127 2104
80.0579 -759.849 2106
85.094 -759.849 2106
90.2584 -760.931 2109
95.4373 -762.013 2112
100.488 -762.013 2112
105.538 -762.013 2112
110.589 -762.013 2112
115.748 -762.735 2114
120.804 -762.735 2114
125.859 -762.735 2114
131.286 -764.9 2120
136.484 -765.621 2122
141.558 -765.621 2122
146.633 -765.621 2122
151.921 -766.704 2125
157.225 -767.786 2128
162.313 -767.786 2128
167.638 -768.869 2131
172.896 -769.59 2133
177.997 -769.59 2133
183.097 -769.59 2133
188.198 -769.59 2133
193.57 -770.673 2136
198.678 -770.673 2136
203.786 -770.673 2136
208.894 -770.673 2136
214.002 -770.673 2136
219.11 -770.673 2136
223.902 -769.59 2133
1460.61 -1386.92 3844
1469.8 -1386.92 3844
1478.99 -1386.92 3844
1484.7 -1383.67 3835
1480.24 -1371.05 3800
1489.32 -1371.05 3800
1478.3 -1352.65 3749
1480.52 -1346.51 3732
1489.44 -1346.51 3732
1501.58 -1349.4 3740
1527.89 -1364.91 3783
1536.94 -1364.91 3783
1545.98 -1364.91 3783
1555.03 -1364.91 3783
1564.08 -1364.91 3783
1562.31 -1355.53 3757
1564.19 -1349.4 3740
1566.4 -1343.63 3724
1575.3 -1343.63 3724
1584.21 -1343.63 3724
1582.42 -1334.61 3699
1591.27 -1334.61 3699
1600.11 -1334.61 3699
1605.48 -1331.72 3691
-2921.9 -1416.78 3953
-2912.44 -1416.78 3953
-2902.99 -1416.78 3953
-2893.54 -1416.78 3953
-2884.09 -1416.78 3953
-2861.54 -1410.33 3935
-2831.84 -1400.29 3907
-2815.99 -1397.07 3898
-2806.67 -1397.07 3898
-2797.35 -1397.07 3898
-2788.03 -1397.07 3898
-2778.71 -1397.07 3898
-2769.39 -1397.07 3898
-2747.32 -1390.62 3880
-2725.34 -1384.17 3862
-2709.78 -1380.94 3853
-2700.56 -1380.94 3853
-2691.35 -1380.94 3853
-2682.13 -1380.94 3853
-2666.68 -1377.71 3844
-2657.49 -1377.71 3844
-2642.09 -1374.49 3835
-2632.92 -1374.49 3835
-2617.59 -1371.26 3826
-2608.44 -1371.26 3826
-2593.86 -1368.4 3818
-2578.64 -1365.17 3809
-2558.06 -1359.08 3792
-2548.99 -1359.08 3792
-2539.93 -1359.08 3792
-2518.84 -1352.63 3774
-2493.19 -1343.67 3749
-2484.23 -1343.67 3749
-2475.26 -1343.67 3749
-2471.56 -1346.53 3757
-2462.58 -1346.53 3757
-2453.59 -1346.53 3757
-2428.34 -1337.57 3732
-1354.64 -1343.67 3749
-1351.78 -1349.76 3766
-1342.77 -1349.76 3766
-1342.97 -1359.08 3792
-1349.03 -1374.49 3835
-1339.86 -1374.49 3835
-1330.69 -1374.49 3835
-1321.52 -1374.49 3835
-1309.27 -1371.26 3826
-1300.12 -1371.26 3826
-1290.97 -1371.26 3826
-1284.84 -1374.49 3835
-1275.67 -1374.49 3835
-1266.5 -1374.49 3835
-1257.32 -1374.49 3835
-1251.08 -1377.71 3844
-1241.89 -1377.71 3844
-1232.7 -1377.71 3844
-1217.78 -1371.26 3826
-1208.63 -1371.26 3826
-1199.48 -1371.26 3826
-1193.13 -1374.49 3835
-1183.96 -1374.49 3835
-1177.55 -1377.71 3844
-1168.35 -1377.71 3844
-1159.16 -1377.71 3844
-1149.97 -1377.71 3844
-81.944 -762.689 2128
-76.8553 -762.689 2128
-71.7666 -762.689 2128
-66.6779 -762.689 2128
-61.5892 -762.689 2128
-56.5005 -762.689 2128
-51.4118 -762.689 2128
-46.3231 -762.689 2128
-41.2344 -762.689 2128
-36.1457 -762.689 2128
-31.0571 -762.689 2128
-25.9318 -761.613 2125
-20.8012 -759.821 2120
-15.6871 -757.671 2114
-10.6319 -757.671 2114
-5.57138 -756.954 2112
-0.520209 -755.879 2109
4.52305 -755.879 2109
9.56631 -755.879 2109
14.6096 -755.879 2109
19.6808 -756.954 2112
24.7312 -756.954 2112
29.7816 -756.954 2112
34.7331 -754.804 2106
39.7314 -754.087 2104
44.6989 -753.012 2101
49.723 -753.012 2101
54.669 -751.936 2098
59.6291 -751.22 2096
64.7954 -753.012 2101
69.9193 -754.087 2104
74.9505 -754.087 2104
80.0579 -754.804 2106
85.094 -754.804 2106
90.2584 -755.879 2109
95.4373 -756.954 2112
100.488 -756.954 2112
105.538 -756.954 2112
110.589 -756.954 2112
115.748 -757.671 2114
120.804 -757.671 2114
125.859 -757.671 2114
131.286 -759.821 2120
136.484 -760.538 2122
141.558 -760.538 2122
146.633 -760.538 2122
151.921 -761.613 2125
157.225 -762.689 2128
162.313 -762.689 2128
167.638 -763.764 2131
172.896 -764.481 2133
177.997 -764.481 2133
183.097 -764.481 2133
188.198 -764.481 2133
193.57 -765.556 2136
198.678 -765.556 2136
203.786 -765.556 2136
208.894 -765.556 2136
214.002 -765.556 2136
219.11 -765.556 2136
223.902 -764.481 2133
1460.61 -1377.71 3844
1469.8 -1377.71 3844
1478.99 -1377.71 3844
1481.21 -1371.26 3826
1480.24 -1361.94 3800
1489.32 -1361.94 3800
1478.3 -1343.67 3749
1480.52 -1337.57 3732
1489.44 -1337.57 3732
1501.58 -1340.44 3740
1527.89 -1355.85 3783
1536.94 -1355.85 3783
1545.98 -1355.85 3783
1555.03 -1355.85 3783
1564.08 -1355.85 3783
1562.31 -1346.53 3757
1564.19 -1340.44 3740
1566.4 -1334.71 3724
1575.3 -1334.71 3724
1584.21 -1334.71 3724
1582.42 -1325.74 3699
1591.27 -1325.74 3699
1600.11 -1325.74 3699
1605.48 -1322.88 3691
-2921.9 -1407.31 3953
-2912.44 -1407.31 3953
-2902.99 -1407.31 3953
-2893.54 -1407.31 3953
-2884.09 -1407.31 3953
-2861.54 -1400.9 3935
-2831.84 -1390.93 3907
-2809.49 -1384.53 3889
-2800.19 -1384.53 3889
-2777.98 -1378.12 3871
-2775.16 -1381.32 3880
-2765.88 -1381.32 3880
-2756.6 -1381.32 3880
-2734.58 -1374.91 3862
-2712.64 -1368.51 3844
-2709.78 -1371.71 3853
-2700.56 -1371.71 3853
-2691.35 -1371.71 3853
-2682.13 -1371.71 3853
-2666.68 -1368.51 3844
-2657.49 -1368.51 3844
-2642.09 -1365.3 3835
-2626.74 -1362.1 3826
-2612.12 -1359.25 3818
-2602.99 -1359.25 3818
-2587.75 -1356.05 3809
-2578.64 -1356.05 3809
-2558.06 -1349.99 3792
-2548.99 -1349.99 3792
-2539.93 -1349.99 3792
-2518.84 -1343.58 3774
-2498.51 -1337.53 3757
-2489.53 -1337.53 3757
-2480.55 -1337.53 3757
-2494.59 -1349.99 3792
-2485.52 -1349.99 3792
-2476.45 -1349.99 3792
-2461.53 -1346.79 3783
-1354.64 -1334.68 3749
-1351.78 -1340.74 3766
-1352.04 -1349.99 3792
-1367.76 -1374.91 3862
-1361.69 -1378.12 3871
-1352.44 -1378.12 3871
-1343.18 -1378.12 3871
-1330.82 -1374.91 3862
-1321.59 -1374.91 3862
-1309.29 -1371.71 3853
-1300.08 -1371.71 3853
-1293.88 -1374.91 3862
-1284.65 -1374.91 3862
-1275.41 -1374.91 3862
-1263.23 -1371.71 3853
-1254.01 -1371.71 3853
-1241.89 -1368.51 3844
-1232.7 -1368.51 3844
-1223.51 -1368.51 3844
-1211.47 -1365.3 3835
-1202.3 -1365.3 3835
-1195.93 -1368.51 3844
-1186.74 -1368.51 3844
-1183.06 -1374.91 3862
-1176.56 -1378.12 3871
-1167.3 -1378.12 3871
-1158.05 -1378.12 3871
-81.944 -757.591 2128
-76.8553 -757.591 2128
-71.7666 -757.591 2128
-66.6779 -757.591 2128
-61.5892 -757.591 2128
-56.5005 -757.591 2128
-51.4118 -757.591 2128
-46.3231 -757.591 2128
-41.2344 -757.591 2128
-36.1457 -757.591 2128
-31.0571 -757.591 2128
-25.9318 -756.523 2125
-20.8012 -754.743 2120
-15.6871 -752.607 2114
-10.6319 -752.607 2114
-5.57138 -751.895 2112
-0.520209 -750.827 2109
4.52305 -750.827 2109
9.56631 -750.827 2109
14.6096 -750.827 2109
19.6808 -751.895 2112
24.7312 -751.895 2112
29.7816 -751.895 2112
34.7331 -749.759 2106
39.7314 -749.047 2104
44.6989 -747.979 2101
49.723 -747.979 2101
54.669 -746.911 2098
59.6291 -746.199 2096
64.7954 -747.979 2101
69.9193 -749.047 2104
74.9505 -749.047 2104
80.0579 -749.759 2106
85.094 -749.759 2106
90.2584 -750.827 2109
95.4373 -751.895 2112
100.488 -751.895 2112
105.538 -751.895 2112
110.589 -751.895 2112
115.748 -752.607 2114
120.804 -752.607 2114
125.859 -752.607 2114
131.1 -753.675 2117
136.355 -754.743 2120
141.425 -754.743 2120
146.494 -754.743 2120
151.707 -755.455 2122
157.003 -756.523 2125
162.084 -756.523 2125
167.402 -757.591 2128
172.734 -758.659 2131
177.83 -758.659 2131
182.926 -758.659 2131
188.021 -758.659 2131
193.117 -758.659 2131
198.399 -759.371 2133
203.5 -759.371 2133
208.6 -759.371 2133
213.701 -759.371 2133
218.802 -759.371 2133
223.378 -757.591 2128
1453.77 -1362.1 3826
1462.92 -1362.1 3826
1472.07 -1362.1 3826
1474.63 -1356.05 3809
1480.24 -1352.84 3800
1489.32 -1352.84 3800
1485 -1340.74 3766
1487.26 -1334.68 3749
1492.64 -1331.48 3740
1518.85 -1346.79 3783
1542.03 -1359.25 3818
1551.16 -1359.25 3818
1560.29 -1359.25 3818
1558.73 -1349.99 3792
1567.8 -1349.99 3792
1569.38 -1343.58 3774
1578.41 -1343.58 3774
1576.91 -1334.68 3749
1585.88 -1334.68 3749
1594.84 -1334.68 3749
1593.11 -1325.78 3724
1591.27 -1316.88 3699
1600.11 -1316.88 3699
-2921.9 -1397.84 3953
-2912.44 -1397.84 3953
-2902.99 -1397.84 3953
-2893.54 -1397.84 3953
-2884.09 -1397.84 3953
-2861.54 -1391.48 3935
-2831.84 -1381.57 3907
-2809.49 -1375.21 3889
-2800.19 -1375.21 3889
-2777.98 -1368.84 3871
-2775.16 -1372.03 3880
-2765.88 -1372.03 3880
-2756.6 -1372.03 3880
-2734.58 -1365.66 3862
-2712.64 -1359.3 3844
-2709.78 -1362.48 3853
-2700.56 -1362.48 3853
-2691.35 -1362.48 3853
-2682.13 -1362.48 3853
-2666.68 -1359.3 3844
-2657.49 -1359.3 3844
-2642.09 -1356.11 3835
-2626.74 -1352.93 3826
-2612.12 -1350.1 3818
-2602.99 -1350.1 3818
-2587.75 -1346.92 3809
-2578.64 -1346.92 3809
-2558.06 -1340.91 3792
-2548.99 -1340.91 3792
-2539.93 -1340.91 3792
-2518.84 -1334.54 3774
-2498.51 -1328.53 3757
-2489.53 -1328.53 3757
-2480.55 -1328.53 3757
-2516.95 -1352.93 3826
-2507.8 -1352.93 3826
-2498.66 -1352.93 3826
-2461.53 -1337.73 3783
-1354.64 -1325.7 3749
-1351.78 -1331.72 3766
-1352.04 -1340.91 3792
-1367.76 -1365.66 3862
-1361.69 -1368.84 3871
-1352.44 -1368.84 3871
-1343.18 -1368.84 3871
-1330.82 -1365.66 3862
-1321.59 -1365.66 3862
-1309.29 -1362.48 3853
