1419.97 1136.22 2192
1425.21 1136.22 2192
1430.45 1136.22 2192
1435.7 1136.22 2192
1435.68 1132.08 2184
1436.94 1128.97 2178
1430.89 1120.15 2161
1436.06 1120.15 2161
1437.23 1117.04 2155
1442.38 1117.04 2155
1453.58 1121.71 2164
1458.75 1121.71 2164
1463.93 1121.71 2164
1469.1 1121.71 2164
1474.28 1121.71 2164
1479.45 1121.71 2164
1484.63 1121.71 2164
1489.8 1121.71 2164
1492.91 1120.15 2161
1490.45 1114.45 2150
1497.68 1116.01 2153
1502.82 1116.01 2153
1509.37 1117.04 2155
1514.53 1117.04 2155
1519.68 1117.04 2155
1523.42 1116.01 2153
1522.18 1111.34 2144
1525.88 1110.31 2142
1531 1110.31 2142
1533.97 1108.75 2139
1539.09 1108.75 2139
1546.37 1110.31 2142
1551.49 1110.31 2142
1562.43 1114.45 2150
1567.57 1114.45 2150
1572.71 1114.45 2150
1577.85 1114.45 2150
1586.67 1117.04 2155
1591.83 1117.04 2155
1599.2 1118.6 2158
1606.59 1120.15 2161
1614 1121.71 2164
1619.17 1121.71 2164
1624.35 1121.71 2164
1627.26 1120.15 2161
1632.43 1120.15 2161
1637.6 1120.15 2161
1638.2 1117.04 2155
1645.65 1118.6 2158
1650.81 1118.6 2158
-1561.09 1085.75 2085
-1556.1 1085.75 2085
-1551.12 1085.75 2085
-1546.13 1085.75 2085
-1541.15 1085.75 2085
-1536.16 1085.75 2085
-1529.71 1084.71 2083
-1530.58 1088.88 2091
-1527.04 1089.92 2093
-1522.04 1089.92 2093
-1517.03 1089.92 2093
-1510.58 1088.88 2091
-1505.58 1088.88 2091
-1500.58 1088.88 2091
-1497.01 1089.92 2093
-1503.41 1098.25 2109
-1498.37 1098.25 2109
-1493.32 1098.25 2109
-1488.28 1098.25 2109
-1450.58 1088.88 2091
-1445.58 1088.88 2091
-1440.58 1088.88 2091
-1441.26 1100.86 2114
-1436.2 1100.86 2114
-1448.07 1113.87 2139
-1442.96 1113.87 2139
-1437.84 1113.87 2139
-1432.73 1113.87 2139
-1427.61 1113.87 2139
-1418.51 1110.75 2133
-1413.41 1110.75 2133
-1408.31 1110.75 2133
-1397.94 1106.58 2125
-1390.89 1105.02 2122
-1385.82 1105.02 2122
-1377.49 1102.42 2117
-1375.67 1105.02 2122
-1377.7 1110.75 2133
-1376.46 1113.87 2139
-1371.35 1113.87 2139
-1366.23 1113.87 2139
-1361.12 1113.87 2139
-1356 1113.87 2139
-1345.83 1109.71 2131
-1338.85 1108.15 2128
-1326.87 1102.42 2117
-1321.81 1102.42 2117
-1313.63 1099.81 2112
-1308.58 1099.81 2112
-1303.53 1099.81 2112
-1299.71 1100.86 2114
-1294.66 1100.86 2114
-1289.6 1100.86 2114
-1288.19 1103.98 2120
-1286.15 1106.58 2125
-1281.07 1106.58 2125
-1275.99 1106.58 2125
-1270.9 1106.58 2125
-1265.82 1106.58 2125
-1260.74 1106.58 2125
-1255.66 1106.58 2125
-1248.81 1105.02 2122
-1247.25 1108.15 2128
-1246.84 1112.31 2136
-1241.73 1112.31 2136
-1240.09 1115.44 2142
-1237.85 1118.04 2147
-1232.72 1118.04 2147
-1232.16 1122.21 2155
-1230.42 1125.33 2161
-1225.26 1125.33 2161
-1220.09 1125.33 2161
-1214.92 1125.33 2161
-1208.07 1123.77 2158
-1202.91 1123.77 2158
-1197.75 1123.77 2158
-1192.59 1123.77 2158
-1184.68 1121.16 2153
-1177.89 1119.6 2150
-1172.75 1119.6 2150
-1165.98 1118.04 2147
-1164.09 1121.16 2153
-1158.94 1121.16 2153
-1153.79 1121.16 2153
-1148.64 1121.16 2153
-1143.49 1121.16 2153
-1135.17 1118.04 2147
-1130.04 1118.04 2147
-1123.33 1116.48 2144
-1115.6 1113.87 2139
-1110.48 1113.87 2139
-1105.37 1113.87 2139
-1096.14 1109.71 2131
-1091.04 1109.71 2131
-1088.49 1112.31 2136
-1084.91 1113.87 2139
-1079.79 1113.87 2139
-1076.18 1115.44 2142
-1075.06 1119.6 2150
-1072.41 1122.21 2155
-1067.26 1122.21 2155
-1063.58 1123.77 2158
-1058.42 1123.77 2158
-1053.26 1123.77 2158
-1046.64 1122.21 2155
-1041.49 1122.21 2155
-1036.34 1122.21 2155
-1031.18 1122.21 2155
-1026.03 1122.21 2155
-1022.3 1123.77 2158
-1017.14 1123.77 2158
-1011.98 1123.77 2158
-1006.82 1123.77 2158
-1001.66 1123.77 2158
-1002.96 1131.06 2172
-1005.58 1139.91 2189
-1000.34 1139.91 2189
-996.471 1141.47 2192
-991.229 1141.47 2192
-985.987 1141.47 2192
-974.482 1134.18 2178
-967.938 1132.62 2175
-960.081 1129.5 2169
-954.895 1129.5 2169
-948.832 1128.46 2167
-943.65 1128.46 2167
-935.87 1125.33 2161
-933.286 1128.46 2167
-928.104 1128.46 2167
-923.774 1129.5 2169
-918.587 1129.5 2169
-913.401 1129.5 2169
-908.214 1129.5 2169
-903.027 1129.5 2169
-899.082 1131.06 2172
-893.888 1131.06 2172
-888.694 1131.06 2172
-883.5 1131.06 2172
-876.285 1128.46 2167
-866.279 1122.21 2155
-861.126 1122.21 2155
-852.795 1118.04 2147
-847.661 1118.04 2147
-840.564 1115.44 2142
-835.442 1115.44 2142
-830.32 1115.44 2142
-825.198 1115.44 2142
-826.201 1123.77 2158
-821.041 1123.77 2158
-815.881 1123.77 2158
-810.72 1123.77 2158
-800.334 1116.48 2144
-795.207 1116.48 2144
-781.973 1105.02 2122
-776.166 1103.98 2120
-770.005 1102.42 2117
-764.943 1102.42 2117
-758.804 1100.86 2114
-753.748 1100.86 2114
-748.693 1100.86 2114
-747.507 1106.58 2125
-742.426 1106.58 2125
-739.426 1109.71 2131
-736.053 1112.31 2136
-735.736 1119.6 2150
-730.595 1119.6 2150
-727.141 1122.21 2155
-722.993 1123.77 2158
-717.832 1123.77 2158
-712.672 1123.77 2158
-707.511 1123.77 2158
-703.327 1125.33 2161
-700.098 1128.46 2167
-694.916 1128.46 2167
-692.281 1132.62 2175
-687.08 1132.62 2175
-681.879 1132.62 2175
-676.677 1132.62 2175
-671.476 1132.62 2175
-666.275 1132.62 2175
-661.074 1132.62 2175
-655.873 1132.62 2175
-650.672 1132.62 2175
-647.252 1135.75 2181
-642.036 1135.75 2181
-637.697 1137.31 2184
-632.474 1137.31 2184
-627.251 1137.31 2184
-621.174 1135.75 2181
-615.959 1135.75 2181
-610.744 1135.75 2181
-605.528 1135.75 2181
-598.661 1132.62 2175
-593.46 1132.62 2175
-587.448 1131.06 2172
-581.449 1129.5 2169
-576.263 1129.5 2169
-571.076 1129.5 2169
-564.585 1126.89 2164
-557.083 1122.21 2155
-553.467 1125.33 2161
-549.822 1128.46 2167
-544.64 1128.46 2167
-539.956 1129.5 2169
-534.769 1129.5 2169
-529.582 1129.5 2169
-523.912 1128.46 2167
-516.576 1123.77 2158
-510.23 1121.16 2153
-506.255 1123.77 2158
-501.094 1123.77 2158
-495.934 1123.77 2158
-490.773 1123.77 2158
-486.288 1125.33 2161
-481.12 1125.33 2161
-475.953 1125.33 2161
-472.092 1128.46 2167
-466.91 1128.46 2167
-461.728 1128.46 2167
-456.546 1128.46 2167
-451.781 1129.5 2169
-448.447 1134.18 2178
-443.239 1134.18 2178
-438.031 1134.18 2178
-431.034 1129.5 2169
-425.455 1128.46 2167
-420.661 1129.5 2169
-415.474 1129.5 2169
-411.422 1132.62 2175
-406.781 1134.18 2178
-401.573 1134.18 2178
-396.365 1134.18 2178
-389.181 1128.46 2167
-382.404 1123.77 2158
-377.244 1123.77 2158
-372.083 1123.77 2158
-365.053 1118.04 2147
-359.416 1116.48 2144
-354.784 1118.04 2147
-349.65 1118.04 2147
-344.516 1118.04 2147
-338.908 1116.48 2144
-334.248 1118.04 2147
-329.114 1118.04 2147
-323.98 1118.04 2147
-319.291 1119.6 2150
-314.15 1119.6 2150
-309.008 1119.6 2150
-304.574 1122.21 2155
-299.421 1122.21 2155
-294.267 1122.21 2155
-289.114 1122.21 2155
-283.961 1122.21 2155
-279.584 1125.33 2161
-275.178 1128.46 2167
-270.993 1132.62 2175
-265.792 1132.62 2175
-260.95 1134.18 2178
-256.094 1135.75 2181
-250.879 1135.75 2181
-245.663 1135.75 2181
-240.448 1135.75 2181
-235.232 1135.75 2181
-230.017 1135.75 2181
-224.492 1134.18 2178
-218.68 1131.06 2172
-213.486 1131.06 2172
-208.292 1131.06 2172
-203.098 1131.06 2172
-197.904 1131.06 2172
-192.444 1129.5 2169
-187.258 1129.5 2169
-181.651 1126.89 2164
-176.232 1125.33 2161
-171.064 1125.33 2161
-166.357 1128.46 2167
-161.175 1128.46 2167
-155.993 1128.46 2167
-150.185 1123.77 2158
-145.024 1123.77 2158
-139.345 1119.6 2150
-134.017 1118.04 2147
-129.063 1119.6 2150
-124.094 1121.16 2153
-119.554 1126.89 2164
-114.379 1126.89 2164
-109.608 1131.06 2172
-104.558 1132.62 2175
-99.6312 1135.75 2181
-94.4157 1135.75 2181
-89.2003 1135.75 2181
-84.2929 1139.91 2189
-79.1667 1141.47 2192
-73.925 1141.47 2192
-68.6833 1141.47 2192
-63.3547 1139.91 2189
-58.1201 1139.91 2189
-52.6923 1135.75 2181
-47.1068 1126.89 2164
-41.8739 1125.33 2161
-36.7063 1125.33 2161
-31.4219 1121.16 2153
-26.2734 1121.16 2153
-21.125 1121.16 2153
-15.9765 1121.16 2153
106.887 1113.87 2139
112.159 1115.44 2142
117.282 1115.44 2142
122.404 1115.44 2142
127.347 1113.87 2139
132.462 1113.87 2139
137.063 1109.71 2131
142.159 1109.71 2131
148.015 1115.44 2142
153.494 1118.04 2147
158.85 1119.6 2150
163.991 1119.6 2150
169.526 1122.21 2155
175.166 1125.33 2161
180.584 1126.89 2164
185.758 1126.89 2164
191.374 1129.5 2169
197.105 1132.62 2175
202.585 1134.18 2178
207.793 1134.18 2178
213.295 1135.75 2181
218.811 1137.31 2184
224.033 1137.31 2184
229.256 1137.31 2184
234.479 1137.31 2184
239.921 1138.35 2186
245.148 1138.35 2186
250.375 1138.35 2186
255.603 1138.35 2186
260.83 1138.35 2186
266.058 1138.35 2186
270.292 1134.18 2178
275.121 1132.62 2175
279.935 1131.06 2172
285.129 1131.06 2172
290.323 1131.06 2172
295.517 1131.06 2172
301.126 1132.62 2175
306.327 1132.62 2175
311.529 1132.62 2175
316.73 1132.62 2175
322.375 1134.18 2178
327.583 1134.18 2178
333.25 1135.75 2181
338.465 1135.75 2181
343.681 1135.75 2181
348.896 1135.75 2181
354.111 1135.75 2181
359.327 1135.75 2181
365.378 1138.35 2186
371.623 1141.47 2192
378.412 1146.16 2201
383.675 1146.16 2201
389.998 1149.29 2207
395.276 1149.29 2207
400.554 1149.29 2207
405.831 1149.29 2207
409.432 1144.6 2198
413.556 1141.47 2192
418.798 1141.47 2192
422.879 1138.35 2186
427.127 1135.75 2181
431.748 1134.18 2178
436.956 1134.18 2178
440.947 1131.06 2172
445.524 1129.5 2169
450.711 1129.5 2169
454.847 1126.89 2164
461.085 1129.5 2169
466.271 1129.5 2169
471.458 1129.5 2169
476.645 1129.5 2169
482.498 1131.06 2172
487.692 1131.06 2172
492.886 1131.06 2172
497.392 1129.5 2169
502.578 1129.5 2169
507.765 1129.5 2169
514.371 1132.62 2175
519.572 1132.62 2175
527.427 1138.35 2186
532.654 1138.35 2186
540.096 1143.04 2195
546.091 1144.6 2198
554.357 1150.85 2210
559.642 1150.85 2210
567.738 1156.58 2221
573.823 1158.14 2224
579.923 1159.7 2227
585.248 1159.7 2227
590.574 1159.7 2227
595.899 1159.7 2227
601.224 1159.7 2227
604.916 1156.58 2221
610.227 1156.58 2221
615.538 1156.58 2221
620.849 1156.58 2221
626.16 1156.58 2221
627.491 1149.29 2207
632.768 1149.29 2207
634.577 1143.04 2195
639.826 1143.04 2195
643.311 1139.91 2189
647.657 1138.35 2186
652.287 1137.31 2184
657.51 1137.31 2184
661.822 1135.75 2181
665.202 1132.62 2175
668.554 1129.5 2169
673.741 1129.5 2169
678.927 1129.5 2169
684.114 1129.5 2169
690.254 1131.06 2172
695.448 1131.06 2172
700.642 1131.06 2172
705.836 1131.06 2172
712.012 1132.62 2175
717.213 1132.62 2175
722.414 1132.62 2175
727.615 1132.62 2175
732.816 1132.62 2175
738.017 1132.62 2175
743.219 1132.62 2175
748.42 1132.62 2175
755.7 1135.75 2181
760.915 1135.75 2181
766.131 1135.75 2181
771.346 1135.75 2181
776.561 1135.75 2181
781.777 1135.75 2181
786.992 1135.75 2181
791.118 1134.18 2178
795.229 1132.62 2175
800.43 1132.62 2175
803.409 1129.5 2169
808.596 1129.5 2169
813.032 1128.46 2167
818.214 1128.46 2167
824.156 1129.5 2169
829.343 1129.5 2169
834.53 1129.5 2169
840.878 1131.06 2172
846.072 1131.06 2172
852.441 1132.62 2175
857.642 1132.62 2175
866.414 1137.31 2184
871.636 1137.31 2184
876.859 1137.31 2184
880.87 1135.75 2181
884.867 1134.18 2178
890.075 1134.18 2178
895.283 1134.18 2178
900.491 1134.18 2178
904.452 1132.62 2175
914.254 1138.35 2186
920.743 1139.91 2189
925.978 1139.91 2189
931.212 1139.91 2189
936.447 1139.91 2189
940.391 1138.35 2186
945.618 1138.35 2186
950.846 1138.35 2186
953.886 1135.75 2181
955.144 1131.06 2172
960.338 1131.06 2172
964.198 1129.5 2169
968.491 1128.46 2167
969.629 1123.77 2158
974.789 1123.77 2158
978.588 1122.21 2155
982.828 1121.16 2153
988.894 1122.21 2155
995.431 1123.77 2158
1004.76 1128.46 2167
1009.95 1128.46 2167
1015.13 1128.46 2167
1020.31 1128.46 2167
1025.49 1128.46 2167
1030.67 1128.46 2167
1038.25 1131.06 2172
1046.32 1134.18 2178
1056.84 1139.91 2189
1062.08 1139.91 2189
1070.24 1143.04 2195
1076.96 1144.6 2198
1093.54 1156.58 2221
1098.85 1156.58 2221
1105.65 1158.14 2224
1115.46 1162.82 2233
1126.83 1169.07 2245
1132.19 1169.07 2245
1143.64 1175.32 2257
1149.04 1175.32 2257
1154.44 1175.32 2257
1159.84 1175.32 2257
1165.23 1175.32 2257
1170.63 1175.32 2257
1176.03 1175.32 2257
1181.42 1175.32 2257
1183.67 1172.2 2251
1189.05 1172.2 2251
1192.84 1170.64 2248
1198.22 1170.64 2248
1198.77 1165.95 2239
1199.29 1161.26 2230
1199.76 1156.58 2221
1205.07 1156.58 2221
1202.75 1149.29 2207
1199.82 1141.47 2192
1200.66 1137.31 2184
1205.88 1137.31 2184
1202.79 1129.5 2169
1201.85 1123.77 2158
1198.06 1115.44 2142
1199.81 1112.31 2136
1204.92 1112.31 2136
1210.03 1112.31 2136
1215.14 1112.31 2136
1220.24 1112.31 2136
1228.79 1115.44 2142
1233.91 1115.44 2142
1240.19 1116.48 2144
1247.06 1118.04 2147
1253.95 1119.6 2150
1259.09 1119.6 2150
1268.93 1123.77 2158
1275.87 1125.33 2161
1284.59 1128.46 2167
1289.77 1128.46 2167
1297.94 1131.06 2172
1306.74 1134.18 2178
1316.76 1138.35 2186
1323.8 1139.91 2189
1329.04 1139.91 2189
1336.1 1141.47 2192
1341.34 1141.47 2192
1346.59 1141.47 2192
1351.83 1141.47 2192
1358.93 1143.04 2195
1364.18 1143.04 2195
1369.42 1143.04 2195
1374.67 1143.04 2195
1374.26 1138.35 2186
1376.34 1135.75 2181
1381.55 1135.75 2181
1386.77 1135.75 2181
1400.92 1143.04 2195
1406.17 1143.04 2195
1411.42 1143.04 2195
1416.66 1143.04 2195
1419.97 1141.47 2192
1425.21 1141.47 2192
1430.45 1141.47 2192
1435.7 1141.47 2192
1435.68 1137.31 2184
1436.94 1134.18 2178
1430.89 1125.33 2161
1436.06 1125.33 2161
1437.23 1122.21 2155
1442.38 1122.21 2155
1453.58 1126.89 2164
1458.75 1126.89 2164
1463.93 1126.89 2164
1469.1 1126.89 2164
1474.28 1126.89 2164
1479.45 1126.89 2164
1484.63 1126.89 2164
1489.8 1126.89 2164
1492.91 1125.33 2161
1490.45 1119.6 2150
1497.68 1121.16 2153
1502.82 1121.16 2153
1509.37 1122.21 2155
1514.53 1122.21 2155
1519.68 1122.21 2155
1523.42 1121.16 2153
1522.18 1116.48 2144
1525.88 1115.44 2142
1531 1115.44 2142
1533.97 1113.87 2139
1539.09 1113.87 2139
1546.37 1115.44 2142
1551.49 1115.44 2142
1562.43 1119.6 2150
1567.57 1119.6 2150
1572.71 1119.6 2150
1577.85 1119.6 2150
1586.67 1122.21 2155
1591.83 1122.21 2155
1599.2 1123.77 2158
1606.59 1125.33 2161
1614 1126.89 2164
1619.17 1126.89 2164
1624.35 1126.89 2164
1627.26 1125.33 2161
1632.43 1125.33 2161
1637.6 1125.33 2161
1638.2 1122.21 2155
1645.65 1123.77 2158
1650.81 1123.77 2158
-1551.36 1083.95 2072
-1546.4 1083.95 2072
-1545.91 1087.09 2078
-1540.94 1087.09 2078
-1535.97 1087.09 2078
-1531 1087.09 2078
-1529.71 1089.7 2083
-1526.19 1090.75 2085
-1525.58 1093.89 2091
-1520.58 1093.89 2091
-1515.58 1093.89 2091
-1510.58 1093.89 2091
-1505.58 1093.89 2091
-1500.58 1093.89 2091
-1497.01 1094.93 2093
-1499.85 1100.69 2104
-1498.37 1103.3 2109
-1493.32 1103.3 2109
-1488.28 1103.3 2109
-1455.58 1093.89 2091
-1450.58 1093.89 2091
-1445.58 1093.89 2091
-1440.58 1093.89 2091
-1435.58 1093.89 2091
-1437.42 1099.12 2101
-1441.26 1105.92 2114
-1436.2 1105.92 2114
-1431.15 1105.92 2114
-1426.09 1105.92 2114
-1428.43 1111.67 2125
-1423.35 1111.67 2125
-1418.27 1111.67 2125
-1413.19 1111.67 2125
-1408.1 1111.67 2125
-1403.02 1111.67 2125
-1394.65 1109.06 2120
-1384.34 1104.87 2112
-1379.29 1104.87 2112
-1370.33 1101.73 2106
-1370.48 1105.92 2114
-1370.6 1110.11 2122
-1371.31 1114.81 2131
-1366.22 1114.81 2131
-1361.12 1114.81 2131
-1356.03 1114.81 2131
-1350.93 1114.81 2131
-1342.05 1111.67 2125
-1333.82 1109.06 2120
-1324.99 1105.92 2114
-1319.93 1105.92 2114
-1313.63 1104.87 2112
-1304.87 1101.73 2106
-1298.59 1100.69 2104
-1293.56 1100.69 2104
-1286.69 1099.12 2101
-1281.67 1099.12 2101
-1284.55 1105.92 2114
-1279.49 1105.92 2114
-1274.44 1105.92 2114
-1271.18 1107.49 2117
-1267.91 1109.06 2120
-1262.84 1109.06 2120
-1257.77 1109.06 2120
-1252.7 1109.06 2120
-1247.64 1109.06 2120
-1242.57 1109.06 2120
-1240.41 1111.67 2125
-1235.33 1111.67 2125
-1233.73 1114.81 2131
-1231.51 1117.43 2136
-1228.13 1119 2139
-1223.01 1119 2139
-1219.61 1120.57 2142
-1214.48 1120.57 2142
-1210.49 1121.61 2144
-1205.36 1121.61 2144
-1200.24 1121.61 2144
-1196.78 1123.18 2147
-1191.65 1123.18 2147
-1186.51 1123.18 2147
-1179.73 1121.61 2144
-1174.6 1121.61 2144
-1169.47 1121.61 2144
-1160 1117.43 2136
-1154.9 1117.43 2136
-1149.79 1117.43 2136
-1144.68 1117.43 2136
-1139.57 1117.43 2136
-1130.21 1113.24 2128
-1125.13 1113.24 2128
-1120.04 1113.24 2128
-1114.95 1113.24 2128
-1108.3 1111.67 2125
-1103.21 1111.67 2125
-1098.13 1111.67 2125
-1091.51 1110.11 2122
-1087.97 1111.67 2125
-1084.42 1113.24 2128
-1080.85 1114.81 2131
-1075.75 1114.81 2131
-1071.66 1115.86 2133
-1071.06 1120.57 2142
-1066.94 1121.61 2144
-1061.81 1121.61 2144
-1059.64 1124.75 2150
-1054.5 1124.75 2150
-1049.36 1124.75 2150
-1044.21 1124.75 2150
-1039.07 1124.75 2150
-1033.93 1124.75 2150
-1028.79 1124.75 2150
-1022.22 1123.18 2147
-1017.09 1123.18 2147
-1015.72 1127.37 2155
-1010.57 1127.37 2155
-1005.42 1127.37 2155
-1000.26 1127.37 2155
-996.496 1128.94 2158
-997.767 1136.26 2172
-992.573 1136.26 2172
-988.742 1137.83 2175
-983.541 1137.83 2175
-978.34 1137.83 2175
-973.139 1137.83 2175
-964.378 1133.65 2167
-959.196 1133.65 2167
-954.014 1133.65 2167
-947.518 1132.08 2164
-941.037 1130.51 2161
-933.271 1127.37 2155
-928.118 1127.37 2155
-924.25 1128.94 2158
-919.089 1128.94 2158
-913.929 1128.94 2158
-908.768 1128.94 2158
-903.608 1128.94 2158
-898.447 1128.94 2158
-892.045 1127.37 2155
-886.892 1127.37 2155
-881.739 1127.37 2155
-876.585 1127.37 2155
-869.41 1124.75 2150
-861.053 1120.57 2142
-855.931 1120.57 2142
-847.234 1115.86 2133
-841.344 1114.81 2131
-835.071 1113.24 2128
-829.982 1113.24 2128
-824.893 1113.24 2128
-817.493 1110.11 2122
-820.076 1120.57 2142
-814.954 1120.57 2142
-809.831 1120.57 2142
-804.709 1120.57 2142
-792.121 1110.11 2122
-787.047 1110.11 2122
-781.236 1109.06 2120
-772.139 1103.3 2109
-767.095 1103.3 2109
-762.052 1103.3 2109
-757.009 1103.3 2109
-747.331 1096.5 2096
-744.089 1099.12 2101
-743.638 1105.92 2114
-738.583 1105.92 2114
-733.528 1105.92 2114
-732.263 1111.67 2125
-730.946 1117.43 2136
-725.838 1117.43 2136
-721.742 1119 2139
-721.318 1126.32 2153
-716.169 1126.32 2153
-711.021 1126.32 2153
-705.872 1126.32 2153
-700.724 1126.32 2153
-697.191 1128.94 2158
-692.03 1128.94 2158
-687.825 1130.51 2161
-684.552 1133.65 2167
-679.37 1133.65 2167
-674.189 1133.65 2167
-669.007 1133.65 2167
-664.437 1134.69 2169
-659.251 1134.69 2169
-655.873 1137.83 2175
-650.672 1137.83 2175
-645.471 1137.83 2175
-641.153 1139.4 2178
-635.945 1139.4 2178
-630.736 1139.4 2178
-625.528 1139.4 2178
-619.466 1137.83 2175
-614.264 1137.83 2175
-609.063 1137.83 2175
-603.029 1136.26 2172
-597.835 1136.26 2172
-592.642 1136.26 2172
-586.095 1133.65 2167
-580.913 1133.65 2167
-574.934 1132.08 2164
-569.76 1132.08 2164
-561.715 1126.32 2153
-556.566 1126.32 2153
-552.699 1128.94 2158
-547.538 1128.94 2158
-542.378 1128.94 2158
-539.458 1133.65 2167
-534.276 1133.65 2167
-529.094 1133.65 2167
-522.461 1130.51 2161
-515.379 1126.32 2153
-508.808 1123.18 2147
-505.082 1126.32 2153
-499.933 1126.32 2153
-495.244 1127.37 2155
-490.091 1127.37 2155
-484.938 1127.37 2155
-479.785 1127.37 2155
-474.191 1126.32 2153
-469.042 1126.32 2153
-463.894 1126.32 2153
-459.172 1127.37 2155
-454.018 1127.37 2155
-448.865 1127.37 2155
-443.712 1127.37 2155
-438.559 1127.37 2155
-433.405 1127.37 2155
-428.252 1127.37 2155
-422.706 1126.32 2153
-418.527 1128.94 2158
-413.367 1128.94 2158
-409.341 1132.08 2164
-404.167 1132.08 2164
-398.992 1132.08 2164
-393.817 1132.08 2164
-387.565 1128.94 2158
-381.873 1127.37 2155
-376.719 1127.37 2155
-370.187 1123.18 2147
-365.053 1123.18 2147
-359.416 1121.61 2144
-354.784 1123.18 2147
-349.65 1123.18 2147
-344.516 1123.18 2147
-338.908 1121.61 2144
-334.248 1123.18 2147
-329.114 1123.18 2147
-323.98 1123.18 2147
-319.291 1124.75 2150
-314.15 1124.75 2150
-309.008 1124.75 2150
-304.574 1127.37 2155
-299.421 1127.37 2155
-294.267 1127.37 2155
-289.114 1127.37 2155
-283.961 1127.37 2155
-279.584 1130.51 2161
-275.178 1133.65 2167
-270.993 1137.83 2175
-265.792 1137.83 2175
-260.95 1139.4 2178
-256.094 1140.97 2181
-250.879 1140.97 2181
-245.663 1140.97 2181
-240.448 1140.97 2181
-235.232 1140.97 2181
-230.017 1140.97 2181
-224.492 1139.4 2178
-218.68 1136.26 2172
-213.486 1136.26 2172
-208.292 1136.26 2172
-203.098 1136.26 2172
-197.904 1136.26 2172
-192.444 1134.69 2169
-187.258 1134.69 2169
-181.651 1132.08 2164
-176.232 1130.51 2161
-171.064 1130.51 2161
-166.357 1133.65 2167
-161.175 1133.65 2167
-155.993 1133.65 2167
-150.185 1128.94 2158
-145.024 1128.94 2158
-139.345 1124.75 2150
-134.017 1123.18 2147
-129.063 1124.75 2150
-124.094 1126.32 2153
-119.554 1132.08 2164
-114.379 1132.08 2164
-109.608 1136.26 2172
-104.558 1137.83 2175
-99.6312 1140.97 2181
-94.4157 1140.97 2181
-89.2003 1140.97 2181
-84.2929 1145.16 2189
-79.1667 1146.72 2192
-73.925 1146.72 2192
-68.6833 1146.72 2192
-63.3547 1145.16 2189
-58.1201 1145.16 2189
-52.6923 1140.97 2181
-47.1068 1132.08 2164
-41.8739 1130.51 2161
-36.7063 1130.51 2161
-31.4219 1126.32 2153
-26.2734 1126.32 2153
-21.125 1126.32 2153
-15.9765 1126.32 2153
-10.7727 1120.57 2142
-5.65052 1120.57 2142
107.137 1121.61 2144
112.264 1121.61 2144
117.391 1121.61 2144
122.518 1121.61 2144
127.526 1120.57 2142
132.648 1120.57 2142
137.384 1117.43 2136
142.492 1117.43 2136
148.015 1120.57 2142
153.494 1123.18 2147
158.85 1124.75 2150
163.991 1124.75 2150
169.526 1127.37 2155
175.166 1130.51 2161
180.584 1132.08 2164
185.758 1132.08 2164
191.374 1134.69 2169
197.105 1137.83 2175
202.585 1139.4 2178
207.793 1139.4 2178
213.295 1140.97 2181
218.51 1140.97 2181
224.033 1142.54 2184
229.256 1142.54 2184
234.479 1142.54 2184
239.043 1139.4 2178
244.251 1139.4 2178
249.459 1139.4 2178
254.667 1139.4 2178
259.518 1137.83 2175
264.719 1137.83 2175
269.92 1137.83 2175
274.362 1134.69 2169
279.549 1134.69 2169
285.129 1136.26 2172
290.323 1136.26 2172
295.517 1136.26 2172
300.711 1136.26 2172
305.905 1136.26 2172
311.099 1136.26 2172
315.856 1134.69 2169
321.043 1134.69 2169
326.229 1134.69 2169
331.875 1136.26 2172
337.068 1136.26 2172
342.735 1137.83 2175
347.936 1137.83 2175
353.137 1137.83 2175
358.338 1137.83 2175
364.041 1139.4 2178
369.758 1140.97 2181
376.349 1145.16 2189
381.583 1145.16 2189
387.348 1146.72 2192
392.59 1146.72 2192
397.831 1146.72 2192
403.073 1146.72 2192
407.756 1145.16 2189
412.047 1142.54 2184
417.27 1142.54 2184
420.751 1137.83 2175
424.777 1134.69 2169
429.964 1134.69 2169
435.151 1134.69 2169
439.932 1133.65 2167
445.114 1133.65 2167
449.049 1130.51 2161
453.586 1128.94 2158
458.746 1128.94 2158
463.907 1128.94 2158
469.067 1128.94 2158
474.227 1128.94 2158
479.388 1128.94 2158
484.548 1128.94 2158
489.028 1127.37 2155
494.181 1127.37 2155
499.334 1127.37 2155
504.02 1126.32 2153
511.06 1130.51 2161
516.228 1130.51 2161
523.325 1134.69 2169
528.512 1134.69 2169
535.175 1137.83 2175
541.867 1140.97 2181
549.089 1145.16 2189
554.324 1145.16 2189
560.325 1146.72 2192
566.341 1148.29 2195
573.152 1151.43 2201
578.415 1151.43 2201
583.679 1151.43 2201
588.942 1151.43 2201
594.205 1151.43 2201
599.469 1151.43 2201
603.908 1149.86 2198
609.164 1149.86 2198
613.581 1148.29 2195
618.83 1148.29 2195
622.373 1145.16 2189
626.174 1142.54 2184
629.662 1139.4 2178
634.87 1139.4 2178
638.315 1136.26 2172
643.509 1136.26 2172
648.703 1136.26 2172
653.897 1136.26 2172
658.181 1134.69 2169
662.756 1133.65 2167
667.013 1132.08 2164
672.188 1132.08 2164
676.423 1130.51 2161
680.645 1128.94 2158
687.712 1132.08 2164
693.847 1133.65 2167
699.674 1134.69 2169
704.861 1134.69 2169
711.03 1136.26 2172
716.224 1136.26 2172
721.418 1136.26 2172
725.608 1134.69 2169
730.795 1134.69 2169
735.982 1134.69 2169
742.193 1136.26 2172
747.387 1136.26 2172
752.581 1136.26 2172
757.775 1136.26 2172
762.969 1136.26 2172
768.163 1136.26 2172
773.357 1136.26 2172
778.551 1136.26 2172
783.745 1136.26 2172
787.849 1134.69 2169
792.304 1133.65 2167
797.486 1133.65 2167
802.668 1133.65 2167
807.85 1133.65 2167
810.781 1130.51 2161
814.816 1128.94 2158
818.836 1127.37 2155
823.99 1127.37 2155
828.373 1126.32 2153
833.522 1126.32 2153
839.45 1127.37 2155
846.954 1130.51 2161
852.122 1130.51 2161
857.29 1130.51 2161
863.654 1132.08 2164
870.034 1133.65 2167
875.216 1133.65 2167
880.398 1133.65 2167
885.58 1133.65 2167
891.584 1134.69 2169
896.77 1134.69 2169
901.957 1134.69 2169
908.399 1136.26 2172
913.592 1136.26 2172
918.786 1136.26 2172
923.98 1136.26 2172
929.174 1136.26 2172
934.368 1136.26 2172
939.562 1136.26 2172
943.451 1134.69 2169
948.638 1134.69 2169
953.824 1134.69 2169
959.011 1134.69 2169
961.975 1132.08 2164
963.128 1127.37 2155
966.034 1124.75 2150
971.176 1124.75 2150
976.317 1124.75 2150
980.089 1123.18 2147
985.223 1123.18 2147
990.357 1123.18 2147
999.201 1127.37 2155
1004.35 1127.37 2155
1010.91 1128.94 2158
1016.07 1128.94 2158
1024.07 1132.08 2164
1029.25 1132.08 2164
1035.86 1133.65 2167
1042 1134.69 2169
1048.63 1136.26 2172
1053.83 1136.26 2172
1061.95 1139.4 2178
1075.49 1148.29 2195
1082.21 1149.86 2198
1087.47 1149.86 2198
1097.2 1154.57 2207
1107.97 1160.33 2218
1120.8 1168.17 2233
1126.14 1168.17 2233
1136.04 1172.88 2242
1142.93 1174.45 2245
1149.83 1176.02 2248
1155.21 1176.02 2248
1160.59 1176.02 2248
1167.52 1177.59 2251
1172.9 1177.59 2251
1178.28 1177.59 2251
1180.51 1174.45 2245
1185.88 1174.45 2245
1189.66 1172.88 2242
1195.02 1172.88 2242
1193.95 1166.6 2230
1196.06 1163.47 2224
1188.95 1151.43 2201
1194.22 1151.43 2201
1194.58 1146.72 2192
1193.8 1140.97 2181
1194.06 1136.26 2172
1199.26 1136.26 2172
1202.79 1134.69 2169
1199.06 1126.32 2153
1194.7 1117.43 2136
1199.81 1117.43 2136
1204.92 1117.43 2136
1207.19 1114.81 2131
1212.29 1114.81 2131
1217.39 1114.81 2131
1225.35 1117.43 2136
1230.46 1117.43 2136
1235.57 1117.43 2136
1244.16 1120.57 2142
1250.45 1121.61 2144
1255.57 1121.61 2144
1262.47 1123.18 2147
1274.09 1128.94 2158
1281.03 1130.51 2161
1286.2 1130.51 2161
1294.95 1133.65 2167
1303.14 1136.26 2172
1311.94 1139.4 2178
1317.15 1139.4 2178
1322.36 1139.4 2178
1336.1 1146.72 2192
1341.34 1146.72 2192
1346.59 1146.72 2192
1349.98 1145.16 2189
1355.21 1145.16 2189
1360.45 1145.16 2189
1365.68 1145.16 2189
1369.04 1143.59 2186
1374.26 1143.59 2186
1376.34 1140.97 2181
1381.55 1140.97 2181
1386.77 1140.97 2181
1399 1146.72 2192
1406.17 1148.29 2195
1411.42 1148.29 2195
1416.66 1148.29 2195
1419.97 1146.72 2192
1425.21 1146.72 2192
1428.5 1145.16 2189
1433.73 1145.16 2189
1435.68 1142.54 2184
1431 1134.69 2169
1428.91 1128.94 2158
1434.07 1128.94 2158
1435.89 1126.32 2153
1441.04 1126.32 2153
1447.53 1127.37 2155
1452.69 1127.37 2155
1457.84 1127.37 2155
1467.07 1130.51 2161
1472.23 1130.51 2161
1477.4 1130.51 2161
1482.57 1130.51 2161
1485.67 1128.94 2158
1485.31 1124.75 2150
1488.37 1123.18 2147
1493.5 1123.18 2147
1498.64 1123.18 2147
1507.97 1126.32 2153
1513.12 1126.32 2153
1518.27 1126.32 2153
1515.63 1120.57 2142
1518.63 1119 2139
1523.74 1119 2139
1528.86 1119 2139
1533.97 1119 2139
1539.09 1119 2139
1542.04 1117.43 2136
1547.14 1117.43 2136
1554.43 1119 2139
1559.55 1119 2139
1564.66 1119 2139
1571.98 1120.57 2142
1577.1 1120.57 2142
1582.22 1120.57 2142
1591.05 1123.18 2147
1600.64 1126.32 2153
1607.29 1127.37 2155
1612.44 1127.37 2155
1617.59 1127.37 2155
1622.74 1127.37 2155
1627.9 1127.37 2155
1626.99 1123.18 2147
1629.84 1121.61 2144
1633.44 1120.57 2142
1636.27 1119 2139
-1551.36 1088.91 2072
-1546.4 1088.91 2072
-1545.91 1092.06 2078
-1540.94 1092.06 2078
-1535.97 1092.06 2078
-1531 1092.06 2078
-1529.71 1094.69 2083
-1526.19 1095.74 2085
-1527.04 1099.95 2093
-1522.04 1099.95 2093
-1517.03 1099.95 2093
-1512.03 1099.95 2093
-1507.02 1099.95 2093
-1502.02 1099.95 2093
-1497.01 1099.95 2093
-1499.85 1105.73 2104
-1498.37 1108.36 2109
-1493.32 1108.36 2109
-1488.28 1108.36 2109
-1455.58 1098.9 2091
-1450.58 1098.9 2091
-1445.58 1098.9 2091
-1440.58 1098.9 2091
-1435.58 1098.9 2091
-1439.47 1105.73 2104
-1441.26 1110.98 2114
-1436.2 1110.98 2114
-1431.15 1110.98 2114
-1426.09 1110.98 2114
-1428.43 1116.77 2125
-1423.35 1116.77 2125
-1418.27 1116.77 2125
-1413.19 1116.77 2125
-1408.1 1116.77 2125
-1403.02 1116.77 2125
-1394.65 1114.14 2120
-1380.41 1106.78 2106
-1375.37 1106.78 2106
-1370.33 1106.78 2106
-1367.24 1108.36 2109
-1369.3 1114.14 2120
-1371.31 1119.92 2131
-1366.22 1119.92 2131
-1361.12 1119.92 2131
-1356.03 1119.92 2131
-1350.93 1119.92 2131
-1340.15 1115.19 2122
-1333.82 1114.14 2120
-1324.99 1110.98 2114
-1319.93 1110.98 2114
-1313.63 1109.93 2112
-1304.87 1106.78 2106
-1298.59 1105.73 2104
-1293.56 1105.73 2104
-1283.63 1101.52 2096
-1278.62 1101.52 2096
-1273.61 1101.52 2096
-1276.46 1108.36 2109
-1271.42 1108.36 2109
-1269.38 1110.98 2114
-1266.12 1112.56 2117
-1261.06 1112.56 2117
-1255.99 1112.56 2117
-1249.16 1110.98 2114
-1242.93 1109.93 2112
-1237.88 1109.93 2112
-1235.74 1112.56 2117
-1230.68 1112.56 2117
-1228.51 1115.19 2122
-1226.9 1118.34 2128
-1223.53 1119.92 2131
-1218.44 1119.92 2131
-1214.48 1120.97 2133
-1209.38 1120.97 2133
-1205.97 1122.55 2136
-1200.87 1122.55 2136
-1195.76 1122.55 2136
-1193.99 1125.7 2142
-1188.87 1125.7 2142
-1183.75 1125.7 2142
-1176.98 1124.12 2139
-1170.22 1122.55 2136
-1165.11 1122.55 2136
-1157.29 1119.92 2131
-1148.95 1116.77 2125
-1143.87 1116.77 2125
-1138.78 1116.77 2125
-1133.7 1116.77 2125
-1128.62 1116.77 2125
-1120.9 1114.14 2120
-1115.83 1114.14 2120
-1110.76 1114.14 2120
-1105.69 1114.14 2120
-1100.62 1114.14 2120
-1095.55 1114.14 2120
-1088.94 1112.56 2117
-1083.87 1112.56 2117
-1078.81 1112.56 2117
-1077.81 1116.77 2125
-1072.72 1116.77 2125
-1069.15 1118.34 2128
-1065.56 1119.92 2131
-1061.46 1120.97 2133
-1056.36 1120.97 2133
-1055.7 1125.7 2142
-1051.55 1126.75 2144
-1047.89 1128.33 2147
-1042.76 1128.33 2147
-1037.62 1128.33 2147
-1032.49 1128.33 2147
-1027.36 1128.33 2147
-1020.79 1126.75 2144
-1015.67 1126.75 2144
-1010.54 1126.75 2144
-1005.41 1126.75 2144
-1000.28 1126.75 2144
-996.55 1128.33 2147
-994.187 1131.48 2153
-989.957 1132.53 2155
-984.804 1132.53 2155
-981.014 1134.11 2158
-975.854 1134.11 2158
-970.694 1134.11 2158
-964.191 1132.53 2155
-958.148 1131.48 2153
-952.999 1131.48 2153
-947.851 1131.48 2153
-942.702 1131.48 2153
-937.554 1131.48 2153
-928.508 1126.75 2144
-923.381 1126.75 2144
-922.108 1131.48 2153
-916.96 1131.48 2153
-911.811 1131.48 2153
-906.663 1131.48 2153
-901.514 1131.48 2153
-896.366 1131.48 2153
-889.976 1129.9 2150
-884.834 1129.9 2150
-879.693 1129.9 2150
-874.552 1129.9 2150
-866.175 1125.7 2142
-857.435 1120.97 2133
-852.335 1120.97 2133
-845.248 1118.34 2128
-838.975 1116.77 2125
-832.716 1115.19 2122
-827.642 1115.19 2122
-819.466 1110.98 2114
-814.411 1110.98 2114
-812.419 1115.19 2122
-807.344 1115.19 2122
-802.27 1115.19 2122
-797.196 1115.19 2122
-792.121 1115.19 2122
-787.047 1115.19 2122
-776.076 1106.78 2106
-769.21 1104.15 2101
-762.367 1101.52 2096
-757.355 1101.52 2096
-751.266 1099.95 2093
-740.913 1092.06 2078
-738.423 1095.74 2085
-734.492 1097.32 2088
-729.499 1097.32 2088
-727.976 1102.58 2098
-726.749 1108.36 2109
-725.47 1114.14 2120
-720.401 1114.14 2120
-719.043 1119.92 2131
-716.627 1124.12 2139
-711.512 1124.12 2139
-706.397 1124.12 2139
-702.266 1125.7 2142
-697.795 1126.75 2144
-694.606 1129.9 2150
-691.068 1132.53 2155
-685.915 1132.53 2155
-680.762 1132.53 2155
-675.608 1132.53 2155
-670.455 1132.53 2155
-663.758 1129.9 2150
-658.617 1129.9 2150
-653.476 1129.9 2150
-649.842 1132.53 2155
-644.689 1132.53 2155
-639.536 1132.53 2155
-636.149 1135.68 2161
-630.981 1135.68 2161
-625.813 1135.68 2161
-620.646 1135.68 2161
-615.478 1135.68 2161
-610.311 1135.68 2161
-602.063 1129.9 2150
-596.088 1128.33 2147
-590.129 1126.75 2144
-585.002 1126.75 2144
-578.522 1124.12 2139
-573.407 1124.12 2139
-568.292 1124.12 2139
-563.177 1124.12 2139
-554.41 1116.77 2125
-552.172 1122.55 2136
-547.832 1124.12 2139
-545.508 1129.9 2150
-540.367 1129.9 2150
-536.47 1132.53 2155
-531.317 1132.53 2155
-526.164 1132.53 2155
-519.076 1128.33 2147
-512.745 1125.7 2142
-505.016 1119.92 2131
-501.797 1124.12 2139
-497.379 1125.7 2142
-492.257 1125.7 2142
-487.135 1125.7 2142
-482.012 1125.7 2142
-476.89 1125.7 2142
-471.768 1125.7 2142
-466.646 1125.7 2142
-461.524 1125.7 2142
-456.828 1126.75 2144
-451.701 1126.75 2144
-446.574 1126.75 2144
-441.447 1126.75 2144
-436.32 1126.75 2144
-431.193 1126.75 2144
-426.066 1126.75 2144
-420.939 1126.75 2144
-416.976 1129.9 2150
-411.834 1129.9 2150
-408.206 1134.11 2158
-403.046 1134.11 2158
-397.886 1134.11 2158
-392.725 1134.11 2158
-387.026 1132.53 2155
-380.455 1128.33 2147
-375.321 1128.33 2147
-369.67 1126.75 2144
-364.203 1125.7 2142
-359.08 1125.7 2142
-354.289 1126.75 2144
-349.162 1126.75 2144
-344.035 1126.75 2144
-338.908 1126.75 2144
-333.781 1126.75 2144
-328.654 1126.75 2144
-323.527 1126.75 2144
-318.845 1128.33 2147
-314.15 1129.9 2150
-309.008 1129.9 2150
-303.867 1129.9 2150
-298.726 1129.9 2150
-293.585 1129.9 2150
-288.443 1129.9 2150
-283.302 1129.9 2150
-278.807 1132.53 2155
-274.797 1137.26 2164
-269.996 1138.84 2167
-264.814 1138.84 2167
-260.231 1141.47 2172
-255.39 1143.04 2175
-250.189 1143.04 2175
-244.987 1143.04 2175
-239.786 1143.04 2175
-234.585 1143.04 2175
-229.384 1143.04 2175
-223.874 1141.47 2172
-218.378 1139.89 2169
-213.191 1139.89 2169
-208.004 1139.89 2169
-202.818 1139.89 2169
-197.631 1139.89 2169
-192.001 1137.26 2164
-186.826 1137.26 2164
-180.896 1132.53 2155
-175.579 1131.48 2153
-170.431 1131.48 2153
-165.436 1132.53 2155
-160.283 1132.53 2155
-155.129 1132.53 2155
-149.837 1131.48 2153
-144.688 1131.48 2153
-139.151 1128.33 2147
-133.83 1126.75 2144
-128.883 1128.33 2147
-124.094 1131.48 2153
-119.222 1134.11 2158
-114.062 1134.11 2158
-109.356 1138.84 2167
-104.414 1141.47 2172
-99.22 1141.47 2172
-94.0261 1141.47 2172
-88.8322 1141.47 2172
-83.9849 1146.2 2181
-79.0584 1150.4 2189
-73.8238 1150.4 2189
-68.5893 1150.4 2189
-63.2679 1148.82 2186
-58.0405 1148.82 2186
-52.6923 1146.2 2181
-47.1068 1137.26 2164
-41.8739 1135.68 2161
-36.7063 1135.68 2161
-31.4219 1131.48 2153
-26.2734 1131.48 2153
-21.125 1131.48 2153
-15.9765 1131.48 2153
-10.7727 1125.7 2142
-5.65052 1125.7 2142
100.868 1114.14 2120
107.137 1126.75 2144
112.264 1126.75 2144
117.391 1126.75 2144
122.518 1126.75 2144
127.526 1125.7 2142
132.648 1125.7 2142
137.384 1122.55 2136
142.492 1122.55 2136
148.015 1125.7 2142
153.494 1128.33 2147
158.85 1129.9 2150
163.991 1129.9 2150
169.526 1132.53 2155
175.166 1135.68 2161
180.584 1137.26 2164
185.758 1137.26 2164
191.374 1139.89 2169
197.105 1143.04 2175
202.585 1144.62 2178
207.793 1144.62 2178
213.295 1146.2 2181
218.51 1146.2 2181
224.033 1147.77 2184
229.256 1147.77 2184
234.479 1147.77 2184
239.043 1144.62 2178
244.251 1144.62 2178
249.459 1144.62 2178
254.667 1144.62 2178
259.518 1143.04 2175
264.719 1143.04 2175
269.92 1143.04 2175
274.362 1139.89 2169
279.549 1139.89 2169
285.129 1141.47 2172
290.323 1141.47 2172
295.517 1141.47 2172
300.711 1141.47 2172
305.905 1141.47 2172
311.099 1141.47 2172
315.856 1139.89 2169
321.043 1139.89 2169
326.229 1139.89 2169
331.875 1141.47 2172
337.068 1141.47 2172
342.735 1143.04 2175
347.936 1143.04 2175
353.137 1143.04 2175
358.338 1143.04 2175
364.041 1144.62 2178
369.758 1146.2 2181
376.349 1150.4 2189
381.583 1150.4 2189
387.348 1151.98 2192
392.59 1151.98 2192
397.831 1151.98 2192
403.073 1151.98 2192
407.756 1150.4 2189
412.047 1147.77 2184
417.27 1147.77 2184
420.751 1143.04 2175
424.777 1139.89 2169
429.964 1139.89 2169
435.151 1139.89 2169
439.932 1138.84 2167
445.114 1138.84 2167
449.049 1135.68 2161
453.586 1134.11 2158
458.746 1134.11 2158
463.907 1134.11 2158
469.067 1134.11 2158
474.227 1134.11 2158
479.388 1134.11 2158
484.548 1134.11 2158
489.028 1132.53 2155
494.181 1132.53 2155
499.334 1132.53 2155
504.02 1131.48 2153
511.06 1135.68 2161
516.228 1135.68 2161
523.325 1139.89 2169
528.512 1139.89 2169
535.175 1143.04 2175
541.867 1146.2 2181
549.089 1150.4 2189
554.324 1150.4 2189
560.325 1151.98 2192
566.341 1153.55 2195
573.152 1156.71 2201
578.415 1156.71 2201
583.679 1156.71 2201
588.942 1156.71 2201
594.205 1156.71 2201
599.469 1156.71 2201
603.908 1155.13 2198
609.164 1155.13 2198
613.581 1153.55 2195
618.83 1153.55 2195
618.393 1143.04 2175
622.733 1141.47 2172
627.06 1139.89 2169
632.247 1139.89 2169
637.434 1139.89 2169
642.028 1138.84 2167
647.21 1138.84 2167
652.392 1138.84 2167
656.663 1137.26 2164
660.921 1135.68 2161
664.239 1132.53 2155
669.392 1132.53 2155
673.919 1131.48 2153
679.068 1131.48 2153
684.852 1132.53 2155
691.926 1135.68 2161
698.062 1137.26 2164
703.236 1137.26 2164
710.048 1139.89 2169
715.235 1139.89 2169
720.421 1139.89 2169
725.608 1139.89 2169
730.121 1138.84 2167
735.303 1138.84 2167
741.168 1139.89 2169
746.355 1139.89 2169
751.542 1139.89 2169
756.729 1139.89 2169
761.915 1139.89 2169
767.102 1139.89 2169
772.289 1139.89 2169
775.683 1137.26 2164
780.858 1137.26 2164
784.943 1135.68 2161
790.111 1135.68 2161
795.278 1135.68 2161
800.446 1135.68 2161
805.614 1135.68 2161
806.654 1129.9 2150
808.775 1125.7 2142
813.897 1125.7 2142
819.019 1125.7 2142
822.987 1124.12 2139
828.102 1124.12 2139
834.386 1125.7 2142
840.292 1126.75 2144
845.419 1126.75 2144
851.736 1128.33 2147
858.067 1129.9 2150
863.208 1129.9 2150
868.35 1129.9 2150
873.491 1129.9 2150
878.632 1129.9 2150
883.774 1129.9 2150
888.915 1129.9 2150
894.056 1129.9 2150
899.197 1129.9 2150
903.077 1128.33 2147
910.749 1131.48 2153
915.898 1131.48 2153
921.902 1132.53 2155
928.345 1134.11 2158
933.506 1134.11 2158
938.666 1134.11 2158
943.827 1134.11 2158
947.668 1132.53 2155
952.821 1132.53 2155
957.085 1131.48 2153
959.552 1128.33 2147
962.44 1125.7 2142
967.562 1125.7 2142
969.96 1122.55 2136
972.785 1119.92 2131
978.799 1120.97 2133
983.899 1120.97 2133
993.173 1125.7 2142
998.295 1125.7 2142
1003.42 1125.7 2142
1010.89 1128.33 2147
1017.45 1129.9 2150
1022.59 1129.9 2150
1029.16 1131.48 2153
1034.31 1131.48 2153
1039.46 1131.48 2153
1044.61 1131.48 2153
1056.58 1138.84 2167
1067.16 1144.62 2178
1072.36 1144.62 2178
1077.57 1144.62 2178
1085.76 1147.77 2184
1099.48 1156.71 2201
1109.26 1161.44 2210
1114.54 1161.44 2210
1125.4 1167.22 2221
1135.3 1171.95 2230
1146.77 1178.25 2242
1152.13 1178.25 2242
1157.49 1178.25 2242
1162.85 1178.25 2242
1169.77 1179.83 2245
1175.14 1179.83 2245
1180.51 1179.83 2245
1182.71 1176.68 2239
1183.29 1171.95 2230
1188.62 1171.95 2230
1187.53 1165.64 2218
1186.92 1159.86 2207
1180.85 1148.82 2186
1186.08 1148.82 2186
1183.68 1141.47 2172
1188.87 1141.47 2172
1192.41 1139.89 2169
1197.6 1139.89 2169
1193.92 1131.48 2153
1192.94 1125.7 2142
1194.7 1122.55 2136
1195.32 1118.34 2128
1200.41 1118.34 2128
1205.5 1118.34 2128
1210.58 1118.34 2128
1217.39 1119.92 2131
1222.48 1119.92 2131
1227.58 1119.92 2131
1232.67 1119.92 2131
1240.67 1122.55 2136
1247.53 1124.12 2139
1252.65 1124.12 2139
1259.53 1125.7 2142
1269.37 1129.9 2150
1277.48 1132.53 2155
1284.42 1134.11 2158
1289.58 1134.11 2158
1294.74 1134.11 2158
1303.51 1137.26 2164
1315.34 1143.04 2175
1320.54 1143.04 2175
1325.74 1143.04 2175
1330.94 1143.04 2175
1336.14 1143.04 2175
1341.34 1143.04 2175
1348.4 1144.62 2178
1353.61 1144.62 2178
1358.82 1144.62 2178
1364.03 1144.62 2178
1369.23 1144.62 2178
1370.66 1141.47 2172
1375.85 1141.47 2172
1379.14 1139.89 2169
1391.98 1146.2 2181
1397.2 1146.2 2181
1402.41 1146.2 2181
1407.63 1146.2 2181
1412.84 1146.2 2181
1418.06 1146.2 2181
1423.28 1146.2 2181
1428.49 1146.2 2181
1429.76 1143.04 2175
1423.75 1134.11 2158
1423.61 1129.9 2150
1428.75 1129.9 2150
1431.89 1128.33 2147
1437.03 1128.33 2147
1444.18 1129.9 2150
1449.32 1129.9 2150
1454.46 1129.9 2150
1457.56 1128.33 2147
1462.7 1128.33 2147
1467.83 1128.33 2147
1472.97 1128.33 2147
1478.1 1128.33 2147
1483.23 1128.33 2147
1480.74 1122.55 2136
1485.85 1122.55 2136
1490.96 1122.55 2136
1496.07 1122.55 2136
1501.17 1122.55 2136
1506.28 1122.55 2136
1509.27 1120.97 2133
1512.95 1119.92 2131
1515.91 1118.34 2128
1520.99 1118.34 2128
1526.08 1118.34 2128
1531.17 1118.34 2128
1536.26 1118.34 2128
1541.35 1118.34 2128
1546.44 1118.34 2128
1551.53 1118.34 2128
1556.62 1118.34 2128
1563.91 1119.92 2131
1569 1119.92 2131
1574.1 1119.92 2131
1585.12 1124.12 2139
1592.47 1125.7 2142
1597.59 1125.7 2142
1602.71 1125.7 2142
1607.83 1125.7 2142
1612.96 1125.7 2142
1618.08 1125.7 2142
1623.2 1125.7 2142
1626.04 1124.12 2139
1628.87 1122.55 2136
1631.68 1120.97 2133
-1532.64 1080.68 2047
-1527.74 1080.68 2047
-1526.57 1083.32 2052
-1525.37 1085.96 2057
-1531.54 1093.88 2072
-1526.58 1093.88 2072
-1529.71 1099.68 2083
-1526.19 1100.74 2085
-1527.04 1104.96 2093
-1522.04 1104.96 2093
-1517.03 1104.96 2093
-1512.03 1104.96 2093
-1507.02 1104.96 2093
-1502.02 1104.96 2093
-1497.01 1104.96 2093
-1497.71 1109.19 2101
-1494.82 1110.77 2104
-1489.78 1110.77 2104
-1484.75 1110.77 2104
-1455.58 1103.91 2091
-1450.58 1103.91 2091
-1445.58 1103.91 2091
-1440.58 1103.91 2091
-1435.58 1103.91 2091
-1439.47 1110.77 2104
-1441.26 1116.05 2114
-1436.2 1116.05 2114
-1431.15 1116.05 2114
-1426.09 1116.05 2114
-1423.05 1117.63 2117
-1417.99 1117.63 2117
-1416.27 1120.27 2122
-1411.19 1120.27 2122
-1406.12 1120.27 2122
-1401.04 1120.27 2122
-1394.65 1119.22 2120
-1380.41 1111.82 2106
-1375.37 1111.82 2106
-1370.33 1111.82 2106
-1367.24 1113.41 2109
-1369.3 1119.22 2120
-1371.31 1125.02 2131
-1366.22 1125.02 2131
-1361.12 1125.02 2131
-1356.03 1125.02 2131
-1350.93 1125.02 2131
-1340.15 1120.27 2122
-1333.82 1119.22 2120
-1324.99 1116.05 2114
-1319.93 1116.05 2114
-1313.63 1114.99 2112
-1304.87 1111.82 2106
-1298.59 1110.77 2104
-1293.56 1110.77 2104
-1283.63 1106.55 2096
-1278.62 1106.55 2096
-1273.61 1106.55 2096
-1276.46 1113.41 2109
-1271.42 1113.41 2109
-1269.38 1116.05 2114
-1266.12 1117.63 2117
-1261.06 1117.63 2117
-1255.99 1117.63 2117
-1249.16 1116.05 2114
-1242.93 1114.99 2112
-1237.88 1114.99 2112
-1235.74 1117.63 2117
-1230.68 1117.63 2117
-1228.51 1120.27 2122
-1226.9 1123.44 2128
-1223.53 1125.02 2131
-1218.44 1125.02 2131
-1214.48 1126.08 2133
-1209.38 1126.08 2133
-1205.97 1127.66 2136
-1200.87 1127.66 2136
-1195.76 1127.66 2136
-1193.99 1130.83 2142
-1188.87 1130.83 2142
-1183.75 1130.83 2142
-1176.98 1129.25 2139
-1170.22 1127.66 2136
-1165.11 1127.66 2136
-1157.29 1125.02 2131
-1148.95 1121.86 2125
-1143.87 1121.86 2125
-1138.78 1121.86 2125
-1133.7 1121.86 2125
-1128.62 1121.86 2125
-1120.9 1119.22 2120
-1115.83 1119.22 2120
-1110.76 1119.22 2120
-1105.69 1119.22 2120
-1100.62 1119.22 2120
-1095.55 1119.22 2120
-1088.94 1117.63 2117
-1083.87 1117.63 2117
-1078.81 1117.63 2117
-1077.81 1121.86 2125
-1072.72 1121.86 2125
-1069.15 1123.44 2128
-1065.56 1125.02 2131
-1061.46 1126.08 2133
-1056.36 1126.08 2133
-1055.7 1130.83 2142
-1051.55 1131.89 2144
-1047.89 1133.47 2147
-1042.76 1133.47 2147
-1037.62 1133.47 2147
-1032.49 1133.47 2147
-1027.36 1133.47 2147
-1020.79 1131.89 2144
-1015.67 1131.89 2144
-1010.54 1131.89 2144
-1005.41 1131.89 2144
-1000.28 1131.89 2144
-996.55 1133.47 2147
-994.187 1136.64 2153
-989.957 1137.69 2155
-984.804 1137.69 2155
-981.014 1139.28 2158
-975.854 1139.28 2158
-970.694 1139.28 2158
-964.191 1137.69 2155
-958.148 1136.64 2153
-952.999 1136.64 2153
-947.851 1136.64 2153
-942.702 1136.64 2153
-937.554 1136.64 2153
-928.508 1131.89 2144
-923.381 1131.89 2144
-918.254 1131.89 2144
-913.127 1131.89 2144
-908 1131.89 2144
-904.136 1133.47 2147
-899.002 1133.47 2147
-893.868 1133.47 2147
-888.734 1133.47 2147
-883.6 1133.47 2147
-878.465 1133.47 2147
-871.297 1130.83 2142
-862.536 1126.08 2133
-855.425 1123.44 2128
-850.337 1123.44 2128
-842.07 1119.22 2120
-837.001 1119.22 2120
-829.577 1116.05 2114
-824.521 1116.05 2114
-817.528 1113.41 2109
-811.329 1111.82 2106
-807.442 1113.41 2109
-804.301 1116.05 2114
-799.245 1116.05 2114
-794.19 1116.05 2114
-785.402 1110.77 2104
-780.371 1110.77 2104
-769.443 1102.32 2088
-764.45 1102.32 2088
-757.639 1099.68 2083
-752.658 1099.68 2083
-745.882 1097.04 2078
-739.843 1095.46 2075
-733.819 1093.88 2072
-728.864 1093.88 2072
-728.451 1100.74 2085
-723.465 1100.74 2085
-719.513 1102.32 2088
-720.68 1111.82 2106
-719.381 1117.63 2117
-714.319 1117.63 2117
-712.942 1123.44 2128
-707.853 1123.44 2128
-703.755 1125.02 2131
-698.659 1125.02 2131
-694.214 1126.08 2133
-691.052 1129.25 2139
-685.937 1129.25 2139
-680.822 1129.25 2139
-675.707 1129.25 2139
-670.592 1129.25 2139
-665.477 1129.25 2139
-658.51 1126.08 2133
-653.409 1126.08 2133
-648.309 1126.08 2133
-644.113 1127.66 2136
-639.005 1127.66 2136
-634.787 1129.25 2139
-630.555 1130.83 2142
-625.433 1130.83 2142
-620.311 1130.83 2142
-615.189 1130.83 2142
-609.212 1129.25 2139
-604.097 1129.25 2139
-595.902 1123.44 2128
-590.813 1123.44 2128
-581.871 1116.05 2114
-576.816 1116.05 2114
-570.408 1113.41 2109
-564.561 1111.82 2106
-558.196 1109.19 2101
-553.172 1109.19 2101
-548.148 1109.19 2101
-545.192 1113.41 2109
-542.966 1119.22 2120
-539.926 1123.44 2128
-534.838 1123.44 2128
-529.749 1123.44 2128
-524.66 1123.44 2128
-519.572 1123.44 2128
-513.032 1120.27 2122
-507.958 1120.27 2122
-500.988 1116.05 2114
-496.636 1117.63 2117
-492.27 1119.22 2120
-487.201 1119.22 2120
-482.131 1119.22 2120
-477.512 1120.27 2122
-472.438 1120.27 2122
-467.363 1120.27 2122
-463.596 1123.44 2128
-459.585 1126.08 2133
-455.123 1127.66 2136
-450.015 1127.66 2136
-444.908 1127.66 2136
-439.8 1127.66 2136
-434.692 1127.66 2136
-429.584 1127.66 2136
-425.072 1129.25 2139
-419.957 1129.25 2139
-415.812 1131.89 2144
-410.685 1131.89 2144
-406.693 1135.05 2150
-401.552 1135.05 2150
-396.411 1135.05 2150
-391.269 1135.05 2150
-385.589 1133.47 2147
-379.923 1131.89 2144
-374.796 1131.89 2144
-369.325 1130.83 2142
-363.692 1129.25 2139
-358.577 1129.25 2139
-353.462 1129.25 2139
-348.347 1129.25 2139
-343.232 1129.25 2139
-338.117 1129.25 2139
-333.002 1129.25 2139
-327.887 1129.25 2139
-322.772 1129.25 2139
-318.103 1130.83 2142
-313.273 1131.89 2144
-308.146 1131.89 2144
-303.019 1131.89 2144
-298.309 1133.47 2147
-293.175 1133.47 2147
-288.041 1133.47 2147
-282.907 1133.47 2147
-278.161 1135.05 2150
-273.654 1137.69 2155
-269.622 1142.44 2164
-264.448 1142.44 2164
-259.632 1144.03 2167
-254.685 1145.08 2169
-249.843 1146.67 2172
-244.65 1146.67 2172
-239.456 1146.67 2172
-234.262 1146.67 2172
-229.068 1146.67 2172
-223.565 1145.08 2169
-217.875 1142.44 2164
-212.7 1142.44 2164
-207.525 1142.44 2164
-202.35 1142.44 2164
-197.175 1142.44 2164
-191.202 1137.69 2155
-186.049 1137.69 2155
-180.728 1136.64 2153
-175.09 1133.47 2147
-170.193 1135.05 2150
-165.052 1135.05 2150
-159.911 1135.05 2150
-154.769 1135.05 2150
-149.419 1133.47 2147
-144.285 1133.47 2147
-138.957 1131.89 2144
-133.518 1129.25 2139
-128.583 1130.83 2142
-123.46 1130.83 2142
-118.78 1135.05 2150
-113.639 1135.05 2150
-108.901 1139.28 2158
-104.174 1144.03 2167
-98.9916 1144.03 2167
-93.8097 1144.03 2167
-88.6277 1144.03 2167
-83.5228 1145.08 2169
-78.6611 1149.84 2178
-73.4528 1149.84 2178
-68.3386 1151.42 2181
-63.1232 1151.42 2181
-57.9077 1151.42 2181
-52.4024 1145.08 2169
-47.1068 1142.44 2164
-41.7189 1136.64 2153
-36.5704 1136.64 2153
-31.4219 1136.64 2153
-26.2002 1133.47 2147
-21.0661 1133.47 2147
-15.932 1133.47 2147
-10.7727 1130.83 2142
-5.65052 1130.83 2142
100.868 1119.22 2120
107.137 1131.89 2144
112.264 1131.89 2144
117.391 1131.89 2144
122.518 1131.89 2144
127.526 1130.83 2142
132.648 1130.83 2142
137.384 1127.66 2136
142.492 1127.66 2136
148.015 1130.83 2142
153.494 1133.47 2147
158.85 1135.05 2150
163.991 1135.05 2150
169.526 1137.69 2155
175.166 1140.86 2161
180.333 1140.86 2161
185.501 1140.86 2161
191.374 1145.08 2169
196.561 1145.08 2169
202.585 1149.84 2178
207.793 1149.84 2178
213.001 1149.84 2178
218.51 1151.42 2181
223.726 1151.42 2181
228.941 1151.42 2181
233.834 1149.84 2178
238.713 1148.25 2175
243.914 1148.25 2175
249.116 1148.25 2175
254.317 1148.25 2175
259.518 1148.25 2175
264.719 1148.25 2175
268.927 1144.03 2167
273.35 1140.86 2161
278.904 1142.44 2164
284.473 1144.03 2167
289.655 1144.03 2167
294.837 1144.03 2167
300.019 1144.03 2167
305.201 1144.03 2167
310.383 1144.03 2167
315.565 1144.03 2167
319.859 1140.86 2161
325.477 1142.44 2164
330.652 1142.44 2164
335.827 1142.44 2164
341.002 1142.44 2164
346.656 1144.03 2167
351.838 1144.03 2167
357.02 1144.03 2167
362.537 1145.08 2169
368.232 1146.67 2172
374.457 1149.84 2178
379.666 1149.84 2178
386.818 1155.64 2189
392.052 1155.64 2189
397.287 1155.64 2189
401.97 1154.06 2186
406.266 1151.42 2181
410.349 1148.25 2175
415.55 1148.25 2175
419.591 1145.08 2169
423.798 1142.44 2164
