-2108.83 895.012 3512
-2091.46 891.189 3497
-2078.93 889.405 3490
-2083.63 895.012 3512
-2075.24 895.012 3512
-2066.84 895.012 3512
-2058.44 895.012 3512
-2050.04 895.012 3512
-2028.85 889.405 3490
-2020.51 889.405 3490
-2012.16 889.405 3490
-2003.82 889.405 3490
-1995.47 889.405 3490
-1966.63 880.231 3454
-1950.43 876.663 3440
-1942.2 876.663 3440
-1926.11 873.095 3426
-1906.16 867.744 3405
-1909.72 873.095 3426
-1901.53 873.095 3426
-1893.34 873.095 3426
-1885.14 873.095 3426
-1865.45 867.744 3405
-1876.4 876.663 3440
-1868.17 876.663 3440
-1859.94 876.663 3440
-1851.72 876.663 3440
-1843.49 876.663 3440
-1805.39 862.392 3384
-1797.3 862.392 3384
-1800.31 867.744 3405
-1792.17 867.744 3405
-1784.02 867.744 3405
-1783.18 871.312 3419
-1778.64 873.095 3426
-1781.3 878.447 3447
-1773.06 878.447 3447
-1771.98 882.015 3461
-1767.27 883.799 3468
-1773.69 891.189 3497
-1765.33 891.189 3497
-1760.98 893.228 3505
-1756.1 895.012 3512
-1758.65 900.619 3534
-1750.2 900.619 3534
-1741.75 900.619 3534
-1733.3 900.619 3534
-1724.85 900.619 3534
-1723.68 904.441 3549
-1715.2 904.441 3549
-1710.56 906.48 3557
-1705.88 908.519 3565
-1700.69 910.303 3572
-1692.14 910.303 3572
-1691.14 914.38 3588
-1689.6 918.203 3603
-1692.18 924.319 3627
-1683.51 924.319 3627
-1685.45 930.18 3650
-1691.89 938.59 3683
-1686.73 940.629 3691
-1677.91 940.629 3691
-1672.7 942.668 3699
-1663.85 942.668 3699
-1655.01 942.668 3699
-1642.6 940.629 3691
-1517 902.657 3542
-1508.53 902.657 3542
-1500.06 902.657 3542
-1491.59 902.657 3542
-1483.12 902.657 3542
-1462.16 895.012 3512
-1447.56 891.189 3497
-1430.55 885.838 3476
-1422.24 885.838 3476
-1399.28 876.663 3440
-1382.56 871.312 3419
-1368.76 867.744 3405
-1366.21 871.312 3419
-1358.04 871.312 3419
-1349.86 871.312 3419
-1344.43 873.095 3426
-1336.24 873.095 3426
-1333.47 876.663 3440
-1325.25 876.663 3440
-1325.06 882.015 3461
-1325.16 887.622 3483
-1316.83 887.622 3483
-1313.76 891.189 3497
-1310.99 895.012 3512
-1316.32 904.441 3549
-1307.83 904.441 3549
-1299.35 904.441 3549
-1296.68 908.519 3565
-1293.57 912.341 3580
-1287.88 914.38 3588
-1279.3 914.38 3588
-1273.2 916.164 3595
-1267.42 918.203 3603
-1258.81 918.203 3603
-1250.19 918.203 3603
-1236.4 914.38 3588
-1222.35 910.303 3572
-1213.81 910.303 3572
-1205.27 910.303 3572
-1196.72 910.303 3572
-1188.18 910.303 3572
-1182.28 912.341 3580
-1173.72 912.341 3580
-1167.76 914.38 3588
-1161.45 916.164 3595
-1152.85 916.164 3595
-1144.25 916.164 3595
-1133.44 914.38 3588
-1127.06 916.164 3595
-1123.44 920.242 3611
-1114.81 920.242 3611
-1111.07 924.319 3627
-1102.4 924.319 3627
-1093.72 924.319 3627
-1082.66 922.28 3619
-1074 922.28 3619
-1063 920.242 3611
-1059.03 924.319 3627
-1050.36 924.319 3627
-1048.29 930.18 3650
-1044.4 934.513 3667
-1035.64 934.513 3667
-1026.87 934.513 3667
-1020.32 936.552 3675
-1011.53 936.552 3675
-1002.74 936.552 3675
-993.955 936.552 3675
-985.167 936.552 3675
-976.379 936.552 3675
-976.016 944.707 3707
-967.151 944.707 3707
-962.682 949.039 3724
-953.776 949.039 3724
-944.871 949.039 3724
-935.966 949.039 3724
-920.837 942.668 3699
-908.047 938.59 3683
-899.24 938.59 3683
-890.433 938.59 3683
-881.625 938.59 3683
-870.922 936.552 3675
-860.258 934.513 3667
-851.489 934.513 3667
-838.813 930.18 3650
-826.673 926.358 3635
-817.981 926.358 3635
-809.289 926.358 3635
-797.072 922.28 3619
-784.932 918.203 3603
-773.085 914.38 3588
-764.505 914.38 3588
-754.239 912.341 3580
-739.221 904.441 3549
-727.646 900.619 3534
-719.195 900.619 3534
-659.092 855.511 3357
-651.064 855.511 3357
-643.036 855.511 3357
-635.009 855.511 3357
-634.639 865.96 3398
-639.419 883.799 3468
-631.126 883.799 3468
-622.833 883.799 3468
-613.3 882.015 3461
-605.024 882.015 3461
-596.747 882.015 3461
-588.471 882.015 3461
-581.368 883.799 3468
-576.711 889.405 3490
-569.505 891.189 3497
-561.143 891.189 3497
-556.416 897.051 3520
-547.998 897.051 3520
-540.654 898.835 3527
-532.22 898.835 3527
-523.786 898.835 3527
-516.374 900.619 3534
-507.924 900.619 3534
-499.473 900.619 3534
-492.133 902.657 3542
-484.619 904.441 3549
-476.133 904.441 3549
-467.646 904.441 3549
-460.194 906.48 3557
-451.688 906.48 3557
-443.182 906.48 3557
-434.676 906.48 3557
-426.171 906.48 3557
-419.426 910.303 3572
-410.884 910.303 3572
-402.343 910.303 3572
-394.683 912.341 3580
-386.122 912.341 3580
-377.561 912.341 3580
-369 912.341 3580
-360.439 912.341 3580
-351.092 910.303 3572
-342.55 910.303 3572
-334.009 910.303 3572
-328.292 918.203 3603
-319.676 918.203 3603
-311.751 920.242 3611
-303.116 920.242 3611
-294.481 920.242 3611
-285.212 918.203 3603
-276.596 918.203 3603
-267.981 918.203 3603
-258.789 916.164 3595
-248.104 908.519 3565
-239.579 908.519 3565
-231.054 908.519 3565
-221.094 902.657 3542
-212.143 900.619 3534
-203.692 900.619 3534
-195.242 900.619 3534
-186.791 900.619 3534
-178.34 900.619 3534
-169.889 900.619 3534
-161.804 902.657 3542
-153.334 902.657 3542
-144.864 902.657 3542
-135.816 898.835 3527
-127.382 898.835 3527
-118.712 897.051 3520
-73.4146 597.099 2343
-67.8118 597.099 2343
-62.209 597.099 2343
-56.4612 595.57 2337
-50.7857 594.551 2333
-45.2067 594.551 2333
-39.5769 593.786 2330
-33.8592 591.238 2320
-28.2748 590.473 2317
-22.7341 590.473 2317
-17.1935 590.473 2317
-11.6528 590.473 2317
-6.10425 589.709 2314
-0.570775 589.709 2314
4.9627 589.709 2314
10.4962 589.709 2314
16.0297 589.709 2314
21.5352 588.944 2311
27.0966 589.709 2314
32.6301 589.709 2314
38.1636 589.709 2314
43.7537 590.473 2317
49.2943 590.473 2317
54.835 590.473 2317
60.3756 590.473 2317
65.9163 590.473 2317
71.4569 590.473 2317
76.9976 590.473 2317
82.5382 590.473 2317
87.9648 589.709 2314
93.4983 589.709 2314
99.0318 589.709 2314
104.249 587.925 2307
109.766 587.925 2307
115.132 587.161 2304
120.642 587.161 2304
125.987 586.396 2301
130.747 583.083 2288
136.04 582.318 2285
141.504 582.318 2285
146.968 582.318 2285
152.432 582.318 2285
157.481 580.789 2279
162.931 580.789 2279
167.938 579.26 2273
173.373 579.26 2273
178.809 579.26 2273
184.244 579.26 2273
189.179 577.731 2267
194.085 576.202 2261
199.492 576.202 2261
204.898 576.202 2261
209.933 575.183 2257
215.33 575.183 2257
220.727 575.183 2257
226.124 575.183 2257
231.214 574.418 2254
235.659 572.125 2245
240.706 571.36 2242
245.738 570.596 2239
251.092 570.596 2239
256.102 569.831 2236
260.748 568.302 2230
265.722 567.538 2227
271.048 567.538 2227
736.374 809.894 3178
750.996 817.539 3208
758.667 817.539 3208
775.416 827.224 3246
784.626 828.753 3252
798.738 835.379 3278
806.577 835.379 3278
814.415 835.379 3278
822.254 835.379 3278
839.969 845.317 3317
847.901 845.317 3317
859.187 848.63 3330
874.181 855.511 3357
882.208 855.511 3357
890.236 855.511 3357
912.981 869.528 3412
924.919 873.095 3426
933.112 873.095 3426
941.304 873.095 3426
949.497 873.095 3426
951.819 867.744 3405
959.962 867.744 3405
976.065 874.879 3433
984.274 874.879 3433
994.508 876.663 3440
1002.73 876.663 3440
1010.96 876.663 3440
1019.19 876.663 3440
1033.68 882.015 3461
1044.07 883.799 3468
1052.36 883.799 3468
1060.65 883.799 3468
1066.79 882.015 3461
1070.72 878.447 3447
1081.15 880.231 3454
1089.41 880.231 3454
1099.89 882.015 3461
1108.17 882.015 3461
1116.45 882.015 3461
1124.72 882.015 3461
1133 882.015 3461
1148.53 887.622 3483
1156.86 887.622 3483
1169.87 891.189 3497
1178.23 891.189 3497
1186.6 891.189 3497
1194.96 891.189 3497
1206.07 893.228 3505
1214.46 893.228 3505
1228.07 897.051 3520
1236.49 897.051 3520
1244.91 897.051 3520
1253.32 897.051 3520
1266.76 900.619 3534
1278.1 902.657 3542
1294.92 908.519 3565
1303.44 908.519 3565
1311.97 908.519 3565
1320.49 908.519 3565
1334.61 912.341 3580
1343.17 912.341 3580
1351.73 912.341 3580
1360.29 912.341 3580
1368.86 912.341 3580
1377.42 912.341 3580
1380.17 908.519 3565
1379.74 902.657 3542
1388.21 902.657 3542
1384.85 895.012 3512
1381.74 887.622 3483
1381.29 882.015 3461
1372.7 871.312 3419
1380.88 871.312 3419
1371.99 860.608 3377
1377.2 858.824 3370
1374.17 851.943 3343
1382.16 851.943 3343
1381.84 846.846 3323
1384.35 843.534 3310
1386.79 840.221 3297
1394.68 840.221 3297
1397.03 836.908 3284
1402.32 835.379 3278
1407.14 833.595 3271
1412.37 832.066 3265
1420.18 832.066 3265
1422.3 828.753 3252
1424.36 825.44 3239
1432.11 825.44 3239
1439.85 825.44 3239
1444.92 823.911 3233
1452.65 823.911 3233
1457.67 822.381 3227
1465.38 822.381 3227
1470.36 820.852 3221
1478.06 820.852 3221
1485.77 820.852 3221
1493.47 820.852 3221
1497.91 819.068 3214
1505.59 819.068 3214
1516.58 820.852 3221
1524.28 820.852 3221
1531.98 820.852 3221
1539.68 820.852 3221
1544.02 819.068 3214
1548.81 817.539 3208
1556.48 817.539 3208
1558.3 814.481 3196
1563.01 812.952 3190
1564.73 809.894 3178
1572.33 809.894 3178
1573.96 806.836 3166
1572.54 802.249 3148
1568.02 796.133 3124
1560.87 788.742 3095
1568.27 788.742 3095
1561.41 781.606 3067
1543.17 768.864 3017
1511.85 749.751 2942
1518.88 749.751 2942
1512.95 743.38 2917
1501.17 734.205 2881
1492.88 726.815 2852
1494.44 724.267 2842
1501.23 724.267 2842
1497.95 719.424 2823
1502.03 718.15 2818
1506.09 716.876 2813
1512.82 716.876 2813
1514.69 714.582 2804
1518.68 713.308 2799
1525.37 713.308 2799
1532.07 713.308 2799
1536.01 712.034 2794
1540.48 711.015 2790
1544.38 709.74 2785
1551.04 709.74 2785
1562.74 712.034 2794
1569.42 712.034 2794
1581.74 714.582 2804
1591.28 715.857 2809
1600.27 716.876 2813
1607 716.876 2813
1613.72 716.876 2813
1637.16 724.267 2842
1643.95 724.267 2842
1650.75 724.267 2842
2039.72 887.622 3483
2048.05 887.622 3483
2073.5 895.012 3512
2086.64 897.051 3520
2099.23 898.835 3527
2107.66 898.835 3527
2116.1 898.835 3527
2124.53 898.835 3527
2132.96 898.835 3527
2141.4 898.835 3527
2149.83 898.835 3527
2158.27 898.835 3527
2166.7 898.835 3527
2170.82 897.051 3520
2179.23 897.051 3520
2187.65 897.051 3520
2196.07 897.051 3520
2204.49 897.051 3520
2198.45 891.189 3497
2193.56 885.838 3476
2187.93 880.231 3454
2196.19 880.231 3454
2195.52 876.663 3440
2172.35 864.176 3391
2162.46 857.04 3363
2170.5 857.04 3363
2174.65 855.511 3357
2169.68 850.414 3337
2168.52 846.846 3323
2181.05 848.63 3330
2189.01 848.63 3330
2196.98 848.63 3330
2200.31 846.846 3323
2217.56 850.414 3337
2238.87 855.511 3357
2246.9 855.511 3357
2263.66 858.824 3370
2276.44 860.608 3377
2293.98 864.176 3391
2302.09 864.176 3391
2310.2 864.176 3391
2318.31 864.176 3391
2326.42 864.176 3391
2315.25 857.04 3363
2309.48 851.943 3343
2317.47 851.943 3343
2325.47 851.943 3343
2315.31 845.317 3317
2318.34 843.534 3310
2317.12 840.221 3297
2311.61 835.379 3278
2319.44 835.379 3278
2318.05 832.066 3265
2316.6 828.753 3252
2315.08 825.44 3239
2322.83 825.44 3239
2326.26 823.911 3233
2315.94 817.539 3208
2310.57 812.952 3190
2309.48 809.894 3178
2317.08 809.894 3178
2311.51 805.307 3160
2319.07 805.307 3160
2326.63 805.307 3160
2334.18 805.307 3160
2341.74 805.307 3160
2340.38 802.249 3148
2347.9 802.249 3148
2359.92 803.778 3154
2367.46 803.778 3154
2375.01 803.778 3154
2387.08 805.307 3160
2399.18 806.836 3166
2429.56 814.481 3196
2437.2 814.481 3196
2444.85 814.481 3196
-2483.52 853.263 3317
-2475.59 853.263 3317
-2467.66 853.263 3317
-2454.53 851.463 3310
-2456.23 854.807 3323
-2448.28 854.807 3323
-2440.33 854.807 3323
-2371.84 879.502 3419
-2383.03 886.704 3447
-2374.78 886.704 3447
-2371.35 888.505 3454
-2367.88 890.306 3461
-2359.6 890.306 3461
-2351.32 890.306 3461
-2343.05 890.306 3461
-2292.27 874.1 3398
-2302.97 881.302 3426
-2318.22 890.306 3461
-2309.94 890.306 3461
-2330.93 901.624 3505
-2332.48 905.483 3520
-2324.07 905.483 3520
-2339.99 915.001 3557
-2336.73 917.059 3565
-2328.2 917.059 3565
-2319.68 917.059 3565
-2311.15 917.059 3565
-2297.46 915.001 3557
-2288.96 915.001 3557
-2275.32 912.943 3549
-2266.83 912.943 3549
-2263.44 915.001 3557
-2254.93 915.001 3557
-2246.43 915.001 3557
-2237.92 915.001 3557
-2220.01 911.142 3542
-2211.54 911.142 3542
-2207.43 912.943 3549
-2198.94 912.943 3549
-2190.45 912.943 3549
-2181.97 912.943 3549
-2173.48 912.943 3549
-2142.42 903.425 3512
-2129.77 901.624 3505
-2116.55 899.566 3497
-2108.18 899.566 3497
-2099.82 899.566 3497
-2087.27 897.766 3490
-2078.93 897.766 3490
-2079.48 901.624 3505
-2071.1 901.624 3505
-2062.72 901.624 3505
-2054.34 901.624 3505
-2045.95 901.624 3505
-2028.85 897.766 3490
-2024.56 899.566 3497
-2016.2 899.566 3497
-2007.84 899.566 3497
-1999.47 899.566 3497
-1966.63 888.505 3454
-1950.43 884.904 3440
-1942.2 884.904 3440
-1926.11 881.302 3426
-1906.16 875.9 3405
-1909.72 881.302 3426
-1901.53 881.302 3426
-1893.34 881.302 3426
-1881.29 879.502 3419
-1865.45 875.9 3405
-1880.21 886.704 3447
-1871.97 886.704 3447
-1863.73 886.704 3447
-1855.49 886.704 3447
-1847.24 886.704 3447
-1809.12 872.299 3391
-1808.45 875.9 3405
-1800.31 875.9 3405
-1799.53 879.502 3419
-1791.36 879.502 3419
-1786.83 881.302 3426
-1782.27 883.103 3433
-1781.3 886.704 3447
-1773.06 886.704 3447
-1771.98 890.306 3461
-1767.27 892.107 3468
-1770.14 897.766 3490
-1761.79 897.766 3490
-1760.98 901.624 3505
-1756.1 903.425 3512
-1758.65 909.084 3534
-1750.2 909.084 3534
-1741.75 909.084 3534
-1733.3 909.084 3534
-1724.85 909.084 3534
-1723.68 912.943 3549
-1715.2 912.943 3549
-1710.56 915.001 3557
-1705.88 917.059 3565
-1697.35 917.059 3565
-1688.83 917.059 3565
-1687.37 920.917 3580
-1682.56 922.975 3588
-1692.18 933.008 3627
-1683.51 933.008 3627
-1678.53 935.065 3635
-1684.53 943.297 3667
-1679.42 945.355 3675
-1670.63 945.355 3675
-1665.46 947.413 3683
-1656.66 947.413 3683
-1647.85 947.413 3683
-1517 911.142 3542
-1508.53 911.142 3542
-1500.06 911.142 3542
-1491.59 911.142 3542
-1483.12 911.142 3542
-1462.16 903.425 3512
-1447.56 899.566 3497
-1430.55 894.164 3476
-1422.24 894.164 3476
-1399.28 884.904 3440
-1382.56 879.502 3419
-1368.76 875.9 3405
-1360.62 875.9 3405
-1352.48 875.9 3405
-1341.57 874.1 3398
-1333.44 874.1 3398
-1330.78 877.701 3412
-1328.05 881.302 3426
-1319.85 881.302 3426
-1317.02 884.904 3440
-1316.79 890.306 3461
-1311.16 892.107 3468
-1302.86 892.107 3468
-1300.17 895.965 3483
-1302.6 903.425 3512
-1297.15 905.483 3520
-1288.73 905.483 3520
-1282.86 907.284 3527
-1279.84 911.142 3542
-1273.89 912.943 3549
-1265.4 912.943 3549
-1259.75 915.001 3557
-1256.52 918.859 3572
-1247.97 918.859 3572
-1239.43 918.859 3572
-1225.72 915.001 3557
-1214.48 912.943 3549
-1205.99 912.943 3549
-1195.14 911.142 3542
-1189.02 912.943 3549
-1180.53 912.943 3549
-1179.64 918.859 3572
-1171.1 918.859 3572
-1165.16 920.917 3580
-1156.6 920.917 3580
-1148.04 920.917 3580
-1139.48 920.917 3580
-1130.92 920.917 3580
-1122.36 920.917 3580
-1118.46 924.776 3595
-1109.87 924.776 3595
-1103.72 926.834 3603
-1095.1 926.834 3603
-1086.49 926.834 3603
-1077.87 926.834 3603
-1069.26 926.834 3603
-1063 928.892 3611
-1059.03 933.008 3627
-1050.36 933.008 3627
-1045.99 936.866 3642
-1044.4 943.297 3667
-1035.64 943.297 3667
-1026.87 943.297 3667
-1020.32 945.355 3675
-1011.53 945.355 3675
-1002.74 945.355 3675
-993.955 945.355 3675
-985.167 945.355 3675
-976.379 945.355 3675
-976.016 953.587 3707
-967.151 953.587 3707
-962.682 957.96 3724
-953.776 957.96 3724
-944.871 957.96 3724
-935.966 957.96 3724
-920.837 951.529 3699
-908.047 947.413 3683
-899.24 947.413 3683
-888.498 945.355 3675
-879.71 945.355 3675
-869.026 943.297 3667
-854.393 936.866 3642
-845.684 936.866 3642
-833.527 933.008 3627
-823.035 930.95 3619
-812.58 928.892 3611
-803.945 928.892 3611
-790.245 922.975 3588
-776.654 917.059 3565
-768.129 917.059 3565
-759.604 917.059 3565
-747.708 912.943 3549
-726.932 897.766 3490
-711.174 888.505 3454
-702.915 888.505 3454
-655.165 858.408 3337
-647.185 858.408 3337
-639.205 858.408 3337
-631.226 858.408 3337
-632.024 870.498 3384
-626.513 874.1 3398
-626.031 884.904 3440
-617.805 884.904 3440
-613.3 890.306 3461
-605.024 890.306 3461
-596.747 890.306 3461
-588.471 890.306 3461
-581.368 892.107 3468
-576.711 897.766 3490
-569.505 899.566 3497
-561.143 899.566 3497
-556.416 905.483 3520
-547.998 905.483 3520
-540.654 907.284 3527
-532.22 907.284 3527
-523.786 907.284 3527
-516.374 909.084 3534
-507.924 909.084 3534
-499.473 909.084 3534
-492.133 911.142 3542
-484.619 912.943 3549
-476.133 912.943 3549
-467.646 912.943 3549
-460.194 915.001 3557
-451.688 915.001 3557
-443.182 915.001 3557
-434.676 915.001 3557
-426.171 915.001 3557
-419.426 918.859 3572
-410.884 918.859 3572
-402.343 918.859 3572
-394.683 920.917 3580
-386.122 920.917 3580
-377.561 920.917 3580
-369 920.917 3580
-360.439 920.917 3580
-351.092 918.859 3572
-342.55 918.859 3572
-334.009 918.859 3572
-328.292 926.834 3603
-319.676 926.834 3603
-311.751 928.892 3611
-303.116 928.892 3611
-294.481 928.892 3611
-285.212 926.834 3603
-276.596 926.834 3603
-267.981 926.834 3603
-258.285 922.975 3588
-248.104 917.059 3565
-239.579 917.059 3565
-231.054 917.059 3565
-221.094 911.142 3542
-212.143 909.084 3534
-203.692 909.084 3534
-195.242 909.084 3534
-186.791 909.084 3534
-178.34 909.084 3534
-169.552 907.284 3527
-161.118 907.284 3527
-152.684 907.284 3527
-144.25 907.284 3527
-135.238 903.425 3512
-126.84 903.425 3512
-118.206 901.624 3505
-73.5086 603.484 2346
-67.8986 603.484 2346
-62.2886 603.484 2346
-56.6062 602.712 2343
-50.8727 601.169 2337
-45.2843 601.169 2337
-39.6278 600.14 2333
-33.8592 596.796 2320
-28.2748 596.024 2317
-22.7341 596.024 2317
-17.1935 596.024 2317
-11.6528 596.024 2317
-6.10425 595.252 2314
-0.570775 595.252 2314
4.9627 595.252 2314
10.4962 595.252 2314
16.0297 595.252 2314
21.5352 594.48 2311
27.0966 595.252 2314
32.6301 595.252 2314
38.1636 595.252 2314
43.7537 596.024 2317
49.2943 596.024 2317
54.835 596.024 2317
60.3756 596.024 2317
65.9163 596.024 2317
71.4569 596.024 2317
76.9976 596.024 2317
82.5382 596.024 2317
87.9648 595.252 2314
93.4983 595.252 2314
99.0318 595.252 2314
104.249 593.451 2307
109.766 593.451 2307
115.132 592.68 2304
120.642 592.68 2304
125.987 591.908 2301
130.747 588.564 2288
136.218 588.564 2288
141.689 588.564 2288
147.161 588.564 2288
152.432 587.792 2285
157.689 587.02 2282
163.146 587.02 2282
168.159 585.477 2276
173.373 584.705 2273
178.809 584.705 2273
184.244 584.705 2273
189.429 583.934 2270
194.6 583.162 2267
199.492 581.618 2261
204.898 581.618 2261
210.305 581.618 2261
215.712 581.618 2261
221.118 581.618 2261
226.525 581.618 2261
231.932 581.618 2261
236.289 579.046 2251
240.706 576.731 2242
246.067 576.731 2242
251.428 576.731 2242
256.789 576.731 2242
260.748 573.644 2230
265.722 572.872 2227
271.048 572.872 2227
721.658 826.768 3214
729.344 826.768 3214
737.029 826.768 3214
743.325 825.224 3208
750.996 825.224 3208
758.667 825.224 3208
775.416 834.999 3246
784.626 836.543 3252
798.738 843.231 3278
806.577 843.231 3278
814.415 843.231 3278
822.254 843.231 3278
839.969 853.263 3317
847.901 853.263 3317
859.187 856.607 3330
874.181 863.553 3357
882.208 863.553 3357
890.236 863.553 3357
912.981 877.701 3412
924.919 881.302 3426
933.112 881.302 3426
941.304 881.302 3426
949.497 881.302 3426
951.819 875.9 3405
959.962 875.9 3405
976.065 883.103 3433
984.274 883.103 3433
994.508 884.904 3440
1002.73 884.904 3440
1010.96 884.904 3440
1019.19 884.904 3440
1033.68 890.306 3461
1044.07 892.107 3468
1052.36 892.107 3468
1060.65 892.107 3468
1066.79 890.306 3461
1070.72 886.704 3447
1081.15 888.505 3454
1089.41 888.505 3454
1099.89 890.306 3461
1108.17 890.306 3461
1116.45 890.306 3461
1124.72 890.306 3461
1133 890.306 3461
1148.53 895.965 3483
1156.86 895.965 3483
1169.87 899.566 3497
1178.23 899.566 3497
1186.6 899.566 3497
1194.96 899.566 3497
1206.07 901.624 3505
1214.46 901.624 3505
1228.07 905.483 3520
1236.49 905.483 3520
1244.91 905.483 3520
1253.32 905.483 3520
1266.76 909.084 3534
1278.1 911.142 3542
1294.92 917.059 3565
1303.44 917.059 3565
1311.97 917.059 3565
1320.49 917.059 3565
1334.61 920.917 3580
1343.17 920.917 3580
1351.73 920.917 3580
1360.29 920.917 3580
1368.86 920.917 3580
1377.42 920.917 3580
1380.17 917.059 3565
1373.89 907.284 3527
1382.33 907.284 3527
1373.41 895.965 3483
1373.01 890.306 3461
1375.7 886.704 3447
1367.08 875.9 3405
1375.22 875.9 3405
1371.99 868.698 3377
1374.34 865.096 3363
1374.17 859.952 3343
1382.16 859.952 3343
1381.84 854.807 3323
1384.35 851.463 3310
1386.79 848.119 3297
1394.68 848.119 3297
1397.03 844.774 3284
1404.88 844.774 3284
1410.16 843.231 3278
1412.37 839.887 3265
1420.18 839.887 3265
1424.92 838.086 3258
1430.08 836.543 3252
1435.2 834.999 3246
1442.96 834.999 3246
1450.73 834.999 3246
1455.34 833.199 3239
1460.38 831.655 3233
1468.11 831.655 3233
1473.1 830.112 3227
1480.82 830.112 3227
1485.77 828.568 3221
1493.47 828.568 3221
1501.17 828.568 3221
1508.87 828.568 3221
1516.58 828.568 3221
1524.28 828.568 3221
1531.98 828.568 3221
1536.34 826.768 3214
1544.02 826.768 3214
1543.02 822.137 3196
1550.66 822.137 3196
1558.3 822.137 3196
1560.07 819.05 3184
1564.73 817.507 3178
1572.33 817.507 3178
1573.96 814.42 3166
1572.54 809.79 3148
1568.02 803.616 3124
1560.87 796.156 3095
1568.27 796.156 3095
1567.01 791.783 3078
1548.8 778.921 3028
1522.64 762.201 2963
1529.72 762.201 2963
1520.73 754.226 2932
1508.98 744.966 2896
1500.2 737.248 2866
1497.07 732.361 2847
1503.87 732.361 2847
1502.72 728.502 2832
1504.7 726.187 2823
1508.77 724.901 2818
1515.51 724.901 2818
1517.39 722.586 2809
1518.68 720.013 2799
1525.37 720.013 2799
1532.07 720.013 2799
1536.01 718.727 2794
1540.48 717.698 2790
1547.15 717.698 2790
1553.83 717.698 2790
1565.53 720.013 2799
1572.23 720.013 2799
1581.74 721.299 2804
1591.28 722.586 2809
1597.99 722.586 2809
1604.71 722.586 2809
1616.59 724.901 2818
1637.16 731.075 2842
1643.95 731.075 2842
1650.75 731.075 2842
2035.62 894.164 3476
2043.94 894.164 3476
2060.51 897.766 3490
2081.9 903.425 3512
2090.3 903.425 3512
2098.7 903.425 3512
2111.9 905.483 3520
2120.31 905.483 3520
2128.73 905.483 3520
2137.15 905.483 3520
2145.57 905.483 3520
2149.09 903.425 3512
2157.49 903.425 3512
2161.57 901.624 3505
2179.23 905.483 3520
2187.65 905.483 3520
2196.07 905.483 3520
2199.48 903.425 3512
2198.45 899.566 3497
2179.67 888.505 3454
2187.93 888.505 3454
2196.19 888.505 3454
2168.71 874.1 3398
2150.57 863.553 3357
2154.1 861.752 3350
2162.11 861.752 3350
2161.7 858.408 3337
2143.67 848.119 3297
2164.6 853.263 3317
2176.47 854.807 3323
2184.41 854.807 3323
2192.36 854.807 3323
2196.33 853.263 3317
2204.26 853.263 3317
2229.54 859.952 3343
2237.53 859.952 3343
2254.93 863.553 3357
2271.72 866.897 3370
2289.25 870.498 3384
2297.34 870.498 3384
2305.43 870.498 3384
2313.53 870.498 3384
2321.62 870.498 3384
2315.25 865.096 3363
2309.48 859.952 3343
2317.47 859.952 3343
2325.47 859.952 3343
2315.31 853.263 3317
2318.34 851.463 3310
2317.12 848.119 3297
2311.61 843.231 3278
2319.44 843.231 3278
2318.05 839.887 3265
2316.6 836.543 3252
2320.09 834.999 3246
2327.85 834.999 3246
2330.58 833.199 3239
2320.27 826.768 3214
2310.57 820.594 3190
2309.48 817.507 3178
2317.08 817.507 3178
2311.51 812.877 3160
2319.07 812.877 3160
2326.63 812.877 3160
2334.18 812.877 3160
2341.74 812.877 3160
2349.3 812.877 3160
2352.38 811.333 3154
2359.92 811.333 3154
2367.46 811.333 3154
2375.01 811.333 3154
2387.08 812.877 3160
2399.18 814.42 3166
2429.56 822.137 3196
2437.2 822.137 3196
2444.85 822.137 3196
-2478.28 859.392 3310
-2470.36 859.392 3310
-2447.57 854.199 3290
-2425.61 849.266 3271
-2408.18 845.891 3258
-2400.39 845.891 3258
-2371.84 887.692 3419
-2383.03 894.962 3447
-2374.78 894.962 3447
-2371.35 896.779 3454
-2367.88 898.597 3461
-2359.6 898.597 3461
-2351.32 898.597 3461
-2343.05 898.597 3461
-2302.97 889.509 3426
-2318.22 898.597 3461
-2309.94 898.597 3461
-2330.93 910.021 3505
-2332.48 913.915 3520
-2324.07 913.915 3520
-2345.25 925.599 3565
-2336.73 925.599 3565
-2328.2 925.599 3565
-2319.68 925.599 3565
-2311.15 925.599 3565
-2292.29 921.445 3549
-2283.81 921.445 3549
-2270.83 919.627 3542
-2262.36 919.627 3542
-2263.44 923.522 3557
-2254.93 923.522 3557
-2246.43 923.522 3557
-2237.92 923.522 3557
-2220.01 919.627 3542
-2211.54 919.627 3542
-2207.43 921.445 3549
-2198.94 921.445 3549
-2190.45 921.445 3549
-2181.97 921.445 3549
-2173.48 921.445 3549
-2142.42 911.838 3512
-2124.91 907.944 3497
-2116.55 907.944 3497
-2108.18 907.944 3497
-2099.82 907.944 3497
-2087.27 906.126 3490
-2078.93 906.126 3490
-2074.73 907.944 3497
-2066.37 907.944 3497
-2058.01 907.944 3497
-2049.65 907.944 3497
-2041.29 907.944 3497
-2028.85 906.126 3490
-2024.56 907.944 3497
-2016.2 907.944 3497
-2007.84 907.944 3497
-1999.47 907.944 3497
-1966.63 896.779 3454
-1946.46 891.327 3433
-1938.25 891.327 3433
-1926.11 889.509 3426
-1906.16 884.057 3405
-1909.72 889.509 3426
-1901.53 889.509 3426
-1893.34 889.509 3426
-1881.29 887.692 3419
-1865.45 884.057 3405
-1880.21 894.962 3447
-1871.97 894.962 3447
-1863.73 894.962 3447
-1855.49 894.962 3447
-1847.24 894.962 3447
-1809.12 880.422 3391
-1808.45 884.057 3405
-1800.31 884.057 3405
-1799.53 887.692 3419
-1791.36 887.692 3419
-1786.83 889.509 3426
-1782.27 891.327 3433
-1781.3 894.962 3447
-1773.06 894.962 3447
-1771.98 898.597 3461
-1767.27 900.414 3468
-1770.14 906.126 3490
-1761.79 906.126 3490
-1756.96 907.944 3497
-1752.6 910.021 3505
-1755.17 915.733 3527
-1746.73 915.733 3527
-1738.3 915.733 3527
-1729.87 915.733 3527
-1721.43 915.733 3527
-1723.68 921.445 3549
-1715.2 921.445 3549
-1710.56 923.522 3557
-1705.88 925.599 3565
-1697.35 925.599 3565
-1688.83 925.599 3565
-1680.3 925.599 3565
-1678.81 929.493 3580
-1684.71 937.542 3611
-1676.08 937.542 3611
-1678.53 943.773 3635
-1676.73 947.668 3650
-1671.65 949.745 3658
-1662.91 949.745 3658
-1658.23 952.081 3667
-1649.46 952.081 3667
-1640.69 952.081 3667
-1517 919.627 3542
-1508.53 919.627 3542
-1500.06 919.627 3542
-1482.33 913.915 3520
-1473.91 913.915 3520
-1465.49 913.915 3520
-1444.66 906.126 3490
-1430.55 902.491 3476
-1422.24 902.491 3476
-1399.28 893.144 3440
-1376.9 884.057 3405
-1363.13 880.422 3391
-1355.02 880.422 3391
-1344.13 878.605 3384
-1336.04 878.605 3384
-1327.95 878.605 3384
-1319.86 878.605 3384
-1317.19 882.24 3398
-1309.07 882.24 3398
-1306.3 885.875 3412
-1298.14 885.875 3412
-1289.98 885.875 3412
-1281.82 885.875 3412
-1294.57 900.414 3468
-1286.28 900.414 3468
-1283.51 904.309 3483
-1275.18 904.309 3483
-1269.4 906.126 3490
-1261.05 906.126 3490
-1263.48 913.915 3520
-1255.06 913.915 3520
-1251.6 917.55 3534
-1248.43 921.445 3549
-1239.94 921.445 3549
-1231.45 921.445 3549
-1217.8 917.55 3534
-1196.68 907.944 3497
-1191.04 910.021 3505
-1182.66 910.021 3505
-1176.62 911.838 3512
-1168.22 911.838 3512
-1169.73 919.627 3542
-1161.26 919.627 3542
-1152.79 919.627 3542
-1144.32 919.627 3542
-1138.1 921.445 3549
-1129.61 921.445 3549
-1121.12 921.445 3549
-1112.64 921.445 3549
-1109.13 925.599 3565
-1100.6 925.599 3565
-1094.22 927.416 3572
-1085.68 927.416 3572
-1077.14 927.416 3572
-1068.6 927.416 3572
-1060.06 927.416 3572
-1056.22 931.57 3588
-1052.02 935.465 3603
-1043.41 935.465 3603
-1041.69 941.696 3627
-1037.28 945.591 3642
-1030.83 947.668 3650
-1022.11 947.668 3650
-1013.38 947.668 3650
-1004.65 947.668 3650
-998.104 949.745 3658
-989.357 949.745 3658
-980.61 949.745 3658
-976.379 954.159 3675
-976.016 962.467 3707
-967.151 962.467 3707
-962.682 966.881 3724
-953.776 966.881 3724
-944.871 966.881 3724
-931.693 962.467 3707
-918.846 958.313 3691
-906.074 954.159 3675
-897.286 954.159 3675
-888.498 954.159 3675
-877.795 952.081 3667
-864.998 947.668 3650
-848.997 939.619 3619
-840.343 939.619 3619
-828.012 935.465 3603
-814.165 929.493 3580
-805.604 929.493 3580
-797.044 929.493 3580
-785.179 925.599 3565
-773.168 921.445 3549
-756.709 911.838 3512
-748.311 911.838 3512
-736.753 907.944 3497
-726.932 906.126 3490
-701.085 884.057 3405
-692.943 884.057 3405
-643.306 861.209 3317
-636.524 862.767 3323
-628.577 862.767 3323
-632.024 878.605 3384
-631.676 889.509 3426
-629.852 898.597 3461
-621.576 898.597 3461
-617.198 904.309 3483
-608.869 904.309 3483
-600.541 904.309 3483
-591.021 902.491 3476
-585.056 906.126 3490
-577.867 907.944 3497
-570.808 910.021 3505
-562.426 910.021 3505
-557.522 915.733 3527
-549.088 915.733 3527
-540.654 915.733 3527
-532.22 915.733 3527
-522.746 913.915 3520
-516.374 917.55 3534
-507.924 917.55 3534
-499.473 917.55 3534
-493.106 921.445 3549
-484.619 921.445 3549
-477.206 923.522 3557
-468.7 923.522 3557
-461.229 925.599 3565
-452.704 925.599 3565
-444.179 925.599 3565
-435.654 925.599 3565
-427.129 925.599 3565
-420.365 929.493 3580
-411.805 929.493 3580
-403.244 929.493 3580
-394.683 929.493 3580
-386.122 929.493 3580
-377.561 929.493 3580
-369 929.493 3580
-360.439 929.493 3580
-351.092 927.416 3572
-342.55 927.416 3572
-334.009 927.416 3572
-325.467 927.416 3572
-301.772 933.388 3595
-293.176 933.388 3595
-284.579 933.388 3595
-275.982 933.388 3595
-267.386 933.388 3595
-258.285 931.57 3588
-248.104 925.599 3565
-238.034 919.627 3542
-229.564 919.627 3542
-220.157 915.733 3527
-211.723 915.733 3527
-203.289 915.733 3527
-194.855 915.733 3527
-186.421 915.733 3527
-177.633 913.915 3520
-168.831 911.838 3512
-160.433 911.838 3512
-151.732 910.021 3505
-143.35 910.021 3505
-134.661 907.944 3497
-126.298 907.944 3497
-117.7 906.126 3490
-73.5086 609.104 2346
-67.8986 609.104 2346
-62.2886 609.104 2346
-56.6062 608.325 2343
-50.8727 606.767 2337
-45.2843 606.767 2337
-39.6278 605.728 2333
-33.8592 602.353 2320
-28.2748 601.574 2317
-22.7341 601.574 2317
-17.1935 601.574 2317
-11.6528 601.574 2317
-6.10425 600.795 2314
-0.570775 600.795 2314
4.9627 600.795 2314
10.4962 600.795 2314
16.0297 600.795 2314
21.5352 600.016 2311
27.0966 600.795 2314
32.6301 600.795 2314
38.1636 600.795 2314
43.7537 601.574 2317
49.2943 601.574 2317
54.835 601.574 2317
60.3756 601.574 2317
65.9163 601.574 2317
71.4569 601.574 2317
76.9976 601.574 2317
82.5382 601.574 2317
87.9648 600.795 2314
93.4983 600.795 2314
98.9034 600.016 2311
104.249 598.978 2307
109.623 598.199 2304
115.132 598.199 2304
120.642 598.199 2304
125.987 597.42 2301
130.747 594.045 2288
136.218 594.045 2288
141.689 594.045 2288
147.161 594.045 2288
152.432 593.266 2285
157.689 592.487 2282
163.146 592.487 2282
168.159 590.929 2276
173.373 590.15 2273
178.809 590.15 2273
184.244 590.15 2273
189.429 589.371 2270
194.6 588.593 2267
199.492 587.035 2261
204.898 587.035 2261
210.305 587.035 2261
215.712 587.035 2261
221.118 587.035 2261
226.525 587.035 2261
231.932 587.035 2261
236.289 584.438 2251
240.706 582.102 2242
246.067 582.102 2242
251.428 582.102 2242
256.789 582.102 2242
260.748 578.986 2230
265.722 578.207 2227
271.048 578.207 2227
721.658 834.467 3214
729.344 834.467 3214
737.029 834.467 3214
743.325 832.909 3208
750.996 832.909 3208
754.411 828.236 3190
766.339 832.909 3208
775.458 834.467 3214
783.143 834.467 3214
790.829 834.467 3214
798.515 834.467 3214
807.956 836.284 3221
821.989 842.775 3246
829.752 842.775 3246
839.062 844.333 3252
850.224 847.708 3265
871.697 861.209 3317
879.629 861.209 3317
887.56 861.209 3317
902.512 867.96 3343
910.506 867.96 3343
923.995 873.152 3363
932.037 873.152 3363
940.079 873.152 3363
954.041 878.605 3384
968.104 884.057 3405
976.247 884.057 3405
984.389 884.057 3405
992.531 884.057 3405
1004.79 887.692 3419
1012.96 887.692 3419
1023.23 889.509 3426
1031.42 889.509 3426
1039.62 889.509 3426
1047.81 889.509 3426
1056 889.509 3426
1064.19 889.509 3426
1072.39 889.509 3426
1078.37 887.692 3419
1088.77 889.509 3426
1099.21 891.327 3433
1107.41 891.327 3433
1115.62 891.327 3433
1128.42 894.962 3447
1138.97 896.779 3454
1149.55 898.597 3461
1165.19 904.309 3483
1173.52 904.309 3483
1181.85 904.309 3483
1190.17 904.309 3483
1200.91 906.126 3490
1209.26 906.126 3490
1217.6 906.126 3490
1225.95 906.126 3490
1234.3 906.126 3490
1242.64 906.126 3490
1258.87 911.838 3512
1270.16 913.915 3520
1283.66 917.55 3534
1292.11 917.55 3534
1311.97 925.599 3565
1320.49 925.599 3565
1329.02 925.599 3565
1334.54 923.522 3557
1343.05 923.522 3557
1354.59 925.599 3565
1363.12 925.599 3565
1371.64 925.599 3565
1371.27 919.627 3542
1373.89 915.733 3527
1382.33 915.733 3527
1373.41 904.309 3483
1373.01 898.597 3461
1375.7 894.962 3447
1367.08 884.057 3405
1375.22 884.057 3405
1371.99 876.787 3377
1374.34 873.152 3363
1374.17 867.96 3343
1382.16 867.96 3343
1381.84 862.767 3323
1384.35 859.392 3310
1386.79 856.017 3297
1394.68 856.017 3297
1397.03 852.641 3284
1404.88 852.641 3284
1410.16 851.083 3278
1412.37 847.708 3265
1420.18 847.708 3265
1427.99 847.708 3265
1430.08 844.333 3252
1435.2 842.775 3246
1442.96 842.775 3246
1450.73 842.775 3246
1458.49 842.775 3246
1463.09 840.958 3239
1470.83 840.958 3239
1475.84 839.4 3233
1483.57 839.4 3233
1488.53 837.842 3227
1496.25 837.842 3227
1501.17 836.284 3221
1508.87 836.284 3221
1516.58 836.284 3221
1524.28 836.284 3221
1531.98 836.284 3221
1539.68 836.284 3221
1544.02 834.467 3214
1545.91 831.351 3202
1553.57 831.351 3202
1558.3 829.793 3196
1563.01 828.236 3190
1564.73 825.12 3178
1572.33 825.12 3178
1573.96 822.004 3166
1572.54 817.331 3148
1568.02 811.1 3124
1560.87 803.57 3095
1568.27 803.57 3095
1567.01 799.156 3078
1551.36 787.473 3033
1525.21 770.597 2968
1532.3 770.597 2968
1523.32 762.548 2937
1508.98 751.903 2896
1502.82 745.412 2871
1497.07 739.181 2847
1503.87 739.181 2847
1505.38 736.584 2837
1507.36 734.248 2828
1511.45 732.95 2823
1518.2 732.95 2823
1517.39 729.315 2809
1518.68 726.718 2799
1525.37 726.718 2799
1532.07 726.718 2799
1536.01 725.42 2794
1542.69 725.42 2794
1547.15 724.382 2790
1556.05 725.42 2794
1565.53 726.718 2799
1572.23 726.718 2799
1581.74 728.016 2804
1591.28 729.315 2809
1597.99 729.315 2809
1604.71 729.315 2809
1616.59 731.651 2818
1642.92 740.479 2852
1696.01 761.25 2932
1703.02 761.25 2932
1710.03 761.25 2932
2035.62 902.491 3476
2043.94 902.491 3476
2060.51 906.126 3490
2081.9 911.838 3512
2090.3 911.838 3512
2098.7 911.838 3512
2111.9 913.915 3520
2120.31 913.915 3520
2128.73 913.915 3520
2137.15 913.915 3520
2145.57 913.915 3520
2149.09 911.838 3512
2157.49 911.838 3512
2161.57 910.021 3505
2179.23 913.915 3520
2187.65 913.915 3520
2196.07 913.915 3520
2199.48 911.838 3512
2198.45 907.944 3497
2179.67 896.779 3454
2187.93 896.779 3454
2196.19 896.779 3454
2168.71 882.24 3398
2150.57 871.595 3357
2154.1 869.777 3350
2162.11 869.777 3350
2161.7 866.402 3337
2143.67 856.017 3297
2164.6 861.209 3317
2176.47 862.767 3323
2184.41 862.767 3323
2192.36 862.767 3323
2196.33 861.209 3317
2204.26 861.209 3317
2229.54 867.96 3343
2237.53 867.96 3343
2254.93 871.595 3357
2271.72 874.97 3370
2289.25 878.605 3384
2297.34 878.605 3384
2305.43 878.605 3384
2313.53 878.605 3384
2321.62 878.605 3384
2315.25 873.152 3363
2309.48 867.96 3343
2317.47 867.96 3343
2325.47 867.96 3343
2315.31 861.209 3317
2318.34 859.392 3310
2317.12 856.017 3297
2311.61 851.083 3278
2319.44 851.083 3278
2318.05 847.708 3265
2316.6 844.333 3252
2320.09 842.775 3246
2327.85 842.775 3246
2330.58 840.958 3239
2320.27 834.467 3214
2310.57 828.236 3190
2309.48 825.12 3178
2317.08 825.12 3178
2311.51 820.447 3160
2319.07 820.447 3160
2326.63 820.447 3160
2334.18 820.447 3160
2341.74 820.447 3160
2349.3 820.447 3160
2352.38 818.889 3154
2359.92 818.889 3154
2367.46 818.889 3154
2375.01 818.889 3154
2387.08 820.447 3160
2399.18 822.004 3166
2429.56 829.793 3196
2437.2 829.793 3196
2444.85 829.793 3196
-2478.28 867.321 3310
-2470.36 867.321 3310
-2447.57 862.08 3290
-2425.61 857.102 3271
-2408.18 853.695 3258
-2400.39 853.695 3258
-2371.84 895.882 3419
-2383.03 903.219 3447
-2374.78 903.219 3447
-2371.35 905.053 3454
-2367.88 906.888 3461
-2359.6 906.888 3461
-2351.32 906.888 3461
-2343.05 906.888 3461
-2302.97 897.716 3426
-2318.22 906.888 3461
-2309.94 906.888 3461
-2330.93 918.417 3505
-2332.48 922.347 3520
-2324.07 922.347 3520
-2345.25 934.139 3565
-2336.73 934.139 3565
-2328.2 934.139 3565
-2319.68 934.139 3565
-2311.15 934.139 3565
-2292.29 929.946 3549
-2283.81 929.946 3549
-2270.83 928.112 3542
-2262.36 928.112 3542
-2263.44 932.042 3557
-2254.93 932.042 3557
-2246.43 932.042 3557
-2237.92 932.042 3557
-2220.01 928.112 3542
-2211.54 928.112 3542
-2207.43 929.946 3549
-2198.94 929.946 3549
-2190.45 929.946 3549
-2181.97 929.946 3549
-2173.48 929.946 3549
-2142.42 920.251 3512
-2124.91 916.321 3497
-2116.55 916.321 3497
-2108.18 916.321 3497
-2099.82 916.321 3497
-2087.27 914.486 3490
-2078.93 914.486 3490
-2074.73 916.321 3497
-2066.37 916.321 3497
-2058.01 916.321 3497
-2049.65 916.321 3497
-2041.29 916.321 3497
-2028.85 914.486 3490
-2024.56 916.321 3497
-2016.2 916.321 3497
-2007.84 916.321 3497
-1999.47 916.321 3497
-1966.63 905.053 3454
-1946.46 899.551 3433
-1938.25 899.551 3433
-1926.11 897.716 3426
-1906.16 892.214 3405
-1909.72 897.716 3426
-1901.53 897.716 3426
-1893.34 897.716 3426
-1881.29 895.882 3419
-1865.45 892.214 3405
-1880.21 903.219 3447
-1871.97 903.219 3447
-1863.73 903.219 3447
-1855.49 903.219 3447
-1847.24 903.219 3447
-1809.12 888.545 3391
-1808.45 892.214 3405
-1800.31 892.214 3405
-1799.53 895.882 3419
-1791.36 895.882 3419
-1786.83 897.716 3426
-1782.27 899.551 3433
-1781.3 903.219 3447
-1773.06 903.219 3447
-1771.98 906.888 3461
-1767.27 908.722 3468
-1770.14 914.486 3490
-1761.79 914.486 3490
-1756.96 916.321 3497
-1752.6 918.417 3505
-1755.17 924.182 3527
-1746.73 924.182 3527
-1738.3 924.182 3527
-1729.87 924.182 3527
-1721.43 924.182 3527
-1720.28 928.112 3542
-1711.81 928.112 3542
-1710.56 932.042 3557
-1702.05 932.042 3557
-1693.54 932.042 3557
-1685.04 932.042 3557
-1672.76 929.946 3549
-1675.06 935.973 3572
-1673.98 940.165 3588
-1665.4 940.165 3588
-1667.44 946.192 3611
-1669.83 952.481 3635
-1661.14 952.481 3635
-1652.45 952.481 3635
-1643.76 952.481 3635
-1491.73 912.652 3483
-1483.4 912.652 3483
-1487.36 920.251 3512
-1482.33 922.347 3520
-1473.91 922.347 3520
-1465.49 922.347 3520
-1444.66 914.486 3490
-1424.38 906.888 3461
-1416.1 906.888 3461
-1393.59 897.716 3426
-1376.9 892.214 3405
-1360.32 886.711 3384
-1352.23 886.711 3384
-1335.79 881.209 3363
-1325.38 879.636 3357
-1317.36 879.636 3357
-1306.6 877.802 3350
-1303.63 881.209 3363
-1295.58 881.209 3363
-1287.54 881.209 3363
-1292.82 890.38 3398
-1284.69 890.38 3398
-1276.56 890.38 3398
-1268.44 890.38 3398
-1260.31 890.38 3398
-1252.19 890.38 3398
-1244.06 890.38 3398
-1258.85 906.888 3461
-1250.57 906.888 3461
-1244.81 908.722 3468
-1236.52 908.722 3468
-1233.54 912.652 3483
-1227.67 914.486 3490
-1219.33 914.486 3490
-1210.98 914.486 3490
-1202.63 914.486 3490
-1194.29 914.486 3490
-1185.94 914.486 3490
-1170.17 908.722 3468
-1164.56 910.818 3476
-1156.25 910.818 3476
-1154.87 916.321 3497
-1146.51 916.321 3497
-1143.03 920.251 3512
-1137.22 922.347 3520
-1133.29 926.016 3534
-1124.84 926.016 3534
-1116.39 926.016 3534
-1107.94 926.016 3534
-1099.48 926.016 3534
-1091.03 926.016 3534
-1085.03 928.112 3542
-1076.56 928.112 3542
-1068.09 928.112 3542
-1057.23 926.016 3534
-1048.78 926.016 3534
-1051.51 935.973 3572
-1047.64 940.165 3588
-1039.06 940.165 3588
-1037.09 946.192 3611
-1028.46 946.192 3611
-1019.82 946.192 3611
-1011.19 946.192 3611
-1013.38 956.411 3650
-1004.65 956.411 3650
-995.922 956.411 3650
-987.193 956.411 3650
-978.465 956.411 3650
-971.862 958.508 3658
-971.803 967.155 3691
-962.977 967.155 3691
-958.287 971.347 3707
-949.422 971.347 3707
-940.558 971.347 3707
-929.683 969.251 3699
-912.871 960.866 3667
-906.074 962.962 3675
-897.286 962.962 3675
-888.498 962.962 3675
-879.71 962.962 3675
-857.651 948.288 3619
-845.243 944.096 3603
-836.628 944.096 3603
-822.726 938.069 3580
-812.346 935.973 3572
-800.429 932.042 3557
-791.923 932.042 3557
-781.655 929.946 3549
-765.108 920.251 3512
-753.477 916.321 3497
-745.115 916.321 3497
-735.278 914.486 3490
-726.932 914.486 3490
-640.591 865.487 3303
-637.865 872.562 3330
-629.901 872.562 3330
-630.717 884.877 3377
-631.676 897.716 3426
-629.852 906.888 3461
-621.576 906.888 3461
-617.198 912.652 3483
-608.869 912.652 3483
-600.541 912.652 3483
-592.212 912.652 3483
-585.056 914.486 3490
-577.867 916.321 3497
-570.808 918.417 3505
-562.426 918.417 3505
-557.522 924.182 3527
-549.088 924.182 3527
-540.654 924.182 3527
-532.22 924.182 3527
-522.746 922.347 3520
-515.352 924.182 3527
-507.924 926.016 3534
-499.473 926.016 3534
-493.106 929.946 3549
-484.619 929.946 3549
-477.206 932.042 3557
-468.7 932.042 3557
-462.135 935.973 3572
-453.593 935.973 3572
-445.051 935.973 3572
-436.51 935.973 3572
-427.129 934.139 3565
-420.365 938.069 3580
-412.725 940.165 3588
-404.145 940.165 3588
-395.565 940.165 3588
-386.985 940.165 3588
-379.143 942 3595
-370.546 942 3595
-361.95 942 3595
-351.879 938.069 3580
-343.318 938.069 3580
-245.947 926.016 3534
-237.496 926.016 3534
-229.045 926.016 3534
-220.157 924.182 3527
-211.723 924.182 3527
-203.289 924.182 3527
-194.855 924.182 3527
-186.421 924.182 3527
-177.23 920.251 3512
-168.495 918.417 3505
-160.113 918.417 3505
-151.386 916.321 3497
-143.023 916.321 3497
-134.661 916.321 3497
-126.298 916.321 3497
-117.464 912.652 3483
-73.5086 614.724 2346
-67.8986 614.724 2346
-62.2886 614.724 2346
-56.6062 613.937 2343
-50.8727 612.365 2337
-45.2843 612.365 2337
-39.6278 611.317 2333
-33.8592 607.911 2320
-28.2748 607.125 2317
-22.7341 607.125 2317
-17.1935 607.125 2317
-11.6377 606.339 2314
-6.10425 606.339 2314
-0.570775 606.339 2314
4.9627 606.339 2314
10.4962 606.339 2314
16.0297 606.339 2314
21.5352 605.552 2311
27.0966 606.339 2314
32.6301 606.339 2314
38.1636 606.339 2314
43.697 606.339 2314
49.2305 606.339 2314
54.764 606.339 2314
60.3756 607.125 2317
65.9163 607.125 2317
71.4569 607.125 2317
76.9976 607.125 2317
82.4314 606.339 2314
87.9648 606.339 2314
93.4983 606.339 2314
98.9034 605.552 2311
104.249 604.504 2307
109.623 603.718 2304
115.132 603.718 2304
120.642 603.718 2304
125.987 602.932 2301
130.747 599.526 2288
136.218 599.526 2288
141.689 599.526 2288
147.161 599.526 2288
152.632 599.526 2288
157.689 597.954 2282
163.146 597.954 2282
168.381 597.167 2279
173.831 597.167 2279
179.281 597.167 2279
184.73 597.167 2279
189.679 595.595 2273
194.6 594.023 2267
199.492 592.451 2261
204.898 592.451 2261
210.305 592.451 2261
215.712 592.451 2261
221.118 592.451 2261
226.525 592.451 2261
231.932 592.451 2261
236.919 591.403 2257
241.028 588.258 2245
246.396 588.258 2245
251.765 588.258 2245
257.133 588.258 2245
260.748 584.328 2230
265.722 583.542 2227
271.048 583.542 2227
721.658 842.166 3214
729.344 842.166 3214
737.029 842.166 3214
743.325 840.594 3208
750.996 840.594 3208
751.573 832.733 3178
762.039 835.877 3190
774.01 840.594 3208
781.681 840.594 3208
789.353 840.594 3208
797.024 840.594 3208
803.19 839.022 3202
815.659 844 3221
827.962 848.717 3239
835.708 848.717 3239
846.838 852.123 3252
858.031 855.53 3265
875.916 865.487 3303
883.814 865.487 3303
895.492 869.155 3317
905.059 870.727 3323
918.5 875.968 3343
926.494 875.968 3343
934.488 875.968 3343
948.121 881.209 3363
956.163 881.209 3363
964.205 881.209 3363
980.342 888.545 3391
988.45 888.545 3391
998.617 890.38 3398
1006.74 890.38 3398
1016.96 892.214 3405
1031.42 897.716 3426
1039.62 897.716 3426
1047.81 897.716 3426
1051.69 894.048 3412
1055.5 890.38 3398
1063.62 890.38 3398
1071.75 890.38 3398
1084.32 894.048 3412
1094.72 895.882 3419
1102.9 895.882 3419
1111.07 895.882 3419
1121.54 897.716 3426
1132.04 899.551 3433
1147.23 905.053 3454
1155.49 905.053 3454
1163.75 905.053 3454
1174.38 906.888 3461
1182.66 906.888 3461
1190.93 906.888 3461
1199.21 906.888 3461
1207.49 906.888 3461
1215.76 906.888 3461
1224.04 906.888 3461
1232.32 906.888 3461
1245.97 910.818 3476
1259.33 914.486 3490
1273.13 918.417 3505
1281.51 918.417 3505
1295.41 922.347 3520
1303.83 922.347 3520
1317.46 926.016 3534
1325.91 926.016 3534
1337.39 928.112 3542
1345.86 928.112 3542
1354.33 928.112 3542
1362.8 928.112 3542
1368.17 926.016 3534
1365.32 918.417 3505
1373.7 918.417 3505
1364.74 906.888 3461
1367.46 903.219 3447
1364.53 895.882 3419
1367.08 892.214 3405
1375.22 892.214 3405
1371.99 884.877 3377
1369.03 877.802 3350
1374.17 875.968 3343
1382.16 875.968 3343
1381.84 870.727 3323
1384.35 867.321 3310
1386.79 863.915 3297
1394.68 863.915 3297
1397.03 860.508 3284
1404.88 860.508 3284
1410.16 858.936 3278
1412.37 855.53 3265
1420.18 855.53 3265
1427.99 855.53 3265
1430.08 852.123 3252
1435.2 850.551 3246
1442.96 850.551 3246
1450.73 850.551 3246
1458.49 850.551 3246
1463.09 848.717 3239
1470.83 848.717 3239
1475.84 847.145 3233
1483.57 847.145 3233
1488.53 845.572 3227
1496.25 845.572 3227
1501.17 844 3221
1508.87 844 3221
1516.58 844 3221
1524.28 844 3221
1531.98 844 3221
1539.68 844 3221
1544.02 842.166 3214
1545.91 839.022 3202
1553.57 839.022 3202
1558.3 837.449 3196
1563.01 835.877 3190
1564.73 832.733 3178
1572.33 832.733 3178
1573.96 829.589 3166
1569.54 823.3 3142
1568.02 818.583 3124
1560.87 810.984 3095
1568.27 810.984 3095
1567.01 806.53 3078
1551.36 794.738 3033
1525.21 777.706 2968
1532.3 777.706 2968
1523.32 769.584 2937
1508.98 758.84 2896
1502.82 752.29 2871
1497.07 746.001 2847
1503.87 746.001 2847
1505.38 743.38 2837
1507.36 741.022 2828
1511.45 739.712 2823
1518.2 739.712 2823
1517.39 736.044 2809
1518.68 733.423 2799
1525.37 733.423 2799
1532.07 733.423 2799
1536.01 732.113 2794
1542.69 732.113 2794
1547.15 731.065 2790
1556.05 732.113 2794
1565.53 733.423 2799
1572.23 733.423 2799
1581.74 734.734 2804
1591.28 736.044 2809
1597.99 736.044 2809
1604.71 736.044 2809
1616.59 738.402 2818
1642.92 747.311 2852
1696.01 768.273 2932
1703.02 768.273 2932
1710.03 768.273 2932
2030.94 908.722 3468
2039.23 908.722 3468
2056.38 912.652 3483
2077.75 918.417 3505
2086.13 918.417 3505
2094.51 918.417 3505
2098.1 916.321 3497
2106.46 916.321 3497
2114.82 916.321 3497
2123.18 916.321 3497
2131.55 916.321 3497
2139.91 916.321 3497
2148.27 916.321 3497
2156.63 916.321 3497
2174.28 920.251 3512
2182.68 920.251 3512
2191.08 920.251 3512
2195.09 918.417 3505
2189.64 912.652 3483
2170.84 901.385 3440
2143.59 886.711 3384
2151.68 886.711 3384
2142.54 879.636 3357
2107.65 862.08 3290
2107.8 858.936 3278
2115.64 858.936 3278
2123.48 858.936 3278
2131.32 858.936 3278
2146.99 862.08 3290
2163.37 865.487 3303
2171.27 865.487 3303
2179.16 865.487 3303
2187.06 865.487 3303
2204.26 869.155 3317
2220.87 872.562 3330
2228.83 872.562 3330
2250.23 877.802 3350
2267 881.209 3363
2279.78 883.043 3370
2287.84 883.043 3370
2295.9 883.043 3370
2303.95 883.043 3370
2312.01 883.043 3370
2311.12 879.636 3357
2309.48 875.968 3343
2313.31 874.396 3337
2321.29 874.396 3337
2315.31 869.155 3317
2318.34 867.321 3310
2317.12 863.915 3297
2311.61 858.936 3278
2319.44 858.936 3278
2318.05 855.53 3265
2316.6 852.123 3252
2320.09 850.551 3246
2327.85 850.551 3246
2330.58 848.717 3239
2320.27 842.166 3214
2310.57 835.877 3190
2309.48 832.733 3178
2317.08 832.733 3178
2311.51 828.016 3160
2319.07 828.016 3160
2326.63 828.016 3160
2334.18 828.016 3160
2341.74 828.016 3160
2349.3 828.016 3160
2352.38 826.444 3154
2359.92 826.444 3154
2367.46 826.444 3154
2375.01 826.444 3154
2387.08 828.016 3160
2399.18 829.589 3166
2415.88 832.733 3178
2423.48 832.733 3178
2431.08 832.733 3178
-2431.55 861.5 3258
-2423.76 861.5 3258
-2415.97 861.5 3258
-2408.18 861.5 3258
-2400.39 861.5 3258
-2332.48 930.78 3520
-2324.07 930.78 3520
-2345.25 942.679 3565
-2336.73 942.679 3565
-2328.2 942.679 3565
-2319.68 942.679 3565
-2305.97 940.563 3557
-2292.29 938.448 3549
-2283.81 938.448 3549
-2265.7 934.482 3534
-2257.25 934.482 3534
-2258.35 938.448 3549
-2249.86 938.448 3549
-2241.37 938.448 3549
-2232.89 938.448 3549
-2220.01 936.597 3542
-2211.54 936.597 3542
-2207.43 938.448 3549
-2198.94 938.448 3549
-2190.45 938.448 3549
-2177.66 936.597 3542
-2169.19 936.597 3542
-2138.15 926.813 3505
-2120.66 922.847 3490
-2112.31 922.847 3490
-2103.96 922.847 3490
-2095.62 922.847 3490
-2083.09 920.996 3483
-2070.59 919.145 3476
-2070.58 922.847 3490
-2062.24 922.847 3490
-2053.89 922.847 3490
-2045.54 922.847 3490
-2037.2 922.847 3490
-2024.78 920.996 3483
-2024.56 924.698 3497
-2016.2 924.698 3497
-2007.84 924.698 3497
-1999.47 924.698 3497
-1958.66 909.625 3440
-1942.49 905.923 3426
-1934.3 905.923 3426
-1914.3 900.371 3405
-1906.16 900.371 3405
-1901.92 902.221 3412
-1893.76 902.221 3412
-1885.6 902.221 3412
-1873.59 900.371 3405
-1861.61 898.52 3398
-1861.12 902.221 3412
-1852.96 902.221 3412
