177.079 -674.123 2122
181.724 -672.534 2117
186.786 -672.534 2117
192.302 -674.123 2122
198.678 -678.57 2136
203.786 -678.57 2136
209.187 -679.523 2139
214.302 -679.523 2139
219.417 -679.523 2139
224.217 -678.57 2136
452.952 -1283.12 4039
462.61 -1283.12 4039
472.269 -1283.12 4039
481.927 -1283.12 4039
491.586 -1283.12 4039
497.645 -1273.91 4010
503.693 -1265.01 3982
509.477 -1255.8 3953
518.93 -1255.8 3953
525.977 -1250.08 3935
530.353 -1238.33 3898
537.182 -1232.61 3880
542.657 -1224.03 3853
551.871 -1224.03 3853
547.105 -1193.53 3757
553.573 -1188.13 3740
560.11 -1183.05 3724
569.015 -1183.05 3724
701.36 -1244.05 3916
710.724 -1244.05 3916
720.089 -1244.05 3916
726.1 -1238.33 3898
735.421 -1238.33 3898
744.742 -1238.33 3898
747.1 -1226.89 3862
752.81 -1221.17 3844
760.218 -1218.31 3835
769.388 -1218.31 3835
778.559 -1218.31 3835
858.608 -1283.12 4039
868.266 -1283.12 4039
877.925 -1283.12 4039
887.583 -1283.12 4039
897.242 -1283.12 4039
904.879 -1280.26 4030
921.097 -1289.47 4059
935.39 -1295.83 4079
945.144 -1295.83 4079
954.898 -1295.83 4079
1403.08 -1180.51 3716
1411.97 -1180.51 3716
1420.86 -1180.51 3716
1426.28 -1177.65 3707
1435.14 -1177.65 3707
1444.01 -1177.65 3707
1452.87 -1177.65 3707
1461.74 -1177.65 3707
1470.6 -1177.65 3707
1483.06 -1180.51 3716
1495.16 -1183.05 3724
1510.52 -1188.13 3740
1519.47 -1188.13 3740
1532.09 -1190.99 3749
1541.05 -1190.99 3749
1564.08 -1201.79 3783
1573.12 -1201.79 3783
1582.17 -1201.79 3783
1591.22 -1201.79 3783
1600.26 -1201.79 3783
1609.31 -1201.79 3783
1618.35 -1201.79 3783
-2740.06 -1168.77 3707
-2731.2 -1168.77 3707
-2728.94 -1171.61 3716
-2794.72 -1203.77 3818
-2791.43 -1206.29 3826
-2782.28 -1206.29 3826
-2773.13 -1206.29 3826
-2763.98 -1206.29 3826
-2754.83 -1206.29 3826
-2727.02 -1198.09 3800
-2705.78 -1192.73 3783
-2696.73 -1192.73 3783
-2687.68 -1192.73 3783
-2678.64 -1192.73 3783
-2669.59 -1192.73 3783
-2660.55 -1192.73 3783
-2651.5 -1192.73 3783
-2642.45 -1192.73 3783
-2639.67 -1195.57 3792
-2654.19 -1206.29 3826
-2663.71 -1214.8 3853
-2654.49 -1214.8 3853
-2663.82 -1223.31 3880
-2666.85 -1228.99 3898
-2657.53 -1228.99 3898
-2648.21 -1228.99 3898
-2638.89 -1228.99 3898
-2617.43 -1223.31 3880
-2608.15 -1223.31 3880
-2557.34 -1203.77 3818
-2548.21 -1203.77 3818
-2568.34 -1217.64 3862
-2559.11 -1217.64 3862
-2549.87 -1217.64 3862
-2540.64 -1217.64 3862
-1342.44 -1179.17 3740
-1333.5 -1179.17 3740
-1342.97 -1195.57 3792
-1333.91 -1195.57 3792
-1324.84 -1195.57 3792
-1300.85 -1182.01 3749
-1291.88 -1182.01 3749
-1279.84 -1179.17 3740
-1276.67 -1184.53 3757
-1267.69 -1184.53 3757
-1279.14 -1203.77 3818
-1270.01 -1203.77 3818
-1260.88 -1203.77 3818
-1251.75 -1203.77 3818
-1239.69 -1200.93 3809
-1230.58 -1200.93 3809
-1221.47 -1200.93 3809
-1212.37 -1200.93 3809
-1203.26 -1200.93 3809
-1183.18 -1189.89 3774
-1174.15 -1189.89 3774
-1152.16 -1176.65 3732
-1138.34 -1171.61 3716
-85.9284 -662.418 2101
-80.9043 -662.418 2101
-75.8801 -662.418 2101
-70.7549 -661.472 2098
-65.7379 -661.472 2098
-60.5183 -659.265 2091
-55.5181 -659.265 2091
-50.5179 -659.265 2091
-45.4524 -658.32 2088
-40.4012 -657.374 2085
-35.3814 -656.743 2083
-30.4003 -656.743 2083
-25.285 -653.275 2072
-20.2811 -651.698 2067
-15.3383 -651.698 2067
-10.3955 -651.698 2067
-5.43421 -649.492 2060
-0.506889 -647.915 2055
4.39008 -645.393 2047
9.28508 -645.393 2047
14.1801 -645.393 2047
19.0285 -643.816 2042
23.9115 -643.816 2042
28.7946 -643.816 2042
33.6776 -643.816 2042
38.4662 -642.24 2037
43.2735 -641.294 2034
48.1374 -641.294 2034
53.0013 -641.294 2034
57.8652 -641.294 2034
62.9758 -643.816 2042
68.025 -645.393 2047
72.92 -645.393 2047
77.815 -645.393 2047
82.9121 -646.969 2052
87.9474 -647.915 2055
93.4038 -651.698 2067
98.3466 -651.698 2067
103.539 -653.275 2072
109.07 -656.743 2083
114.325 -658.32 2088
119.318 -658.32 2088
124.49 -659.265 2091
129.614 -659.896 2093
134.812 -660.842 2096
139.824 -660.842 2096
145.389 -663.364 2104
150.778 -664.941 2109
156.042 -665.886 2112
161.093 -665.886 2112
166.301 -666.517 2114
171.356 -666.517 2114
176.411 -666.517 2114
181.466 -666.517 2114
186.08 -664.941 2109
191.849 -667.463 2117
197.655 -669.985 2125
202.737 -669.985 2125
207.818 -669.985 2125
212.9 -669.985 2125
217.981 -669.985 2125
221.698 -665.886 2112
452.952 -1273.44 4039
462.61 -1273.44 4039
472.269 -1273.44 4039
481.927 -1273.44 4039
491.586 -1273.44 4039
492.93 -1252.32 3972
498.886 -1243.49 3944
505.869 -1237.5 3925
515.254 -1237.5 3925
521.031 -1228.99 3898
527.904 -1223.31 3880
529.706 -1206.29 3826
536.46 -1200.93 3809
545.569 -1200.93 3809
547.105 -1184.53 3757
553.573 -1179.17 3740
560.11 -1174.13 3724
569.015 -1174.13 3724
671.45 -1182.01 3749
707.457 -1228.99 3898
716.779 -1228.99 3898
726.1 -1228.99 3898
733.723 -1226.15 3889
743.023 -1226.15 3889
743.618 -1211.96 3844
751.047 -1209.13 3835
760.218 -1209.13 3835
767.583 -1206.29 3826
776.732 -1206.29 3826
785.881 -1206.29 3826
858.608 -1273.44 4039
868.266 -1273.44 4039
882.272 -1279.75 4059
891.978 -1279.75 4059
901.685 -1279.75 4059
904.879 -1270.61 4030
921.097 -1279.75 4059
935.39 -1286.06 4079
945.144 -1286.06 4079
954.898 -1286.06 4079
1388.29 -1174.13 3724
1397.2 -1174.13 3724
1406.11 -1174.13 3724
1415.01 -1174.13 3724
1423.92 -1174.13 3724
1429.74 -1171.61 3716
1435.14 -1168.77 3707
1444.01 -1168.77 3707
1452.87 -1168.77 3707
1461.74 -1168.77 3707
1470.6 -1168.77 3707
1483.06 -1171.61 3716
1495.16 -1174.13 3724
1507.29 -1176.65 3732
1516.22 -1176.65 3732
1528.41 -1179.17 3740
1541.05 -1182.01 3749
1553.33 -1184.53 3757
1562.31 -1184.53 3757
1578.41 -1189.89 3774
1591.22 -1192.73 3783
1600.26 -1192.73 3783
1609.31 -1192.73 3783
1618.35 -1192.73 3783
-2740.06 -1159.89 3707
-2731.2 -1159.89 3707
-2722.33 -1159.89 3707
-2794.72 -1194.62 3818
-2791.43 -1197.12 3826
-2782.28 -1197.12 3826
-2773.13 -1197.12 3826
-2763.98 -1197.12 3826
-2754.83 -1197.12 3826
-2727.02 -1188.99 3800
-2705.78 -1183.67 3783
-2696.73 -1183.67 3783
-2687.68 -1183.67 3783
-2678.64 -1183.67 3783
-2669.59 -1183.67 3783
-2660.55 -1183.67 3783
-2651.5 -1183.67 3783
-2642.45 -1183.67 3783
-2639.67 -1186.49 3792
-2654.19 -1197.12 3826
-2663.71 -1205.57 3853
-2654.49 -1205.57 3853
-2663.82 -1214.02 3880
-2666.85 -1219.65 3898
-2657.53 -1219.65 3898
-2648.21 -1219.65 3898
-2638.89 -1219.65 3898
-2617.43 -1214.02 3880
-2608.15 -1214.02 3880
-2557.34 -1194.62 3818
-2548.21 -1194.62 3818
-2568.34 -1208.39 3862
-2559.11 -1208.39 3862
-2549.87 -1208.39 3862
-2540.64 -1208.39 3862
-1342.44 -1170.21 3740
-1333.5 -1170.21 3740
-1327.74 -1173.03 3749
-1318.78 -1173.03 3749
-1309.81 -1173.03 3749
-1300.85 -1173.03 3749
-1291.88 -1173.03 3749
-1282.92 -1173.03 3749
-1273.95 -1173.03 3749
-1264.99 -1173.03 3749
-1258.7 -1175.53 3757
-1258.37 -1183.67 3783
-1249.32 -1183.67 3783
-1240.28 -1183.67 3783
-1231.23 -1183.67 3783
-1225.09 -1186.49 3792
-1216.02 -1186.49 3792
-1206.96 -1186.49 3792
-1197.89 -1186.49 3792
-1177.85 -1175.53 3757
-1168.86 -1175.53 3757
-1149.69 -1165.21 3724
-1138.34 -1162.71 3716
-85.5194 -654.256 2091
-80.5192 -654.256 2091
-75.519 -654.256 2091
-70.5188 -654.256 2091
-65.5186 -654.256 2091
-60.5183 -654.256 2091
-55.3588 -652.379 2085
-50.373 -652.379 2085
-45.2347 -650.189 2078
-40.2656 -650.189 2078
-35.2965 -650.189 2078
-30.3273 -650.189 2078
-25.224 -646.747 2067
-20.2321 -645.183 2062
-15.227 -642.054 2052
-10.3201 -642.054 2052
-5.39991 -640.489 2047
-0.504176 -639.55 2044
4.37292 -637.986 2039
9.24879 -637.986 2039
14.1108 -637.36 2037
18.9539 -636.422 2034
23.8178 -636.422 2034
28.6818 -636.422 2034
33.5127 -635.796 2032
38.3718 -635.796 2032
43.1246 -634.231 2027
47.9717 -634.231 2027
52.8189 -634.231 2027
57.6661 -634.231 2027
62.6674 -635.796 2032
67.6927 -637.36 2037
72.8132 -639.55 2044
77.701 -639.55 2044
82.71 -640.489 2047
87.605 -640.489 2047
92.8615 -642.992 2055
97.7757 -642.992 2055
102.94 -644.557 2060
108.494 -648.311 2072
113.777 -650.189 2078
118.747 -650.189 2078
124.013 -651.753 2083
129.118 -652.379 2085
134.297 -653.318 2088
139.29 -653.318 2088
144.629 -654.882 2093
150.42 -658.324 2104
155.821 -659.888 2109
160.864 -659.888 2109
166.143 -660.827 2112
171.194 -660.827 2112
176.244 -660.827 2112
180.78 -658.95 2106
185.374 -657.385 2101
190.67 -658.324 2104
196.632 -661.453 2114
201.687 -661.453 2114
206.742 -661.453 2114
211.798 -661.453 2114
216.853 -661.453 2114
221.698 -660.827 2112
449.7 -1254.7 4010
459.289 -1254.7 4010
468.878 -1254.7 4010
477.393 -1251.88 4001
486.961 -1251.88 4001
489.455 -1234.04 3944
496.483 -1228.1 3925
497.749 -1208.39 3862
506.984 -1208.39 3862
512.61 -1199.94 3835
520.556 -1197.12 3826
529.706 -1197.12 3826
532.799 -1183.67 3783
541.845 -1183.67 3783
547.105 -1175.53 3757
553.573 -1170.21 3740
560.11 -1165.21 3724
569.015 -1165.21 3724
660.895 -1170.21 3740
671.45 -1173.03 3749
680.415 -1173.03 3749
693.977 -1180.85 3774
703.002 -1180.85 3774
715.423 -1186.49 3792
730.986 -1197.12 3826
740.135 -1197.12 3826
749.285 -1197.12 3826
758.434 -1197.12 3826
767.583 -1197.12 3826
776.732 -1197.12 3826
785.881 -1197.12 3826
787.965 -1186.49 3792
848.404 -1248.75 3991
857.948 -1248.75 3991
882.272 -1270.03 4059
891.978 -1270.03 4059
901.685 -1270.03 4059
904.879 -1260.95 4030
921.097 -1270.03 4059
935.39 -1276.28 4079
945.144 -1276.28 4079
954.898 -1276.28 4079
964.652 -1276.28 4079
1394.26 -1170.21 3740
1403.2 -1170.21 3740
1412.15 -1170.21 3740
1418.05 -1167.71 3732
1426.97 -1167.71 3732
1432.82 -1165.21 3724
1438.63 -1162.71 3716
1447.51 -1162.71 3716
1456.4 -1162.71 3716
1465.29 -1162.71 3716
1470.6 -1159.89 3707
1483.06 -1162.71 3716
1495.16 -1165.21 3724
1507.29 -1167.71 3732
1516.22 -1167.71 3732
1525.14 -1167.71 3732
1537.35 -1170.21 3740
1550.02 -1173.03 3749
1558.98 -1173.03 3749
1571.3 -1175.53 3757
1580.28 -1175.53 3757
1589.26 -1175.53 3757
1598.25 -1175.53 3757
1599.96 -1170.21 3740
-2703.84 -1135.79 3658
-2695.1 -1135.79 3658
-2722.33 -1151.01 3707
-2794.72 -1185.47 3818
-2791.43 -1187.96 3826
-2782.28 -1187.96 3826
-2773.13 -1187.96 3826
-2763.98 -1187.96 3826
-2754.83 -1187.96 3826
-2714.82 -1174.61 3783
-2705.78 -1174.61 3783
-2696.73 -1174.61 3783
-2687.68 -1174.61 3783
-2678.64 -1174.61 3783
-2669.59 -1174.61 3783
-2660.55 -1174.61 3783
-2651.5 -1174.61 3783
-2636.17 -1171.81 3774
-2639.67 -1177.4 3792
-2636.15 -1179.89 3800
-2651.26 -1190.75 3835
-2642.09 -1190.75 3835
-2663.82 -1204.72 3880
-2654.54 -1204.72 3880
-2651.4 -1207.52 3889
-2642.1 -1207.52 3889
-2632.8 -1207.52 3889
-2581 -1187.96 3826
-2571.85 -1187.96 3826
-2557.34 -1185.47 3818
-2542.2 -1182.68 3809
-2568.34 -1199.14 3862
-2559.11 -1199.14 3862
-2549.87 -1199.14 3862
-2540.64 -1199.14 3862
-1342.44 -1161.26 3740
-1333.5 -1161.26 3740
-1324.56 -1161.26 3740
-1321.59 -1166.53 3757
-1321.69 -1174.61 3783
-1312.65 -1174.61 3783
-1303.6 -1174.61 3783
-1285.66 -1166.53 3757
-1276.67 -1166.53 3757
-1267.69 -1166.53 3757
-1270.43 -1177.4 3792
-1261.36 -1177.4 3792
-1252.29 -1177.4 3792
-1237.33 -1171.81 3774
-1228.3 -1171.81 3774
-1219.28 -1171.81 3774
-1210.25 -1171.81 3774
-1201.23 -1171.81 3774
-1192.2 -1171.81 3774
-1175.34 -1164.05 3749
-1166.37 -1164.05 3749
-1147.22 -1153.8 3716
-1138.34 -1153.8 3716
-85.3967 -648.316 2088
-80.4037 -648.316 2088
-75.4106 -648.316 2088
-70.4176 -648.316 2088
-65.4246 -648.316 2088
-60.2868 -646.763 2083
-55.173 -645.211 2078
-50.2038 -645.211 2078
-45.2347 -645.211 2078
-40.2656 -645.211 2078
-35.1945 -643.348 2072
-30.2398 -643.348 2072
-25.163 -640.243 2062
-20.134 -637.138 2052
-15.1899 -635.586 2047
-10.2949 -635.586 2047
-5.38672 -634.033 2042
-0.502943 -633.102 2039
4.35791 -630.928 2032
9.21704 -630.928 2032
14.0762 -630.928 2032
18.8887 -629.376 2027
23.7359 -629.376 2027
28.583 -629.376 2027
33.3972 -628.755 2025
38.183 -627.823 2022
42.9756 -627.202 2020
47.8061 -627.202 2020
52.6886 -627.823 2022
57.5238 -627.823 2022
62.359 -627.823 2022
67.4601 -630.307 2030
72.4569 -631.549 2034
77.3209 -631.549 2034
82.306 -632.481 2037
87.1771 -632.481 2037
92.5904 -636.207 2049
97.4902 -636.207 2049
102.79 -638.69 2057
108.389 -642.727 2070
113.449 -643.348 2072
118.404 -643.348 2072
123.537 -644.279 2075
128.994 -646.763 2083
133.975 -646.763 2083
138.957 -646.763 2083
144.49 -649.247 2091
149.634 -649.868 2093
155.451 -653.284 2104
160.483 -653.284 2104
165.671 -653.905 2106
170.707 -653.905 2106
175.743 -653.905 2106
180.608 -653.284 2104
185.11 -651.421 2098
189.946 -650.8 2096
196.167 -654.836 2109
201.21 -654.836 2109
206.547 -655.768 2112
211.597 -655.768 2112
216.648 -655.768 2112
221.068 -653.905 2106
444.429 -1230.5 3963
453.906 -1230.5 3963
463.382 -1230.5 3963
470.592 -1224.6 3944
480.023 -1224.6 3944
487.097 -1218.7 3925
488.514 -1199.14 3862
494.269 -1190.75 3835
503.44 -1190.75 3835
511.407 -1187.96 3826
518.243 -1182.68 3809
523.752 -1174.61 3783
529.137 -1166.53 3757
538.121 -1166.53 3757
544.629 -1161.26 3740
552.389 -1158.77 3732
561.313 -1158.77 3732
570.237 -1158.77 3732
579.162 -1158.77 3732
614.256 -1141.07 3675
636.946 -1166.53 3757
645.93 -1166.53 3757
654.914 -1166.53 3757
663.899 -1166.53 3757
671.45 -1164.05 3749
680.415 -1164.05 3749
693.977 -1171.81 3774
703.002 -1171.81 3774
715.423 -1177.4 3792
730.986 -1187.96 3826
740.135 -1187.96 3826
749.285 -1187.96 3826
758.434 -1187.96 3826
767.583 -1187.96 3826
776.732 -1187.96 3826
785.881 -1187.96 3826
804.381 -1201.93 3871
823.096 -1215.9 3916
848.404 -1239.19 3991
857.948 -1239.19 3991
882.272 -1260.3 4059
891.978 -1260.3 4059
901.685 -1260.3 4059
904.879 -1251.3 4030
921.097 -1260.3 4059
935.39 -1266.51 4079
945.144 -1266.51 4079
954.898 -1266.51 4079
964.652 -1266.51 4079
1068.9 -1138.59 3667
1077.67 -1138.59 3667
1086.44 -1138.59 3667
1099.99 -1143.56 3683
1108.79 -1143.56 3683
1117.6 -1143.56 3683
1126.41 -1143.56 3683
1132.75 -1141.07 3675
1397.91 -1171.81 3774
1406.93 -1171.81 3774
1415.96 -1171.81 3774
1415.54 -1164.05 3749
1424.51 -1164.05 3749
1433.47 -1164.05 3749
1435.9 -1158.77 3732
1441.73 -1156.29 3724
1447.51 -1153.8 3716
1456.4 -1153.8 3716
1465.29 -1153.8 3716
1474.17 -1153.8 3716
1486.25 -1156.29 3724
1495.16 -1156.29 3724
1507.29 -1158.77 3732
1516.22 -1158.77 3732
1525.14 -1158.77 3732
1537.35 -1161.26 3740
1550.02 -1164.05 3749
1558.98 -1164.05 3749
1571.3 -1166.53 3757
1580.28 -1166.53 3757
1589.26 -1166.53 3757
1598.25 -1166.53 3757
1599.96 -1161.26 3740
-2680.93 -1117.48 3627
-2672.26 -1117.48 3627
-2686.35 -1127.03 3658
-2756.66 -1160.31 3766
-2760.05 -1165.54 3783
-2751.01 -1165.54 3783
-2741.96 -1165.54 3783
-2732.92 -1165.54 3783
-2723.87 -1165.54 3783
-2702.62 -1160.31 3766
-2693.62 -1160.31 3766
-2684.61 -1160.31 3766
-2681.29 -1162.77 3774
-2672.27 -1162.77 3774
-2663.24 -1162.77 3774
-2654.22 -1162.77 3774
-2645.19 -1162.77 3774
-2636.17 -1162.77 3774
-2633.41 -1165.54 3783
-2630.6 -1168.32 3792
-2651.26 -1181.57 3835
-2642.09 -1181.57 3835
-2645.28 -1187.11 3853
-2642.22 -1189.88 3862
-2632.99 -1189.88 3862
-2623.75 -1189.88 3862
-2614.52 -1189.88 3862
-2575.6 -1176.33 3818
-2566.47 -1176.33 3818
-2522.51 -1160.31 3766
-2518.84 -1162.77 3774
-2556.37 -1184.34 3844
-2547.18 -1184.34 3844
-2537.99 -1184.34 3844
-2482.74 -1162.77 3774
-2446.19 -1149.83 3732
-2437.27 -1149.83 3732
-1348.5 -1149.83 3732
-1348.55 -1157.53 3757
-1339.56 -1157.53 3757
-1342.97 -1168.32 3792
-1333.91 -1168.32 3792
-1324.84 -1168.32 3792
-1315.77 -1168.32 3792
-1306.7 -1168.32 3792
-1294.55 -1165.54 3783
-1288.57 -1168.32 3792
-1279.5 -1168.32 3792
-1270.43 -1168.32 3792
-1261.36 -1168.32 3792
-1252.29 -1168.32 3792
-1243.23 -1168.32 3792
-1228.3 -1162.77 3774
-1219.28 -1162.77 3774
-1210.25 -1162.77 3774
-1201.23 -1162.77 3774
-1192.2 -1162.77 3774
-1175.34 -1155.07 3749
-1166.37 -1155.07 3749
-1147.22 -1144.9 3716
-1138.34 -1144.9 3716
-85.3967 -643.314 2088
-80.4037 -643.314 2088
-75.4106 -643.314 2088
-70.4176 -643.314 2088
-65.4246 -643.314 2088
-60.2868 -641.774 2083
-55.173 -640.233 2078
-50.2038 -640.233 2078
-45.2347 -640.233 2078
-40.2656 -640.233 2078
-35.1945 -638.384 2072
-30.2398 -638.384 2072
-25.163 -635.303 2062
-20.134 -632.222 2052
-15.1899 -630.682 2047
-10.2949 -630.682 2047
-5.38672 -629.141 2042
-0.502943 -628.217 2039
4.35791 -626.06 2032
9.21704 -626.06 2032
14.0762 -626.06 2032
18.8887 -624.52 2027
23.7359 -624.52 2027
28.583 -624.52 2027
33.3972 -623.904 2025
38.183 -622.979 2022
42.9756 -622.363 2020
47.8061 -622.363 2020
52.6886 -622.979 2022
57.5238 -622.979 2022
62.359 -622.979 2022
67.4601 -625.444 2030
72.4569 -626.677 2034
77.3209 -626.677 2034
82.306 -627.601 2037
87.1771 -627.601 2037
92.5904 -631.298 2049
97.4902 -631.298 2049
102.79 -633.763 2057
108.389 -637.768 2070
113.449 -638.384 2072
118.404 -638.384 2072
123.537 -639.309 2075
128.994 -641.774 2083
133.975 -641.774 2083
138.957 -641.774 2083
144.49 -644.238 2091
149.634 -644.855 2093
155.451 -648.244 2104
160.483 -648.244 2104
165.671 -648.86 2106
170.707 -648.86 2106
175.743 -648.86 2106
180.608 -648.244 2104
185.11 -646.395 2098
189.946 -645.779 2096
196.167 -649.784 2109
201.21 -649.784 2109
206.547 -650.708 2112
211.597 -650.708 2112
216.648 -650.708 2112
221.068 -648.86 2106
444.429 -1221 3963
453.906 -1221 3963
463.382 -1221 3963
470.592 -1215.15 3944
480.023 -1215.15 3944
487.097 -1209.29 3925
488.514 -1189.88 3862
494.269 -1181.57 3835
503.44 -1181.57 3835
511.407 -1178.79 3826
518.243 -1173.56 3809
523.752 -1165.54 3783
529.137 -1157.53 3757
538.121 -1157.53 3757
544.629 -1152.3 3740
553.573 -1152.3 3740
562.516 -1152.3 3740
571.46 -1152.3 3740
580.403 -1152.3 3740
588.086 -1149.83 3732
589.172 -1134.73 3683
597.979 -1134.73 3683
602.667 -1127.03 3658
614.256 -1132.27 3675
636.946 -1157.53 3757
645.93 -1157.53 3757
654.914 -1157.53 3757
663.899 -1157.53 3757
669.838 -1152.3 3740
678.781 -1152.3 3740
689.38 -1155.07 3749
698.345 -1155.07 3749
708.819 -1157.53 3757
722.771 -1165.54 3783
735.106 -1170.78 3800
744.193 -1170.78 3800
756.848 -1176.33 3818
765.978 -1176.33 3818
775.108 -1176.33 3818
784.238 -1176.33 3818
811.862 -1203.75 3907
828.982 -1215.15 3944
848.404 -1229.63 3991
857.948 -1229.63 3991
869.665 -1232.71 4001
879.233 -1232.71 4001
888.8 -1232.71 4001
896.122 -1229.63 3991
912.247 -1238.56 4020
930.804 -1250.58 4059
945.144 -1256.74 4079
954.898 -1256.74 4079
964.652 -1256.74 4079
1068.9 -1129.8 3667
1077.67 -1129.8 3667
1086.44 -1129.8 3667
1099.99 -1134.73 3683
1108.79 -1134.73 3683
1117.6 -1134.73 3683
1126.41 -1134.73 3683
1132.75 -1132.27 3675
1397.91 -1162.77 3774
1406.93 -1162.77 3774
1415.96 -1162.77 3774
1415.54 -1155.07 3749
1424.51 -1155.07 3749
1433.47 -1155.07 3749
1435.9 -1149.83 3732
1441.73 -1147.37 3724
1447.51 -1144.9 3716
1456.4 -1144.9 3716
1465.29 -1144.9 3716
1474.17 -1144.9 3716
1486.25 -1147.37 3724
1495.16 -1147.37 3724
1507.29 -1149.83 3732
1516.22 -1149.83 3732
1525.14 -1149.83 3732
1534.07 -1149.83 3732
1550.02 -1155.07 3749
1558.98 -1155.07 3749
1567.95 -1155.07 3749
1576.91 -1155.07 3749
1585.88 -1155.07 3749
1591.02 -1152.3 3740
1593.11 -1147.37 3724
-2686.84 -1111.24 3635
-2678.15 -1111.24 3635
-2686.35 -1118.27 3658
-2756.66 -1151.29 3766
-2760.05 -1156.48 3783
-2751.01 -1156.48 3783
-2741.96 -1156.48 3783
-2732.92 -1156.48 3783
-2723.87 -1156.48 3783
-2702.62 -1151.29 3766
-2693.62 -1151.29 3766
-2684.61 -1151.29 3766
-2681.29 -1153.73 3774
-2672.27 -1153.73 3774
-2663.24 -1153.73 3774
-2654.22 -1153.73 3774
-2645.19 -1153.73 3774
-2636.17 -1153.73 3774
-2633.41 -1156.48 3783
-2642.4 -1164.43 3809
-2651.26 -1172.38 3835
-2642.09 -1172.38 3835
-2645.28 -1177.88 3853
-2642.22 -1180.63 3862
-2632.99 -1180.63 3862
-2623.75 -1180.63 3862
-2614.52 -1180.63 3862
-2575.6 -1167.18 3818
-2566.47 -1167.18 3818
-2522.51 -1151.29 3766
-2518.84 -1153.73 3774
-2556.37 -1175.13 3844
-2547.18 -1175.13 3844
-2537.99 -1175.13 3844
-2482.74 -1153.73 3774
-2468.48 -1151.29 3766
-2459.47 -1151.29 3766
-1363.67 -1153.73 3774
-1354.65 -1153.73 3774
-1352.04 -1159.23 3792
-1345.81 -1161.68 3800
-1336.72 -1161.68 3800
-1327.63 -1161.68 3800
-1315.77 -1159.23 3792
-1306.7 -1159.23 3792
-1294.55 -1156.48 3783
-1288.57 -1159.23 3792
-1279.5 -1159.23 3792
-1270.43 -1159.23 3792
-1261.36 -1159.23 3792
-1252.29 -1159.23 3792
-1243.23 -1159.23 3792
-1228.3 -1153.73 3774
-1219.28 -1153.73 3774
-1210.25 -1153.73 3774
-1201.23 -1153.73 3774
-1192.2 -1153.73 3774
-1175.34 -1146.09 3749
-1166.37 -1146.09 3749
-1147.22 -1136 3716
-1138.34 -1136 3716
-85.3967 -638.312 2088
-80.4037 -638.312 2088
-75.4106 -638.312 2088
-70.4176 -638.312 2088
-65.4246 -638.312 2088
-60.2868 -636.784 2083
-55.173 -635.255 2078
-50.2038 -635.255 2078
-45.2347 -635.255 2078
-40.2075 -634.338 2075
-35.1606 -632.81 2070
-30.2106 -632.81 2070
-25.1019 -628.835 2057
-20.0849 -625.778 2047
-15.1676 -624.861 2044
-10.2798 -624.861 2044
-5.37881 -623.333 2039
-0.501216 -621.193 2032
4.35791 -621.193 2032
9.21704 -621.193 2032
14.0415 -619.664 2027
18.8701 -619.053 2025
23.6773 -618.136 2022
28.5125 -618.136 2022
33.3478 -618.136 2022
38.0886 -616.607 2017
42.8693 -615.996 2015
47.6877 -615.996 2015
52.5583 -616.607 2017
57.3816 -616.607 2017
62.2048 -616.607 2017
67.1943 -618.136 2022
72.2076 -619.664 2027
77.0548 -619.664 2027
82.1848 -621.804 2034
87.0487 -621.804 2034
92.0482 -622.721 2037
96.9192 -622.721 2037
102.79 -628.835 2057
107.866 -629.753 2060
113.449 -633.421 2072
118.404 -633.421 2072
123.537 -634.338 2075
128.499 -634.338 2075
133.975 -636.784 2083
138.957 -636.784 2083
144.283 -638.312 2088
149.634 -639.841 2093
155.451 -643.204 2104
160.483 -643.204 2104
165.514 -643.204 2104
170.545 -643.204 2104
175.577 -643.204 2104
180.608 -643.204 2104
185.11 -641.369 2098
189.946 -640.758 2096
196.167 -644.732 2109
201.21 -644.732 2109
206.253 -644.732 2109
211.297 -644.732 2109
216.34 -644.732 2109
221.068 -643.815 2106
442.298 -1205.7 3944
451.73 -1205.7 3944
461.161 -1205.7 3944
470.592 -1205.7 3944
480.023 -1205.7 3944
484.863 -1194.39 3907
488.514 -1180.63 3862
490.918 -1164.43 3809
500.027 -1164.43 3809
509.135 -1164.43 3809
517.019 -1161.68 3800
522.506 -1153.73 3774
528.01 -1146.09 3749
536.975 -1146.09 3749
544.629 -1143.34 3740
553.573 -1143.34 3740
562.516 -1143.34 3740
571.46 -1143.34 3740
580.403 -1143.34 3740
588.086 -1140.89 3732
589.172 -1125.91 3683
597.979 -1125.91 3683
602.667 -1118.27 3658
614.256 -1123.47 3675
636.946 -1148.53 3757
645.93 -1148.53 3757
654.914 -1148.53 3757
663.899 -1148.53 3757
668.405 -1140.89 3732
677.33 -1140.89 3732
686.254 -1140.89 3732
695.178 -1140.89 3732
707.31 -1146.09 3749
717.803 -1148.53 3757
733.558 -1159.23 3792
742.626 -1159.23 3792
751.694 -1159.23 3792
760.762 -1159.23 3792
775.108 -1167.18 3818
784.238 -1167.18 3818
811.862 -1194.39 3907
828.982 -1205.7 3944
848.404 -1220.07 3991
857.948 -1220.07 3991
867.491 -1220.07 3991
877.035 -1220.07 3991
886.579 -1220.07 3991
896.122 -1220.07 3991
912.247 -1228.93 4020
926.217 -1234.74 4039
935.876 -1234.74 4039
945.534 -1234.74 4039
1057.53 -1118.27 3658
1068.9 -1121.02 3667
1082.37 -1125.91 3683
1091.18 -1125.91 3683
1102.38 -1128.36 3691
1111.2 -1128.36 3691
1120.03 -1128.36 3691
1128.86 -1128.36 3691
1137.68 -1128.36 3691
1146.51 -1128.36 3691
1155.33 -1128.36 3691
1370.48 -1138.45 3724
1397.91 -1153.73 3774
1406.93 -1153.73 3774
1415.96 -1153.73 3774
1415.54 -1146.09 3749
1424.51 -1146.09 3749
1433.47 -1146.09 3749
1438.98 -1143.34 3740
1444.82 -1140.89 3732
1450.63 -1138.45 3724
1459.54 -1138.45 3724
1468.44 -1138.45 3724
1480.52 -1140.89 3732
1489.44 -1140.89 3732
1501.58 -1143.34 3740
1510.52 -1143.34 3740
1519.47 -1143.34 3740
1528.41 -1143.34 3740
1537.35 -1143.34 3740
1546.3 -1143.34 3740
1555.24 -1143.34 3740
1564.19 -1143.34 3740
1573.13 -1143.34 3740
1582.07 -1143.34 3740
1591.02 -1143.34 3740
1596.54 -1140.89 3732
-2686.84 -1102.53 3635
-2678.15 -1102.53 3635
-2680.48 -1107.08 3650
-2720.06 -1127.1 3716
-2747.65 -1142.26 3766
-2738.65 -1142.26 3766
-2729.64 -1142.26 3766
-2714.13 -1139.53 3757
-2705.15 -1139.53 3757
-2690.42 -1137.11 3749
-2681.46 -1137.11 3749
-2678.2 -1139.53 3757
-2675.61 -1142.26 3766
-2666.6 -1142.26 3766
-2657.59 -1142.26 3766
-2648.59 -1142.26 3766
-2639.58 -1142.26 3766
-2630.58 -1142.26 3766
-2633.41 -1147.42 3783
-2642.4 -1155.31 3809
-2645.04 -1160.46 3826
-2635.89 -1160.46 3826
-2645.28 -1168.65 3853
-2636.07 -1168.65 3853
-2626.85 -1168.65 3853
-2617.64 -1168.65 3853
-2590.15 -1160.46 3826
-2569.53 -1155.31 3809
-2560.42 -1155.31 3809
-2505.1 -1134.38 3740
-2496.15 -1134.38 3740
-2521.79 -1150.15 3792
-2512.72 -1150.15 3792
-2503.65 -1150.15 3792
-2477.48 -1142.26 3766
-2468.48 -1142.26 3766
-2459.47 -1142.26 3766
-1363.67 -1144.69 3774
-1354.65 -1144.69 3774
-1352.04 -1150.15 3792
-1345.81 -1152.58 3800
-1336.72 -1152.58 3800
-1330.78 -1155.31 3809
-1321.67 -1155.31 3809
-1312.56 -1155.31 3809
-1300.37 -1152.58 3800
-1291.28 -1152.58 3800
-1282.2 -1152.58 3800
-1276.13 -1155.31 3809
-1267.02 -1155.31 3809
-1257.91 -1155.31 3809
-1245.85 -1152.58 3800
-1234.16 -1150.15 3792
-1225.09 -1150.15 3792
-1216.02 -1150.15 3792
-1204.09 -1147.42 3783
-1195.04 -1147.42 3783
-1180.67 -1142.26 3766
-1171.66 -1142.26 3766
-1157.41 -1137.11 3749
-1138.34 -1127.1 3716
-85.5194 -634.22 2091
-80.5192 -634.22 2091
-75.519 -634.22 2091
-70.4176 -633.31 2088
-65.4246 -633.31 2088
-60.2868 -631.794 2083
-55.173 -630.277 2078
-50.2038 -630.277 2078
-45.1041 -628.457 2072
-40.1493 -628.457 2072
-35.1606 -627.851 2070
-30.2106 -627.851 2070
-25.1019 -623.908 2057
-20.0849 -620.875 2047
-15.1528 -619.358 2042
-10.2698 -619.358 2042
-5.37881 -618.448 2039
-0.501216 -616.325 2032
4.35362 -615.718 2030
9.20797 -615.718 2030
14.0277 -614.202 2025
18.8421 -613.292 2022
23.6539 -612.685 2020
28.4843 -612.685 2020
33.2653 -611.775 2017
38.0508 -611.169 2015
42.8693 -611.169 2015
47.6877 -611.169 2015
52.5062 -611.169 2015
57.3247 -611.169 2015
62.1432 -611.169 2015
67.0281 -611.775 2017
72.1363 -614.202 2025
76.9787 -614.202 2025
82.0231 -615.718 2030
86.9631 -616.325 2032
91.9126 -616.932 2034
96.7765 -616.932 2034
102.39 -621.481 2049
107.709 -623.908 2057
113.066 -626.334 2065
118.004 -626.334 2065
123.358 -628.457 2072
128.499 -629.367 2075
133.654 -630.277 2078
138.623 -630.277 2078
144.076 -632.401 2085
149.491 -634.22 2091
155.23 -637.253 2101
160.254 -637.253 2101
165.514 -638.163 2104
170.545 -638.163 2104
175.577 -638.163 2104
180.093 -636.344 2098
184.933 -635.737 2096
189.946 -635.737 2096
194.958 -635.737 2096
199.97 -635.737 2096
205.96 -638.77 2106
210.996 -638.77 2106
216.032 -638.77 2106
419.916 -1160.46 3826
439.158 -1187.76 3916
448.523 -1187.76 3916
457.887 -1187.76 3916
467.251 -1187.76 3916
476.616 -1187.76 3916
481.512 -1176.84 3880
487.375 -1168.65 3853
490.918 -1155.31 3809
496.613 -1147.42 3783
505.66 -1147.42 3783
514.706 -1147.42 3783
522.506 -1144.69 3774
529.137 -1139.53 3757
538.121 -1139.53 3757
545.94 -1137.11 3749
554.905 -1137.11 3749
563.87 -1137.11 3749
572.835 -1137.11 3749
581.8 -1137.11 3749
589.347 -1134.38 3740
591.731 -1121.94 3699
600.577 -1121.94 3699
605.468 -1114.66 3675
614.256 -1114.66 3675
636.946 -1139.53 3757
645.93 -1139.53 3757
654.914 -1139.53 3757
663.899 -1139.53 3757
668.405 -1131.95 3732
677.33 -1131.95 3732
683.312 -1127.1 3716
692.198 -1127.1 3716
702.593 -1129.52 3724
714.555 -1134.38 3740
726.787 -1139.53 3757
735.772 -1139.53 3757
751.694 -1150.15 3792
760.762 -1150.15 3792
773.281 -1155.31 3809
782.389 -1155.31 3809
811.862 -1185.03 3907
828.982 -1196.25 3944
848.404 -1210.51 3991
857.948 -1210.51 3991
867.491 -1210.51 3991
877.035 -1210.51 3991
893.021 -1219.3 4020
902.634 -1219.3 4020
916.559 -1225.07 4039
926.217 -1225.07 4039
935.876 -1225.07 4039
945.534 -1225.07 4039
1057.53 -1109.51 3658
1066.28 -1109.51 3658
1082.37 -1117.09 3683
1091.18 -1117.09 3683
1102.38 -1119.52 3691
1111.2 -1119.52 3691
1120.03 -1119.52 3691
1128.86 -1119.52 3691
1137.68 -1119.52 3691
1146.51 -1119.52 3691
1155.33 -1119.52 3691
1358.49 -1134.38 3740
1367.43 -1134.38 3740
1376.37 -1134.38 3740
1385.32 -1134.38 3740
1397.61 -1137.11 3749
1406.58 -1137.11 3749
1415.54 -1137.11 3749
1424.51 -1137.11 3749
1433.47 -1137.11 3749
1438.98 -1134.38 3740
1444.82 -1131.95 3732
1453.75 -1131.95 3732
1462.67 -1131.95 3732
1471.6 -1131.95 3732
1480.52 -1131.95 3732
1496.23 -1137.11 3749
1505.19 -1137.11 3749
1514.16 -1137.11 3749
1523.12 -1137.11 3749
1528.41 -1134.38 3740
1537.35 -1134.38 3740
1546.3 -1134.38 3740
1555.24 -1134.38 3740
1564.19 -1134.38 3740
1573.13 -1134.38 3740
1582.07 -1134.38 3740
1591.02 -1134.38 3740
1607.23 -1139.53 3757
1616.22 -1139.53 3757
1625.2 -1139.53 3757
-2692.02 -1095.93 3642
-2683.31 -1095.93 3642
-2680.48 -1098.34 3650
-2720.06 -1118.2 3716
-2760.05 -1138.36 3783
-2751.01 -1138.36 3783
-2741.96 -1138.36 3783
-2732.92 -1138.36 3783
-2723.87 -1138.36 3783
-2696.16 -1130.53 3757
-2681.46 -1128.13 3749
-2684.61 -1133.24 3766
-2694.08 -1141.07 3792
-2685.01 -1141.07 3792
-2675.94 -1141.07 3792
-2660.55 -1138.36 3783
-2651.5 -1138.36 3783
-2642.45 -1138.36 3783
-2651.51 -1146.18 3809
-2648.64 -1148.89 3818
-2645.04 -1151.3 3826
-2635.89 -1151.3 3826
-2645.28 -1159.42 3853
-2636.07 -1159.42 3853
-2626.85 -1159.42 3853
-2617.64 -1159.42 3853
-2590.15 -1151.3 3826
-2569.53 -1146.18 3809
-2560.42 -1146.18 3809
-2505.1 -1125.42 3740
-2530.86 -1141.07 3792
-2521.79 -1141.07 3792
-2512.72 -1141.07 3792
-2503.65 -1141.07 3792
-2477.48 -1133.24 3766
-2468.48 -1133.24 3766
-2459.47 -1133.24 3766
-1370.18 -1141.07 3792
-1361.11 -1141.07 3792
-1354.89 -1143.47 3800
-1352.18 -1148.89 3818
-1345.87 -1151.3 3826
-1336.72 -1151.3 3826
-1327.57 -1151.3 3826
-1318.42 -1151.3 3826
-1306.53 -1148.89 3818
-1297.4 -1148.89 3818
-1288.27 -1148.89 3818
-1281.82 -1151.3 3826
-1272.67 -1151.3 3826
-1263.52 -1151.3 3826
-1254.37 -1151.3 3826
-1239.69 -1146.18 3809
-1225.09 -1141.07 3792
-1216.02 -1141.07 3792
-1206.96 -1141.07 3792
-1197.89 -1141.07 3792
-1188.82 -1141.07 3792
-1179.75 -1141.07 3792
-1162.66 -1133.24 3766
-1150.89 -1130.53 3757
-85.5194 -629.211 2091
-80.5192 -629.211 2091
-75.519 -629.211 2091
-70.4176 -628.309 2088
-65.3306 -627.406 2085
-60.1421 -625.299 2078
-55.0933 -624.397 2075
-50.1314 -624.397 2075
-45.0606 -622.892 2070
-40.1106 -622.892 2070
-35.0756 -621.388 2065
-30.1376 -621.388 2065
-25.1019 -618.98 2057
-20.0849 -615.971 2047
-15.1305 -613.564 2039
-10.2547 -613.564 2039
-5.36562 -612.059 2034
-0.501216 -611.457 2032
4.34719 -609.953 2027
9.19436 -609.953 2027
14.0069 -608.448 2022
18.8421 -608.448 2022
23.6188 -606.944 2017
28.442 -606.944 2017
33.2653 -606.944 2017
38.0508 -606.342 2015
42.8054 -605.439 2012
47.6167 -605.439 2012
52.5062 -606.342 2015
57.3247 -606.342 2015
62.1432 -606.342 2015
67.0281 -606.944 2017
72.1363 -609.351 2025
76.9787 -609.351 2025
81.9019 -609.953 2027
86.7491 -609.953 2027
91.9126 -612.059 2034
96.7765 -612.059 2034
102.04 -614.467 2042
107.447 -617.476 2052
112.901 -620.485 2062
117.832 -620.485 2062
122.942 -621.388 2065
128.189 -622.892 2070
133.461 -624.397 2075
138.423 -624.397 2075
143.592 -625.299 2078
149.062 -627.406 2085
154.639 -629.813 2093
159.644 -629.813 2093
165.042 -631.318 2098
170.059 -631.318 2098
175.076 -631.318 2098
180.093 -631.318 2098
184.933 -630.716 2096
188.767 -626.804 2083
194.958 -630.716 2096
199.97 -630.716 2096
204.982 -630.716 2096
419.916 -1151.3 3826
434.112 -1164.84 3871
443.368 -1164.84 3871
453.677 -1167.55 3880
462.956 -1167.55 3880
472.234 -1167.55 3880
479.278 -1162.13 3862
483.96 -1151.3 3826
487.567 -1138.36 3783
496.613 -1138.36 3783
505.66 -1138.36 3783
514.706 -1138.36 3783
522.506 -1135.65 3774
529.137 -1130.53 3757
538.121 -1130.53 3757
547.105 -1130.53 3757
556.089 -1130.53 3757
565.073 -1130.53 3757
574.057 -1130.53 3757
581.8 -1128.13 3749
589.347 -1125.42 3740
591.731 -1113.08 3699
600.577 -1113.08 3699
606.786 -1108.27 3683
615.593 -1108.27 3683
634.064 -1125.42 3740
643.008 -1125.42 3740
651.951 -1125.42 3740
660.895 -1125.42 3740
665.54 -1118.2 3716
674.426 -1118.2 3716
681.657 -1115.49 3707
687.541 -1110.67 3691
697.877 -1113.08 3699
711.498 -1120.6 3724
723.499 -1125.42 3740
732.442 -1125.42 3740
746.54 -1133.24 3766
760.762 -1141.07 3792
773.281 -1146.18 3809
782.389 -1146.18 3809
802.511 -1162.13 3862
823.096 -1178.38 3916
842.452 -1192.52 3963
851.929 -1192.52 3963
867.491 -1200.95 3991
879.233 -1203.96 4001
893.021 -1209.67 4020
902.634 -1209.67 4020
916.559 -1215.39 4039
926.217 -1215.39 4039
935.876 -1215.39 4039
945.534 -1215.39 4039
950.699 -1209.67 4020
1031.22 -1091.42 3627
1039.9 -1091.42 3627
1057.53 -1100.74 3658
1066.28 -1100.74 3658
1084.72 -1110.67 3691
1093.55 -1110.67 3691
1104.77 -1113.08 3699
1113.61 -1113.08 3699
1122.46 -1113.08 3699
1131.3 -1113.08 3699
1140.15 -1113.08 3699
1148.99 -1113.08 3699
1157.84 -1113.08 3699
1358.49 -1125.42 3740
1367.43 -1125.42 3740
1376.37 -1125.42 3740
1388.65 -1128.13 3749
1397.61 -1128.13 3749
1406.58 -1128.13 3749
1415.54 -1128.13 3749
1424.51 -1128.13 3749
1433.47 -1128.13 3749
1438.98 -1125.42 3740
1444.82 -1123.01 3732
1453.75 -1123.01 3732
1462.67 -1123.01 3732
1471.6 -1123.01 3732
1480.52 -1123.01 3732
1496.23 -1128.13 3749
1505.19 -1128.13 3749
1514.16 -1128.13 3749
1523.12 -1128.13 3749
1528.41 -1125.42 3740
1537.35 -1125.42 3740
1546.3 -1125.42 3740
1555.24 -1125.42 3740
1564.19 -1125.42 3740
1573.13 -1125.42 3740
1585.88 -1128.13 3749
1594.84 -1128.13 3749
1607.23 -1130.53 3757
1616.22 -1130.53 3757
1625.2 -1130.53 3757
1634.18 -1130.53 3757
-2692.02 -1087.2 3642
-2683.31 -1087.2 3642
-2680.48 -1089.59 3650
-2720.06 -1109.3 3716
-2760.05 -1129.3 3783
-2751.01 -1129.3 3783
-2773.13 -1142.13 3826
-2763.98 -1142.13 3826
-2754.83 -1142.13 3826
-2727.02 -1134.37 3800
-2705.78 -1129.3 3783
-2715.26 -1137.06 3809
-2706.16 -1137.06 3809
-2697.05 -1137.06 3809
-2687.94 -1137.06 3809
-2678.83 -1137.06 3809
-2669.72 -1137.06 3809
-2660.61 -1137.06 3809
-2657.77 -1139.74 3818
-2654.19 -1142.13 3826
-2645.04 -1142.13 3826
-2635.89 -1142.13 3826
-2632.92 -1144.82 3835
-2623.75 -1144.82 3835
-2614.58 -1144.82 3835
-2605.41 -1144.82 3835
-2590.15 -1142.13 3826
-2569.53 -1137.06 3809
-2560.42 -1137.06 3809
-2505.1 -1116.46 3740
-2530.86 -1131.98 3792
-2527.11 -1134.37 3800
-2518.02 -1134.37 3800
-2508.94 -1134.37 3800
-2488.67 -1129.3 3783
-2468.48 -1124.22 3766
-2459.47 -1124.22 3766
-1370.18 -1131.98 3792
-1361.11 -1131.98 3792
-1354.89 -1134.37 3800
-1361.39 -1147.51 3844
-1352.2 -1147.51 3844
-1343 -1147.51 3844
-1333.81 -1147.51 3844
-1324.62 -1147.51 3844
-1315.43 -1147.51 3844
-1306.24 -1147.51 3844
-1297.04 -1147.51 3844
-1287.85 -1147.51 3844
-1278.66 -1147.51 3844
-1269.47 -1147.51 3844
-1257.32 -1144.82 3835
-1245.22 -1142.13 3826
-1233.49 -1139.74 3818
-1224.36 -1139.74 3818
-1215.23 -1139.74 3818
-1206.1 -1139.74 3818
-1196.97 -1139.74 3818
-1187.84 -1139.74 3818
-1175.93 -1137.06 3809
-1164.07 -1134.37 3800
-85.5194 -624.202 2091
-80.5192 -624.202 2091
-75.519 -624.202 2091
-70.4176 -623.307 2088
-65.3306 -622.411 2085
-60.1421 -620.322 2078
-55.0933 -619.426 2075
-50.1314 -619.426 2075
-45.0606 -617.933 2070
-40.1106 -617.933 2070
-35.0756 -616.441 2065
-30.1376 -616.441 2065
-25.1019 -614.053 2057
-20.0849 -611.068 2047
-15.1305 -608.679 2039
-10.2547 -608.679 2039
-5.36562 -607.187 2034
-0.501216 -606.59 2032
4.34719 -605.097 2027
9.19436 -605.097 2027
14.0069 -603.605 2022
18.8421 -603.605 2022
23.6188 -602.112 2017
28.442 -602.112 2017
33.2653 -602.112 2017
38.0508 -601.515 2015
42.8054 -600.619 2012
47.6167 -600.619 2012
52.5062 -601.515 2015
57.3247 -601.515 2015
62.1432 -601.515 2015
67.0281 -602.112 2017
72.1363 -604.5 2025
76.9787 -604.5 2025
81.9019 -605.097 2027
86.7491 -605.097 2027
91.9126 -607.187 2034
96.7765 -607.187 2034
102.04 -609.575 2042
107.447 -612.56 2052
112.901 -615.545 2062
117.832 -615.545 2062
122.942 -616.441 2065
128.189 -617.933 2070
133.461 -619.426 2075
138.423 -619.426 2075
143.592 -620.322 2078
149.062 -622.411 2085
154.639 -624.799 2093
159.644 -624.799 2093
165.042 -626.292 2098
170.059 -626.292 2098
175.076 -626.292 2098
180.093 -626.292 2098
184.933 -625.695 2096
188.767 -621.814 2083
194.958 -625.695 2096
199.97 -625.695 2096
204.982 -625.695 2096
406.15 -1129.3 3783
419.916 -1142.13 3826
434.112 -1155.57 3871
443.368 -1155.57 3871
453.677 -1158.25 3880
462.956 -1158.25 3880
472.234 -1158.25 3880
479.278 -1152.88 3862
483.96 -1142.13 3826
487.567 -1129.3 3783
496.613 -1129.3 3783
505.66 -1129.3 3783
514.706 -1129.3 3783
522.506 -1126.61 3774
529.137 -1121.53 3757
539.41 -1124.22 3766
548.416 -1124.22 3766
557.421 -1124.22 3766
566.427 -1124.22 3766
575.432 -1124.22 3766
581.8 -1119.15 3749
589.347 -1116.46 3740
591.731 -1104.22 3699
600.577 -1104.22 3699
606.786 -1099.44 3683
615.593 -1099.44 3683
634.064 -1116.46 3740
643.008 -1116.46 3740
651.951 -1116.46 3740
660.895 -1116.46 3740
665.54 -1109.3 3716
674.426 -1109.3 3716
681.657 -1106.61 3707
687.541 -1101.83 3691
697.877 -1104.22 3699
711.498 -1111.68 3724
723.499 -1116.46 3740
732.442 -1116.46 3740
746.54 -1124.22 3766
760.762 -1131.98 3792
773.281 -1137.06 3809
782.389 -1137.06 3809
802.511 -1152.88 3862
823.096 -1169 3916
842.452 -1183.03 3963
851.929 -1183.03 3963
867.491 -1191.39 3991
879.233 -1194.37 4001
893.021 -1200.04 4020
902.634 -1200.04 4020
916.559 -1205.72 4039
926.217 -1205.72 4039
935.876 -1205.72 4039
945.534 -1205.72 4039
950.699 -1200.04 4020
942.914 -1071.08 3588
951.495 -1071.08 3588
960.074 -1071.08 3588
966.495 -1068.7 3580
975.056 -1068.7 3580
967.131 -1050.79 3520
981.646 -1057.35 3542
992.073 -1059.44 3549
1005.07 -1064.22 3565
1031.22 -1082.73 3627
1039.9 -1082.73 3627
1052.91 -1087.2 3642
1066.28 -1091.98 3658
1087.08 -1104.22 3699
1095.92 -1104.22 3699
1109.84 -1109.3 3716
1121.14 -1111.68 3724
1130.04 -1111.68 3724
1138.95 -1111.68 3724
1147.85 -1111.68 3724
1156.76 -1111.68 3724
1165.66 -1111.68 3724
1358.49 -1116.46 3740
1367.43 -1116.46 3740
1376.37 -1116.46 3740
1388.65 -1119.15 3749
1397.61 -1119.15 3749
1406.58 -1119.15 3749
1415.54 -1119.15 3749
1424.51 -1119.15 3749
1433.47 -1119.15 3749
1438.98 -1116.46 3740
1444.82 -1114.07 3732
1453.75 -1114.07 3732
1462.67 -1114.07 3732
1471.6 -1114.07 3732
1480.52 -1114.07 3732
1496.23 -1119.15 3749
1505.19 -1119.15 3749
1514.16 -1119.15 3749
1523.12 -1119.15 3749
1528.41 -1116.46 3740
1537.35 -1116.46 3740
1546.3 -1116.46 3740
1555.24 -1116.46 3740
1564.19 -1116.46 3740
1573.13 -1116.46 3740
1585.88 -1119.15 3749
1594.84 -1119.15 3749
1607.23 -1121.53 3757
1616.22 -1121.53 3757
1625.2 -1121.53 3757
1634.18 -1121.53 3757
-2692.02 -1078.48 3642
-2683.31 -1078.48 3642
-2680.48 -1080.85 3650
-2720.06 -1100.39 3716
-2760.05 -1120.23 3783
-2751.01 -1120.23 3783
-2773.13 -1132.97 3826
-2763.98 -1132.97 3826
-2754.83 -1132.97 3826
-2745.68 -1132.97 3826
-2736.53 -1132.97 3826
-2727.38 -1132.97 3826
-2743.81 -1143.63 3862
-2734.58 -1143.63 3862
-2725.34 -1143.63 3862
-2703.45 -1138.3 3844
-2694.25 -1138.3 3844
-2666.9 -1130.6 3818
-2669.6 -1135.63 3835
-2660.43 -1135.63 3835
-2651.26 -1135.63 3835
-2635.89 -1132.97 3826
-2632.92 -1135.63 3835
-2623.75 -1135.63 3835
-2614.58 -1135.63 3835
-2605.41 -1135.63 3835
-2590.15 -1132.97 3826
-2569.53 -1127.93 3809
-2560.42 -1127.93 3809
-2505.1 -1107.5 3740
-2530.86 -1122.9 3792
-2527.11 -1125.27 3800
-2518.02 -1125.27 3800
-2508.94 -1125.27 3800
-2488.67 -1120.23 3783
-2468.48 -1115.2 3766
-2459.47 -1115.2 3766
-1370.18 -1122.9 3792
-1361.11 -1122.9 3792
-1358.1 -1127.93 3809
-1361.39 -1138.3 3844
-1352.2 -1138.3 3844
-1343 -1138.3 3844
-1333.81 -1138.3 3844
-1324.62 -1138.3 3844
-1315.43 -1138.3 3844
-1306.24 -1138.3 3844
-1297.04 -1138.3 3844
-1293.88 -1143.63 3862
-1284.65 -1143.63 3862
-1275.41 -1143.63 3862
-1266.18 -1143.63 3862
-1256.94 -1143.63 3862
-1238.98 -1135.63 3835
-1232.7 -1138.3 3844
-1223.51 -1138.3 3844
-1214.31 -1138.3 3844
-1205.12 -1138.3 3844
-1195.93 -1138.3 3844
-1186.74 -1138.3 3844
-1169.58 -1130.6 3818
-85.5194 -619.193 2091
-80.5192 -619.193 2091
-75.519 -619.193 2091
-70.3164 -617.417 2085
-65.1739 -615.936 2080
-60.0553 -614.455 2075
-54.9606 -612.975 2070
-50.0106 -612.975 2070
-44.9953 -612.086 2067
-40.0524 -612.086 2067
-35.0247 -610.606 2062
-30.0938 -610.606 2062
-25.0409 -607.645 2052
-20.0358 -604.683 2042
-15.1305 -603.795 2039
-10.2547 -603.795 2039
-5.36562 -602.314 2034
-0.500723 -601.13 2030
4.34719 -600.241 2027
9.19436 -600.241 2027
14.0069 -598.761 2022
18.8235 -598.169 2020
23.6188 -597.28 2017
28.442 -597.28 2017
33.2323 -596.688 2015
38.0508 -596.688 2015
42.8054 -595.8 2012
47.6167 -595.8 2012
52.5062 -596.688 2015
57.3247 -596.688 2015
62.1432 -596.688 2015
66.9616 -596.688 2015
72.0295 -598.761 2022
76.8647 -598.761 2022
81.8211 -599.649 2025
86.7491 -600.241 2027
91.7318 -601.13 2030
96.5862 -601.13 2030
101.79 -603.203 2037
107.185 -606.164 2047
112.19 -606.756 2049
117.089 -606.756 2049
122.168 -607.645 2052
127.694 -610.606 2062
132.946 -612.086 2067
137.889 -612.086 2067
143.385 -614.455 2075
148.561 -615.344 2078
154.491 -619.193 2091
159.491 -619.193 2091
165.042 -621.266 2098
170.059 -621.266 2098
175.076 -621.266 2098
179.921 -620.674 2096
184.227 -618.305 2088
188.767 -616.824 2083
193.748 -616.824 2083
198.443 -615.936 2080
406.15 -1120.23 3783
415.197 -1120.23 3783
426.149 -1125.27 3800
435.236 -1125.27 3800
447.363 -1132.97 3826
456.513 -1132.97 3826
465.662 -1132.97 3826
472.701 -1127.93 3809
478.521 -1120.23 3783
487.567 -1120.23 3783
495.432 -1117.57 3774
504.457 -1117.57 3774
513.481 -1117.57 3774
521.399 -1115.2 3766
529.137 -1112.53 3757
539.41 -1115.2 3766
548.416 -1115.2 3766
557.421 -1115.2 3766
566.427 -1115.2 3766
575.432 -1115.2 3766
581.8 -1110.17 3749
589.347 -1107.5 3740
591.731 -1095.36 3699
600.577 -1095.36 3699
606.786 -1090.62 3683
615.593 -1090.62 3683
624.401 -1090.62 3683
637.334 -1097.73 3707
646.199 -1097.73 3707
655.063 -1097.73 3707
661.062 -1092.99 3691
669.888 -1092.99 3691
678.715 -1092.99 3691
684.561 -1088.25 3675
694.858 -1090.62 3683
706.722 -1095.36 3699
717.115 -1097.73 3707
725.98 -1097.73 3707
736.628 -1100.39 3716
750.329 -1107.5 3740
769.829 -1122.9 3792
778.897 -1122.9 3792
796.9 -1135.63 3835
823.096 -1159.62 3916
838.413 -1167.91 3944
847.844 -1167.91 3944
865.535 -1179.16 3982
879.233 -1184.79 4001
893.021 -1190.41 4020
902.634 -1190.41 4020
912.247 -1190.41 4020
921.86 -1190.41 4020
931.473 -1190.41 4020
941.086 -1190.41 4020
950.699 -1190.41 4020
942.914 -1062.49 3588
951.495 -1062.49 3588
960.074 -1062.49 3588
966.495 -1060.12 3580
975.056 -1060.12 3580
967.131 -1042.35 3520
981.646 -1048.87 3542
992.073 -1050.94 3549
1005.07 -1055.68 3565
1031.22 -1074.04 3627
1039.9 -1074.04 3627
1052.91 -1078.48 3642
1061.61 -1078.48 3642
1087.08 -1095.36 3699
1095.92 -1095.36 3699
1109.84 -1100.39 3716
1121.14 -1102.76 3724
1130.04 -1102.76 3724
1138.95 -1102.76 3724
1147.85 -1102.76 3724
1156.76 -1102.76 3724
1165.66 -1102.76 3724
1364.66 -1112.53 3757
1373.64 -1112.53 3757
1382.63 -1112.53 3757
1394.95 -1115.2 3766
1403.95 -1115.2 3766
1412.96 -1115.2 3766
1415.54 -1110.17 3749
1424.51 -1110.17 3749
1433.47 -1110.17 3749
1438.98 -1107.5 3740
1444.82 -1105.13 3732
1453.75 -1105.13 3732
1462.67 -1105.13 3732
1471.6 -1105.13 3732
1483.69 -1107.5 3740
1496.23 -1110.17 3749
1505.19 -1110.17 3749
1514.16 -1110.17 3749
1523.12 -1110.17 3749
1528.41 -1107.5 3740
1537.35 -1107.5 3740
1546.3 -1107.5 3740
1555.24 -1107.5 3740
1564.19 -1107.5 3740
1569.76 -1105.13 3732
1585.88 -1110.17 3749
1594.84 -1110.17 3749
1607.23 -1112.53 3757
1616.22 -1112.53 3757
1625.2 -1112.53 3757
1634.18 -1112.53 3757
-2773.13 -1123.8 3826
-2763.98 -1123.8 3826
-2754.83 -1123.8 3826
-2745.68 -1123.8 3826
-2736.53 -1123.8 3826
-2727.38 -1123.8 3826
-2743.81 -1134.38 3862
-2734.58 -1134.38 3862
-2725.34 -1134.38 3862
-2703.45 -1129.09 3844
-2694.25 -1129.09 3844
-2666.9 -1121.45 3818
-2669.6 -1126.45 3835
-2660.43 -1126.45 3835
-2651.26 -1126.45 3835
-2635.89 -1123.8 3826
-2626.74 -1123.8 3826
-2617.59 -1123.8 3826
-2608.44 -1123.8 3826
-2599.3 -1123.8 3826
-2584.73 -1121.45 3818
-2563.46 -1116.16 3800
-2554.37 -1116.16 3800
-2505.1 -1098.54 3740
-2530.86 -1113.81 3792
-2527.11 -1116.16 3800
-2518.02 -1116.16 3800
-2508.94 -1116.16 3800
-2488.67 -1111.17 3783
-2468.48 -1106.18 3766
-2459.47 -1106.18 3766
-1358.1 -1118.81 3809
-1361.39 -1129.09 3844
-1352.2 -1129.09 3844
-1343 -1129.09 3844
-1333.81 -1129.09 3844
-1324.62 -1129.09 3844
-1315.43 -1129.09 3844
-1306.24 -1129.09 3844
-1297.04 -1129.09 3844
-1293.88 -1134.38 3862
-1284.65 -1134.38 3862
-1275.41 -1134.38 3862
-1266.18 -1134.38 3862
-1256.94 -1134.38 3862
-1238.98 -1126.45 3835
-1232.7 -1129.09 3844
-1223.51 -1129.09 3844
-1214.31 -1129.09 3844
-1205.12 -1129.09 3844
-1195.93 -1129.09 3844
-1186.74 -1129.09 3844
-1169.58 -1121.45 3818
-85.5194 -614.184 2091
-80.5192 -614.184 2091
-75.519 -614.184 2091
-70.249 -611.835 2083
-65.1739 -610.953 2080
-60.0553 -609.485 2075
-54.9606 -608.016 2070
-50.0106 -608.016 2070
-44.9953 -607.135 2067
-40.0137 -606.547 2065
-35.0247 -605.666 2062
-30.0938 -605.666 2062
-25.0043 -601.848 2049
-20.0358 -599.792 2042
-15.1305 -598.91 2039
-10.2547 -598.91 2039
-5.36562 -597.442 2034
-0.500723 -596.267 2030
4.34719 -595.386 2027
9.19436 -595.386 2027
14.0069 -593.917 2022
18.8235 -593.33 2020
23.6188 -592.448 2017
28.442 -592.448 2017
33.2323 -591.861 2015
37.9941 -590.98 2012
42.8054 -590.98 2012
47.6167 -590.98 2012
52.5062 -591.861 2015
57.3247 -591.861 2015
62.1432 -591.861 2015
66.9616 -591.861 2015
72.0295 -593.917 2022
76.8647 -593.917 2022
81.6999 -593.917 2022
86.6635 -594.798 2025
91.5963 -595.386 2027
96.4434 -595.386 2027
101.79 -598.323 2037
106.766 -598.91 2039
112.19 -601.848 2049
117.089 -601.848 2049
121.989 -601.848 2049
127.075 -602.729 2052
132.818 -606.547 2065
137.756 -606.547 2065
142.832 -607.135 2067
148.347 -609.485 2075
154.491 -614.184 2091
159.491 -614.184 2091
164.491 -614.184 2091
169.492 -614.184 2091
174.492 -614.184 2091
179.492 -614.184 2091
183.963 -612.422 2085
188.496 -610.953 2080
193.469 -610.953 2080
406.15 -1111.17 3783
415.197 -1111.17 3783
424.243 -1111.17 3783
433.289 -1111.17 3783
442.336 -1111.17 3783
451.382 -1111.17 3783
460.428 -1111.17 3783
469.474 -1111.17 3783
477.382 -1108.53 3774
486.407 -1108.53 3774
494.382 -1106.18 3766
503.387 -1106.18 3766
512.393 -1106.18 3766
520.153 -1103.53 3757
529.137 -1103.53 3757
539.41 -1106.18 3766
548.416 -1106.18 3766
557.421 -1106.18 3766
566.427 -1106.18 3766
575.432 -1106.18 3766
581.8 -1101.18 3749
586.826 -1093.84 3724
591.731 -1086.5 3699
600.577 -1086.5 3699
608.104 -1084.15 3691
619.605 -1088.85 3707
628.469 -1088.85 3707
637.334 -1088.85 3707
643.409 -1084.15 3691
652.236 -1084.15 3691
661.062 -1084.15 3691
669.888 -1084.15 3691
678.715 -1084.15 3691
687.541 -1084.15 3691
697.877 -1086.5 3699
706.722 -1086.5 3699
715.567 -1086.5 3699
724.413 -1086.5 3699
734.844 -1088.85 3707
750.329 -1098.54 3740
766.175 -1108.53 3774
775.2 -1108.53 3774
796.9 -1126.45 3835
813.638 -1137.02 3871
832.461 -1150.24 3916
841.825 -1150.24 3916
861.405 -1164.04 3963
875.057 -1169.62 3982
893.021 -1180.78 4020
902.634 -1180.78 4020
912.247 -1180.78 4020
921.86 -1180.78 4020
931.473 -1180.78 4020
941.086 -1180.78 4020
946.206 -1175.2 4001
942.407 -1063 3619
951.061 -1063 3619
959.715 -1063 3619
961.948 -1055.95 3595
970.544 -1055.95 3595
979.141 -1055.95 3595
981.418 -1049.19 3572
983.586 -1042.44 3549
998.502 -1049.19 3572
1007.04 -1049.19 3572
1031.22 -1065.35 3627
1039.9 -1065.35 3627
1050.88 -1067.7 3635
1083.19 -1091.49 3716
1096.77 -1096.19 3732
1105.7 -1096.19 3732
1122.09 -1103.53 3757
1141.61 -1113.81 3792
1158.57 -1121.45 3818
1167.7 -1121.45 3818
1176.83 -1121.45 3818
1185.96 -1121.45 3818
1195.09 -1121.45 3818
1364.66 -1103.53 3757
1373.64 -1103.53 3757
1385.94 -1106.18 3766
1401.24 -1111.17 3783
1410.29 -1111.17 3783
1419.34 -1111.17 3783
1421.96 -1106.18 3766
1424.51 -1101.18 3749
1433.47 -1101.18 3749
1438.98 -1098.54 3740
1447.92 -1098.54 3740
1456.86 -1098.54 3740
1465.81 -1098.54 3740
1474.75 -1098.54 3740
1487.26 -1101.18 3749
1499.42 -1103.53 3757
1512.02 -1106.18 3766
1521.03 -1106.18 3766
1530.03 -1106.18 3766
1532.09 -1101.18 3749
1537.35 -1098.54 3740
1546.3 -1098.54 3740
1555.24 -1098.54 3740
1564.19 -1098.54 3740
1580.28 -1103.53 3757
1589.26 -1103.53 3757
1598.25 -1103.53 3757
