-432.64 712.637 3611
-424.945 714.216 3619
-416.291 714.216 3619
-407.637 714.216 3619
-398.1 712.637 3611
-389.465 712.637 3611
-381.674 714.216 3619
-373.02 714.216 3619
-364.366 714.216 3619
-354.926 712.637 3611
-346.291 712.637 3611
-337.656 712.637 3611
-329.749 714.216 3619
-322.515 717.374 3635
-314.427 718.755 3642
-307.061 721.913 3658
-298.313 721.913 3658
-290.912 725.268 3675
-282.124 725.268 3675
-273.336 725.268 3675
-264.548 725.268 3675
-255.76 725.268 3675
-246.972 725.268 3675
-238.184 725.268 3675
-227.835 720.334 3650
-219.587 721.913 3658
-210.84 721.913 3658
-202.092 721.913 3658
-193.345 721.913 3658
-184.194 720.334 3650
-103.597 425.293 2155
-98.4435 425.293 2155
-93.2902 425.293 2155
-88.1369 425.293 2155
-83.2147 426.477 2161
-78.0471 426.477 2161
-72.8795 426.477 2161
-67.7119 426.477 2161
-62.5443 426.477 2161
-57.3767 426.477 2161
-52.2091 426.477 2161
-46.9762 425.885 2158
-41.8158 425.885 2158
-36.7063 426.477 2161
-31.5387 426.477 2161
-26.4077 427.069 2164
-21.2329 427.069 2164
-16.0581 427.069 2164
-10.8833 427.069 2164
-5.70064 426.477 2161
-0.533776 427.069 2164
4.641 427.069 2164
9.82939 427.661 2167
15.0113 427.661 2167
20.1933 427.661 2167
25.3753 427.661 2167
30.5854 428.056 2169
35.7721 428.056 2169
40.9589 428.056 2169
46.1031 427.661 2167
51.285 427.661 2167
56.467 427.661 2167
61.6489 427.661 2167
66.8309 427.661 2167
72.0128 427.661 2167
77.1948 427.661 2167
142.819 741.451 3757
152.49 744.806 3774
161.515 744.806 3774
170.54 744.806 3774
181.23 751.713 3809
192.087 758.62 3844
202.222 762.172 3862
211.457 762.172 3862
221.207 763.949 3871
232.071 769.277 3898
242.507 772.829 3916
251.871 772.829 3916
263.104 778.355 3944
273.157 780.131 3953
283.968 783.881 3972
293.466 783.881 3972
302.964 783.881 3972
313.957 787.631 3991
324.312 789.604 4001
333.879 789.604 4001
345.936 795.328 4030
358.132 801.051 4059
369.651 804.998 4079
379.405 804.998 4079
390.113 806.971 4089
399.891 806.971 4089
409.669 806.971 4089
419.447 806.971 4089
429.225 806.971 4089
437.93 804.998 4079
446.586 803.024 4069
456.316 803.024 4069
466.047 803.024 4069
474.607 801.051 4059
481.927 797.104 4039
491.586 797.104 4039
495.287 787.631 3991
503.693 785.855 3982
511.926 783.881 3972
521.424 783.881 3972
529.72 782.105 3963
530.353 769.277 3898
538.428 767.501 3889
547.728 767.501 3889
553.16 762.172 3862
558.464 756.844 3835
563.786 751.713 3809
571.541 749.937 3800
580.628 749.937 3800
589.715 749.937 3800
611.408 765.725 3880
625.005 771.053 3907
637.271 774.606 3925
646.656 774.606 3925
660.722 780.131 3953
671.871 782.105 3963
681.347 782.105 3963
690.824 782.105 3963
700.301 782.105 3963
711.389 783.881 3972
724.336 787.631 3991
733.88 787.631 3991
743.423 787.631 3991
752.967 787.631 3991
762.511 787.631 3991
770.313 785.855 3982
774.156 780.131 3953
783.609 780.131 3953
795.068 782.105 3963
804.545 782.105 3963
814.022 782.105 3963
821.42 780.131 3953
830.873 780.131 3953
834.374 774.606 3925
843.76 774.606 3925
841.408 763.949 3871
850.665 763.949 3871
859.921 763.949 3871
863.116 758.62 3844
866.408 753.489 3818
873.474 751.713 3809
882.582 751.713 3809
891.691 751.713 3809
900.799 751.713 3809
895.575 739.872 3749
904.54 739.872 3749
899.372 728.425 3691
904.262 725.268 3675
908.826 721.913 3658
915.567 720.334 3650
924.295 720.334 3650
933.023 720.334 3650
937.881 717.374 3635
946.574 717.374 3635
955.266 717.374 3635
961.837 715.795 3627
966.229 712.637 3611
970.544 709.48 3595
979.141 709.48 3595
985.814 708.098 3588
994.394 708.098 3588
998.502 704.94 3572
1007.04 704.94 3572
1013.6 703.559 3565
1022.12 703.559 3565
1026.02 700.401 3549
1034.51 700.401 3549
1042.99 700.401 3549
1047.04 697.441 3534
1051.31 694.678 3520
1057.31 693.099 3512
1065.71 693.099 3512
1074.11 693.099 3512
1075.73 688.758 3490
1079.72 685.995 3476
1088.04 685.995 3476
1091.62 683.034 3461
1099.89 683.034 3461
1108.17 683.034 3461
1116.45 683.034 3461
1124.72 683.034 3461
1133 683.034 3461
1141.28 683.034 3461
1149.55 683.034 3461
1160.17 684.416 3468
1168.46 684.416 3468
1179.47 685.995 3476
1187.78 685.995 3476
1198.5 687.376 3483
1206.83 687.376 3483
1217.6 688.758 3490
1233.68 693.099 3512
1247.38 696.06 3527
1255.81 696.06 3527
1269.63 699.02 3542
1288.92 704.94 3572
1303.27 708.098 3588
1311.85 708.098 3588
1323.01 709.48 3595
1337.53 712.637 3611
1352.13 715.795 3627
1360.81 715.795 3627
1372.5 717.374 3635
1383.85 718.755 3642
1392.56 718.755 3642
1401.27 718.755 3642
1407.27 717.374 3635
1403.5 711.058 3603
1412.11 711.058 3603
1414.81 708.098 3588
1417.05 704.94 3572
1413.62 699.02 3542
1410.04 693.099 3512
1418.44 693.099 3512
1406.12 683.034 3461
1397.23 674.746 3419
1388.14 666.457 3377
1396.22 666.457 3377
1390.15 659.747 3343
1387.27 654.616 3317
1392.26 653.234 3310
1400.18 653.234 3310
1394.48 646.919 3278
1399.32 645.538 3271
1401.55 642.972 3258
1406.75 641.788 3252
1414.52 641.788 3252
1422.3 641.788 3252
1424.36 639.222 3239
1432.11 639.222 3239
1439.85 639.222 3239
1447.6 639.222 3239
1455.34 639.222 3239
1466.25 640.604 3246
1474.01 640.604 3246
1481.77 640.604 3246
1489.54 640.604 3246
1497.3 640.604 3246
1505.06 640.604 3246
1512.82 640.604 3246
1517.31 639.222 3239
1522.23 638.038 3233
1524.28 635.67 3221
1531.98 635.67 3221
1536.34 634.289 3214
1529.61 628.368 3184
1534.33 627.184 3178
1541.93 627.184 3178
1534.9 621.263 3148
1533.61 617.711 3130
1535.18 615.343 3118
1542.64 615.343 3118
1538.66 610.804 3095
1526.08 602.91 3055
1505.78 592.055 3000
1491.77 583.766 2958
1498.85 583.766 2958
1487.59 576.662 2922
1481.28 571.531 2896
1477.93 567.584 2876
1484.81 567.584 2876
1486.5 565.61 2866
1483.45 561.86 2847
1487.64 560.874 2842
1491.81 559.887 2837
1498.59 559.887 2837
1502.72 558.9 2832
1509.5 558.9 2832
1516.27 558.9 2832
1523.04 558.9 2832
1527.65 558.111 2828
1526.28 555.15 2813
1533 555.15 2813
1539.73 555.15 2813
1541.51 553.374 2804
1545.45 552.388 2799
1549.37 551.401 2794
1556.05 551.401 2794
1562.74 551.401 2794
1561.55 548.638 2780
1571.02 549.625 2785
1585.61 552.388 2799
1597.99 554.361 2809
1604.71 554.361 2809
1619.46 557.124 2823
1634.27 559.887 2837
1652.63 563.834 2857
1659.46 563.834 2857
1666.29 563.834 2857
1667.27 561.86 2847
1674.08 561.86 2847
1887.46 628.368 3184
1931.98 640.604 3246
1939.74 640.604 3246
1966.7 646.919 3278
2025.74 663.694 3363
2038.02 665.075 3370
2046.08 665.075 3370
2054.14 665.075 3370
2045.67 659.747 3343
2049.98 658.563 3337
2057.96 658.563 3337
2065.94 658.563 3337
2052.79 651.853 3303
2036.98 644.353 3265
2044.79 644.353 3265
1863.06 567.584 2876
1876.44 569.557 2886
1883.34 569.557 2886
1890.24 569.557 2886
1871.51 561.86 2847
1878.32 561.86 2847
1878.5 559.887 2837
1875.98 557.124 2823
1886.07 558.111 2828
1895.51 558.9 2832
1902.28 558.9 2832
1919.17 561.86 2847
1932.74 563.834 2857
1939.57 563.834 2857
1946.4 563.834 2857
1959.39 565.61 2866
1966.24 565.61 2866
1973.09 565.61 2866
1979.95 565.61 2866
1980.56 563.834 2857
1973.48 559.887 2837
1973.98 558.111 2828
1980.75 558.111 2828
1970.64 553.374 2804
1994.27 558.111 2828
2003.86 558.9 2832
2010.64 558.9 2832
2017.41 558.9 2832
2024.18 558.9 2832
2017.33 555.15 2813
2024.05 555.15 2813
2014.18 550.611 2790
1996.95 544.099 2757
2027.52 550.611 2790
2040.75 552.388 2799
2047.45 552.388 2799
2054.14 552.388 2799
2060.83 552.388 2799
2067.53 552.388 2799
2081.63 554.361 2809
2088.35 554.361 2809
2109.24 558.111 2828
2166.88 571.531 2896
2232.35 586.924 2974
2239.46 586.924 2974
2279.06 595.41 3017
2311.28 601.923 3050
2348.22 609.62 3089
2355.61 609.62 3089
2362.99 609.62 3089
-2378.14 694.321 3476
-2394.37 701.512 3512
-2385.97 701.512 3512
-2377.57 701.512 3512
-2359.06 698.516 3497
-2350.69 698.516 3497
-2337.64 697.118 3490
-2329.3 697.118 3490
-2320.95 697.118 3490
-2317.24 698.516 3497
-2308.88 698.516 3497
-2300.52 698.516 3497
-2297.4 700.114 3505
-2289.02 700.114 3505
-2280.64 700.114 3505
-2272.26 700.114 3505
-2258.71 698.516 3497
-2245.84 697.118 3490
-2237.49 697.118 3490
-2229.15 697.118 3490
-2206.8 692.724 3468
-2198.51 692.724 3468
-2190.22 692.724 3468
-2177.52 691.325 3461
-2160.47 688.529 3447
-2147.86 687.131 3440
-2143.98 688.529 3447
-2135.74 688.529 3447
-2127.5 688.529 3447
-2119.26 688.529 3447
-2111.01 688.529 3447
-2098.5 687.131 3440
-2090.27 687.131 3440
-2073.57 684.334 3426
-2065.38 684.334 3426
-2052.99 682.936 3419
-2040.62 681.538 3412
-2028.29 680.139 3405
-2020.15 680.139 3405
-2012.01 680.139 3405
-1999.75 678.741 3398
-1975.21 673.148 3370
-1967.15 673.148 3370
-1955.02 671.75 3363
-1939.46 669.153 3350
-1923.95 666.557 3337
-1915.97 666.557 3337
-1903.99 665.158 3330
-1896.02 665.158 3330
-1903.37 670.552 3357
-1902.68 673.148 3370
-1894.62 673.148 3370
-1894.4 675.945 3384
-1909.72 684.334 3426
-1913.18 688.529 3447
-1904.94 688.529 3447
-1904.4 691.325 3461
-1899.96 692.724 3468
-1896.03 694.321 3476
-1887.72 694.321 3476
-1883.19 695.72 3483
-1878.63 697.118 3490
-1878.32 700.114 3505
-1869.94 700.114 3505
-1865.28 701.512 3512
-1856.88 701.512 3512
-1860.06 705.907 3534
-1851.61 705.907 3534
-1843.16 705.907 3534
-1842.5 708.903 3549
-1838.14 710.501 3557
-1829.64 710.501 3557
-1821.13 710.501 3557
-1816.7 712.099 3565
-1811.73 713.497 3572
-1803.19 713.497 3572
-1794.65 713.497 3572
-1786.1 713.497 3572
-1777.56 713.497 3572
-1769.02 713.497 3572
-1757.03 712.099 3565
-1751.94 713.497 3572
-1747.3 715.095 3580
-1738.74 715.095 3580
-1734.04 716.693 3588
-1740.37 722.885 3619
-1735.55 724.483 3627
-1726.87 724.483 3627
-1721.99 726.081 3635
-1713.3 726.081 3635
-1711.64 729.078 3650
-1710.84 732.473 3667
-1702.07 732.473 3667
-1700.69 735.669 3683
-1710.72 743.859 3724
-1701.81 743.859 3724
-1692.91 743.859 3724
-1695.31 748.852 3749
-1697.59 753.846 3774
-1688.56 753.846 3774
-1683.54 755.644 3783
-1674.5 755.644 3783
-1665.45 755.644 3783
-1656.41 755.644 3783
-1647.36 755.644 3783
-1619.69 747.055 3740
-1600.41 742.261 3716
-1591.53 742.261 3716
-1575.4 738.865 3699
-1542.41 727.48 3642
-1527.39 724.483 3627
-1518.71 724.483 3627
-1496.72 718.091 3595
-1475.7 712.099 3565
-1460.59 708.903 3549
-1452.11 708.903 3549
-1437.52 705.907 3534
-1426.24 704.509 3527
-1414.99 703.11 3520
-1406.57 703.11 3520
-1394.98 701.512 3512
-1386.58 701.512 3512
-1375.43 700.114 3505
-1367.05 700.114 3505
-1358.67 700.114 3505
-1361.46 705.907 3534
-1358.75 708.903 3549
-1359.02 713.497 3572
-1350.48 713.497 3572
-1341.93 713.497 3572
-1344.96 719.689 3603
-1339.31 721.287 3611
-1330.68 721.287 3611
-1324.97 722.885 3619
-1322.14 726.081 3635
-1315.98 727.48 3642
-1307.27 727.48 3642
-1301.41 729.078 3650
-1292.68 729.078 3650
-1283.95 729.078 3650
-1275.23 729.078 3650
-1266.5 729.078 3650
-1255.01 727.48 3642
-1243.91 726.081 3635
-1237.59 727.48 3642
-1228.89 727.48 3642
-1220.18 727.48 3642
-1211.47 727.48 3642
-1202.76 727.48 3642
-1194.05 727.48 3642
-1183.06 726.081 3635
-1174.37 726.081 3635
-1165.68 726.081 3635
-1156.98 726.081 3635
-1150.5 727.48 3642
-1141.79 727.48 3642
-1133.08 727.48 3642
-1124.38 727.48 3642
-1115.67 727.48 3642
-1104.83 726.081 3635
-1096.14 726.081 3635
-1085.05 724.483 3627
-1085.58 730.675 3658
-1086.55 737.267 3691
-1080.05 738.865 3699
-1071.21 738.865 3699
-1069.54 743.859 3724
-1065.2 747.055 3740
-1063.6 752.248 3766
-1054.59 752.248 3766
-1045.58 752.248 3766
-1038.78 753.846 3774
-1039.31 760.837 3809
-1030.2 760.837 3809
-1021.09 760.837 3809
-1011.98 760.837 3809
-1002.87 760.837 3809
-989.328 757.442 3792
-982.328 759.04 3800
-975.546 760.837 3809
-977.602 769.626 3853
-968.388 769.626 3853
-959.174 769.626 3853
-949.961 769.626 3853
-940.747 769.626 3853
-929.357 767.828 3844
-920.165 767.828 3844
-910.973 767.828 3844
-901.781 767.828 3844
-892.589 767.828 3844
-883.396 767.828 3844
-872.157 766.031 3835
-862.987 766.031 3835
-850.031 762.635 3818
-840.901 762.635 3818
-831.771 762.635 3818
-817.039 757.442 3792
-807.971 757.442 3792
-798.904 757.442 3792
-789.836 757.442 3792
-780.768 757.442 3792
-771.7 757.442 3792
-759.012 753.846 3774
-748.398 752.248 3766
-729.575 742.261 3716
-720.689 742.261 3716
-710.079 740.463 3707
-695.162 734.071 3675
-681.704 729.078 3650
-672.976 729.078 3650
-662.792 727.48 3642
-654.083 727.48 3642
-644.133 726.081 3635
-635.441 726.081 3635
-622.61 721.287 3611
-613.975 721.287 3611
-603.999 719.689 3603
-595.383 719.689 3603
-584.325 716.693 3588
-575.745 716.693 3588
-567.165 716.693 3588
-559.674 718.091 3595
-551.078 718.091 3595
-542.481 718.091 3595
-532.845 716.693 3588
-524.265 716.693 3588
-515.685 716.693 3588
-505.974 715.095 3580
-499.497 718.091 3595
-490.901 718.091 3595
-482.304 718.091 3595
-473.707 718.091 3595
-465.11 718.091 3595
-456.514 718.091 3595
-448.914 719.689 3603
-440.298 719.689 3603
-431.682 719.689 3603
-424.005 721.287 3611
-415.37 721.287 3611
-406.735 721.287 3611
-397.219 719.689 3603
-388.603 719.689 3603
-380.831 721.287 3611
-372.195 721.287 3611
-363.561 721.287 3611
-354.139 719.689 3603
-345.523 719.689 3603
-336.907 719.689 3603
-329.021 721.287 3611
-321.095 722.885 3619
-312.441 722.885 3619
-305.13 726.081 3635
-296.438 726.081 3635
-288.299 727.48 3642
-280.819 730.675 3658
-272.741 732.473 3667
-263.972 732.473 3667
-255.203 732.473 3667
-245.829 730.675 3658
-237.082 730.675 3658
-227.336 727.48 3642
-219.107 729.078 3650
-210.378 729.078 3650
-201.65 729.078 3650
-192.499 727.48 3642
-183.033 724.483 3627
-103.597 430.455 2155
-98.4435 430.455 2155
-93.2902 430.455 2155
-88.1369 430.455 2155
-83.2147 431.654 2161
-78.0471 431.654 2161
-72.8795 431.654 2161
-67.7119 431.654 2161
-62.5443 431.654 2161
-57.3767 431.654 2161
-52.2091 431.654 2161
-46.9762 431.055 2158
-41.8158 431.055 2158
-36.7063 431.654 2161
-31.5387 431.654 2161
-26.4077 432.253 2164
-21.2329 432.253 2164
-16.0581 432.253 2164
-10.8833 432.253 2164
-5.70064 431.654 2161
-0.533776 432.253 2164
4.641 432.253 2164
9.82939 432.852 2167
15.0113 432.852 2167
20.1933 432.852 2167
25.3753 432.852 2167
30.5854 433.252 2169
35.7721 433.252 2169
40.9589 433.252 2169
46.1031 432.852 2167
51.285 432.852 2167
56.467 432.852 2167
61.6489 432.852 2167
66.8309 432.852 2167
72.0128 432.852 2167
77.1948 432.852 2167
142.819 750.45 3757
152.49 753.846 3774
161.515 753.846 3774
170.54 753.846 3774
180.421 757.442 3792
192.087 767.828 3844
201.751 769.626 3853
210.965 769.626 3853
220.692 771.424 3862
230.464 773.222 3871
241.95 780.413 3907
251.292 780.413 3907
261.236 782.21 3916
272.535 787.803 3944
281.966 787.803 3944
291.397 787.803 3944
301.515 789.601 3953
312.463 793.396 3972
323.501 797.191 3991
333.045 797.191 3991
345.078 802.984 4020
357.25 808.777 4049
368.744 812.772 4069
378.475 812.772 4069
389.159 814.769 4079
399.891 816.767 4089
409.669 816.767 4089
419.447 816.767 4089
429.225 816.767 4089
436.856 812.772 4069
445.489 810.774 4059
455.195 810.774 4059
464.901 810.774 4059
473.438 808.777 4049
479.66 802.984 4020
489.273 802.984 4020
495.287 797.191 3991
503.693 795.394 3982
510.766 791.598 3963
520.243 791.598 3963
523.437 782.21 3916
529.128 776.817 3889
534.69 771.424 3862
543.925 771.424 3862
551.871 769.626 3853
558.464 766.031 3835
559.937 755.644 3783
568.984 755.644 3783
580.628 759.04 3800
589.715 759.04 3800
601.638 762.635 3818
620.686 775.019 3880
629.964 775.019 3880
639.243 775.019 3880
656.042 784.008 3925
668.649 787.803 3944
681.347 791.598 3963
690.824 791.598 3963
700.301 791.598 3963
709.778 791.598 3963
722.703 795.394 3982
732.225 795.394 3982
741.747 795.394 3982
751.269 795.394 3982
760.791 795.394 3982
770.313 795.394 3982
774.156 789.601 3953
783.609 789.601 3953
793.062 789.601 3953
802.515 789.601 3953
811.968 789.601 3953
821.42 789.601 3953
830.873 789.601 3953
834.374 784.008 3925
843.76 784.008 3925
841.408 773.222 3871
850.665 773.222 3871
859.921 773.222 3871
863.116 767.828 3844
866.408 762.635 3818
873.474 760.837 3809
882.582 760.837 3809
891.691 760.837 3809
900.799 760.837 3809
895.575 748.852 3749
904.54 748.852 3749
899.372 737.267 3691
904.262 734.071 3675
908.826 730.675 3658
915.567 729.078 3650
924.295 729.078 3650
933.023 729.078 3650
937.881 726.081 3635
946.574 726.081 3635
955.266 726.081 3635
961.837 724.483 3627
966.229 721.287 3611
970.544 718.091 3595
979.141 718.091 3595
985.814 716.693 3588
994.394 716.693 3588
998.502 713.497 3572
1007.04 713.497 3572
1013.6 712.099 3565
1022.12 712.099 3565
1026.02 708.903 3549
1034.51 708.903 3549
1042.99 708.903 3549
1047.04 705.907 3534
1051.31 703.11 3520
1057.31 701.512 3512
1065.71 701.512 3512
1074.11 701.512 3512
1075.73 697.118 3490
1081.9 695.72 3483
1090.23 695.72 3483
1091.62 691.325 3461
1099.89 691.325 3461
1108.17 691.325 3461
1116.45 691.325 3461
1124.72 691.325 3461
1133 691.325 3461
1141.28 691.325 3461
1149.55 691.325 3461
1160.17 692.724 3468
1168.46 692.724 3468
1179.47 694.321 3476
1187.78 694.321 3476
1198.5 695.72 3483
1206.83 695.72 3483
1217.6 697.118 3490
1231.22 700.114 3505
1247.38 704.509 3527
1255.81 704.509 3527
1269.63 707.505 3542
1288.92 713.497 3572
1303.27 716.693 3588
1311.85 716.693 3588
1325.95 719.689 3603
1340.5 722.885 3619
1352.13 724.483 3627
1360.81 724.483 3627
1378.16 729.078 3650
1386.89 729.078 3650
1395.62 729.078 3650
1404.35 729.078 3650
1409.98 727.48 3642
1406.61 721.287 3611
1415.25 721.287 3611
1414.81 716.693 3588
1420.22 715.095 3580
1413.62 707.505 3542
1413.25 703.11 3520
1421.67 703.11 3520
1406.12 691.325 3461
1397.23 682.936 3419
1388.14 674.547 3377
1396.22 674.547 3377
1390.15 667.755 3343
1387.27 662.562 3317
1392.26 661.163 3310
1400.18 661.163 3310
1394.48 654.772 3278
1399.32 653.373 3271
1401.55 650.777 3258
1406.75 649.578 3252
1414.52 649.578 3252
1422.3 649.578 3252
1424.36 646.981 3239
1432.11 646.981 3239
1439.85 646.981 3239
1447.6 646.981 3239
1455.34 646.981 3239
1466.25 648.38 3246
1474.01 648.38 3246
1481.77 648.38 3246
1489.54 648.38 3246
1497.3 648.38 3246
1505.06 648.38 3246
1512.82 648.38 3246
1517.31 646.981 3239
1522.23 645.783 3233
1524.28 643.386 3221
1531.98 643.386 3221
1536.34 641.988 3214
1532.49 637.194 3190
1534.33 634.797 3178
1541.93 634.797 3178
1534.9 628.804 3148
1536.55 626.407 3136
1538.14 624.01 3124
1545.61 624.01 3124
1538.66 618.218 3095
1529.08 611.426 3061
1511.3 601.439 3011
1499.84 594.048 2974
1506.95 594.048 2974
1503.38 589.854 2953
1483.84 579.467 2901
1485.64 577.469 2891
1492.55 577.469 2891
1489.09 573.474 2871
1483.45 568.68 2847
1490.26 568.68 2847
1491.81 566.683 2837
1498.59 566.683 2837
1502.72 565.684 2832
1509.5 565.684 2832
1516.27 565.684 2832
1523.04 565.684 2832
1527.65 564.885 2828
1526.28 561.889 2813
1533 561.889 2813
1539.73 561.889 2813
1541.51 560.091 2804
1545.45 559.093 2799
1549.37 558.094 2794
1556.05 558.094 2794
1562.74 558.094 2794
1561.55 555.297 2780
1571.02 556.296 2785
1585.61 559.093 2799
1597.99 561.09 2809
1604.71 561.09 2809
1619.46 563.887 2823
1640.04 568.68 2847
1660.73 573.474 2871
1667.59 573.474 2871
1674.46 573.474 2871
1667.27 568.68 2847
1674.08 568.68 2847
1879.85 635.995 3184
1909.4 643.386 3221
1951.03 654.772 3278
1958.86 654.772 3278
2017.7 671.75 3363
2042.61 677.343 3391
2050.72 677.343 3391
2058.83 677.343 3391
2066.94 677.343 3391
2066.48 674.547 3377
2065.95 671.75 3363
2073.99 671.75 3363
2078.32 670.552 3357
2073.92 666.557 3337
2060.69 659.765 3303
2068.59 659.765 3303
1863.06 574.473 2876
1876.44 576.471 2886
1883.34 576.471 2886
1896.79 578.468 2896
1903.72 578.468 2896
1910.64 578.468 2896
1904.33 574.473 2876
1901.9 571.677 2862
1908.74 571.677 2862
1921.61 573.474 2871
1928.48 573.474 2871
1942.08 575.472 2881
1952.36 576.471 2886
1987.09 584.66 2927
1994.09 584.66 2927
2001.09 584.66 2927
1966.24 572.476 2866
1973.09 572.476 2866
1979.95 572.476 2866
1980.56 570.678 2857
2011.04 577.469 2891
2017.96 577.469 2891
2024.87 577.469 2891
2024.76 575.472 2881
2060.56 583.661 2922
2071.08 584.66 2927
2081.63 585.659 2932
2088.64 585.659 2932
2102.8 587.656 2942
2109.84 587.656 2942
2116.87 587.656 2942
2120.3 586.658 2937
2086.76 575.472 2881
2093.65 575.472 2881
2100.54 575.472 2881
2100.11 573.474 2871
2089.37 568.68 2847
2082.18 564.885 2828
2085.25 563.887 2823
2095.71 564.885 2828
2102.47 564.885 2828
2123.41 568.68 2847
2166.88 578.468 2896
2232.35 594.048 2974
2239.46 594.048 2974
2303.99 609.229 3050
2337.04 616.021 3084
2411.32 633.598 3172
2418.9 633.598 3172
2426.49 633.598 3172
-2416.66 711.543 3520
-2428.08 717.405 3549
-2419.59 717.405 3549
-2411.11 717.405 3549
-2402.62 717.405 3549
-2379.29 712.958 3527
-2370.86 712.958 3527
-2352.38 709.925 3512
-2353.99 712.958 3527
-2345.56 712.958 3527
-2337.12 712.958 3527
-2328.69 712.958 3527
-2315.65 711.543 3520
-2307.23 711.543 3520
-2298.81 711.543 3520
-2290.4 711.543 3520
-2281.98 711.543 3520
-2268.4 709.925 3512
-2250.34 706.893 3497
-2241.98 706.893 3497
-2233.62 706.893 3497
-2211.89 702.648 3476
-2203.58 702.648 3476
-2195.27 702.648 3476
-2177.52 699.616 3461
-2169.24 699.616 3461
-2156.6 698.201 3454
-2148.34 698.201 3454
-2140.08 698.201 3454
-2131.82 698.201 3454
-2123.56 698.201 3454
-2115.3 698.201 3454
-2098.5 695.371 3440
-2090.27 695.371 3440
-2082.05 695.371 3440
-2073.82 695.371 3440
-2061.39 693.956 3433
-2044.81 691.126 3419
-2036.63 691.126 3419
-2028.46 691.126 3419
-2016.15 689.711 3412
-2003.87 688.296 3405
-1991.62 686.881 3398
-1983.5 686.881 3398
-1967.23 684.051 3384
-1943.51 678.593 3357
-1923.95 674.55 3337
-1915.97 674.55 3337
-1907.99 674.55 3337
-1900.01 674.55 3337
-1903.37 678.593 3357
-1902.68 681.221 3370
-1894.62 681.221 3370
-1890.48 682.636 3377
-1909.72 692.541 3426
-1913.18 696.786 3447
-1904.94 696.786 3447
-1900.55 698.201 3454
-1896.13 699.616 3461
-1891.67 701.031 3468
-1883.38 701.031 3468
-1879.41 702.648 3476
-1878.63 705.478 3490
-1874.04 706.893 3497
-1865.67 706.893 3497
-1861.56 708.51 3505
-1856.88 709.925 3512
-1860.06 714.373 3534
-1851.61 714.373 3534
-1843.16 714.373 3534
-1842.5 717.405 3549
-1838.14 719.022 3557
-1829.64 719.022 3557
-1821.13 719.022 3557
-1816.7 720.639 3565
-1811.73 722.054 3572
-1803.19 722.054 3572
-1798.66 723.671 3580
-1790.1 723.671 3580
-1781.54 723.671 3580
-1772.98 723.671 3580
-1760.48 722.054 3572
-1751.94 722.054 3572
-1747.3 723.671 3580
-1738.74 723.671 3580
-1734.04 725.288 3588
-1740.37 731.555 3619
-1735.55 733.172 3627
-1726.87 733.172 3627
-1721.99 734.789 3635
-1713.3 734.789 3635
-1711.64 737.821 3650
-1706.64 739.438 3658
-1697.9 739.438 3658
-1700.69 744.492 3683
-1707.04 751.163 3716
-1701.81 752.78 3724
-1692.91 752.78 3724
-1695.31 757.833 3749
-1689.94 759.45 3757
-1688.56 762.887 3774
-1679.54 762.887 3774
-1674.5 764.706 3783
-1665.45 764.706 3783
-1656.41 764.706 3783
-1647.36 764.706 3783
-1619.69 756.014 3740
-1600.41 751.163 3716
-1591.53 751.163 3716
-1575.4 747.726 3699
-1545.8 737.821 3650
-1533.7 736.204 3642
-1525 736.204 3642
-1500.05 728.32 3603
-1478.6 722.054 3572
-1460.59 717.405 3549
-1452.11 717.405 3549
-1440.77 715.99 3542
-1429.07 714.373 3534
-1417.8 712.958 3527
-1409.37 712.958 3527
-1398.15 711.543 3520
-1389.74 711.543 3520
-1378.18 709.925 3512
-1369.78 709.925 3512
-1358.67 708.51 3505
-1364.54 715.99 3542
-1358.75 717.405 3549
-1359.02 722.054 3572
-1350.48 722.054 3572
-1341.93 722.054 3572
-1344.96 728.32 3603
-1339.31 729.938 3611
-1330.68 729.938 3611
-1324.97 731.555 3619
-1322.14 734.789 3635
-1315.98 736.204 3642
-1307.27 736.204 3642
-1301.41 737.821 3650
-1295.52 739.438 3658
-1286.77 739.438 3658
-1278.02 739.438 3658
-1266.5 737.821 3650
-1257.77 737.821 3650
-1243.91 734.789 3635
-1237.59 736.204 3642
-1228.89 736.204 3642
-1220.18 736.204 3642
-1211.47 736.204 3642
-1202.76 736.204 3642
-1194.05 736.204 3642
-1183.06 734.789 3635
-1174.37 734.789 3635
-1165.68 734.789 3635
-1156.98 734.789 3635
-1148.29 734.789 3635
-1141.79 736.204 3642
-1133.08 736.204 3642
-1124.38 736.204 3642
-1115.67 736.204 3642
-1106.96 736.204 3642
-1098.25 736.204 3642
-1087.44 734.789 3635
-1085.58 739.438 3658
-1088.9 747.726 3699
-1085.02 751.163 3716
-1076.13 751.163 3716
-1071.84 754.397 3732
-1072.6 761.27 3766
-1063.6 761.27 3766
-1054.59 761.27 3766
-1047.81 762.887 3774
-1041.26 764.706 3783
-1039.31 769.962 3809
-1030.2 769.962 3809
-1021.09 769.962 3809
-1011.98 769.962 3809
-1002.87 769.962 3809
-989.328 766.525 3792
-982.328 768.143 3800
-975.546 769.962 3809
-977.602 778.856 3853
-968.388 778.856 3853
-959.174 778.856 3853
-949.961 778.856 3853
-940.747 778.856 3853
-927.181 775.218 3835
-918.011 775.218 3835
-908.84 775.218 3835
-899.669 775.218 3835
-886.551 771.781 3818
-877.421 771.781 3818
-868.291 771.781 3818
-859.161 771.781 3818
-848.028 769.962 3809
-838.919 769.962 3809
-826.107 766.525 3792
-817.039 766.525 3792
-807.971 766.525 3792
-798.904 766.525 3792
-789.836 766.525 3792
-780.768 766.525 3792
-771.7 766.525 3792
-757.403 761.27 3766
-745.019 757.833 3749
-729.575 751.163 3716
-720.689 751.163 3716
-708.547 747.726 3699
-695.162 742.875 3675
-681.704 737.821 3650
-672.976 737.821 3650
-662.792 736.204 3642
-652.826 734.789 3635
-644.133 734.789 3635
-635.441 734.789 3635
-622.61 729.938 3611
-612.615 728.32 3603
-601.485 725.288 3588
-592.905 725.288 3588
-584.325 725.288 3588
-575.745 725.288 3588
-567.165 725.288 3588
-558.585 725.288 3588
-550.005 725.288 3588
-541.425 725.288 3588
-531.657 723.671 3580
-523.096 723.671 3580
-514.535 723.671 3580
-505.974 723.671 3580
-497.413 723.671 3580
-489.945 725.288 3588
-481.365 725.288 3588
-472.785 725.288 3588
-465.11 726.703 3595
-456.514 726.703 3595
-447.917 726.703 3595
-439.32 726.703 3595
-430.723 726.703 3595
-423.066 728.32 3603
-414.45 728.32 3603
-405.834 728.32 3603
-397.219 728.32 3603
-388.603 728.32 3603
-379.987 728.32 3603
-371.371 728.32 3603
-362.755 728.32 3603
-354.139 728.32 3603
-345.523 728.32 3603
-336.907 728.32 3603
-328.292 728.32 3603
-320.386 729.938 3611
-312.441 731.555 3619
-305.13 734.789 3635
-296.438 734.789 3635
-287.745 734.789 3635
-280.205 737.821 3650
-272.071 739.438 3658
-263.324 739.438 3658
-254.577 739.438 3658
-245.291 737.821 3650
-236.563 737.821 3650
-226.399 733.172 3627
-218.626 736.204 3642
-209.917 736.204 3642
-201.208 736.204 3642
-192.129 734.789 3635
-183.033 733.172 3627
-103.597 435.618 2155
-98.7176 436.831 2161
-93.5499 436.831 2161
-88.3823 436.831 2161
-83.2147 436.831 2161
-78.1555 437.437 2164
-72.9807 437.437 2164
-67.8059 437.437 2164
-62.5443 436.831 2161
-57.3767 436.831 2161
-52.2091 436.831 2161
-47.0415 436.831 2161
-41.8739 436.831 2161
-36.7063 436.831 2161
-31.5387 436.831 2161
-26.4077 437.437 2164
-21.2329 437.437 2164
-16.0581 437.437 2164
-10.8833 437.437 2164
-5.70856 437.437 2164
-0.534516 438.043 2167
4.64744 438.043 2167
9.83846 438.448 2169
15.0252 438.448 2169
20.2119 438.448 2169
25.4338 439.054 2172
30.67 439.661 2175
35.8711 439.661 2175
41.0722 439.661 2175
46.2733 439.661 2175
51.4744 439.661 2175
56.6754 439.661 2175
61.7058 438.448 2169
66.8926 438.448 2169
72.0793 438.448 2169
77.266 438.448 2169
142.819 759.45 3757
152.49 762.887 3774
161.515 762.887 3774
170.54 762.887 3774
180.421 766.525 3792
192.537 778.856 3853
201.751 778.856 3853
210.965 778.856 3853
220.692 780.675 3862
230.464 782.495 3871
241.95 789.772 3907
251.292 789.772 3907
261.836 793.41 3925
272.535 797.251 3944
281.966 797.251 3944
291.397 797.251 3944
301.515 799.07 3953
311.755 801.092 3963
325.041 810.593 4010
334.63 810.593 4010
345.936 814.635 4030
358.132 820.497 4059
367.838 820.497 4059
378.475 822.519 4069
389.159 824.54 4079
398.913 824.54 4079
408.667 824.54 4079
418.421 824.54 4079
427.126 822.519 4069
434.709 818.476 4049
444.391 818.476 4049
454.073 818.476 4049
463.756 818.476 4049
468.878 810.593 4010
476.2 806.752 3991
485.744 806.752 3991
492.93 802.911 3972
500.024 799.07 3953
504.709 791.591 3916
514.073 791.591 3916
521.031 787.953 3898
525.455 780.675 3862
530.952 775.218 3835
540.122 775.218 3835
548.004 773.398 3826
550.891 764.706 3783
558.605 762.887 3774
567.63 762.887 3774
579.405 766.525 3792
588.473 766.525 3792
598.802 768.143 3800
612.048 773.398 3826
624.119 777.037 3844
633.312 777.037 3844
647.017 782.495 3871
660.851 787.953 3898
670.172 787.953 3898
679.493 787.953 3898
690.405 789.772 3907
702.972 793.41 3925
715.806 797.251 3944
725.237 797.251 3944
741.747 804.932 3982
751.269 804.932 3982
760.791 804.932 3982
764.703 799.07 3953
774.156 799.07 3953
783.609 799.07 3953
793.062 799.07 3953
802.515 799.07 3953
811.968 799.07 3953
821.42 799.07 3953
830.873 799.07 3953
834.374 793.41 3925
843.76 793.41 3925
851.189 791.591 3916
860.554 791.591 3916
869.918 791.591 3916
879.282 791.591 3916
882.52 786.133 3889
891.819 786.133 3889
901.119 786.133 3889
906.205 782.495 3871
906.948 775.218 3835
899.636 761.27 3766
908.641 761.27 3766
911.312 756.014 3740
918.287 754.397 3732
921 749.343 3707
919.831 741.258 3667
928.6 741.258 3667
937.369 741.258 3667
941.751 737.821 3650
950.48 737.821 3650
959.208 737.821 3650
965.815 736.204 3642
972.651 734.789 3635
977.024 731.555 3619
985.678 731.555 3619
992.134 729.938 3611
994.394 725.288 3588
1002.97 725.288 3588
1011.55 725.288 3588
1015.59 722.054 3572
1024.13 722.054 3572
1030.65 720.639 3565
1039.17 720.639 3565
1042.99 717.405 3549
1049.41 715.99 3542
1053.4 712.958 3527
1059.72 711.543 3520
1068.14 711.543 3520
1074.11 709.925 3512
1077.89 706.893 3497
1081.9 704.063 3483
1090.23 704.063 3483
1091.62 699.616 3461
1099.89 699.616 3461
1108.17 699.616 3461
1116.45 699.616 3461
1124.72 699.616 3461
1133 699.616 3461
1138.97 698.201 3454
1149.55 699.616 3461
1157.83 699.616 3461
1166.1 699.616 3461
1179.47 702.648 3476
1187.78 702.648 3476
1196.09 702.648 3476
1204.41 702.648 3476
1217.6 705.478 3490
1231.22 708.51 3505
1247.38 712.958 3527
1255.81 712.958 3527
1269.63 715.99 3542
1288.92 722.054 3572
1303.27 725.288 3588
1311.85 725.288 3588
1325.95 728.32 3603
1340.5 731.555 3619
1352.13 733.172 3627
1360.81 733.172 3627
1378.16 737.821 3650
1386.89 737.821 3650
1395.62 737.821 3650
1404.35 737.821 3650
1409.98 736.204 3642
1406.61 729.938 3611
1415.25 729.938 3611
1414.81 725.288 3588
1420.22 723.671 3580
1413.62 715.99 3542
1413.25 711.543 3520
1421.67 711.543 3520
1406.12 699.616 3461
1397.23 691.126 3419
1388.14 682.636 3377
1396.22 682.636 3377
1390.15 675.763 3343
1387.27 670.508 3317
1392.26 669.093 3310
1400.18 669.093 3310
1394.48 662.624 3278
1399.32 661.209 3271
1401.55 658.581 3258
1406.75 657.368 3252
1414.52 657.368 3252
1422.3 657.368 3252
1424.36 654.74 3239
1429.45 653.528 3233
1439.85 654.74 3239
1447.6 654.74 3239
1455.34 654.74 3239
1463.09 654.74 3239
1470.83 654.74 3239
1478.58 654.74 3239
1489.54 656.155 3246
1497.3 656.155 3246
1505.06 656.155 3246
1509.56 654.74 3239
1517.31 654.74 3239
1522.23 653.528 3233
1524.28 651.102 3221
1531.98 651.102 3221
1536.34 649.687 3214
1532.49 644.835 3190
1534.33 642.41 3178
1541.93 642.41 3178
1534.9 636.345 3148
1536.55 633.92 3136
1538.14 631.494 3124
1545.61 631.494 3124
1538.66 625.632 3095
1529.08 618.759 3061
1511.3 608.652 3011
1499.84 601.173 2974
1506.95 601.173 2974
1503.38 596.928 2953
1483.84 586.416 2901
1485.64 584.395 2891
1492.55 584.395 2891
1489.09 580.352 2871
1483.45 575.5 2847
1490.26 575.5 2847
1491.81 573.479 2837
1498.59 573.479 2837
1502.72 572.468 2832
1509.5 572.468 2832
1516.27 572.468 2832
1523.04 572.468 2832
1527.65 571.66 2828
1526.28 568.628 2813
1530.82 567.819 2809
1537.54 567.819 2809
1541.51 566.808 2804
1545.45 565.798 2799
1549.37 564.787 2794
1556.05 564.787 2794
1562.74 564.787 2794
1561.55 561.957 2780
1571.02 562.968 2785
1585.61 565.798 2799
1597.99 567.819 2809
1604.71 567.819 2809
1619.46 570.649 2823
1640.04 575.5 2847
1660.73 580.352 2871
1667.59 580.352 2871
1674.46 580.352 2871
1879.85 643.623 3184
1909.4 651.102 3221
1951.03 662.624 3278
1958.86 662.624 3278
2017.7 679.806 3363
2042.61 685.466 3391
2050.72 685.466 3391
2058.83 685.466 3391
2066.94 685.466 3391
2066.48 682.636 3377
2065.95 679.806 3363
2073.99 679.806 3363
2078.32 678.593 3357
2073.92 674.55 3337
2060.69 667.678 3303
2068.59 667.678 3303
1876.44 583.384 2886
1883.34 583.384 2886
1896.79 585.405 2896
1903.72 585.405 2896
1910.64 585.405 2896
1904.33 581.363 2876
1901.9 578.533 2862
1908.74 578.533 2862
1921.61 580.352 2871
1928.48 580.352 2871
1942.08 582.373 2881
1952.36 583.384 2886
1987.09 591.672 2927
1994.09 591.672 2927
2001.09 591.672 2927
1966.24 579.341 2866
1973.09 579.341 2866
1979.95 579.341 2866
1980.56 577.522 2857
2011.04 584.395 2891
2017.96 584.395 2891
2024.87 584.395 2891
2024.76 582.373 2881
2060.56 590.661 2922
2071.08 591.672 2927
2081.63 592.683 2932
2088.64 592.683 2932
2102.8 594.704 2942
2109.84 594.704 2942
2116.87 594.704 2942
2120.3 593.693 2937
2086.76 582.373 2881
2093.65 582.373 2881
2100.54 582.373 2881
2100.11 580.352 2871
2089.37 575.5 2847
2082.18 571.66 2828
2085.25 570.649 2823
2095.71 571.66 2828
2102.47 571.66 2828
2123.41 575.5 2847
2166.88 585.405 2896
2232.35 601.173 2974
2239.46 601.173 2974
2303.99 616.535 3050
2337.04 623.408 3084
2411.32 641.197 3172
2418.9 641.197 3172
2426.49 641.197 3172
-2460.45 703.612 3440
-2452.22 703.612 3440
-2444 703.612 3440
-2435.77 703.612 3440
-2452.95 710.975 3476
-2459.4 715.27 3497
-2451.04 715.27 3497
-2442.68 715.27 3497
-2439.89 716.907 3505
-2431.5 716.907 3505
-2433.49 719.975 3520
-2425.08 719.975 3520
-2442.06 727.543 3557
-2439.03 729.179 3565
-2435.28 730.611 3572
-2426.73 730.611 3572
-2418.19 730.611 3572
-2394.13 725.906 3549
-2385.65 725.906 3549
-2362.43 721.406 3527
-2358.66 722.838 3534
-2350.21 722.838 3534
-2341.76 722.838 3534
-2333.31 722.838 3534
-2320.25 721.406 3527
-2311.82 721.406 3527
-2303.39 721.406 3527
-2294.95 721.406 3527
-2281.98 719.975 3520
-2268.4 718.338 3512
-2250.34 715.27 3497
-2241.98 715.27 3497
-2233.62 715.27 3497
-2211.89 710.975 3476
-2203.58 710.975 3476
-2195.27 710.975 3476
-2181.92 709.339 3468
-2169.24 707.907 3461
-2156.6 706.475 3454
-2148.34 706.475 3454
-2140.08 706.475 3454
-2131.82 706.475 3454
-2123.56 706.475 3454
-2115.3 706.475 3454
-2107.04 706.475 3454
-2098.78 706.475 3454
-2082.05 703.612 3440
-2073.82 703.612 3440
-2065.6 703.612 3440
-2049 700.748 3426
-2040.8 700.748 3426
-2036.76 702.18 3433
-2028.55 702.18 3433
-2020.35 702.18 3433
-1995.72 696.453 3405
-1987.58 696.453 3405
-1979.44 696.453 3405
-1955.09 690.726 3377
-1935.48 686.635 3357
-1927.45 686.635 3357
-1911.42 683.771 3343
-1907.41 685.203 3350
-1906.77 687.862 3363
-1902.68 689.294 3370
-1894.62 689.294 3370
-1890.48 690.726 3377
-1909.72 700.748 3426
-1913.18 705.043 3447
-1904.94 705.043 3447
-1900.55 706.475 3454
-1896.13 707.907 3461
-1891.67 709.339 3468
-1883.38 709.339 3468
-1879.41 710.975 3476
-1878.63 713.839 3490
-1874.04 715.27 3497
-1865.67 715.27 3497
-1861.56 716.907 3505
-1856.88 718.338 3512
-1860.06 722.838 3534
-1851.61 722.838 3534
-1843.16 722.838 3534
-1842.5 725.906 3549
-1838.14 727.543 3557
-1829.64 727.543 3557
-1821.13 727.543 3557
-1816.7 729.179 3565
-1811.73 730.611 3572
-1803.19 730.611 3572
-1798.66 732.247 3580
-1790.1 732.247 3580
-1781.54 732.247 3580
-1772.98 732.247 3580
-1760.48 730.611 3572
-1751.94 730.611 3572
-1747.3 732.247 3580
-1738.74 732.247 3580
-1734.04 733.883 3588
-1740.37 740.224 3619
-1735.55 741.86 3627
-1726.87 741.86 3627
-1721.99 743.497 3635
-1713.3 743.497 3635
-1711.64 746.565 3650
-1706.64 748.201 3658
-1697.9 748.201 3658
-1700.69 753.314 3683
-1707.04 760.064 3716
-1701.81 761.701 3724
-1692.91 761.701 3724
-1695.31 766.814 3749
-1689.94 768.45 3757
-1688.56 771.927 3774
-1679.54 771.927 3774
-1674.5 773.768 3783
-1665.45 773.768 3783
-1656.41 773.768 3783
-1647.36 773.768 3783
-1619.69 764.973 3740
-1600.41 760.064 3716
-1591.53 760.064 3716
-1575.4 756.587 3699
-1545.8 746.565 3650
-1533.7 744.928 3642
-1525 744.928 3642
-1500.05 736.951 3603
-1478.6 730.611 3572
-1460.59 725.906 3549
-1452.11 725.906 3549
-1440.77 724.475 3542
-1429.07 722.838 3534
-1417.8 721.406 3527
-1409.37 721.406 3527
-1398.15 719.975 3520
-1389.74 719.975 3520
-1378.18 718.338 3512
-1369.78 718.338 3512
-1358.67 716.907 3505
-1364.54 724.475 3542
-1361.82 727.543 3557
-1359.02 730.611 3572
-1350.48 730.611 3572
-1344.94 732.247 3580
-1344.96 736.951 3603
-1342.28 740.224 3619
-1333.63 740.224 3619
-1327.9 741.86 3627
-1322.14 743.497 3635
-1315.98 744.928 3642
-1307.27 744.928 3642
-1301.41 746.565 3650
-1295.52 748.201 3658
-1286.77 748.201 3658
-1278.02 748.201 3658
-1269.27 748.201 3658
-1257.77 746.565 3650
-1246.3 744.928 3642
-1237.59 744.928 3642
-1228.89 744.928 3642
-1220.18 744.928 3642
-1211.47 744.928 3642
-1202.76 744.928 3642
-1194.05 744.928 3642
-1183.06 743.497 3635
-1174.37 743.497 3635
-1165.68 743.497 3635
-1156.98 743.497 3635
-1148.29 743.497 3635
-1141.79 744.928 3642
-1133.08 744.928 3642
-1124.38 744.928 3642
-1115.67 744.928 3642
-1106.96 744.928 3642
-1098.25 744.928 3642
-1087.44 743.497 3635
-1085.58 748.201 3658
-1088.9 756.587 3699
-1087.35 761.701 3724
-1078.45 761.701 3724
-1074.14 764.973 3740
-1074.88 771.927 3774
-1065.85 771.927 3774
-1056.83 771.927 3774
-1047.81 771.927 3774
-1041.26 773.768 3783
-1039.31 779.086 3809
-1030.2 779.086 3809
-1021.09 779.086 3809
-1011.98 779.086 3809
-1002.87 779.086 3809
-989.328 775.609 3792
-982.328 777.245 3800
-975.546 779.086 3809
-977.602 788.086 3853
-968.388 788.086 3853
-959.174 788.086 3853
-949.961 788.086 3853
-940.747 788.086 3853
-927.181 784.404 3835
-918.011 784.404 3835
-908.84 784.404 3835
-899.669 784.404 3835
-886.551 780.927 3818
-877.421 780.927 3818
-868.291 780.927 3818
-859.161 780.927 3818
-848.028 779.086 3809
-838.919 779.086 3809
-826.107 775.609 3792
-817.039 775.609 3792
-807.971 775.609 3792
-798.904 775.609 3792
-789.836 775.609 3792
-780.768 775.609 3792
-771.7 775.609 3792
-757.403 770.291 3766
-745.019 766.814 3749
-729.575 760.064 3716
-720.689 760.064 3716
-708.547 756.587 3699
-695.162 751.678 3675
-681.704 746.565 3650
-672.976 746.565 3650
-662.792 744.928 3642
-652.826 743.497 3635
-642.716 741.86 3627
-634.042 741.86 3627
-622.61 738.588 3611
-612.615 736.951 3603
-601.485 733.883 3588
-592.905 733.883 3588
-584.325 733.883 3588
-574.461 732.247 3580
-565.9 732.247 3580
-558.585 733.883 3588
-550.005 733.883 3588
-541.425 733.883 3588
-531.657 732.247 3580
-521.927 730.611 3572
-513.385 730.611 3572
-504.843 730.611 3572
-497.413 732.247 3580
-488.852 732.247 3580
-481.365 733.883 3588
-472.785 733.883 3588
-464.205 733.883 3588
-455.625 733.883 3588
-447.917 735.315 3595
-439.32 735.315 3595
-430.723 735.315 3595
-422.127 735.315 3595
-413.53 735.315 3595
-404.933 735.315 3595
-396.337 735.315 3595
-387.74 735.315 3595
-379.143 735.315 3595
-370.546 735.315 3595
-361.95 735.315 3595
-353.353 735.315 3595
-344.756 735.315 3595
-336.159 735.315 3595
-328.292 736.951 3603
-319.676 736.951 3603
-311.751 738.588 3611
-303.787 740.224 3619
-295.133 740.224 3619
-286.479 740.224 3619
-279.053 743.497 3635
-270.881 744.928 3642
-262.172 744.928 3642
-253.463 744.928 3642
-244.283 743.497 3635
-235.591 743.497 3635
-226.399 741.86 3627
-217.726 741.86 3627
-209.053 741.86 3627
-200.38 741.86 3627
-191.283 740.224 3619
-182.226 738.588 3611
-98.7176 442.007 2161
-93.5499 442.007 2161
-88.3823 442.007 2161
-83.2147 442.007 2161
-78.1555 442.621 2164
-72.9807 442.621 2164
-67.8059 442.621 2164
-62.5443 442.007 2161
-57.3767 442.007 2161
-52.2091 442.007 2161
-47.0415 442.007 2161
-41.8739 442.007 2161
-36.7063 442.007 2161
-31.5387 442.007 2161
-26.4077 442.621 2164
-21.2329 442.621 2164
-16.0581 442.621 2164
-10.8833 442.621 2164
-5.71647 443.234 2167
-0.535009 443.644 2169
4.65173 443.644 2169
9.85207 444.257 2172
15.046 444.257 2172
20.2399 444.257 2172
25.4689 444.871 2175
30.7123 445.484 2178
35.9206 445.484 2178
41.1288 445.484 2178
46.3371 445.484 2178
51.5454 445.484 2178
56.7536 445.484 2178
61.8765 444.871 2175
67.0776 444.871 2175
72.2787 444.871 2175
77.4798 444.871 2175
143.161 770.291 3766
152.49 771.927 3774
161.515 771.927 3774
170.54 771.927 3774
180.802 777.245 3800
192.537 788.086 3853
201.751 788.086 3853
210.965 788.086 3853
220.178 788.086 3853
230.999 793.609 3880
241.95 799.131 3907
251.292 799.131 3907
263.104 806.699 3944
272.535 806.699 3944
282.61 808.54 3953
292.062 808.54 3953
301.515 808.54 3953
311.755 810.585 3963
325.852 822.244 4020
335.465 822.244 4020
345.936 824.289 4030
358.132 830.221 4059
367.838 830.221 4059
378.475 832.266 4069
388.205 832.266 4069
397.935 832.266 4069
407.665 832.266 4069
417.395 832.266 4069
425.026 828.175 4049
431.595 822.244 4020
440.111 820.198 4010
449.7 820.198 4010
459.289 820.198 4010
466.656 816.312 3991
473.933 812.426 3972
483.431 812.426 3972
489.455 806.699 3944
495.344 800.972 3916
502.389 797.29 3898
511.71 797.29 3898
518.625 793.609 3880
521.781 784.404 3835
529.706 782.563 3826
538.855 782.563 3826
545.569 779.086 3809
549.581 771.927 3774
558.605 771.927 3774
567.63 771.927 3774
579.405 775.609 3792
588.473 775.609 3792
598.802 777.245 3800
607.888 777.245 3800
621.197 782.563 3826
630.346 782.563 3826
642.504 786.245 3844
656.273 791.768 3871
667.077 793.609 3880
676.356 793.609 3880
687.224 795.449 3889
698.136 797.29 3898
712.358 802.813 3925
721.743 802.813 3925
732.992 804.858 3935
742.402 804.858 3935
751.812 804.858 3935
761.221 804.858 3935
770.631 804.858 3935
780.041 804.858 3935
793.062 808.54 3953
802.515 808.54 3953
811.968 808.54 3953
817.68 804.858 3935
827.09 804.858 3935
834.374 802.813 3925
843.76 802.813 3925
853.146 802.813 3925
860.554 800.972 3916
869.918 800.972 3916
879.282 800.972 3916
888.647 800.972 3916
898.011 800.972 3916
907.375 800.972 3916
910.419 795.449 3889
915.462 791.768 3871
916.119 784.404 3835
925.289 784.404 3835
917.647 770.291 3766
920.255 764.973 3740
927.211 763.337 3732
936.135 763.337 3732
938.729 758.223 3707
941.459 753.314 3683
946.138 750.042 3667
952.563 748.201 3658
961.31 748.201 3658
967.936 746.565 3650
974.524 744.928 3642
981.343 743.497 3635
990.035 743.497 3635
994.332 740.224 3619
1000.77 738.588 3611
1002.97 733.883 3588
1011.55 733.883 3588
1015.59 730.611 3572
1024.13 730.611 3572
1030.65 729.179 3565
1039.17 729.179 3565
1045.34 727.543 3557
1049.41 724.475 3542
1055.49 722.838 3534
1061.83 721.406 3527
1070.26 721.406 3527
1076.56 719.975 3520
1080.35 716.907 3505
1081.9 712.407 3483
1090.23 712.407 3483
1093.83 709.339 3468
1099.89 707.907 3461
1108.17 707.907 3461
1116.45 707.907 3461
1124.72 707.907 3461
1133 707.907 3461
1141.28 707.907 3461
1151.88 709.339 3468
1160.17 709.339 3468
1168.46 709.339 3468
1179.47 710.975 3476
1187.78 710.975 3476
1196.09 710.975 3476
1204.41 710.975 3476
1217.6 713.839 3490
1233.68 718.338 3512
1247.38 721.406 3527
1255.81 721.406 3527
1269.63 724.475 3542
1291.81 732.247 3580
1308.72 736.951 3603
1317.34 736.951 3603
1328.9 738.588 3611
1343.46 741.86 3627
1352.13 741.86 3627
1360.81 741.86 3627
1381.18 748.201 3658
1389.93 748.201 3658
1398.68 748.201 3658
1407.43 748.201 3658
1413.08 746.565 3650
1406.61 738.588 3611
1415.25 738.588 3611
1417.57 735.315 3595
1423.39 733.883 3588
1416.41 725.906 3549
1413.25 719.975 3520
1421.67 719.975 3520
1403.27 706.475 3454
1394.37 697.885 3412
1385.26 689.294 3370
1393.32 689.294 3370
1384.75 681.112 3330
1387.27 678.453 3317
1386.79 674.363 3297
1394.68 674.363 3297
1394.48 670.477 3278
1399.32 669.045 3271
1401.55 666.386 3258
1406.75 665.159 3252
1414.52 665.159 3252
1419.68 663.931 3246
1421.72 661.272 3233
1429.45 661.272 3233
1439.85 662.5 3239
1447.6 662.5 3239
1455.34 662.5 3239
1463.09 662.5 3239
1470.83 662.5 3239
1478.58 662.5 3239
1489.54 663.931 3246
1497.3 663.931 3246
1505.06 663.931 3246
1509.56 662.5 3239
1517.31 662.5 3239
1522.23 661.272 3233
1527.12 660.045 3227
1534.83 660.045 3227
1536.34 657.386 3214
1535.38 653.704 3196
1537.22 651.25 3184
1544.84 651.25 3184
1540.75 646.341 3160
1542.43 643.886 3148
1541.09 640.205 3130
1548.58 640.205 3130
1544.63 635.5 3107
1537.57 629.569 3078
1522.34 620.365 3033
1512.95 613.615 3000
1520.13 613.615 3000
1505.92 605.024 2958
1488.95 595.411 2911
1488.21 592.343 2896
1495.13 592.343 2896
1489.09 587.229 2871
1486.06 583.343 2852
1490.26 582.32 2847
1494.44 581.298 2842
1501.23 581.298 2842
1502.72 579.252 2832
1509.5 579.252 2832
1516.27 579.252 2832
1523.04 579.252 2832
1524.95 577.412 2823
1526.28 575.366 2813
1530.82 574.548 2809
1537.54 574.548 2809
1538.76 572.503 2799
1542.69 571.48 2794
1549.37 571.48 2794
1556.05 571.48 2794
1560.5 570.662 2790
1561.55 568.616 2780
1571.02 569.639 2785
1585.61 572.503 2799
1597.99 574.548 2809
1604.71 574.548 2809
1619.46 577.412 2823
1640.04 582.32 2847
1660.73 587.229 2871
1667.59 587.229 2871
1674.46 587.229 2871
1829.48 638.978 3124
1836.96 638.978 3124
1890.48 654.932 3202
1939.04 669.045 3271
1970.07 677.022 3310
1977.99 677.022 3310
2034.5 693.589 3391
2059.47 699.316 3419
2067.65 699.316 3419
2075.83 699.316 3419
2084 699.316 3419
2092.18 699.316 3419
2100.35 699.316 3419
2099.9 696.453 3405
2108.04 696.453 3405
2098.78 690.726 3377
2098.12 687.862 3363
2106.16 687.862 3363
2114.2 687.862 3363
2122.25 687.862 3363
1896.79 592.343 2896
1903.72 592.343 2896
1910.64 592.343 2896
1904.33 588.252 2876
1901.9 585.389 2862
1908.74 585.389 2862
1921.61 587.229 2871
1928.48 587.229 2871
1942.08 589.275 2881
1952.36 590.297 2886
1987.09 598.684 2927
1994.09 598.684 2927
2001.09 598.684 2927
2094.52 615.865 3011
2101.72 615.865 3011
2108.92 615.865 3011
2120.34 617.092 3017
2127.55 617.092 3017
2134.77 617.092 3017
2141.98 617.092 3017
2122.13 609.32 2979
2129.25 609.32 2979
2136.37 609.32 2979
2143.5 609.32 2979
2147.01 608.297 2974
2127.32 600.729 2937
2104.55 592.343 2896
2111.48 592.343 2896
2107.43 589.275 2881
2114.32 589.275 2881
2096.17 582.32 2847
2085.25 577.412 2823
2109.79 582.32 2847
2116.6 582.32 2847
2134.59 585.389 2862
2155.65 589.275 2881
2227.85 607.07 2968
2234.95 607.07 2968
2303.99 623.842 3050
2403.73 648.795 3172
2411.32 648.795 3172
2499.73 670.477 3278
2507.57 670.477 3278
-2460.45 711.852 3440
-2452.22 711.852 3440
-2444 711.852 3440
-2435.77 711.852 3440
-2452.95 719.302 3476
-2459.4 723.647 3497
-2451.04 723.647 3497
-2442.68 723.647 3497
-2439.89 725.303 3505
-2431.5 725.303 3505
-2433.49 728.407 3520
-2425.08 728.407 3520
-2442.06 736.063 3557
-2439.03 737.719 3565
-2435.28 739.167 3572
-2426.73 739.167 3572
-2418.19 739.167 3572
-2394.13 734.408 3549
-2385.65 734.408 3549
-2362.43 729.855 3527
-2358.66 731.304 3534
-2350.21 731.304 3534
-2341.76 731.304 3534
-2333.31 731.304 3534
-2320.25 729.855 3527
-2311.82 729.855 3527
-2303.39 729.855 3527
-2294.95 729.855 3527
-2281.98 728.407 3520
-2268.4 726.751 3512
-2250.34 723.647 3497
-2241.98 723.647 3497
-2233.62 723.647 3497
-2211.89 719.302 3476
-2203.58 719.302 3476
-2195.27 719.302 3476
-2181.92 717.646 3468
-2169.24 716.198 3461
-2156.6 714.749 3454
-2148.34 714.749 3454
-2140.08 714.749 3454
-2131.82 714.749 3454
-2123.56 714.749 3454
-2115.3 714.749 3454
-2107.04 714.749 3454
-2098.78 714.749 3454
-2082.05 711.852 3440
-2073.82 711.852 3440
-2065.6 711.852 3440
-2049 708.955 3426
-2040.8 708.955 3426
-2036.76 710.404 3433
-2028.55 710.404 3433
-2020.35 710.404 3433
-1995.72 704.61 3405
-1987.58 704.61 3405
-1979.44 704.61 3405
-1955.09 698.815 3377
-1935.48 694.677 3357
-1927.45 694.677 3357
-1911.42 691.78 3343
-1907.41 693.228 3350
-1906.77 695.918 3363
-1902.68 697.367 3370
-1894.62 697.367 3370
-1890.48 698.815 3377
-1901.92 706.058 3412
-1901.53 708.955 3426
-1893.34 708.955 3426
-1896.7 713.301 3447
-1892.29 714.749 3454
-1884.03 714.749 3454
-1875.77 714.749 3454
-1875.08 717.646 3468
-1871.1 719.302 3476
-1870.29 722.199 3490
-1861.94 722.199 3490
-1857.31 723.647 3497
-1853.18 725.303 3505
-1852.69 728.407 3520
-1844.28 728.407 3520
-1843.16 731.304 3534
-1842.5 734.408 3549
-1834.01 734.408 3549
-1825.52 734.408 3549
-1821.13 736.063 3557
-1816.7 737.719 3565
-1811.73 739.167 3572
-1803.19 739.167 3572
-1798.66 740.823 3580
-1790.1 740.823 3580
-1781.54 740.823 3580
-1772.98 740.823 3580
-1760.48 739.167 3572
-1751.94 739.167 3572
-1747.3 740.823 3580
-1738.74 740.823 3580
-1734.04 742.478 3588
