-15.7465 220.533 2122
-10.6721 220.533 2122
-5.59248 220.325 2120
-0.522922 220.325 2120
4.54664 220.325 2120
9.62527 220.533 2122
14.6996 220.533 2122
19.8019 220.845 2125
24.8834 220.845 2125
29.965 220.845 2125
35.0465 220.845 2125
40.128 220.845 2125
45.1457 220.533 2122
50.291 220.845 2125
55.3726 220.845 2125
60.5394 221.156 2128
65.6281 221.156 2128
70.7168 221.156 2128
75.8055 221.156 2128
80.8942 221.156 2128
86.1041 221.468 2131
91.2856 221.676 2133
96.3862 221.676 2133
101.63 221.988 2136
107.037 222.611 2142
112.159 222.611 2142
117.282 222.611 2142
122.518 222.819 2144
128.002 223.443 2150
133.453 223.962 2155
138.606 223.962 2155
144.36 224.898 2164
149.88 225.417 2169
155.711 226.353 2178
161.51 227.184 2186
167.195 227.808 2192
172.909 228.431 2198
179.137 229.678 2210
185.09 230.51 2218
190.394 230.51 2218
198.345 233.628 2248
204.536 234.563 2257
210.305 234.979 2261
215.712 234.979 2261
222.292 236.226 2273
227.727 236.226 2273
233.163 236.226 2273
238.598 236.226 2273
244.034 236.226 2273
249.469 236.226 2273
254.905 236.226 2273
260.34 236.226 2273
265.776 236.226 2273
271.211 236.226 2273
276.646 236.226 2273
282.082 236.226 2273
435.281 315.834 3039
442.548 315.834 3039
449.815 315.834 3039
456.18 315.21 3033
463.432 315.21 3033
470.685 315.21 3033
477.15 314.691 3028
484.391 314.691 3028
489.846 313.547 3017
497.061 313.547 3017
503.272 312.924 3011
505.895 310.118 2984
512.171 309.598 2979
516.506 307.935 2963
523.591 307.935 2963
530.676 307.935 2963
536.854 307.416 2958
543.928 307.416 2958
551.001 307.416 2958
557.132 306.896 2953
562.091 305.753 2942
567.192 304.714 2932
574.203 304.714 2932
581.215 304.714 2932
587.223 304.194 2927
594.222 304.194 2927
601.222 304.194 2927
607.182 303.674 2922
614.169 303.674 2922
620.094 303.155 2917
627.069 303.155 2917
635.132 303.674 2922
642.119 303.674 2922
649.106 303.674 2922
656.094 303.674 2922
663.081 303.674 2922
670.068 303.674 2922
675.897 303.155 2917
684.043 303.674 2922
692.213 304.194 2927
699.212 304.194 2927
706.212 304.194 2927
713.211 304.194 2927
720.21 304.194 2927
727.21 304.194 2927
732.955 303.674 2922
739.942 303.674 2922
746.93 303.674 2922
753.917 303.674 2922
760.904 303.674 2922
767.892 303.674 2922
774.879 303.674 2922
781.867 303.674 2922
788.854 303.674 2922
795.841 303.674 2922
802.829 303.674 2922
809.816 303.674 2922
815.406 303.155 2917
820.69 302.531 2911
827.651 302.531 2911
834.612 302.531 2911
840.128 302.012 2906
845.619 301.492 2901
852.556 301.492 2901
859.494 301.492 2901
866.431 301.492 2901
873.368 301.492 2901
880.305 301.492 2901
890.301 302.531 2911
897.262 302.531 2911
909.193 304.194 2927
922.452 306.273 2947
946.216 311.781 3000
953.39 311.781 3000
969.529 314.691 3028
976.77 314.691 3028
984.011 314.691 3028
1259.82 375.28 3611
1274.07 376.943 3627
1285.58 377.774 3635
1294.27 377.774 3635
1308.34 379.333 3650
1326.09 381.931 3675
1346.5 385.257 3707
1355.36 385.257 3707
1379.68 389.622 3749
1388.65 389.622 3749
1397.61 389.622 3749
1406.58 389.622 3749
1403.08 386.192 3716
1408.55 385.257 3707
1417.42 385.257 3707
1423.2 384.426 3699
1413.08 379.333 3650
1418.69 378.502 3642
1427.4 378.502 3642
1436.11 378.502 3642
1429.34 374.449 3603
1431.97 372.89 3588
1418.87 367.278 3534
1427.32 367.278 3534
1423.99 364.264 3505
1411.53 358.964 3454
1396.77 353.144 3398
1404.9 353.144 3398
1404.29 350.961 3377
1384.35 343.998 3310
1381.32 341.296 3284
1378.18 338.594 3258
1391.5 339.945 3271
1399.32 339.945 3271
1410.16 340.672 3278
1423.19 341.92 3290
1439.75 343.998 3310
1447.67 343.998 3310
1464.38 346.077 3330
1481.18 348.155 3350
1489.19 348.155 3350
1497.21 348.155 3350
1505.22 348.155 3350
1513.23 348.155 3350
1549.39 354.599 3412
1557.55 354.599 3412
1565.71 354.599 3412
1557.73 350.961 3377
1565.8 350.961 3377
1461.56 325.915 3136
1469.06 325.915 3136
1436.06 316.977 3050
1427.74 313.547 3017
1434.95 313.547 3017
1418.75 308.455 2968
1415.75 306.273 2947
1408.32 303.155 2917
1405.1 300.972 2896
1412.03 300.972 2896
1416.5 300.453 2891
1418.49 299.413 2881
1425.38 299.413 2881
1432.27 299.413 2881
1436.66 298.894 2876
1443.54 298.894 2876
1445.38 297.855 2866
1452.23 297.855 2866
1457.05 297.439 2862
1461.33 296.919 2857
1465.6 296.4 2852
1472.42 296.4 2852
1474.05 295.36 2842
1478.24 294.841 2837
1485.02 294.841 2837
1489.18 294.321 2832
1495.95 294.321 2832
1502.72 294.321 2832
1509.5 294.321 2832
1516.27 294.321 2832
1523.04 294.321 2832
1529.81 294.321 2832
1534.41 293.905 2828
1541.18 293.905 2828
1547.94 293.905 2828
1551.95 293.386 2823
1558.7 293.386 2823
1565.45 293.386 2823
1572.2 293.386 2823
1581.75 293.905 2828
1588.51 293.905 2828
1595.28 293.905 2828
1602.04 293.905 2828
1611.08 294.321 2832
1617.85 294.321 2832
1624.62 294.321 2832
1631.39 294.321 2832
1638.17 294.321 2832
1644.94 294.321 2832
1651.71 294.321 2832
1658.48 294.321 2832
1668.2 294.841 2837
1674.98 294.841 2837
1684.73 295.36 2842
1691.52 295.36 2842
1698.32 295.36 2842
1705.12 295.36 2842
1711.91 295.36 2842
1718.71 295.36 2842
1725.5 295.36 2842
1732.3 295.36 2842
1736.04 294.841 2837
1737.29 293.905 2828
1744.05 293.905 2828
1750.82 293.905 2828
1751.36 292.866 2818
1758.1 292.866 2818
1761.71 292.346 2813
1768.44 292.346 2813
1769.48 291.411 2804
1773.02 290.891 2799
1779.72 290.891 2799
1786.41 290.891 2799
1787.34 289.956 2790
1794.01 289.956 2790
1797.45 289.436 2785
1800.87 288.917 2780
1807.52 288.917 2780
1814.17 288.917 2780
1818.2 288.501 2776
1821.55 287.981 2771
1828.18 287.981 2771
1832.15 287.566 2767
1838.77 287.566 2767
1845.39 287.566 2767
1852 287.566 2767
1855.26 287.046 2762
1861.87 287.046 2762
1868.47 287.046 2762
1875.08 287.046 2762
1881.68 287.046 2762
1888.29 287.046 2762
1891.46 286.526 2757
1898.05 286.526 2757
1904.65 286.526 2757
1911.24 286.526 2757
1917.83 286.526 2757
1924.42 286.526 2757
1931.02 286.526 2757
1937.61 286.526 2757
1944.2 286.526 2757
1950.8 286.526 2757
1960.94 287.046 2762
1967.54 287.046 2762
1974.15 287.046 2762
1980.75 287.046 2762
1987.36 287.046 2762
1993.96 287.046 2762
1996.95 286.526 2757
2003.54 286.526 2757
2007.21 286.111 2753
2016.72 286.526 2757
2023.32 286.526 2757
2029.91 286.526 2757
2036.5 286.526 2757
2043.09 286.526 2757
2049.69 286.526 2757
2056.28 286.526 2757
2062.87 286.526 2757
2069.47 286.526 2757
2076.06 286.526 2757
2079.63 286.111 2753
2089.24 286.526 2757
2113.32 288.917 2780
2119.97 288.917 2780
2126.62 288.917 2780
-2113.65 300.148 2823
-2117.35 301.637 2837
-2121.72 303.232 2852
-2114.9 303.232 2852
-2115.47 304.295 2862
-2115.26 305.252 2871
-2108.4 305.252 2871
-2101.53 305.252 2871
-2091.02 304.72 2866
-2066.71 302.168 2842
-2059.91 302.168 2842
-2053.12 302.168 2842
-2046.32 302.168 2842
-2035.94 301.637 2837
-2029.15 301.637 2837
-2022.37 301.637 2837
-2019.14 302.168 2842
-2012.34 302.168 2842
-2009.07 302.7 2847
-2002.27 302.7 2847
-1998.96 303.232 2852
-1995.64 303.763 2857
-1992.28 304.295 2862
-1985.44 304.295 2862
-1978.6 304.295 2862
-1974.51 304.72 2866
-1967.65 304.72 2866
-1960.8 304.72 2866
-1953.95 304.72 2866
-1947.09 304.72 2866
-1967.32 308.973 2906
-1960.37 308.973 2906
-1964.18 310.674 2922
-1957.19 310.674 2922
-1956.88 311.737 2932
-1949.86 311.737 2932
-1946.17 312.269 2937
-1949.71 313.97 2953
-1949.22 315.033 2963
-1942.14 315.033 2963
-1938.32 315.565 2968
-1931.22 315.565 2968
-1924.12 315.565 2968
-1917.03 315.565 2968
-1900.28 313.97 2953
-1886.16 312.801 2942
-1879.13 312.801 2942
-1872.09 312.801 2942
-1845.41 309.505 2911
-1838.44 309.505 2911
-1831.48 309.505 2911
-1824.52 309.505 2911
-1811.32 308.441 2901
-2157.7 379.039 3565
-2163.04 381.485 3588
-2154.46 381.485 3588
-2145.88 381.485 3588
-2137.3 381.485 3588
-2128.72 381.485 3588
-2097.1 377.338 3549
-2088.61 377.338 3549
-2080.13 377.338 3549
-2071.64 377.338 3549
-2054.43 375.743 3534
-2037.88 374.255 3520
-2029.46 374.255 3520
-2029.08 375.743 3534
-2020.63 375.743 3534
-2012.18 375.743 3534
-2003.73 375.743 3534
-1995.28 375.743 3534
-1974.46 373.404 3512
-1966.06 373.404 3512
-1957.66 373.404 3512
-1949.26 373.404 3512
-1940.86 373.404 3512
-1936.87 374.255 3520
-1932.28 374.999 3527
-1927.67 375.743 3534
-1919.22 375.743 3534
-1915.09 376.594 3542
-1906.62 376.594 3542
-1901.9 377.338 3549
-1893.42 377.338 3549
-1893.43 379.039 3565
-1888.6 379.784 3572
-1880.06 379.784 3572
-1871.52 379.784 3572
-1867.15 380.634 3580
-1866.38 382.229 3595
-1870.18 384.781 3619
-1861.53 384.781 3619
-1864.65 387.226 3642
-1868.68 389.884 3667
-1863.97 390.735 3675
-1855.18 390.735 3675
-1854.43 392.436 3691
-1853.61 394.137 3707
-1861.17 397.646 3740
-1852.22 397.646 3740
-1860.04 401.261 3774
-1863.76 404.025 3800
-1876.15 408.703 3844
-1866.96 408.703 3844
-1857.77 408.703 3844
-1848.57 408.703 3844
-1843.69 409.66 3853
-1834.47 409.66 3853
-1850.84 415.402 3907
-1849.98 417.315 3925
-1845.29 418.379 3935
-1835.88 418.379 3935
-1826.47 418.379 3935
-1812.44 417.315 3925
-1803.05 417.315 3925
-1793.67 417.315 3925
-1792.92 419.336 3944
-1787.56 420.293 3953
-1778.11 420.293 3953
-1768.65 420.293 3953
-1751.19 418.379 3935
-1741.78 418.379 3935
-1732.37 418.379 3935
-1694.94 411.574 3871
-1636.04 399.453 3757
-1598.47 392.436 3691
-1568.54 387.226 3642
-1559.83 387.226 3642
-1537.92 383.93 3611
-1519.54 381.485 3588
-1494.54 377.338 3549
-1486.05 377.338 3549
-1450.09 370.321 3483
-1426.86 366.493 3447
-1395.57 360.539 3391
-1387.46 360.539 3391
-1370.81 358.307 3370
-1362.75 358.307 3370
-1354.69 358.307 3370
-1346.63 358.307 3370
-1338.57 358.307 3370
-1319.86 355.436 3343
-1306.76 354.054 3330
-1278.52 348.525 3278
-1270.68 348.525 3278
-1250.51 345.123 3246
-1223.61 339.806 3196
-1204.55 336.617 3166
-1196.98 336.617 3166
-1178.14 333.427 3136
-1166.16 332.151 3124
-1150.16 329.706 3101
-1142.74 329.706 3101
-1114.46 323.645 3044
-1099.18 321.306 3022
-1099.9 323.645 3044
-1096.57 324.815 3055
-1099.6 327.898 3084
-1092.23 327.898 3084
-1086.61 328.43 3089
-1079.23 328.43 3089
-1071.84 328.43 3089
-1064.45 328.43 3089
-1057.07 328.43 3089
-1049.68 328.43 3089
-1044.32 329.068 3095
-1036.92 329.068 3095
-1029.51 329.068 3095
-1016.5 327.26 3078
-1009.14 327.26 3078
-999.825 326.622 3072
-988.925 325.453 3061
-910.307 318.436 2995
-903.145 318.436 2995
-895.983 318.436 2995
-888.821 318.436 2995
-875.477 316.203 2974
-866.613 315.565 2968
-859.516 315.565 2968
-846.387 313.332 2947
-836.492 312.269 2937
-828.057 311.737 2932
-821.045 311.737 2932
-814.034 311.737 2932
-805.647 311.206 2927
-798.647 311.206 2927
-794.352 312.269 2937
-787.329 312.269 2937
-780.306 312.269 2937
-774.599 312.801 2942
-767.564 312.801 2942
-760.529 312.801 2942
-753.494 312.801 2942
-743.921 311.737 2932
-735.653 311.206 2927
-728.654 311.206 2927
-721.654 311.206 2927
-710.749 309.505 2911
-703.787 309.505 2911
-696.826 309.505 2911
-687.495 308.441 2901
-680.558 308.441 2901
-673.621 308.441 2901
-668.982 309.505 2911
-662.021 309.505 2911
-660.911 312.269 2937
-655.001 312.801 2942
-651.489 314.502 2958
-644.416 314.502 2958
-638.42 315.033 2963
-633.678 316.203 2974
-633.308 319.605 3006
-626.12 319.605 3006
-634.992 327.898 3084
-627.617 327.898 3084
-621.248 328.43 3089
-613.861 328.43 3089
-608.83 329.706 3101
-603.548 330.875 3112
-599.554 332.789 3130
-592.07 332.789 3130
-584.585 332.789 3130
-580.419 334.703 3148
-573.983 335.341 3154
-566.441 335.341 3154
-559.962 335.979 3160
-552.405 335.979 3160
-545.883 336.617 3166
-538.312 336.617 3166
-530.742 336.617 3166
-523.171 336.617 3166
-515.6 336.617 3166
-556.556 404.982 3809
-548.741 405.939 3818
-539.611 405.939 3818
-530.482 405.939 3818
-522.444 406.79 3826
-525.369 416.359 3916
-516.005 416.359 3916
-509.099 418.379 3935
-504.387 422.313 3972
-497.256 424.333 3991
-487.713 424.333 3991
-478.169 424.333 3991
-467.568 423.376 3982
-458.046 423.376 3982
-445.258 420.293 3953
-433.82 418.379 3935
-424.411 418.379 3935
-415.001 418.379 3935
-405.591 418.379 3935
-395.174 417.315 3925
-384.019 415.402 3907
-374.677 415.402 3907
-364.492 414.445 3898
-352.711 411.574 3871
-341.058 408.703 3844
-331.866 408.703 3844
-321.163 406.79 3826
-312.014 406.79 3826
-301.519 404.982 3809
-292.411 404.982 3809
-282.038 403.175 3792
-270.45 399.453 3757
-272.532 416.359 3916
-266.326 421.356 3963
-256.849 421.356 3963
-247.373 421.356 3963
-237.896 421.356 3963
-228.419 421.356 3963
-118.338 227.743 2142
-113.058 227.424 2139
-107.943 227.424 2139
-102.683 227.105 2136
-97.5755 227.105 2136
-92.4677 227.105 2136
-87.2372 226.786 2133
-82.1365 226.786 2133
-77.0359 226.786 2133
-71.9352 226.786 2133
-66.8346 226.786 2133
-61.676 226.573 2131
-56.5802 226.573 2131
-51.4843 226.573 2131
-46.3884 226.573 2131
-41.2926 226.573 2131
-36.1967 226.573 2131
-31.1008 226.573 2131
-26.005 226.573 2131
-20.9091 226.573 2131
-15.8132 226.573 2131
-10.7023 226.254 2128
-5.60567 225.935 2125
-0.524156 225.935 2125
4.55736 225.935 2125
9.63888 225.935 2125
14.7204 225.935 2125
19.8019 225.935 2125
24.8834 225.935 2125
29.965 225.935 2125
35.0465 225.935 2125
40.128 225.935 2125
45.2733 226.254 2128
50.362 226.254 2128
55.4507 226.254 2128
60.5394 226.254 2128
65.6281 226.254 2128
70.8165 226.573 2131
75.9124 226.573 2131
81.0082 226.573 2131
86.1849 226.786 2133
91.5423 227.424 2139
96.6573 227.424 2139
101.915 227.743 2142
107.037 227.743 2142
112.264 227.955 2144
117.391 227.955 2144
122.861 228.593 2150
128.3 229.125 2155
133.825 229.763 2161
138.992 229.763 2161
144.694 230.613 2169
150.502 231.57 2178
156.139 232.208 2184
161.362 232.208 2184
167.424 233.378 2195
173.381 234.335 2204
179.381 235.292 2213
185.09 235.823 2218
191.166 236.78 2227
198.609 239.332 2251
204.898 240.395 2261
210.305 240.395 2261
216.857 241.671 2273
222.292 241.671 2273
391.435 415.402 3907
403.65 418.379 3935
413.06 418.379 3935
422.469 418.379 3935
431.879 418.379 3935
441.289 418.379 3935
448.523 416.359 3916
457.887 416.359 3916
471.666 420.293 3953
483.431 422.313 3972
492.93 422.313 3972
503.693 423.376 3982
513.215 423.376 3982
522.737 423.376 3982
438.47 320.137 3011
445.671 320.137 3011
456.18 322.476 3033
463.432 322.476 3033
470.685 322.476 3033
477.15 321.944 3028
484.391 321.944 3028
489.846 320.775 3017
497.061 320.775 3017
503.272 320.137 3011
505.895 317.266 2984
512.171 316.734 2979
518.423 316.203 2974
525.535 316.203 2974
531.572 315.565 2968
537.762 315.033 2963
543.928 314.502 2958
551.001 314.502 2958
557.132 313.97 2953
563.047 313.332 2947
568.159 312.269 2937
575.183 312.269 2937
581.215 311.737 2932
588.226 311.737 2932
595.237 311.737 2932
602.249 311.737 2932
608.221 311.206 2927
615.22 311.206 2927
621.157 310.674 2922
628.144 310.674 2922
634.045 310.142 2917
641.02 310.142 2917
649.106 310.674 2922
656.094 310.674 2922
663.081 310.674 2922
668.922 310.142 2917
675.897 310.142 2917
684.043 310.674 2922
691.031 310.674 2922
698.018 310.674 2922
705.005 310.674 2922
711.993 310.674 2922
718.98 310.674 2922
725.968 310.674 2922
731.701 310.142 2917
738.676 310.142 2917
745.652 310.142 2917
752.627 310.142 2917
759.602 310.142 2917
766.578 310.142 2917
773.553 310.142 2917
780.529 310.142 2917
787.504 310.142 2917
794.48 310.142 2917
801.455 310.142 2917
808.43 310.142 2917
813.729 309.505 2911
820.69 309.505 2911
827.651 309.505 2911
834.612 309.505 2911
838.682 308.441 2901
845.619 308.441 2901
852.556 308.441 2901
859.494 308.441 2901
866.431 308.441 2901
873.368 308.441 2901
881.822 308.973 2906
888.771 308.973 2906
895.721 308.973 2906
912.299 312.269 2937
922.452 313.332 2947
955.047 321.944 3028
962.288 321.944 3028
969.529 321.944 3028
976.77 321.944 3028
984.011 321.944 3028
1251.79 381.485 3588
1268.45 383.93 3611
1282.75 385.631 3627
1291.42 385.631 3627
1308.34 388.077 3650
1326.09 390.735 3675
1346.5 394.137 3707
1355.36 394.137 3707
1379.68 398.603 3749
1388.65 398.603 3749
1397.61 398.603 3749
1406.58 398.603 3749
1409.13 396.795 3732
1408.55 394.137 3707
1417.42 394.137 3707
1423.2 393.287 3699
1413.08 388.077 3650
1418.69 387.226 3642
1427.4 387.226 3642
1433.35 386.482 3635
1429.34 383.08 3603
1431.97 381.485 3588
1418.87 375.743 3534
1427.32 375.743 3534
1423.99 372.66 3505
1408.67 366.493 3447
1391.02 359.795 3384
1399.11 359.795 3384
1401.38 358.307 3370
1384.35 351.927 3310
1381.32 349.163 3284
1378.18 346.398 3258
1391.5 347.781 3271
1399.32 347.781 3271
1410.16 348.525 3278
1428.81 351.183 3303
1439.75 351.927 3310
1447.67 351.927 3310
1464.38 354.054 3330
1481.18 356.18 3350
1492.31 356.924 3357
1500.33 356.924 3357
1520.49 359.795 3384
1528.59 359.795 3384
1549.39 362.772 3412
1557.55 362.772 3412
1565.71 362.772 3412
1557.73 359.051 3377
1565.8 359.051 3377
1561.29 356.18 3350
1488.73 337.893 3178
1449.25 327.26 3078
1438.15 323.114 3039
1445.42 323.114 3039
1418.75 315.565 2968
1415.75 313.332 2947
1405.42 309.505 2911
1402.68 307.378 2891
1409.59 307.378 2891
1414.05 306.846 2886
1416.03 305.783 2876
1420.44 305.252 2871
1427.3 305.252 2871
1434.17 305.252 2871
1441.03 305.252 2871
1443.36 304.295 2862
1450.2 304.295 2862
1454.5 303.763 2857
1461.33 303.763 2857
1465.6 303.232 2852
1472.42 303.232 2852
1474.05 302.168 2842
1478.24 301.637 2837
1485.02 301.637 2837
1489.18 301.105 2832
1495.95 301.105 2832
1502.72 301.105 2832
1507.36 300.68 2828
1514.13 300.68 2828
1520.89 300.68 2828
1527.65 300.68 2828
1534.41 300.68 2828
1538.45 300.148 2823
1545.2 300.148 2823
1551.95 300.148 2823
1555.94 299.617 2818
1565.45 300.148 2823
1572.2 300.148 2823
1578.96 300.148 2823
1585.71 300.148 2823
1595.28 300.68 2828
1602.04 300.68 2828
1608.8 300.68 2828
1615.57 300.68 2828
1624.62 301.105 2832
1631.39 301.105 2832
1638.17 301.105 2832
1644.94 301.105 2832
1651.71 301.105 2832
1658.48 301.105 2832
1665.26 301.105 2832
1672.03 301.105 2832
1681.76 301.637 2837
1691.52 302.168 2842
1698.32 302.168 2842
1705.12 302.168 2842
1711.91 302.168 2842
1718.71 302.168 2842
1725.5 302.168 2842
1732.3 302.168 2842
1736.04 301.637 2837
1737.29 300.68 2828
1744.05 300.68 2828
1750.82 300.68 2828
1751.36 299.617 2818
1754.98 299.085 2813
1759.21 298.66 2809
1765.92 298.66 2809
1769.48 298.128 2804
1773.02 297.596 2799
1776.54 297.065 2794
1783.22 297.065 2794
1787.34 296.64 2790
1794.01 296.64 2790
1797.45 296.108 2785
1800.87 295.576 2780
1807.52 295.576 2780
1811.56 295.151 2776
1818.2 295.151 2776
1821.55 294.619 2771
1828.18 294.619 2771
1832.15 294.194 2767
1838.77 294.194 2767
1845.39 294.194 2767
1852 294.194 2767
1855.26 293.663 2762
1861.87 293.663 2762
1868.47 293.663 2762
1875.08 293.663 2762
1881.68 293.663 2762
1888.29 293.663 2762
1894.89 293.663 2762
1901.5 293.663 2762
1908.1 293.663 2762
1914.7 293.663 2762
1917.83 293.131 2757
1924.42 293.131 2757
1931.02 293.131 2757
1937.61 293.131 2757
1944.2 293.131 2757
1950.8 293.131 2757
1960.94 293.663 2762
1967.54 293.663 2762
1974.15 293.663 2762
1980.75 293.663 2762
1987.36 293.663 2762
1993.96 293.663 2762
1996.95 293.131 2757
2003.54 293.131 2757
2007.21 292.706 2753
2016.72 293.131 2757
2023.32 293.131 2757
2029.91 293.131 2757
2036.5 293.131 2757
2043.09 293.131 2757
2049.69 293.131 2757
2056.28 293.131 2757
2062.87 293.131 2757
2069.47 293.131 2757
2076.06 293.131 2757
2079.63 292.706 2753
2106.67 295.576 2780
2120.92 296.64 2790
2127.6 296.64 2790
2134.27 296.64 2790
-2113.65 306.911 2823
-2117.35 308.433 2837
-2121.72 310.064 2852
-2114.9 310.064 2852
-2115.47 311.151 2862
-2115.26 312.129 2871
-2108.4 312.129 2871
-2101.53 312.129 2871
-2091.02 311.586 2866
-2066.71 308.976 2842
-2059.91 308.976 2842
-2053.12 308.976 2842
-2046.32 308.976 2842
-2035.94 308.433 2837
-2029.15 308.433 2837
-2022.37 308.433 2837
-2015.59 308.433 2837
-2008.8 308.433 2837
-2005.55 308.976 2842
-1998.75 308.976 2842
-1995.46 309.52 2847
-1988.65 309.52 2847
-1985.32 310.064 2852
-1978.5 310.064 2852
-1971.68 310.064 2852
-1974.51 311.586 2866
-1967.65 311.586 2866
-1960.8 311.586 2866
-1953.95 311.586 2866
-1947.09 311.586 2866
-1960.55 314.847 2896
-1953.62 314.847 2896
-1953.42 315.934 2906
-1949.82 316.478 2911
-1946.86 317.13 2917
-1939.89 317.13 2917
-1939.54 318.217 2927
-1935.84 318.761 2932
-1942.65 321.044 2953
-1935.58 321.044 2953
-1928.52 321.044 2953
-1921.46 321.044 2953
-1914.4 321.044 2953
-1907.34 321.044 2953
-1893.2 319.848 2942
-1886.16 319.848 2942
-1879.13 319.848 2942
-1868.91 319.305 2937
-1845.41 316.478 2911
-1838.44 316.478 2911
-1831.48 316.478 2911
-1824.52 316.478 2911
-1811.32 315.391 2901
-2157.7 387.579 3565
-2149.18 387.579 3565
-2140.65 387.579 3565
-2132.13 387.579 3565
-2105.14 384.209 3534
-2096.69 384.209 3534
-2088.24 384.209 3534
-2079.78 384.209 3534
-2071.33 384.209 3534
-2062.88 384.209 3534
-2046.29 382.687 3520
-2033.24 381.817 3512
-2024.85 381.817 3512
-2016.45 381.817 3512
-2008.05 381.817 3512
-1999.65 381.817 3512
-1991.25 381.817 3512
-1982.85 381.817 3512
-1974.46 381.817 3512
-1962.14 381.056 3505
-1953.76 381.056 3505
-1945.38 381.056 3505
-1936.99 381.056 3505
-1928.61 381.056 3505
-1928.45 382.687 3520
-1920.03 382.687 3520
-1911.62 382.687 3520
-1910.77 384.209 3534
-1902.32 384.209 3534
-1901.9 385.84 3549
-1893.42 385.84 3549
-1893.43 387.579 3565
-1884.9 387.579 3565
-1880.06 388.34 3572
-1871.52 388.34 3572
-1862.98 388.34 3572
-1866.38 390.841 3595
-1870.18 393.45 3619
-1861.53 393.45 3619
-1864.65 395.951 3642
-1868.68 398.669 3667
-1863.97 399.538 3675
-1855.18 399.538 3675
-1854.43 401.278 3691
-1849.61 402.148 3699
-1849.22 403.996 3716
-1840.34 403.996 3716
-1843.28 406.605 3740
-1851.01 410.301 3774
-1846.38 411.28 3783
-1837.33 411.28 3783
-1828.29 411.28 3783
-1819.24 411.28 3783
-1830.77 415.955 3826
-1821.62 415.955 3826
-1825.26 418.89 3853
-1833.02 422.804 3889
-1827.94 423.782 3898
-1818.61 423.782 3898
-1809.29 423.782 3898
-1799.97 423.782 3898
-1790.65 423.782 3898
-1781.33 423.782 3898
-1767.92 422.804 3889
-1779.42 427.805 3935
-1770.01 427.805 3935
-1760.6 427.805 3935
-1751.19 427.805 3935
-1741.78 427.805 3935
-1732.37 427.805 3935
-1694.94 420.847 3871
-1636.04 408.453 3757
-1598.47 401.278 3691
-1568.54 395.951 3642
-1559.83 395.951 3642
-1537.92 392.58 3611
-1519.54 390.08 3588
-1494.54 385.84 3549
-1486.05 385.84 3549
-1450.09 378.665 3483
-1426.86 374.751 3447
-1395.57 368.662 3391
-1387.46 368.662 3391
-1362.67 364.205 3350
-1351.83 363.444 3343
-1343.84 363.444 3343
-1335.84 363.444 3343
-1327.85 363.444 3343
-1317.49 362.792 3337
-1296.16 359.095 3303
-1273.44 354.964 3265
-1265.64 354.964 3265
-1247.81 352.137 3239
-1221.31 346.81 3190
-1202.27 343.549 3160
-1194.71 343.549 3160
-1178.14 340.939 3136
-1163.92 338.982 3118
-1150.16 337.134 3101
-1142.74 337.134 3101
-1114.46 330.937 3044
-1099.18 328.546 3022
-1099.9 330.937 3044
-1096.57 332.133 3055
-1099.6 335.286 3084
-1092.23 335.286 3084
-1086.61 335.83 3089
-1079.23 335.83 3089
-1071.84 335.83 3089
-1064.45 335.83 3089
-1057.07 335.83 3089
-1049.68 335.83 3089
-1042.29 335.83 3089
-1034.9 335.83 3089
-1025.85 335.286 3084
-1016.5 334.634 3078
-1009.14 334.634 3078
-999.825 333.981 3072
-988.925 332.786 3061
-910.307 325.61 2995
-903.145 325.61 2995
-895.983 325.61 2995
-888.821 325.61 2995
-875.477 323.327 2974
-866.613 322.675 2968
-859.516 322.675 2968
-846.387 320.392 2947
-836.492 319.305 2937
-828.057 318.761 2932
-821.045 318.761 2932
-814.034 318.761 2932
-805.647 318.217 2927
-798.647 318.217 2927
-794.352 319.305 2937
-787.329 319.305 2937
-780.306 319.305 2937
-774.599 319.848 2942
-767.564 319.848 2942
-760.529 319.848 2942
-753.494 319.848 2942
-743.921 318.761 2932
-735.653 318.217 2927
-728.654 318.217 2927
-721.654 318.217 2927
-710.749 316.478 2911
-703.787 316.478 2911
-696.826 316.478 2911
-687.495 315.391 2901
-680.558 315.391 2901
-673.621 315.391 2901
-668.982 316.478 2911
-662.021 316.478 2911
-660.911 319.305 2937
-655.001 319.848 2942
-651.489 321.588 2958
-644.416 321.588 2958
-638.42 322.131 2963
-633.678 323.327 2974
-633.308 326.806 3006
-626.12 326.806 3006
-634.992 335.286 3084
-627.617 335.286 3084
-621.248 335.83 3089
-613.861 335.83 3089
-608.83 337.134 3101
-603.548 338.33 3112
-599.554 340.287 3130
-592.07 340.287 3130
-584.585 340.287 3130
-580.419 342.244 3148
-573.983 342.896 3154
-566.441 342.896 3154
-559.962 343.549 3160
-552.405 343.549 3160
-545.883 344.201 3166
-538.312 344.201 3166
-530.742 344.201 3166
-523.171 344.201 3166
-515.6 344.201 3166
-527.981 413.128 3800
-518.894 413.128 3800
-525.369 425.739 3916
-516.005 425.739 3916
-509.099 427.805 3935
-504.387 431.828 3972
-497.256 433.893 3991
-487.713 433.893 3991
-478.169 433.893 3991
-467.568 432.915 3982
-458.046 432.915 3982
-445.258 429.762 3953
-433.82 427.805 3935
-424.411 427.805 3935
-415.001 427.805 3935
-405.591 427.805 3935
-395.174 426.718 3925
-384.019 424.761 3907
-374.677 424.761 3907
-364.492 423.782 3898
-352.711 420.847 3871
-342.655 419.869 3862
-333.42 419.869 3862
-322.674 417.912 3844
-313.482 417.912 3844
-302.865 415.955 3826
-293.716 415.955 3826
-283.972 415.085 3818
-274.194 414.107 3809
-272.532 425.739 3916
-266.326 430.849 3963
-256.849 430.849 3963
-247.373 430.849 3963
-237.896 430.849 3963
-228.419 430.849 3963
-217.395 427.805 3935
-113.216 232.874 2142
-108.094 232.874 2142
-102.972 232.874 2142
-97.8496 232.874 2142
-92.5976 232.548 2139
-87.3599 232.221 2136
-82.252 232.221 2136
-77.1442 232.221 2136
-71.9352 231.895 2133
-66.8346 231.895 2133
-61.7339 231.895 2133
-56.6333 231.895 2133
-51.5326 231.895 2133
-46.432 231.895 2133
-41.3313 231.895 2133
-36.2307 231.895 2133
-31.13 231.895 2133
-26.0294 231.895 2133
-20.9091 231.678 2131
-15.8132 231.678 2131
-10.7174 231.678 2131
-5.61359 231.352 2128
-0.524896 231.352 2128
4.5638 231.352 2128
9.65249 231.352 2128
14.7412 231.352 2128
19.8299 231.352 2128
24.9186 231.352 2128
30.0073 231.352 2128
35.096 231.352 2128
40.1846 231.352 2128
45.2733 231.352 2128
50.362 231.352 2128
55.4507 231.352 2128
60.6248 231.678 2131
65.7823 231.895 2133
70.883 231.895 2133
75.9836 231.895 2133
81.1983 232.221 2136
86.4273 232.548 2139
91.6707 232.874 2142
96.7929 232.874 2142
102.153 233.417 2147
107.437 233.744 2150
112.735 234.07 2153
117.884 234.07 2153
123.147 234.287 2155
128.657 234.939 2161
134.32 235.809 2169
139.507 235.809 2169
144.894 236.135 2172
150.502 236.788 2178
156.711 238.31 2192
161.953 238.31 2192
167.653 238.962 2198
173.853 240.267 2210
180.029 241.463 2221
185.34 241.463 2221
191.681 242.767 2233
200.021 246.464 2267
205.442 246.464 2267
363.406 424.761 3907
372.749 424.761 3907
382.972 425.739 3916
394.24 427.805 3935
405.496 429.762 3953
414.949 429.762 3953
424.402 429.762 3953
431.879 427.805 3935
441.289 427.805 3935
448.523 425.739 3916
457.887 425.739 3916
471.666 429.762 3953
483.431 431.828 3972
492.93 431.828 3972
503.693 432.915 3982
513.215 432.915 3982
522.737 432.915 3982
439.344 328.002 3017
446.559 328.002 3017
456.18 329.741 3033
463.432 329.741 3033
470.685 329.741 3033
477.15 329.198 3028
484.391 329.198 3028
489.846 328.002 3017
497.061 328.002 3017
503.272 327.35 3011
505.895 324.414 2984
512.171 323.871 2979
519.295 323.871 2979
526.418 323.871 2979
532.647 323.327 2974
538.669 322.675 2968
544.847 322.131 2963
551.933 322.131 2963
557.132 321.044 2953
563.047 320.392 2947
568.159 319.305 2937
575.183 319.305 2937
582.206 319.305 2937
588.226 318.761 2932
595.237 318.761 2932
602.249 318.761 2932
608.221 318.217 2927
615.22 318.217 2927
621.157 317.674 2922
628.144 317.674 2922
634.045 317.13 2917
641.02 317.13 2917
649.106 317.674 2922
656.094 317.674 2922
663.081 317.674 2922
668.922 317.13 2917
677.056 317.674 2922
684.043 317.674 2922
691.031 317.674 2922
698.018 317.674 2922
705.005 317.674 2922
711.993 317.674 2922
718.98 317.674 2922
725.968 317.674 2922
731.701 317.13 2917
738.676 317.13 2917
745.652 317.13 2917
752.627 317.13 2917
759.602 317.13 2917
766.578 317.13 2917
773.553 317.13 2917
780.529 317.13 2917
787.504 317.13 2917
794.48 317.13 2917
801.455 317.13 2917
808.43 317.13 2917
813.729 316.478 2911
820.69 316.478 2911
827.651 316.478 2911
834.612 316.478 2911
838.682 315.391 2901
845.619 315.391 2901
852.556 315.391 2901
859.494 315.391 2901
866.431 315.391 2901
873.368 315.391 2901
881.822 315.934 2906
888.771 315.934 2906
895.721 315.934 2906
913.852 319.848 2942
922.452 320.392 2947
955.047 329.198 3028
962.288 329.198 3028
973.051 330.394 3039
980.318 330.394 3039
987.586 330.394 3039
994.853 330.394 3039
1206.07 381.056 3505
1214.46 381.056 3505
1251.79 390.08 3588
1268.45 392.58 3611
1282.75 394.32 3627
1291.42 394.32 3627
1308.34 396.82 3650
1326.09 399.538 3675
1346.5 403.017 3707
1355.36 403.017 3707
1379.68 407.583 3749
1388.65 407.583 3749
1397.61 407.583 3749
1406.58 407.583 3749
1409.13 405.735 3732
1411.97 403.996 3716
1420.86 403.996 3716
1426.28 403.017 3707
1416.17 397.69 3658
1418.69 395.951 3642
1427.4 395.951 3642
1433.35 395.19 3635
1429.34 391.711 3603
1431.97 390.08 3588
1418.87 384.209 3534
1427.32 384.209 3534
1423.99 381.056 3505
1408.67 374.751 3447
1391.02 367.901 3384
1399.11 367.901 3384
1401.38 366.379 3370
1384.35 359.856 3310
1381.32 357.03 3284
1381.14 354.964 3265
1391.5 355.616 3271
1399.32 355.616 3271
1410.16 356.377 3278
1428.81 359.095 3303
1439.75 359.856 3310
1447.67 359.856 3310
1464.38 362.031 3330
1484.28 364.966 3357
1498.09 366.379 3370
1506.14 366.379 3370
1520.49 367.901 3384
1528.59 367.901 3384
1549.39 370.946 3412
1557.55 370.946 3412
1565.71 370.946 3412
1557.73 367.14 3377
1565.8 367.14 3377
1561.29 364.205 3350
1491.54 346.158 3184
1476.55 340.939 3136
1453.77 333.981 3072
1461.11 333.981 3072
1442.17 328.002 3017
1418.64 321.044 2953
1413.15 318.217 2927
1409.96 315.934 2906
1416.91 315.934 2906
1414.05 313.76 2886
1418.49 313.216 2881
1420.44 312.129 2871
1427.3 312.129 2871
1434.17 312.129 2871
1441.03 312.129 2871
1443.36 311.151 2862
1450.2 311.151 2862
1454.5 310.607 2857
1461.33 310.607 2857
1465.6 310.064 2852
1472.42 310.064 2852
1474.05 308.976 2842
1478.24 308.433 2837
1485.02 308.433 2837
1489.18 307.889 2832
1495.95 307.889 2832
1502.72 307.889 2832
1507.36 307.454 2828
1514.13 307.454 2828
1520.89 307.454 2828
1527.65 307.454 2828
1534.41 307.454 2828
1538.45 306.911 2823
1545.2 306.911 2823
1551.95 306.911 2823
1555.94 306.367 2818
1565.45 306.911 2823
1572.2 306.911 2823
1578.96 306.911 2823
1585.71 306.911 2823
1595.28 307.454 2828
1602.04 307.454 2828
1608.8 307.454 2828
1615.57 307.454 2828
1624.62 307.889 2832
1631.39 307.889 2832
1638.17 307.889 2832
1644.94 307.889 2832
1651.71 307.889 2832
1658.48 307.889 2832
1665.26 307.889 2832
1672.03 307.889 2832
1681.76 308.433 2837
1691.52 308.976 2842
1698.32 308.976 2842
1705.12 308.976 2842
1711.91 308.976 2842
1718.71 308.976 2842
1725.5 308.976 2842
1732.3 308.976 2842
1736.04 308.433 2837
1737.29 307.454 2828
1744.05 307.454 2828
1750.82 307.454 2828
1751.36 306.367 2818
1754.98 305.824 2813
1759.21 305.389 2809
1765.92 305.389 2809
1769.48 304.845 2804
1773.02 304.301 2799
1776.54 303.758 2794
1783.22 303.758 2794
1787.34 303.323 2790
1794.01 303.323 2790
1797.45 302.779 2785
1800.87 302.236 2780
1807.52 302.236 2780
1811.56 301.801 2776
1818.2 301.801 2776
1821.55 301.257 2771
1828.18 301.257 2771
1832.15 300.823 2767
1838.77 300.823 2767
1845.39 300.823 2767
1852 300.823 2767
1855.26 300.279 2762
1861.87 300.279 2762
1868.47 300.279 2762
1875.08 300.279 2762
1881.68 300.279 2762
1888.29 300.279 2762
1894.89 300.279 2762
1901.5 300.279 2762
1908.1 300.279 2762
1914.7 300.279 2762
1917.83 299.735 2757
1924.42 299.735 2757
1931.02 299.735 2757
1937.61 299.735 2757
1944.2 299.735 2757
1950.8 299.735 2757
1960.94 300.279 2762
1967.54 300.279 2762
1974.15 300.279 2762
1980.75 300.279 2762
1987.36 300.279 2762
1993.96 300.279 2762
1996.95 299.735 2757
2003.54 299.735 2757
2007.21 299.3 2753
2016.72 299.735 2757
2023.32 299.735 2757
2029.91 299.735 2757
2036.5 299.735 2757
2043.09 299.735 2757
2049.69 299.735 2757
2056.28 299.735 2757
2062.87 299.735 2757
2069.47 299.735 2757
2076.06 299.735 2757
2079.63 299.3 2753
2106.67 302.236 2780
2120.92 303.323 2790
2127.6 303.323 2790
2134.27 303.323 2790
-2124.13 315.229 2837
-2121.08 315.784 2842
-2125.44 317.451 2857
-2118.61 317.451 2857
-2115.47 318.007 2862
-2115.26 319.007 2871
-2108.4 319.007 2871
-2101.53 319.007 2871
-2091.02 318.451 2866
-2070.35 316.34 2847
-2063.54 316.34 2847
-2053.12 315.784 2842
-2046.32 315.784 2842
-2035.94 315.229 2837
-2029.15 315.229 2837
-2022.37 315.229 2837
-2015.59 315.229 2837
-2012.34 315.784 2842
-2009.07 316.34 2847
-2002.27 316.34 2847
-1995.46 316.34 2847
-1992.14 316.896 2852
-1985.32 316.896 2852
-1978.5 316.896 2852
-1978.6 318.007 2862
-1974.51 318.451 2866
-1967.65 318.451 2866
-1960.8 318.451 2866
-1953.95 318.451 2866
-1947.09 318.451 2866
-1960.55 321.785 2896
-1953.62 321.785 2896
-1950.06 322.34 2901
-1949.82 323.451 2911
-1942.86 323.451 2911
-1935.9 323.451 2911
-1932.91 324.118 2917
-1935.84 325.785 2932
-1938.7 327.451 2947
-1931.65 327.451 2947
-1931.79 328.674 2958
-1924.71 328.674 2958
-1917.64 328.674 2958
-1910.57 328.674 2958
-1889.98 326.34 2937
-1882.96 326.34 2937
-1875.93 326.34 2937
-1868.91 326.34 2937
-1855.55 325.229 2927
-1842.23 324.118 2917
-1850.99 326.896 2942
-1843.95 326.896 2942
-1850.03 329.229 2963
-1842.94 329.229 2963
-1835.86 329.229 2963
-2157.7 396.119 3565
-2149.18 396.119 3565
-2140.65 396.119 3565
-2113.59 392.675 3534
-2100.97 391.897 3527
-2092.53 391.897 3527
-2062.24 387.786 3490
-2062.72 389.453 3505
-2054.34 389.453 3505
-2045.95 389.453 3505
-2037.57 389.453 3505
-2024.56 388.564 3497
-2016.2 388.564 3497
-2007.84 388.564 3497
-1999.47 388.564 3497
-1991.11 388.564 3497
-1982.75 388.564 3497
-1974.39 388.564 3497
-1962.09 387.786 3490
-1953.74 387.786 3490
-1945.4 387.786 3490
-1937.05 387.786 3490
-1928.71 387.786 3490
-1924.21 388.564 3497
-1920.23 389.453 3505
-1920.03 391.119 3520
-1911.62 391.119 3520
-1906.98 391.897 3527
-1902.32 392.675 3534
-1906.19 395.23 3557
-1897.69 395.23 3557
-1893.43 396.119 3565
-1888.6 396.897 3572
-1884.27 397.786 3580
-1875.71 397.786 3580
-1867.15 397.786 3580
-1870.53 400.342 3603
-1878.45 403.897 3635
-1869.76 403.897 3635
-1872.84 406.453 3658
-1872.76 408.342 3675
-1872.09 410.12 3691
-1863.26 410.12 3691
-1862.47 411.897 3707
-1858.11 412.898 3716
-1857.18 414.675 3732
-1848.26 414.675 3732
-1843.28 415.564 3740
-1842.67 417.453 3757
-1841.99 419.342 3774
-1832.96 419.342 3774
-1823.94 419.342 3774
-1814.91 419.342 3774
-1810.19 420.342 3783
-1801.15 420.342 3783
-1821 427.12 3844
-1820.29 429.12 3862
-1823.72 432.12 3889
-1814.42 432.12 3889
-1805.12 432.12 3889
-1795.82 432.12 3889
-1786.52 432.12 3889
-1777.22 432.12 3889
-1767.92 432.12 3889
-1774.9 436.12 3925
-1778.11 439.231 3953
-1768.65 439.231 3953
-1759.2 439.231 3953
-1749.75 439.231 3953
-1740.29 439.231 3953
-1706.76 433.12 3898
-1651.28 421.342 3792
-1623.59 416.564 3749
-1586.2 409.231 3683
-1577.39 409.231 3683
-1551.12 404.675 3642
-1529.28 401.231 3611
-1504.23 396.897 3572
-1495.68 396.897 3572
-1459.25 389.453 3505
-1435.55 385.341 3468
-1407.09 379.897 3419
-1398.92 379.897 3419
-1373.66 375.23 3377
-1357.49 373.008 3357
-1346.65 372.23 3350
-1338.64 372.23 3350
-1330.63 372.23 3350
-1317.49 370.786 3337
-1296.16 367.008 3303
-1273.44 362.785 3265
-1265.64 362.785 3265
-1247.81 359.896 3239
-1223.61 355.119 3196
-1204.55 351.785 3166
-1196.98 351.785 3166
-1175.88 347.785 3130
-1161.68 345.785 3112
-1150.16 344.563 3101
-1142.74 344.563 3101
-1112.63 337.674 3039
-1105.36 337.674 3039
-1099.9 338.229 3044
-1100.88 340.785 3067
-1099.6 342.674 3084
-1092.23 342.674 3084
-1088.72 343.896 3095
-1081.32 343.896 3095
-1073.92 343.896 3095
-1066.52 343.896 3095
-1059.12 343.896 3095
-1051.72 343.896 3095
-1044.32 343.896 3095
-1036.92 343.896 3095
-1027.52 343.229 3089
-1018.48 342.674 3084
-1011.11 342.674 3084
-1001.78 342.007 3078
-994.417 342.007 3078
-910.307 332.785 2995
-903.145 332.785 2995
-895.983 332.785 2995
-888.821 332.785 2995
-875.477 330.451 2974
-866.613 329.785 2968
-859.516 329.785 2968
-846.387 327.451 2947
-836.492 326.34 2937
-828.057 325.785 2932
-821.045 325.785 2932
-814.034 325.785 2932
-805.647 325.229 2927
-798.647 325.229 2927
-794.352 326.34 2937
-787.329 326.34 2937
-780.306 326.34 2937
-774.599 326.896 2942
-767.564 326.896 2942
-760.529 326.896 2942
-753.494 326.896 2942
-743.921 325.785 2932
-735.653 325.229 2927
-728.654 325.229 2927
-721.654 325.229 2927
-710.749 323.451 2911
-703.787 323.451 2911
-696.826 323.451 2911
-687.495 322.34 2901
-680.558 322.34 2901
-673.621 322.34 2901
-668.982 323.451 2911
-662.021 323.451 2911
-662.036 326.896 2942
-656.114 327.451 2947
-651.489 328.674 2958
-644.416 328.674 2958
-639.497 329.785 2968
-633.678 330.451 2974
-633.308 334.007 3006
-626.12 334.007 3006
-632.521 341.34 3072
-627.617 342.674 3084
-621.248 343.229 3089
-613.861 343.229 3089
-608.83 344.563 3101
-603.548 345.785 3112
-599.554 347.785 3130
-592.07 347.785 3130
-584.585 347.785 3130
-580.419 349.785 3148
-573.983 350.452 3154
-566.441 350.452 3154
-559.962 351.118 3160
-552.405 351.118 3160
-545.883 351.785 3166
-538.312 351.785 3166
-530.742 351.785 3166
-523.171 351.785 3166
-515.6 351.785 3166
-527.981 422.231 3800
-518.894 422.231 3800
-525.369 435.12 3916
-516.005 435.12 3916
-509.099 437.231 3935
-504.387 441.343 3972
-497.256 443.454 3991
-487.713 443.454 3991
-478.169 443.454 3991
-467.568 442.454 3982
-458.046 442.454 3982
-445.258 439.231 3953
-433.82 437.231 3935
-424.411 437.231 3935
-415.001 437.231 3935
-405.591 437.231 3935
-395.174 436.12 3925
-384.019 434.12 3907
-374.677 434.12 3907
-364.492 433.12 3898
-352.711 430.12 3871
-342.655 429.12 3862
-333.42 429.12 3862
-322.674 427.12 3844
-313.482 427.12 3844
-302.865 425.12 3826
-293.716 425.12 3826
-283.972 424.231 3818
-274.194 423.231 3809
-265.085 423.231 3809
-266.326 440.343 3963
-256.849 440.343 3963
-247.373 440.343 3963
-237.896 440.343 3963
-228.419 440.343 3963
-217.395 437.231 3935
-113.216 238.005 2142
-108.094 238.005 2142
-102.972 238.005 2142
-97.8496 238.005 2142
-92.5976 237.672 2139
-87.3599 237.338 2136
-82.252 237.338 2136
-77.1442 237.338 2136
-71.9352 237.005 2133
-66.8346 237.005 2133
-61.7339 237.005 2133
-56.6333 237.005 2133
-51.5326 237.005 2133
-46.432 237.005 2133
-41.3313 237.005 2133
-36.2307 237.005 2133
-31.13 237.005 2133
-26.0294 237.005 2133
-20.9091 236.783 2131
-15.8132 236.783 2131
-10.7174 236.783 2131
-5.61359 236.449 2128
-0.524896 236.449 2128
4.5638 236.449 2128
9.65249 236.449 2128
14.7412 236.449 2128
19.8299 236.449 2128
24.9186 236.449 2128
30.0073 236.449 2128
35.096 236.449 2128
40.1846 236.449 2128
45.2733 236.449 2128
50.362 236.449 2128
55.4507 236.449 2128
60.6248 236.783 2131
65.7823 237.005 2133
70.883 237.005 2133
75.9836 237.005 2133
81.1983 237.338 2136
86.4273 237.672 2139
91.6707 238.005 2142
96.7929 238.005 2142
102.153 238.561 2147
107.437 238.894 2150
112.735 239.227 2153
117.884 239.227 2153
123.147 239.449 2155
128.657 240.116 2161
134.32 241.005 2169
139.507 241.005 2169
144.894 241.338 2172
150.502 242.005 2178
156.711 243.561 2192
161.953 243.561 2192
167.653 244.227 2198
173.853 245.561 2210
180.029 246.783 2221
185.34 246.783 2221
191.681 248.116 2233
200.021 251.894 2267
205.442 251.894 2267
363.406 434.12 3907
372.749 434.12 3907
382.972 435.12 3916
394.24 437.231 3935
405.496 439.231 3953
414.949 439.231 3953
424.402 439.231 3953
431.879 437.231 3935
441.289 437.231 3935
448.523 435.12 3916
457.887 435.12 3916
471.666 439.231 3953
483.431 441.343 3972
492.93 441.343 3972
503.693 442.454 3982
513.215 442.454 3982
522.737 442.454 3982
439.344 335.229 3017
446.559 335.229 3017
456.18 337.007 3033
463.432 337.007 3033
470.685 337.007 3033
477.15 336.451 3028
484.391 336.451 3028
489.846 335.229 3017
497.061 335.229 3017
502.437 334.007 3006
505.895 331.562 2984
512.171 331.007 2979
519.295 331.007 2979
526.418 331.007 2979
532.647 330.451 2974
538.669 329.785 2968
544.847 329.229 2963
551.933 329.229 2963
557.132 328.118 2953
563.047 327.451 2947
568.159 326.34 2937
575.183 326.34 2937
582.206 326.34 2937
588.226 325.785 2932
595.237 325.785 2932
602.249 325.785 2932
608.221 325.229 2927
615.22 325.229 2927
621.157 324.673 2922
628.144 324.673 2922
634.045 324.118 2917
641.02 324.118 2917
647.996 324.118 2917
654.971 324.118 2917
661.946 324.118 2917
668.922 324.118 2917
677.056 324.673 2922
684.043 324.673 2922
691.031 324.673 2922
698.018 324.673 2922
705.005 324.673 2922
711.993 324.673 2922
718.98 324.673 2922
725.968 324.673 2922
731.701 324.118 2917
738.676 324.118 2917
745.652 324.118 2917
752.627 324.118 2917
759.602 324.118 2917
766.578 324.118 2917
773.553 324.118 2917
780.529 324.118 2917
787.504 324.118 2917
794.48 324.118 2917
801.455 324.118 2917
808.43 324.118 2917
813.729 323.451 2911
820.69 323.451 2911
826.229 322.896 2906
833.178 322.896 2906
838.682 322.34 2901
845.619 322.34 2901
852.556 322.34 2901
859.494 322.34 2901
866.431 322.34 2901
873.368 322.34 2901
881.822 322.896 2906
888.771 322.896 2906
895.721 322.896 2906
913.852 326.896 2942
922.452 327.451 2947
955.047 336.451 3028
962.288 336.451 3028
973.051 337.674 3039
980.318 337.674 3039
987.586 337.674 3039
994.853 337.674 3039
1206.07 389.453 3505
1214.46 389.453 3505
1246.21 396.897 3572
1260.37 398.675 3588
1277.09 401.231 3611
1285.72 401.231 3611
1300.09 403.008 3627
1319.95 406.453 3658
1343.59 411.009 3699
1352.44 411.009 3699
1379.68 416.564 3749
1388.65 416.564 3749
1397.61 416.564 3749
1406.58 416.564 3749
1409.13 414.675 3732
1411.97 412.898 3716
1420.86 412.898 3716
1426.28 411.897 3707
1416.17 406.453 3658
1418.69 404.675 3642
1427.4 404.675 3642
1433.35 403.897 3635
1426.17 399.453 3595
1431.97 398.675 3588
1418.87 392.675 3534
1427.32 392.675 3534
1423.99 389.453 3505
1408.67 383.008 3447
1391.02 376.008 3384
1399.11 376.008 3384
1393.06 372.23 3350
1384.35 367.785 3310
1381.32 364.897 3284
1381.14 362.785 3265
1391.5 363.452 3271
1399.32 363.452 3271
1410.16 364.23 3278
1428.81 367.008 3303
1439.75 367.785 3310
1447.67 367.785 3310
1464.38 370.008 3330
1484.28 373.008 3357
1498.09 374.452 3370
1506.14 374.452 3370
1520.49 376.008 3384
1528.59 376.008 3384
1549.39 379.119 3412
1557.55 379.119 3412
1565.71 379.119 3412
1557.73 375.23 3377
1565.8 375.23 3377
1561.29 372.23 3350
1491.54 353.785 3184
1476.55 348.452 3136
1453.77 341.34 3072
1461.11 341.34 3072
1442.17 335.229 3017
1418.64 328.118 2953
1413.15 325.229 2927
1409.96 322.896 2906
1416.91 322.896 2906
1414.05 320.673 2886
1418.49 320.118 2881
1420.44 319.007 2871
1427.3 319.007 2871
1434.17 319.007 2871
1438.52 318.451 2866
1440.84 317.451 2857
1447.67 317.451 2857
1454.5 317.451 2857
1461.33 317.451 2857
1465.6 316.896 2852
1472.42 316.896 2852
1474.05 315.784 2842
1478.24 315.229 2837
1485.02 315.229 2837
1489.18 314.673 2832
1495.95 314.673 2832
1502.72 314.673 2832
1507.36 314.229 2828
1514.13 314.229 2828
1520.89 314.229 2828
1527.65 314.229 2828
1531.7 313.673 2823
1538.45 313.673 2823
1545.2 313.673 2823
1549.2 313.118 2818
1555.94 313.118 2818
1562.68 313.118 2818
1572.2 313.673 2823
1578.96 313.673 2823
1585.71 313.673 2823
1592.46 313.673 2823
1602.04 314.229 2828
1608.8 314.229 2828
1615.57 314.229 2828
1622.33 314.229 2828
1629.09 314.229 2828
1638.17 314.673 2832
1644.94 314.673 2832
1651.71 314.673 2832
1656.14 314.229 2828
1662.9 314.229 2828
1669.67 314.229 2828
1678.8 314.673 2832
1688.55 315.229 2837
1695.33 315.229 2837
1702.12 315.229 2837
1711.91 315.784 2842
1718.71 315.784 2842
1725.5 315.784 2842
1729.25 315.229 2837
1732.98 314.673 2832
1737.29 314.229 2828
1740.97 313.673 2823
1747.72 313.673 2823
1748.26 312.562 2813
1752.49 312.118 2809
1756.07 311.562 2804
1762.78 311.562 2804
1766.33 311.007 2799
1773.02 311.007 2799
1776.54 310.451 2794
1783.22 310.451 2794
1787.34 310.006 2790
1790.79 309.451 2785
1797.45 309.451 2785
1798.28 308.451 2776
1804.92 308.451 2776
1811.56 308.451 2776
1814.92 307.895 2771
1821.55 307.895 2771
1828.18 307.895 2771
1832.15 307.451 2767
1838.77 307.451 2767
1845.39 307.451 2767
1852 307.451 2767
1855.26 306.895 2762
1861.87 306.895 2762
1868.47 306.895 2762
1875.08 306.895 2762
1881.68 306.895 2762
1888.29 306.895 2762
1894.89 306.895 2762
1901.5 306.895 2762
1908.1 306.895 2762
1914.7 306.895 2762
1917.83 306.34 2757
1924.42 306.34 2757
1931.02 306.34 2757
1937.61 306.34 2757
1944.2 306.34 2757
1947.97 305.895 2753
1957.39 306.34 2757
1963.98 306.34 2757
1974.15 306.895 2762
1980.75 306.895 2762
1987.36 306.895 2762
1993.96 306.895 2762
1996.95 306.34 2757
2000.63 305.895 2753
2003.57 305.34 2748
2010.14 305.34 2748
2016.71 305.34 2748
2026.96 305.895 2753
2033.55 305.895 2753
2040.13 305.895 2753
2046.71 305.895 2753
2056.28 306.34 2757
2062.87 306.34 2757
2069.47 306.34 2757
2076.06 306.34 2757
2082.65 306.34 2757
2106.67 308.895 2780
2120.92 310.006 2790
2127.6 310.006 2790
2134.27 310.006 2790
-2124.13 322.025 2837
-2121.08 322.592 2842
-2125.44 324.295 2857
-2118.61 324.295 2857
-2115.47 324.863 2862
-2115.26 325.884 2871
-2108.4 325.884 2871
-2101.53 325.884 2871
-2091.02 325.317 2866
-2070.35 323.16 2847
-2063.54 323.16 2847
-2056.73 323.16 2847
-2049.92 323.16 2847
-2039.53 322.592 2842
-2032.73 322.592 2842
-2022.37 322.025 2837
-2015.59 322.025 2837
-2012.34 322.592 2842
-2009.07 323.16 2847
-2002.27 323.16 2847
-1995.46 323.16 2847
-1992.14 323.728 2852
-1985.32 323.728 2852
-1978.5 323.728 2852
-1978.6 324.863 2862
-1977.95 325.884 2871
-1971.09 325.884 2871
-1964.22 325.884 2871
-1953.95 325.317 2866
-1947.09 325.317 2866
-1957.16 328.154 2891
-1950.25 328.154 2891
-1950.06 329.289 2901
-1943.12 329.289 2901
-1942.86 330.425 2911
-1935.9 330.425 2911
-1932.91 331.106 2917
-1932.54 332.241 2927
-1938.7 334.511 2947
-1931.65 334.511 2947
-1931.79 335.759 2958
-1924.71 335.759 2958
-1917.64 335.759 2958
-1910.57 335.759 2958
-1889.98 333.376 2937
-1882.96 333.376 2937
-1875.93 333.376 2937
-1868.91 333.376 2937
-1855.55 332.241 2927
-1842.23 331.106 2917
-1857.91 335.192 2953
-1850.85 335.192 2953
-1850.03 336.327 2963
-1842.94 336.327 2963
-1835.86 336.327 2963
-1815.81 333.943 2942
-2134.7 400.346 3527
-2126.27 400.346 3527
-2117.84 400.346 3527
-2100.43 398.643 3512
-2070.59 394.557 3476
-2062.28 394.557 3476
-2049.24 393.649 3468
-2053.89 396.146 3490
-2045.54 396.146 3490
-2037.2 396.146 3490
-2028.85 396.146 3490
-2016.46 395.352 3483
-2004.09 394.557 3476
-2003.82 396.146 3490
-1995.47 396.146 3490
-1987.12 396.146 3490
-1978.78 396.146 3490
-1970.43 396.146 3490
-1958.15 395.352 3483
-1949.82 395.352 3483
-1937.59 394.557 3476
-1929.28 394.557 3476
-1920.97 394.557 3476
-1920.36 396.146 3490
-1920.23 397.849 3505
-1920.03 399.551 3520
-1911.62 399.551 3520
-1906.98 400.346 3527
-1902.32 401.141 3534
-1906.19 403.751 3557
-1897.69 403.751 3557
-1897.15 405.454 3572
-1888.6 405.454 3572
-1884.27 406.362 3580
-1875.71 406.362 3580
-1879.15 408.973 3603
-1874.68 409.881 3611
-1882.07 413.4 3642
-1873.36 413.4 3642
-1881.55 417.145 3675
-1880.91 418.962 3691
-1876.14 419.87 3699
-1867.3 419.87 3699
-1866.99 421.799 3716
-1862.11 422.707 3724
-1857.18 423.615 3732
-1848.26 423.615 3732
-1843.28 424.523 3740
-1847.09 427.475 3766
-1838.08 427.475 3766
-1829.08 427.475 3766
-1823.94 428.383 3774
-1814.91 428.383 3774
-1805.89 428.383 3774
-1796.86 428.383 3774
-1812.47 434.285 3826
-1816.05 437.35 3853
-1815.27 439.393 3871
-1806.02 439.393 3871
-1796.76 439.393 3871
-1791.66 440.415 3880
-1786.52 441.436 3889
-1777.22 441.436 3889
-1767.92 441.436 3889
-1774.9 445.523 3925
-1778.11 448.701 3953
-1768.65 448.701 3953
-1759.2 448.701 3953
-1749.75 448.701 3953
-1740.29 448.701 3953
-1706.76 442.458 3898
-1651.28 430.426 3792
-1623.59 425.545 3749
-1586.2 418.053 3683
-1577.39 418.053 3683
-1554.53 414.308 3650
-1536.06 411.697 3627
-1510.96 407.27 3588
-1502.38 407.27 3588
-1465.49 399.551 3520
-1441.76 395.352 3483
-1412.85 389.676 3433
-1404.64 389.676 3433
-1387.89 387.293 3412
-1371.24 384.909 3391
-1360.32 384.114 3384
-1352.23 384.114 3384
-1335.79 381.731 3363
-1322.62 380.255 3350
-1298.91 375.715 3310
-1273.44 370.607 3265
-1265.64 370.607 3265
-1247.81 367.655 3239
-1223.61 362.775 3196
