-2069.6 702.18 3433
-2052.99 699.316 3419
-2040.62 697.885 3412
-2011.62 690.726 3377
-2003.54 690.726 3377
-1995.46 690.726 3377
-1983.27 689.294 3370
-1971.11 687.862 3363
-1963.07 687.862 3363
-1943.4 683.771 3343
-1927.88 681.112 3330
-1912.42 678.453 3317
-1904.49 678.453 3317
-1892.55 677.022 3310
-1888.62 678.453 3317
-1899.4 685.203 3350
-1891.39 685.203 3350
-1883.38 685.203 3350
-1890.48 690.726 3377
-1882.41 690.726 3377
-1882.1 693.589 3391
-1873.99 693.589 3391
-1873.59 696.453 3405
-1873.12 699.316 3419
-1864.94 699.316 3419
-1856.76 699.316 3419
-1856.16 702.18 3433
-1851.72 703.612 3440
-1850.99 706.475 3454
-1842.73 706.475 3454
-1841.91 709.339 3468
-1841.55 712.407 3483
-1840.59 715.27 3497
-1832.23 715.27 3497
-1823.86 715.27 3497
-1823.29 718.338 3512
-1819.02 719.975 3520
-1810.61 719.975 3520
-1802.19 719.975 3520
-1800.91 722.838 3534
-1800.06 725.906 3549
-1791.58 725.906 3549
-1787.11 727.543 3557
-1782.6 729.179 3565
-1774.08 729.179 3565
-1765.55 729.179 3565
-1757.03 729.179 3565
-1751.94 730.611 3572
-1747.3 732.247 3580
-1738.74 732.247 3580
-1737.43 735.315 3595
-1740.37 740.224 3619
-1735.55 741.86 3627
-1726.87 741.86 3627
-1725.31 744.928 3642
-1720.37 746.565 3650
-1727.11 753.314 3683
-1718.31 753.314 3683
-1724.82 760.064 3716
-1742.71 771.927 3774
-1749.77 779.086 3809
-1740.66 779.086 3809
-1755.64 789.927 3862
-1758.62 795.449 3889
-1757.41 799.131 3907
-1748.07 799.131 3907
-1751.19 804.858 3935
-1741.78 804.858 3935
-1732.37 804.858 3935
-1722.96 804.858 3935
-1705.28 800.972 3916
-1656.94 782.563 3826
-1636.59 777.245 3800
-1627.5 777.245 3800
-1607.34 771.927 3774
-1573.75 760.064 3716
-1554.34 754.951 3691
-1545.51 754.951 3691
-1519.62 746.565 3650
-1491.43 736.951 3603
-1479.53 735.315 3595
-1470.93 735.315 3595
-1443.62 725.906 3549
-1429.07 722.838 3534
-1417.8 721.406 3527
-1409.37 721.406 3527
-1398.15 719.975 3520
-1392.5 721.406 3527
-1384.07 721.406 3527
-1375.63 721.406 3527
-1367.2 721.406 3527
-1367.24 725.906 3549
-1364.88 729.179 3565
-1365.1 733.883 3588
-1356.52 733.883 3588
-1350.57 735.315 3595
-1353.92 741.86 3627
-1345.25 741.86 3627
-1336.58 741.86 3627
-1330.83 743.497 3635
-1324.69 744.928 3642
-1318.87 746.565 3650
-1310.14 746.565 3650
-1307.47 750.042 3667
-1298.7 750.042 3667
-1289.93 750.042 3667
-1281.17 750.042 3667
-1272.4 750.042 3667
-1260.53 748.201 3658
-1249.04 746.565 3650
-1240.31 746.565 3650
-1228.89 744.928 3642
-1220.18 744.928 3642
-1211.47 744.928 3642
-1202.76 744.928 3642
-1191.75 743.497 3635
-1183.06 743.497 3635
-1174.37 743.497 3635
-1167.92 744.928 3642
-1159.21 744.928 3642
-1150.5 744.928 3642
-1146.81 748.201 3658
-1140.86 750.042 3667
-1132.09 750.042 3667
-1123.32 750.042 3667
-1114.56 750.042 3667
-1105.79 750.042 3667
-1097.02 750.042 3667
-1093 753.314 3683
-1093.9 760.064 3716
-1089.69 763.337 3732
-1080.77 763.337 3732
-1079.02 768.45 3757
-1074.88 771.927 3774
-1065.85 771.927 3774
-1056.83 771.927 3774
-1047.81 771.927 3774
-1036.58 770.291 3766
-1027.57 770.291 3766
-1018.57 770.291 3766
-1009.56 770.291 3766
-998.165 768.45 3757
-989.181 768.45 3757
-980.196 768.45 3757
-975.607 771.927 3774
-968.887 773.768 3783
-964.154 777.245 3800
-955.067 777.245 3800
-945.98 777.245 3800
-936.893 777.245 3800
-927.806 777.245 3800
-918.719 777.245 3800
-907.717 775.609 3792
-898.65 775.609 3792
-889.582 775.609 3792
-880.514 775.609 3792
-871.446 775.609 3792
-862.378 775.609 3792
-853.311 775.609 3792
-844.243 775.609 3792
-835.175 775.609 3792
-826.107 775.609 3792
-813.161 771.927 3774
-804.136 771.927 3774
-793.426 770.291 3766
-784.42 770.291 3766
-773.562 768.45 3757
-764.577 768.45 3757
-753.984 766.814 3749
-741.641 763.337 3732
-729.575 760.064 3716
-720.689 760.064 3716
-708.547 756.587 3699
-696.675 753.314 3683
-687.868 753.314 3683
-679.06 753.314 3683
-668.797 751.678 3675
-658.573 750.042 3667
-649.804 750.042 3667
-641.035 750.042 3667
-627.955 744.928 3642
-619.246 744.928 3642
-608.023 741.86 3627
-599.349 741.86 3627
-590.676 741.86 3627
-582.003 741.86 3627
-573.33 741.86 3627
-564.656 741.86 3627
-555.983 741.86 3627
-547.31 741.86 3627
-537.448 740.224 3619
-526.456 736.951 3603
-517.841 736.951 3603
-508.094 735.315 3595
-499.497 735.315 3595
-491.993 736.951 3603
-483.377 736.951 3603
-474.761 736.951 3603
-466.145 736.951 3603
-456.514 735.315 3595
-447.917 735.315 3595
-439.32 735.315 3595
-431.682 736.951 3603
-423.066 736.951 3603
-414.45 736.951 3603
-405.834 736.951 3603
-397.219 736.951 3603
-388.603 736.951 3603
-379.987 736.951 3603
-371.371 736.951 3603
-362.755 736.951 3603
-352.665 733.883 3588
-344.085 733.883 3588
-335.505 733.883 3588
-327.563 735.315 3595
-320.386 738.588 3611
-313.132 741.86 3627
-304.459 741.86 3627
-295.785 741.86 3627
-285.846 738.588 3611
-277.211 738.588 3611
-269.171 740.224 3619
-260.516 740.224 3619
-251.862 740.224 3619
-243.208 740.224 3619
-234.554 740.224 3619
-137.949 452.03 2210
-132.665 452.03 2210
-127.553 452.643 2213
-122.261 452.643 2213
-116.969 452.643 2213
-111.525 452.03 2210
-106.097 451.416 2207
-100.819 451.416 2207
-95.4114 450.802 2204
-90.141 450.802 2204
-84.8706 450.802 2204
-79.6001 450.802 2204
-74.3297 450.802 2204
-69.0593 450.802 2204
-63.7888 450.802 2204
-58.5184 450.802 2204
-53.248 450.802 2204
-47.9775 450.802 2204
-42.7071 450.802 2204
-37.4367 450.802 2204
-32.1662 450.802 2204
-26.9324 451.416 2207
-21.7333 453.052 2215
-16.5256 455.507 2227
-11.2002 455.507 2227
-5.88266 456.12 2230
-0.552275 457.961 2239
4.84046 461.643 2257
10.2376 461.643 2257
15.7041 463.688 2267
21.237 466.143 2279
26.7219 466.756 2282
32.1788 466.756 2282
37.7347 467.984 2288
43.2816 468.802 2292
48.8901 470.029 2298
54.3853 470.029 2298
60.1151 471.87 2307
65.6318 471.87 2307
71.2719 472.688 2311
76.7982 472.688 2311
82.5382 473.915 2317
88.1929 474.529 2320
93.7407 474.529 2320
99.2886 474.529 2320
105.153 475.961 2327
111.003 477.188 2333
116.782 478.006 2337
122.37 478.006 2337
127.958 478.006 2337
133.547 478.006 2337
139.493 479.233 2343
145.095 479.233 2343
150.698 479.233 2343
156.301 479.233 2343
295.261 791.768 3871
304.517 791.768 3871
315.233 795.449 3889
326.035 799.131 3907
335.378 799.131 3907
347.985 806.699 3944
358.232 808.54 3953
367.685 808.54 3953
377.138 808.54 3953
386.591 808.54 3953
396.043 808.54 3953
405.496 808.54 3953
414.004 806.699 3944
416.564 793.609 3880
427.818 797.29 3898
437.14 797.29 3898
446.461 797.29 3898
455.782 797.29 3898
459.734 788.086 3853
468.948 788.086 3853
478.162 788.086 3853
488.514 789.927 3862
497.749 789.927 3862
506.984 789.927 3862
516.219 789.927 3862
520.556 782.563 3826
529.706 782.563 3826
538.855 782.563 3826
548.004 782.563 3826
552.202 775.609 3792
558.605 771.927 3774
567.63 771.927 3774
582.003 779.086 3809
591.111 779.086 3809
602.899 782.563 3826
617.807 789.927 3862
628.503 791.768 3871
637.76 791.768 3871
647.017 791.768 3871
656.273 791.768 3871
673.267 800.972 3916
682.631 800.972 3916
691.995 800.972 3916
701.36 800.972 3916
710.724 800.972 3916
720.089 800.972 3916
732.992 804.858 3935
742.402 804.858 3935
751.812 804.858 3935
761.221 804.858 3935
772.394 806.699 3944
781.825 806.699 3944
793.062 808.54 3953
802.515 808.54 3953
811.968 808.54 3953
821.42 808.54 3953
830.873 808.54 3953
836.5 804.858 3935
839.89 799.131 3907
849.233 799.131 3907
864.729 804.858 3935
874.139 804.858 3935
883.548 804.858 3935
899.312 810.585 3963
908.789 810.585 3963
918.266 810.585 3963
921.188 804.858 3935
928.232 802.813 3925
933.318 799.131 3907
942.661 799.131 3907
919.596 771.927 3774
924.438 768.45 3757
929.199 764.973 3740
938.142 764.973 3740
936.703 756.587 3699
939.414 751.678 3675
943.815 748.201 3658
948.396 744.928 3642
957.106 744.928 3642
963.958 743.497 3635
970.51 741.86 3627
972.704 736.951 3603
981.32 736.951 3603
985.814 733.883 3588
992.177 732.247 3580
990.116 724.475 3542
998.586 724.475 3542
1004.78 722.838 3534
1013.23 722.838 3534
1019.66 721.406 3527
1028.09 721.406 3527
1036.53 721.406 3527
1042.89 719.975 3520
1051.31 719.975 3520
1057.31 718.338 3512
1065.71 718.338 3512
1071.97 716.907 3505
1075.73 713.839 3490
1079.72 710.975 3476
1088.04 710.975 3476
1096.35 710.975 3476
1106.89 712.407 3483
1115.21 712.407 3483
1123.54 712.407 3483
1131.87 712.407 3483
1140.2 712.407 3483
1148.53 712.407 3483
1159.18 713.839 3490
1169.87 715.27 3497
1178.23 715.27 3497
1186.6 715.27 3497
1194.96 715.27 3497
1203.32 715.27 3497
1211.68 715.27 3497
1225.28 718.338 3512
1238.95 721.406 3527
1249.86 722.838 3534
1258.31 722.838 3534
1269.63 724.475 3542
1286.4 729.179 3565
1300.37 732.247 3580
1308.93 732.247 3580
1323.01 735.315 3595
1337.53 738.588 3611
1349.15 740.224 3619
1357.81 740.224 3619
1378.16 746.565 3650
1386.89 746.565 3650
1395.62 746.565 3650
1404.35 746.565 3650
1409.98 744.928 3642
1409.73 740.224 3619
1418.38 740.224 3619
1417.57 735.315 3595
1420.22 732.247 3580
1416.41 725.906 3549
1413.25 719.975 3520
1421.67 719.975 3520
1403.27 706.475 3454
1394.37 697.885 3412
1388.14 690.726 3377
1396.22 690.726 3377
1390.15 683.771 3343
1389.78 679.681 3323
1392.26 677.022 3310
1400.18 677.022 3310
1397.03 671.704 3284
1399.32 669.045 3271
1404.56 667.818 3265
1406.75 665.159 3252
1414.52 665.159 3252
1422.3 665.159 3252
1424.36 662.5 3239
1432.11 662.5 3239
1439.85 662.5 3239
1444.92 661.272 3233
1452.65 661.272 3233
1463.09 662.5 3239
1474.01 663.931 3246
1481.77 663.931 3246
1489.54 663.931 3246
1497.3 663.931 3246
1505.06 663.931 3246
1512.82 663.931 3246
1520.58 663.931 3246
1525.05 662.5 3239
1527.12 660.045 3227
1534.83 660.045 3227
1539.68 658.818 3221
1538.26 654.932 3202
1540.12 652.477 3190
1547.75 652.477 3190
1543.68 647.568 3166
1545.37 645.114 3154
1544.05 641.432 3136
1551.55 641.432 3136
1544.63 635.5 3107
1537.57 629.569 3078
1519.83 619.342 3028
1512.95 613.615 3000
1520.13 613.615 3000
1514.07 608.297 2974
1486.4 594.388 2906
1490.78 593.366 2901
1497.71 593.366 2901
1494.28 589.275 2881
1486.06 583.343 2852
1490.26 582.32 2847
1494.44 581.298 2842
1501.23 581.298 2842
1502.72 579.252 2832
1507.36 578.434 2828
1514.13 578.434 2828
1520.89 578.434 2828
1522.25 576.389 2818
1521.39 573.525 2804
1525.37 572.503 2799
1532.07 572.503 2799
1533.81 570.662 2790
1537.72 569.639 2785
1541.61 568.616 2780
1548.26 568.616 2780
1554.9 568.616 2780
1559.31 567.798 2776
1565.94 567.798 2776
1574.85 568.616 2780
1595.15 573.525 2804
1601.85 573.525 2804
1611.43 574.548 2809
1637.16 581.298 2842
1666.51 589.275 2881
1673.4 589.275 2881
1680.29 589.275 2881
1829.48 638.978 3124
1836.96 638.978 3124
1879.85 651.25 3184
1927.77 665.159 3252
1974.24 678.453 3317
1982.17 678.453 3317
2038.7 695.021 3398
2072.12 703.612 3440
2080.35 703.612 3440
2088.58 703.612 3440
2096.8 703.612 3440
2100.75 702.18 3433
2108.95 702.18 3433
2108.53 699.316 3419
2112.37 697.885 3412
2111.83 695.021 3398
2119.96 695.021 3398
2128.08 695.021 3398
2131.81 693.589 3391
2139.92 693.589 3391
2117.62 683.771 3343
2125.61 683.771 3343
2120.84 679.681 3323
2043.32 607.07 2968
2050.41 607.07 2968
2057.51 607.07 2968
2039.57 599.706 2932
2046.58 599.706 2932
2024.87 591.32 2891
2024.76 589.275 2881
2031.65 589.275 2881
2038.54 589.275 2881
2045.42 589.275 2881
2011 577.412 2823
2014.17 576.389 2818
2010.87 573.525 2804
2017.58 573.525 2804
2017.06 571.48 2794
2007.09 566.776 2771
2027.52 570.662 2790
2037.11 571.48 2794
2043.79 571.48 2794
2050.47 571.48 2794
2057.15 571.48 2794
2050.54 567.798 2776
2057.18 567.798 2776
2063.81 567.798 2776
2109.24 578.434 2828
2166.88 592.343 2896
2173.8 592.343 2896
2180.73 592.343 2896
2187.65 592.343 2896
2194.58 592.343 2896
2201.5 592.343 2896
2200.8 590.297 2886
-2476.9 711.852 3440
-2468.67 711.852 3440
-2460.45 711.852 3440
-2452.22 711.852 3440
-2444 711.852 3440
-2406.03 703.161 3398
-2432.48 713.301 3447
-2429.16 714.749 3454
-2420.9 714.749 3454
-2412.64 714.749 3454
-2404.38 714.749 3454
-2371.84 707.507 3419
-2383.03 713.301 3447
-2374.78 713.301 3447
-2366.54 713.301 3447
-2378.14 719.302 3476
-2409.37 731.304 3534
-2400.92 731.304 3534
-2392.47 731.304 3534
-2384.02 731.304 3534
-2375.56 731.304 3534
-2367.11 731.304 3534
-2358.66 731.304 3534
-2360.19 734.408 3549
-2351.7 734.408 3549
-2343.21 734.408 3549
-2339.99 736.063 3557
-2331.48 736.063 3557
-2322.98 736.063 3557
-2309.27 734.408 3549
-2300.78 734.408 3549
-2292.29 734.408 3549
-2283.81 734.408 3549
-2275.32 734.408 3549
-2262.36 732.959 3542
-2244.35 729.855 3527
-2231.48 728.407 3520
-2223.06 728.407 3520
-2209.61 726.751 3512
-2191.81 723.647 3497
-2179.07 722.199 3490
-2170.73 722.199 3490
-2153.71 719.302 3476
-2145.4 719.302 3476
-2123.56 714.749 3454
-2115.3 714.749 3454
-2107.04 714.749 3454
-2090.27 711.852 3440
-2077.81 710.404 3433
-2069.6 710.404 3433
-2052.99 707.507 3419
-2040.62 706.058 3412
-2011.62 698.815 3377
-2003.54 698.815 3377
-1995.46 698.815 3377
-1983.27 697.367 3370
-1971.11 695.918 3363
-1963.07 695.918 3363
-1943.4 691.78 3343
-1927.88 689.09 3330
-1912.42 686.399 3317
-1904.49 686.399 3317
-1888.55 683.502 3303
-1888.62 686.399 3317
-1892.03 690.538 3337
-1887.44 691.78 3343
-1879.44 691.78 3343
-1871.45 691.78 3343
-1867.36 693.228 3350
-1874.33 698.815 3377
-1866.26 698.815 3377
-1865.89 701.712 3391
-1865.45 704.61 3405
-1861.12 706.058 3412
-1852.96 706.058 3412
-1848.59 707.507 3419
-1844.18 708.955 3426
-1843.49 711.852 3440
-1835.26 711.852 3440
-1838.19 716.198 3461
-1837.85 719.302 3476
-1833.22 720.75 3483
-1824.89 720.75 3483
-1823.86 723.647 3497
-1819.65 725.303 3505
-1814.89 726.751 3512
-1806.49 726.751 3512
-1802.19 728.407 3520
-1797.34 729.855 3527
-1796.51 732.959 3542
-1788.04 732.959 3542
-1783.09 734.408 3549
-1774.6 734.408 3549
-1766.12 734.408 3549
-1757.63 734.408 3549
-1753.09 736.063 3557
-1748.5 737.719 3565
-1743.39 739.167 3572
-1734.85 739.167 3572
-1734.04 742.478 3588
-1732.68 745.582 3603
-1731.72 748.893 3619
-1723.06 748.893 3619
-1718.2 750.549 3627
-1716.6 753.653 3642
-1715.39 756.964 3658
-1706.64 756.964 3658
-1713.21 763.793 3691
-1734.86 777.45 3757
-1749.77 788.211 3809
-1740.66 788.211 3809
-1755.64 799.178 3862
-1758.62 804.766 3889
-1757.41 808.49 3907
-1748.07 808.49 3907
-1742.73 810.353 3916
-1737.35 812.215 3925
-1727.97 812.215 3925
-1718.58 812.215 3925
-1705.28 810.353 3916
-1656.94 791.729 3826
-1636.59 786.348 3800
-1627.5 786.348 3800
-1607.34 780.968 3774
-1573.75 768.966 3716
-1554.34 763.793 3691
-1545.51 763.793 3691
-1519.62 755.308 3650
-1491.43 745.582 3603
-1479.53 743.927 3595
-1470.93 743.927 3595
-1443.62 734.408 3549
-1429.07 731.304 3534
-1417.8 729.855 3527
-1409.37 729.855 3527
-1398.15 728.407 3520
-1392.5 729.855 3527
-1384.07 729.855 3527
-1375.63 729.855 3527
-1367.2 729.855 3527
-1367.24 734.408 3549
-1364.88 737.719 3565
-1365.1 742.478 3588
-1356.52 742.478 3588
-1350.57 743.927 3595
-1350.94 748.893 3619
-1345.25 750.549 3627
-1336.58 750.549 3627
-1330.83 752.204 3635
-1324.69 753.653 3642
-1318.87 755.308 3650
-1310.14 755.308 3650
-1307.47 758.826 3667
-1298.7 758.826 3667
-1289.93 758.826 3667
-1281.17 758.826 3667
-1272.4 758.826 3667
-1260.53 756.964 3658
-1249.04 755.308 3650
-1240.31 755.308 3650
-1228.89 753.653 3642
-1217.83 752.204 3635
-1209.14 752.204 3635
-1200.45 752.204 3635
-1191.75 752.204 3635
-1183.06 752.204 3635
-1174.37 752.204 3635
-1167.92 753.653 3642
-1159.21 753.653 3642
-1150.5 753.653 3642
-1146.81 756.964 3658
-1140.86 758.826 3667
-1132.09 758.826 3667
-1123.32 758.826 3667
-1114.56 758.826 3667
-1105.79 758.826 3667
-1097.02 758.826 3667
-1093 762.137 3683
-1093.9 768.966 3716
-1089.69 772.277 3732
-1080.77 772.277 3732
-1079.02 777.45 3757
-1074.88 780.968 3774
-1065.85 780.968 3774
-1056.83 780.968 3774
-1047.81 780.968 3774
-1036.58 779.313 3766
-1027.57 779.313 3766
-1018.57 779.313 3766
-1009.56 779.313 3766
-998.165 777.45 3757
-989.181 777.45 3757
-980.196 777.45 3757
-975.607 780.968 3774
-968.887 782.831 3783
-964.154 786.348 3800
-955.067 786.348 3800
-945.98 786.348 3800
-936.893 786.348 3800
-927.806 786.348 3800
-918.719 786.348 3800
-905.563 782.831 3783
-896.517 782.831 3783
-887.47 782.831 3783
-876.334 780.968 3774
-867.31 780.968 3774
-858.285 780.968 3774
-849.26 780.968 3774
-840.235 780.968 3774
-831.21 780.968 3774
-820.443 779.313 3766
-811.437 779.313 3766
-802.432 779.313 3766
-793.426 779.313 3766
-782.546 777.45 3757
-773.562 777.45 3757
-764.577 777.45 3757
-752.174 773.932 3740
-740.051 770.621 3724
-729.575 768.966 3716
-720.689 768.966 3716
-710.079 767.104 3707
-699.701 765.448 3699
-687.868 762.137 3683
-679.06 762.137 3683
-670.253 762.137 3683
-660.009 760.482 3675
-649.804 758.826 3667
-641.035 758.826 3667
-627.955 753.653 3642
-619.246 753.653 3642
-608.023 750.549 3627
-599.349 750.549 3627
-590.676 750.549 3627
-582.003 750.549 3627
-573.33 750.549 3627
-564.656 750.549 3627
-555.983 750.549 3627
-547.31 750.549 3627
-537.448 748.893 3619
-526.456 745.582 3603
-517.841 745.582 3603
-508.094 743.927 3595
-499.497 743.927 3595
-491.993 745.582 3603
-483.377 745.582 3603
-474.761 745.582 3603
-466.145 745.582 3603
-456.514 743.927 3595
-447.917 743.927 3595
-439.32 743.927 3595
-431.682 745.582 3603
-423.066 745.582 3603
-414.45 745.582 3603
-405.834 745.582 3603
-397.219 745.582 3603
-388.603 745.582 3603
-379.987 745.582 3603
-371.371 745.582 3603
-362.755 745.582 3603
-352.665 742.478 3588
-344.085 742.478 3588
-335.505 742.478 3588
-327.563 743.927 3595
-320.386 747.238 3611
-313.132 750.549 3627
-304.459 750.549 3627
-295.785 750.549 3627
-285.846 747.238 3611
-277.211 747.238 3611
-269.171 748.893 3619
-260.516 748.893 3619
-251.862 748.893 3619
-243.208 748.893 3619
-234.554 748.893 3619
-137.949 457.324 2210
-132.665 457.324 2210
-127.553 457.944 2213
-122.261 457.944 2213
-116.969 457.944 2213
-111.525 457.324 2210
-106.097 456.703 2207
-100.819 456.703 2207
-95.4114 456.082 2204
-90.141 456.082 2204
-84.8706 456.082 2204
-79.6001 456.082 2204
-74.3297 456.082 2204
-69.0593 456.082 2204
-63.7888 456.082 2204
-58.5184 456.082 2204
-53.248 456.082 2204
-47.9775 456.082 2204
-42.7071 456.082 2204
-37.4876 456.703 2207
-32.21 456.703 2207
-26.969 457.324 2210
-21.7922 459.6 2221
-16.5256 460.842 2227
-11.2002 460.842 2227
-5.9064 463.325 2239
-0.553015 463.946 2242
4.84903 467.877 2261
10.2558 467.877 2261
15.7249 469.74 2270
21.237 471.602 2279
26.757 472.844 2285
32.2211 472.844 2285
37.7347 473.465 2288
43.3949 475.534 2298
48.8901 475.534 2298
54.3853 475.534 2298
60.1151 477.396 2307
65.7456 478.224 2311
71.2719 478.224 2311
76.7982 478.224 2311
82.5382 479.466 2317
88.1929 480.086 2320
93.7407 480.086 2320
99.2886 480.086 2320
105.153 481.535 2327
111.003 482.777 2333
116.782 483.604 2337
122.37 483.604 2337
127.958 483.604 2337
133.547 483.604 2337
139.493 484.846 2343
145.095 484.846 2343
150.698 484.846 2343
156.301 484.846 2343
295.261 801.041 3871
304.517 801.041 3871
315.233 804.766 3889
326.035 808.49 3907
335.378 808.49 3907
347.985 816.147 3944
358.232 818.009 3953
367.685 818.009 3953
377.138 818.009 3953
386.591 818.009 3953
396.043 818.009 3953
405.496 818.009 3953
414.004 816.147 3944
416.564 802.903 3880
427.818 806.628 3898
437.14 806.628 3898
446.461 806.628 3898
455.782 806.628 3898
459.734 797.316 3853
468.948 797.316 3853
478.162 797.316 3853
488.514 799.178 3862
497.749 799.178 3862
506.984 799.178 3862
516.219 799.178 3862
520.556 791.729 3826
529.706 791.729 3826
538.855 791.729 3826
548.004 791.729 3826
552.202 784.693 3792
559.937 782.831 3783
568.984 782.831 3783
583.378 790.073 3818
592.508 790.073 3818
607.153 797.316 3853
617.807 799.178 3862
628.503 801.041 3871
637.76 801.041 3871
647.017 801.041 3871
660.851 806.628 3898
673.267 810.353 3916
682.631 810.353 3916
693.586 812.215 3925
702.972 812.215 3925
712.358 812.215 3925
721.743 812.215 3925
736.345 818.009 3953
745.798 818.009 3953
755.251 818.009 3953
764.703 818.009 3953
772.394 816.147 3944
783.609 818.009 3953
793.062 818.009 3953
802.515 818.009 3953
811.968 818.009 3953
821.42 818.009 3953
830.873 818.009 3953
836.5 814.284 3935
841.825 810.353 3916
851.189 810.353 3916
864.729 814.284 3935
874.139 814.284 3935
883.548 814.284 3935
899.312 820.079 3963
908.789 820.079 3963
918.266 820.079 3963
921.188 814.284 3935
928.232 812.215 3925
933.318 808.49 3907
942.661 808.49 3907
923.982 784.693 3792
924.438 777.45 3757
931.435 775.795 3749
940.4 775.795 3749
938.729 767.104 3707
945.549 765.448 3699
946.138 758.826 3667
950.48 755.308 3650
959.208 755.308 3650
965.815 753.653 3642
972.651 752.204 3635
972.704 745.582 3603
981.32 745.582 3603
985.814 742.478 3588
992.177 740.823 3580
992.073 734.408 3549
1000.56 734.408 3549
1007.06 732.959 3542
1013.23 731.304 3534
1021.68 731.304 3534
1030.13 731.304 3534
1038.58 731.304 3534
1044.96 729.855 3527
1051.31 728.407 3520
1057.31 726.751 3512
1065.71 726.751 3512
1071.97 725.303 3505
1075.73 722.199 3490
1081.9 720.75 3483
1090.23 720.75 3483
1096.35 719.302 3476
1104.66 719.302 3476
1115.21 720.75 3483
1123.54 720.75 3483
1131.87 720.75 3483
1140.2 720.75 3483
1148.53 720.75 3483
1159.18 722.199 3490
1167.53 722.199 3490
1175.88 722.199 3490
1184.22 722.199 3490
1192.57 722.199 3490
1200.91 722.199 3490
1209.26 722.199 3490
1225.28 726.751 3512
1236.49 728.407 3520
1249.86 731.304 3534
1258.31 731.304 3534
1269.63 732.959 3542
1286.4 737.719 3565
1300.37 740.823 3580
1308.93 740.823 3580
1325.95 745.582 3603
1340.5 748.893 3619
1355.12 752.204 3635
1363.81 752.204 3635
1381.18 756.964 3658
1389.93 756.964 3658
1398.68 756.964 3658
1407.43 756.964 3658
1413.08 755.308 3650
1412.85 750.549 3627
1421.52 750.549 3627
1423.88 747.238 3611
1426.17 743.927 3595
1425.59 739.167 3572
1422.09 732.959 3542
1430.56 732.959 3542
1417.9 722.199 3490
1408.67 713.301 3447
1396.77 703.161 3398
1404.9 703.161 3398
1398.47 695.918 3363
1395.64 690.538 3337
1392.26 684.951 3310
1400.18 684.951 3310
1397.03 679.571 3284
1399.32 676.88 3271
1404.56 675.639 3265
1406.75 672.949 3252
1414.52 672.949 3252
1422.3 672.949 3252
1424.36 670.259 3239
1432.11 670.259 3239
1439.85 670.259 3239
1444.92 669.017 3233
1452.65 669.017 3233
1463.09 670.259 3239
1470.83 670.259 3239
1478.58 670.259 3239
1489.54 671.707 3246
1497.3 671.707 3246
1505.06 671.707 3246
1512.82 671.707 3246
1520.58 671.707 3246
1525.05 670.259 3239
1529.96 669.017 3233
1537.69 669.017 3233
1542.55 667.775 3227
1541.14 663.844 3208
1543.02 661.36 3196
1550.66 661.36 3196
1543.68 655.152 3166
1551.25 655.152 3166
1549.95 651.428 3148
1557.48 651.428 3148
1550.1 645.22 3118
1549.06 641.702 3101
1533.39 632.183 3055
1527.08 626.596 3028
1534.32 626.596 3028
1524.76 619.767 2995
1494.58 604.661 2922
1493.35 601.35 2906
1500.29 601.35 2906
1494.28 596.176 2881
1488.66 591.21 2857
1490.26 589.141 2847
1494.44 588.106 2842
1501.23 588.106 2842
1502.72 586.036 2832
1507.36 585.209 2828
1511.45 584.174 2823
1518.2 584.174 2823
1519.55 582.105 2813
1521.39 580.242 2804
1525.37 579.208 2799
1532.07 579.208 2799
1533.81 577.345 2790
1534.96 575.276 2780
1541.61 575.276 2780
1548.26 575.276 2780
1554.9 575.276 2780
1559.31 574.448 2776
1565.94 574.448 2776
1574.85 575.276 2780
1595.15 580.242 2804
1601.85 580.242 2804
1608.56 580.242 2804
1634.27 587.071 2837
1683.86 602.384 2911
1690.83 602.384 2911
1697.79 602.384 2911
1857.59 656.394 3172
1865.18 656.394 3172
1894.02 663.844 3208
1950.3 680.812 3290
1998.05 694.677 3357
2006.07 694.677 3357
2063.9 711.852 3440
2098.03 720.75 3483
2114.82 723.647 3497
2123.18 723.647 3497
2131.55 723.647 3497
2139.91 723.647 3497
2148.27 723.647 3497
2152.32 722.199 3490
2156.33 720.75 3483
2160.31 719.302 3476
2168.62 719.302 3476
2185.7 722.199 3490
2194.04 722.199 3490
2202.39 722.199 3490
2206.3 720.75 3483
2214.63 720.75 3483
2222.96 720.75 3483
2217.19 716.198 3461
2225.47 716.198 3461
2233.75 716.198 3461
2242.02 716.198 3461
2169.68 690.538 3337
2043.32 614.18 2968
2050.41 614.18 2968
2057.51 614.18 2968
2039.57 606.73 2932
2046.58 606.73 2932
2024.87 598.246 2891
2024.76 596.176 2881
2031.65 596.176 2881
2038.54 596.176 2881
2045.42 596.176 2881
2017.41 586.036 2832
2024.18 586.036 2832
2020.91 583.139 2818
2027.65 583.139 2818
2034.39 583.139 2818
2023.74 578.173 2794
2030.43 578.173 2794
2037.11 578.173 2794
2043.79 578.173 2794
2050.47 578.173 2794
2057.15 578.173 2794
2050.54 574.448 2776
2077.92 580.242 2804
2084.63 580.242 2804
2112.22 586.036 2832
2148.17 594.107 2871
2166.3 597.211 2886
2173.2 597.211 2886
2180.1 597.211 2886
2187 597.211 2886
2193.9 597.211 2886
2200.8 597.211 2886
-2542.92 736.839 3520
-2544.58 739.77 3534
-2536.13 739.77 3534
-2527.68 739.77 3534
-2498.56 733.699 3505
-2490.18 733.699 3505
-2476.13 732.025 3497
-2473.41 733.699 3505
-2469.95 735.164 3512
-2461.56 735.164 3512
-2453.16 735.164 3512
-2409.26 724.489 3461
-2400.98 724.489 3461
-2397.54 725.954 3468
-2389.25 725.954 3468
-2391.26 729.094 3483
-2408.24 736.839 3520
-2409.37 739.77 3534
-2400.92 739.77 3534
-2392.47 739.77 3534
-2384.02 739.77 3534
-2375.56 739.77 3534
-2367.11 739.77 3534
-2364 741.444 3542
-2360.19 742.91 3549
-2351.7 742.91 3549
-2343.21 742.91 3549
-2339.99 744.584 3557
-2331.48 744.584 3557
-2322.98 744.584 3557
-2309.27 742.91 3549
-2300.78 742.91 3549
-2292.29 742.91 3549
-2279.3 741.444 3542
-2270.83 741.444 3542
-2257.25 739.77 3534
-2244.35 738.304 3527
-2231.48 736.839 3520
-2223.06 736.839 3520
-2209.61 735.164 3512
-2191.81 732.025 3497
-2179.07 730.559 3490
-2170.73 730.559 3490
-2153.71 727.629 3476
-2145.4 727.629 3476
-2137.08 727.629 3476
-2128.77 727.629 3476
-2120.46 727.629 3476
-2107.29 725.954 3468
-2094.76 724.489 3461
-2086.48 724.489 3461
-2061.39 718.628 3433
-2053.18 718.628 3433
-2040.8 717.162 3426
-2032.61 717.162 3426
-2016.15 714.232 3412
-2007.99 714.232 3412
-1983.42 708.37 3384
-1975.32 708.37 3384
-1955.02 703.974 3363
-1935.4 699.788 3343
-1912.42 694.345 3317
-1904.49 694.345 3317
-1888.55 691.415 3303
-1884.64 692.88 3310
-1884.09 695.601 3323
-1884.05 698.532 3337
-1876.07 698.532 3337
-1868.09 698.532 3337
-1863.46 699.788 3343
-1859.35 701.253 3350
-1851.34 701.253 3350
-1854.33 705.44 3370
-1853.94 708.37 3384
-1849.67 709.836 3391
-1841.56 709.836 3391
-1844.8 714.232 3412
-1840.41 715.697 3419
-1839.74 718.628 3433
-1831.53 718.628 3433
-1827.04 720.093 3440
-1833.62 725.954 3468
-1829.53 727.629 3476
-1821.22 727.629 3476
-1816.56 729.094 3483
-1815.5 732.025 3497
-1811.27 733.699 3505
-1802.89 733.699 3505
-1798.09 735.164 3512
-1793.77 736.839 3520
-1788.9 738.304 3527
-1780.47 738.304 3527
-1779.57 741.444 3542
-1774.6 742.91 3549
-1766.12 742.91 3549
-1757.63 742.91 3549
-1749.14 742.91 3549
-1740.66 742.91 3549
-1739.98 746.259 3565
-1734.85 747.724 3572
-1726.31 747.724 3572
-1728.83 752.539 3595
-1724.06 754.213 3603
-1723.06 757.563 3619
-1714.41 757.563 3619
-1716.6 762.377 3642
-1715.39 765.727 3658
-1706.64 765.727 3658
-1713.21 772.634 3691
-1727.01 782.892 3740
-1745.63 795.451 3800
-1736.55 795.451 3800
-1755.64 808.43 3862
-1750.48 810.314 3871
-1749.32 814.082 3889
-1740.02 814.082 3889
-1742.73 819.734 3916
-1733.37 819.734 3916
-1724.01 819.734 3916
-1714.64 819.734 3916
-1701.36 817.85 3907
-1656.94 800.894 3826
-1647.79 800.894 3826
-1638.64 800.894 3826
-1603.93 788.334 3766
-1573.75 777.868 3716
-1554.34 772.634 3691
-1545.51 772.634 3691
-1519.62 764.052 3650
-1491.43 754.213 3603
-1479.53 752.539 3595
-1470.93 752.539 3595
-1443.62 742.91 3549
-1429.07 739.77 3534
-1417.8 738.304 3527
-1409.37 738.304 3527
-1398.15 736.839 3520
-1392.5 738.304 3527
-1384.07 738.304 3527
-1375.63 738.304 3527
-1367.2 738.304 3527
-1367.24 742.91 3549
-1364.88 746.259 3565
-1365.1 751.073 3588
-1356.52 751.073 3588
-1350.57 752.539 3595
-1350.94 757.563 3619
-1345.25 759.237 3627
-1336.58 759.237 3627
-1330.83 760.912 3635
-1324.69 762.377 3642
-1318.87 764.052 3650
-1310.14 764.052 3650
-1307.47 767.611 3667
-1298.7 767.611 3667
-1289.93 767.611 3667
-1281.17 767.611 3667
-1272.4 767.611 3667
-1260.53 765.727 3658
-1249.04 764.052 3650
-1240.31 764.052 3650
-1226.52 760.912 3635
-1217.83 760.912 3635
-1209.14 760.912 3635
-1200.45 760.912 3635
-1191.75 760.912 3635
-1183.06 760.912 3635
-1174.37 760.912 3635
-1167.92 762.377 3642
-1159.21 762.377 3642
-1150.5 762.377 3642
-1146.81 765.727 3658
-1140.86 767.611 3667
-1132.09 767.611 3667
-1123.32 767.611 3667
-1116.99 769.285 3675
-1110.61 770.96 3683
-1101.8 770.96 3683
-1093 770.96 3683
-1093.9 777.868 3716
-1092.03 782.892 3740
-1083.08 782.892 3740
-1079.02 786.45 3757
-1077.44 791.893 3783
-1068.4 791.893 3783
-1059.35 791.893 3783
-1050.3 791.893 3783
-1038.78 790.009 3774
-1029.76 790.009 3774
-1018.57 788.334 3766
-1009.56 788.334 3766
-998.165 786.45 3757
-989.181 786.45 3757
-980.196 786.45 3757
-975.607 790.009 3774
-968.887 791.893 3783
-959.841 791.893 3783
-950.795 791.893 3783
-941.748 791.893 3783
-932.702 791.893 3783
-923.656 791.893 3783
-914.609 791.893 3783
-903.409 790.009 3774
-894.384 790.009 3774
-885.359 790.009 3774
-872.387 786.45 3757
-861.564 784.776 3749
-854.419 786.45 3757
-847.46 788.334 3766
-838.454 788.334 3766
-829.448 788.334 3766
-820.443 788.334 3766
-811.437 788.334 3766
-802.432 788.334 3766
-791.53 786.45 3757
-782.546 786.45 3757
-771.914 784.776 3749
-762.949 784.776 3749
-752.174 782.892 3740
-740.051 779.542 3724
-729.575 777.868 3716
-720.689 777.868 3716
-710.079 775.984 3707
-699.701 774.309 3699
-687.868 770.96 3683
-679.06 770.96 3683
-670.253 770.96 3683
-660.009 769.285 3675
-648.209 765.727 3658
-639.462 765.727 3658
-627.955 762.377 3642
-619.246 762.377 3642
-608.023 759.237 3627
-599.349 759.237 3627
-590.676 759.237 3627
-582.003 759.237 3627
-573.33 759.237 3627
-563.411 757.563 3619
-554.757 757.563 3619
-546.103 757.563 3619
-536.26 755.888 3611
-526.456 754.213 3603
-517.841 754.213 3603
-507.105 751.073 3588
-498.525 751.073 3588
-489.945 751.073 3588
-481.365 751.073 3588
-472.785 751.073 3588
-464.205 751.073 3588
-455.625 751.073 3588
-447.917 752.539 3595
-439.32 752.539 3595
-430.723 752.539 3595
-422.127 752.539 3595
-413.53 752.539 3595
-404.933 752.539 3595
-396.337 752.539 3595
-387.74 752.539 3595
-379.143 752.539 3595
-370.546 752.539 3595
-361.95 752.539 3595
-352.665 751.073 3588
-344.085 751.073 3588
-335.505 751.073 3588
-327.563 752.539 3595
-318.966 752.539 3595
-310.369 752.539 3595
-301.772 752.539 3595
-293.176 752.539 3595
-284.579 752.539 3595
-275.982 752.539 3595
-267.386 752.539 3595
-258.789 752.539 3595
-250.192 752.539 3595
-241.595 752.539 3595
-232.999 752.539 3595
-137.575 461.362 2204
-132.485 461.99 2207
-127.553 463.246 2213
-122.261 463.246 2213
-116.969 463.246 2213
-111.374 461.99 2207
-105.952 461.362 2204
-100.682 461.362 2204
-95.4114 461.362 2204
-90.141 461.362 2204
-84.8706 461.362 2204
-79.6001 461.362 2204
-74.3297 461.362 2204
-69.0593 461.362 2204
-63.7888 461.362 2204
-58.5184 461.362 2204
-53.248 461.362 2204
-47.9775 461.362 2204
-42.7071 461.362 2204
-37.4876 461.99 2207
-32.21 461.99 2207
-26.969 462.618 2210
-21.7922 464.92 2221
-16.5256 466.176 2227
-11.2002 466.176 2227
-5.9064 468.688 2239
-0.553015 469.316 2242
4.84903 473.294 2261
10.2558 473.294 2261
15.7249 475.177 2270
21.237 477.061 2279
26.757 478.317 2285
32.2211 478.317 2285
37.7347 478.945 2288
43.3949 481.039 2298
48.8901 481.039 2298
54.3853 481.039 2298
60.1151 482.923 2307
65.7456 483.76 2311
71.2719 483.76 2311
76.7982 483.76 2311
82.5382 485.016 2317
88.1929 485.644 2320
93.7407 485.644 2320
99.2886 485.644 2320
104.972 486.272 2323
110.86 487.737 2330
116.582 488.365 2333
122.161 488.365 2333
127.739 488.365 2333
133.547 489.203 2337
139.135 489.203 2337
144.724 489.203 2337
150.312 489.203 2337
294.574 808.43 3862
304.517 810.314 3871
313.774 810.314 3871
325.284 815.966 3898
334.605 815.966 3898
344.721 817.85 3907
356.601 823.711 3935
366.011 823.711 3935
375.421 823.711 3935
384.83 823.711 3935
394.24 823.711 3935
403.65 823.711 3935
412.01 821.617 3925
415.598 810.314 3871
424.855 810.314 3871
434.112 810.314 3871
443.368 810.314 3871
452.625 810.314 3871
458.66 804.662 3844
468.948 806.546 3853
478.162 806.546 3853
487.375 806.546 3853
496.589 806.546 3853
505.803 806.546 3853
515.016 806.546 3853
520.556 800.894 3826
529.706 800.894 3826
538.855 800.894 3826
548.004 800.894 3826
552.202 793.777 3792
559.937 791.893 3783
568.984 791.893 3783
583.378 799.219 3818
592.508 799.219 3818
607.153 806.546 3853
617.807 808.43 3862
628.503 810.314 3871
637.76 810.314 3871
647.017 810.314 3871
660.851 815.966 3898
673.267 819.734 3916
682.631 819.734 3916
693.586 821.617 3925
702.972 821.617 3925
712.358 821.617 3925
721.743 821.617 3925
736.345 827.479 3953
745.798 827.479 3953
755.251 827.479 3953
764.703 827.479 3953
772.394 825.595 3944
783.609 827.479 3953
793.062 827.479 3953
802.515 827.479 3953
811.968 827.479 3953
821.42 827.479 3953
830.873 827.479 3953
836.5 823.711 3935
841.825 819.734 3916
851.189 819.734 3916
864.729 823.711 3935
874.139 823.711 3935
883.548 823.711 3935
899.312 829.572 3963
908.789 829.572 3963
918.266 829.572 3963
921.188 823.711 3935
928.232 821.617 3925
933.318 817.85 3907
942.661 817.85 3907
923.982 793.777 3792
924.438 786.45 3757
933.422 786.45 3757
942.406 786.45 3757
943.034 779.542 3724
947.594 775.984 3707
950.266 770.96 3683
954.906 767.611 3667
963.675 767.611 3667
967.936 764.052 3650
974.524 762.377 3642
974.864 755.888 3611
983.499 755.888 3611
987.738 752.539 3595
994.394 751.073 3588
994.309 744.584 3557
1002.81 744.584 3557
1007.06 741.444 3542
1013.23 739.77 3534
1021.68 739.77 3534
1030.13 739.77 3534
1038.58 739.77 3534
1044.96 738.304 3527
1051.31 736.839 3520
1057.31 735.164 3512
1065.71 735.164 3512
1071.97 733.699 3505
1077.89 732.025 3497
1081.9 729.094 3483
1090.23 729.094 3483
1096.35 727.629 3476
1106.89 729.094 3483
1115.21 729.094 3483
1123.54 729.094 3483
1131.87 729.094 3483
1140.2 729.094 3483
1148.53 729.094 3483
1159.18 730.559 3490
1167.53 730.559 3490
1175.88 730.559 3490
1184.22 730.559 3490
1192.57 730.559 3490
1200.91 730.559 3490
1209.26 730.559 3490
1225.28 735.164 3512
1236.49 736.839 3520
1249.86 739.77 3534
1258.31 739.77 3534
1269.63 741.444 3542
1286.4 746.259 3565
1300.37 749.399 3580
1308.93 749.399 3580
1325.95 754.213 3603
1340.5 757.563 3619
1355.12 760.912 3635
1363.81 760.912 3635
1381.18 765.727 3658
1389.93 765.727 3658
1398.68 765.727 3658
1407.43 765.727 3658
1413.08 764.052 3650
1412.85 759.237 3627
1421.52 759.237 3627
1423.88 755.888 3611
1426.17 752.539 3595
1425.59 747.724 3572
1422.09 741.444 3542
1430.56 741.444 3542
1417.9 730.559 3490
1408.67 721.558 3447
1402.53 714.232 3412
1410.69 714.232 3412
1404.29 706.905 3377
1398.15 699.788 3343
1397.73 695.601 3323
1405.68 695.601 3323
1397.03 687.437 3284
1399.32 684.716 3271
1404.56 683.46 3265
1409.34 681.995 3258
1417.13 681.995 3258
1422.3 680.739 3252
1424.36 678.018 3239
1432.11 678.018 3239
1439.85 678.018 3239
1447.6 678.018 3239
1455.34 678.018 3239
1463.09 678.018 3239
1470.83 678.018 3239
1478.58 678.018 3239
1489.54 679.483 3246
1497.3 679.483 3246
1505.06 679.483 3246
1512.82 679.483 3246
1520.58 679.483 3246
1528.35 679.483 3246
1532.8 678.018 3239
1540.54 678.018 3239
1542.55 675.506 3227
1544.02 672.784 3214
1545.91 670.272 3202
1553.57 670.272 3202
1549.53 665.248 3178
1551.25 662.737 3166
1552.91 660.225 3154
1560.45 660.225 3154
1556.06 655.201 3130
1552.06 650.386 3107
1533.39 639.501 3055
1532.62 636.152 3039
1539.89 636.152 3039
1532.9 630.291 3011
1497.14 612.707 2927
1495.91 609.358 2911
1502.88 609.358 2911
1496.87 604.124 2886
1491.27 599.1 2862
1490.26 595.961 2847
1494.44 594.914 2842
1501.23 594.914 2842
1502.72 592.821 2832
1507.36 591.983 2828
1511.45 590.937 2823
1518.2 590.937 2823
1519.55 588.843 2813
1521.39 586.959 2804
1525.37 585.913 2799
1532.07 585.913 2799
1533.81 584.029 2790
1534.96 581.935 2780
1541.61 581.935 2780
1548.26 581.935 2780
1554.9 581.935 2780
1559.31 581.098 2776
1565.94 581.098 2776
1574.85 581.935 2780
1595.15 586.959 2804
1601.85 586.959 2804
1608.56 586.959 2804
1634.27 593.867 2837
1683.86 609.358 2911
1690.83 609.358 2911
1839.51 660.225 3154
1875.16 670.272 3202
1882.82 670.272 3202
1916.46 679.483 3246
1978.16 698.532 3337
2022.45 711.301 3398
2030.57 711.301 3398
2089.7 729.094 3483
2106.46 732.025 3497
2119.66 733.699 3505
2128.04 733.699 3505
2140.69 735.164 3512
2149.09 735.164 3512
2157.49 735.164 3512
2161.57 733.699 3505
2160.66 730.559 3490
2169.01 730.559 3490
2177.35 730.559 3490
2190.08 732.025 3497
2198.45 732.025 3497
2206.81 732.025 3497
2210.74 730.559 3490
2219.08 730.559 3490
2227.43 730.559 3490
2235.77 730.559 3490
2244.12 730.559 3490
2252.46 730.559 3490
2251.74 727.629 3476
2191.13 705.44 3370
2155.47 691.415 3303
2138.48 683.46 3265
2146.29 683.46 3265
2145.52 680.739 3252
2153.29 680.739 3252
2165.06 681.995 3258
2172.85 681.995 3258
2180.64 681.995 3258
2188.43 681.995 3258
2196.22 681.995 3258
2204.01 681.995 3258
2207.73 680.739 3252
2215.51 680.739 3252
2210.29 676.762 3233
2218.02 676.762 3233
2225.75 676.762 3233
2229.34 675.506 3227
2203.09 665.248 3178
2177.3 655.201 3130
2193.16 657.713 3142
2200.67 657.713 3142
2216.62 660.225 3154
2224.16 660.225 3154
2231.7 660.225 3154
2230.73 657.713 3142
2017.41 592.821 2832
2024.18 592.821 2832
2020.91 589.89 2818
2069.38 602.031 2876
2076.26 602.031 2876
2083.14 602.031 2876
2072.58 597.007 2852
2079.4 597.007 2852
2086.22 597.007 2852
2093.04 597.007 2852
2060.83 585.913 2799
2063.83 584.866 2794
2095.71 591.983 2828
2102.47 591.983 2828
2141.31 600.984 2871
2151.91 602.031 2876
2166.3 604.124 2886
2173.2 604.124 2886
2211.07 612.707 2927
2218.07 612.707 2927
2225.07 612.707 2927
2200.8 604.124 2886
-2610.26 745.271 3520
-2607.01 746.753 3527
-2598.58 746.753 3527
-2590.15 746.753 3527
-2576.59 745.271 3520
-2568.17 745.271 3520
-2561.48 748.235 3534
-2580.48 756.281 3572
-2571.94 756.281 3572
-2563.4 756.281 3572
-2549.85 754.799 3565
-2529.92 751.411 3549
-2521.44 751.411 3549
-2492.41 745.271 3520
-2493.88 748.235 3534
-2485.43 748.235 3534
-2476.98 748.235 3534
-2468.52 748.235 3534
-2444.76 743.578 3512
-2400.98 732.78 3461
-2397.54 734.262 3468
-2389.25 734.262 3468
-2391.26 737.438 3483
-2408.24 745.271 3520
-2409.37 748.235 3534
-2400.92 748.235 3534
-2392.47 748.235 3534
-2384.02 748.235 3534
-2375.56 748.235 3534
-2367.11 748.235 3534
-2364 749.929 3542
-2360.19 751.411 3549
-2351.7 751.411 3549
-2343.21 751.411 3549
-2339.99 753.105 3557
-2331.48 753.105 3557
-2322.98 753.105 3557
-2309.27 751.411 3549
-2300.78 751.411 3549
-2287.77 749.929 3542
-2274.15 748.235 3534
-2265.7 748.235 3534
-2252.78 746.753 3527
-2239.89 745.271 3520
-2231.48 745.271 3520
-2223.06 745.271 3520
-2205.2 742.095 3505
-2191.81 740.402 3497
-2179.07 738.92 3490
-2170.73 738.92 3490
-2153.71 735.955 3476
-2145.4 735.955 3476
-2137.08 735.955 3476
-2128.77 735.955 3476
-2120.46 735.955 3476
-2112.15 735.955 3476
-2098.99 734.262 3468
-2090.7 734.262 3468
-2078.21 732.78 3461
-2065.74 731.297 3454
-2053.31 729.815 3447
-2045.07 729.815 3447
-2032.69 728.333 3440
-2016.23 725.369 3426
-1999.83 722.405 3412
-1991.67 722.405 3412
-1967.23 716.477 3384
-1935.4 707.796 3343
-1927.41 707.796 3343
-1919.41 707.796 3343
-1892.55 700.809 3310
-1884.64 700.809 3310
-1888.06 705.044 3330
-1880.1 705.044 3330
-1872.14 705.044 3330
-1864.17 705.044 3330
-1856.21 705.044 3330
-1855.46 707.796 3343
-1847.47 707.796 3343
-1843.33 709.278 3350
-1839.15 710.76 3357
-1842.03 714.995 3377
-1833.96 714.995 3377
-1833.45 717.959 3391
-1825.34 717.959 3391
-1832.24 723.887 3419
-1824.06 723.887 3419
-1823.32 726.851 3433
-1826.21 731.297 3454
-1825.32 734.262 3468
-1817.03 734.262 3468
-1812.91 735.955 3476
-1815.5 740.402 3497
-1807.14 740.402 3497
-1798.78 740.402 3497
-1794.51 742.095 3505
-1789.69 743.578 3512
-1785.35 745.271 3520
-1776.94 745.271 3520
-1772.04 746.753 3527
-1767.1 748.235 3534
-1762.63 749.929 3542
-1754.16 749.929 3542
-1745.69 749.929 3542
-1737.22 749.929 3542
-1732.17 751.411 3549
-1731.45 754.799 3565
-1722.93 754.799 3565
-1725.46 759.669 3588
-1724.06 762.844 3603
-1719.25 764.538 3611
-1710.62 764.538 3611
-1709.53 767.926 3627
-1715.39 774.489 3658
-1706.64 774.489 3658
-1709.5 779.782 3683
-1727.01 791.851 3740
-1745.63 804.554 3800
-1736.55 804.554 3800
-1755.64 817.681 3862
-1746.41 817.681 3862
-1745.27 821.492 3880
-1735.99 821.492 3880
-1738.73 827.209 3907
-1733.37 829.114 3916
-1724.01 829.114 3916
-1714.64 829.114 3916
-1701.36 827.209 3907
-1656.94 810.059 3826
-1647.79 810.059 3826
-1638.64 810.059 3826
-1603.93 797.356 3766
-1573.75 786.769 3716
-1547.6 778.089 3675
-1538.81 778.089 3675
-1519.62 772.796 3650
-1491.43 762.844 3603
-1473.35 757.975 3580
-1464.79 757.975 3580
-1443.62 751.411 3549
-1426.24 746.753 3527
-1417.8 746.753 3527
-1409.37 746.753 3527
-1398.15 745.271 3520
-1392.5 746.753 3527
-1384.07 746.753 3527
-1375.63 746.753 3527
-1367.2 746.753 3527
-1367.24 751.411 3549
-1364.88 754.799 3565
-1365.1 759.669 3588
-1356.52 759.669 3588
-1350.57 761.151 3595
-1350.94 766.232 3619
-1345.25 767.926 3627
-1336.58 767.926 3627
-1330.83 769.62 3635
-1324.69 771.102 3642
-1318.87 772.796 3650
-1310.14 772.796 3650
-1307.47 776.395 3667
-1298.7 776.395 3667
-1289.93 776.395 3667
-1281.17 776.395 3667
-1272.4 776.395 3667
-1260.53 774.489 3658
-1249.04 772.796 3650
-1240.31 772.796 3650
-1226.52 769.62 3635
-1217.83 769.62 3635
-1209.14 769.62 3635
-1200.45 769.62 3635
-1191.75 769.62 3635
-1183.06 769.62 3635
-1174.37 769.62 3635
-1167.92 771.102 3642
-1159.21 771.102 3642
-1150.5 771.102 3642
-1146.81 774.489 3658
-1140.86 776.395 3667
-1132.09 776.395 3667
-1123.32 776.395 3667
-1116.99 778.089 3675
-1110.61 779.782 3683
-1101.8 779.782 3683
-1093 779.782 3683
-1093.9 786.769 3716
-1092.03 791.851 3740
-1083.08 791.851 3740
-1079.02 795.45 3757
-1077.44 800.955 3783
-1068.4 800.955 3783
-1059.35 800.955 3783
-1050.3 800.955 3783
-1038.78 799.049 3774
-1029.76 799.049 3774
-1018.57 797.356 3766
-1009.56 797.356 3766
-996.039 793.756 3749
-987.074 793.756 3749
-978.109 793.756 3749
-971.212 795.45 3757
-966.582 799.049 3774
-959.841 800.955 3783
-950.795 800.955 3783
-941.748 800.955 3783
-932.702 800.955 3783
-923.656 800.955 3783
-914.609 800.955 3783
-899.339 795.45 3757
-890.355 795.45 3757
-881.371 795.45 3757
-870.529 793.756 3749
-861.564 793.756 3749
-852.599 793.756 3749
-843.634 793.756 3749
-834.669 793.756 3749
-825.704 793.756 3749
-816.739 793.756 3749
-807.774 793.756 3749
-798.809 793.756 3749
-789.844 793.756 3749
-780.879 793.756 3749
-770.061 791.851 3740
-761.118 791.851 3740
-750.565 790.157 3732
-740.051 788.463 3724
-729.575 786.769 3716
-720.689 786.769 3716
-711.803 786.769 3716
-699.701 783.17 3699
-690.856 783.17 3699
-682.01 783.17 3699
-670.253 779.782 3683
-661.446 779.782 3683
-648.209 774.489 3658
-639.462 774.489 3658
-629.335 772.796 3650
-619.246 771.102 3642
-609.364 769.62 3635
-600.671 769.62 3635
-590.676 767.926 3627
-582.003 767.926 3627
-570.8 764.538 3611
-562.165 764.538 3611
-553.53 764.538 3611
-544.895 764.538 3611
-535.072 762.844 3603
-524.265 759.669 3588
-515.685 759.669 3588
-507.105 759.669 3588
-498.525 759.669 3588
-489.945 759.669 3588
-481.365 759.669 3588
-472.785 759.669 3588
-463.17 757.975 3580
-454.609 757.975 3580
-446.048 757.975 3580
-437.487 757.975 3580
-430.723 761.151 3595
-422.127 761.151 3595
-413.53 761.151 3595
-404.933 761.151 3595
-396.337 761.151 3595
-387.74 761.151 3595
-379.143 761.151 3595
-370.546 761.151 3595
-361.245 759.669 3588
-351.879 757.975 3580
-343.318 757.975 3580
-334.757 757.975 3580
-326.925 759.669 3588
-318.966 761.151 3595
-310.369 761.151 3595
-301.772 761.151 3595
-293.176 761.151 3595
-284.579 761.151 3595
-274.831 757.975 3580
-266.865 759.669 3588
-258.285 759.669 3588
-249.705 759.669 3588
-241.125 759.669 3588
-232.545 759.669 3588
-137.575 466.641 2204
-132.304 466.641 2204
-127.38 467.912 2210
-122.095 467.912 2210
-116.81 467.912 2210
-111.223 466.641 2204
-105.952 466.641 2204
-100.682 466.641 2204
-95.4114 466.641 2204
-90.141 466.641 2204
-84.8706 466.641 2204
-79.6001 466.641 2204
-74.3297 466.641 2204
-69.0593 466.641 2204
-63.7888 466.641 2204
-58.5184 466.641 2204
-53.248 466.641 2204
-47.9775 466.641 2204
-42.7071 466.641 2204
-37.4876 467.277 2207
-32.21 467.277 2207
-26.969 467.912 2210
-21.7922 470.241 2221
-16.5256 471.511 2227
-11.2002 471.511 2227
-5.9064 474.052 2239
-0.553015 474.687 2242
4.84903 478.71 2261
10.2558 478.71 2261
15.7249 480.615 2270
21.237 482.521 2279
26.757 483.791 2285
32.2211 483.791 2285
37.7347 484.426 2288
43.3949 486.544 2298
48.9539 487.179 2301
54.4563 487.179 2301
60.1151 488.449 2307
65.7456 489.296 2311
71.2719 489.296 2311
76.7982 489.296 2311
82.5382 490.566 2317
88.1929 491.202 2320
93.7407 491.202 2320
99.2886 491.202 2320
104.836 491.202 2320
110.86 493.319 2330
116.582 493.954 2333
122.161 493.954 2333
127.739 493.954 2333
133.318 493.954 2333
138.897 493.954 2333
144.476 493.954 2333
149.669 492.684 2327
283.344 811.965 3835
294.574 817.681 3862
304.517 819.587 3871
313.774 819.587 3871
324.533 823.398 3889
333.833 823.398 3889
343.927 825.303 3898
353.248 825.303 3898
365.081 831.02 3925
374.466 831.02 3925
383.852 831.02 3925
393.238 831.02 3925
402.624 831.02 3925
408.231 823.398 3889
414.632 817.681 3862
419.916 810.059 3826
429.065 810.059 3826
438.214 810.059 3826
445.376 806.46 3809
454.484 806.46 3809
465.662 810.059 3826
474.811 810.059 3826
485.098 811.965 3835
494.269 811.965 3835
503.44 811.965 3835
512.61 811.965 3835
519.468 808.365 3818
528.598 808.365 3818
537.728 808.365 3818
544.28 804.554 3800
552.202 802.86 3792
561.27 802.86 3792
570.337 802.86 3792
585.975 811.965 3835
595.146 811.965 3835
608.571 817.681 3862
619.246 819.587 3871
628.503 819.587 3871
637.76 819.587 3871
650.025 823.398 3889
660.851 825.303 3898
674.814 831.02 3925
684.2 831.02 3925
693.586 831.02 3925
702.972 831.02 3925
712.358 831.02 3925
721.743 831.02 3925
738.208 839.065 3963
747.685 839.065 3963
757.161 839.065 3963
766.638 839.065 3963
774.156 836.948 3953
783.609 836.948 3953
795.068 839.065 3963
804.545 839.065 3963
814.022 839.065 3963
821.42 836.948 3953
830.873 836.948 3953
834.374 831.02 3925
841.825 829.114 3916
855.319 833.137 3935
868.685 836.948 3953
878.137 836.948 3953
887.59 836.948 3953
899.312 839.065 3963
908.789 839.065 3963
918.266 839.065 3963
921.188 833.137 3935
928.232 831.02 3925
933.318 827.209 3907
942.661 827.209 3907
923.982 802.86 3792
924.438 795.45 3757
933.422 795.45 3757
942.406 795.45 3757
943.034 788.463 3724
947.594 784.864 3707
950.266 779.782 3683
954.906 776.395 3667
963.675 776.395 3667
967.936 772.796 3650
974.524 771.102 3642
974.864 764.538 3611
983.499 764.538 3611
987.738 761.151 3595
994.394 759.669 3588
994.309 753.105 3557
1002.81 753.105 3557
1007.06 749.929 3542
1013.23 748.235 3534
1021.68 748.235 3534
1030.13 748.235 3534
1038.58 748.235 3534
1044.96 746.753 3527
1051.31 745.271 3520
1057.31 743.578 3512
1065.71 743.578 3512
1071.97 742.095 3505
1077.89 740.402 3497
1081.9 737.438 3483
1090.23 737.438 3483
1096.35 735.955 3476
1106.89 737.438 3483
1115.21 737.438 3483
1123.54 737.438 3483
1131.87 737.438 3483
1140.2 737.438 3483
1148.53 737.438 3483
1159.18 738.92 3490
1167.53 738.92 3490
1175.88 738.92 3490
1184.22 738.92 3490
1192.57 738.92 3490
1200.91 738.92 3490
1206.83 737.438 3483
1222.84 742.095 3505
1236.49 745.271 3520
1249.86 748.235 3534
1258.31 748.235 3534
1269.63 749.929 3542
1286.4 754.799 3565
1300.37 757.975 3580
1308.93 757.975 3580
1325.95 762.844 3603
1340.5 766.232 3619
1355.12 769.62 3635
1363.81 769.62 3635
1381.18 774.489 3658
1389.93 774.489 3658
1398.68 774.489 3658
1407.43 774.489 3658
1413.08 772.796 3650
1412.85 767.926 3627
1421.52 767.926 3627
1423.88 764.538 3611
1426.17 761.151 3595
1425.59 756.281 3572
1422.09 749.929 3542
1430.56 749.929 3542
1417.9 738.92 3490
1408.67 729.815 3447
1402.53 722.405 3412
1410.69 722.405 3412
1404.29 714.995 3377
1398.15 707.796 3343
1397.73 703.562 3323
1405.68 703.562 3323
1397.03 695.304 3284
