-1999.84 667.92 3426
-1991.65 667.92 3426
-1991.56 670.649 3440
-1983.33 670.649 3440
-1975.11 670.649 3440
-1966.88 670.649 3440
-1962.64 672.014 3447
-1954.4 672.014 3447
-1954.06 674.744 3461
-1945.78 674.744 3461
-1937.51 674.744 3461
-1929.23 674.744 3461
-1924.84 676.108 3468
-1916.55 676.108 3468
-1908.25 676.108 3468
-1904.34 677.668 3476
-1896.03 677.668 3476
-1887.72 677.668 3476
-1879.41 677.668 3476
-1866.79 676.108 3468
-1870.29 680.397 3490
-1861.94 680.397 3490
-1853.59 680.397 3490
-1845.25 680.397 3490
-1840.59 681.762 3497
-1832.23 681.762 3497
-1831.69 684.686 3512
-1827.44 686.246 3520
-1822.64 687.611 3527
-1814.21 687.611 3527
-1809.36 688.975 3534
-1800.91 688.975 3534
-1792.46 688.975 3534
-1784 688.975 3534
-1775.55 688.975 3534
-1771.1 690.535 3542
-1762.63 690.535 3542
-1754.16 690.535 3542
-1745.69 690.535 3542
-1737.22 690.535 3542
-1736.07 693.459 3557
-1731.45 695.019 3565
-1722.93 695.019 3565
-1721.62 697.943 3580
-1720.23 700.868 3595
-1711.64 700.868 3595
-1703.04 700.868 3595
-1701.98 703.987 3611
-1704.6 708.666 3635
-1706.64 713.15 3658
-1697.9 713.15 3658
-1723.32 727.577 3732
-1745.63 740.834 3800
-1736.55 740.834 3800
-1731.55 742.588 3809
-1750.48 754.676 3871
-1745.27 756.43 3880
-1735.99 756.43 3880
-1726.71 756.43 3880
-1717.43 756.43 3880
-1708.16 756.43 3880
-1694.94 754.676 3871
-1666.08 745.903 3826
-1612.76 726.017 3724
-1582.75 716.464 3675
-1573.97 716.464 3675
-1554.53 711.59 3650
-1532.67 705.547 3619
-1517.28 702.427 3603
-1508.67 702.427 3603
-1484.23 695.019 3565
-1469.08 691.9 3549
-1448.66 686.246 3520
-1440.24 686.246 3520
-1431.82 686.246 3520
-1420.17 684.686 3512
-1408.96 683.322 3505
-1400.58 683.322 3505
-1392.2 683.322 3505
-1386.58 684.686 3512
-1381.32 686.246 3520
-1375.63 687.611 3527
-1367.2 687.611 3527
-1370.32 693.459 3557
-1367.56 696.384 3572
-1362.06 697.943 3580
-1353.5 697.943 3580
-1353.58 702.427 3603
-1350.94 705.547 3619
-1348.22 708.666 3635
-1339.52 708.666 3635
-1333.39 710.031 3642
-1327.6 711.59 3650
-1321.76 713.15 3658
-1313.01 713.15 3658
-1304.26 713.15 3658
-1298.7 714.905 3667
-1289.93 714.905 3667
-1281.17 714.905 3667
-1269.27 713.15 3658
-1257.77 711.59 3650
-1243.91 708.666 3635
-1235.22 708.666 3635
-1226.52 708.666 3635
-1217.83 708.666 3635
-1209.14 708.666 3635
-1200.45 708.666 3635
-1191.75 708.666 3635
-1183.06 708.666 3635
-1174.37 708.666 3635
-1167.92 710.031 3642
-1159.21 710.031 3642
-1150.5 710.031 3642
-1141.79 710.031 3642
-1135.57 711.59 3650
-1126.85 711.59 3650
-1118.12 711.59 3650
-1106.96 710.031 3642
-1098.25 710.031 3642
-1089.54 710.031 3642
-1085.58 713.15 3658
-1084.19 718.024 3683
-1080.05 721.143 3699
-1071.21 721.143 3699
-1067.25 724.457 3716
-1062.92 727.577 3732
-1056.25 729.136 3740
-1047.31 729.136 3740
-1040.86 730.891 3749
-1034.1 732.451 3757
-1032.21 737.519 3783
-1023.16 737.519 3783
-1014.12 737.519 3783
-1005.07 737.519 3783
-996.026 737.519 3783
-984.632 735.765 3774
-975.607 735.765 3774
-966.582 735.765 3774
-966.438 742.588 3809
-957.329 742.588 3809
-948.221 742.588 3809
-939.112 742.588 3809
-930.004 742.588 3809
-916.785 739.274 3792
-905.563 737.519 3783
-896.517 737.519 3783
-887.47 737.519 3783
-882.372 740.834 3800
-873.285 740.834 3800
-864.198 740.834 3800
-853.311 739.274 3792
-844.243 739.274 3792
-835.175 739.274 3792
-826.107 739.274 3792
-813.161 735.765 3774
-804.136 735.765 3774
-793.426 734.205 3766
-782.546 732.451 3757
-773.562 732.451 3757
-764.577 732.451 3757
-755.593 732.451 3757
-745.019 730.891 3749
-732.717 727.577 3732
-723.792 727.577 3732
-711.803 724.457 3716
-699.701 721.143 3699
-686.374 716.464 3675
-677.585 716.464 3675
-665.704 713.15 3658
-655.52 711.59 3650
-644.133 708.666 3635
-635.441 708.666 3635
-622.61 703.987 3611
-612.615 702.427 3603
-602.658 700.868 3595
-592.905 699.503 3588
-584.325 699.503 3588
-575.745 699.503 3588
-567.165 699.503 3588
-559.674 700.868 3595
-551.078 700.868 3595
-542.481 700.868 3595
-533.884 700.868 3595
-525.288 700.868 3595
-516.691 700.868 3595
-508.094 700.868 3595
-500.609 702.427 3603
-491.993 702.427 3603
-484.45 703.987 3611
-475.815 703.987 3611
-467.18 703.987 3611
-458.545 703.987 3611
-451.904 707.106 3627
-443.231 707.106 3627
-435.516 708.666 3635
-426.824 708.666 3635
-418.131 708.666 3635
-409.439 708.666 3635
-400.746 708.666 3635
-392.054 708.666 3635
-383.362 708.666 3635
-374.669 708.666 3635
-365.977 708.666 3635
-357.284 708.666 3635
-348.592 708.666 3635
-339.9 708.666 3635
-331.845 710.031 3642
-323.136 710.031 3642
-314.427 710.031 3642
-305.718 710.031 3642
-297.009 710.031 3642
-288.299 710.031 3642
-280.819 713.15 3658
-273.336 716.464 3675
-264.548 716.464 3675
-255.76 716.464 3675
-246.972 716.464 3675
-238.184 716.464 3675
-227.336 710.031 3642
-218.206 708.666 3635
-124.728 421.885 2164
-119.554 421.885 2164
-114.379 421.885 2164
-109.053 421.3 2161
-103.741 420.716 2158
-98.5805 420.716 2158
-93.2902 420.131 2155
-88.1369 420.131 2155
-83.0992 420.716 2158
-78.0471 421.3 2161
-72.8795 421.3 2161
-67.8059 421.885 2164
-62.718 422.47 2167
-57.5891 422.86 2169
-52.4024 422.86 2169
-47.2156 422.86 2169
-42.0289 422.86 2169
-36.8422 422.86 2169
-31.6554 422.86 2169
-26.4687 422.86 2169
-21.3114 423.445 2172
-16.1397 424.03 2175
-10.9387 424.03 2175
-5.74549 424.615 2178
-0.537969 425.2 2181
4.70105 427.344 2192
9.94279 427.344 2192
15.2469 429.099 2201
20.6406 431.828 2215
26.113 434.752 2230
31.4456 434.752 2230
36.8771 435.922 2236
42.394 437.677 2245
47.7625 437.677 2245
53.131 437.677 2245
58.9164 440.796 2261
64.4085 441.381 2264
69.9149 441.966 2267
75.6351 443.72 2276
81.0777 443.72 2276
86.8624 445.475 2285
93.0943 449.179 2304
98.9034 450.544 2311
104.43 450.544 2311
110.86 454.248 2330
116.432 454.248 2330
199.918 744.343 3818
209.048 744.343 3818
221.207 754.676 3871
230.464 754.676 3871
242.507 763.449 3916
251.871 763.449 3916
261.236 763.449 3916
270.6 763.449 3916
279.964 763.449 3916
289.329 763.449 3916
300.829 768.907 3944
310.968 770.662 3953
320.421 770.662 3953
329.874 770.662 3953
340.185 772.612 3963
352.132 778.07 3991
362.582 780.02 4001
372.15 780.02 4001
381.717 780.02 4001
392.165 781.775 4010
401.754 781.775 4010
411.343 781.775 4010
420.932 781.775 4010
428.482 778.07 3991
442.306 785.674 4030
451.943 785.674 4030
461.58 785.674 4030
471.217 785.674 4030
480.854 785.674 4030
490.49 785.674 4030
500.127 785.674 4030
509.764 785.674 4030
520.561 787.428 4039
530.22 787.428 4039
539.878 787.428 4039
541.39 749.412 3844
551.871 751.166 3853
561.085 751.166 3853
571.631 752.921 3862
580.866 752.921 3862
590.101 752.921 3862
599.336 752.921 3862
608.571 752.921 3862
617.807 752.921 3862
627.042 752.921 3862
636.277 752.921 3862
648.521 756.43 3880
659.325 758.185 3889
668.625 758.185 3889
677.924 758.185 3889
687.224 758.185 3889
694.912 756.43 3880
704.19 756.43 3880
708.504 751.166 3853
716.041 749.412 3844
733.723 758.185 3889
743.023 758.185 3889
752.323 758.185 3889
758.097 754.676 3871
767.354 754.676 3871
776.611 754.676 3871
784.04 752.921 3862
791.427 751.166 3853
795.03 745.903 3826
798.714 740.834 3800
807.801 740.834 3800
815.169 739.274 3792
824.236 739.274 3792
833.304 739.274 3792
842.372 739.274 3792
890.692 749.412 3844
899.884 749.412 3844
909.077 749.412 3844
903.697 737.519 3783
912.743 737.519 3783
899.372 719.583 3691
908.198 719.583 3691
915.037 718.024 3683
919.831 714.905 3667
928.6 714.905 3667
937.369 714.905 3667
941.751 711.59 3650
950.48 711.59 3650
959.208 711.59 3650
963.958 708.666 3635
970.51 707.106 3627
972.704 702.427 3603
981.32 702.427 3603
987.738 700.868 3595
989.96 696.384 3572
996.545 695.019 3565
1005.07 695.019 3565
1011.32 693.459 3557
1019.83 693.459 3557
1024 690.535 3542
1030.13 688.975 3534
1038.58 688.975 3534
1042.89 686.246 3520
1048.92 684.686 3512
1050.69 680.397 3490
1059.04 680.397 3490
1067.38 680.397 3490
1073.57 679.033 3483
1077.24 676.108 3468
1085.53 676.108 3468
1093.83 676.108 3468
1102.12 676.108 3468
1110.41 676.108 3468
1123.54 679.033 3483
1131.87 679.033 3483
1140.2 679.033 3483
1146.22 677.668 3476
1154.53 677.668 3476
1167.53 680.397 3490
1175.88 680.397 3490
1186.6 681.762 3497
1200.08 684.686 3512
1208.48 684.686 3512
1216.88 684.686 3512
1232.95 688.975 3534
1244.22 690.535 3542
1255.16 691.9 3549
1263.65 691.9 3549
1275 693.459 3557
1288.92 696.384 3572
1300.37 697.943 3580
1308.93 697.943 3580
1317.49 697.943 3580
1331.61 700.868 3595
1349.15 705.547 3619
1357.81 705.547 3619
1372.5 708.666 3635
1383.85 710.031 3642
1392.56 710.031 3642
1401.27 710.031 3642
1407.27 708.666 3635
1406.61 703.987 3611
1415.25 703.987 3611
1414.81 699.503 3588
1414.27 695.019 3565
1410.42 688.975 3534
1401.21 680.397 3490
1409.55 680.397 3490
1406.12 674.744 3461
1400.09 667.92 3426
1388.14 658.367 3377
1396.22 658.367 3377
1390.15 651.739 3343
1389.78 647.84 3323
1386.79 642.771 3297
1394.68 642.771 3297
1399.58 641.406 3290
1402.32 639.067 3278
1404.56 636.532 3265
1406.75 633.998 3252
1414.52 633.998 3252
1422.3 633.998 3252
1424.36 631.463 3239
1429.45 630.294 3233
1437.18 630.294 3233
1444.92 630.294 3233
1452.65 630.294 3233
1460.38 630.294 3233
1468.11 630.294 3233
1475.84 630.294 3233
1483.57 630.294 3233
1488.53 629.124 3227
1496.25 629.124 3227
1503.97 629.124 3227
1511.68 629.124 3227
1519.4 629.124 3227
1518.13 625.42 3208
1525.8 625.42 3208
1530.6 624.25 3202
1526.73 619.571 3178
1528.53 617.231 3166
1536.1 617.231 3166
1526.12 610.213 3130
1527.73 607.874 3118
1520.91 602.22 3089
1528.29 602.22 3089
1518.78 595.591 3055
1498.61 584.869 3000
1487.21 577.655 2963
1483.7 573.561 2942
1490.74 573.561 2942
1481.99 567.518 2911
1481.28 564.593 2896
1480.5 561.669 2881
1487.39 561.669 2881
1486.5 558.745 2866
1486.06 556.015 2852
1490.26 555.04 2847
1491.81 553.091 2837
1498.59 553.091 2837
1502.72 552.116 2832
1509.5 552.116 2832
1514.13 551.336 2828
1520.89 551.336 2828
1524.95 550.361 2823
1526.28 548.412 2813
1530.82 547.632 2809
1537.54 547.632 2809
1538.76 545.682 2799
1542.69 544.708 2794
1544.38 542.953 2785
1551.04 542.953 2785
1554.9 541.978 2780
1559.31 541.199 2776
1560.87 539.444 2767
1572.58 541.199 2776
1581.5 541.978 2780
1588.14 541.978 2780
1600.53 543.928 2790
1607.2 543.928 2790
1621.97 546.657 2804
1628.68 546.657 2804
1640.63 548.412 2813
1676.05 557.965 2862
1682.9 557.965 2862
1689.74 557.965 2862
2087.45 662.461 3398
2095.58 662.461 3398
2103.7 662.461 3398
2107.48 661.097 3391
2115.59 661.097 3391
2123.7 661.097 3391
1836.96 569.662 2922
1843.95 569.662 2922
1968.12 605.729 3107
1975.55 605.729 3107
1982.98 605.729 3107
1946.85 592.472 3039
1954.12 592.472 3039
1957.51 591.302 3033
1964.77 591.302 3033
1944.06 582.919 2990
1910.1 570.637 2927
1890.24 562.644 2886
1884 558.745 2866
1890.85 558.745 2866
1895.06 557.965 2862
1891.93 555.04 2847
1888.74 552.116 2832
1895.51 552.116 2832
1896.24 550.361 2823
1902.99 550.361 2823
1909.74 550.361 2823
1916.49 550.361 2823
1919.83 549.387 2818
1913.58 545.682 2799
1916.84 544.708 2794
1923.53 544.708 2794
1930.21 544.708 2794
1934.12 543.928 2790
1933.83 541.978 2780
1940.48 541.978 2780
1947.13 541.978 2780
1947.45 540.224 2771
1954.08 540.224 2771
1960.7 540.224 2771
1967.33 540.224 2771
1973.95 540.224 2771
1980.58 540.224 2771
1990.79 541.199 2776
2003.91 542.953 2785
2014.18 543.928 2790
2020.85 543.928 2790
2030.43 544.708 2794
2040.75 545.682 2799
2065 550.361 2823
2071.75 550.361 2823
2078.5 550.361 2823
2085.25 550.361 2823
2092 550.361 2823
2077.2 544.708 2794
2042.86 533.985 2739
2049.41 533.985 2739
2055.96 533.985 2739
2062.5 533.985 2739
-2292.67 636.854 3227
-2284.95 636.854 3227
-2277.23 636.854 3227
-2269.52 636.854 3227
-2235.87 629.552 3190
-2228.24 629.552 3190
-2220.61 629.552 3190
-2229.63 634.289 3214
-2221.95 634.289 3214
-2223.22 636.854 3227
-2215.5 636.854 3227
-2237.89 645.538 3271
-2247.79 650.669 3297
-2239.91 650.669 3297
-2232.02 650.669 3297
-2224.14 650.669 3297
-2216.25 650.669 3297
-2217.08 653.234 3310
-2209.16 653.234 3310
-2223.19 659.747 3343
-2237.73 666.457 3377
-2252.76 673.364 3412
-2244.6 673.364 3412
-2241.03 674.746 3419
-2270.08 685.995 3476
-2280.64 691.718 3505
-2272.26 691.718 3505
-2263.87 691.718 3505
-2255.49 691.718 3505
-2247.11 691.718 3505
-2238.73 691.718 3505
-2230.35 691.718 3505
-2221.97 691.718 3505
-2213.59 691.718 3505
-2195.77 688.758 3490
-2187.42 688.758 3490
-2165.34 684.416 3468
-2180.06 691.718 3505
-2171.68 691.718 3505
-2167.62 693.099 3512
-2159.22 693.099 3512
-2150.82 693.099 3512
-2142.42 693.099 3512
-2120.66 688.758 3490
-2103.84 685.995 3476
-2095.52 685.995 3476
-2074 681.653 3454
-2057.37 678.89 3440
-2044.97 677.509 3433
-2036.76 677.509 3433
-2028.55 677.509 3433
-2007.99 673.364 3412
-1991.62 670.601 3398
-1983.5 670.601 3398
-1975.37 670.601 3398
-1967.24 670.601 3398
-1959.12 670.601 3398
-1950.99 670.601 3398
-1942.87 670.601 3398
-1946.7 674.746 3419
-1938.52 674.746 3419
-1930.35 674.746 3419
-1922.17 674.746 3419
-1914 674.746 3419
-1913.62 677.509 3433
-1905.41 677.509 3433
-1897.21 677.509 3433
-1889 677.509 3433
-1884.62 678.89 3440
-1876.4 678.89 3440
-1868.17 678.89 3440
-1859.94 678.89 3440
-1866.79 684.416 3468
-1858.5 684.416 3468
-1850.2 684.416 3468
-1846.16 685.995 3476
-1845.25 688.758 3490
-1840.59 690.139 3497
-1832.23 690.139 3497
-1823.86 690.139 3497
-1823.29 693.099 3512
-1819.02 694.678 3520
-1810.61 694.678 3520
-1805.77 696.06 3527
-1800.91 697.441 3534
-1792.46 697.441 3534
-1784 697.441 3534
-1775.55 697.441 3534
-1767.1 697.441 3534
-1758.65 697.441 3534
-1750.2 697.441 3534
-1745.69 699.02 3542
-1737.22 699.02 3542
-1732.17 700.401 3549
-1731.45 703.559 3565
-1722.93 703.559 3565
-1717.77 704.94 3572
-1713.06 706.519 3580
-1711.64 709.48 3595
-1703.04 709.48 3595
-1698.21 711.058 3603
-1697.1 714.216 3619
-1706.64 721.913 3658
-1697.9 721.913 3658
-1719.62 734.938 3724
-1737.82 746.582 3783
-1728.78 746.582 3783
-1731.55 751.713 3809
-1750.48 763.949 3871
-1745.27 765.725 3880
-1735.99 765.725 3880
-1726.71 765.725 3880
-1717.43 765.725 3880
-1708.16 765.725 3880
-1694.94 763.949 3871
-1666.08 755.068 3826
-1612.76 734.938 3724
-1582.75 725.268 3675
-1573.97 725.268 3675
-1554.53 720.334 3650
-1532.67 714.216 3619
-1517.28 711.058 3603
-1508.67 711.058 3603
-1484.23 703.559 3565
-1469.08 700.401 3549
-1448.66 694.678 3520
-1440.24 694.678 3520
-1431.82 694.678 3520
-1420.17 693.099 3512
-1408.96 691.718 3505
-1400.58 691.718 3505
-1392.2 691.718 3505
-1386.58 693.099 3512
-1381.32 694.678 3520
-1375.63 696.06 3527
-1367.2 696.06 3527
-1370.32 701.98 3557
-1367.56 704.94 3572
-1362.06 706.519 3580
-1353.5 706.519 3580
-1353.58 711.058 3603
-1350.94 714.216 3619
-1348.22 717.374 3635
-1339.52 717.374 3635
-1333.39 718.755 3642
-1327.6 720.334 3650
-1321.76 721.913 3658
-1313.01 721.913 3658
-1304.26 721.913 3658
-1298.7 723.689 3667
-1289.93 723.689 3667
-1281.17 723.689 3667
-1269.27 721.913 3658
-1257.77 720.334 3650
-1243.91 717.374 3635
-1235.22 717.374 3635
-1226.52 717.374 3635
-1217.83 717.374 3635
-1209.14 717.374 3635
-1200.45 717.374 3635
-1191.75 717.374 3635
-1183.06 717.374 3635
-1174.37 717.374 3635
-1167.92 718.755 3642
-1159.21 718.755 3642
-1150.5 718.755 3642
-1141.79 718.755 3642
-1135.57 720.334 3650
-1126.85 720.334 3650
-1118.12 720.334 3650
-1104.83 717.374 3635
-1096.14 717.374 3635
-1087.44 717.374 3635
-1085.58 721.913 3658
-1084.19 726.846 3683
-1080.05 730.004 3699
-1071.21 730.004 3699
-1067.25 733.359 3716
-1062.92 736.517 3732
-1056.25 738.096 3740
-1047.31 738.096 3740
-1040.86 739.872 3749
-1034.1 741.451 3757
-1032.21 746.582 3783
-1023.16 746.582 3783
-1014.12 746.582 3783
-1005.07 746.582 3783
-996.026 746.582 3783
-984.632 744.806 3774
-975.607 744.806 3774
-966.582 744.806 3774
-964.154 749.937 3800
-955.067 749.937 3800
-945.98 749.937 3800
-936.893 749.937 3800
-927.806 749.937 3800
-916.785 748.358 3792
-905.563 746.582 3783
-896.517 746.582 3783
-887.47 746.582 3783
-882.372 749.937 3800
-873.285 749.937 3800
-864.198 749.937 3800
-853.311 748.358 3792
-844.243 748.358 3792
-835.175 748.358 3792
-826.107 748.358 3792
-813.161 744.806 3774
-804.136 744.806 3774
-793.426 743.227 3766
-782.546 741.451 3757
-773.562 741.451 3757
-764.577 741.451 3757
-755.593 741.451 3757
-745.019 739.872 3749
-732.717 736.517 3732
-723.792 736.517 3732
-711.803 733.359 3716
-699.701 730.004 3699
-686.374 725.268 3675
-677.585 725.268 3675
-665.704 721.913 3658
-656.956 721.913 3658
-644.133 717.374 3635
-635.441 717.374 3635
-622.61 712.637 3611
-612.615 711.058 3603
-602.658 709.48 3595
-592.905 708.098 3588
-584.325 708.098 3588
-575.745 708.098 3588
-567.165 708.098 3588
-559.674 709.48 3595
-551.078 709.48 3595
-542.481 709.48 3595
-532.845 708.098 3588
-524.265 708.098 3588
-515.685 708.098 3588
-507.105 708.098 3588
-499.497 709.48 3595
-490.901 709.48 3595
-483.377 711.058 3603
-474.761 711.058 3603
-467.18 712.637 3611
-458.545 712.637 3611
-450.907 714.216 3619
-442.253 714.216 3619
-435.516 717.374 3635
-426.824 717.374 3635
-418.131 717.374 3635
-409.439 717.374 3635
-400.746 717.374 3635
-392.054 717.374 3635
-383.362 717.374 3635
-374.669 717.374 3635
-365.977 717.374 3635
-357.284 717.374 3635
-348.592 717.374 3635
-339.9 717.374 3635
-331.845 718.755 3642
-323.136 718.755 3642
-314.427 718.755 3642
-305.718 718.755 3642
-297.009 718.755 3642
-288.299 718.755 3642
-280.819 721.913 3658
-273.336 725.268 3675
-264.548 725.268 3675
-255.76 725.268 3675
-246.972 725.268 3675
-238.184 725.268 3675
-227.336 718.755 3642
-218.206 717.374 3635
-124.901 427.661 2167
-119.719 427.661 2167
-114.537 427.661 2167
-109.204 427.069 2164
-104.029 427.069 2164
-98.8546 427.069 2164
-93.4201 425.885 2158
-88.2596 425.885 2158
-83.2147 426.477 2161
-78.1555 427.069 2164
-72.9807 427.069 2164
-67.8999 427.661 2167
-62.7758 428.056 2169
-57.5891 428.056 2169
-52.4024 428.056 2169
-47.2809 428.648 2172
-42.087 428.648 2172
-36.8931 428.648 2172
-31.6554 428.056 2169
-26.5053 428.648 2172
-21.3408 429.24 2175
-16.162 429.832 2178
-10.9537 429.832 2178
-5.7534 430.424 2181
-0.538709 431.016 2184
4.70749 433.187 2195
9.9564 433.187 2195
15.2677 434.963 2204
20.6685 437.726 2218
26.113 440.094 2230
31.4456 440.094 2230
36.8771 441.279 2236
42.394 443.055 2245
47.8263 443.647 2248
53.202 443.647 2248
58.9164 446.212 2261
64.4085 446.804 2264
69.9149 447.396 2267
75.6351 449.173 2276
81.0777 449.173 2276
86.8624 450.949 2285
93.0943 454.698 2304
98.9034 456.08 2311
104.43 456.08 2311
110.86 459.83 2330
116.432 459.83 2330
199.918 753.489 3818
209.048 753.489 3818
221.207 763.949 3871
230.464 763.949 3871
242.507 772.829 3916
251.871 772.829 3916
261.236 772.829 3916
270.6 772.829 3916
279.964 772.829 3916
289.329 772.829 3916
300.829 778.355 3944
310.968 780.131 3953
320.421 780.131 3953
329.874 780.131 3953
340.185 782.105 3963
352.132 787.631 3991
362.582 789.604 4001
372.15 789.604 4001
381.717 789.604 4001
392.165 791.381 4010
401.754 791.381 4010
411.343 791.381 4010
420.932 791.381 4010
428.482 787.631 3991
442.306 795.328 4030
451.943 795.328 4030
461.58 795.328 4030
471.217 795.328 4030
480.854 795.328 4030
490.49 795.328 4030
500.127 795.328 4030
509.764 795.328 4030
520.561 797.104 4039
530.22 797.104 4039
539.878 797.104 4039
532.198 758.62 3844
541.39 758.62 3844
551.871 760.396 3853
561.085 760.396 3853
571.631 762.172 3862
580.866 762.172 3862
590.101 762.172 3862
599.336 762.172 3862
608.571 762.172 3862
617.807 762.172 3862
627.042 762.172 3862
636.277 762.172 3862
648.521 765.725 3880
659.325 767.501 3889
668.625 767.501 3889
677.924 767.501 3889
687.224 767.501 3889
694.912 765.725 3880
704.19 765.725 3880
711.814 763.949 3871
724.423 767.501 3889
733.723 767.501 3889
744.742 769.277 3898
754.064 769.277 3898
763.385 769.277 3898
770.922 767.501 3889
780.222 767.501 3889
789.522 767.501 3889
798.822 767.501 3889
802.511 762.172 3862
807.963 758.62 3844
817.155 758.62 3844
824.412 756.844 3835
835.539 758.62 3844
854.62 767.501 3889
863.92 767.501 3889
873.22 767.501 3889
888.647 772.829 3916
898.011 772.829 3916
907.375 772.829 3916
912.526 769.277 3898
913.333 762.172 3862
912.058 753.489 3818
921.188 753.489 3818
913.505 739.872 3749
916.318 734.938 3724
923.236 733.359 3716
925.851 728.425 3691
934.677 728.425 3691
943.504 728.425 3691
943.815 721.913 3658
952.563 721.913 3658
961.31 721.913 3658
970.058 721.913 3658
972.651 717.374 3635
977.024 714.216 3619
985.678 714.216 3619
989.936 711.058 3603
994.394 708.098 3588
1000.74 706.519 3580
1009.3 706.519 3580
1015.59 704.94 3572
1024.13 704.94 3572
1028.33 701.98 3557
1036.84 701.98 3557
1040.94 699.02 3542
1044.96 696.06 3527
1051.31 694.678 3520
1057.31 693.099 3512
1065.71 693.099 3512
1071.97 691.718 3505
1075.73 688.758 3490
1079.72 685.995 3476
1088.04 685.995 3476
1096.35 685.995 3476
1104.66 685.995 3476
1112.97 685.995 3476
1123.54 687.376 3483
1131.87 687.376 3483
1140.2 687.376 3483
1146.22 685.995 3476
1154.53 685.995 3476
1167.53 688.758 3490
1175.88 688.758 3490
1186.6 690.139 3497
1200.08 693.099 3512
1208.48 693.099 3512
1216.88 693.099 3512
1232.95 697.441 3534
1244.22 699.02 3542
1255.16 700.401 3549
1263.65 700.401 3549
1275 701.98 3557
1288.92 704.94 3572
1300.37 706.519 3580
1308.93 706.519 3580
1323.01 709.48 3595
1334.57 711.058 3603
1352.13 715.795 3627
1360.81 715.795 3627
1378.16 720.334 3650
1386.89 720.334 3650
1395.62 720.334 3650
1404.35 720.334 3650
1413.08 720.334 3650
1409.73 714.216 3619
1418.38 714.216 3619
1420.73 711.058 3603
1420.22 706.519 3580
1413.62 699.02 3542
1413.25 694.678 3520
1421.67 694.678 3520
1412.21 685.995 3476
1402.95 677.509 3433
1399.65 671.983 3405
1407.79 671.983 3405
1390.15 659.747 3343
1392.71 657.181 3330
1395.21 654.616 3317
1403.14 654.616 3317
1399.58 649.287 3290
1402.32 646.919 3278
1404.56 644.353 3265
1406.75 641.788 3252
1414.52 641.788 3252
1419.68 640.604 3246
1421.72 638.038 3233
1429.45 638.038 3233
1437.18 638.038 3233
1444.92 638.038 3233
1452.65 638.038 3233
1460.38 638.038 3233
1468.11 638.038 3233
1475.84 638.038 3233
1483.57 638.038 3233
1491.3 638.038 3233
1499.03 638.038 3233
1506.76 638.038 3233
1514.49 638.038 3233
1519.4 636.854 3227
1520.97 634.289 3214
1528.65 634.289 3214
1533.47 633.104 3208
1529.61 628.368 3184
1531.43 626 3172
1539.02 626 3172
1534.9 621.263 3148
1533.61 617.711 3130
1532.23 614.159 3112
1539.67 614.159 3112
1533.19 608.633 3084
1523.58 601.923 3050
1505.78 592.055 3000
1494.3 584.753 2963
1501.38 584.753 2963
1487.59 576.662 2922
1483.84 572.517 2901
1480.5 568.57 2881
1487.39 568.57 2881
1491.68 567.584 2876
1486.06 562.847 2852
1490.26 561.86 2847
1491.81 559.887 2837
1498.59 559.887 2837
1505.38 559.887 2837
1509.5 558.9 2832
1516.27 558.9 2832
1523.04 558.9 2832
1524.95 557.124 2823
1526.28 555.15 2813
1530.82 554.361 2809
1537.54 554.361 2809
1538.76 552.388 2799
1542.69 551.401 2794
1544.38 549.625 2785
1551.04 549.625 2785
1557.7 549.625 2785
1559.31 547.848 2776
1563.12 546.862 2771
1569.75 546.862 2771
1581.5 548.638 2780
1588.14 548.638 2780
1605.69 552.388 2799
1612.38 552.388 2799
1621.97 553.374 2804
1628.68 553.374 2804
1640.63 555.15 2813
1647.36 555.15 2813
1654.08 555.15 2813
2115.49 693.099 3512
2128.73 694.678 3520
2137.15 694.678 3520
2149.83 696.06 3527
2158.27 696.06 3527
2166.7 696.06 3527
2175.13 696.06 3527
2174.28 693.099 3512
2124.88 674.746 3419
2133.06 674.746 3419
2141.23 674.746 3419
2145.01 673.364 3412
1975.09 615.343 3118
1982.55 615.343 3118
1990.01 615.343 3118
1993.62 614.159 3112
1997.84 613.172 3107
1986.56 607.449 3078
1993.92 607.449 3078
1986.32 602.91 3055
1961.65 593.239 3006
1920.37 578.635 2932
1927.38 578.635 2932
1910.64 571.531 2896
1907.64 568.57 2881
1904.56 565.61 2866
1902.08 562.847 2852
1915.59 564.821 2862
1922.43 564.821 2862
1931.97 565.61 2866
1938.83 565.61 2866
1945.68 565.61 2866
1952.53 565.61 2866
1949.82 562.847 2852
1953.21 561.86 2847
1960.01 561.86 2847
1966.82 561.86 2847
1973.63 561.86 2847
1967.22 558.111 2828
1970.49 557.124 2823
1977.24 557.124 2823
1976.97 555.15 2813
1983.69 555.15 2813
1990.42 555.15 2813
2000.7 556.137 2818
2007.44 556.137 2818
2014.17 556.137 2818
2020.91 556.137 2818
2031.25 557.124 2823
2038 557.124 2823
2051.27 558.9 2832
2058.04 558.9 2832
2064.81 558.9 2832
2071.59 558.9 2832
2078.36 558.9 2832
2085.13 558.9 2832
2091.9 558.9 2832
2098.67 558.9 2832
2102.47 558.111 2828
2049.41 540.546 2739
2314.92 608.633 3084
2322.29 608.633 3084
2333.45 609.62 3089
2340.83 609.62 3089
2348.22 609.62 3089
2355.61 609.62 3089
-2337.43 657.169 3290
-2329.56 657.169 3290
-2321.69 657.169 3290
-2313.82 657.169 3290
-2288.43 652.175 3265
-2280.63 652.175 3265
-2254.72 646.981 3239
-2274.03 654.772 3278
-2266.19 654.772 3278
-2266.62 657.169 3290
-2258.75 657.169 3290
-2291.93 669.153 3350
-2316.65 678.741 3398
-2308.52 678.741 3398
-2300.4 678.741 3398
-2292.27 678.741 3398
-2284.15 678.741 3398
-2308.84 688.529 3447
-2300.6 688.529 3447
-2301.67 691.325 3461
-2303.33 694.321 3476
-2299.64 695.72 3483
-2291.31 695.72 3483
-2292.16 698.516 3497
-2293.59 701.512 3512
-2294.95 704.509 3527
-2286.52 704.509 3527
-2282.61 705.907 3534
-2274.15 705.907 3534
-2265.7 705.907 3534
-2257.25 705.907 3534
-2239.89 703.11 3520
-2231.48 703.11 3520
-2223.06 703.11 3520
-2214.64 703.11 3520
-2196.82 700.114 3505
-2188.44 700.114 3505
-2189.39 703.11 3520
-2180.97 703.11 3520
-2172.55 703.11 3520
-2164.14 703.11 3520
-2155.72 703.11 3520
-2147.3 703.11 3520
-2129.77 700.114 3505
-2112.31 697.118 3490
-2103.96 697.118 3490
-2087.21 694.321 3476
-2065.74 689.927 3454
-2057.48 689.927 3454
-2049.22 689.927 3454
-2036.83 688.529 3447
-2024.46 687.131 3440
-1999.83 681.538 3412
-1991.67 681.538 3412
-1983.51 681.538 3412
-1967.24 678.741 3398
-1959.12 678.741 3398
-1950.99 678.741 3398
-1942.87 678.741 3398
-1934.74 678.741 3398
-1930.59 680.139 3405
-1922.44 680.139 3405
-1914.3 680.139 3405
-1906.16 680.139 3405
-1898.02 680.139 3405
-1897.64 682.936 3419
-1889.47 682.936 3419
-1881.29 682.936 3419
-1876.95 684.334 3426
-1872.58 685.732 3433
-1864.37 685.732 3433
-1856.16 685.732 3433
-1851.72 687.131 3440
-1858.5 692.724 3468
-1850.2 692.724 3468
-1846.16 694.321 3476
-1837.85 694.321 3476
-1840.59 698.516 3497
-1832.23 698.516 3497
-1823.86 698.516 3497
-1823.29 701.512 3512
-1819.02 703.11 3520
-1810.61 703.11 3520
-1805.77 704.509 3527
-1797.34 704.509 3527
-1792.46 705.907 3534
-1784 705.907 3534
-1775.55 705.907 3534
-1771.1 707.505 3542
-1762.63 707.505 3542
-1754.16 707.505 3542
-1749.14 708.903 3549
-1740.66 708.903 3549
-1736.07 710.501 3557
-1731.45 712.099 3565
-1722.93 712.099 3565
-1717.77 713.497 3572
-1713.06 715.095 3580
-1704.5 715.095 3580
-1695.93 715.095 3580
-1694.44 718.091 3595
-1689.6 719.689 3603
-1695.91 726.081 3635
-1687.22 726.081 3635
-1708.08 738.865 3699
-1730.01 752.248 3766
-1721.01 752.248 3766
-1727.46 759.04 3800
-1750.48 773.222 3871
-1745.27 775.019 3880
-1735.99 775.019 3880
-1726.71 775.019 3880
-1717.43 775.019 3880
-1708.16 775.019 3880
-1698.88 775.019 3880
-1670 766.031 3835
-1612.76 743.859 3724
-1586.2 735.669 3683
-1577.39 735.669 3683
-1557.94 730.675 3658
-1532.67 722.885 3619
-1517.28 719.689 3603
-1508.67 719.689 3603
-1487.14 713.497 3572
-1475.7 712.099 3565
-1460.59 708.903 3549
-1452.11 708.903 3549
-1434.67 704.509 3527
-1423.41 703.11 3520
-1414.99 703.11 3520
-1409.37 704.509 3527
-1400.93 704.509 3527
-1392.5 704.509 3527
-1384.07 704.509 3527
-1375.63 704.509 3527
-1367.2 704.509 3527
-1370.32 710.501 3557
-1367.56 713.497 3572
-1367.77 718.091 3595
-1359.17 718.091 3595
-1353.58 719.689 3603
-1353.92 724.483 3627
-1348.22 726.081 3635
-1339.52 726.081 3635
-1336.32 729.078 3650
-1330.51 730.675 3658
-1321.76 730.675 3658
-1313.01 730.675 3658
-1307.47 732.473 3667
-1301.54 734.071 3675
-1292.75 734.071 3675
-1283.96 734.071 3675
-1275.17 734.071 3675
-1260.53 730.675 3658
-1246.3 727.48 3642
-1237.59 727.48 3642
-1228.89 727.48 3642
-1220.18 727.48 3642
-1211.47 727.48 3642
-1202.76 727.48 3642
-1191.75 726.081 3635
-1183.06 726.081 3635
-1174.37 726.081 3635
-1167.92 727.48 3642
-1159.21 727.48 3642
-1150.5 727.48 3642
-1144.3 729.078 3650
-1138.06 730.675 3658
-1129.32 730.675 3658
-1120.57 730.675 3658
-1109.39 729.078 3650
-1100.66 729.078 3650
-1091.93 729.078 3650
-1085.58 730.675 3658
-1084.19 735.669 3683
-1085.02 742.261 3716
-1076.13 742.261 3716
-1071.84 745.457 3732
-1070.04 750.45 3757
-1061.05 750.45 3757
-1052.07 750.45 3757
-1047.81 753.846 3774
-1038.78 753.846 3774
-1032.21 755.644 3783
-1023.16 755.644 3783
-1014.12 755.644 3783
-1005.07 755.644 3783
-996.026 755.644 3783
-986.98 755.644 3783
-975.607 753.846 3774
-966.582 753.846 3774
-964.154 759.04 3800
-955.067 759.04 3800
-945.98 759.04 3800
-936.893 759.04 3800
-927.806 759.04 3800
-916.785 757.442 3792
-905.563 755.644 3783
-896.517 755.644 3783
-887.47 755.644 3783
-880.514 757.442 3792
-871.446 757.442 3792
-862.378 757.442 3792
-853.311 757.442 3792
-844.243 757.442 3792
-835.175 757.442 3792
-826.107 757.442 3792
-813.161 753.846 3774
-804.136 753.846 3774
-793.426 752.248 3766
-782.546 750.45 3757
-773.562 750.45 3757
-764.577 750.45 3757
-755.593 750.45 3757
-745.019 748.852 3749
-732.717 745.457 3732
-723.792 745.457 3732
-713.336 743.859 3724
-701.215 740.463 3707
-686.374 734.071 3675
-677.585 734.071 3675
-667.342 732.473 3667
-656.956 730.675 3658
-644.133 726.081 3635
-635.441 726.081 3635
-622.61 721.287 3611
-612.615 719.689 3603
-602.658 718.091 3595
-592.905 716.693 3588
-584.325 716.693 3588
-575.745 716.693 3588
-567.165 716.693 3588
-559.674 718.091 3595
-551.078 718.091 3595
-542.481 718.091 3595
-532.845 716.693 3588
-523.096 715.095 3580
-514.535 715.095 3580
-505.974 715.095 3580
-498.525 716.693 3588
-490.901 718.091 3595
-483.377 719.689 3603
-474.761 719.689 3603
-466.145 719.689 3603
-458.545 721.287 3611
-449.91 721.287 3611
-441.275 721.287 3611
-433.599 722.885 3619
-425.884 724.483 3627
-417.211 724.483 3627
-408.538 724.483 3627
-399.864 724.483 3627
-391.191 724.483 3627
-382.518 724.483 3627
-373.845 724.483 3627
-365.171 724.483 3627
-355.712 722.885 3619
-347.058 722.885 3619
-338.404 722.885 3619
-331.207 726.081 3635
-322.515 726.081 3635
-313.823 726.081 3635
-305.13 726.081 3635
-296.438 726.081 3635
-287.112 724.483 3627
-279.053 726.081 3635
-272.071 730.675 3658
-263.324 730.675 3658
-254.577 730.675 3658
-245.829 730.675 3658
-237.082 730.675 3658
-227.336 727.48 3642
-217.246 722.885 3619
-124.901 432.852 2167
-119.719 432.852 2167
-114.537 432.852 2167
-109.204 432.253 2164
-104.029 432.253 2164
-98.8546 432.253 2164
-93.4201 431.055 2158
-88.2596 431.055 2158
-83.2147 431.654 2161
-78.1555 432.253 2164
-72.9807 432.253 2164
-67.8999 432.852 2167
-62.7758 433.252 2169
-57.5891 433.252 2169
-52.4024 433.252 2169
-47.2809 433.851 2172
-42.087 433.851 2172
-36.8931 433.851 2172
-31.6554 433.252 2169
-26.5053 433.851 2172
-21.3408 434.45 2175
-16.162 435.05 2178
-10.9537 435.05 2178
-5.7534 435.649 2181
-0.538709 436.248 2184
4.70749 438.445 2195
9.9564 438.445 2195
15.2677 440.243 2204
20.6685 443.039 2218
26.113 445.436 2230
31.4456 445.436 2230
36.8771 446.635 2236
42.394 448.433 2245
47.8263 449.032 2248
53.202 449.032 2248
58.734 450.23 2254
64.3231 451.629 2261
69.8224 452.228 2264
75.5354 454.026 2273
80.9708 454.026 2273
86.7484 455.823 2282
92.973 459.618 2301
98.6038 460.218 2304
104.113 460.218 2304
109.623 460.218 2304
199.918 762.635 3818
209.048 762.635 3818
221.207 773.222 3871
230.464 773.222 3871
240.835 776.817 3889
250.135 776.817 3889
259.435 776.817 3889
268.734 776.817 3889
279.321 780.413 3907
288.664 780.413 3907
299.38 784.008 3925
310.26 787.803 3944
319.691 787.803 3944
329.874 789.601 3953
339.327 789.601 3953
351.338 795.394 3982
360.86 795.394 3982
371.22 797.191 3991
380.763 797.191 3991
391.285 799.189 4001
400.852 799.189 4001
410.42 799.189 4001
419.988 799.189 4001
427.515 795.394 3982
439.123 799.189 4001
448.69 799.189 4001
458.258 799.189 4001
467.826 799.189 4001
476.2 797.191 3991
490.49 804.981 4030
500.127 804.981 4030
509.764 804.981 4030
519.401 804.981 4030
529.038 804.981 4030
530.923 793.396 3972
532.198 767.828 3844
541.39 767.828 3844
550.582 767.828 3844
558.464 766.031 3835
568.966 767.828 3844
580.866 771.424 3862
590.101 771.424 3862
599.336 771.424 3862
608.571 771.424 3862
617.807 771.424 3862
627.042 771.424 3862
636.277 771.424 3862
648.521 775.019 3880
659.325 776.817 3889
668.625 776.817 3889
677.924 776.817 3889
687.224 776.817 3889
694.912 775.019 3880
704.19 775.019 3880
711.814 773.222 3871
724.423 776.817 3889
733.723 776.817 3889
744.742 778.615 3898
754.064 778.615 3898
763.385 778.615 3898
770.922 776.817 3889
780.222 776.817 3889
789.522 776.817 3889
798.822 776.817 3889
802.511 771.424 3862
807.963 767.828 3844
817.155 767.828 3844
824.412 766.031 3835
835.539 767.828 3844
854.62 776.817 3889
863.92 776.817 3889
873.22 776.817 3889
888.647 782.21 3916
898.011 782.21 3916
907.375 782.21 3916
912.526 778.615 3898
913.333 771.424 3862
912.058 762.635 3818
921.188 762.635 3818
913.505 748.852 3749
916.318 743.859 3724
923.236 742.261 3716
925.851 737.267 3691
934.677 737.267 3691
943.504 737.267 3691
943.815 730.675 3658
952.563 730.675 3658
961.31 730.675 3658
970.058 730.675 3658
972.651 726.081 3635
977.024 722.885 3619
985.678 722.885 3619
989.936 719.689 3603
994.394 716.693 3588
1000.74 715.095 3580
1009.3 715.095 3580
1015.59 713.497 3572
1024.13 713.497 3572
1028.33 710.501 3557
1036.84 710.501 3557
1040.94 707.505 3542
1044.96 704.509 3527
1051.31 703.11 3520
1057.31 701.512 3512
1065.71 701.512 3512
1071.97 700.114 3505
1075.73 697.118 3490
1084.07 697.118 3490
1092.42 697.118 3490
1096.35 694.321 3476
1104.66 694.321 3476
1112.97 694.321 3476
1121.29 694.321 3476
1129.6 694.321 3476
1137.91 694.321 3476
1146.22 694.321 3476
1154.53 694.321 3476
1165.19 695.72 3483
1173.52 695.72 3483
1186.6 698.516 3497
1194.96 698.516 3497
1208.48 701.512 3512
1216.88 701.512 3512
1228.07 703.11 3520
1241.41 705.907 3534
1255.16 708.903 3549
1263.65 708.903 3549
1275 710.501 3557
1288.92 713.497 3572
1300.37 715.095 3580
1308.93 715.095 3580
1323.01 718.091 3595
1337.53 721.287 3611
1355.12 726.081 3635
1363.81 726.081 3635
1381.18 730.675 3658
1396.39 734.071 3675
1405.18 734.071 3675
1413.97 734.071 3675
1416.17 730.675 3658
1415.96 726.081 3635
1424.65 726.081 3635
1423.88 721.287 3611
1420.22 715.095 3580
1416.41 708.903 3549
1416.06 704.509 3527
1424.5 704.509 3527
1415.06 695.72 3483
1408.67 688.529 3447
1399.65 680.139 3405
1407.79 680.139 3405
1390.15 667.755 3343
1392.71 665.158 3330
1395.21 662.562 3317
1403.14 662.562 3317
1399.58 657.169 3290
1402.32 654.772 3278
1404.56 652.175 3265
1406.75 649.578 3252
1414.52 649.578 3252
1419.68 648.38 3246
1421.72 645.783 3233
1429.45 645.783 3233
1437.18 645.783 3233
1444.92 645.783 3233
1452.65 645.783 3233
1460.38 645.783 3233
1468.11 645.783 3233
1475.84 645.783 3233
1486.32 646.981 3239
1494.07 646.981 3239
1501.81 646.981 3239
1506.76 645.783 3233
1514.49 645.783 3233
1519.4 644.584 3227
1520.97 641.988 3214
1528.65 641.988 3214
1533.47 640.789 3208
1532.49 637.194 3190
1534.33 634.797 3178
1541.93 634.797 3178
1534.9 628.804 3148
1536.55 626.407 3136
1538.14 624.01 3124
1545.61 624.01 3124
1535.68 617.019 3089
1529.08 611.426 3061
1508.79 600.44 3006
1502.36 595.047 2979
1509.49 595.047 2979
1508.47 591.851 2963
1486.4 580.466 2906
1490.78 579.467 2901
1497.71 579.467 2901
1491.68 574.473 2876
1486.06 569.679 2852
1490.26 568.68 2847
1494.44 567.682 2842
1501.23 567.682 2842
1505.38 566.683 2837
1509.5 565.684 2832
1516.27 565.684 2832
1523.04 565.684 2832
1524.95 563.887 2823
1526.28 561.889 2813
1530.82 561.09 2809
1537.54 561.09 2809
1538.76 559.093 2799
1542.69 558.094 2794
1544.38 556.296 2785
1551.04 556.296 2785
1557.7 556.296 2785
1559.31 554.498 2776
1563.12 553.5 2771
1569.75 553.5 2771
1581.5 555.297 2780
1588.14 555.297 2780
1605.69 559.093 2799
1615.26 560.091 2804
1627.18 561.889 2813
1633.9 561.889 2813
1640.63 561.889 2813
1647.36 561.889 2813
1654.08 561.889 2813
1974.01 665.158 3330
2030.78 681.538 3412
2038.94 681.538 3412
2107.1 701.512 3512
2120.31 703.11 3520
2132.96 704.509 3527
2141.4 704.509 3527
2154.1 705.907 3534
2162.55 705.907 3534
2171 705.907 3534
2179.45 705.907 3534
2187.9 705.907 3534
2182.68 701.512 3512
2191.08 701.512 3512
2167.54 691.325 3461
2153.81 684.334 3426
1994.1 628.804 3148
2001.62 628.804 3148
2009.15 628.804 3148
2016.68 628.804 3148
2024.21 628.804 3148
2008.5 621.613 3112
2015.94 621.613 3112
2012.33 618.218 3095
1993.63 610.228 3055
1976.05 602.638 3017
1983.26 602.638 3017
1951.55 590.852 2958
1944.72 586.658 2937
1941.77 583.661 2922
1941.42 581.464 2911
1952.4 582.663 2917
1959.38 582.663 2917
1966.35 582.663 2917
1973.33 582.663 2917
1980.3 582.663 2917
1987.28 582.663 2917
1997.67 583.661 2922
2004.66 583.661 2922
2011.65 583.661 2922
2018.63 583.661 2922
2022.16 582.663 2917
2014.52 578.468 2896
2021.45 578.468 2896
2014.37 574.473 2876
2021.24 574.473 2876
2031.65 575.472 2881
2038.54 575.472 2881
2063.17 580.466 2906
2070.12 580.466 2906
2088.51 583.661 2922
2095.5 583.661 2922
2102.48 583.661 2922
2109.47 583.661 2922
2127.32 586.658 2937
2153.24 591.851 2963
2160.33 591.851 2963
2167.41 591.851 2963
2174.5 591.851 2963
2169.8 588.655 2947
2181.28 589.854 2953
2188.34 589.854 2953
2195.4 589.854 2953
2202.47 589.854 2953
2049.41 547.108 2739
2318.67 617.019 3089
2326.06 617.019 3089
2337.98 618.218 3095
2345.38 618.218 3095
2352.78 618.218 3095
2355.61 617.019 3089
-2337.43 665.05 3290
-2329.56 665.05 3290
-2321.69 665.05 3290
-2313.82 665.05 3290
-2288.43 659.996 3265
-2280.63 659.996 3265
-2254.72 654.74 3239
-2274.03 662.624 3278
-2266.19 662.624 3278
-2266.62 665.05 3290
-2258.75 665.05 3290
-2363.09 698.201 3454
-2364.37 701.031 3468
-2356.08 701.031 3468
-2347.79 701.031 3468
-2339.49 701.031 3468
-2326.49 699.616 3461
-2318.22 699.616 3461
-2339.31 708.51 3505
-2335.58 709.925 3512
-2327.18 709.925 3512
-2324.07 711.543 3520
-2315.65 711.543 3520
-2307.23 711.543 3520
-2303.39 712.958 3527
-2304.71 715.99 3542
-2296.24 715.99 3542
-2287.77 715.99 3542
-2279.3 715.99 3542
-2270.83 715.99 3542
-2257.25 714.373 3534
-2244.35 712.958 3527
-2235.91 712.958 3527
-2227.48 712.958 3527
-2214.64 711.543 3520
-2201.21 709.925 3512
-2192.81 709.925 3512
-2189.39 711.543 3520
-2180.97 711.543 3520
-2181.19 714.373 3534
-2172.74 714.373 3534
-2164.29 714.373 3534
-2155.84 714.373 3534
-2129.77 708.51 3505
-2112.31 705.478 3490
-2103.96 705.478 3490
-2087.21 702.648 3476
-2074.12 701.031 3468
-2057.48 698.201 3454
-2049.22 698.201 3454
-2040.96 698.201 3454
-2028.58 696.786 3447
-2012.14 693.956 3433
-2003.93 693.956 3433
-1987.58 691.126 3419
-1967.24 686.881 3398
-1959.12 686.881 3398
-1950.99 686.881 3398
-1942.87 686.881 3398
-1934.74 686.881 3398
-1930.59 688.296 3405
-1922.44 688.296 3405
-1914.3 688.296 3405
-1906.16 688.296 3405
-1898.02 688.296 3405
-1893.76 689.711 3412
-1885.6 689.711 3412
-1881.29 691.126 3419
-1873.12 691.126 3419
-1868.76 692.541 3426
-1860.57 692.541 3426
-1852.37 692.541 3426
-1847.95 693.956 3433
-1854.74 699.616 3461
-1846.47 699.616 3461
-1841.91 701.031 3468
-1837.85 702.648 3476
-1836.9 705.478 3490
-1828.56 705.478 3490
-1823.86 706.893 3497
-1819.65 708.51 3505
-1819.02 711.543 3520
-1810.61 711.543 3520
-1805.77 712.958 3527
-1797.34 712.958 3527
-1792.46 714.373 3534
-1784 714.373 3534
-1779.57 715.99 3542
-1771.1 715.99 3542
-1766.12 717.405 3549
-1757.63 717.405 3549
-1749.14 717.405 3549
-1740.66 717.405 3549
-1739.98 720.639 3565
-1734.85 722.054 3572
-1726.31 722.054 3572
-1721.62 723.671 3580
-1716.88 725.288 3588
-1711.64 726.703 3595
-1703.04 726.703 3595
-1694.44 726.703 3595
-1697.1 731.555 3619
-1699.18 736.204 3642
-1690.47 736.204 3642
-1719.62 752.78 3724
-1730.01 761.27 3766
-1721.01 761.27 3766
-1735.64 771.781 3818
-1754.55 784.314 3880
-1745.27 784.314 3880
-1735.99 784.314 3880
-1726.71 784.314 3880
-1717.43 784.314 3880
-1708.16 784.314 3880
-1698.88 784.314 3880
-1670 775.218 3835
-1619.69 756.014 3740
-1593.09 747.726 3699
-1584.24 747.726 3699
-1561.77 741.258 3667
-1532.67 731.555 3619
-1517.28 728.32 3603
-1508.67 728.32 3603
-1490.47 723.671 3580
-1475.7 720.639 3565
-1463.89 719.022 3557
-1455.38 719.022 3557
-1434.67 712.958 3527
-1426.24 712.958 3527
-1417.8 712.958 3527
-1409.37 712.958 3527
-1400.93 712.958 3527
-1392.5 712.958 3527
-1386.81 714.373 3534
-1378.36 714.373 3534
-1369.91 714.373 3534
-1370.32 719.022 3557
-1367.56 722.054 3572
-1367.77 726.703 3595
-1359.17 726.703 3595
-1353.58 728.32 3603
-1353.92 733.172 3627
-1348.22 734.789 3635
-1339.52 734.789 3635
-1336.32 737.821 3650
-1330.51 739.438 3658
-1321.76 739.438 3658
-1313.01 739.438 3658
-1310.32 742.875 3675
-1301.54 742.875 3675
-1292.75 742.875 3675
-1283.96 742.875 3675
-1275.17 742.875 3675
-1260.53 739.438 3658
-1249.04 737.821 3650
-1240.31 737.821 3650
-1228.89 736.204 3642
-1220.18 736.204 3642
-1211.47 736.204 3642
-1202.76 736.204 3642
-1191.75 734.789 3635
-1183.06 734.789 3635
-1174.37 734.789 3635
-1167.92 736.204 3642
-1159.21 736.204 3642
-1150.5 736.204 3642
-1146.81 739.438 3658
-1138.06 739.438 3658
-1129.32 739.438 3658
-1120.57 739.438 3658
-1111.82 739.438 3658
-1103.07 739.438 3658
-1094.33 739.438 3658
-1088.25 741.258 3667
-1093.9 751.163 3716
-1087.35 752.78 3724
-1078.45 752.78 3724
-1074.14 756.014 3740
-1074.88 762.887 3774
-1065.85 762.887 3774
-1056.83 762.887 3774
-1047.81 762.887 3774
-1041.26 764.706 3783
-1034.67 766.525 3792
-1025.6 766.525 3792
-1016.53 766.525 3792
-1005.07 764.706 3783
-996.026 764.706 3783
-986.98 764.706 3783
-975.607 762.887 3774
-966.582 762.887 3774
-964.154 768.143 3800
-955.067 768.143 3800
-945.98 768.143 3800
-936.893 768.143 3800
-927.806 768.143 3800
-916.785 766.525 3792
-905.563 764.706 3783
-896.517 764.706 3783
-887.47 764.706 3783
-878.424 764.706 3783
-869.378 764.706 3783
-860.332 764.706 3783
-853.311 766.525 3792
-844.243 766.525 3792
-835.175 766.525 3792
-826.107 766.525 3792
-813.161 762.887 3774
-804.136 762.887 3774
-793.426 761.27 3766
-782.546 759.45 3757
-773.562 759.45 3757
-764.577 759.45 3757
-755.593 759.45 3757
-745.019 757.833 3749
-736.054 757.833 3749
-727.089 757.833 3749
-714.868 754.397 3732
-704.43 752.78 3724
-692.35 749.343 3707
-683.486 749.343 3707
-668.797 742.875 3675
-658.573 741.258 3667
-645.374 736.204 3642
-636.665 736.204 3642
-625.369 733.172 3627
-613.975 729.938 3611
-603.999 728.32 3603
-595.383 728.32 3603
-585.465 726.703 3595
-575.745 725.288 3588
-568.271 726.703 3595
-560.92 728.32 3603
-552.304 728.32 3603
-543.688 728.32 3603
-533.884 726.703 3595
-524.265 725.288 3588
-515.685 725.288 3588
-505.974 723.671 3580
-498.525 725.288 3588
-490.901 726.703 3595
-482.304 726.703 3595
-473.707 726.703 3595
-466.145 728.32 3603
-457.53 728.32 3603
-449.91 729.938 3611
-441.275 729.938 3611
-433.599 731.555 3619
-424.945 731.555 3619
-416.291 731.555 3619
-407.637 731.555 3619
-398.982 731.555 3619
-390.328 731.555 3619
-381.674 731.555 3619
-373.02 731.555 3619
-364.366 731.555 3619
-354.926 729.938 3611
-347.058 731.555 3619
-338.404 731.555 3619
-329.749 731.555 3619
-321.095 731.555 3619
-312.441 731.555 3619
-303.787 731.555 3619
-295.133 731.555 3619
-285.846 729.938 3611
-277.825 731.555 3619
-271.476 737.821 3650
-262.748 737.821 3650
-254.02 737.821 3650
-244.283 734.789 3635
-235.591 734.789 3635
-226.399 733.172 3627
-216.766 729.938 3611
-125.017 438.448 2169
-119.83 438.448 2169
-114.643 438.448 2169
-109.456 438.448 2169
-104.174 438.043 2167
-98.9916 438.043 2167
-93.6798 437.437 2164
-88.505 437.437 2164
-83.3303 437.437 2164
-78.2638 438.043 2167
-73.0819 438.043 2167
-67.9626 438.448 2169
-62.8627 439.054 2172
-57.6688 439.054 2172
-52.4749 439.054 2172
-47.2809 439.054 2172
-42.087 439.054 2172
-36.8931 439.054 2172
-31.6992 439.054 2172
-26.5053 439.054 2172
-21.3408 439.661 2175
-16.162 440.267 2178
-10.9537 440.267 2178
-5.76131 441.48 2184
-0.539202 441.884 2186
4.72036 444.916 2201
9.98361 444.916 2201
15.3092 446.736 2210
20.7524 450.172 2227
26.1832 451.991 2236
31.5302 451.991 2236
37.0256 453.811 2245
42.394 453.811 2245
47.954 455.63 2254
53.344 455.63 2254
58.734 455.63 2254
64.3231 457.045 2261
69.9149 458.258 2267
75.5354 459.471 2273
80.9708 459.471 2273
86.7484 461.29 2282
92.7306 463.918 2295
98.2186 463.918 2295
103.707 463.918 2295
199.918 771.781 3818
209.048 771.781 3818
220.692 780.675 3862
229.928 780.675 3862
240.278 784.314 3880
249.556 784.314 3880
259.435 786.133 3889
268.734 786.133 3889
278.677 787.953 3898
287.999 787.953 3898
299.38 793.41 3925
310.26 797.251 3944
319.691 797.251 3944
329.874 799.07 3953
339.327 799.07 3953
351.338 804.932 3982
360.86 804.932 3982
370.382 804.932 3982
379.905 804.932 3982
389.427 804.932 3982
398.949 804.932 3982
408.471 804.932 3982
417.993 804.932 3982
423.436 797.251 3944
435.94 802.911 3972
445.438 802.911 3972
454.937 802.911 3972
464.435 802.911 3972
473.933 802.911 3972
485.744 806.752 3991
495.287 806.752 3991
504.831 806.752 3991
511.926 802.911 3972
521.424 802.911 3972
530.923 802.911 3972
529.128 786.133 3889
535.936 782.495 3871
545.193 782.495 3871
554.449 782.495 3871
554.677 769.962 3809
566.302 773.398 3826
578.159 777.037 3844
590.101 780.675 3862
599.336 780.675 3862
608.571 780.675 3862
617.807 780.675 3862
627.042 780.675 3862
636.277 780.675 3862
647.017 782.495 3871
657.799 784.314 3880
668.625 786.133 3889
677.924 786.133 3889
687.224 786.133 3889
694.912 784.314 3880
704.19 784.314 3880
711.814 782.495 3871
724.423 786.133 3889
733.723 786.133 3889
744.742 787.953 3898
754.064 787.953 3898
763.385 787.953 3898
770.922 786.133 3889
780.222 786.133 3889
789.522 786.133 3889
798.822 786.133 3889
806.251 784.314 3880
809.854 778.856 3853
819.068 778.856 3853
826.347 777.037 3844
845.32 786.133 3889
864.729 795.432 3935
874.139 795.432 3935
883.548 795.432 3935
892.958 795.432 3935
902.368 795.432 3935
911.778 795.432 3935
914.633 789.772 3907
921.847 787.953 3898
922.569 780.675 3862
931.804 780.675 3862
917.647 761.27 3766
922.47 757.833 3749
929.199 756.014 3740
938.142 756.014 3740
941.008 751.163 3716
945.549 747.726 3699
952.33 746.109 3691
954.906 741.258 3667
963.675 741.258 3667
972.444 741.258 3667
978.805 739.438 3658
981.343 734.789 3635
990.035 734.789 3635
994.332 731.555 3619
998.552 728.32 3603
1002.97 725.288 3588
1011.55 725.288 3588
1017.86 723.671 3580
1026.42 723.671 3580
1032.67 722.054 3572
1041.21 722.054 3572
1042.99 717.405 3549
1047.04 714.373 3534
1055.49 714.373 3534
1059.72 711.543 3520
1068.14 711.543 3520
1074.11 709.925 3512
1077.89 706.893 3497
1084.07 705.478 3490
1092.42 705.478 3490
1096.35 702.648 3476
1104.66 702.648 3476
1112.97 702.648 3476
1121.29 702.648 3476
1129.6 702.648 3476
1135.29 701.031 3468
1143.58 701.031 3468
1151.88 701.031 3468
1162.85 702.648 3476
1171.16 702.648 3476
1181.85 704.063 3483
1190.17 704.063 3483
1203.32 706.893 3497
1211.68 706.893 3497
1222.84 708.51 3505
1236.49 711.543 3520
1249.86 714.373 3534
1258.31 714.373 3534
1272.13 717.405 3549
1288.92 722.054 3572
1300.37 723.671 3580
1308.93 723.671 3580
1323.01 726.703 3595
1337.53 729.938 3611
1355.12 734.789 3635
1363.81 734.789 3635
1381.18 739.438 3658
1396.39 742.875 3675
1405.18 742.875 3675
1413.97 742.875 3675
1416.17 739.438 3658
1415.96 734.789 3635
1424.65 734.789 3635
1423.88 729.938 3611
1420.22 723.671 3580
1416.41 717.405 3549
1416.06 712.958 3527
1424.5 712.958 3527
1415.06 704.063 3483
1408.67 696.786 3447
1399.65 688.296 3405
1407.79 688.296 3405
1390.15 675.763 3343
1392.71 673.135 3330
1395.21 670.508 3317
1403.14 670.508 3317
1399.58 665.05 3290
1402.32 662.624 3278
1404.56 659.996 3265
1406.75 657.368 3252
1414.52 657.368 3252
1419.68 656.155 3246
1421.72 653.528 3233
1429.45 653.528 3233
1437.18 653.528 3233
1444.92 653.528 3233
1452.65 653.528 3233
1460.38 653.528 3233
1468.11 653.528 3233
1475.84 653.528 3233
1486.32 654.74 3239
1494.07 654.74 3239
1501.81 654.74 3239
