2112.85 452.456 2762
-2113.65 469.211 2823
-2106.9 469.211 2823
-2100.15 469.211 2823
-2089.69 468.38 2818
-2086.65 469.211 2823
-2086.53 470.707 2832
-2079.75 470.707 2832
-2072.98 470.707 2832
-2059.64 469.211 2823
-2049.26 468.38 2818
-2042.52 468.38 2818
-2029.28 466.884 2809
-2018.96 466.053 2804
-2005.08 464.391 2794
-1998.4 464.391 2794
-1991.72 464.391 2794
-2002.09 468.38 2818
-2015.88 473.2 2847
-2012.6 474.031 2852
-2005.78 474.031 2852
-1998.96 474.031 2852
-1992.14 474.031 2852
-1985.32 474.031 2852
-1978.5 474.031 2852
-1971.68 474.031 2852
-1964.86 474.031 2852
-1958.04 474.031 2852
-1947.8 473.2 2847
-1944.4 474.031 2852
-1937.58 474.031 2852
-1937.53 475.693 2862
-1930.69 475.693 2862
-1926.53 476.358 2866
-1926.38 478.02 2876
-1926.17 479.682 2886
-1919.27 479.682 2886
-1925.62 483.007 2906
-1929.24 485.666 2922
-1922.25 485.666 2922
-1915.27 485.666 2922
-1908.28 485.666 2922
-1907.8 487.328 2932
-1907.27 488.99 2942
-1900.23 488.99 2942
-1913.79 494.309 2974
-1909.88 495.14 2979
-1912.98 497.799 2995
-1905.82 497.799 2995
-1922.75 504.115 3033
-1940.12 510.598 3072
-1932.78 510.598 3072
-1943.61 515.418 3101
-1936.19 515.418 3101
-1928.78 515.418 3101
-1928.18 517.246 3112
-1920.74 517.246 3112
-1931.74 522.232 3142
-1935.25 525.224 3160
-1927.69 525.224 3160
-1923.78 526.221 3166
-1916.21 526.221 3166
-1908.64 526.221 3166
-1901.07 526.221 3166
-1893.5 526.221 3166
-1903.8 531.208 3196
-1925.82 539.518 3246
-1918.06 539.518 3246
-1929.13 544.837 3278
-1944.15 551.319 3317
-1943.8 553.48 3330
-1935.84 553.48 3330
-1943.51 557.967 3357
-1955.08 563.619 3391
-1963.05 568.272 3419
-1954.88 568.272 3419
-1966.63 574.09 3454
-1966.31 576.417 3468
-1962.53 577.746 3476
-1954.22 577.746 3476
-1953.74 580.073 3490
-1957.66 583.73 3512
-1953.7 585.06 3520
-1945.28 585.06 3520
-1936.87 585.06 3520
-1928.45 585.06 3520
-1923.85 586.223 3527
-1915.42 586.223 3527
-1910.77 587.387 3534
-1910.39 589.88 3549
-1906.19 591.209 3557
-1897.69 591.209 3557
-1889.18 591.209 3557
-1880.67 591.209 3557
-1876.38 592.539 3565
-1867.85 592.539 3565
-1867.15 595.032 3580
-1862.74 596.362 3588
-1857.78 597.525 3595
-1849.18 597.525 3595
-1840.59 597.525 3595
-1831.99 597.525 3595
-1827.45 598.855 3603
-1818.84 598.855 3603
-1810.22 598.855 3603
-1805.6 600.185 3611
-1800.95 601.514 3619
-1792.3 601.514 3619
-1783.64 601.514 3619
-1778.91 602.844 3627
-1774.14 604.174 3635
-1765.45 604.174 3635
-1760.14 605.337 3642
-1759.13 607.997 3658
-1754.69 609.493 3667
-1745.92 609.493 3667
-1744.73 612.152 3683
-1747.23 616.141 3707
-1742.59 617.637 3716
-1733.7 617.637 3716
-1728.53 618.967 3724
-1727.01 621.626 3740
-1725.88 624.451 3757
-1716.89 624.451 3757
-1712 625.947 3766
-1714.75 630.269 3792
-1709.28 631.599 3800
-1700.2 631.599 3800
-1691.11 631.599 3800
-1674.5 628.773 3783
-1657.97 625.947 3766
-1648.96 625.947 3766
-1625.15 620.296 3732
-1601.94 614.811 3699
-1575.43 607.997 3658
-1566.68 607.997 3658
-1541.33 601.514 3619
-1516.16 595.032 3580
-1497.91 591.209 3557
-1489.4 591.209 3557
-1471.32 587.387 3534
-1457.08 585.06 3520
-1442.49 582.567 3505
-1434.1 582.567 3505
-1416.77 578.91 3483
-1402.38 576.417 3468
-1382.83 571.763 3440
-1374.6 571.763 3440
-1360.82 569.436 3426
-1352.62 569.436 3426
-1341.69 568.272 3419
-1333.51 568.272 3419
-1325.33 568.272 3419
-1314.46 567.109 3412
-1303.62 565.945 3405
-1303.47 569.436 3426
-1295.28 569.436 3426
-1287.08 569.436 3426
-1278.89 569.436 3426
-1281.08 574.09 3454
-1272.82 574.09 3454
-1264.56 574.09 3454
-1241.03 567.109 3412
-1225.28 563.619 3391
-1217.17 563.619 3391
-1206.57 562.455 3384
-1193.52 560.128 3370
-1180.89 557.967 3357
-1172.86 557.967 3357
-1162.4 556.804 3350
-1156.8 557.967 3357
-1148.78 557.967 3357
-1140.75 557.967 3357
-1128 555.641 3343
-678.049 567.109 3412
-669.89 567.109 3412
-661.731 567.109 3412
-652.231 565.945 3405
-641.44 563.619 3391
-633.331 563.619 3391
-630.385 568.272 3419
-636.404 581.237 3497
-628.042 581.237 3497
-619.679 581.237 3497
-612.715 582.567 3505
-604.334 582.567 3505
-595.952 582.567 3505
-588.744 583.73 3512
-582.825 586.223 3527
-576.833 588.716 3542
-568.363 588.716 3542
-562.264 591.209 3557
-557.339 595.032 3580
-548.778 595.032 3580
-540.218 595.032 3580
-532.845 596.362 3588
-526.456 598.855 3603
-521.29 602.844 3627
-512.617 602.844 3627
-505.055 604.174 3635
-496.363 604.174 3635
-487.67 604.174 3635
-478.978 604.174 3635
-469.25 602.844 3627
-460.577 602.844 3627
-452.901 604.174 3635
-444.208 604.174 3635
-435.516 604.174 3635
-428.585 606.667 3650
-419.857 606.667 3650
-411.128 606.667 3650
-404.274 609.493 3667
-396.368 610.822 3675
-388.424 612.152 3683
-379.617 612.152 3683
-372.42 614.811 3699
-364.361 616.141 3707
-357.894 620.296 3732
-348.97 620.296 3732
-340.046 620.296 3732
-331.121 620.296 3732
-322.197 620.296 3732
-313.273 620.296 3732
-305.735 623.122 3749
-297.403 624.451 3757
-289.11 625.947 3766
-280.104 625.947 3766
-271.098 625.947 3766
-262.649 627.277 3774
-254.834 630.269 3792
-245.767 630.269 3792
-236.699 630.269 3792
-132.845 367.823 2213
-129.916 374.638 2254
-124.526 374.638 2254
-119.136 374.638 2254
-113.292 373.142 2245
-107.923 373.142 2245
-101.595 369.651 2224
-95.6712 367.324 2210
-89.8956 365.33 2198
-84.524 364.831 2195
-79.2751 364.831 2195
-73.7226 363.335 2186
-68.5893 363.834 2189
-63.3547 363.834 2189
-58.1201 363.834 2189
-52.8856 363.834 2189
-47.651 363.834 2189
-42.3583 363.335 2186
-37.1309 363.335 2186
-31.9035 363.335 2186
-26.6761 363.335 2186
-21.4488 363.335 2186
-16.2214 363.335 2186
-10.994 363.335 2186
-5.76659 363.335 2186
-0.537969 362.504 2181
4.67746 362.504 2181
9.8929 362.504 2181
15.1083 362.504 2181
20.3238 362.504 2181
25.5977 363.335 2186
30.9097 364.333 2192
36.1515 364.333 2192
41.3932 364.333 2192
46.6349 364.333 2192
51.8767 364.333 2192
56.91 363.003 2184
62.1326 363.003 2184
67.3552 363.003 2184
72.5778 363.003 2184
77.6935 362.504 2181
82.9089 362.504 2181
88.0032 362.006 2178
93.2114 362.006 2178
98.2841 361.507 2175
103.342 361.008 2172
108.536 361.008 2172
113.73 361.008 2172
118.924 361.008 2172
124.118 361.008 2172
129.133 360.51 2169
134.32 360.51 2169
139.507 360.51 2169
144.694 360.51 2169
149.742 360.177 2167
154.924 360.177 2167
160.106 360.177 2167
165.288 360.177 2167
170.627 360.51 2169
176.057 361.008 2172
181.251 361.008 2172
186.445 361.008 2172
191.639 361.008 2172
196.833 361.008 2172
202.027 361.008 2172
206.744 360.177 2167
211.632 359.679 2164
216.807 359.679 2164
221.982 359.679 2164
227.157 359.679 2164
231.365 358.183 2155
537.905 505.944 3044
545.184 505.944 3044
554.459 507.772 3055
561.765 507.772 3055
569.07 507.772 3055
576.375 507.772 3055
580.624 505.113 3039
585.763 503.284 3028
593.004 503.284 3028
596.875 500.459 3011
605.279 501.456 3017
612.494 501.456 3017
619.708 501.456 3017
626.923 501.456 3017
634.137 501.456 3017
641.352 501.456 3017
648.566 501.456 3017
653.39 499.628 3006
660.578 499.628 3006
665.323 497.799 2995
672.485 497.799 2995
677.151 495.971 2984
681.993 494.309 2974
686.556 492.481 2963
691.3 490.819 2953
698.362 490.819 2953
703.99 489.821 2947
712.485 490.819 2953
721.983 492.481 2963
730.299 493.312 2968
737.396 493.312 2968
744.494 493.312 2968
751.591 493.312 2968
758.688 493.312 2968
765.786 493.312 2968
771.581 492.481 2963
778.667 492.481 2963
787.078 493.312 2968
794.175 493.312 2968
802.893 494.309 2974
818.72 499.628 3006
828.93 501.456 3017
836.145 501.456 3017
846.434 503.284 3028
856.776 505.113 3039
864.044 505.113 3039
871.311 505.113 3039
878.578 505.113 3039
879.432 501.456 3017
884.884 500.459 3011
895.343 502.287 3022
902.569 502.287 3022
919.731 507.772 3055
975.285 534.199 3214
982.97 534.199 3214
994.663 536.36 3227
1002.38 536.36 3227
1010.1 536.36 3227
1079.03 560.128 3370
1087.09 560.128 3370
1095.15 560.128 3370
1100.92 558.965 3363
1108.96 558.965 3363
1128.63 564.782 3398
1157.83 575.253 3461
1166.1 575.253 3461
1179.47 577.746 3476
1192.57 580.073 3490
1203.32 581.237 3497
1211.68 581.237 3497
1222.84 582.567 3505
1231.22 582.567 3505
1242.08 583.73 3512
1250.47 583.73 3512
1261.74 585.06 3520
1272.68 586.223 3527
1283.66 587.387 3534
1292.11 587.387 3534
1306.08 589.88 3549
1317.53 591.209 3557
1329.02 592.539 3565
1337.54 592.539 3565
1346.07 592.539 3565
1360.29 595.032 3580
1368.86 595.032 3580
1377.42 595.032 3580
1385.98 595.032 3580
1388.69 592.539 3565
1397.22 592.539 3565
1402.59 591.209 3557
1399.19 586.223 3527
1395.66 581.237 3497
1386.75 574.09 3454
1395.01 574.09 3454
1389.05 568.272 3419
1377.2 560.128 3370
1374.17 555.641 3343
1382.16 555.641 3343
1379.34 551.319 3317
1387.27 551.319 3317
1389.32 548.992 3303
1397.22 548.992 3303
1391.5 543.673 3271
1393.76 541.513 3258
1401.55 541.513 3258
1406.75 540.515 3252
1414.52 540.515 3252
1416.61 538.355 3239
1424.36 538.355 3239
1435.2 539.518 3246
1442.96 539.518 3246
1450.73 539.518 3246
1461.18 540.515 3252
1468.96 540.515 3252
1476.74 540.515 3252
1484.51 540.515 3252
1489.54 539.518 3246
1494.07 538.355 3239
1501.81 538.355 3239
1506.76 537.357 3233
1511.68 536.36 3227
1513.28 534.199 3214
1506.77 529.213 3184
1514.38 529.213 3184
1513.39 526.221 3166
1506.55 521.235 3136
1500.05 516.415 3107
1507.48 516.415 3107
1497.84 510.598 3072
1491.47 505.944 3044
1474.62 497.799 2995
1465.95 492.481 2963
1473.04 492.481 2963
1457.15 484.835 2917
1453.58 481.345 2896
1455.46 479.682 2886
1462.36 479.682 2886
1461.63 477.189 2871
1465.94 476.358 2866
1470.73 475.693 2862
1477.58 475.693 2862
1481.83 474.862 2857
1486.06 474.031 2852
1492.88 474.031 2852
1497.07 473.2 2847
1503.87 473.2 2847
1510.68 473.2 2847
1512.16 471.538 2837
1518.94 471.538 2837
1525.73 471.538 2837
1527.65 470.042 2828
1531.7 469.211 2823
1535.73 468.38 2818
1542.47 468.38 2818
1546.46 467.549 2813
1550.97 466.884 2809
1552.15 465.222 2799
1558.84 465.222 2799
1565.53 465.222 2799
1569.42 464.391 2794
1576.1 464.391 2794
1585.61 465.222 2799
1592.3 465.222 2799
1599 465.222 2799
1605.69 465.222 2799
1615.26 466.053 2804
1621.97 466.053 2804
1628.68 466.053 2804
1638.3 466.884 2809
1645.01 466.884 2809
1651.73 466.884 2809
1658.45 466.884 2809
1667.54 467.549 2813
1674.26 467.549 2813
1680.99 467.549 2813
1687.72 467.549 2813
1694.44 467.549 2813
1704.19 468.38 2818
1710.93 468.38 2818
1717.67 468.38 2818
1724.41 468.38 2818
1728.08 467.549 2813
1732.34 466.884 2809
1739.05 466.884 2809
1745.77 466.884 2809
1749.37 466.053 2804
1756.07 466.053 2804
1762.78 466.053 2804
1769.48 466.053 2804
1776.19 466.053 2804
1782.9 466.053 2804
1789.6 466.053 2804
1796.31 466.053 2804
1803.01 466.053 2804
1809.72 466.053 2804
1813.18 465.222 2799
1819.88 465.222 2799
1826.57 465.222 2799
1833.26 465.222 2799
1839.96 465.222 2799
1846.65 465.222 2799
1850.03 464.391 2794
1854.05 463.726 2790
1857.39 462.895 2785
1864.05 462.895 2785
1870.71 462.895 2785
1877.37 462.895 2785
1880.65 462.064 2780
1887.3 462.064 2780
1891.22 461.399 2776
1888.29 459.072 2762
1894.89 459.072 2762
1901.5 459.072 2762
1908.1 459.072 2762
1914.7 459.072 2762
1921.31 459.072 2762
1927.91 459.072 2762
1934.52 459.072 2762
1941.12 459.072 2762
1947.73 459.072 2762
1950.8 458.241 2757
1960.94 459.072 2762
1967.54 459.072 2762
1974.15 459.072 2762
1980.75 459.072 2762
1987.36 459.072 2762
1990.35 458.241 2757
1987.53 456.081 2744
1994.09 456.081 2744
2003.57 456.745 2748
2020.38 459.072 2762
2026.99 459.072 2762
2033.59 459.072 2762
2040.2 459.072 2762
2046.8 459.072 2762
2053.41 459.072 2762
2070.45 461.399 2776
2077.09 461.399 2776
2083.73 461.399 2776
2090.37 461.399 2776
2093.23 460.568 2771
2106.67 462.064 2780
2113.32 462.064 2780
2119.97 462.064 2780
2126.62 462.064 2780
-2109.91 475.131 2818
-2103.17 475.131 2818
-2100.15 475.974 2823
-2093.4 475.974 2823
-2093.3 477.491 2832
-2090.21 478.334 2837
-2083.43 478.334 2837
-2076.64 478.334 2837
-2069.86 478.334 2837
-2052.89 475.974 2823
-2046.14 475.974 2823
-2032.17 474.288 2813
-2018.96 472.77 2804
-2005.08 471.084 2794
-2015.56 475.131 2818
-2008.83 475.131 2818
-2019.14 479.177 2842
-2022.96 481.706 2857
-2026.01 484.067 2871
-2019.14 484.067 2871
-2012.28 484.067 2871
-2005.41 484.067 2871
-1998.55 484.067 2871
-1981.97 481.706 2857
-1975.14 481.706 2857
-1968.31 481.706 2857
-1961.48 481.706 2857
-1954.64 481.706 2857
-1947.81 481.706 2857
-1947.09 483.224 2866
-1943.63 484.067 2871
-1936.76 484.067 2871
-1936.62 485.753 2881
-1933.08 486.596 2886
-1939.52 489.968 2906
-1932.57 489.968 2906
-1939.54 493.509 2927
-1945.75 496.881 2947
-1938.7 496.881 2947
-1931.65 496.881 2947
-1924.6 496.881 2947
-1917.56 496.881 2947
-1934.5 503.119 2984
-1927.36 503.119 2984
-1941.46 508.683 3017
-1944.5 511.381 3033
-1955.14 516.102 3061
-1947.82 516.102 3061
-1947.47 517.957 3072
-1965.39 524.701 3112
-1957.94 524.701 3112
-1961.78 527.736 3130
-1954.3 527.736 3130
-1946.81 527.736 3130
-1939.33 527.736 3130
-1935.55 528.747 3136
-1942.8 532.794 3160
-1938.92 533.805 3166
-1931.35 533.805 3166
-1931.07 535.829 3178
-1923.47 535.829 3178
-1915.87 535.829 3178
-1908.27 535.829 3178
-1904.26 536.84 3184
-1910.95 540.887 3208
-1944.8 552.689 3278
-1936.97 552.689 3278
-1932.66 553.701 3284
-1963.49 564.829 3350
-1959.56 566.009 3357
-1951.54 566.009 3357
-1975.35 575.282 3412
-1983.33 580.003 3440
-1983.15 582.364 3454
-1974.89 582.364 3454
-1983.14 587.253 3483
-1978.78 588.434 3490
-1978.9 590.963 3505
-1970.52 590.963 3505
-1966.06 592.143 3512
-1962.12 593.492 3520
-1961.47 595.852 3534
-1953.02 595.852 3534
-1944.57 595.852 3534
-1932.28 594.672 3527
-1923.85 594.672 3527
-1915.42 594.672 3527
-1910.77 595.852 3534
-1910.39 598.381 3549
-1901.9 598.381 3549
-1893.42 598.381 3549
-1889.18 599.73 3557
-1880.67 599.73 3557
-1876.38 601.079 3565
-1867.85 601.079 3565
-1862.98 602.259 3572
-1858.59 603.608 3580
-1854.16 604.957 3588
-1845.58 604.957 3588
-1837 604.957 3588
-1831.99 606.137 3595
-1823.39 606.137 3595
-1814.8 606.137 3595
-1810.22 607.486 3603
-1805.6 608.835 3611
-1796.97 608.835 3611
-1788.33 608.835 3611
-1783.64 610.184 3619
-1774.99 610.184 3619
-1770.24 611.533 3627
-1761.57 611.533 3627
-1756.76 612.882 3635
-1751.43 614.062 3642
-1750.38 616.759 3658
-1741.63 616.759 3658
-1737.15 618.277 3667
-1739.69 622.323 3691
-1738.37 625.021 3707
-1729.5 625.021 3707
-1728.53 627.887 3724
-1727.01 630.585 3740
-1722.2 632.103 3749
-1713.24 632.103 3749
-1707.91 633.451 3757
-1706.61 636.318 3774
-1697.59 636.318 3774
-1688.56 636.318 3774
-1679.54 636.318 3774
-1666.97 634.969 3766
-1654.01 633.451 3757
-1645.02 633.451 3757
-1625.15 629.236 3732
-1591.54 619.626 3675
-1571.99 615.411 3650
-1563.26 615.411 3650
-1541.33 610.184 3619
-1516.16 603.608 3580
-1494.54 598.381 3549
-1486.05 598.381 3549
-1471.32 595.852 3534
-1457.08 593.492 3520
-1442.49 590.963 3505
-1434.1 590.963 3505
-1416.77 587.253 3483
-1402.38 584.724 3468
-1382.83 580.003 3440
-1374.6 580.003 3440
-1360.82 577.643 3426
-1352.62 577.643 3426
-1341.69 576.463 3419
-1333.51 576.463 3419
-1325.33 576.463 3419
-1314.46 575.282 3412
-1303.62 574.102 3405
-1303.47 577.643 3426
-1295.28 577.643 3426
-1287.08 577.643 3426
-1278.89 577.643 3426
-1281.08 582.364 3454
-1272.82 582.364 3454
-1264.56 582.364 3454
-1241.03 575.282 3412
-1225.28 571.742 3391
-1217.17 571.742 3391
-1206.57 570.562 3384
-1193.52 568.201 3370
-1180.89 566.009 3357
-1172.86 566.009 3357
-1162.4 564.829 3350
-1156.8 566.009 3357
-1148.78 566.009 3357
-1140.75 566.009 3357
-1128 563.649 3343
-678.049 575.282 3412
-669.89 575.282 3412
-661.731 575.282 3412
-652.231 574.102 3405
-641.44 571.742 3391
-633.331 571.742 3391
-630.385 576.463 3419
-636.404 589.614 3497
-628.042 589.614 3497
-619.679 589.614 3497
-612.715 590.963 3505
-604.334 590.963 3505
-595.952 590.963 3505
-588.744 592.143 3512
-582.825 594.672 3527
-576.833 597.201 3542
-568.363 597.201 3542
-562.264 599.73 3557
-557.339 603.608 3580
-548.778 603.608 3580
-540.218 603.608 3580
-532.845 604.957 3588
-526.456 607.486 3603
-520.14 610.184 3619
-511.486 610.184 3619
-503.944 611.533 3627
-495.27 611.533 3627
-486.597 611.533 3627
-477.924 611.533 3627
-468.215 610.184 3619
-459.561 610.184 3619
-451.904 611.533 3627
-443.231 611.533 3627
-435.516 612.882 3635
-426.824 612.882 3635
-418.936 614.062 3642
-410.227 614.062 3642
-403.282 616.759 3658
-395.505 618.277 3667
-387.58 619.626 3675
-378.792 619.626 3675
-371.615 622.323 3691
-364.361 625.021 3707
-356.36 626.539 3716
-347.474 626.539 3716
-338.588 626.539 3716
-330.411 627.887 3724
-322.197 629.236 3732
-313.273 629.236 3732
-305.001 630.585 3740
-297.403 633.451 3757
-288.419 633.451 3757
-279.435 633.451 3757
-270.45 633.451 3757
-261.466 633.451 3757
-251.34 630.585 3740
-242.396 630.585 3740
-132.845 373.124 2213
-128.014 374.473 2221
-122.703 374.473 2221
-117.392 374.473 2221
-112.081 374.473 2221
-106.77 374.473 2221
-101.321 373.967 2218
-95.4114 371.607 2204
-89.8956 370.595 2198
-84.2929 369.078 2189
-79.0584 369.078 2189
-73.6552 368.235 2184
-68.4953 368.572 2186
-63.3547 369.078 2189
-58.1201 369.078 2189
-52.8856 369.078 2189
-47.5857 368.572 2186
-42.3583 368.572 2186
-37.1309 368.572 2186
-31.8743 368.235 2184
-26.6761 368.572 2186
-21.4488 368.572 2186
-16.2214 368.572 2186
-10.994 368.572 2186
-5.76659 368.572 2186
-0.537969 367.729 2181
4.67746 367.729 2181
9.8929 367.729 2181
15.1083 367.729 2181
20.3238 367.729 2181
25.5977 368.572 2186
30.9097 369.584 2192
36.1515 369.584 2192
41.3932 369.584 2192
46.6349 369.584 2192
51.8767 369.584 2192
56.91 368.235 2184
62.1326 368.235 2184
67.3552 368.235 2184
72.5778 368.235 2184
77.6935 367.729 2181
82.9089 367.729 2181
88.0032 367.223 2178
93.2114 367.223 2178
98.2841 366.717 2175
103.485 366.717 2175
108.686 366.717 2175
113.887 366.717 2175
118.924 366.211 2172
124.118 366.211 2172
129.312 366.211 2172
134.506 366.211 2172
139.7 366.211 2172
144.694 365.706 2169
149.742 365.368 2167
154.924 365.368 2167
159.884 364.863 2164
165.059 364.863 2164
170.47 365.368 2167
175.652 365.368 2167
180.834 365.368 2167
186.016 365.368 2167
191.198 365.368 2167
196.38 365.368 2167
201.562 365.368 2167
205.885 363.851 2158
211.045 363.851 2158
216.206 363.851 2158
221.366 363.851 2158
226.527 363.851 2158
231.365 363.345 2155
537.905 513.236 3044
545.184 513.236 3044
554.459 515.09 3055
562.868 516.102 3061
570.188 516.102 3061
577.508 516.102 3061
583.681 515.09 3055
585.763 510.538 3028
593.004 510.538 3028
599.056 509.526 3022
605.279 508.683 3017
612.494 508.683 3017
619.708 508.683 3017
626.923 508.683 3017
635.188 509.526 3022
642.415 509.526 3022
649.641 509.526 3022
656.868 509.526 3022
660.578 506.829 3006
666.434 505.817 3000
673.607 505.817 3000
680.781 505.817 3000
684.286 503.119 2984
689.105 501.433 2974
694.812 500.422 2968
701.909 500.422 2968
709.007 500.422 2968
716.104 500.422 2968
724.663 501.433 2974
734.236 503.119 2984
741.371 503.119 2984
748.507 503.119 2984
757.162 504.131 2990
764.312 504.131 2990
771.462 504.131 2990
778.612 504.131 2990
785.762 504.131 2990
792.912 504.131 2990
800.062 504.131 2990
812.881 507.672 3011
823.078 509.526 3022
837.997 514.247 3050
845.291 514.247 3050
853.982 515.09 3055
862.979 516.102 3061
870.299 516.102 3061
877.618 516.102 3061
884.938 516.102 3061
885.845 512.393 3039
894.582 513.236 3044
905.12 515.09 3055
912.425 515.09 3055
962.18 538.864 3196
979.229 544.09 3227
986.946 544.09 3227
994.663 544.09 3227
1002.38 544.09 3227
1010.1 544.09 3227
1017.81 544.09 3227
1079.03 568.201 3370
1087.09 568.201 3370
1095.15 568.201 3370
1103.21 568.201 3370
1120.5 572.922 3398
1135.6 576.463 3419
1157.83 583.544 3461
1166.1 583.544 3461
1181.85 587.253 3483
1192.57 588.434 3490
1203.32 589.614 3497
1211.68 589.614 3497
1222.84 590.963 3505
1231.22 590.963 3505
1242.08 592.143 3512
1250.47 592.143 3512
1261.74 593.492 3520
1272.68 594.672 3527
1283.66 595.852 3534
1292.11 595.852 3534
1306.08 598.381 3549
1317.53 599.73 3557
1329.02 601.079 3565
1337.54 601.079 3565
1348.71 602.259 3572
1360.29 603.608 3580
1368.86 603.608 3580
1377.42 603.608 3580
1385.98 603.608 3580
1388.69 601.079 3565
1397.22 601.079 3565
1402.59 599.73 3557
1399.19 594.672 3527
1395.66 589.614 3497
1386.75 582.364 3454
1395.01 582.364 3454
1389.05 576.463 3419
1377.2 568.201 3370
1374.17 563.649 3343
1382.16 563.649 3343
1381.84 560.277 3323
1387.27 559.265 3317
1389.32 556.904 3303
1397.22 556.904 3303
1391.5 551.509 3271
1393.76 549.317 3258
1401.55 549.317 3258
1406.75 548.306 3252
1414.52 548.306 3252
1416.61 546.114 3239
1424.36 546.114 3239
1435.2 547.294 3246
1442.96 547.294 3246
1450.73 547.294 3246
1461.18 548.306 3252
1468.96 548.306 3252
1476.74 548.306 3252
1484.51 548.306 3252
1489.54 547.294 3246
1494.07 546.114 3239
1501.81 546.114 3239
1506.76 545.102 3233
1511.68 544.09 3227
1513.28 541.899 3214
1509.61 537.852 3190
1517.24 537.852 3190
1519.13 535.829 3178
1512.32 530.771 3148
1505.36 525.712 3118
1512.82 525.712 3118
1503.69 519.98 3084
1499.8 516.102 3061
1477.09 505.817 3000
1471.4 501.433 2974
1478.51 501.433 2974
1464.64 494.352 2932
1456.09 489.125 2901
1457.98 487.439 2891
1464.9 487.439 2891
1464.17 484.91 2876
1468.49 484.067 2871
1470.73 482.549 2862
1477.58 482.549 2862
1481.83 481.706 2857
1486.06 480.863 2852
1492.88 480.863 2852
1497.07 480.02 2847
1503.87 480.02 2847
1510.68 480.02 2847
1512.16 478.334 2837
1518.94 478.334 2837
1525.73 478.334 2837
1527.65 476.817 2828
1531.7 475.974 2823
1535.73 475.131 2818
1542.47 475.131 2818
1546.46 474.288 2813
1550.97 473.613 2809
1552.15 471.927 2799
1558.84 471.927 2799
1565.53 471.927 2799
1569.42 471.084 2794
1576.1 471.084 2794
1585.61 471.927 2799
1592.3 471.927 2799
1599 471.927 2799
1605.69 471.927 2799
1615.26 472.77 2804
1621.97 472.77 2804
1628.68 472.77 2804
1638.3 473.613 2809
1645.01 473.613 2809
1651.73 473.613 2809
1658.45 473.613 2809
1667.54 474.288 2813
1674.26 474.288 2813
1680.99 474.288 2813
1687.72 474.288 2813
1694.44 474.288 2813
1704.19 475.131 2818
1710.93 475.131 2818
1717.67 475.131 2818
1724.41 475.131 2818
1728.08 474.288 2813
1734.8 474.288 2813
1741.53 474.288 2813
1745.77 473.613 2809
1752.49 473.613 2809
1759.21 473.613 2809
1765.92 473.613 2809
1772.64 473.613 2809
1779.36 473.613 2809
1786.07 473.613 2809
1792.79 473.613 2809
1799.51 473.613 2809
1806.23 473.613 2809
1809.72 472.77 2804
1813.18 471.927 2799
1819.88 471.927 2799
1826.57 471.927 2799
1833.26 471.927 2799
1839.96 471.927 2799
1846.65 471.927 2799
1850.03 471.084 2794
1854.05 470.41 2790
1857.39 469.567 2785
1864.05 469.567 2785
1870.71 469.567 2785
1877.37 469.567 2785
1880.65 468.724 2780
1887.3 468.724 2780
1891.22 468.049 2776
1888.29 465.689 2762
1894.89 465.689 2762
1901.5 465.689 2762
1908.1 465.689 2762
1914.7 465.689 2762
1921.31 465.689 2762
1927.91 465.689 2762
1934.52 465.689 2762
1941.12 465.689 2762
1947.73 465.689 2762
1950.8 464.846 2757
1960.94 465.689 2762
1967.54 465.689 2762
1974.15 465.689 2762
1980.75 465.689 2762
1987.36 465.689 2762
1990.35 464.846 2757
1987.53 462.654 2744
1994.09 462.654 2744
2003.57 463.328 2748
2020.38 465.689 2762
2026.99 465.689 2762
2033.59 465.689 2762
2040.2 465.689 2762
2046.8 465.689 2762
2053.41 465.689 2762
2070.45 468.049 2776
2083.82 469.567 2785
2090.48 469.567 2785
2097.14 469.567 2785
2107.58 470.41 2790
2124.86 472.77 2804
2131.57 472.77 2804
2138.27 472.77 2804
2144.98 472.77 2804
-2100.15 482.736 2823
-2093.4 482.736 2823
-2096.99 485.13 2837
-2090.21 485.13 2837
-2083.43 485.13 2837
-2076.64 485.13 2837
-2069.86 485.13 2837
-2063.07 485.13 2837
-2056.29 485.13 2837
-2043 483.591 2828
-2036.24 483.591 2828
-2029.48 483.591 2828
-2025.58 484.275 2832
-2018.81 484.275 2832
-2029.79 488.55 2857
-2032.88 490.944 2871
-2043.65 495.219 2896
-2036.73 495.219 2896
-2029.8 495.219 2896
-2012.4 492.654 2881
-2005.51 492.654 2881
-1995.15 491.799 2876
-1984.82 490.944 2871
-1974.51 490.089 2866
-1967.65 490.089 2866
-1954.64 488.55 2857
-1951.22 489.405 2862
-1950.49 490.944 2871
-1950.4 492.654 2881
-1943.51 492.654 2881
-1943.34 494.364 2891
-1939.77 495.219 2896
-1946.86 498.81 2917
-1939.89 498.81 2917
-1952.79 503.94 2947
-1953.01 505.821 2958
-1945.94 505.821 2958
-1938.86 505.821 2958
-1948.77 510.267 2984
-1963.1 515.91 3017
-1963.02 517.792 3028
-1955.78 517.792 3028
-1965.91 522.409 3055
-1962.46 523.435 3061
-1955.14 523.435 3061
-1973.27 530.275 3101
-1972.83 532.156 3112
-1980.54 536.26 3136
-1973.04 536.26 3136
-1973.07 538.312 3148
-1965.54 538.312 3148
-1958.01 538.312 3148
-1950.48 538.312 3148
-1950.36 540.364 3160
-1957.56 544.468 3184
-1949.95 544.468 3184
-1942.33 544.468 3184
-1938.36 545.494 3190
-1930.74 545.494 3190
-1926.72 546.52 3196
-1919.08 546.52 3196
-1918.62 548.572 3208
-1922.26 551.821 3227
-1948.36 561.568 3284
-1940.51 561.568 3284
-1959.73 569.434 3330
-1995.72 582.259 3405
-1995.75 584.653 3419
-1987.58 584.653 3419
-1995.61 589.441 3447
-2004.09 594.4 3476
-2007.84 597.991 3497
-1999.47 597.991 3497
-1999.65 600.556 3512
-1991.25 600.556 3512
-1987.37 601.924 3520
-1978.95 601.924 3520
-1970.54 601.924 3520
-1969.92 604.318 3534
-1961.47 604.318 3534
-1953.02 604.318 3534
-1944.57 604.318 3534
-1936.12 604.318 3534
-1927.67 604.318 3534
-1915.42 603.121 3527
-1910.77 604.318 3534
-1910.39 606.883 3549
-1901.9 606.883 3549
-1893.42 606.883 3549
-1884.93 606.883 3549
-1880.67 608.251 3557
-1872.17 608.251 3557
-1863.66 608.251 3557
-1859.33 609.619 3565
-1854.44 610.816 3572
-1850.03 612.184 3580
-1841.47 612.184 3580
-1832.91 612.184 3580
-1828.42 613.552 3588
-1823.39 614.749 3595
-1814.8 614.749 3595
-1806.2 614.749 3595
-1801.6 616.117 3603
-1796.97 617.485 3611
-1788.33 617.485 3611
-1779.7 617.485 3611
-1774.99 618.853 3619
-1766.33 618.853 3619
-1757.68 618.853 3619
-1752.89 620.221 3627
-1748.07 621.589 3635
-1746.55 624.154 3650
-1737.82 624.154 3650
-1732.88 625.522 3658
-1728.38 627.061 3667
-1730.87 631.165 3691
-1722.04 631.165 3691
-1720.64 633.901 3707
-1719.62 636.808 3724
-1718.07 639.544 3740
-1709.13 639.544 3740
-1707.91 642.451 3757
-1706.61 645.358 3774
-1701.64 646.897 3783
-1692.59 646.897 3783
-1683.54 646.897 3783
-1670.51 645.358 3774
-1654.01 642.451 3757
-1645.02 642.451 3757
-1628.63 639.544 3740
-1588.08 627.061 3667
-1568.54 622.786 3642
-1559.83 622.786 3642
-1541.33 618.853 3619
-1516.16 612.184 3580
-1494.54 606.883 3549
-1486.05 606.883 3549
-1471.32 604.318 3534
-1457.08 601.924 3520
-1442.49 599.359 3505
-1434.1 599.359 3505
-1416.77 595.597 3483
-1402.38 593.032 3468
-1382.83 588.244 3440
-1374.6 588.244 3440
-1360.82 585.85 3426
-1352.62 585.85 3426
-1344.43 585.85 3426
-1336.24 585.85 3426
-1328.05 585.85 3426
-1317.16 584.653 3419
-1311.66 585.85 3426
-1306.13 587.047 3433
-1305.86 590.638 3454
-1297.6 590.638 3454
-1289.34 590.638 3454
-1281.08 590.638 3454
-1288.67 597.991 3497
-1280.31 597.991 3497
-1271.95 597.991 3497
-1248.05 590.638 3454
-1239.79 590.638 3454
-1209.06 579.865 3391
-1196 577.471 3377
-1183 575.077 3363
-1174.95 575.077 3363
-1164.83 574.051 3357
-1156.8 574.051 3357
-1148.78 574.051 3357
-1140.75 574.051 3357
-1128 571.657 3343
-887.47 646.897 3783
-878.424 646.897 3783
-869.378 646.897 3783
-678.049 583.456 3412
-669.89 583.456 3412
-661.731 583.456 3412
-652.231 582.259 3405
-641.44 579.865 3391
-633.331 579.865 3391
-644.766 597.991 3497
-636.404 597.991 3497
-636.123 605.686 3542
-627.653 605.686 3542
-619.183 605.686 3542
-608.127 603.121 3527
-599.693 603.121 3527
-591.259 603.121 3527
-585.303 605.686 3542
-579.276 608.251 3557
-570.77 608.251 3557
-565.9 612.184 3580
-558.585 613.552 3588
-550.005 613.552 3588
-541.425 613.552 3588
-535.072 616.117 3603
-526.456 616.117 3603
-520.14 618.853 3619
-511.486 618.853 3619
-503.944 620.221 3627
-495.27 620.221 3627
-486.597 620.221 3627
-477.924 620.221 3627
-468.215 618.853 3619
-458.545 617.485 3611
-449.91 617.485 3611
-441.275 617.485 3611
-433.599 618.853 3619
-426.824 621.589 3635
-418.131 621.589 3635
-409.439 621.589 3635
-401.518 622.786 3642
-394.535 625.522 3658
-385.787 625.522 3658
-377.04 625.522 3658
-370.004 628.429 3675
-362.789 631.165 3691
-355.497 633.901 3707
-346.632 633.901 3707
-338.588 635.44 3716
-329.702 635.44 3716
-320.816 635.44 3716
-311.929 635.44 3716
-304.348 638.176 3732
-296.057 639.544 3740
-287.114 639.544 3740
-278.17 639.544 3740
-269.227 639.544 3740
-260.283 639.544 3740
-251.34 639.544 3740
-242.396 639.544 3740
-132.845 378.426 2213
-127.668 378.768 2215
-122.371 378.768 2215
-117.075 378.768 2215
-111.778 378.768 2215
-106.481 378.768 2215
-101.184 378.768 2215
-95.4114 376.887 2204
-89.8956 375.861 2198
-84.2929 374.322 2189
-79.0584 374.322 2189
-73.6552 373.467 2184
-68.4953 373.809 2186
-63.2679 373.809 2186
-58.0405 373.809 2186
-52.8131 373.809 2186
-47.5857 373.809 2186
-42.3583 373.809 2186
-37.1309 373.809 2186
-31.8743 373.467 2184
-26.6761 373.809 2186
-21.4488 373.809 2186
-16.2436 374.322 2189
-11.0091 374.322 2189
-5.7745 374.322 2189
-0.539202 373.809 2186
4.68819 373.809 2186
9.91558 373.809 2186
15.143 373.809 2186
20.3704 373.809 2186
25.6329 374.322 2189
30.952 375.348 2195
36.201 375.348 2195
41.4499 375.348 2195
46.6988 375.348 2195
51.9477 375.348 2195
57.1184 374.835 2192
62.2748 374.322 2189
67.5094 374.322 2189
72.7439 374.322 2189
77.8004 373.467 2184
83.023 373.467 2184
88.1244 372.954 2181
93.3398 372.954 2181
98.4197 372.441 2178
103.485 371.928 2175
108.686 371.928 2175
113.887 371.928 2175
118.924 371.415 2172
124.118 371.415 2172
129.312 371.415 2172
134.506 371.415 2172
139.7 371.415 2172
144.694 370.902 2169
149.742 370.56 2167
154.924 370.56 2167
159.884 370.047 2164
165.059 370.047 2164
170.47 370.56 2167
175.652 370.56 2167
180.834 370.56 2167
186.016 370.56 2167
191.198 370.56 2167
195.836 369.534 2161
201.004 369.534 2161
205.408 368.165 2153
210.556 368.165 2153
215.905 368.507 2155
221.059 368.507 2155
226.212 368.507 2155
231.365 368.507 2155
554.459 522.409 3055
562.868 523.435 3061
570.188 523.435 3061
577.508 523.435 3061
583.681 522.409 3055
585.763 517.792 3028
593.004 517.792 3028
599.056 516.766 3022
605.279 515.91 3017
612.494 515.91 3017
619.708 515.91 3017
626.923 515.91 3017
635.188 516.766 3022
642.415 516.766 3022
649.641 516.766 3022
656.868 516.766 3022
660.578 514.029 3006
666.434 513.003 3000
673.607 513.003 3000
680.781 513.003 3000
684.286 510.267 2984
689.105 508.557 2974
694.812 507.531 2968
701.909 507.531 2968
709.007 507.531 2968
716.104 507.531 2968
724.663 508.557 2974
734.236 510.267 2984
741.371 510.267 2984
748.507 510.267 2984
757.162 511.293 2990
764.312 511.293 2990
771.462 511.293 2990
778.612 511.293 2990
785.762 511.293 2990
792.912 511.293 2990
800.062 511.293 2990
812.881 514.884 3011
823.078 516.766 3022
837.997 521.554 3050
845.291 521.554 3050
853.982 522.409 3055
862.979 523.435 3061
870.299 523.435 3061
877.618 523.435 3061
884.938 523.435 3061
885.845 519.672 3039
894.582 520.528 3044
905.12 522.409 3055
912.425 522.409 3055
962.18 546.52 3196
979.229 551.821 3227
986.946 551.821 3227
994.663 551.821 3227
1002.38 551.821 3227
1010.1 551.821 3227
1017.81 551.821 3227
1079.03 576.274 3370
1087.09 576.274 3370
1095.15 576.274 3370
1103.21 576.274 3370
1120.5 581.062 3398
1135.6 584.653 3419
1157.83 591.835 3461
1166.1 591.835 3461
1181.85 595.597 3483
1192.57 596.794 3490
1203.32 597.991 3497
1211.68 597.991 3497
1222.84 599.359 3505
1231.22 599.359 3505
1242.08 600.556 3512
1250.47 600.556 3512
1261.74 601.924 3520
1272.68 603.121 3527
1283.66 604.318 3534
1292.11 604.318 3534
1306.08 606.883 3549
1317.53 608.251 3557
1329.02 609.619 3565
1337.54 609.619 3565
1348.71 610.816 3572
1360.29 612.184 3580
1368.86 612.184 3580
1377.42 612.184 3580
1385.98 612.184 3580
1385.58 608.251 3557
1394.08 608.251 3557
1396.68 605.686 3542
1396.42 601.924 3520
1395.66 597.991 3497
1386.75 590.638 3454
1395.01 590.638 3454
1389.05 584.653 3419
1377.2 576.274 3370
1374.17 571.657 3343
1382.16 571.657 3343
1381.84 568.237 3323
1387.27 567.211 3317
1389.32 564.817 3303
1397.22 564.817 3303
1391.5 559.345 3271
1393.76 557.122 3258
1401.55 557.122 3258
1406.75 556.096 3252
1414.52 556.096 3252
1416.61 553.873 3239
1424.36 553.873 3239
1432.11 553.873 3239
1439.85 553.873 3239
1447.6 553.873 3239
1458.49 555.07 3246
1466.25 555.07 3246
1474.01 555.07 3246
1481.77 555.07 3246
1486.32 553.873 3239
1491.3 552.847 3233
1499.03 552.847 3233
1503.97 551.821 3227
1508.87 550.795 3221
1510.45 548.572 3208
1509.61 545.494 3190
1517.24 545.494 3190
1519.13 543.442 3178
1512.32 538.312 3148
1505.36 533.182 3118
1512.82 533.182 3118
1503.69 527.368 3084
1499.8 523.435 3061
1477.09 513.003 3000
1471.4 508.557 2974
1478.51 508.557 2974
1464.64 501.375 2932
1456.09 496.074 2901
1457.98 494.364 2891
1464.9 494.364 2891
1464.17 491.799 2876
1468.49 490.944 2871
1470.73 489.405 2862
1477.58 489.405 2862
1481.83 488.55 2857
1486.06 487.695 2852
1490.26 486.84 2847
1494.44 485.985 2842
1501.23 485.985 2842
1508.03 485.985 2842
1512.16 485.13 2837
1516.27 484.275 2832
1523.04 484.275 2832
1524.95 482.736 2823
1528.99 481.881 2818
1533 481.026 2813
1539.73 481.026 2813
1544.26 480.342 2809
1548.21 479.487 2804
1552.15 478.632 2799
1558.84 478.632 2799
1562.74 477.777 2794
1567.17 477.093 2790
1576.1 477.777 2794
1582.78 477.777 2794
1592.3 478.632 2799
1599 478.632 2799
1605.69 478.632 2799
1615.26 479.487 2804
1621.97 479.487 2804
1628.68 479.487 2804
1638.3 480.342 2809
1645.01 480.342 2809
1651.73 480.342 2809
1658.45 480.342 2809
1667.54 481.026 2813
1674.26 481.026 2813
1680.99 481.026 2813
1687.72 481.026 2813
1694.44 481.026 2813
1701.17 481.026 2813
1710.93 481.881 2818
1720.72 482.736 2823
1727.47 482.736 2823
1734.22 482.736 2823
1737.89 481.881 2818
1744.63 481.881 2818
1745.77 480.342 2809
1752.49 480.342 2809
1759.21 480.342 2809
1768.44 481.026 2813
1775.16 481.026 2813
1781.89 481.026 2813
1788.62 481.026 2813
1795.34 481.026 2813
1802.07 481.026 2813
1808.8 481.026 2813
1812.94 480.342 2809
1819.66 480.342 2809
1819.88 478.632 2799
1826.57 478.632 2799
1833.26 478.632 2799
1839.96 478.632 2799
1846.65 478.632 2799
1850.03 477.777 2794
1854.05 477.093 2790
1860.73 477.093 2790
1867.4 477.093 2790
1874.07 477.093 2790
1877.37 476.238 2785
1884.03 476.238 2785
1890.69 476.238 2785
1893.94 475.383 2780
1888.29 472.305 2762
1894.89 472.305 2762
1901.5 472.305 2762
1908.1 472.305 2762
1914.7 472.305 2762
1921.31 472.305 2762
1927.91 472.305 2762
1934.52 472.305 2762
1941.12 472.305 2762
1947.73 472.305 2762
1950.8 471.45 2757
1960.94 472.305 2762
1967.54 472.305 2762
1974.15 472.305 2762
1980.75 472.305 2762
1987.36 472.305 2762
1990.35 471.45 2757
1987.53 469.227 2744
1994.09 469.227 2744
2003.57 469.911 2748
2020.38 472.305 2762
2026.99 472.305 2762
2033.59 472.305 2762
2040.2 472.305 2762
2046.8 472.305 2762
2053.41 472.305 2762
2077.16 476.238 2785
2083.82 476.238 2785
2094.24 477.093 2790
2100.91 477.093 2790
2110.6 477.777 2794
2124.86 479.487 2804
2131.57 479.487 2804
2138.27 479.487 2804
2144.98 479.487 2804
-2100.15 489.499 2823
-2093.4 489.499 2823
-2096.99 491.926 2837
-2090.21 491.926 2837
-2083.43 491.926 2837
-2076.64 491.926 2837
-2069.86 491.926 2837
-2063.07 491.926 2837
-2056.29 491.926 2837
-2049.51 491.926 2837
-2036.24 490.366 2828
-2039.53 492.793 2842
-2039.88 494.527 2852
-2033.06 494.527 2852
-2033.35 496.261 2862
-2050.58 502.157 2896
-2054.24 504.758 2911
-2047.28 504.758 2911
-2040.32 504.758 2911
-2026.37 503.024 2901
-2019.43 503.024 2901
-2005.56 501.29 2891
-1991.73 499.556 2881
-1981.4 498.689 2876
-1974.52 498.689 2876
-1960.8 496.955 2866
-1957.36 497.822 2871
-1960.68 500.423 2886
-1960.55 502.157 2896
-1953.62 502.157 2896
-1946.7 502.157 2896
-1953.84 505.798 2917
-1963.55 510.133 2942
-1956.52 510.133 2942
-1974 516.549 2979
-1999.23 525.045 3028
-1991.98 525.045 3028
-1988.02 525.912 3033
-1984.69 526.952 3039
-1998.89 532.675 3072
-1991.55 532.675 3072
-1995.18 535.622 3089
-1995.52 537.703 3101
-1988.1 537.703 3101
-1980.68 537.703 3101
-1991.72 542.732 3130
-2003.26 547.933 3160
-1995.7 547.933 3160
-1988.14 547.933 3160
-1991.87 551.055 3178
-1984.27 551.055 3178
-1980.4 552.095 3184
-1972.79 552.095 3184
-1968.88 553.135 3190
-1976 557.297 3214
-1968.32 557.297 3214
-1960.63 557.297 3214
-1952.95 557.297 3214
-1941.63 556.256 3208
-1933.96 556.256 3208
-1926.29 556.256 3208
-1929.98 559.551 3227
-1940.73 564.926 3258
-1975.66 577.411 3330
-1967.69 577.411 3330
-1983.27 584.347 3370
-2003.93 592.843 3419
-2012.1 597.698 3447
-2003.86 597.698 3447
-2012.4 602.727 3476
-2012.16 605.154 3490
-2007.84 606.368 3497
-1999.47 606.368 3497
-1999.65 608.969 3512
-1991.25 608.969 3512
-1987.37 610.356 3520
-1978.95 610.356 3520
-1970.54 610.356 3520
-1969.92 612.784 3534
-1961.47 612.784 3534
-1953.02 612.784 3534
-1944.57 612.784 3534
-1936.12 612.784 3534
-1927.67 612.784 3534
-1915.42 611.57 3527
-1910.77 612.784 3534
-1910.39 615.385 3549
-1901.9 615.385 3549
-1893.42 615.385 3549
-1884.93 615.385 3549
-1876.44 615.385 3549
-1867.96 615.385 3549
-1859.47 615.385 3549
-1855.16 616.772 3557
-1850.8 618.159 3565
-1845.9 619.373 3572
-1837.35 619.373 3572
-1832.91 620.76 3580
-1824.35 620.76 3580
-1815.79 620.76 3580
-1807.23 620.76 3580
-1802.68 622.147 3588
-1797.6 623.361 3595
-1792.99 624.748 3603
-1784.37 624.748 3603
-1779.7 626.135 3611
-1771.06 626.135 3611
-1766.33 627.523 3619
-1757.68 627.523 3619
-1749.03 627.523 3619
-1748.07 630.297 3635
-1742.72 631.511 3642
-1734.01 631.511 3642
-1729.1 632.898 3650
-1728.38 635.846 3667
-1727.11 638.62 3683
-1718.31 638.62 3683
-1720.64 642.781 3707
-1719.62 645.729 3724
-1722.2 650.064 3749
-1713.24 650.064 3749
-1712 653.012 3766
-1710.68 655.96 3783
-1713.33 660.468 3809
-1704.22 660.468 3809
-1695.12 660.468 3809
-1674.5 655.96 3783
-1661.49 654.399 3774
-1652.47 654.399 3774
-1632.55 650.064 3749
-1595.01 638.62 3683
-1571.99 632.898 3650
-1563.26 632.898 3650
-1544.73 628.91 3627
-1522.51 623.361 3595
-1497.91 616.772 3557
-1489.4 616.772 3557
-1471.32 612.784 3534
-1457.08 610.356 3520
-1442.49 607.755 3505
-1434.1 607.755 3505
-1413.93 602.727 3476
-1402.38 601.34 3468
-1382.83 596.484 3440
-1374.6 596.484 3440
-1363.6 595.271 3433
-1355.39 595.271 3433
-1344.43 594.057 3426
-1336.24 594.057 3426
-1328.05 594.057 3426
-1317.16 592.843 3419
-1314.34 595.271 3433
-1311.46 597.698 3447
-1305.86 598.912 3454
-1297.6 598.912 3454
-1289.34 598.912 3454
-1297.03 606.368 3497
-1288.67 606.368 3497
-1280.31 606.368 3497
-1271.95 606.368 3497
-1271.89 610.356 3520
-1263.48 610.356 3520
-1255.06 610.356 3520
-1236.02 605.154 3490
-1227.67 605.154 3490
-1219.33 605.154 3490
-1166.91 583.133 3363
-1158.87 583.133 3363
-1150.83 583.133 3363
-1142.79 583.133 3363
-1128 579.665 3343
-966.438 660.468 3809
-957.329 660.468 3809
-948.221 660.468 3809
-939.112 660.468 3809
-930.004 660.468 3809
-910.499 653.012 3766
-901.494 653.012 3766
-896.517 655.96 3783
-889.582 657.52 3792
-882.372 658.907 3800
-873.285 658.907 3800
-864.198 658.907 3800
-853.311 657.52 3792
-844.243 657.52 3792
-678.049 591.629 3412
-669.89 591.629 3412
-661.731 591.629 3412
-652.231 590.416 3405
-641.44 587.988 3391
-662.841 615.385 3549
-654.354 615.385 3549
-645.867 615.385 3549
-637.38 615.385 3549
-628.894 615.385 3549
-620.407 615.385 3549
-611.92 615.385 3549
-603.434 615.385 3549
-594.947 615.385 3549
-587.782 616.772 3557
-583.022 620.76 3580
-574.461 620.76 3580
-567.165 622.147 3588
-560.92 624.748 3603
-552.304 624.748 3603
-543.688 624.748 3603
-535.072 624.748 3603
-526.456 624.748 3603
-518.99 626.135 3611
-510.355 626.135 3611
-502.832 627.523 3619
-494.178 627.523 3619
-485.524 627.523 3619
-476.87 627.523 3619
-467.18 626.135 3611
-458.545 626.135 3611
-449.91 626.135 3611
-441.275 626.135 3611
-433.599 627.523 3619
-425.884 628.91 3627
-417.211 628.91 3627
-408.538 628.91 3627
-399.864 628.91 3627
-392.054 630.297 3635
-384.944 632.898 3650
-376.215 632.898 3650
-368.293 634.285 3658
-361.216 637.233 3675
-353.195 638.62 3683
-344.388 638.62 3683
-335.581 638.62 3683
-328.193 641.394 3699
-320.039 642.781 3707
-311.174 642.781 3707
-303.696 645.729 3724
-294.791 645.729 3724
-285.885 645.729 3724
-276.98 645.729 3724
-268.075 645.729 3724
-259.17 645.729 3724
-249.727 644.342 3716
-240.841 644.342 3716
-138.636 385.114 2221
-133.325 385.114 2221
-128.014 385.114 2221
-122.703 385.114 2221
-117.392 385.114 2221
-111.677 383.727 2213
-106.241 383.207 2210
-100.956 383.207 2210
-95.4114 382.166 2204
-89.8956 381.126 2198
-84.4085 380.085 2192
-79.1667 380.085 2192
-73.7226 379.045 2186
-68.4953 379.045 2186
-63.2679 379.045 2186
-58.0405 379.045 2186
-52.8131 379.045 2186
-47.5857 379.045 2186
-42.3583 379.045 2186
-37.1309 379.045 2186
-31.9035 379.045 2186
-26.6761 379.045 2186
-21.4488 379.045 2186
-16.2436 379.565 2189
-11.0091 379.565 2189
-5.7745 379.565 2189
-0.539942 379.565 2189
4.69462 379.565 2189
9.92918 379.565 2189
15.1637 379.565 2189
20.3983 379.565 2189
25.6329 379.565 2189
30.9943 381.126 2198
36.2504 381.126 2198
41.5065 381.126 2198
46.7626 381.126 2198
52.0187 381.126 2198
57.1184 380.085 2192
62.3602 380.085 2192
67.6019 380.085 2192
72.8436 380.085 2192
77.9785 379.565 2189
83.099 379.045 2186
88.2456 378.698 2184
93.4682 378.698 2184
98.5552 378.178 2181
103.628 377.658 2178
108.686 377.138 2175
113.887 377.138 2175
119.088 377.138 2175
124.118 376.618 2172
129.312 376.618 2172
134.506 376.618 2172
139.7 376.618 2172
144.894 376.618 2172
149.742 375.751 2167
154.924 375.751 2167
160.106 375.751 2167
165.288 375.751 2167
170.47 375.751 2167
175.652 375.751 2167
180.834 375.751 2167
186.016 375.751 2167
191.198 375.751 2167
195.836 374.71 2161
201.004 374.71 2161
205.122 372.803 2150
210.556 373.323 2153
215.705 373.323 2153
221.059 373.67 2155
226.212 373.67 2155
231.365 373.67 2155
562.868 530.767 3061
570.188 530.767 3061
577.508 530.767 3061
583.681 529.727 3055
585.763 525.045 3028
593.004 525.045 3028
599.056 524.005 3022
604.075 522.097 3011
619.708 523.138 3017
626.923 523.138 3017
635.188 524.005 3022
642.415 524.005 3022
649.641 524.005 3022
656.868 524.005 3022
661.677 522.097 3011
666.434 520.19 3000
673.607 520.19 3000
680.781 520.19 3000
684.286 517.416 2984
689.105 515.682 2974
696.216 515.682 2974
703.328 515.682 2974
709.007 514.641 2968
716.104 514.641 2968
727.1 517.416 2984
739.649 521.23 3006
746.837 521.23 3006
754.026 521.23 3006
772.356 528.86 3050
779.649 528.86 3050
786.943 528.86 3050
797.101 530.767 3061
804.421 530.767 3061
811.74 530.767 3061
819.06 530.767 3061
838.799 538.743 3107
855.761 544.812 3142
868.22 547.933 3160
875.777 547.933 3160
883.333 547.933 3160
890.89 547.933 3160
900.152 548.974 3166
907.723 548.974 3166
917.028 550.014 3172
924.614 550.014 3172
937.489 553.135 3190
945.117 553.135 3190
954.537 554.176 3196
971.513 559.551 3227
982.871 561.632 3239
990.616 561.632 3239
998.362 561.632 3239
1040.59 580.879 3350
1052.67 583.133 3363
1060.71 583.133 3363
1084.32 591.629 3412
1092.48 591.629 3412
1100.64 591.629 3412
1108.8 591.629 3412
1116.96 591.629 3412
1127.43 592.843 3419
1149.55 600.126 3461
1162.85 602.727 3476
1171.16 602.727 3476
1181.85 603.941 3483
1192.57 605.154 3490
1203.32 606.368 3497
1211.68 606.368 3497
1220.05 606.368 3497
1233.68 608.969 3512
1242.08 608.969 3512
1250.47 608.969 3512
1264.25 611.57 3527
1275.21 612.784 3534
1289.11 615.385 3549
1297.59 615.385 3549
1309.03 616.772 3557
1320.49 618.159 3565
1331.63 619.373 3572
1340.17 619.373 3572
1351.73 620.76 3580
1363.33 622.147 3588
1371.91 622.147 3588
1380.49 622.147 3588
1389.07 622.147 3588
1385.58 616.772 3557
1394.08 616.772 3557
1396.68 614.171 3542
1399.19 611.57 3527
1398.85 607.755 3505
1392.38 601.34 3468
1400.67 601.34 3468
1394.74 595.271 3433
1382.93 586.774 3384
1379.92 582.093 3357
1387.95 582.093 3357
1387.66 578.625 3337
1389.78 576.197 3323
1392.26 573.943 3310
1400.18 573.943 3310
1394.48 568.394 3278
1396.76 566.14 3265
1401.55 564.926 3258
1406.75 563.886 3252
1414.52 563.886 3252
1416.61 561.632 3239
1424.36 561.632 3239
1432.11 561.632 3239
1439.85 561.632 3239
1447.6 561.632 3239
1455.34 561.632 3239
1463.09 561.632 3239
1470.83 561.632 3239
1478.58 561.632 3239
1483.57 560.591 3233
1488.53 559.551 3227
1496.25 559.551 3227
1501.17 558.511 3221
1502.78 556.256 3208
1510.45 556.256 3208
1509.61 553.135 3190
1517.24 553.135 3190
1519.13 551.055 3178
1515.2 546.893 3154
1508.26 541.691 3124
1515.73 541.691 3124
1506.13 535.622 3089
1505.19 532.675 3072
1487.92 524.005 3022
1479.31 518.456 2990
1486.46 518.456 2990
1472.13 511 2947
1461.11 504.758 2911
1460.51 502.157 2896
1467.43 502.157 2896
1466.72 499.556 2881
1471.05 498.689 2876
1475.36 497.822 2871
1482.22 497.822 2871
1484.42 496.261 2862
1483.45 493.66 2847
1487.64 492.793 2842
1494.44 492.793 2842
1501.23 492.793 2842
1505.38 491.926 2837
1509.5 491.059 2832
1511.45 489.499 2823
1518.2 489.499 2823
1524.95 489.499 2823
1526.28 487.765 2813
1530.82 487.071 2809
1537.54 487.071 2809
1541.51 486.204 2804
1545.45 485.337 2799
1549.37 484.47 2794
1556.05 484.47 2794
1560.5 483.777 2790
1567.17 483.777 2790
1571.02 482.91 2785
1580.51 483.777 2790
1589.46 484.47 2794
1596.14 484.47 2794
1602.82 484.47 2794
1612.38 485.337 2799
1619.08 485.337 2799
1625.77 485.337 2799
1632.46 485.337 2799
1642.09 486.204 2804
1648.79 486.204 2804
1655.5 486.204 2804
1665.17 487.071 2809
1671.88 487.071 2809
1678.6 487.071 2809
1687.72 487.765 2813
1694.44 487.765 2813
1701.17 487.765 2813
1710.93 488.632 2818
1720.72 489.499 2823
1727.47 489.499 2823
1734.22 489.499 2823
1737.89 488.632 2818
1744.63 488.632 2818
1745.77 487.071 2809
1752.49 487.071 2809
1759.21 487.071 2809
1768.44 487.765 2813
1775.16 487.765 2813
1781.89 487.765 2813
1788.62 487.765 2813
1795.34 487.765 2813
1802.07 487.765 2813
1808.8 487.765 2813
1812.94 487.071 2809
1819.66 487.071 2809
1819.88 485.337 2799
1826.57 485.337 2799
1833.26 485.337 2799
1839.96 485.337 2799
1846.65 485.337 2799
1850.03 484.47 2794
1854.05 483.777 2790
1860.73 483.777 2790
1867.4 483.777 2790
1874.07 483.777 2790
1877.37 482.91 2785
1884.03 482.91 2785
1890.69 482.91 2785
1893.94 482.043 2780
1888.29 478.922 2762
1894.89 478.922 2762
1901.5 478.922 2762
1908.1 478.922 2762
1914.7 478.922 2762
1921.31 478.922 2762
1927.91 478.922 2762
1934.52 478.922 2762
1937.61 478.055 2757
1944.2 478.055 2757
1950.8 478.055 2757
1960.94 478.922 2762
1967.54 478.922 2762
1974.15 478.922 2762
1980.75 478.922 2762
1987.36 478.922 2762
1987.46 477.361 2753
1987.53 475.8 2744
1994.09 475.8 2744
2003.57 476.494 2748
2020.38 478.922 2762
2026.99 478.922 2762
2033.59 478.922 2762
2040.2 478.922 2762
2046.8 478.922 2762
2053.41 478.922 2762
2077.16 482.91 2785
2083.82 482.91 2785
2094.24 483.777 2790
2100.91 483.777 2790
2110.6 484.47 2794
2124.86 486.204 2804
2131.57 486.204 2804
2138.27 486.204 2804
2144.98 486.204 2804
-2096.99 498.722 2837
-2090.21 498.722 2837
-2083.43 498.722 2837
-2076.64 498.722 2837
-2069.86 498.722 2837
-2063.07 498.722 2837
-2056.29 498.722 2837
-2049.51 498.722 2837
-2036.24 497.14 2828
-2039.53 499.601 2842
-2039.88 501.359 2852
-2033.06 501.359 2852
-2033.35 503.117 2862
-2050.58 509.094 2896
-2054.24 511.731 2911
-2047.28 511.731 2911
-2040.32 511.731 2911
-2026.37 509.973 2901
-2019.43 509.973 2901
-2005.56 508.215 2891
-1991.73 506.457 2881
-1981.4 505.578 2876
-1974.52 505.578 2876
-1960.8 503.82 2866
-1957.36 504.699 2871
-1960.68 507.336 2886
-1960.55 509.094 2896
-1953.62 509.094 2896
-1946.7 509.094 2896
-1953.84 512.786 2917
-1963.55 517.181 2942
-1956.52 517.181 2942
-1974 523.685 2979
-1999.23 532.299 3028
-1991.98 532.299 3028
-1988.02 533.178 3033
-1984.69 534.232 3039
-1998.89 540.034 3072
-1991.55 540.034 3072
-1995.18 543.022 3089
-1995.52 545.132 3101
-1988.1 545.132 3101
-1980.68 545.132 3101
-1991.72 550.229 3130
-2003.26 555.503 3160
-1995.7 555.503 3160
-1988.14 555.503 3160
-1991.87 558.668 3178
-1984.27 558.668 3178
-1980.4 559.722 3184
-1972.79 559.722 3184
-1968.88 560.777 3190
-1976 564.996 3214
-1968.32 564.996 3214
-1960.63 564.996 3214
-1952.95 564.996 3214
-1941.63 563.941 3208
-1933.96 563.941 3208
-1926.29 563.941 3208
