-1804.12 -13.7691 3557
-1791.58 -13.7381 3549
-1775.55 -13.6801 3534
-1767.1 -13.6801 3534
-1766.12 -13.7381 3549
-1757.63 -13.7381 3549
-1749.14 -13.7381 3549
-1740.66 -13.7381 3549
-1736.07 -13.7691 3557
-1727.57 -13.7691 3557
-1719.06 -13.7691 3557
-1710.56 -13.7691 3557
-1702.05 -13.7691 3557
-1693.54 -13.7691 3557
-1685.04 -13.7691 3557
-1672.76 -13.7381 3549
-1671.78 -13.8001 3565
-1666.52 -13.8272 3572
-1657.98 -13.8272 3572
-1649.44 -13.8272 3572
-1644.57 -13.8581 3580
-1636.01 -13.8581 3580
-1627.45 -13.8581 3580
-1618.89 -13.8581 3580
-1613.92 -13.8891 3588
-1605.34 -13.8891 3588
-1596.76 -13.8891 3588
-1588.18 -13.8891 3588
-1576.08 -13.8581 3580
-1567.52 -13.8581 3580
-1542.41 -13.711 3542
-1533.94 -13.711 3542
-1522.03 -13.6801 3534
-1513.58 -13.6801 3534
-1495.76 -13.5949 3512
-1475.08 -13.4827 3483
-1457.48 -13.3975 3461
-1449.21 -13.3975 3461
-1440.93 -13.3975 3461
-1429.76 -13.3704 3454
-1412.85 -13.2891 3433
-1404.64 -13.2891 3433
-1382.2 -13.1536 3398
-1354.66 -12.9678 3350
-1327.76 -12.7859 3303
-1291.89 -12.5149 3233
-1284.16 -12.5149 3233
-1257.08 -12.3252 3184
-1240.05 -12.2323 3160
-1218.45 -12.093 3124
-1210.98 -12.093 3124
-1194.65 -12.0039 3101
-1176.13 -11.8917 3072
-1160.41 -11.8065 3050
-1153.12 -11.8065 3050
-1129.3 -11.6362 3006
-1116.14 -11.5743 2990
-1108.99 -11.5743 2990
-1105.52 -11.613 3000
-1098.35 -11.613 3000
-1091.17 -11.613 3000
-1084 -11.613 3000
-1067.49 -11.5123 2974
-1060.38 -11.5123 2974
-1053.27 -11.5123 2974
-1044.05 -11.4891 2968
-1036.95 -11.4891 2968
-1029.85 -11.4891 2968
-1021.03 -11.4697 2963
-1012.24 -11.4504 2958
-1003.46 -11.431 2953
-996.402 -11.431 2953
-989.341 -11.431 2953
-978.62 -11.3885 2942
-971.585 -11.3885 2942
-964.55 -11.3885 2942
-957.515 -11.3885 2942
-950.48 -11.3885 2942
-941.841 -11.3691 2937
-934.818 -11.3691 2937
-927.794 -11.3691 2937
-920.771 -11.3691 2937
-913.748 -11.3691 2937
-906.725 -11.3691 2937
-898.17 -11.3497 2932
-891.158 -11.3497 2932
-884.147 -11.3497 2932
-877.136 -11.3497 2932
-870.125 -11.3497 2932
-863.113 -11.3497 2932
-856.102 -11.3497 2932
-849.091 -11.3497 2932
-842.079 -11.3497 2932
-835.068 -11.3497 2932
-826.645 -11.3304 2927
-819.645 -11.3304 2927
-812.646 -11.3304 2927
-804.27 -11.311 2922
-797.283 -11.311 2922
-788.943 -11.2917 2917
-781.968 -11.2917 2917
-773.398 -11.2685 2911
-765.121 -11.2491 2906
-758.172 -11.2491 2906
-751.222 -11.2491 2906
-744.273 -11.2491 2906
-737.324 -11.2491 2906
-729.118 -11.2297 2901
-722.181 -11.2297 2901
-712.779 -11.191 2891
-705.865 -11.191 2891
-697.743 -11.1717 2886
-690.842 -11.1717 2886
-682.756 -11.1523 2881
-674.693 -11.133 2876
-666.655 -11.1136 2871
-660.939 -11.133 2876
-654.061 -11.133 2876
-647.184 -11.133 2876
-640.306 -11.133 2876
-633.429 -11.133 2876
-626.552 -11.133 2876
-621.829 -11.1717 2886
-617.058 -11.2104 2896
-611.187 -11.2297 2901
-604.249 -11.2297 2901
-605.754 -11.3885 2942
-613.982 -11.6788 3017
-622.454 -11.9807 3095
-615.053 -11.9807 3095
-618.058 -12.1859 3148
-623.33 -12.4414 3214
-615.645 -12.4414 3214
-607.959 -12.4414 3214
-639.868 -13.262 3426
-631.676 -13.262 3426
-624.757 -13.2891 3433
-616.548 -13.2891 3433
-608.338 -13.2891 3433
-602.576 -13.3433 3447
-595.54 -13.3704 3454
-587.281 -13.3704 3454
-579.021 -13.3704 3454
-571.918 -13.3975 3461
-563.642 -13.3975 3461
-555.366 -13.3975 3461
-548.196 -13.4246 3468
-539.903 -13.4246 3468
-531.61 -13.4246 3468
-523.317 -13.4246 3468
-513.984 -13.3975 3461
-505.708 -13.3975 3461
-501.6 -13.5098 3490
-493.254 -13.5098 3490
-484.908 -13.5098 3490
-475.607 -13.4827 3483
-467.278 -13.4827 3483
-458.949 -13.4827 3483
-450.62 -13.4827 3483
-442.291 -13.4827 3483
-433.962 -13.4827 3483
-425.633 -13.4827 3483
-417.305 -13.4827 3483
-408.976 -13.4827 3483
-400.647 -13.4827 3483
-392.318 -13.4827 3483
-383.989 -13.4827 3483
-377.17 -13.5369 3497
-368.808 -13.5369 3497
-360.445 -13.5369 3497
-352.083 -13.5369 3497
-343.032 -13.5098 3490
-334.015 -13.4827 3483
-325.687 -13.4827 3483
-317.358 -13.4827 3483
-306.456 -13.3704 3454
-297.592 -13.3433 3447
-289.349 -13.3433 3447
-281.106 -13.3433 3447
-271.755 -13.2891 3433
-263.546 -13.2891 3433
-255.336 -13.2891 3433
-245.615 -13.2078 3412
-236.482 -13.1536 3398
-228.356 -13.1536 3398
-220.231 -13.1536 3398
-212.105 -13.1536 3398
-124.901 -8.38843 2167
-120.161 -8.4194 2175
-114.96 -8.4194 2175
-109.759 -8.4194 2175
-104.27 -8.39618 2169
-99.083 -8.39618 2169
-93.8963 -8.39618 2169
-88.6277 -8.38843 2167
-83.3303 -8.37682 2164
-78.1555 -8.37682 2164
-72.8795 -8.36521 2161
-67.5239 -8.34198 2155
-62.2259 -8.32263 2150
-57.0846 -8.32263 2150
-51.9433 -8.32263 2150
-46.7367 -8.31102 2147
-41.4476 -8.28005 2139
-36.3326 -8.28005 2139
-31.1008 -8.24908 2131
-25.8951 -8.21424 2122
-20.7717 -8.19489 2117
-15.6722 -8.17553 2112
-10.6218 -8.17553 2112
-5.55555 -8.1523 2106
-0.518976 -8.14456 2104
4.51233 -8.14456 2104
9.54363 -8.14456 2104
14.5195 -8.11359 2096
19.5037 -8.10198 2093
24.4502 -8.08263 2088
29.4432 -8.08263 2088
34.3868 -8.07101 2085
39.1272 -8.02069 2072
44.0394 -8.01295 2070
48.9894 -8.01295 2070
53.6788 -7.97424 2060
58.0928 -7.90456 2042
62.6674 -7.86585 2032
67.1943 -7.82714 2022
72.0295 -7.82714 2022
76.5986 -7.80004 2015
81.1342 -7.77295 2008
85.722 -7.75359 2003
90.5118 -7.75359 2003
95.1588 -7.74198 2000
99.7415 -7.7265 1996
104.515 -7.7265 1996
109.671 -7.75359 2003
114.461 -7.75359 2003
119.667 -7.78069 2010
124.907 -7.80779 2017
129.923 -7.8194 2020
134.754 -7.8194 2020
140.413 -7.86585 2032
147.06 -7.96263 2057
152.201 -7.97424 2060
157.127 -7.97424 2060
163.862 -8.06327 2083
169.897 -8.11359 2096
175.076 -8.12134 2098
180.093 -8.12134 2098
185.816 -8.1523 2106
191.395 -8.17553 2112
196.911 -8.19489 2117
201.973 -8.19489 2117
207.525 -8.21424 2122
212.599 -8.21424 2122
217.673 -8.21424 2122
222.748 -8.21424 2122
228.144 -8.22585 2125
233.884 -8.24908 2131
242.008 -8.3536 2158
247.168 -8.3536 2158
252.329 -8.3536 2158
257.489 -8.3536 2158
262.65 -8.3536 2158
395.921 -12.1162 3130
403.406 -12.1162 3130
410.891 -12.1162 3130
416.772 -12.0697 3118
424.228 -12.0697 3118
430.161 -12.0272 3107
436.746 -12.0039 3101
441.726 -11.9381 3084
449.101 -11.9381 3084
454.699 -11.8917 3072
459.489 -11.8259 3055
462.669 -11.7214 3028
469.909 -11.7214 3028
474.471 -11.6556 3011
479.912 -11.613 3000
483.676 -11.5317 2979
490.8 -11.5317 2979
495.249 -11.4697 2963
499.622 -11.4078 2947
505.81 -11.3885 2942
510.23 -11.3304 2927
517.229 -11.3304 2927
523.333 -11.311 2922
529.413 -11.2917 2917
536.389 -11.2917 2917
543.364 -11.2917 2917
550.34 -11.2917 2917
556.169 -11.2685 2911
563.13 -11.2685 2911
570.091 -11.2685 2911
576.061 -11.2491 2906
583.01 -11.2491 2906
589.959 -11.2491 2906
596.908 -11.2491 2906
602.818 -11.2297 2901
609.755 -11.2297 2901
616.693 -11.2297 2901
623.63 -11.2297 2901
630.567 -11.2297 2901
637.504 -11.2297 2901
643.331 -11.2104 2896
650.256 -11.2104 2896
657.181 -11.2104 2896
664.106 -11.2104 2896
671.031 -11.2104 2896
676.786 -11.191 2891
683.699 -11.191 2891
690.613 -11.191 2891
696.32 -11.1717 2886
703.221 -11.1717 2886
710.122 -11.1717 2886
717.023 -11.1717 2886
723.925 -11.1717 2886
730.826 -11.1717 2886
737.727 -11.1717 2886
744.629 -11.1717 2886
751.53 -11.1717 2886
757.117 -11.1523 2881
764.007 -11.1523 2881
770.896 -11.1523 2881
777.785 -11.1523 2881
784.675 -11.1523 2881
792.938 -11.1717 2886
799.839 -11.1717 2886
806.74 -11.1717 2886
813.642 -11.1717 2886
820.543 -11.1717 2886
828.878 -11.191 2891
835.791 -11.191 2891
842.704 -11.191 2891
851.087 -11.2104 2896
858.012 -11.2104 2896
864.937 -11.2104 2896
871.863 -11.2104 2896
878.788 -11.2104 2896
885.713 -11.2104 2896
892.638 -11.2104 2896
901.117 -11.2297 2901
916.192 -11.3304 2927
932.969 -11.4504 2958
940.042 -11.4504 2958
950.318 -11.4891 2968
973.222 -11.6788 3017
991.16 -11.8065 3050
998.454 -11.8065 3050
1011.35 -11.8723 3067
1022.34 -11.9149 3078
1035.39 -11.9807 3095
1042.79 -11.9807 3095
1064.1 -12.1394 3136
1088 -12.3252 3184
1103.88 -12.4181 3208
1111.55 -12.4181 3208
1132.48 -12.5652 3246
1149.02 -12.662 3271
1170.64 -12.813 3310
1178.55 -12.813 3310
1188.97 -12.8401 3317
1199.07 -12.8633 3323
1207.02 -12.8633 3323
1214.96 -12.8633 3323
1222.91 -12.8633 3323
1243.45 -12.9949 3357
1266.76 -13.1536 3398
1282.77 -13.2349 3419
1290.94 -13.2349 3419
1299.12 -13.2349 3419
1307.3 -13.2349 3419
1315.47 -13.2349 3419
1323.65 -13.2349 3419
1326.37 -13.1807 3405
1329.02 -13.1265 3391
1337.13 -13.1265 3391
1339.69 -13.0723 3377
1344.97 -13.0452 3370
1347.81 -12.9949 3357
1355.84 -12.9949 3357
1361.02 -12.9678 3350
1369.03 -12.9678 3350
1377.04 -12.9678 3350
1385.05 -12.9678 3350
1390.15 -12.9407 3343
1398.15 -12.9407 3343
1406.14 -12.9407 3343
1414.14 -12.9407 3343
1416.6 -12.8904 3330
1413.01 -12.7859 3303
1415.32 -12.7356 3290
1423.19 -12.7356 3290
1431.05 -12.7356 3290
1436.3 -12.7123 3284
1441.51 -12.6891 3278
1449.35 -12.6891 3278
1459.86 -12.7123 3284
1467.71 -12.7123 3284
1481.4 -12.7627 3297
1495.16 -12.813 3310
1512.16 -12.8904 3330
1520.12 -12.8904 3330
1528.08 -12.8904 3330
1536.05 -12.8904 3330
1544.01 -12.8904 3330
1551.97 -12.8904 3330
1553.84 -12.8401 3317
1561.78 -12.8401 3317
1579.17 -12.9175 3337
1599.52 -13.0181 3363
1607.56 -13.0181 3363
1615.6 -13.0181 3363
1623.64 -13.0181 3363
1631.69 -13.0181 3363
1633.39 -12.9678 3350
1647.77 -13.0181 3363
1655.81 -13.0181 3363
1663.85 -13.0181 3363
1671.9 -13.0181 3363
1666.95 -12.9175 3337
1671.42 -12.8904 3330
1679.38 -12.8904 3330
1683.8 -12.8633 3323
1688.69 -12.8401 3317
1699.69 -12.8633 3323
1707.63 -12.8633 3323
1715.58 -12.8633 3323
1723.53 -12.8633 3323
1731.47 -12.8633 3323
1736.28 -12.8401 3317
1744.21 -12.8401 3317
1752.14 -12.8401 3317
1760.08 -12.8401 3317
1768.01 -12.8401 3317
1775.94 -12.8401 3317
1780.11 -12.813 3310
1784.24 -12.7859 3303
1788.88 -12.7627 3297
1796.77 -12.7627 3297
1783.3 -12.6117 3258
1774.05 -12.4917 3227
1771.28 -12.4181 3208
1765.64 -12.3252 3184
1773.26 -12.3252 3184
1770.8 -12.2556 3166
1758.15 -12.1162 3130
1749.28 -12.0039 3101
1756.69 -12.0039 3101
1731.68 -11.7833 3044
1686.97 -11.431 2953
1667.07 -11.2491 2906
1665.38 -11.191 2891
1672.3 -11.191 2891
1659.46 -11.0594 2857
1654.63 -10.982 2837
1653.21 -10.9278 2823
1659.96 -10.9278 2823
1658.45 -10.8736 2809
1659.24 -10.8349 2799
1660.57 -10.8001 2790
1667.25 -10.8001 2790
1667.92 -10.7614 2780
1674.57 -10.7614 2780
1678.79 -10.7459 2776
1685.43 -10.7459 2776
1692.07 -10.7459 2776
1695.65 -10.7265 2771
1696.75 -10.6917 2762
1700.27 -10.6723 2757
1706.86 -10.6723 2757
1707.86 -10.6375 2748
1711.94 -10.622 2744
1715.37 -10.6026 2739
1721.92 -10.6026 2739
1728.47 -10.6026 2739
1735.02 -10.6026 2739
1739.02 -10.5872 2735
1745.56 -10.5872 2735
1752.1 -10.5872 2735
1758.64 -10.5872 2735
1765.18 -10.5872 2735
1768.48 -10.5678 2730
1775.01 -10.5678 2730
1775.67 -10.533 2721
1779.55 -10.5175 2717
1780.14 -10.4826 2708
1786.61 -10.4826 2708
1790.44 -10.4672 2704
1793.58 -10.4478 2699
1800.04 -10.4478 2699
1806.49 -10.4478 2699
1804.21 -10.3975 2686
1805.24 -10.3665 2678
1811.65 -10.3665 2678
1820.77 -10.382 2682
1827.18 -10.382 2682
1833.59 -10.382 2682
1837.26 -10.3665 2678
1840.22 -10.3472 2673
1846.62 -10.3472 2673
1847.46 -10.3162 2665
1851.05 -10.3007 2661
1857.41 -10.3007 2661
1863.78 -10.3007 2661
1870.14 -10.3007 2661
1876.5 -10.3007 2661
1882.87 -10.3007 2661
1889.23 -10.3007 2661
1895.59 -10.3007 2661
1898.38 -10.2813 2656
1904.74 -10.2813 2656
1914.68 -10.3007 2661
1921.05 -10.3007 2661
1927.41 -10.3007 2661
1933.77 -10.3007 2661
1936.49 -10.2813 2656
1942.84 -10.2813 2656
1946.26 -10.2659 2652
1952.6 -10.2659 2652
1958.94 -10.2659 2652
1968.25 -10.2813 2656
1974.6 -10.2813 2656
1980.95 -10.2813 2656
1987.3 -10.2813 2656
1993.65 -10.2813 2656
2000 -10.2813 2656
2003.33 -10.2659 2652
2006.64 -10.2504 2648
2016.02 -10.2659 2652
2038.37 -10.3472 2673
2044.77 -10.3472 2673
-2085.2 -4.10921 2785
-2078.54 -4.10921 2785
-2071.88 -4.10921 2785
-2065.22 -4.10921 2785
-2054.86 -4.10184 2780
-2045.27 -4.09593 2776
-2038.63 -4.09593 2776
-2028.33 -4.08856 2771
-2018.79 -4.08266 2767
-1998.35 -4.05462 2748
-1991.78 -4.05462 2748
-1978.71 -4.04134 2739
-1962.8 -4.02216 2726
-1952.69 -4.01478 2721
-1946.19 -4.01478 2721
-1936.83 -4.00888 2717
-1911.86 -3.97052 2691
-1877.81 -3.91298 2652
-1871.47 -3.91298 2652
-1862.31 -3.90707 2648
-1855.98 -3.90707 2648
-2409.23 -5.15976 3497
-2400.87 -5.15976 3497
-2423.29 -5.22615 3542
-2425.05 -5.24829 3557
-2416.54 -5.24829 3557
-2413.45 -5.26009 3565
-2409.65 -5.27042 3572
-2406.49 -5.28222 3580
-2397.93 -5.28222 3580
-2410.05 -5.32796 3611
-2406.74 -5.33977 3619
-2408.69 -5.36337 3635
-2400 -5.36337 3635
-2391.3 -5.36337 3635
-2382.61 -5.36337 3635
-2373.92 -5.36337 3635
-2360.02 -5.35157 3627
-2346.16 -5.33977 3619
-2322.01 -5.30435 3595
-2308.9 -5.29402 3588
-2304.81 -5.30435 3595
-2296.21 -5.30435 3595
-2287.62 -5.30435 3595
-2269.51 -5.28222 3580
-2260.95 -5.28222 3580
-2247.36 -5.27042 3572
-2243.83 -5.28222 3580
-2249.63 -5.31616 3603
-2241.01 -5.31616 3603
-2232.4 -5.31616 3603
-2223.78 -5.31616 3603
-2215.17 -5.31616 3603
-2206.55 -5.31616 3603
-2188.78 -5.29402 3588
-2180.2 -5.29402 3588
-2185.54 -5.32796 3611
-2181.73 -5.33977 3619
-2173.08 -5.33977 3619
-2173.99 -5.36337 3635
-2189.13 -5.42239 3675
-2204.67 -5.48289 3716
-2195.78 -5.48289 3716
-2206.31 -5.53158 3749
-2197.35 -5.53158 3749
-2188.38 -5.53158 3749
-2169.54 -5.50649 3732
-2160.61 -5.50649 3732
-2147.07 -5.49469 3724
-2138.17 -5.49469 3724
-2119.54 -5.46961 3707
-2106.12 -5.4578 3699
-2097.28 -5.4578 3699
-2088.43 -5.4578 3699
-2075.09 -5.446 3691
-2057.31 -5.42239 3675
-2044.06 -5.41059 3667
-2035.29 -5.41059 3667
-2017.13 -5.3855 3650
-2004 -5.3737 3642
-1987.07 -5.35157 3627
-1978.4 -5.35157 3627
-1969.72 -5.35157 3627
-1961.05 -5.35157 3627
-1943.76 -5.32796 3611
-1935.13 -5.32796 3611
-1926.49 -5.32796 3611
-1905.64 -5.29402 3588
-1892.83 -5.28222 3580
-1884.27 -5.28222 3580
-1875.71 -5.28222 3580
-1867.15 -5.28222 3580
-1854.44 -5.27042 3572
-1845.9 -5.27042 3572
-1829.64 -5.24829 3557
-1821.13 -5.24829 3557
-1812.63 -5.24829 3557
-1804.12 -5.24829 3557
-1791.58 -5.23648 3549
-1779.57 -5.22615 3542
-1767.1 -5.21435 3534
-1766.12 -5.23648 3549
-1757.63 -5.23648 3549
-1749.14 -5.23648 3549
-1740.66 -5.23648 3549
-1736.07 -5.24829 3557
-1727.57 -5.24829 3557
-1719.06 -5.24829 3557
-1710.56 -5.24829 3557
-1702.05 -5.24829 3557
-1693.54 -5.24829 3557
-1685.04 -5.24829 3557
-1672.76 -5.23648 3549
-1671.78 -5.26009 3565
-1670.25 -5.28222 3580
-1661.69 -5.28222 3580
-1653.13 -5.28222 3580
-1644.57 -5.28222 3580
-1636.01 -5.28222 3580
-1627.45 -5.28222 3580
-1618.89 -5.28222 3580
-1613.92 -5.29402 3588
-1605.34 -5.29402 3588
-1596.76 -5.29402 3588
-1588.18 -5.29402 3588
-1576.08 -5.28222 3580
-1567.52 -5.28222 3580
-1542.41 -5.22615 3542
-1533.94 -5.22615 3542
-1522.03 -5.21435 3534
-1513.58 -5.21435 3534
-1495.76 -5.18189 3512
-1475.08 -5.1391 3483
-1457.48 -5.10664 3461
-1449.21 -5.10664 3461
-1440.93 -5.10664 3461
-1429.76 -5.09631 3454
-1412.85 -5.06533 3433
-1404.64 -5.06533 3433
-1382.2 -5.01368 3398
-1357.49 -4.95319 3357
-1327.76 -4.87351 3303
-1291.89 -4.77023 3233
-1284.16 -4.77023 3233
-1261.82 -4.71564 3196
-1247.11 -4.68908 3178
-1225.47 -4.63596 3142
-1217.96 -4.63596 3142
-1198.89 -4.5917 3112
-1182.64 -4.55776 3089
-1166.88 -4.5253 3067
-1159.55 -4.5253 3067
-1139.44 -4.47513 3033
-1118 -4.41906 2995
-1108.99 -4.41169 2990
-1105.52 -4.42644 3000
-1098.35 -4.42644 3000
-1091.17 -4.42644 3000
-1084 -4.42644 3000
-1069.29 -4.39546 2979
-1062.16 -4.39546 2979
-1053.27 -4.38808 2974
-1046.16 -4.38808 2974
-1039.05 -4.38808 2974
-1031.94 -4.38808 2974
-1022.76 -4.37923 2968
-1013.95 -4.37185 2963
-1005.16 -4.36447 2958
-998.09 -4.36447 2958
-989.341 -4.35709 2953
-982.279 -4.35709 2953
-973.236 -4.34824 2947
-966.189 -4.34824 2947
-959.142 -4.34824 2947
-952.095 -4.34824 2947
-943.444 -4.34086 2942
-936.409 -4.34086 2942
-929.374 -4.34086 2942
-922.339 -4.34086 2942
-913.748 -4.33349 2937
-906.725 -4.33349 2937
-898.17 -4.32611 2932
-891.158 -4.32611 2932
-884.147 -4.32611 2932
-878.632 -4.33349 2937
-871.608 -4.33349 2937
-864.585 -4.33349 2937
-857.562 -4.33349 2937
-850.539 -4.33349 2937
-843.515 -4.33349 2937
-836.492 -4.33349 2937
-828.057 -4.32611 2932
-821.045 -4.32611 2932
-814.034 -4.32611 2932
-805.647 -4.31873 2927
-797.283 -4.31136 2922
-790.296 -4.31136 2922
-783.308 -4.31136 2922
-773.398 -4.29512 2911
-766.437 -4.29512 2911
-759.476 -4.29512 2911
-752.515 -4.29512 2911
-745.554 -4.29512 2911
-737.324 -4.28775 2906
-730.375 -4.28775 2906
-723.426 -4.28775 2906
-715.244 -4.28037 2901
-707.086 -4.27299 2896
-698.952 -4.26561 2891
-692.039 -4.26561 2891
-683.941 -4.25824 2886
-675.866 -4.25086 2881
-667.816 -4.24348 2876
-660.939 -4.24348 2876
-654.061 -4.24348 2876
-647.184 -4.24348 2876
-640.306 -4.24348 2876
-634.53 -4.25086 2881
-627.641 -4.25086 2881
-622.906 -4.26561 2891
-617.058 -4.27299 2896
-611.187 -4.28037 2901
-604.249 -4.28037 2901
-605.754 -4.34086 2942
-613.982 -4.45153 3017
-622.454 -4.56661 3095
-615.053 -4.56661 3095
-619.236 -4.65367 3154
-628.179 -4.77908 3239
-656.253 -5.055 3426
-648.061 -5.055 3426
-646.405 -5.10664 3461
-638.129 -5.10664 3461
-629.852 -5.10664 3461
-621.576 -5.10664 3461
-612.059 -5.09631 3454
-607.646 -5.12877 3476
-599.334 -5.12877 3476
-591.021 -5.12877 3476
-582.709 -5.12877 3476
-575.554 -5.1391 3483
-567.225 -5.1391 3483
-558.896 -5.1391 3483
-550.567 -5.1391 3483
-542.238 -5.1391 3483
-533.909 -5.1391 3483
-523.317 -5.11697 3468
-515.024 -5.11697 3468
-506.731 -5.11697 3468
-501.6 -5.14943 3490
-493.254 -5.14943 3490
-484.908 -5.14943 3490
-475.607 -5.1391 3483
-467.278 -5.1391 3483
-458.949 -5.1391 3483
-450.62 -5.1391 3483
-442.291 -5.1391 3483
-433.962 -5.1391 3483
-425.633 -5.1391 3483
-417.305 -5.1391 3483
-408.976 -5.1391 3483
-400.647 -5.1391 3483
-392.318 -5.1391 3483
-383.989 -5.1391 3483
-378.033 -5.17156 3505
-369.651 -5.17156 3505
-361.27 -5.17156 3505
-352.888 -5.17156 3505
-343.032 -5.14943 3490
-334.015 -5.1391 3483
-325.687 -5.1391 3483
-317.358 -5.1391 3483
-306.456 -5.09631 3454
-297.592 -5.08598 3447
-289.349 -5.08598 3447
-281.106 -5.08598 3447
-271.755 -5.06533 3433
-263.546 -5.06533 3433
-255.336 -5.06533 3433
-246.119 -5.04467 3419
-237.456 -5.03434 3412
-228.356 -5.01368 3398
-220.231 -5.01368 3398
-212.105 -5.01368 3398
-125.19 -3.20474 2172
-120.161 -3.20917 2175
-114.96 -3.20917 2175
-109.759 -3.20917 2175
-104.414 -3.20474 2172
-99.22 -3.20474 2172
-94.0261 -3.20474 2172
-88.7095 -3.20032 2169
-83.3303 -3.19294 2164
-78.1555 -3.19294 2164
-72.8795 -3.18851 2161
-67.5239 -3.17966 2155
-62.2259 -3.17228 2150
-57.0846 -3.17228 2150
-51.9433 -3.17228 2150
-46.7367 -3.16786 2147
-41.4476 -3.15605 2139
-36.3326 -3.15605 2139
-31.1008 -3.14425 2131
-25.8951 -3.13097 2122
-20.7717 -3.12359 2117
-15.6722 -3.11622 2112
-10.6218 -3.11622 2112
-5.55555 -3.10736 2106
-0.518976 -3.10441 2104
4.51233 -3.10441 2104
9.54363 -3.10441 2104
14.5195 -3.09261 2096
19.5037 -3.08818 2093
24.4502 -3.0808 2088
29.4432 -3.0808 2088
34.3868 -3.07638 2085
39.1838 -3.06162 2075
44.0394 -3.05425 2070
48.9894 -3.05425 2070
53.6788 -3.03949 2060
58.0928 -3.01293 2042
62.6674 -2.99818 2032
67.1943 -2.98342 2022
72.0295 -2.98342 2022
76.5986 -2.97309 2015
81.1342 -2.96277 2008
85.722 -2.95539 2003
90.5118 -2.95539 2003
95.1588 -2.95096 2000
99.7415 -2.94506 1996
104.515 -2.94506 1996
109.671 -2.95539 2003
114.461 -2.95539 2003
119.667 -2.96572 2010
124.907 -2.97604 2017
129.923 -2.98047 2020
134.754 -2.98047 2020
140.413 -2.99818 2032
147.06 -3.03506 2057
152.201 -3.03949 2060
157.127 -3.03949 2060
163.862 -3.07343 2083
169.897 -3.09261 2096
175.076 -3.09556 2098
180.093 -3.09556 2098
185.816 -3.10736 2106
191.395 -3.11622 2112
197.19 -3.12802 2120
202.26 -3.12802 2120
207.525 -3.13097 2122
212.599 -3.13097 2122
217.981 -3.1354 2125
223.063 -3.1354 2125
228.466 -3.13982 2128
233.884 -3.14425 2131
242.008 -3.18409 2158
247.168 -3.18409 2158
252.329 -3.18409 2158
257.489 -3.18409 2158
262.65 -3.18409 2158
397.439 -4.63596 3142
404.953 -4.63596 3142
412.466 -4.63596 3142
418.376 -4.61825 3130
425.86 -4.61825 3130
431.684 -4.60055 3118
437.591 -4.58432 3107
443.302 -4.56661 3095
450.703 -4.56661 3095
455.587 -4.54153 3078
461.293 -4.5253 3067
462.669 -4.46776 3028
469.909 -4.46776 3028
474.471 -4.44267 3011
479.912 -4.42644 3000
484.488 -4.40283 2984
491.624 -4.40283 2984
496.085 -4.37923 2968
499.622 -4.34824 2947
505.81 -4.34086 2942
510.23 -4.31873 2927
517.229 -4.31873 2927
523.333 -4.31136 2922
530.321 -4.31136 2922
536.389 -4.30398 2917
543.364 -4.30398 2917
550.34 -4.30398 2917
556.169 -4.29512 2911
563.13 -4.29512 2911
570.091 -4.29512 2911
576.061 -4.28775 2906
583.01 -4.28775 2906
589.959 -4.28775 2906
596.908 -4.28775 2906
602.818 -4.28037 2901
609.755 -4.28037 2901
616.693 -4.28037 2901
623.63 -4.28037 2901
630.567 -4.28037 2901
637.504 -4.28037 2901
644.441 -4.28037 2901
651.378 -4.28037 2901
658.316 -4.28037 2901
665.253 -4.28037 2901
671.031 -4.27299 2896
677.957 -4.27299 2896
684.882 -4.27299 2896
690.613 -4.26561 2891
697.526 -4.26561 2891
703.221 -4.25824 2886
710.122 -4.25824 2886
717.023 -4.25824 2886
725.179 -4.26561 2891
732.092 -4.26561 2891
739.005 -4.26561 2891
744.629 -4.25824 2886
751.53 -4.25824 2886
758.431 -4.25824 2886
765.333 -4.25824 2886
772.234 -4.25824 2886
779.135 -4.25824 2886
786.036 -4.25824 2886
792.938 -4.25824 2886
801.225 -4.26561 2891
808.138 -4.26561 2891
815.051 -4.26561 2891
821.965 -4.26561 2891
830.311 -4.27299 2896
837.237 -4.27299 2896
844.162 -4.27299 2896
852.556 -4.28037 2901
859.494 -4.28037 2901
866.431 -4.28037 2901
873.368 -4.28037 2901
878.788 -4.27299 2896
885.713 -4.27299 2896
892.638 -4.27299 2896
902.67 -4.28775 2906
919.322 -4.33349 2937
932.969 -4.36447 2958
940.042 -4.36447 2958
950.318 -4.37923 2968
973.222 -4.45153 3017
991.16 -4.50022 3050
998.454 -4.50022 3050
1011.35 -4.5253 3067
1022.34 -4.54153 3078
1035.39 -4.56661 3095
1042.79 -4.56661 3095
1064.1 -4.62711 3136
1088 -4.69793 3184
1103.88 -4.73334 3208
1111.55 -4.73334 3208
1132.48 -4.78941 3246
1149.02 -4.8263 3271
1170.64 -4.88384 3310
1178.55 -4.88384 3310
1188.97 -4.89417 3317
1204.12 -4.92368 3337
1216.83 -4.94286 3350
1224.84 -4.94286 3350
1240.21 -4.97237 3370
1258.64 -5.01368 3398
1279.81 -5.06533 3433
1288.02 -5.06533 3433
1304.16 -5.09631 3454
1312.42 -5.09631 3454
1320.68 -5.09631 3454
1328.94 -5.09631 3454
1331.78 -5.07565 3440
1331.82 -5.04467 3419
1334.51 -5.02401 3405
1342.65 -5.02401 3405
1339.69 -4.9827 3377
1347.76 -4.9827 3377
1353.03 -4.97237 3370
1361.09 -4.97237 3370
1361.02 -4.94286 3350
1369.03 -4.94286 3350
1377.04 -4.94286 3350
1385.05 -4.94286 3350
1390.15 -4.93253 3343
1398.15 -4.93253 3343
1406.14 -4.93253 3343
1414.14 -4.93253 3343
1416.6 -4.91335 3330
1413.01 -4.87351 3303
1415.32 -4.85433 3290
1423.19 -4.85433 3290
1431.05 -4.85433 3290
1436.3 -4.84548 3284
1441.51 -4.83663 3278
1449.35 -4.83663 3278
1462.52 -4.85433 3290
1470.39 -4.85433 3290
1484.1 -4.87351 3303
1507.35 -4.92368 3337
1524.42 -4.95319 3357
1532.44 -4.95319 3357
1540.47 -4.95319 3357
1542.04 -4.93253 3343
1550.04 -4.93253 3343
1558.03 -4.93253 3343
1563.21 -4.92368 3337
1571.19 -4.92368 3337
1588.64 -4.95319 3357
1609.51 -4.99303 3384
1617.6 -4.99303 3384
1625.69 -4.99303 3384
1633.78 -4.99303 3384
1641.88 -4.99303 3384
1639.73 -4.96204 3363
1651.2 -4.97237 3370
1659.26 -4.97237 3370
1667.32 -4.97237 3370
1675.38 -4.97237 3370
1669.95 -4.93253 3343
1674.93 -4.92368 3337
1682.91 -4.92368 3337
1683.8 -4.90302 3323
1688.69 -4.89417 3317
1699.69 -4.90302 3323
1711.23 -4.91335 3330
1719.2 -4.91335 3330
1727.16 -4.91335 3330
1735.12 -4.91335 3330
1743.08 -4.91335 3330
1751.05 -4.91335 3330
1759.01 -4.91335 3330
1763.26 -4.90302 3323
1771.21 -4.90302 3323
1779.15 -4.90302 3323
1780.11 -4.88384 3310
1784.24 -4.87351 3303
1788.88 -4.86466 3297
1796.77 -4.86466 3297
1783.3 -4.80712 3258
1774.05 -4.76138 3227
1771.28 -4.73334 3208
1768.97 -4.70678 3190
1776.6 -4.70678 3190
1770.8 -4.67137 3166
1758.15 -4.61825 3130
1749.28 -4.57547 3101
1756.69 -4.57547 3101
1731.68 -4.49136 3044
1686.97 -4.35709 2953
1667.07 -4.28775 2906
1665.38 -4.26561 2891
1672.3 -4.26561 2891
1659.46 -4.21545 2857
1654.63 -4.18594 2837
1653.21 -4.16528 2823
1659.96 -4.16528 2823
1658.45 -4.14463 2809
1662.2 -4.13725 2804
1660.57 -4.11659 2790
1667.25 -4.11659 2790
1667.92 -4.10184 2780
1674.57 -4.10184 2780
1681.21 -4.10184 2780
1685.43 -4.09593 2776
1692.07 -4.09593 2776
1695.65 -4.08856 2771
1696.75 -4.07528 2762
1700.27 -4.0679 2757
1706.86 -4.0679 2757
1707.86 -4.05462 2748
1711.94 -4.04872 2744
1718.5 -4.04872 2744
1725.06 -4.04872 2744
1728.47 -4.04134 2739
1735.02 -4.04134 2739
1739.02 -4.03544 2735
1745.56 -4.03544 2735
1752.1 -4.03544 2735
1758.64 -4.03544 2735
1765.18 -4.03544 2735
1768.48 -4.02806 2730
1775.01 -4.02806 2730
1775.67 -4.01478 2721
1779.55 -4.00888 2717
1783.42 -4.00298 2713
1789.91 -4.00298 2713
1790.44 -3.9897 2704
1796.9 -3.9897 2704
1800.04 -3.98232 2699
1806.49 -3.98232 2699
1807.57 -3.97052 2691
1810.63 -3.96314 2686
1814.35 -3.95724 2682
1820.77 -3.95724 2682
1827.18 -3.95724 2682
1833.59 -3.95724 2682
1840.01 -3.95724 2682
1843.67 -3.95134 2678
1850.07 -3.95134 2678
1850.23 -3.93806 2669
1856.62 -3.93806 2669
1860.21 -3.93216 2665
1866.58 -3.93216 2665
1872.95 -3.93216 2665
1879.33 -3.93216 2665
1885.7 -3.93216 2665
1892.07 -3.93216 2665
1898.44 -3.93216 2665
1904.82 -3.93216 2665
1911.19 -3.93216 2665
1914.68 -3.92625 2661
1921.05 -3.92625 2661
1927.41 -3.92625 2661
1933.77 -3.92625 2661
1936.49 -3.91888 2656
1942.84 -3.91888 2656
1946.26 -3.91298 2652
1955.55 -3.91888 2656
1961.9 -3.91888 2656
1971.95 -3.92625 2661
1978.32 -3.92625 2661
1984.68 -3.92625 2661
1987.3 -3.91888 2656
1993.65 -3.91888 2656
2000 -3.91888 2656
2006.36 -3.91888 2656
2012.71 -3.91888 2656
2022.86 -3.92625 2661
2048.29 -3.96314 2686
2054.71 -3.96314 2686
-2085.2 2.56228 2785
-2078.54 2.56228 2785
-2071.88 2.56228 2785
-2065.22 2.56228 2785
-2054.86 2.55768 2780
-2045.27 2.554 2776
-2038.63 2.554 2776
-2028.33 2.5494 2771
-2018.79 2.54572 2767
-1998.35 2.52824 2748
-1991.78 2.52824 2748
-1978.71 2.51996 2739
-1962.8 2.508 2726
-1952.69 2.5034 2721
-1946.19 2.5034 2721
-1936.83 2.49972 2717
-1911.86 2.4758 2691
-1877.81 2.43991 2652
-1871.47 2.43991 2652
-1862.31 2.43623 2648
-1855.98 2.43623 2648
-2409.23 3.21734 3497
-2400.87 3.21734 3497
-2423.29 3.25874 3542
-2425.05 3.27254 3557
-2416.54 3.27254 3557
-2413.45 3.2799 3565
-2409.65 3.28634 3572
-2406.49 3.2937 3580
-2397.93 3.2937 3580
-2410.05 3.32222 3611
-2406.74 3.32958 3619
-2408.69 3.3443 3635
-2400 3.3443 3635
-2391.3 3.3443 3635
-2382.61 3.3443 3635
-2373.92 3.3443 3635
-2360.02 3.33694 3627
-2346.16 3.32958 3619
-2322.01 3.3075 3595
-2308.9 3.30106 3588
-2304.81 3.3075 3595
-2296.21 3.3075 3595
-2287.62 3.3075 3595
-2269.51 3.2937 3580
-2260.95 3.2937 3580
-2247.36 3.28634 3572
-2243.83 3.2937 3580
-2249.63 3.31486 3603
-2241.01 3.31486 3603
-2232.4 3.31486 3603
-2223.78 3.31486 3603
-2215.17 3.31486 3603
-2206.55 3.31486 3603
-2188.78 3.30106 3588
-2180.2 3.30106 3588
-2185.54 3.32222 3611
-2181.73 3.32958 3619
-2173.08 3.32958 3619
-2173.99 3.3443 3635
-2189.13 3.3811 3675
-2204.67 3.41882 3716
-2195.78 3.41882 3716
-2206.31 3.44919 3749
-2197.35 3.44919 3749
-2188.38 3.44919 3749
-2169.54 3.43354 3732
-2160.61 3.43354 3732
-2147.07 3.42618 3724
-2138.17 3.42618 3724
-2119.54 3.41054 3707
-2106.12 3.40318 3699
-2097.28 3.40318 3699
-2088.43 3.40318 3699
-2075.09 3.39582 3691
-2057.31 3.3811 3675
-2044.06 3.37374 3667
-2035.29 3.37374 3667
-2017.13 3.3581 3650
-2004 3.35074 3642
-1987.07 3.33694 3627
-1978.4 3.33694 3627
-1969.72 3.33694 3627
-1961.05 3.33694 3627
-1943.76 3.32222 3611
-1935.13 3.32222 3611
-1926.49 3.32222 3611
-1905.64 3.30106 3588
-1892.83 3.2937 3580
-1884.27 3.2937 3580
-1875.71 3.2937 3580
-1867.15 3.2937 3580
-1854.44 3.28634 3572
-1845.9 3.28634 3572
-1825.52 3.26518 3549
-1817.04 3.26518 3549
-1808.55 3.26518 3549
-1800.06 3.26518 3549
-1791.58 3.26518 3549
-1779.57 3.25874 3542
-1767.1 3.25138 3534
-1766.12 3.26518 3549
-1757.63 3.26518 3549
-1749.14 3.26518 3549
-1740.66 3.26518 3549
-1736.07 3.27254 3557
-1727.57 3.27254 3557
-1719.06 3.27254 3557
-1710.56 3.27254 3557
-1702.05 3.27254 3557
-1693.54 3.27254 3557
-1685.04 3.27254 3557
-1672.76 3.26518 3549
-1671.78 3.2799 3565
-1670.25 3.2937 3580
-1661.69 3.2937 3580
-1653.13 3.2937 3580
-1644.57 3.2937 3580
-1636.01 3.2937 3580
-1627.45 3.2937 3580
-1618.89 3.2937 3580
-1613.92 3.30106 3588
-1605.34 3.30106 3588
-1596.76 3.30106 3588
-1588.18 3.30106 3588
-1576.08 3.2937 3580
-1567.52 3.2937 3580
-1542.41 3.25874 3542
-1533.94 3.25874 3542
-1522.03 3.25138 3534
-1513.58 3.25138 3534
-1492.77 3.2247 3505
-1472.11 3.19802 3476
-1457.48 3.18422 3461
-1449.21 3.18422 3461
-1440.93 3.18422 3461
-1429.76 3.17778 3454
-1412.85 3.15846 3433
-1404.64 3.15846 3433
-1382.2 3.12626 3398
-1357.49 3.08853 3357
-1327.76 3.03885 3303
-1291.89 2.97445 3233
-1284.16 2.97445 3233
-1261.82 2.94041 3196
-1247.11 2.92385 3178
-1225.47 2.89073 3142
-1217.96 2.89073 3142
-1198.89 2.86313 3112
-1182.64 2.84197 3089
-1166.88 2.82173 3067
-1159.55 2.82173 3067
-1139.44 2.79045 3033
-1118 2.75548 2995
-1108.99 2.75088 2990
-1105.52 2.76008 3000
-1098.35 2.76008 3000
-1091.17 2.76008 3000
-1084 2.76008 3000
-1069.29 2.74076 2979
-1062.16 2.74076 2979
-1053.27 2.73616 2974
-1046.16 2.73616 2974
-1039.05 2.73616 2974
-1031.94 2.73616 2974
-1022.76 2.73064 2968
-1013.95 2.72604 2963
-1005.16 2.72144 2958
-998.09 2.72144 2958
-989.341 2.71684 2953
-982.279 2.71684 2953
-973.236 2.71132 2947
-966.189 2.71132 2947
-959.142 2.71132 2947
-952.095 2.71132 2947
-943.444 2.70672 2942
-936.409 2.70672 2942
-929.374 2.70672 2942
-922.339 2.70672 2942
-913.748 2.70212 2937
-906.725 2.70212 2937
-898.17 2.69752 2932
-891.158 2.69752 2932
-884.147 2.69752 2932
-878.632 2.70212 2937
-871.608 2.70212 2937
-864.585 2.70212 2937
-857.562 2.70212 2937
-850.539 2.70212 2937
-843.515 2.70212 2937
-836.492 2.70212 2937
-828.057 2.69752 2932
-821.045 2.69752 2932
-814.034 2.69752 2932
-805.647 2.69292 2927
-797.283 2.68832 2922
-790.296 2.68832 2922
-783.308 2.68832 2922
-773.398 2.6782 2911
-766.437 2.6782 2911
-759.476 2.6782 2911
-752.515 2.6782 2911
-745.554 2.6782 2911
-737.324 2.6736 2906
-730.375 2.6736 2906
-723.426 2.6736 2906
-715.244 2.669 2901
-707.086 2.6644 2896
-698.952 2.6598 2891
-692.039 2.6598 2891
-683.941 2.6552 2886
-675.866 2.6506 2881
-667.816 2.646 2876
-660.939 2.646 2876
-654.061 2.646 2876
-647.184 2.646 2876
-640.306 2.646 2876
-634.53 2.6506 2881
-627.641 2.6506 2881
-622.906 2.6598 2891
-617.058 2.6644 2896
-611.187 2.669 2901
-604.249 2.669 2901
-605.754 2.70672 2942
-613.982 2.77572 3017
-622.454 2.84749 3095
-615.053 2.84749 3095
-619.236 2.90177 3154
-628.179 2.97997 3239
-656.253 3.15202 3426
-648.061 3.15202 3426
-646.405 3.18422 3461
-638.129 3.18422 3461
-629.852 3.18422 3461
-621.576 3.18422 3461
-612.059 3.17778 3454
-607.646 3.19802 3476
-599.334 3.19802 3476
-591.021 3.19802 3476
-582.709 3.19802 3476
-575.554 3.20446 3483
-567.225 3.20446 3483
-558.896 3.20446 3483
-550.567 3.20446 3483
-542.238 3.20446 3483
-533.909 3.20446 3483
-523.317 3.19066 3468
-515.024 3.19066 3468
-506.731 3.19066 3468
-501.6 3.2109 3490
-493.254 3.2109 3490
-484.908 3.2109 3490
-475.607 3.20446 3483
-467.278 3.20446 3483
-458.949 3.20446 3483
-450.62 3.20446 3483
-442.291 3.20446 3483
-433.962 3.20446 3483
-425.633 3.20446 3483
-417.305 3.20446 3483
-408.976 3.20446 3483
-400.647 3.20446 3483
-392.318 3.20446 3483
-383.989 3.20446 3483
-378.033 3.2247 3505
-369.651 3.2247 3505
-361.27 3.2247 3505
-352.888 3.2247 3505
-343.032 3.2109 3490
-334.015 3.20446 3483
-325.687 3.20446 3483
-317.358 3.20446 3483
-306.456 3.17778 3454
-297.592 3.17134 3447
-289.349 3.17134 3447
-281.106 3.17134 3447
-271.755 3.15846 3433
-263.546 3.15846 3433
-255.336 3.15846 3433
-246.119 3.14558 3419
-237.456 3.13914 3412
-228.356 3.12626 3398
-220.231 3.12626 3398
-212.105 3.12626 3398
-125.19 1.9983 2172
-120.161 2.00106 2175
-114.96 2.00106 2175
-109.759 2.00106 2175
-104.414 1.9983 2172
-99.22 1.9983 2172
-94.0261 1.9983 2172
-88.7095 1.99554 2169
-83.3303 1.99094 2164
-78.1555 1.99094 2164
-72.8795 1.98818 2161
-67.5239 1.98266 2155
-62.2259 1.97806 2150
-57.0846 1.97806 2150
-51.9433 1.97806 2150
-46.7367 1.9753 2147
-41.4476 1.96794 2139
-36.3326 1.96794 2139
-31.1008 1.96058 2131
-25.8951 1.9523 2122
-20.7717 1.9477 2117
-15.6722 1.9431 2112
-10.6218 1.9431 2112
-5.55555 1.93758 2106
-0.518976 1.93574 2104
4.51233 1.93574 2104
9.54363 1.93574 2104
14.5195 1.92838 2096
19.5037 1.92562 2093
24.4502 1.92102 2088
29.4432 1.92102 2088
34.3538 1.91642 2083
39.1838 1.90906 2075
43.933 1.89986 2065
48.8711 1.89986 2065
53.6006 1.8925 2057
58.0075 1.87594 2039
62.6058 1.86766 2030
67.1943 1.8603 2022
72.0295 1.8603 2022
76.4085 1.84926 2010
81.1342 1.84742 2008
85.722 1.84282 2003
90.5118 1.84282 2003
95.0636 1.83822 1998
99.7415 1.83638 1996
104.515 1.83638 1996
109.507 1.84006 2000
114.289 1.84006 2000
119.548 1.84742 2008
124.598 1.8511 2012
129.923 1.85846 2020
134.754 1.85846 2020
140.068 1.8649 2027
147.06 1.8925 2057
152.201 1.89526 2060
157.127 1.89526 2060
163.469 1.91182 2078
169.897 1.92838 2096
175.076 1.93022 2098
180.093 1.93022 2098
185.816 1.93758 2106
191.395 1.9431 2112
197.19 1.95046 2120
202.26 1.95046 2120
207.525 1.9523 2122
212.599 1.9523 2122
217.981 1.95506 2125
223.063 1.95506 2125
228.466 1.95782 2128
233.884 1.96058 2131
242.008 1.98542 2158
247.168 1.98542 2158
252.329 1.98542 2158
257.489 1.98542 2158
262.65 1.98542 2158
397.439 2.89073 3142
404.953 2.89073 3142
412.466 2.89073 3142
418.376 2.87969 3130
425.86 2.87969 3130
431.684 2.86865 3118
437.591 2.85853 3107
443.302 2.84749 3095
450.703 2.84749 3095
455.587 2.83185 3078
461.293 2.82173 3067
462.669 2.78584 3028
469.909 2.78584 3028
474.471 2.7702 3011
479.912 2.76008 3000
484.488 2.74536 2984
491.624 2.74536 2984
496.085 2.73064 2968
499.622 2.71132 2947
505.81 2.70672 2942
510.23 2.69292 2927
517.229 2.69292 2927
523.333 2.68832 2922
530.321 2.68832 2922
536.389 2.68372 2917
543.364 2.68372 2917
550.34 2.68372 2917
556.169 2.6782 2911
563.13 2.6782 2911
570.091 2.6782 2911
576.061 2.6736 2906
583.01 2.6736 2906
589.959 2.6736 2906
596.908 2.6736 2906
602.818 2.669 2901
609.755 2.669 2901
616.693 2.669 2901
623.63 2.669 2901
630.567 2.669 2901
637.504 2.669 2901
644.441 2.669 2901
651.378 2.669 2901
658.316 2.669 2901
665.253 2.669 2901
671.031 2.6644 2896
677.957 2.6644 2896
684.882 2.6644 2896
690.613 2.6598 2891
697.526 2.6598 2891
703.221 2.6552 2886
710.122 2.6552 2886
717.023 2.6552 2886
725.179 2.6598 2891
732.092 2.6598 2891
739.005 2.6598 2891
744.629 2.6552 2886
751.53 2.6552 2886
758.431 2.6552 2886
765.333 2.6552 2886
772.234 2.6552 2886
779.135 2.6552 2886
786.036 2.6552 2886
792.938 2.6552 2886
801.225 2.6598 2891
808.138 2.6598 2891
815.051 2.6598 2891
821.965 2.6598 2891
830.311 2.6644 2896
837.237 2.6644 2896
844.162 2.6644 2896
852.556 2.669 2901
859.494 2.669 2901
866.431 2.669 2901
873.368 2.669 2901
878.788 2.6644 2896
885.713 2.6644 2896
892.638 2.6644 2896
902.67 2.6736 2906
919.322 2.70212 2937
932.969 2.72144 2958
940.042 2.72144 2958
950.318 2.73064 2968
973.222 2.77572 3017
991.16 2.80609 3050
998.454 2.80609 3050
1011.35 2.82173 3067
1022.34 2.83185 3078
1035.39 2.84749 3095
1042.79 2.84749 3095
1062.07 2.87969 3130
1085.95 2.92385 3178
1101.81 2.94593 3202
1109.47 2.94593 3202
1127.94 2.97445 3233
1142.35 2.99193 3252
1163.56 3.02689 3290
1171.43 3.02689 3290
1188.97 3.05173 3317
1204.12 3.07013 3337
1216.83 3.08209 3350
1224.84 3.08209 3350
1240.21 3.10049 3370
1258.64 3.12626 3398
1279.81 3.15846 3433
1288.02 3.15846 3433
1304.16 3.17778 3454
1312.42 3.17778 3454
1320.68 3.17778 3454
1328.94 3.17778 3454
1331.78 3.1649 3440
1331.82 3.14558 3419
1334.51 3.1327 3405
1342.65 3.1327 3405
1339.69 3.10693 3377
1347.76 3.10693 3377
1353.03 3.10049 3370
1361.09 3.10049 3370
1361.02 3.08209 3350
1369.03 3.08209 3350
1377.04 3.08209 3350
1385.05 3.08209 3350
1390.15 3.07565 3343
1392.71 3.06369 3330
1400.67 3.06369 3330
1408.64 3.06369 3330
1413.62 3.05725 3323
1413.01 3.03885 3303
1412.74 3.02137 3284
1420.59 3.02137 3284
1428.44 3.02137 3284
1430.61 3.00941 3271
1441.51 3.01585 3278
1449.35 3.01585 3278
1462.52 3.02689 3290
1470.39 3.02689 3290
1484.1 3.03885 3303
1507.35 3.07013 3337
1524.42 3.08853 3357
1532.44 3.08853 3357
1540.47 3.08853 3357
1542.04 3.07565 3343
1550.04 3.07565 3343
1558.03 3.07565 3343
1563.21 3.07013 3337
1571.19 3.07013 3337
1588.64 3.08853 3357
1609.51 3.11337 3384
1617.6 3.11337 3384
1625.69 3.11337 3384
1633.78 3.11337 3384
1641.88 3.11337 3384
1639.73 3.09405 3363
1651.2 3.10049 3370
1659.26 3.10049 3370
1667.32 3.10049 3370
1675.38 3.10049 3370
1669.95 3.07565 3343
1674.93 3.07013 3337
1682.91 3.07013 3337
1683.8 3.05725 3323
1688.69 3.05173 3317
1699.69 3.05725 3323
1711.23 3.06369 3330
1719.2 3.06369 3330
1727.16 3.06369 3330
1735.12 3.06369 3330
1743.08 3.06369 3330
1751.05 3.06369 3330
1759.01 3.06369 3330
1763.26 3.05725 3323
1771.21 3.05725 3323
1779.15 3.05725 3323
1780.11 3.04529 3310
1784.24 3.03885 3303
1788.88 3.03333 3297
1796.77 3.03333 3297
1783.3 2.99745 3258
1774.05 2.96893 3227
1771.28 2.95145 3208
1768.97 2.93489 3190
1776.6 2.93489 3190
1770.8 2.91281 3166
1758.15 2.87969 3130
1749.28 2.85301 3101
1756.69 2.85301 3101
1731.68 2.80057 3044
1686.97 2.71684 2953
1667.07 2.6736 2906
1665.38 2.6598 2891
1672.3 2.6598 2891
1659.46 2.62852 2857
1654.63 2.61012 2837
1653.21 2.59724 2823
1659.96 2.59724 2823
1658.45 2.58436 2809
1662.2 2.57976 2804
1660.57 2.56688 2790
1667.25 2.56688 2790
1667.92 2.55768 2780
1674.57 2.55768 2780
1681.21 2.55768 2780
1685.43 2.554 2776
1692.07 2.554 2776
1695.65 2.5494 2771
1696.75 2.54112 2762
1700.27 2.53652 2757
1706.86 2.53652 2757
1707.86 2.52824 2748
1711.94 2.52456 2744
1718.5 2.52456 2744
1725.06 2.52456 2744
1728.47 2.51996 2739
1735.02 2.51996 2739
1739.02 2.51628 2735
1745.56 2.51628 2735
1752.1 2.51628 2735
1758.64 2.51628 2735
1765.18 2.51628 2735
1768.48 2.51168 2730
1775.01 2.51168 2730
1775.67 2.5034 2721
1779.55 2.49972 2717
1783.42 2.49604 2713
1789.91 2.49604 2713
1790.44 2.48776 2704
1796.9 2.48776 2704
1800.04 2.48316 2699
1806.49 2.48316 2699
1807.57 2.4758 2691
1810.63 2.4712 2686
1814.35 2.46752 2682
1820.77 2.46752 2682
1829.9 2.4712 2686
1836.33 2.4712 2686
1842.75 2.4712 2686
1846.42 2.46752 2682
1852.83 2.46752 2682
1853.01 2.45923 2673
1856.62 2.45555 2669
1863 2.45555 2669
1869.38 2.45555 2669
1875.76 2.45555 2669
1882.15 2.45555 2669
1888.53 2.45555 2669
1894.91 2.45555 2669
1901.29 2.45555 2669
1904.82 2.45187 2665
1911.19 2.45187 2665
1914.68 2.44819 2661
1921.05 2.44819 2661
1927.41 2.44819 2661
1933.77 2.44819 2661
1940.14 2.44819 2661
1946.5 2.44819 2661
1949.19 2.44359 2656
1955.55 2.44359 2656
1961.9 2.44359 2656
1974.92 2.45187 2665
1981.29 2.45187 2665
1987.66 2.45187 2665
1991.04 2.44819 2661
1997.41 2.44819 2661
2003.77 2.44819 2661
2010.13 2.44819 2661
2016.5 2.44819 2661
2025.9 2.45187 2665
2058.2 2.48316 2699
2064.66 2.48316 2699
-2085.2 9.23377 2785
-2078.54 9.23377 2785
-2071.88 9.23377 2785
-2065.22 9.23377 2785
-2058.56 9.23377 2785
-2048.22 9.21719 2780
-2041.57 9.21719 2780
-2028.33 9.18735 2771
-2018.79 9.17409 2767
-1998.35 9.1111 2748
-1991.78 9.1111 2748
-1975.82 9.06799 2735
-1959.2 9.02158 2721
-1949.82 9.00831 2717
-1943.32 9.00831 2717
-1924 8.94863 2699
-1908.31 8.90553 2686
-1874.98 8.77954 2648
-1871.47 8.7928 2652
-1865.12 8.7928 2652
-1919.76 9.08126 2739
-1913.21 9.08126 2739
-1906.66 9.08126 2739
-2423.29 11.7436 3542
-2425.05 11.7934 3557
-2416.54 11.7934 3557
-2413.45 11.8199 3565
-2415.05 11.8696 3580
-2427.32 11.9724 3611
-2418.69 11.9724 3611
-2415.39 11.9989 3619
-2417.38 12.052 3635
-2423.93 12.1282 3658
-2415.18 12.1282 3658
-2406.43 12.1282 3658
-2397.69 12.1282 3658
-2388.94 12.1282 3658
-2380.19 12.1282 3658
-2371.44 12.1282 3658
-2342.67 12.0255 3627
-2323.7 11.9724 3611
-2315.07 11.9724 3611
-2301.32 11.9459 3603
-2292.71 11.9459 3603
-2284.09 11.9459 3603
-2275.48 11.9459 3603
-2252.39 11.8696 3580
-2253.23 11.9194 3595
-2249.63 11.9459 3603
-2241.01 11.9459 3603
-2232.4 11.9459 3603
-2233.66 11.9989 3619
-2225 11.9989 3619
-2216.35 11.9989 3619
-2207.69 11.9989 3619
-2208.76 12.052 3635
-2200.07 12.052 3635
-2191.38 12.052 3635
-2182.69 12.052 3635
-2187.75 12.1282 3658
-2213.55 12.3205 3716
-2239.08 12.5128 3774
-2230.05 12.5128 3774
-2231.62 12.5725 3792
-2222.55 12.5725 3792
-2223.41 12.6289 3809
-2214.3 12.6289 3809
-2205.19 12.6289 3809
-2171.29 12.4863 3766
-2162.28 12.4863 3766
-2153.28 12.4863 3766
-2139.15 12.4565 3757
-2115.99 12.3736 3732
-2107.07 12.3736 3732
-2084.09 12.2907 3707
-2066.26 12.2376 3691
-2052.98 12.2111 3683
-2044.17 12.2111 3683
-2026.52 12.1581 3667
-2012.8 12.1282 3658
-2004.05 12.1282 3658
-1995.31 12.1282 3658
-1986.56 12.1282 3658
-1973.49 12.1017 3650
-1952.38 12.0255 3627
-1943.7 12.0255 3627
-1926.49 11.9724 3611
-1917.86 11.9724 3611
-1909.22 11.9724 3611
-1900.59 11.9724 3611
-1891.95 11.9724 3611
-1883.32 11.9724 3611
-1862.74 11.8961 3588
-1854.16 11.8961 3588
-1845.58 11.8961 3588
-1837 11.8961 3588
-1828.42 11.8961 3588
-1819.84 11.8961 3588
-1811.26 11.8961 3588
-1791.13 11.8199 3565
-1778.6 11.7934 3557
-1770.1 11.7934 3557
-1761.59 11.7934 3557
-1753.09 11.7934 3557
-1744.58 11.7934 3557
-1736.07 11.7934 3557
-1734.85 11.8431 3572
-1726.31 11.8431 3572
-1717.77 11.8431 3572
-1709.23 11.8431 3572
-1700.69 11.8431 3572
-1688.83 11.8199 3565
-1680.3 11.8199 3565
-1671.78 11.8199 3565
-1673.98 11.8961 3588
-1665.4 11.8961 3588
-1656.82 11.8961 3588
-1648.24 11.8961 3588
-1639.66 11.8961 3588
-1631.08 11.8961 3588
-1625.67 11.9194 3595
-1617.07 11.9194 3595
-1608.48 11.9194 3595
-1599.88 11.9194 3595
-1591.28 11.9194 3595
-1579.6 11.8961 3588
-1571.02 11.8961 3588
-1542.41 11.7436 3542
-1530.48 11.7171 3534
-1519.01 11.6939 3527
-1510.58 11.6939 3527
-1492.77 11.621 3505
-1465.76 11.4751 3461
-1457.48 11.4751 3461
-1449.21 11.4751 3461
-1440.93 11.4751 3461
-1429.76 11.4519 3454
-1412.85 11.3822 3433
-1404.64 11.3822 3433
-1382.2 11.2662 3398
-1357.49 11.1303 3357
-1327.76 10.9512 3303
-1291.89 10.7191 3233
-1284.16 10.7191 3233
-1261.82 10.5965 3196
-1247.11 10.5368 3178
-1225.47 10.4174 3142
-1217.96 10.4174 3142
-1198.89 10.318 3112
-1182.64 10.2417 3089
-1166.88 10.1688 3067
-1159.55 10.1688 3067
-1143.57 10.0925 3044
-1119.87 9.94661 3000
-1110.84 9.93003 2995
-1107.73 9.9665 3006
-1100.54 9.9665 3006
-1093.36 9.9665 3006
-1086.17 9.9665 3006
-1069.29 9.87698 2979
-1062.16 9.87698 2979
-1055.04 9.87698 2979
-1047.92 9.87698 2979
-1040.79 9.87698 2979
-1033.67 9.87698 2979
-1024.82 9.86041 2974
-1015.66 9.84051 2968
-1006.86 9.82394 2963
-999.777 9.82394 2963
-991.016 9.80736 2958
-983.943 9.80736 2958
-976.869 9.80736 2958
-969.796 9.80736 2958
-959.142 9.77089 2947
-952.095 9.77089 2947
-943.444 9.75431 2942
-936.409 9.75431 2942
-929.374 9.75431 2942
-922.339 9.75431 2942
-915.303 9.75431 2942
-908.268 9.75431 2942
-899.701 9.73773 2937
-892.678 9.73773 2937
-885.655 9.73773 2937
-878.632 9.73773 2937
-871.608 9.73773 2937
-864.585 9.73773 2937
-857.562 9.73773 2937
-850.539 9.73773 2937
-843.515 9.73773 2937
-836.492 9.73773 2937
-829.469 9.73773 2937
-821.045 9.72115 2932
-814.034 9.72115 2932
-805.647 9.70458 2927
-797.283 9.688 2922
-790.296 9.688 2922
-783.308 9.688 2922
-774.992 9.67142 2917
-768.017 9.67142 2917
-761.042 9.67142 2917
-754.066 9.67142 2917
-747.091 9.67142 2917
-738.593 9.65153 2911
-730.375 9.63495 2906
-723.426 9.63495 2906
-715.244 9.61837 2901
-708.307 9.61837 2901
-700.161 9.6018 2896
-693.236 9.6018 2896
-685.126 9.58522 2891
-675.866 9.55206 2881
-668.977 9.55206 2881
-662.088 9.55206 2881
-655.198 9.55206 2881
-648.309 9.55206 2881
-641.42 9.55206 2881
-635.632 9.56864 2886
-628.73 9.56864 2886
-623.984 9.6018 2896
-618.124 9.61837 2901
-612.24 9.63495 2906
-605.291 9.63495 2906
-601.636 9.688 2922
-612.761 9.98308 3011
-622.454 10.2616 3095
-615.053 10.2616 3095
-619.236 10.4572 3154
-629.536 10.7622 3246
-662.958 11.4751 3461
-654.681 11.4751 3461
-651.821 11.5712 3490
-643.476 11.5712 3490
-635.13 11.5712 3490
-624.27 11.5248 3476
-615.958 11.5248 3476
-608.869 11.548 3483
-601.747 11.5712 3490
-593.402 11.5712 3490
-585.056 11.5712 3490
-576.711 11.5712 3490
-568.365 11.5712 3490
-560.019 11.5712 3490
-551.674 11.5712 3490
-543.328 11.5712 3490
-534.982 11.5712 3490
-525.58 11.548 3483
-518.291 11.5712 3490
-509.945 11.5712 3490
-502.606 11.5944 3497
-494.243 11.5944 3497
-485.881 11.5944 3497
-476.563 11.5712 3490
-468.217 11.5712 3490
-459.871 11.5712 3490
-451.526 11.5712 3490
-443.18 11.5712 3490
-434.835 11.5712 3490
-425.633 11.548 3483
-418.143 11.5712 3490
-409.798 11.5712 3490
-401.452 11.5712 3490
-392.318 11.548 3483
-383.989 11.548 3483
-378.033 11.621 3505
-369.651 11.621 3505
-361.27 11.621 3505
-352.888 11.621 3505
-343.032 11.5712 3490
-334.687 11.5712 3490
-326.341 11.5712 3490
-317.358 11.548 3483
-307.698 11.4983 3468
-298.196 11.4519 3454
-289.937 11.4519 3454
-281.677 11.4519 3454
-271.755 11.3822 3433
-263.546 11.3822 3433
-255.336 11.3822 3433
-246.623 11.359 3426
-238.431 11.359 3426
-230.238 11.359 3426
-222.045 11.359 3426
-213.416 11.3358 3419
-131.764 7.2776 2195
-126.515 7.2776 2195
-121.266 7.2776 2195
-115.859 7.26766 2192
-110.213 7.24113 2184
-104.558 7.21129 2175
-99.3571 7.21129 2175
-94.156 7.21129 2175
-88.8322 7.20135 2172
-83.5228 7.1914 2169
-78.3361 7.1914 2169
-72.9807 7.17482 2164
-67.6179 7.15493 2158
-62.3707 7.14498 2155
-57.2174 7.14498 2155
-51.9433 7.1284 2150
-46.7367 7.11846 2147
-41.4476 7.09193 2139
-36.3326 7.09193 2139
-31.1008 7.06541 2131
-25.8951 7.03557 2122
-20.7717 7.01899 2117
-15.6722 7.00241 2112
-10.6218 7.00241 2112
-5.56347 6.99247 2109
-0.519469 6.98252 2106
4.51233 6.97589 2104
9.54363 6.97589 2104
14.5195 6.94937 2096
19.5037 6.93942 2093
24.4502 6.92284 2088
29.4432 6.92284 2088
34.3538 6.90626 2083
39.1838 6.87974 2075
43.8692 6.83664 2062
48.8001 6.83664 2062
53.5485 6.81343 2055
58.0075 6.76038 2039
62.6058 6.73054 2030
67.1943 6.70402 2022
72.0295 6.70402 2022
76.4085 6.66423 2010
81.1342 6.6576 2008
85.722 6.64102 2003
90.5118 6.64102 2003
95.1588 6.63107 2000
99.8415 6.62444 1998
104.619 6.62444 1998
109.671 6.64102 2003
114.461 6.64102 2003
119.667 6.66423 2010
124.907 6.68744 2017
130.052 6.70402 2022
134.887 6.70402 2022
140.275 6.73054 2030
147.274 6.83001 2060
152.201 6.83001 2060
157.127 6.83001 2060
163.469 6.88969 2078
169.492 6.93279 2091
174.909 6.94937 2096
179.921 6.94937 2096
185.816 6.98252 2106
191.395 7.00241 2112
197.19 7.02894 2120
202.26 7.02894 2120
207.525 7.03557 2122
212.599 7.03557 2122
217.981 7.04552 2125
223.063 7.04552 2125
228.466 7.05546 2128
233.884 7.06541 2131
241.672 7.14498 2155
246.825 7.14498 2155
252.329 7.15493 2158
257.489 7.15493 2158
262.65 7.15493 2158
399.716 10.4771 3160
407.273 10.4771 3160
414.829 10.4771 3160
420.782 10.4373 3148
428.309 10.4373 3148
433.345 10.3776 3130
438.295 10.318 3112
444.161 10.2815 3101
451.576 10.2815 3101
457.216 10.2417 3089
461.293 10.1688 3067
463.432 10.056 3033
470.685 10.056 3033
475.417 10.003 3017
481.672 9.98308 3011
486.274 9.93003 2995
493.436 9.93003 2995
497.088 9.86041 2974
500.639 9.79078 2953
506.669 9.77089 2947
510.23 9.70458 2927
517.229 9.70458 2927
524.229 9.70458 2927
531.228 9.70458 2927
537.308 9.688 2922
544.295 9.688 2922
551.283 9.688 2922
557.315 9.67142 2917
563.13 9.65153 2911
570.091 9.65153 2911
577.052 9.65153 2911
583.01 9.63495 2906
589.959 9.63495 2906
596.908 9.63495 2906
603.857 9.63495 2906
610.806 9.63495 2906
617.755 9.63495 2906
624.705 9.63495 2906
631.654 9.63495 2906
638.603 9.63495 2906
644.441 9.61837 2901
651.378 9.61837 2901
658.316 9.61837 2901
665.253 9.61837 2901
672.19 9.61837 2901
677.957 9.6018 2896
684.882 9.6018 2896
691.807 9.6018 2896
697.526 9.58522 2891
704.439 9.58522 2891
711.352 9.58522 2891
718.266 9.58522 2891
725.179 9.58522 2891
732.092 9.58522 2891
739.005 9.58522 2891
745.919 9.58522 2891
