1528.41 -784.969 3740
1537.35 -784.969 3740
1546.3 -784.969 3740
1548.59 -781.611 3724
1543.69 -774.685 3691
1549.15 -773.006 3683
1557.96 -773.006 3683
1556.13 -767.758 3658
1548.2 -759.573 3619
-2869.21 -810.66 3907
-2935.26 -832.032 4010
-2954.13 -840.124 4049
-2944.44 -840.124 4049
-2934.76 -840.124 4049
-2925.08 -840.124 4049
-2915.4 -840.124 4049
-2884.9 -834.107 4020
-2868.14 -832.032 4010
-2858.55 -832.032 4010
-2848.96 -832.032 4010
-2833 -830.164 4001
-2823.43 -830.164 4001
-2813.86 -830.164 4001
-2804.29 -830.164 4001
-2794.73 -830.164 4001
-2785.16 -830.164 4001
-2775.59 -830.164 4001
-2766.02 -830.164 4001
-2736.48 -824.147 3972
-2720.8 -822.28 3963
-2717.48 -824.147 3972
-2707.98 -824.147 3972
-2698.48 -824.147 3972
-2682.89 -822.28 3963
-2660.6 -818.338 3944
-2651.17 -818.338 3944
-2622.98 -812.528 3916
-2589.59 -805.058 3880
-2580.31 -805.058 3880
-2588.93 -810.66 3907
-2579.58 -810.66 3907
-2594.58 -818.338 3944
-2585.15 -818.338 3944
-2575.72 -818.338 3944
-1406.72 -824.147 3972
-1397.22 -824.147 3972
-1387.73 -824.147 3972
-1378.23 -824.147 3972
-1375.28 -828.09 3991
-1365.73 -828.09 3991
-1356.19 -828.09 3991
-1350.02 -830.164 4001
-1340.45 -830.164 4001
-1330.88 -830.164 4001
-1321.32 -830.164 4001
-1311.75 -830.164 4001
-1302.18 -830.164 4001
-1292.61 -830.164 4001
-1283.05 -830.164 4001
-1270.3 -828.09 3991
-1260.75 -828.09 3991
-1254.34 -830.164 4001
-1259.71 -840.124 4049
-1250.03 -840.124 4049
-1243.41 -842.199 4059
-1233.7 -842.199 4059
-1223.99 -842.199 4059
-265.383 -459.589 2215
-260.086 -459.589 2215
-254.79 -459.589 2215
-247.916 -456.684 2201
-241.33 -454.194 2189
-236.095 -454.194 2189
-230.861 -454.194 2189
-225.317 -453.571 2186
-219.284 -451.912 2178
-213.781 -451.289 2175
-208.58 -451.289 2175
-203.098 -450.667 2172
-197.904 -450.667 2172
-192.71 -450.667 2172
-187.517 -450.667 2172
-182.323 -450.667 2172
-176.884 -450.044 2169
-171.697 -450.044 2169
-166.511 -450.044 2169
-160.952 -449.007 2164
-155.561 -448.384 2161
-150.394 -448.384 2161
-144.823 -447.139 2155
-139.67 -447.139 2155
-134.391 -446.724 2153
-128.883 -445.479 2147
-123.749 -445.479 2147
-118.615 -445.479 2147
-113.216 -444.442 2142
-107.943 -443.819 2139
-102.683 -443.197 2136
-97.5755 -443.197 2136
-92.4677 -443.197 2136
-87.2372 -442.575 2133
-82.0595 -442.16 2131
-76.9636 -442.16 2131
-71.5642 -440.292 2122
-66.4272 -439.877 2120
-61.2708 -439.255 2117
-56.2085 -439.255 2117
-51.1461 -439.255 2117
-45.9748 -438.217 2112
-40.8663 -437.595 2109
-35.823 -437.595 2109
-30.7798 -437.595 2109
-25.7365 -437.595 2109
-20.6932 -437.595 2109
-15.65 -437.595 2109
-10.6067 -437.595 2109
-5.56347 -437.595 2109
-0.520209 -437.595 2109
4.52305 -437.595 2109
9.56631 -437.595 2109
14.6096 -437.595 2109
19.6528 -437.595 2109
24.661 -436.972 2106
29.7393 -437.595 2109
34.7826 -437.595 2109
39.8825 -438.217 2112
44.9755 -438.632 2114
50.0307 -438.632 2114
55.0859 -438.632 2114
60.2265 -439.255 2117
65.2889 -439.255 2117
70.3513 -439.255 2117
75.4137 -439.255 2117
80.362 -438.632 2114
85.3364 -438.217 2112
90.3868 -438.217 2112
95.4373 -438.217 2112
100.202 -436.972 2106
105.238 -436.972 2106
110.17 -436.557 2104
115.201 -436.557 2104
120.232 -436.557 2104
125.085 -435.935 2101
130.109 -435.935 2101
135.133 -435.935 2101
140.157 -435.935 2101
145.181 -435.935 2101
150.206 -435.935 2101
155.23 -435.935 2101
160.254 -435.935 2101
165.042 -435.312 2098
170.059 -435.312 2098
175.076 -435.312 2098
180.093 -435.312 2098
185.374 -435.935 2101
190.67 -436.557 2104
195.888 -436.972 2106
200.924 -436.972 2106
206.253 -437.595 2109
211.597 -438.217 2112
217.161 -439.255 2117
222.223 -439.255 2117
227.607 -439.877 2120
232.896 -440.292 2122
238.307 -440.915 2125
243.732 -441.537 2128
248.821 -441.537 2128
253.91 -441.537 2128
259.607 -442.575 2133
264.708 -442.575 2133
269.808 -442.575 2133
274.909 -442.575 2133
280.403 -443.197 2136
285.511 -443.197 2136
290.619 -443.197 2136
295.727 -443.197 2136
300.835 -443.197 2136
306.372 -443.819 2139
311.487 -443.819 2139
316.602 -443.819 2139
321.717 -443.819 2139
326.832 -443.819 2139
331.947 -443.819 2139
337.062 -443.819 2139
342.177 -443.819 2139
347.779 -444.442 2142
352.901 -444.442 2142
358.024 -444.442 2142
363.146 -444.442 2142
369.128 -445.479 2147
374.262 -445.479 2147
380.456 -446.724 2153
387.037 -448.384 2161
393.294 -449.629 2167
398.476 -449.629 2167
403.658 -449.629 2167
802.515 -820.205 3953
811.968 -820.205 3953
825.369 -824.147 3972
844.956 -834.107 4020
860.734 -840.124 4049
870.416 -840.124 4049
880.098 -840.124 4049
889.781 -840.124 4049
899.463 -840.124 4049
904.879 -836.182 4030
912.247 -834.107 4020
919.567 -832.032 4010
929.156 -832.032 4010
929.849 -824.147 3972
930.597 -816.47 3935
926.869 -805.058 3880
936.147 -805.058 3880
934.46 -795.721 3835
941.416 -793.854 3826
952.801 -795.721 3835
966.487 -799.456 3853
975.701 -799.456 3853
984.915 -799.456 3853
989.484 -795.721 3835
989.54 -788.459 3800
998.627 -788.459 3800
1000.82 -783.064 3774
1009.84 -783.064 3774
1018.87 -783.064 3774
1027.89 -783.064 3774
1036.92 -783.064 3774
1034.3 -774.35 3732
1027.29 -762.523 3675
1036.08 -762.523 3675
1044.87 -762.523 3675
1058.25 -765.843 3691
1067.07 -765.843 3691
1075.9 -765.843 3691
1398.78 -826.222 3982
1408.3 -826.222 3982
1417.82 -826.222 3982
1427.34 -826.222 3982
1436.87 -826.222 3982
1442.76 -824.147 3972
1448.96 -822.28 3963
1454.76 -820.205 3953
1464.21 -820.205 3953
1473.67 -820.205 3953
1469.24 -812.528 3916
1454.81 -799.456 3853
1447.31 -790.327 3809
1456.42 -790.327 3809
1455.52 -784.932 3783
1457.99 -781.404 3766
1460.37 -777.877 3749
1469.33 -777.877 3749
1478.3 -777.877 3749
1490.44 -779.537 3757
1499.42 -779.537 3757
1508.41 -779.537 3757
1514.16 -777.877 3749
1519.47 -776.01 3740
1528.41 -776.01 3740
1534.07 -774.35 3732
1542.99 -774.35 3732
1548.59 -772.69 3724
1543.69 -765.843 3691
1545.79 -762.523 3675
1554.58 -762.523 3675
1546.35 -754.223 3635
1548.2 -750.904 3619
-2869.21 -801.301 3907
-2935.26 -822.426 4010
-2932.97 -824.477 4020
-2923.36 -824.477 4020
-2913.74 -824.477 4020
-2904.13 -824.477 4020
-2894.52 -824.477 4020
-2884.9 -824.477 4020
-2868.14 -822.426 4010
-2858.55 -822.426 4010
-2848.96 -822.426 4010
-2833 -820.58 4001
-2823.43 -820.58 4001
-2813.86 -820.58 4001
-2804.29 -820.58 4001
-2794.73 -820.58 4001
-2785.16 -820.58 4001
-2775.59 -820.58 4001
-2766.02 -820.58 4001
-2736.48 -814.632 3972
-2720.8 -812.786 3963
-2717.48 -814.632 3972
-2707.98 -814.632 3972
-2698.48 -814.632 3972
-2682.89 -812.786 3963
-2660.6 -808.89 3944
-2651.17 -808.89 3944
-2622.98 -803.147 3916
-2589.59 -795.764 3880
-2580.31 -795.764 3880
-2588.93 -801.301 3907
-2579.58 -801.301 3907
-2594.58 -808.89 3944
-2585.15 -808.89 3944
-2575.72 -808.89 3944
-1406.72 -814.632 3972
-1397.22 -814.632 3972
-1387.73 -814.632 3972
-1378.23 -814.632 3972
-1372.17 -816.683 3982
-1362.65 -816.683 3982
-1353.13 -816.683 3982
-1346.64 -818.529 3991
-1337.1 -818.529 3991
-1327.56 -818.529 3991
-1315.04 -816.683 3982
-1305.52 -816.683 3982
-1298.93 -818.529 3991
-1289.38 -818.529 3991
-1279.84 -818.529 3991
-1264.25 -814.632 3972
-1251.91 -812.786 3963
-1239.29 -810.736 3953
-1241.66 -818.529 3991
-1232.12 -818.529 3991
-1240.34 -830.424 4049
-1230.66 -830.424 4049
-1220.98 -830.424 4049
-264.425 -452.642 2207
-259.147 -452.642 2207
-253.869 -452.642 2207
-248.592 -452.642 2207
-242.653 -451.411 2201
-236.095 -448.95 2189
-230.861 -448.95 2189
-225.626 -448.95 2189
-220.09 -448.335 2186
-214.076 -446.694 2178
-208.868 -446.694 2178
-203.379 -446.079 2175
-198.178 -446.079 2175
-192.977 -446.079 2175
-187.776 -446.079 2175
-182.574 -446.079 2175
-177.129 -445.464 2172
-171.935 -445.464 2172
-166.741 -445.464 2172
-161.175 -444.438 2167
-155.777 -443.823 2164
-150.394 -443.208 2161
-145.226 -443.208 2161
-140.058 -443.208 2161
-134.391 -441.567 2153
-129.243 -441.567 2153
-123.749 -440.336 2147
-118.615 -440.336 2147
-113.322 -439.721 2144
-108.094 -439.311 2142
-102.828 -438.695 2139
-97.7126 -438.695 2139
-92.4677 -438.08 2136
-87.3599 -438.08 2136
-82.1365 -437.465 2133
-77.0359 -437.465 2133
-71.6654 -435.824 2125
-66.4899 -435.209 2122
-61.3577 -434.799 2120
-56.2881 -434.799 2120
-51.1461 -434.183 2117
-46.0184 -433.568 2114
-40.9244 -433.158 2112
-35.823 -432.543 2109
-30.7798 -432.543 2109
-25.7365 -432.543 2109
-20.6932 -432.543 2109
-15.65 -432.543 2109
-10.6067 -432.543 2109
-5.56347 -432.543 2109
-0.520209 -432.543 2109
4.52305 -432.543 2109
9.56631 -432.543 2109
14.6096 -432.543 2109
19.6528 -432.543 2109
24.661 -431.927 2106
29.7393 -432.543 2109
34.7826 -432.543 2109
39.8825 -433.158 2112
44.9755 -433.568 2114
50.0307 -433.568 2114
55.0859 -433.568 2114
60.2265 -434.183 2117
65.2889 -434.183 2117
70.3513 -434.183 2117
75.4137 -434.183 2117
80.362 -433.568 2114
85.3364 -433.158 2112
90.3868 -433.158 2112
95.4373 -433.158 2112
100.202 -431.927 2106
105.238 -431.927 2106
110.274 -431.927 2106
115.31 -431.927 2106
120.232 -431.517 2104
125.085 -430.902 2101
130.109 -430.902 2101
135.133 -430.902 2101
140.157 -430.902 2101
145.181 -430.902 2101
150.206 -430.902 2101
155.23 -430.902 2101
160.254 -430.902 2101
165.042 -430.287 2098
170.059 -430.287 2098
175.076 -430.287 2098
180.093 -430.287 2098
185.11 -430.287 2098
190.399 -430.902 2101
195.702 -431.517 2104
200.733 -431.517 2104
206.253 -432.543 2109
211.297 -432.543 2109
216.853 -433.568 2114
221.908 -433.568 2114
227.285 -434.183 2117
232.896 -435.209 2122
238.307 -435.824 2125
243.732 -436.439 2128
248.821 -436.439 2128
253.91 -436.439 2128
259.607 -437.465 2133
264.708 -437.465 2133
269.808 -437.465 2133
275.296 -438.08 2136
280.403 -438.08 2136
285.511 -438.08 2136
290.619 -438.08 2136
296.142 -438.695 2139
301.257 -438.695 2139
306.802 -439.311 2142
311.924 -439.311 2142
317.046 -439.311 2142
322.168 -439.311 2142
327.291 -439.311 2142
332.413 -439.311 2142
337.535 -439.311 2142
342.657 -439.311 2142
347.779 -439.311 2142
352.901 -439.311 2142
358.024 -439.311 2142
363.485 -439.721 2144
370.159 -441.567 2153
375.308 -441.567 2153
381.34 -442.592 2158
387.037 -443.208 2161
393.294 -444.438 2167
398.476 -444.438 2167
403.658 -444.438 2167
408.84 -444.438 2167
414.022 -444.438 2167
802.515 -810.736 3953
811.968 -810.736 3953
825.369 -814.632 3972
848.949 -828.374 4039
860.734 -830.424 4049
870.416 -830.424 4049
880.098 -830.424 4049
889.781 -830.424 4049
899.463 -830.424 4049
904.879 -826.528 4030
909.978 -822.426 4010
919.567 -822.426 4010
929.156 -822.426 4010
929.849 -814.632 3972
932.726 -808.89 3944
926.869 -795.764 3880
936.147 -795.764 3880
941.039 -792.072 3862
941.416 -784.689 3826
961.746 -793.918 3871
971.002 -793.918 3871
980.259 -793.918 3871
989.516 -793.918 3871
989.484 -786.534 3835
991.884 -781.202 3809
1000.99 -781.202 3809
1000.82 -774.024 3774
1009.84 -774.024 3774
1021.3 -775.87 3783
1030.35 -775.87 3783
1039.39 -775.87 3783
1045.94 -774.024 3774
1027.29 -753.719 3675
1036.08 -753.719 3675
1044.87 -753.719 3675
1062.83 -760.282 3707
1071.7 -760.282 3707
1080.56 -760.282 3707
1387.91 -799.455 3898
1397.23 -799.455 3898
1416.3 -804.993 3925
1425.68 -804.993 3925
1435.07 -804.993 3925
1444.45 -804.993 3925
1453.84 -804.993 3925
1463.23 -804.993 3925
1445.6 -790.226 3853
1438.2 -781.202 3809
1440.85 -777.715 3792
1449.92 -777.715 3792
1448.98 -772.383 3766
1451.4 -768.896 3749
1460.37 -768.896 3749
1469.33 -768.896 3749
1478.3 -768.896 3749
1487.26 -768.896 3749
1496.23 -768.896 3749
1505.19 -768.896 3749
1510.52 -767.051 3740
1516.22 -765.41 3732
1525.14 -765.41 3732
1530.78 -763.769 3724
1539.68 -763.769 3724
1541.52 -760.282 3707
1537 -753.719 3675
1542.42 -752.079 3667
1551.19 -752.079 3667
1539.54 -742.234 3619
1548.2 -742.234 3619
-2869.21 -791.942 3907
-2893.54 -801.266 3953
-2919.11 -810.996 4001
-2909.54 -810.996 4001
-2906.49 -812.82 4010
-2904.13 -814.847 4020
-2894.52 -814.847 4020
-2884.9 -814.847 4020
-2875.29 -814.847 4020
-2858.55 -812.82 4010
-2848.96 -812.82 4010
-2839.37 -812.82 4010
-2823.43 -810.996 4001
-2820.19 -812.82 4010
-2810.6 -812.82 4010
-2801.01 -812.82 4010
-2785.16 -810.996 4001
-2775.59 -810.996 4001
-2766.02 -810.996 4001
-2736.48 -805.117 3972
-2713.93 -801.266 3953
-2711.32 -803.293 3963
-2701.85 -803.293 3963
-2692.37 -803.293 3963
-2682.89 -803.293 3963
-2660.6 -799.442 3944
-2651.17 -799.442 3944
-2610.93 -790.118 3898
-2589.59 -786.469 3880
-2580.31 -786.469 3880
-2571.03 -786.469 3880
-2561.76 -786.469 3880
-2594.58 -799.442 3944
-2585.15 -799.442 3944
-2575.72 -799.442 3944
-1397.22 -805.117 3972
-1387.73 -805.117 3972
-1378.23 -805.117 3972
-1368.73 -805.117 3972
-1359.23 -805.117 3972
-1349.73 -805.117 3972
-1340.23 -805.117 3972
-1330.74 -805.117 3972
-1321.24 -805.117 3972
-1305.46 -801.266 3953
-1293.06 -799.442 3944
-1283.63 -799.442 3944
-1274.2 -799.442 3944
-1264.77 -799.442 3944
-1249.29 -795.591 3925
-1234.22 -791.942 3907
-1222.05 -790.118 3898
-1212.73 -790.118 3898
-1200.63 -788.293 3889
-1191.33 -788.293 3889
-1182.03 -788.293 3889
-1172.73 -788.293 3889
-266.821 -451.409 2227
-261.495 -451.409 2227
-256.17 -451.409 2227
-249.493 -448.977 2215
-243.976 -448.571 2213
-238.037 -447.355 2207
-232.759 -447.355 2207
-226.245 -444.923 2195
-220.392 -443.706 2189
-214.371 -442.085 2181
-209.155 -442.085 2181
-203.659 -441.477 2178
-198.451 -441.477 2178
-192.977 -440.869 2175
-187.776 -440.869 2175
-182.574 -440.869 2175
-177.373 -440.869 2175
-172.172 -440.869 2175
-166.971 -440.869 2175
-161.175 -439.247 2167
-155.777 -438.639 2164
-150.602 -438.639 2164
-145.226 -438.031 2161
-140.058 -438.031 2161
-134.704 -437.423 2158
-129.243 -436.409 2153
-123.922 -435.801 2150
-118.78 -435.801 2150
-113.48 -435.193 2147
-108.195 -434.585 2144
-102.972 -434.18 2142
-97.8496 -434.18 2142
-92.5976 -433.572 2139
-87.3599 -432.963 2136
-82.1365 -432.355 2133
-77.0359 -432.355 2133
-71.6654 -430.734 2125
-66.4899 -430.126 2122
-61.3577 -429.72 2120
-56.2881 -429.72 2120
-51.2185 -429.72 2120
-46.0837 -429.112 2117
-40.9244 -428.099 2112
-35.823 -427.491 2109
-30.7798 -427.491 2109
-25.7365 -427.491 2109
-20.6932 -427.491 2109
-15.65 -427.491 2109
-10.6067 -427.491 2109
-5.56347 -427.491 2109
-0.520209 -427.491 2109
4.52305 -427.491 2109
9.56631 -427.491 2109
14.6096 -427.491 2109
19.6528 -427.491 2109
24.661 -426.882 2106
29.7393 -427.491 2109
34.7826 -427.491 2109
39.8825 -428.099 2112
44.9329 -428.099 2112
50.0307 -428.504 2114
55.0859 -428.504 2114
60.1411 -428.504 2114
65.1964 -428.504 2114
70.2516 -428.504 2114
75.3068 -428.504 2114
80.362 -428.504 2114
85.3364 -428.099 2112
90.3868 -428.099 2112
95.4373 -428.099 2112
100.202 -426.882 2106
105.238 -426.882 2106
110.274 -426.882 2106
115.31 -426.882 2106
120.232 -426.477 2104
125.085 -425.869 2101
130.109 -425.869 2101
135.133 -425.869 2101
140.157 -425.869 2101
145.181 -425.869 2101
150.206 -425.869 2101
155.23 -425.869 2101
160.025 -425.261 2098
165.042 -425.261 2098
170.059 -425.261 2098
175.076 -425.261 2098
180.093 -425.261 2098
184.933 -424.855 2096
190.399 -425.869 2101
195.702 -426.477 2104
200.733 -426.477 2104
205.96 -426.882 2106
211.297 -427.491 2109
216.648 -428.099 2112
221.698 -428.099 2112
227.285 -429.112 2117
232.896 -430.126 2122
238.307 -430.734 2125
243.732 -431.342 2128
248.821 -431.342 2128
254.268 -431.95 2131
259.607 -432.355 2133
265.08 -432.963 2136
270.188 -432.963 2136
275.296 -432.963 2136
280.797 -433.572 2139
285.912 -433.572 2139
291.027 -433.572 2139
296.558 -434.18 2142
301.961 -434.585 2144
307.088 -434.585 2144
312.215 -434.585 2144
317.342 -434.585 2144
322.469 -434.585 2144
327.596 -434.585 2144
332.723 -434.585 2144
337.535 -434.18 2142
342.657 -434.18 2142
348.104 -434.585 2144
353.231 -434.585 2144
358.358 -434.585 2144
363.993 -435.193 2147
370.159 -436.409 2153
375.308 -436.409 2153
381.87 -438.031 2161
388.112 -439.247 2167
396.379 -442.693 2184
401.602 -442.693 2184
408.874 -444.923 2195
414.122 -444.923 2195
419.371 -444.923 2195
827.446 -807.144 3982
848.949 -818.698 4039
860.734 -820.725 4049
870.416 -820.725 4049
880.098 -820.725 4049
889.781 -820.725 4049
899.463 -820.725 4049
902.634 -814.847 4020
907.935 -810.996 4001
917.503 -810.996 4001
927.071 -810.996 4001
927.742 -803.293 3963
932.726 -799.442 3944
926.869 -786.469 3880
936.147 -786.469 3880
941.039 -782.821 3862
941.416 -775.523 3826
961.746 -784.645 3871
971.002 -784.645 3871
980.259 -784.645 3871
989.516 -784.645 3871
989.484 -777.348 3835
991.884 -772.078 3809
1000.99 -772.078 3809
1000.82 -764.983 3774
1009.84 -764.983 3774
1023.73 -768.632 3792
1032.8 -768.632 3792
1041.86 -768.632 3792
1050.93 -768.632 3792
1027.29 -744.916 3675
1036.08 -744.916 3675
1044.87 -744.916 3675
1062.83 -751.402 3707
1083.84 -759.916 3749
1092.8 -759.916 3749
1101.77 -759.916 3749
1110.73 -759.916 3749
1119.7 -759.916 3749
1128.66 -759.916 3749
1132.47 -756.47 3732
1128.86 -748.159 3691
1384.71 -788.293 3889
1394.01 -788.293 3889
1403.31 -788.293 3889
1412.61 -788.293 3889
1421.91 -788.293 3889
1431.21 -788.293 3889
1427.17 -780.996 3853
1436.39 -780.996 3853
1432.47 -773.902 3818
1434.8 -770.253 3800
1434.01 -764.983 3774
1443.03 -764.983 3774
1445.52 -761.537 3757
1444.82 -756.47 3732
1453.75 -756.47 3732
1465.81 -758.091 3740
1474.75 -758.091 3740
1483.69 -758.091 3740
1492.64 -758.091 3740
1501.58 -758.091 3740
1507.29 -756.47 3732
1516.22 -756.47 3732
1525.14 -756.47 3732
1530.78 -754.848 3724
1539.68 -754.848 3724
1541.52 -751.402 3707
1537 -744.916 3675
1542.42 -743.294 3667
1551.19 -743.294 3667
1539.54 -733.565 3619
1541.35 -730.322 3603
-2869.21 -782.583 3907
-2893.54 -791.797 3953
-2919.11 -801.411 4001
-2909.54 -801.411 4001
-2913.74 -805.217 4020
-2911.35 -807.22 4030
-2901.72 -807.22 4030
-2892.08 -807.22 4030
-2882.44 -807.22 4030
-2865.68 -805.217 4020
-2856.06 -805.217 4020
-2839.37 -803.214 4010
-2829.78 -803.214 4010
-2820.19 -803.214 4010
-2810.6 -803.214 4010
-2801.01 -803.214 4010
-2785.16 -801.411 4001
-2775.59 -801.411 4001
-2766.02 -801.411 4001
-2743.37 -797.605 3982
-2707.76 -789.994 3944
-2711.32 -793.8 3963
-2707.98 -795.602 3972
-2698.48 -795.602 3972
-2688.99 -795.602 3972
-2679.49 -795.602 3972
-2669.99 -795.602 3972
-2616.95 -782.583 3907
-2601.6 -780.78 3898
-2586.3 -778.977 3889
-2577 -778.977 3889
-2567.7 -778.977 3889
-2552.48 -777.174 3880
-2543.2 -777.174 3880
-2533.92 -777.174 3880
-1400.74 -797.605 3982
-1391.22 -797.605 3982
-1381.7 -797.605 3982
-1368.73 -795.602 3972
-1359.23 -795.602 3972
-1349.73 -795.602 3972
-1340.23 -795.602 3972
-1330.74 -795.602 3972
-1321.24 -795.602 3972
-1305.46 -791.797 3953
-1293.06 -789.994 3944
-1277.45 -786.188 3925
-1268.06 -786.188 3925
-1258.67 -786.188 3925
-1243.56 -782.583 3907
-1225.69 -777.174 3880
-1213.59 -775.372 3871
-1204.33 -775.372 3871
-1192.3 -773.569 3862
-1180.3 -771.766 3853
-267.899 -447.877 2236
-262.552 -447.877 2236
-257.205 -447.877 2236
-250.845 -446.074 2227
-244.196 -443.671 2215
-238.684 -443.27 2213
-233.392 -443.27 2213
-227.481 -442.068 2207
-220.996 -439.664 2195
-214.862 -437.862 2186
-209.635 -437.862 2186
-203.94 -436.86 2181
-198.724 -436.86 2181
-193.243 -436.259 2178
-188.035 -436.259 2178
-182.826 -436.259 2178
-177.618 -436.259 2178
-172.41 -436.259 2178
-167.201 -436.259 2178
-161.175 -434.056 2167
-155.993 -434.056 2167
-150.602 -433.455 2164
-145.226 -432.854 2161
-140.058 -432.854 2161
-134.704 -432.253 2158
-129.243 -431.252 2153
-123.922 -430.651 2150
-118.78 -430.651 2150
-113.639 -430.651 2150
-108.195 -429.449 2144
-102.972 -429.048 2142
-97.8496 -429.048 2142
-92.7274 -429.048 2142
-87.4826 -428.448 2139
-82.252 -427.847 2136
-77.1442 -427.847 2136
-71.7666 -426.244 2128
-66.5839 -425.643 2125
-61.4156 -425.042 2122
-56.3412 -425.042 2122
-51.2185 -424.642 2120
-46.0837 -424.041 2117
-40.9632 -423.44 2114
-35.874 -423.039 2112
-30.8235 -423.039 2112
-25.7731 -423.039 2112
-20.7227 -423.039 2112
-15.6722 -423.039 2112
-10.6218 -423.039 2112
-5.56347 -422.438 2109
-0.520209 -422.438 2109
4.52305 -422.438 2109
9.56631 -422.438 2109
14.6096 -422.438 2109
19.6528 -422.438 2109
24.6961 -422.438 2109
29.7393 -422.438 2109
34.7826 -422.438 2109
39.8825 -423.039 2112
44.9329 -423.039 2112
50.0307 -423.44 2114
55.0859 -423.44 2114
60.1411 -423.44 2114
65.1964 -423.44 2114
70.2516 -423.44 2114
75.3068 -423.44 2114
80.362 -423.44 2114
85.3364 -423.039 2112
90.3868 -423.039 2112
95.4373 -423.039 2112
100.202 -421.838 2106
105.238 -421.838 2106
110.274 -421.838 2106
115.31 -421.838 2106
120.232 -421.437 2104
125.085 -420.836 2101
130.109 -420.836 2101
135.133 -420.836 2101
140.157 -420.836 2101
145.181 -420.836 2101
150.206 -420.836 2101
155.23 -420.836 2101
160.025 -420.235 2098
165.042 -420.235 2098
170.059 -420.235 2098
175.076 -420.235 2098
180.093 -420.235 2098
185.11 -420.235 2098
190.399 -420.836 2101
195.702 -421.437 2104
200.733 -421.437 2104
205.96 -421.838 2106
211.297 -422.438 2109
216.853 -423.44 2114
221.908 -423.44 2114
227.607 -424.642 2120
233.226 -425.643 2125
238.644 -426.244 2128
243.732 -426.244 2128
249.172 -426.845 2131
254.506 -427.246 2133
259.972 -427.847 2136
265.452 -428.448 2139
270.567 -428.448 2139
275.682 -428.448 2139
281.191 -429.048 2142
286.313 -429.048 2142
291.435 -429.048 2142
296.834 -429.449 2144
302.384 -430.05 2147
307.518 -430.05 2147
312.652 -430.05 2147
317.786 -430.05 2147
322.92 -430.05 2147
328.055 -430.05 2147
333.189 -430.05 2147
337.85 -429.449 2144
342.977 -429.449 2144
348.104 -429.449 2144
353.231 -429.449 2144
358.859 -430.05 2147
364.502 -430.651 2150
371.019 -432.253 2158
376.179 -432.253 2158
382.4 -433.455 2164
389.008 -435.057 2172
396.379 -437.461 2184
401.602 -437.461 2184
719.394 -773.569 3862
728.629 -773.569 3862
737.864 -773.569 3862
747.1 -773.569 3862
827.446 -797.605 3982
848.949 -809.023 4039
860.734 -811.026 4049
870.416 -811.026 4049
880.098 -811.026 4049
889.781 -811.026 4049
899.463 -811.026 4049
902.634 -805.217 4020
907.935 -801.411 4001
917.503 -801.411 4001
927.071 -801.411 4001
927.742 -793.8 3963
932.726 -789.994 3944
926.869 -777.174 3880
936.147 -777.174 3880
941.039 -773.569 3862
941.416 -766.358 3826
961.746 -775.372 3871
971.002 -775.372 3871
980.259 -775.372 3871
989.516 -775.372 3871
989.484 -768.161 3835
991.884 -762.953 3809
1000.99 -762.953 3809
1000.82 -755.942 3774
1009.84 -755.942 3774
1023.73 -759.548 3792
1032.8 -759.548 3792
1041.86 -759.548 3792
1050.93 -759.548 3792
1027.29 -736.112 3675
1036.08 -736.112 3675
1044.87 -736.112 3675
1062.83 -742.522 3707
1083.84 -750.935 3749
1092.8 -750.935 3749
1101.77 -750.935 3749
1110.73 -750.935 3749
1119.7 -750.935 3749
1128.66 -750.935 3749
1132.47 -747.53 3732
1128.86 -739.317 3691
1384.71 -778.977 3889
1394.01 -778.977 3889
1403.31 -778.977 3889
1412.61 -778.977 3889
1421.91 -778.977 3889
1431.21 -778.977 3889
1427.17 -771.766 3853
1436.39 -771.766 3853
1432.47 -764.756 3818
1434.8 -761.15 3800
1434.01 -755.942 3774
1443.03 -755.942 3774
1445.52 -752.537 3757
1444.82 -747.53 3732
1453.75 -747.53 3732
1465.81 -749.132 3740
1474.75 -749.132 3740
1483.69 -749.132 3740
1492.64 -749.132 3740
1501.58 -749.132 3740
1507.29 -747.53 3732
1516.22 -747.53 3732
1525.14 -747.53 3732
1530.78 -745.927 3724
1539.68 -745.927 3724
1541.52 -742.522 3707
1537 -736.112 3675
1542.42 -734.51 3667
1551.19 -734.51 3667
1539.54 -724.896 3619
1541.35 -721.691 3603
-2875.82 -775.005 3916
-2900.86 -784.306 3963
-2919.11 -791.827 4001
-2909.54 -791.827 4001
-2913.74 -795.587 4020
-2917.86 -799.347 4039
-2908.2 -799.347 4039
-2898.54 -799.347 4039
-2888.88 -799.347 4039
-2872.81 -797.566 4030
-2863.17 -797.566 4030
-2839.37 -793.608 4010
-2829.78 -793.608 4010
-2820.19 -793.608 4010
-2810.6 -793.608 4010
-2801.01 -793.608 4010
-2785.16 -791.827 4001
-2775.59 -791.827 4001
-2766.02 -791.827 4001
-2743.37 -788.066 3982
-2713.93 -782.327 3953
-2711.32 -784.306 3963
-2707.98 -786.087 3972
-2698.48 -786.087 3972
-2688.99 -786.087 3972
-2679.49 -786.087 3972
-2669.99 -786.087 3972
-2622.98 -775.005 3916
-2607.61 -773.223 3907
-2592.28 -771.442 3898
-2582.96 -771.442 3898
-2573.64 -771.442 3898
-2564.32 -771.442 3898
-2543.2 -767.88 3880
-2533.92 -767.88 3880
-1400.74 -788.066 3982
-1391.22 -788.066 3982
-1381.7 -788.066 3982
-1368.73 -786.087 3972
-1359.23 -786.087 3972
-1349.73 -786.087 3972
-1340.23 -786.087 3972
-1330.74 -786.087 3972
-1321.24 -786.087 3972
-1305.46 -782.327 3953
-1293.06 -780.546 3944
-1277.45 -776.786 3925
-1268.06 -776.786 3925
-1258.67 -776.786 3925
-1243.56 -773.223 3907
-1225.69 -767.88 3880
-1213.59 -766.099 3871
-1204.33 -766.099 3871
-1192.3 -764.318 3862
-1180.3 -762.536 3853
-267.899 -442.521 2236
-262.552 -442.521 2236
-257.205 -442.521 2236
-250.845 -440.739 2227
-244.196 -438.364 2215
-238.684 -437.969 2213
-233.392 -437.969 2213
-227.481 -436.781 2207
-220.996 -434.406 2195
-214.862 -432.625 2186
-209.635 -432.625 2186
-203.94 -431.636 2181
-198.724 -431.636 2181
-193.243 -431.042 2178
-188.035 -431.042 2178
-182.826 -431.042 2178
-177.618 -431.042 2178
-172.41 -431.042 2178
-167.201 -431.042 2178
-161.175 -428.865 2167
-155.993 -428.865 2167
-150.602 -428.271 2164
-145.226 -427.677 2161
-140.058 -427.677 2161
-134.704 -427.084 2158
-129.243 -426.094 2153
-123.922 -425.5 2150
-118.78 -425.5 2150
-113.639 -425.5 2150
-108.195 -424.313 2144
-102.972 -423.917 2142
-97.8496 -423.917 2142
-92.7274 -423.917 2142
-87.4826 -423.324 2139
-82.252 -422.73 2136
-77.1442 -422.73 2136
-71.7666 -421.147 2128
-66.5839 -420.553 2125
-61.4156 -419.959 2122
-56.3412 -419.959 2122
-51.2185 -419.563 2120
-46.0837 -418.97 2117
-40.9632 -418.376 2114
-35.874 -417.98 2112
-30.8235 -417.98 2112
-25.7731 -417.98 2112
-20.7227 -417.98 2112
-15.6722 -417.98 2112
-10.6218 -417.98 2112
-5.56347 -417.386 2109
-0.520209 -417.386 2109
4.52305 -417.386 2109
9.56631 -417.386 2109
14.6096 -417.386 2109
19.6528 -417.386 2109
24.6961 -417.386 2109
29.7393 -417.386 2109
34.7826 -417.386 2109
39.8259 -417.386 2109
44.9329 -417.98 2112
49.9834 -417.98 2112
55.0338 -417.98 2112
60.1411 -418.376 2114
65.1964 -418.376 2114
70.2516 -418.376 2114
75.3068 -418.376 2114
80.362 -418.376 2114
85.3364 -417.98 2112
90.3868 -417.98 2112
95.4373 -417.98 2112
100.202 -416.793 2106
105.238 -416.793 2106
110.17 -416.397 2104
115.201 -416.397 2104
120.232 -416.397 2104
125.085 -415.803 2101
129.923 -415.209 2098
134.94 -415.209 2098
139.957 -415.209 2098
144.974 -415.209 2098
149.991 -415.209 2098
155.008 -415.209 2098
160.025 -415.209 2098
165.042 -415.209 2098
170.059 -415.209 2098
175.076 -415.209 2098
180.093 -415.209 2098
185.11 -415.209 2098
190.127 -415.209 2098
195.702 -416.397 2104
200.733 -416.397 2104
205.764 -416.397 2104
211.297 -417.386 2109
216.853 -418.376 2114
221.908 -418.376 2114
227.607 -419.563 2120
233.226 -420.553 2125
238.644 -421.147 2128
243.732 -421.147 2128
249.172 -421.74 2131
254.506 -422.136 2133
259.972 -422.73 2136
265.452 -423.324 2139
270.567 -423.324 2139
275.682 -423.324 2139
281.191 -423.917 2142
286.313 -423.917 2142
291.435 -423.917 2142
296.834 -424.313 2144
302.384 -424.907 2147
307.518 -424.907 2147
312.652 -424.907 2147
317.786 -424.907 2147
322.92 -424.907 2147
328.055 -424.907 2147
333.189 -424.907 2147
337.85 -424.313 2144
342.977 -424.313 2144
348.104 -424.313 2144
353.231 -424.313 2144
358.859 -424.907 2147
364.502 -425.5 2150
371.019 -427.084 2158
376.179 -427.084 2158
382.4 -428.271 2164
389.008 -429.854 2172
396.379 -432.229 2184
401.602 -432.229 2184
719.394 -764.318 3862
728.629 -764.318 3862
737.864 -764.318 3862
747.1 -764.318 3862
827.446 -788.066 3982
840.962 -791.827 4001
858.608 -799.347 4039
868.266 -799.347 4039
877.925 -799.347 4039
879.233 -791.827 4001
888.8 -791.827 4001
894.102 -788.066 3982
903.624 -788.066 3982
908.789 -784.306 3963
918.266 -784.306 3963
925.401 -782.327 3953
921.847 -771.442 3898
922.569 -764.318 3862
931.804 -764.318 3862
934.46 -758.974 3835
941.416 -757.193 3826
957.273 -762.536 3853
971.002 -766.099 3871
980.259 -766.099 3871
989.516 -766.099 3871
985.098 -755.61 3818
989.54 -752.047 3800
998.627 -752.047 3800
1000.82 -746.902 3774
1009.84 -746.902 3774
1023.73 -750.464 3792
1032.8 -750.464 3792
1041.86 -750.464 3792
1050.93 -750.464 3792
1027.29 -727.309 3675
1036.08 -727.309 3675
1042.6 -725.726 3667
1051.36 -725.726 3667
1083.84 -741.954 3749
1092.8 -741.954 3749
1101.77 -741.954 3749
1110.73 -741.954 3749
1119.7 -741.954 3749
1128.66 -741.954 3749
1132.47 -738.59 3732
1128.86 -730.475 3691
1381.5 -767.88 3880
1390.78 -767.88 3880
1403.31 -769.661 3889
1412.61 -769.661 3889
1421.91 -769.661 3889
1424.58 -766.099 3871
1414.21 -755.61 3818
1423.34 -755.61 3818
1425.71 -752.047 3800
1421.96 -745.319 3766
1427.55 -743.537 3757
1436.53 -743.537 3757
1435.9 -738.59 3732
1444.82 -738.59 3732
1450.63 -737.006 3724
1462.67 -738.59 3732
1471.6 -738.59 3732
1480.52 -738.59 3732
1489.44 -738.59 3732
1498.37 -738.59 3732
1507.29 -738.59 3732
1512.97 -737.006 3724
1521.87 -737.006 3724
1527.49 -735.423 3716
1536.38 -735.423 3716
1541.52 -733.642 3707
1537 -727.309 3675
1542.42 -725.726 3667
1551.19 -725.726 3667
1532.74 -713.06 3603
1534.93 -710.091 3588
-2875.82 -765.624 3916
-2900.86 -774.813 3963
-2919.11 -782.242 4001
-2909.54 -782.242 4001
-2913.74 -785.957 4020
-2917.86 -789.672 4039
-2908.2 -789.672 4039
-2898.54 -789.672 4039
-2888.88 -789.672 4039
-2872.81 -787.912 4030
-2863.17 -787.912 4030
-2839.37 -784.002 4010
-2829.78 -784.002 4010
-2820.19 -784.002 4010
-2810.6 -784.002 4010
-2801.01 -784.002 4010
-2785.16 -782.242 4001
-2775.59 -782.242 4001
-2766.02 -782.242 4001
-2743.37 -778.528 3982
-2713.93 -772.858 3953
-2711.32 -774.813 3963
-2707.98 -776.572 3972
-2698.48 -776.572 3972
-2688.99 -776.572 3972
-2679.49 -776.572 3972
-2669.99 -776.572 3972
-2622.98 -765.624 3916
-2607.61 -763.864 3907
-2592.28 -762.105 3898
-2582.96 -762.105 3898
-2573.64 -762.105 3898
-2564.32 -762.105 3898
-1400.74 -778.528 3982
-1391.22 -778.528 3982
-1381.7 -778.528 3982
-1368.73 -776.572 3972
-1359.23 -776.572 3972
-1346.67 -774.813 3963
-1337.2 -774.813 3963
-1327.72 -774.813 3963
-1318.24 -774.813 3963
-1305.46 -772.858 3953
-1283.88 -765.624 3916
-1271.59 -763.864 3907
-1259.34 -762.105 3898
-1250.02 -762.105 3898
-1234.97 -758.585 3880
-1222.84 -756.826 3871
-1207.94 -753.307 3853
-1198.73 -753.307 3853
-1183.96 -749.787 3835
-1174.79 -749.787 3835
-267.899 -437.164 2236
-262.552 -437.164 2236
-257.205 -437.164 2236
-251.52 -436.578 2233
-245.519 -435.405 2227
-238.899 -433.058 2215
-233.603 -433.058 2215
-227.791 -432.081 2210
-221.298 -429.735 2198
-215.452 -428.562 2192
-210.21 -428.562 2192
-204.407 -427.389 2186
-198.998 -426.998 2184
-193.509 -426.411 2181
-188.294 -426.411 2181
-182.826 -425.824 2178
-177.618 -425.824 2178
-172.41 -425.824 2178
-167.201 -425.824 2178
-161.324 -424.065 2169
-155.993 -423.674 2167
-150.602 -423.087 2164
-145.428 -423.087 2164
-140.253 -423.087 2164
-134.891 -422.501 2161
-129.363 -421.328 2155
-124.094 -420.937 2153
-118.946 -420.937 2153
-113.639 -420.35 2150
-108.195 -419.177 2144
-103.068 -419.177 2144
-97.941 -419.177 2144
-92.7274 -418.786 2142
-87.4826 -418.2 2139
-82.252 -417.613 2136
-77.1442 -417.613 2136
-71.8678 -416.635 2131
-66.5839 -415.462 2125
-61.5024 -415.462 2125
-56.4209 -415.462 2125
-51.2669 -414.876 2122
-46.149 -414.485 2120
-41.0213 -413.898 2117
-35.9589 -413.898 2117
-30.8527 -413.312 2114
-25.7975 -413.312 2114
-20.7227 -412.921 2112
-15.6722 -412.921 2112
-10.6218 -412.921 2112
-5.56347 -412.334 2109
-0.520209 -412.334 2109
4.52305 -412.334 2109
9.56631 -412.334 2109
14.6096 -412.334 2109
19.6808 -412.921 2112
24.7312 -412.921 2112
29.7816 -412.921 2112
34.7826 -412.334 2109
39.8259 -412.334 2109
44.9329 -412.921 2112
49.9834 -412.921 2112
55.0338 -412.921 2112
60.0842 -412.921 2112
65.1347 -412.921 2112
70.1851 -412.921 2112
75.2355 -412.921 2112
80.286 -412.921 2112
85.2152 -412.334 2109
90.2584 -412.334 2109
95.3017 -412.334 2109
100.202 -411.748 2106
105.238 -411.748 2106
110.17 -411.357 2104
115.201 -411.357 2104
120.061 -410.77 2101
125.085 -410.77 2101
129.923 -410.184 2098
134.94 -410.184 2098
139.957 -410.184 2098
144.974 -410.184 2098
149.991 -410.184 2098
155.008 -410.184 2098
160.025 -410.184 2098
165.042 -410.184 2098
170.059 -410.184 2098
175.076 -410.184 2098
180.093 -410.184 2098
185.11 -410.184 2098
190.127 -410.184 2098
195.702 -411.357 2104
200.733 -411.357 2104
205.764 -411.357 2104
211.297 -412.334 2109
216.853 -413.312 2114
221.908 -413.312 2114
227.607 -414.485 2120
233.555 -416.049 2128
238.98 -416.635 2131
244.076 -416.635 2131
249.406 -417.026 2133
254.864 -417.613 2136
259.972 -417.613 2136
265.452 -418.2 2139
270.567 -418.2 2139
276.069 -418.786 2142
281.454 -419.177 2144
286.581 -419.177 2144
291.708 -419.177 2144
297.25 -419.764 2147
302.384 -419.764 2147
307.948 -420.35 2150
313.089 -420.35 2150
318.23 -420.35 2150
323.372 -420.35 2150
328.513 -420.35 2150
333.654 -420.35 2150
338.796 -420.35 2150
343.457 -419.764 2147
348.591 -419.764 2147
353.725 -419.764 2147
359.361 -420.35 2150
364.502 -420.35 2150
372.05 -423.087 2164
377.225 -423.087 2164
382.4 -423.087 2164
391.515 -427.389 2186
396.742 -427.389 2186
401.97 -427.389 2186
719.394 -755.066 3862
728.629 -755.066 3862
737.864 -755.066 3862
747.1 -755.066 3862
823.498 -774.813 3963
836.969 -778.528 3982
846.491 -778.528 3982
856.013 -778.528 3982
865.535 -778.528 3982
868.685 -772.858 3953
878.137 -772.858 3953
881.303 -767.383 3925
890.689 -767.383 3925
900.075 -767.383 3925
909.461 -767.383 3925
918.847 -767.383 3925
913.333 -755.066 3862
916.119 -749.787 3835
925.289 -749.787 3835
925.932 -742.944 3800
939.448 -746.464 3818
948.578 -746.464 3818
966.487 -753.307 3853
975.701 -753.307 3853
984.915 -753.307 3853
978.389 -741.38 3792
985.114 -739.621 3783
994.16 -739.621 3783
994.19 -732.973 3749
1003.15 -732.973 3749
1014.28 -734.537 3757
1023.26 -734.537 3757
1032.25 -734.537 3757
1039.01 -732.973 3749
1022.54 -715.182 3658
1031.29 -715.182 3658
1037.76 -713.618 3650
1044.2 -712.054 3642
1057.53 -715.182 3658
1080.56 -724.762 3707
1089.43 -724.762 3707
1098.29 -724.762 3707
1102.38 -721.634 3691
1101.27 -715.182 3658
1110.02 -715.182 3658
1111.73 -710.685 3635
1117.96 -709.121 3627
1305.38 -721.634 3691
1378.3 -756.826 3871
1387.56 -756.826 3871
1396.81 -756.826 3871
1406.07 -756.826 3871
1415.33 -756.826 3871
1385.94 -736.297 3766
1394.95 -736.297 3766
1403.95 -736.297 3766
1406.58 -732.973 3749
1412.15 -731.214 3740
1421.09 -731.214 3740
1430.03 -731.214 3740
1432.82 -728.086 3724
1438.63 -726.521 3716
1447.51 -726.521 3716
1456.4 -726.521 3716
1465.29 -726.521 3716
1474.17 -726.521 3716
1483.06 -726.521 3716
1491.95 -726.521 3716
1500.83 -726.521 3716
1509.72 -726.521 3716
1518.6 -726.521 3716
1523.79 -724.762 3707
1532.65 -724.762 3707
1534.87 -721.634 3691
1533.65 -716.941 3667
1531.91 -712.054 3642
1540.62 -712.054 3642
1542.94 -709.121 3627
1531.51 -699.932 3580
-2889.77 -759.912 3935
-2928.67 -772.658 4001
-2925.67 -774.396 4010
-2916.08 -774.396 4010
-2927.51 -779.996 4039
-2917.86 -779.996 4039
-2908.2 -779.996 4039
-2898.54 -779.996 4039
-2888.88 -779.996 4039
-2872.81 -778.258 4030
-2863.17 -778.258 4030
-2846.45 -776.327 4020
-2829.78 -774.396 4010
-2820.19 -774.396 4010
-2810.6 -774.396 4010
-2801.01 -774.396 4010
-2778.2 -770.727 3991
-2768.65 -770.727 3991
-2759.11 -770.727 3991
-2736.48 -767.057 3972
-2720.8 -765.319 3963
-2704.48 -763.388 3953
-2707.98 -767.057 3972
-2698.48 -767.057 3972
-2688.99 -767.057 3972
-2679.49 -767.057 3972
-2669.99 -767.057 3972
-2635.71 -759.912 3935
-2613.62 -756.243 3916
-2610.24 -757.981 3925
-2600.85 -757.981 3925
-2591.47 -757.981 3925
-2570.24 -754.505 3907
-1400.74 -768.989 3982
-1391.22 -768.989 3982
-1381.7 -768.989 3982
-1362.18 -763.388 3953
-1352.73 -763.388 3953
-1343.28 -763.388 3953
-1333.82 -763.388 3953
-1324.37 -763.388 3953
-1314.92 -763.388 3953
-1293.25 -756.243 3916
-1283.88 -756.243 3916
-1268.66 -752.767 3898
-1250.61 -747.553 3871
-1241.36 -747.553 3871
-1229.24 -745.815 3862
-1211.47 -740.601 3835
-1196.97 -737.318 3818
-1187.84 -737.318 3818
-1178.71 -737.318 3818
-1169.58 -737.318 3818
-267.899 -431.808 2236
-262.552 -431.808 2236
-257.205 -431.808 2236
-251.858 -431.808 2236
-246.511 -431.808 2236
-239.87 -429.49 2224
-234.552 -429.49 2224
-228.1 -427.366 2213
-221.902 -425.628 2204
-215.747 -423.89 2195
-210.498 -423.89 2195
-204.407 -422.152 2186
-199.18 -422.152 2186
-193.775 -421.766 2184
-188.553 -421.766 2184
-183.078 -421.186 2181
-177.863 -421.186 2181
-172.647 -421.186 2181
-167.432 -421.186 2181
-161.547 -419.448 2172
-156.137 -418.869 2169
-150.811 -418.483 2167
-145.428 -417.903 2164
-140.253 -417.903 2164
-134.891 -417.324 2161
-129.363 -416.165 2155
-124.094 -415.779 2153
-118.946 -415.779 2153
-113.639 -415.2 2150
-108.195 -414.041 2144
-103.068 -414.041 2144
-97.941 -414.041 2144
-92.7274 -413.655 2142
-87.4826 -413.076 2139
-82.252 -412.496 2136
-77.1442 -412.496 2136
-71.8678 -411.531 2131
-66.5839 -410.372 2125
-61.5024 -410.372 2125
-56.4209 -410.372 2125
-51.2669 -409.793 2122
-46.149 -409.406 2120
-41.0794 -409.406 2120
-36.0099 -409.406 2120
-30.8527 -408.248 2114
-25.7975 -408.248 2114
-20.7423 -408.248 2114
-15.6722 -407.861 2112
-10.6218 -407.861 2112
-5.57138 -407.861 2112
-0.520209 -407.282 2109
4.52948 -407.861 2112
9.57992 -407.861 2112
14.6303 -407.861 2112
19.6808 -407.861 2112
24.7312 -407.861 2112
29.7816 -407.861 2112
34.7826 -407.282 2109
39.8259 -407.282 2109
44.8691 -407.282 2109
49.9124 -407.282 2109
54.9556 -407.282 2109
60.0842 -407.861 2112
65.1347 -407.861 2112
70.1851 -407.861 2112
75.2355 -407.861 2112
80.286 -407.861 2112
85.2152 -407.282 2109
90.2584 -407.282 2109
95.3017 -407.282 2109
100.202 -406.703 2106
105.238 -406.703 2106
110.17 -406.316 2104
115.201 -406.316 2104
120.061 -405.737 2101
124.906 -405.158 2098
129.923 -405.158 2098
134.94 -405.158 2098
139.957 -405.158 2098
144.974 -405.158 2098
149.991 -405.158 2098
155.008 -405.158 2098
160.025 -405.158 2098
165.042 -405.158 2098
170.059 -405.158 2098
175.076 -405.158 2098
180.093 -405.158 2098
185.11 -405.158 2098
190.127 -405.158 2098
195.702 -406.316 2104
200.733 -406.316 2104
205.764 -406.316 2104
211.297 -407.282 2109
216.853 -408.248 2114
221.908 -408.248 2114
227.607 -409.406 2120
233.555 -410.951 2128
239.204 -411.917 2133
244.305 -411.917 2133
249.756 -412.496 2136
254.864 -412.496 2136
260.337 -413.076 2139
266.073 -414.041 2144
271.2 -414.041 2144
276.327 -414.041 2144
281.454 -414.041 2144
287.383 -415.2 2150
292.524 -415.2 2150
298.081 -415.779 2153
303.229 -415.779 2153
308.664 -416.165 2155
313.817 -416.165 2155
318.97 -416.165 2155
324.124 -416.165 2155
329.277 -416.165 2155
334.12 -415.779 2153
338.796 -415.2 2150
343.937 -415.2 2150
349.078 -415.2 2150
354.219 -415.2 2150
359.361 -415.2 2150
365.011 -415.779 2153
372.05 -417.903 2164
377.225 -417.903 2164
382.4 -417.903 2164
392.59 -423.311 2192
397.831 -423.311 2192
403.073 -423.311 2192
719.394 -745.815 3862
728.629 -745.815 3862
737.864 -745.815 3862
747.1 -745.815 3862
811.862 -754.505 3907
832.975 -765.319 3963
842.452 -765.319 3963
851.929 -765.319 3963
861.405 -765.319 3963
862.531 -757.981 3925
871.917 -757.981 3925
871.199 -749.291 3880
882.52 -751.029 3889
891.819 -751.029 3889
901.119 -751.029 3889
908.312 -749.291 3880
911.205 -744.077 3853
916.119 -740.601 3835
925.289 -740.601 3835
925.932 -733.841 3800
935.019 -733.841 3800
944.106 -733.841 3800
953.193 -733.841 3800
962.28 -733.841 3800
971.367 -733.841 3800
978.389 -732.297 3792
980.687 -727.276 3766
989.692 -727.276 3766
994.19 -723.993 3749
998.606 -720.71 3732
1012.12 -723.993 3749
1021.08 -723.993 3749
1030.05 -723.993 3749
1039.01 -723.993 3749
1022.54 -706.419 3658
1031.29 -706.419 3658
1037.76 -704.874 3650
1044.2 -703.329 3642
1055.22 -704.874 3650
1066.28 -706.419 3658
1084.72 -712.792 3691
1093.55 -712.792 3691
1102.38 -712.792 3691
1098.86 -704.874 3650
1107.59 -704.874 3650
1109.28 -700.432 3627
1117.96 -700.432 3627
1126.63 -700.432 3627
1135.3 -700.432 3627
1305.38 -712.792 3691
1314.21 -712.792 3691
1323.03 -712.792 3691
1343.77 -719.165 3724
1361.75 -723.993 3749
1370.72 -723.993 3749
1379.68 -723.993 3749
1385.32 -722.255 3740
1394.26 -722.255 3740
1403.2 -722.255 3740
1406.11 -719.165 3724
1415.01 -719.165 3724
1423.92 -719.165 3724
1426.28 -715.882 3707
1435.14 -715.882 3707
1444.01 -715.882 3707
1452.87 -715.882 3707
1461.74 -715.882 3707
1470.6 -715.882 3707
1476.27 -714.337 3699
1485.12 -714.337 3699
1493.97 -714.337 3699
1502.81 -714.337 3699
1511.66 -714.337 3699
1520.5 -714.337 3699
1529.35 -714.337 3699
1531.54 -711.247 3683
1533.65 -708.157 3667
1531.91 -703.329 3642
1540.62 -703.329 3642
1542.94 -700.432 3627
-2889.77 -750.486 3935
-2928.67 -763.073 4001
-2925.67 -764.79 4010
-2916.08 -764.79 4010
-2927.51 -770.321 4039
-2917.86 -770.321 4039
-2908.2 -770.321 4039
-2898.54 -770.321 4039
-2888.88 -770.321 4039
-2872.81 -768.604 4030
-2863.17 -768.604 4030
-2846.45 -766.697 4020
-2829.78 -764.79 4010
-2813.86 -763.073 4001
-2804.29 -763.073 4001
-2794.73 -763.073 4001
-2778.2 -761.166 3991
-2768.65 -761.166 3991
-2759.11 -761.166 3991
-2736.48 -757.543 3972
-2720.8 -755.826 3963
-2711.32 -755.826 3963
-2701.85 -755.826 3963
-2692.37 -755.826 3963
-2682.89 -755.826 3963
-2673.42 -755.826 3963
-2663.94 -755.826 3963
-2635.71 -750.486 3935
-2613.62 -746.862 3916
-2610.24 -748.579 3925
-2607.48 -750.486 3935
-2598.07 -750.486 3935
-2607.08 -755.826 3963
-2597.6 -755.826 3963
-2588.13 -755.826 3963
-1358.53 -736.563 3862
-1349.29 -736.563 3862
-1340.06 -736.563 3862
-1333.92 -738.28 3871
-1324.67 -738.28 3871
-1315.41 -738.28 3871
-1321.34 -746.862 3916
-1311.97 -746.862 3916
-1302.61 -746.862 3916
-1287.3 -743.429 3898
-1272.08 -739.996 3880
-1248.15 -731.414 3835
-1233.49 -728.172 3818
-1224.36 -728.172 3818
-1212.37 -726.455 3809
-1197.89 -723.213 3792
-1191.33 -724.739 3800
-1182.24 -724.739 3800
-1173.15 -724.739 3800
-1164.07 -724.739 3800
-267.899 -426.451 2236
-262.552 -426.451 2236
-257.205 -426.451 2236
-251.858 -426.451 2236
-246.511 -426.451 2236
-240.517 -425.307 2230
-235.185 -425.307 2230
-228.1 -422.065 2213
-221.902 -420.348 2204
-216.042 -419.204 2198
-210.786 -419.204 2198
-204.968 -418.06 2192
-199.727 -418.06 2192
-193.953 -416.915 2186
-188.725 -416.915 2186
-183.078 -415.962 2181
-177.863 -415.962 2181
-172.647 -415.962 2181
-167.432 -415.962 2181
-161.77 -414.817 2175
-156.137 -413.673 2169
-150.95 -413.673 2169
-145.428 -412.72 2164
-140.253 -412.72 2164
-134.891 -412.147 2161
-129.543 -411.575 2158
-124.094 -410.622 2153
-118.946 -410.622 2153
-113.639 -410.049 2150
-108.195 -408.905 2144
-103.068 -408.905 2144
-97.941 -408.905 2144
-92.7274 -408.524 2142
-87.4826 -407.952 2139
-82.252 -407.379 2136
-77.1442 -407.379 2136
-71.8678 -406.426 2131
-66.5839 -405.281 2125
-61.5024 -405.281 2125
-56.4209 -405.281 2125
-51.2669 -404.709 2122
-46.149 -404.328 2120
-41.0794 -404.328 2120
-36.0099 -404.328 2120
-30.8527 -403.184 2114
-25.7975 -403.184 2114
-20.7423 -403.184 2114
-15.6722 -402.802 2112
-10.6218 -402.802 2112
-5.57138 -402.802 2112
-0.520949 -402.802 2112
4.52948 -402.802 2112
9.57992 -402.802 2112
14.6303 -402.802 2112
19.6808 -402.802 2112
24.7312 -402.802 2112
29.7816 -402.802 2112
34.7826 -402.23 2109
39.8259 -402.23 2109
44.8691 -402.23 2109
49.9124 -402.23 2109
54.9556 -402.23 2109
60.0842 -402.802 2112
65.1347 -402.802 2112
70.1851 -402.802 2112
75.2355 -402.802 2112
80.286 -402.802 2112
85.2152 -402.23 2109
90.2584 -402.23 2109
95.3017 -402.23 2109
100.202 -401.658 2106
105.238 -401.658 2106
110.17 -401.276 2104
115.201 -401.276 2104
120.061 -400.704 2101
124.906 -400.132 2098
129.923 -400.132 2098
134.94 -400.132 2098
139.957 -400.132 2098
144.974 -400.132 2098
149.991 -400.132 2098
155.008 -400.132 2098
160.025 -400.132 2098
165.042 -400.132 2098
170.059 -400.132 2098
175.076 -400.132 2098
180.093 -400.132 2098
185.11 -400.132 2098
190.127 -400.132 2098
195.702 -401.276 2104
200.733 -401.276 2104
205.764 -401.276 2104
211.297 -402.23 2109
216.853 -403.184 2114
221.908 -403.184 2114
227.607 -404.328 2120
233.884 -406.426 2131
239.541 -407.379 2136
244.649 -407.379 2136
249.756 -407.379 2136
255.222 -407.952 2139
260.946 -408.905 2144
266.073 -408.905 2144
271.2 -408.905 2144
276.327 -408.905 2144
282.241 -410.049 2150
287.784 -410.622 2153
292.932 -410.622 2153
298.081 -410.622 2153
303.511 -411.003 2155
308.664 -411.003 2155
313.817 -411.003 2155
319.414 -411.575 2158
324.575 -411.575 2158
329.735 -411.575 2158
334.896 -411.575 2158
338.796 -410.049 2150
344.417 -410.622 2153
349.565 -410.622 2153
354.714 -410.622 2153
359.862 -410.622 2153
365.011 -410.622 2153
372.05 -412.72 2164
377.225 -412.72 2164
382.4 -412.72 2164
392.59 -418.06 2192
700.924 -736.563 3862
710.159 -736.563 3862
719.394 -736.563 3862
728.629 -736.563 3862
737.864 -736.563 3862
747.1 -736.563 3862
811.862 -745.146 3907
832.975 -755.826 3963
842.452 -755.826 3963
851.929 -755.826 3963
861.405 -755.826 3963
862.531 -748.579 3925
871.917 -748.579 3925
871.199 -739.996 3880
882.52 -741.713 3889
891.819 -741.713 3889
901.119 -741.713 3889
908.312 -739.996 3880
911.205 -734.847 3853
916.119 -731.414 3835
925.289 -731.414 3835
925.932 -724.739 3800
935.019 -724.739 3800
944.106 -724.739 3800
953.193 -724.739 3800
962.28 -724.739 3800
971.367 -724.739 3800
978.389 -723.213 3792
980.687 -718.254 3766
989.692 -718.254 3766
994.19 -715.012 3749
998.606 -711.77 3732
1012.12 -715.012 3749
1021.08 -715.012 3749
1030.05 -715.012 3749
1039.01 -715.012 3749
1022.54 -697.656 3658
1031.29 -697.656 3658
1037.76 -696.13 3650
1044.2 -694.605 3642
1055.22 -696.13 3650
1066.28 -697.656 3658
1084.72 -703.95 3691
1093.55 -703.95 3691
1102.38 -703.95 3691
1098.86 -696.13 3650
1107.59 -696.13 3650
1109.28 -691.744 3627
1117.96 -691.744 3627
1126.63 -691.744 3627
1135.3 -691.744 3627
1141.45 -690.218 3619
1150.11 -690.218 3619
1158.76 -690.218 3619
1167.41 -690.218 3619
1200.96 -694.605 3642
1209.67 -694.605 3642
1218.38 -694.605 3642
1227.09 -694.605 3642
1233.42 -693.27 3635
1242.11 -693.27 3635
1245.3 -690.218 3619
1248.41 -687.167 3603
1305.38 -703.95 3691
1314.21 -703.95 3691
1323.03 -703.95 3691
1343.77 -710.244 3724
1361.75 -715.012 3749
1370.72 -715.012 3749
1379.68 -715.012 3749
1385.32 -713.295 3740
1394.26 -713.295 3740
1403.2 -713.295 3740
1406.11 -710.244 3724
1415.01 -710.244 3724
1423.92 -710.244 3724
1426.28 -707.002 3707
1435.14 -707.002 3707
1444.01 -707.002 3707
1452.87 -707.002 3707
1461.74 -707.002 3707
1470.6 -707.002 3707
1476.27 -705.476 3699
1485.12 -705.476 3699
1493.97 -705.476 3699
1502.81 -705.476 3699
1511.66 -705.476 3699
1520.5 -705.476 3699
1529.35 -705.476 3699
1531.54 -702.424 3683
1533.65 -699.373 3667
1531.91 -694.605 3642
1540.62 -694.605 3642
1542.94 -691.744 3627
-2889.77 -741.06 3935
-2928.67 -753.489 4001
-2925.67 -755.184 4010
-2916.08 -755.184 4010
-2927.51 -760.645 4039
-2917.86 -760.645 4039
-2908.2 -760.645 4039
-2898.54 -760.645 4039
-2888.88 -760.645 4039
-2872.81 -758.95 4030
-2863.17 -758.95 4030
-2846.45 -757.067 4020
-2829.78 -755.184 4010
-2813.86 -753.489 4001
-2804.29 -753.489 4001
-2794.73 -753.489 4001
-2778.2 -751.606 3991
-2768.65 -751.606 3991
-2759.11 -751.606 3991
-2743.37 -749.911 3982
-2726.98 -748.028 3972
-2717.48 -748.028 3972
-2707.98 -748.028 3972
-2698.48 -748.028 3972
-2682.89 -746.333 3963
-2673.42 -746.333 3963
-2663.94 -746.333 3963
-2635.71 -741.06 3935
-2613.62 -737.481 3916
-2616.89 -741.06 3935
-2632 -748.028 3972
-2622.5 -748.028 3972
-2613 -748.028 3972
-2603.5 -748.028 3972
-2594 -748.028 3972
-1361.39 -723.922 3844
-1358.53 -727.312 3862
-1349.29 -727.312 3862
-1340.06 -727.312 3862
-1333.92 -729.007 3871
-1324.67 -729.007 3871
-1315.41 -729.007 3871
-1321.34 -737.481 3916
-1311.97 -737.481 3916
-1302.61 -737.481 3916
-1287.3 -734.091 3898
-1272.08 -730.702 3880
-1248.15 -722.227 3835
-1233.49 -719.026 3818
-1224.36 -719.026 3818
-1212.37 -717.331 3809
-1197.89 -714.129 3792
-1191.33 -715.636 3800
-1182.24 -715.636 3800
-1173.15 -715.636 3800
-1164.07 -715.636 3800
-262.552 -421.095 2236
-257.55 -421.66 2239
-252.196 -421.66 2239
-246.842 -421.66 2239
