-2639.12 -1294.66 3871
-2629.87 -1294.66 3871
-2602.33 -1285.63 3844
-2569.53 -1273.92 3809
-2560.42 -1273.92 3809
-2522.51 -1259.54 3766
-2536.2 -1270.91 3800
-2556.37 -1285.63 3844
-2547.18 -1285.63 3844
-2537.99 -1285.63 3844
-2494.59 -1268.24 3792
-1383.7 -1306.7 3907
-1387.37 -1319.08 3944
-1377.94 -1319.08 3944
-1368.51 -1319.08 3944
-1355.98 -1316.07 3935
-1346.57 -1316.07 3935
-1324.59 -1303.69 3898
-1312.23 -1300.68 3889
-1290.87 -1288.64 3853
-1281.65 -1288.64 3853
-1272.44 -1288.64 3853
-1257.32 -1282.62 3835
-1251.08 -1285.63 3844
-1250.61 -1294.66 3871
-1250.02 -1303.69 3898
-1240.69 -1303.69 3898
-1234.22 -1306.7 3907
-1224.87 -1306.7 3907
-1215.53 -1306.7 3907
-1206.19 -1306.7 3907
-132.124 -736.127 2201
-126.861 -736.127 2201
-121.598 -736.127 2201
-116.335 -736.127 2201
-110.466 -732.114 2189
-104.702 -728.435 2178
-99.4941 -728.435 2178
-94.2859 -728.435 2178
-88.9549 -727.431 2175
-83.4458 -724.756 2167
-78.2638 -724.756 2167
-72.9807 -723.752 2164
-67.6179 -721.746 2158
-62.4575 -721.746 2158
-57.297 -721.746 2158
-52.1366 -721.746 2158
-46.8673 -720.073 2153
-41.6026 -718.067 2147
-36.4685 -718.067 2147
-31.2614 -716.394 2142
-26.1026 -715.391 2139
-20.9582 -714.388 2136
-15.7687 -710.709 2125
-10.6872 -710.709 2125
-5.59248 -709.037 2120
-0.520949 -706.361 2112
4.51662 -704.354 2106
9.5527 -704.354 2106
14.5334 -701.679 2098
19.5317 -701.01 2096
24.5673 -701.679 2098
29.6265 -702.682 2101
34.6507 -702.682 2101
39.6748 -702.682 2101
44.6989 -702.682 2101
49.723 -702.682 2101
54.669 -701.679 2098
59.5437 -700.006 2093
64.7029 -701.679 2098
69.8196 -702.682 2101
74.8437 -702.682 2101
79.8678 -702.682 2101
85.094 -704.354 2106
90.6008 -708.033 2117
95.7988 -709.037 2120
100.868 -709.037 2120
105.938 -709.037 2120
111.007 -709.037 2120
116.077 -709.037 2120
120.975 -708.033 2117
126.038 -708.033 2117
131.1 -708.033 2117
136.162 -708.033 2117
141.225 -708.033 2117
146.287 -708.033 2117
151.564 -709.037 2120
156.781 -709.705 2122
161.856 -709.705 2122
167.402 -711.712 2128
172.734 -712.716 2131
177.83 -712.716 2131
182.926 -712.716 2131
188.198 -713.384 2133
193.299 -713.384 2133
198.957 -715.391 2139
204.072 -715.391 2139
209.187 -715.391 2139
213.701 -713.384 2133
218.802 -713.384 2133
1424.51 -1253.86 3749
1433.47 -1253.86 3749
1442.44 -1253.86 3749
1451.4 -1253.86 3749
1456.86 -1250.85 3740
1469.33 -1253.86 3749
1478.3 -1253.86 3749
1490.44 -1256.53 3757
1506.21 -1262.22 3774
1529.28 -1273.92 3809
1545.26 -1279.61 3826
1554.41 -1279.61 3826
1563.56 -1279.61 3826
1576.41 -1282.62 3835
1585.58 -1282.62 3835
1594.75 -1282.62 3835
1593.04 -1273.92 3809
1602.15 -1273.92 3809
1611.26 -1273.92 3809
1613.14 -1268.24 3792
1622.2 -1268.24 3792
-2797.99 -1273.43 3835
-2788.82 -1273.43 3835
-2779.65 -1273.43 3835
-2763.98 -1270.45 3826
-2754.83 -1270.45 3826
-2739.94 -1267.79 3818
-2730.81 -1267.79 3818
-2721.68 -1267.79 3818
-2731.02 -1276.42 3844
-2721.83 -1276.42 3844
-2731.69 -1285.39 3871
-2735.09 -1291.36 3889
-2725.79 -1291.36 3889
-2716.49 -1291.36 3889
-2707.19 -1291.36 3889
-2666.68 -1276.42 3844
-2657.49 -1276.42 3844
-2635.89 -1270.45 3826
-2645.28 -1279.41 3853
-2648.38 -1285.39 3871
-2639.12 -1285.39 3871
-2629.87 -1285.39 3871
-2602.33 -1276.42 3844
-2569.53 -1264.8 3809
-2560.42 -1264.8 3809
-2516.48 -1247.53 3757
-2536.2 -1261.81 3800
-2556.37 -1276.42 3844
-2547.18 -1276.42 3844
-2537.99 -1276.42 3844
-2488.67 -1256.17 3783
-1393.04 -1297.34 3907
-1393.62 -1306.64 3935
-1384.21 -1306.64 3935
-1374.8 -1306.64 3935
-1358.8 -1300.33 3916
-1343.23 -1294.35 3898
-1333.91 -1294.35 3898
-1321.53 -1291.36 3889
-1303.12 -1282.4 3862
-1281.82 -1270.45 3826
-1272.67 -1270.45 3826
-1263.52 -1270.45 3826
-1248.8 -1264.8 3809
-1239.69 -1264.8 3809
-1241.89 -1276.42 3844
-1241.36 -1285.39 3871
-1232.1 -1285.39 3871
-1231.37 -1294.35 3898
-1222.05 -1294.35 3898
-1212.73 -1294.35 3898
-1203.41 -1294.35 3898
-131.944 -729.858 2198
-126.688 -729.858 2198
-121.432 -729.858 2198
-116.017 -728.862 2195
-110.466 -726.87 2189
-104.702 -723.217 2178
-99.4941 -723.217 2178
-94.2859 -723.217 2178
-88.6277 -719.565 2167
-83.3303 -718.569 2164
-78.1555 -718.569 2164
-72.7783 -716.576 2158
-67.5239 -715.58 2155
-62.3707 -715.58 2155
-57.2174 -715.58 2155
-52.0158 -714.916 2153
-46.6714 -711.927 2144
-41.5057 -711.263 2142
-36.3835 -711.263 2142
-31.1738 -709.271 2136
-26.066 -709.271 2136
-20.8797 -706.615 2128
-15.7316 -703.958 2120
-10.662 -703.958 2120
-5.57666 -701.966 2114
-0.519469 -699.309 2106
4.51233 -698.645 2104
9.54363 -698.645 2104
14.5334 -696.653 2098
19.5037 -694.993 2093
24.5439 -695.989 2096
29.5842 -696.653 2098
34.6012 -696.653 2098
39.6181 -696.653 2098
44.5287 -694.993 2093
49.5337 -694.993 2093
54.4866 -694.328 2091
59.3161 -692.336 2085
64.3945 -693.332 2088
69.3875 -693.332 2088
74.4874 -694.328 2091
79.4877 -694.328 2091
84.6899 -695.989 2096
90.0445 -698.645 2104
95.1661 -699.309 2106
100.202 -699.309 2106
105.238 -699.309 2106
110.274 -699.309 2106
115.31 -699.309 2106
120.347 -699.309 2106
125.383 -699.309 2106
130.419 -699.309 2106
135.455 -699.309 2106
140.491 -699.309 2106
145.389 -698.645 2104
150.563 -699.309 2106
156.19 -701.966 2114
161.245 -701.966 2114
166.773 -703.958 2120
171.842 -703.958 2120
176.912 -703.958 2120
181.981 -703.958 2120
186.786 -702.962 2117
192.845 -706.615 2128
197.934 -706.615 2128
203.023 -706.615 2128
206.547 -701.302 2112
211.597 -701.302 2112
216.648 -701.302 2112
1424.51 -1244.88 3749
1433.47 -1244.88 3749
1442.44 -1244.88 3749
1447.92 -1241.89 3740
1450.63 -1236.58 3724
1462.67 -1239.23 3732
1471.6 -1239.23 3732
1483.69 -1241.89 3740
1499.42 -1247.53 3757
1525.67 -1261.81 3800
1542.03 -1267.79 3818
1551.16 -1267.79 3818
1560.29 -1267.79 3818
1576.41 -1273.43 3835
1585.58 -1273.43 3835
1594.75 -1273.43 3835
1593.04 -1264.8 3809
1602.15 -1264.8 3809
1611.26 -1264.8 3809
1613.14 -1259.16 3792
-2830.83 -1279.08 3880
-2821.55 -1279.08 3880
-2812.27 -1279.08 3880
-2770.48 -1264.25 3835
-2761.31 -1264.25 3835
-2739.94 -1258.64 3818
-2730.81 -1258.64 3818
-2727.38 -1261.28 3826
-2737.42 -1270.18 3853
-2728.2 -1270.18 3853
-2731.69 -1276.11 3871
-2735.09 -1282.05 3889
-2725.79 -1282.05 3889
-2716.49 -1282.05 3889
-2707.19 -1282.05 3889
-2666.68 -1267.21 3844
-2657.49 -1267.21 3844
-2642.09 -1264.25 3835
-2663.82 -1279.08 3880
-2654.54 -1279.08 3880
-2645.26 -1279.08 3880
-2635.98 -1279.08 3880
-2608.42 -1270.18 3853
-2593.14 -1267.21 3844
-2583.95 -1267.21 3844
-2516.48 -1238.53 3757
-2536.2 -1252.71 3800
-2556.37 -1267.21 3844
-2547.18 -1267.21 3844
-2537.99 -1267.21 3844
-1393.04 -1287.98 3907
-1393.62 -1297.21 3935
-1384.21 -1297.21 3935
-1374.8 -1297.21 3935
-1365.39 -1297.21 3935
-1349.43 -1290.95 3916
-1340.07 -1290.95 3916
-1321.53 -1282.05 3889
-1294.01 -1264.25 3835
-1273.11 -1252.71 3800
-1264.02 -1252.71 3800
-1254.94 -1252.71 3800
-1243.23 -1250.07 3792
-1239.69 -1255.68 3809
-1241.89 -1267.21 3844
-1250.02 -1285.02 3898
-1240.69 -1285.02 3898
-1237.06 -1290.95 3916
-1227.69 -1290.95 3916
-1218.33 -1290.95 3916
-1206.19 -1287.98 3907
-131.764 -723.604 2195
-126.515 -723.604 2195
-121.266 -723.604 2195
-116.017 -723.604 2195
-110.314 -720.637 2186
-104.702 -718 2178
-99.4941 -718 2178
-93.8963 -715.033 2169
-88.505 -713.385 2164
-83.2147 -712.396 2161
-78.0471 -712.396 2161
-72.6097 -709.758 2153
-67.2732 -707.78 2147
-62.1391 -707.78 2147
-57.005 -707.78 2147
-51.7984 -706.791 2144
-46.5626 -705.143 2139
-41.3313 -703.165 2133
-36.2307 -703.165 2133
-31.1008 -702.506 2131
-25.9684 -701.517 2128
-20.8797 -701.517 2128
-15.7316 -698.88 2120
-10.662 -698.88 2120
-5.57666 -696.902 2114
-0.519469 -694.264 2106
4.51233 -693.605 2104
9.54363 -693.605 2104
14.5334 -691.627 2098
19.5037 -689.979 2093
24.5439 -690.968 2096
29.5842 -691.627 2098
34.6012 -691.627 2098
39.6181 -691.627 2098
44.5287 -689.979 2093
49.5337 -689.979 2093
54.4866 -689.319 2091
59.3161 -687.341 2085
64.3945 -688.331 2088
69.3875 -688.331 2088
74.4874 -689.319 2091
79.4877 -689.319 2091
84.6899 -690.968 2096
90.0445 -693.605 2104
95.1661 -694.264 2106
100.202 -694.264 2106
105.238 -694.264 2106
110.274 -694.264 2106
115.31 -694.264 2106
120.347 -694.264 2106
125.383 -694.264 2106
130.419 -694.264 2106
135.455 -694.264 2106
140.491 -694.264 2106
145.389 -693.605 2104
150.563 -694.264 2106
156.19 -696.902 2114
161.245 -696.902 2114
166.773 -698.88 2120
171.842 -698.88 2120
176.912 -698.88 2120
181.981 -698.88 2120
186.786 -697.891 2117
192.845 -701.517 2128
197.934 -701.517 2128
203.023 -701.517 2128
206.547 -696.242 2112
211.597 -696.242 2112
216.648 -696.242 2112
1424.51 -1235.9 3749
1433.47 -1235.9 3749
1442.44 -1235.9 3749
1447.92 -1232.93 3740
1450.63 -1227.65 3724
1462.67 -1230.29 3732
1471.6 -1230.29 3732
1483.69 -1232.93 3740
1499.42 -1238.53 3757
1525.67 -1252.71 3800
1542.03 -1258.64 3818
1551.16 -1258.64 3818
1560.29 -1258.64 3818
1576.41 -1264.25 3835
1585.58 -1264.25 3835
1594.75 -1264.25 3835
1593.04 -1255.68 3809
1602.15 -1255.68 3809
1611.26 -1255.68 3809
1613.14 -1250.07 3792
-2830.83 -1269.79 3880
-2821.55 -1269.79 3880
-2812.27 -1269.79 3880
-2802.99 -1269.79 3880
-2793.71 -1269.79 3880
-2752.14 -1255.06 3835
-2742.97 -1255.06 3835
-2740.21 -1258.01 3844
-2743.81 -1263.9 3862
-2734.58 -1263.9 3862
-2731.69 -1266.84 3871
-2735.09 -1272.73 3889
-2725.79 -1272.73 3889
-2716.49 -1272.73 3889
-2688.4 -1263.9 3862
-2666.68 -1258.01 3844
-2657.49 -1258.01 3844
-2642.09 -1255.06 3835
-2663.82 -1269.79 3880
-2654.54 -1269.79 3880
-2645.26 -1269.79 3880
-2635.98 -1269.79 3880
-2608.42 -1260.95 3853
-2593.14 -1258.01 3844
-2583.95 -1258.01 3844
-2516.48 -1229.53 3757
-2536.2 -1243.61 3800
-2556.37 -1258.01 3844
-2547.18 -1258.01 3844
-2537.99 -1258.01 3844
-1393.04 -1278.62 3907
-1406.72 -1299.9 3972
-1397.22 -1299.9 3972
-1387.73 -1299.9 3972
-1375.1 -1296.95 3963
-1365.63 -1296.95 3963
-1356.15 -1296.95 3963
-1321.53 -1272.73 3889
-1294.01 -1255.06 3835
-1276.13 -1246.55 3809
-1267.02 -1246.55 3809
-1263.52 -1252.11 3826
-1254.37 -1252.11 3826
-1245.22 -1252.11 3826
-1259.34 -1275.68 3898
-1255.79 -1281.57 3916
-1246.42 -1281.57 3916
-1237.06 -1281.57 3916
-1227.69 -1281.57 3916
-1218.33 -1281.57 3916
-1208.97 -1281.57 3916
-131.764 -718.346 2195
-126.515 -718.346 2195
-121.266 -718.346 2195
-116.017 -718.346 2195
-110.314 -715.401 2186
-104.702 -712.782 2178
-99.4941 -712.782 2178
-93.8963 -709.837 2169
-88.505 -708.201 2164
-83.2147 -707.219 2161
-78.0471 -707.219 2161
-72.6097 -704.601 2153
-67.2732 -702.637 2147
-62.1391 -702.637 2147
-57.005 -702.637 2147
-51.7984 -701.655 2144
-46.5626 -700.019 2139
-41.3313 -698.056 2133
-36.2307 -698.056 2133
-31.1008 -697.401 2131
-25.9684 -696.419 2128
-20.8208 -694.456 2122
-15.7093 -692.819 2117
-10.647 -692.819 2117
-5.57138 -691.183 2112
-0.518976 -688.565 2104
4.49946 -686.601 2098
9.51641 -686.601 2098
14.4987 -684.965 2093
19.4571 -683.329 2088
24.4853 -684.31 2091
29.5137 -684.965 2093
34.5187 -684.965 2093
39.5237 -684.965 2093
44.4223 -683.329 2088
49.4154 -683.329 2088
54.3302 -682.347 2085
59.117 -680.056 2078
64.0861 -680.056 2078
69.0552 -680.056 2078
74.0244 -680.056 2078
78.9935 -680.056 2078
84.0434 -680.711 2080
89.3597 -683.329 2088
94.4883 -684.31 2091
99.4885 -684.31 2091
104.489 -684.31 2091
109.594 -684.965 2093
114.599 -684.965 2093
119.604 -684.965 2093
124.609 -684.965 2093
129.614 -684.965 2093
134.619 -684.965 2093
139.49 -684.31 2091
144.076 -682.347 2085
149.491 -684.31 2091
155.008 -686.601 2098
160.025 -686.601 2098
165.278 -687.583 2101
170.545 -688.565 2104
175.577 -688.565 2104
180.608 -688.565 2104
185.816 -689.219 2106
191.124 -690.201 2109
196.446 -691.183 2112
201.496 -691.183 2112
206.547 -691.183 2112
211.597 -691.183 2112
216.648 -691.183 2112
1424.51 -1226.92 3749
1433.47 -1226.92 3749
1442.44 -1226.92 3749
1447.92 -1223.97 3740
1450.63 -1218.73 3724
1462.67 -1221.35 3732
1471.6 -1221.35 3732
1480.52 -1221.35 3732
1496.23 -1226.92 3749
1522.46 -1240.99 3792
1538.39 -1246.55 3809
1547.5 -1246.55 3809
1556.61 -1246.55 3809
1569.42 -1249.5 3818
1578.55 -1249.5 3818
1587.68 -1249.5 3818
1593.04 -1246.55 3809
1602.15 -1246.55 3809
1611.26 -1246.55 3809
1613.14 -1240.99 3792
-2830.83 -1260.49 3880
-2821.55 -1260.49 3880
-2812.27 -1260.49 3880
-2802.99 -1260.49 3880
-2793.71 -1260.49 3880
-2777.98 -1257.57 3871
-2755.84 -1251.72 3853
-2746.63 -1251.72 3853
-2756.6 -1260.49 3880
-2747.32 -1260.49 3880
-2738.04 -1260.49 3880
-2735.09 -1263.42 3889
-2725.79 -1263.42 3889
-2716.49 -1263.42 3889
-2688.4 -1254.64 3862
-2666.68 -1248.8 3844
-2657.49 -1248.8 3844
-2642.09 -1245.87 3835
-2663.82 -1260.49 3880
-2654.54 -1260.49 3880
-2645.26 -1260.49 3880
-2635.98 -1260.49 3880
-2608.42 -1251.72 3853
-2593.14 -1248.8 3844
-2583.95 -1248.8 3844
-2516.48 -1220.53 3757
-2536.2 -1234.5 3800
-2556.37 -1248.8 3844
-2547.18 -1248.8 3844
-2537.99 -1248.8 3844
-1393.04 -1269.26 3907
-1406.72 -1290.38 3972
-1397.22 -1290.38 3972
-1387.73 -1290.38 3972
-1375.1 -1287.46 3963
-1365.63 -1287.46 3963
-1356.15 -1287.46 3963
-1315.41 -1257.57 3871
-1290.97 -1242.95 3826
-1276.13 -1237.43 3809
-1267.02 -1237.43 3809
-1263.52 -1242.95 3826
-1254.37 -1242.95 3826
-1245.22 -1242.95 3826
-1259.34 -1266.34 3898
-1255.79 -1272.19 3916
-1246.42 -1272.19 3916
-1237.06 -1272.19 3916
-1227.69 -1272.19 3916
-1218.33 -1272.19 3916
-1208.97 -1272.19 3916
-131.764 -713.088 2195
-126.515 -713.088 2195
-121.266 -713.088 2195
-115.542 -710.164 2186
-110.314 -710.164 2186
-104.27 -704.641 2169
-99.083 -704.641 2169
-93.8097 -703.992 2167
-88.2596 -701.068 2158
-82.9067 -699.443 2153
-77.7582 -699.443 2153
-72.4074 -697.494 2147
-67.1792 -696.52 2144
-61.9944 -695.87 2142
-56.8722 -695.87 2142
-51.6776 -694.895 2139
-46.432 -692.946 2133
-41.2926 -692.296 2131
-36.1967 -692.296 2131
-31.0571 -691.322 2128
-25.8951 -689.372 2122
-20.8012 -688.723 2120
-15.6871 -686.773 2114
-10.6319 -686.773 2114
-5.57138 -686.124 2112
-0.517496 -681.576 2098
4.49517 -680.926 2096
9.50734 -680.926 2096
14.4641 -678.327 2088
19.4292 -677.352 2085
24.4502 -678.327 2088
29.4432 -678.327 2088
34.4363 -678.327 2088
39.4293 -678.327 2088
44.3585 -677.352 2085
49.3444 -677.352 2085
54.2 -675.728 2080
58.9463 -673.129 2072
63.9011 -673.129 2072
68.8558 -673.129 2072
73.6325 -671.505 2067
78.5753 -671.505 2067
83.5182 -671.505 2067
88.675 -673.129 2072
93.6297 -673.129 2072
98.5845 -673.129 2072
103.539 -673.129 2072
108.913 -675.728 2080
113.887 -675.728 2080
118.861 -675.728 2080
123.835 -675.728 2080
128.809 -675.728 2080
133.783 -675.728 2080
138.623 -675.078 2078
143.178 -673.129 2072
148.132 -673.129 2072
153.678 -675.728 2080
158.652 -675.728 2080
163.626 -675.728 2080
168.6 -675.728 2080
173.574 -675.728 2080
178.548 -675.728 2080
183.522 -675.728 2080
188.767 -676.703 2083
194.214 -678.327 2088
199.207 -678.327 2088
204.2 -678.327 2088
209.193 -678.327 2088
214.186 -678.327 2088
1421.09 -1215.01 3740
1430.03 -1215.01 3740
1438.98 -1215.01 3740
1447.92 -1215.01 3740
1450.63 -1209.81 3724
1462.67 -1212.41 3732
1471.6 -1212.41 3732
1480.52 -1212.41 3732
1496.23 -1217.93 3749
1515.23 -1226.06 3774
1531.53 -1231.9 3792
1540.59 -1231.9 3792
1549.66 -1231.9 3792
1565.72 -1237.43 3809
1574.83 -1237.43 3809
1583.93 -1237.43 3809
1589.28 -1234.5 3800
1598.37 -1234.5 3800
1607.45 -1234.5 3800
1609.31 -1228.98 3783
-2830.83 -1251.2 3880
-2821.55 -1251.2 3880
-2812.27 -1251.2 3880
-2802.99 -1251.2 3880
-2793.71 -1251.2 3880
-2777.98 -1248.3 3871
-2755.84 -1242.49 3853
-2746.63 -1242.49 3853
-2756.6 -1251.2 3880
-2747.32 -1251.2 3880
-2738.04 -1251.2 3880
-2728.76 -1251.2 3880
-2719.49 -1251.2 3880
-2703.92 -1248.3 3871
-2688.4 -1245.39 3862
-2666.68 -1239.59 3844
-2657.49 -1239.59 3844
-2642.09 -1236.69 3835
-2663.82 -1251.2 3880
-2654.54 -1251.2 3880
-2645.26 -1251.2 3880
-2635.98 -1251.2 3880
-2608.42 -1242.49 3853
-2587.07 -1236.69 3835
-2577.9 -1236.69 3835
-2511.12 -1208.95 3749
-2524.85 -1219.92 3783
-2527.11 -1225.4 3800
-2518.02 -1225.4 3800
-2508.94 -1225.4 3800
-1389.84 -1257 3898
-1406.72 -1280.87 3972
-1397.22 -1280.87 3972
-1387.73 -1280.87 3972
-1375.1 -1277.96 3963
-1365.63 -1277.96 3963
-1356.15 -1277.96 3963
-1315.41 -1248.3 3871
-1290.97 -1233.78 3826
-1276.13 -1228.3 3809
-1270.01 -1231.2 3818
-1263.52 -1233.78 3826
-1254.37 -1233.78 3826
-1245.22 -1233.78 3826
-1259.34 -1257 3898
-1255.79 -1262.81 3916
-1246.42 -1262.81 3916
-1237.06 -1262.81 3916
-1227.69 -1262.81 3916
-1218.33 -1262.81 3916
-1208.97 -1262.81 3916
-1194.09 -1257 3898
-141.16 -702.348 2178
-135.952 -702.348 2178
-131.224 -704.927 2186
-125.997 -704.927 2186
-120.769 -704.927 2186
-115.542 -704.927 2186
-109.911 -702.348 2178
-104.174 -698.8 2167
-98.9916 -698.8 2167
-93.5499 -696.866 2161
-88.2596 -695.898 2158
-82.7911 -693.318 2150
-77.6498 -693.318 2150
-72.3062 -691.384 2144
-67.1166 -690.739 2142
-61.8208 -688.804 2136
-56.7129 -688.804 2136
-51.6051 -688.804 2136
-46.3884 -687.191 2131
-41.2344 -686.224 2128
-36.1457 -686.224 2128
-31.0133 -685.257 2125
-25.8707 -683.644 2120
-20.7423 -681.709 2114
-15.6722 -681.064 2112
-10.6218 -681.064 2112
-5.56347 -680.097 2109
-0.518236 -677.517 2101
4.49517 -675.905 2096
9.50734 -675.905 2096
14.4641 -673.325 2088
19.4105 -671.713 2083
24.415 -672.358 2085
29.4009 -672.358 2085
34.3868 -672.358 2085
39.3726 -672.358 2085
44.316 -671.713 2083
49.297 -671.713 2083
53.9915 -668.165 2072
58.9463 -668.165 2072
63.7469 -666.553 2067
68.6897 -666.553 2067
73.5613 -665.908 2065
78.4993 -665.908 2065
83.3161 -664.941 2062
88.3754 -665.908 2065
93.4038 -666.553 2067
98.3466 -666.553 2067
103.289 -666.553 2067
108.494 -668.165 2072
113.449 -668.165 2072
118.404 -668.165 2072
123.358 -668.165 2072
128.313 -668.165 2072
133.268 -668.165 2072
138.223 -668.165 2072
142.832 -666.553 2067
147.989 -667.521 2070
152.939 -667.521 2070
157.889 -667.521 2070
163.233 -669.133 2075
168.195 -669.133 2075
173.157 -669.133 2075
178.119 -669.133 2075
183.345 -670.1 2078
188.496 -670.745 2080
193.748 -671.713 2083
198.73 -671.713 2083
203.711 -671.713 2083
208.692 -671.713 2083
213.673 -671.713 2083
1403.08 -1198.31 3716
1411.97 -1198.31 3716
1420.86 -1198.31 3716
1429.74 -1198.31 3716
1438.63 -1198.31 3716
1444.01 -1195.41 3707
1452.87 -1195.41 3707
1455.43 -1190.25 3691
1477.35 -1200.89 3724
1489.44 -1203.47 3732
1515.23 -1217.02 3774
1531.53 -1222.82 3792
1540.59 -1222.82 3792
1549.66 -1222.82 3792
1558.73 -1222.82 3792
1567.8 -1222.82 3792
1576.87 -1222.82 3792
1585.93 -1222.82 3792
1595 -1222.82 3792
1604.07 -1222.82 3792
1609.31 -1219.92 3783
-2857.09 -1253.43 3916
-2847.73 -1253.43 3916
-2838.36 -1253.43 3916
-2802.99 -1241.9 3880
-2793.71 -1241.9 3880
-2777.98 -1239.02 3871
-2755.84 -1233.26 3853
-2746.63 -1233.26 3853
-2762.99 -1244.78 3889
-2753.69 -1244.78 3889
-2744.39 -1244.78 3889
-2735.09 -1244.78 3889
-2725.79 -1244.78 3889
-2697.63 -1236.14 3862
-2675.87 -1230.38 3844
-2660.43 -1227.5 3835
-2651.26 -1227.5 3835
-2642.09 -1227.5 3835
-2657.64 -1239.02 3871
-2648.38 -1239.02 3871
-2639.12 -1239.02 3871
-2629.87 -1239.02 3871
-2596.24 -1227.5 3835
-2563.46 -1216.3 3800
-2554.37 -1216.3 3800
-2511.12 -1199.97 3749
-2524.85 -1210.86 3783
-2515.8 -1210.86 3783
-2506.76 -1210.86 3783
-2497.71 -1210.86 3783
-1380.51 -1247.66 3898
-1384.21 -1259.51 3935
-1374.8 -1259.51 3935
-1365.39 -1259.51 3935
-1355.98 -1259.51 3935
-1346.57 -1259.51 3935
-1312.35 -1236.14 3862
-1288.27 -1222.06 3818
-1276.13 -1219.18 3809
-1270.01 -1222.06 3818
-1263.52 -1224.62 3826
-1254.37 -1224.62 3826
-1245.22 -1224.62 3826
-1253.52 -1241.9 3880
-1250.02 -1247.66 3898
-1240.69 -1247.66 3898
-1237.06 -1253.43 3916
-1227.69 -1253.43 3916
-1218.33 -1253.43 3916
-1208.97 -1253.43 3916
-1194.09 -1247.66 3898
-141.549 -699.051 2184
-136.326 -699.051 2184
-131.104 -699.051 2184
-125.881 -699.051 2184
-120.659 -699.051 2184
-115.436 -699.051 2184
-109.759 -696.17 2175
-104.174 -693.609 2167
-98.9916 -693.609 2167
-93.4201 -690.729 2158
-88.1369 -689.768 2155
-82.7911 -688.168 2150
-77.6498 -688.168 2150
-72.3062 -686.248 2144
-67.0226 -684.647 2139
-61.8208 -683.687 2136
-56.7129 -683.687 2136
-51.6051 -683.687 2136
-46.3884 -682.087 2131
-41.2344 -681.126 2128
-36.1457 -681.126 2128
-31.0133 -680.166 2125
-25.8707 -678.566 2120
-20.7423 -676.645 2114
-15.6722 -676.005 2112
-10.6218 -676.005 2112
-5.56347 -675.045 2109
-0.518236 -672.484 2101
4.49517 -670.884 2096
9.50734 -670.884 2096
14.4641 -668.323 2088
19.4105 -666.723 2083
24.3916 -666.723 2083
29.3727 -666.723 2083
34.3538 -666.723 2083
39.3349 -666.723 2083
44.2521 -665.763 2080
49.226 -665.763 2080
53.9915 -663.202 2072
58.8894 -662.562 2070
63.6852 -660.961 2065
68.6232 -660.961 2065
73.3831 -659.361 2060
78.3092 -659.361 2060
83.1141 -658.401 2057
88.1614 -659.361 2060
93.1779 -660.001 2062
98.1087 -660.001 2062
103.04 -660.001 2062
107.97 -660.001 2062
113.449 -663.202 2072
118.404 -663.202 2072
123.358 -663.202 2072
128.313 -663.202 2072
133.268 -663.202 2072
138.223 -663.202 2072
142.832 -661.602 2067
147.989 -662.562 2070
152.939 -662.562 2070
157.889 -662.562 2070
163.233 -664.162 2075
168.195 -664.162 2075
173.157 -664.162 2075
178.119 -664.162 2075
183.345 -665.122 2078
188.496 -665.763 2080
193.748 -666.723 2083
198.73 -666.723 2083
203.711 -666.723 2083
208.692 -666.723 2083
213.673 -666.723 2083
1406.11 -1191.97 3724
1415.01 -1191.97 3724
1423.92 -1191.97 3724
1429.74 -1189.41 3716
1438.63 -1189.41 3716
1444.01 -1186.53 3707
1452.87 -1186.53 3707
1458.58 -1183.97 3699
1477.35 -1191.97 3724
1489.44 -1194.53 3732
1515.23 -1207.97 3774
1531.53 -1213.74 3792
1540.59 -1213.74 3792
1549.66 -1213.74 3792
1558.73 -1213.74 3792
1567.8 -1213.74 3792
1576.87 -1213.74 3792
1585.93 -1213.74 3792
1595 -1213.74 3792
1604.07 -1213.74 3792
1609.31 -1210.86 3783
-2863.66 -1246.9 3925
-2854.27 -1246.9 3925
-2844.89 -1246.9 3925
-2822.5 -1241.19 3907
-2813.15 -1241.19 3907
-2777.98 -1229.75 3871
-2768.72 -1229.75 3871
-2772.29 -1235.47 3889
-2769.39 -1238.33 3898
-2760.07 -1238.33 3898
-2750.74 -1238.33 3898
-2735.09 -1235.47 3889
-2725.79 -1235.47 3889
-2697.63 -1226.89 3862
-2669.6 -1218.31 3835
-2660.43 -1218.31 3835
-2657.49 -1221.17 3844
-2648.29 -1221.17 3844
-2639.1 -1221.17 3844
-2629.91 -1221.17 3844
-2620.72 -1221.17 3844
-2605.41 -1218.31 3835
-2578.64 -1210.05 3809
-2540.52 -1196.39 3766
-2531.52 -1196.39 3766
-2499.74 -1185.59 3732
-2490.81 -1185.59 3732
-2493.19 -1190.99 3749
-2484.23 -1190.99 3749
-2475.26 -1190.99 3749
-1380.51 -1238.33 3898
-1384.21 -1250.08 3935
-1374.8 -1250.08 3935
-1365.39 -1250.08 3935
-1355.98 -1250.08 3935
-1346.57 -1250.08 3935
-1312.35 -1226.89 3862
-1288.27 -1212.91 3818
-1276.13 -1210.05 3809
-1270.01 -1212.91 3818
-1263.52 -1215.45 3826
-1254.37 -1215.45 3826
-1245.22 -1215.45 3826
-1253.52 -1232.61 3880
-1250.02 -1238.33 3898
-1240.69 -1238.33 3898
-1237.06 -1244.05 3916
-1227.69 -1244.05 3916
-1218.33 -1244.05 3916
-1208.97 -1244.05 3916
-1194.09 -1238.33 3898
-141.679 -694.454 2186
-136.451 -694.454 2186
-131.224 -694.454 2186
-125.997 -694.454 2186
-120.769 -694.454 2186
-115.436 -693.819 2184
-109.911 -691.913 2178
-104.27 -689.054 2169
-99.083 -689.054 2169
-93.4201 -685.559 2158
-88.1369 -684.606 2155
-82.7911 -683.018 2150
-77.6498 -683.018 2150
-72.3062 -681.112 2144
-67.0226 -679.523 2139
-61.8208 -678.57 2136
-56.7129 -678.57 2136
-51.6051 -678.57 2136
-46.3884 -676.982 2131
-41.2344 -676.029 2128
-36.1457 -676.029 2128
-31.0133 -675.076 2125
-25.8707 -673.487 2120
-20.7423 -671.581 2114
-15.6722 -670.946 2112
-10.6218 -670.946 2112
-5.56347 -669.993 2109
-0.518236 -667.451 2101
4.49517 -665.863 2096
9.50734 -665.863 2096
14.4641 -663.321 2088
19.4105 -661.733 2083
24.3916 -661.733 2083
29.3727 -661.733 2083
34.3538 -661.733 2083
39.3349 -661.733 2083
44.2521 -660.78 2080
49.226 -660.78 2080
53.9915 -658.238 2072
58.8894 -657.603 2070
63.6852 -656.015 2065
68.6232 -656.015 2065
73.3831 -654.426 2060
78.3092 -654.426 2060
83.1141 -653.473 2057
88.1614 -654.426 2060
93.1779 -655.062 2062
98.1087 -655.062 2062
103.04 -655.062 2062
107.97 -655.062 2062
112.901 -655.062 2062
117.832 -655.062 2062
122.942 -656.015 2065
127.88 -656.015 2065
132.818 -656.015 2065
137.756 -656.015 2065
142.487 -655.062 2062
147.274 -654.426 2060
152.57 -656.015 2065
157.508 -656.015 2065
162.839 -657.603 2070
167.789 -657.603 2070
172.906 -658.238 2072
177.861 -658.238 2072
182.816 -658.238 2072
188.042 -659.191 2075
193.283 -660.145 2078
198.253 -660.145 2078
203.417 -660.78 2080
208.391 -660.78 2080
213.365 -660.78 2080
1406.11 -1183.05 3724
1415.01 -1183.05 3724
1423.92 -1183.05 3724
1429.74 -1180.51 3716
1435.14 -1177.65 3707
1440.89 -1175.11 3699
1449.74 -1175.11 3699
1458.58 -1175.11 3699
1467.43 -1175.11 3699
1486.25 -1183.05 3724
1512.02 -1196.39 3766
1524.26 -1198.93 3774
1533.28 -1198.93 3774
1545.98 -1201.79 3783
1558.73 -1204.65 3792
1567.8 -1204.65 3792
1576.87 -1204.65 3792
1585.93 -1204.65 3792
1595 -1204.65 3792
1604.07 -1204.65 3792
1609.31 -1201.79 3783
-2870.95 -1240.65 3935
-2861.54 -1240.65 3935
-2852.13 -1240.65 3935
-2835.5 -1237.5 3925
-2826.11 -1237.5 3925
-2777.98 -1220.48 3871
-2768.72 -1220.48 3871
-2772.29 -1226.15 3889
-2769.39 -1228.99 3898
-2760.07 -1228.99 3898
-2750.74 -1228.99 3898
-2735.09 -1226.15 3889
-2725.79 -1226.15 3889
-2697.63 -1217.64 3862
-2669.6 -1209.13 3835
-2660.43 -1209.13 3835
-2657.49 -1211.96 3844
-2648.29 -1211.96 3844
-2639.1 -1211.96 3844
-2629.91 -1211.96 3844
-2620.72 -1211.96 3844
-2605.41 -1209.13 3835
-2578.64 -1200.93 3809
-2540.52 -1187.37 3766
-2531.52 -1187.37 3766
-2499.74 -1176.65 3732
-2502.16 -1182.01 3749
-2493.19 -1182.01 3749
-2484.23 -1182.01 3749
-2475.26 -1182.01 3749
-1377.33 -1226.15 3889
-1368.03 -1226.15 3889
-1358.73 -1226.15 3889
-1349.43 -1226.15 3889
-1330.82 -1217.64 3862
-1321.59 -1217.64 3862
-1303.18 -1209.13 3835
-1288.27 -1203.77 3818
-1276.13 -1200.93 3809
-1267.02 -1200.93 3809
-1260.88 -1203.77 3818
-1251.75 -1203.77 3818
-1242.62 -1203.77 3818
-1241.89 -1211.96 3844
-1238.47 -1217.64 3862
-1229.24 -1217.64 3862
-1222.84 -1220.48 3871
-1213.59 -1220.48 3871
-1204.33 -1220.48 3871
-1195.07 -1220.48 3871
-1185.82 -1220.48 3871
-141.679 -689.218 2186
-136.451 -689.218 2186
-131.224 -689.218 2186
-125.997 -689.218 2186
-120.769 -689.218 2186
-115.436 -688.587 2184
-109.911 -686.695 2178
-104.27 -683.858 2169
-99.083 -683.858 2169
-93.4201 -680.39 2158
-88.1369 -679.444 2155
-82.6756 -676.922 2147
-77.5415 -676.922 2147
-72.3062 -675.976 2144
-67.0226 -674.399 2139
-61.8208 -673.453 2136
-56.7129 -673.453 2136
-51.4843 -671.877 2131
-46.3884 -671.877 2131
-41.1763 -669.985 2125
-36.0948 -669.985 2125
-30.9695 -669.039 2122
-25.8341 -667.463 2117
-20.7423 -666.517 2114
-15.6722 -665.886 2112
-10.6218 -665.886 2112
-5.55555 -663.995 2106
-0.518236 -662.418 2101
4.48873 -659.896 2093
9.49373 -659.896 2093
14.4641 -658.32 2088
19.4105 -656.743 2083
24.3916 -656.743 2083
29.3727 -656.743 2083
34.3538 -656.743 2083
39.2782 -655.797 2080
44.2096 -655.167 2078
49.1787 -655.167 2078
53.9394 -652.644 2070
58.6618 -650.122 2062
63.531 -649.492 2060
68.3574 -648.546 2057
73.2763 -648.546 2057
78.0051 -646.969 2052
82.508 -643.816 2042
87.3911 -643.816 2042
92.3645 -644.447 2044
97.2523 -644.447 2044
102.14 -644.447 2044
106.923 -643.816 2042
111.806 -643.816 2042
116.689 -643.816 2042
121.572 -643.816 2042
126.455 -643.816 2042
131.338 -643.816 2042
136.221 -643.816 2042
141.105 -643.816 2042
145.773 -642.87 2039
151.018 -644.447 2044
155.906 -644.447 2044
160.794 -644.447 2044
165.682 -644.447 2044
170.57 -644.447 2044
175.457 -644.447 2044
180.345 -644.447 2044
185.505 -645.393 2047
190.4 -645.393 2047
195.295 -645.393 2047
199.408 -642.87 2039
203.783 -641.294 2034
1406.11 -1174.13 3724
1415.01 -1174.13 3724
1423.92 -1174.13 3724
1429.74 -1171.61 3716
1435.14 -1168.77 3707
1440.89 -1166.25 3699
1449.74 -1166.25 3699
1458.58 -1166.25 3699
1467.43 -1166.25 3699
1483.06 -1171.61 3716
1512.02 -1187.37 3766
1524.26 -1189.89 3774
1533.28 -1189.89 3774
1545.98 -1192.73 3783
1555.03 -1192.73 3783
1564.08 -1192.73 3783
1573.12 -1192.73 3783
1585.93 -1195.57 3792
1595 -1195.57 3792
1604.07 -1195.57 3792
1609.31 -1192.73 3783
-2870.95 -1231.23 3935
-2861.54 -1231.23 3935
-2852.13 -1231.23 3935
-2835.5 -1228.1 3925
-2826.11 -1228.1 3925
-2777.98 -1211.2 3871
-2768.72 -1211.2 3871
-2772.29 -1216.84 3889
-2769.39 -1219.65 3898
-2760.07 -1219.65 3898
-2750.74 -1219.65 3898
-2735.09 -1216.84 3889
-2725.79 -1216.84 3889
-2697.63 -1208.39 3862
-2669.6 -1199.94 3835
-2660.43 -1199.94 3835
-2657.49 -1202.76 3844
-2648.29 -1202.76 3844
-2639.1 -1202.76 3844
-2629.91 -1202.76 3844
-2620.72 -1202.76 3844
-2605.41 -1199.94 3835
-2572.54 -1188.99 3800
-2540.52 -1178.35 3766
-2531.52 -1178.35 3766
-2482.99 -1159.89 3707
-2502.16 -1173.03 3749
-2493.19 -1173.03 3749
-2484.23 -1173.03 3749
-2475.26 -1173.03 3749
-1374.14 -1214.02 3880
-1364.86 -1214.02 3880
-1355.58 -1214.02 3880
-1340.06 -1208.39 3862
-1324.62 -1202.76 3844
-1315.43 -1202.76 3844
-1300.12 -1197.12 3826
-1288.27 -1194.62 3818
-1270.43 -1186.49 3792
-1267.02 -1191.8 3809
-1257.91 -1191.8 3809
-1248.8 -1191.8 3809
-1239.69 -1191.8 3809
-1233.49 -1194.62 3818
-1232.7 -1202.76 3844
-1223.51 -1202.76 3844
-1214.31 -1202.76 3844
-1205.12 -1202.76 3844
-1195.93 -1202.76 3844
-1186.74 -1202.76 3844
-1177.55 -1202.76 3844
-142.262 -686.797 2195
-137.013 -686.797 2195
-131.764 -686.797 2195
-126.342 -685.858 2192
-121.101 -685.858 2192
-115.436 -683.355 2184
-110.062 -682.417 2181
-104.27 -678.662 2169
-99.083 -678.662 2169
-93.4201 -675.22 2158
-88.0551 -673.656 2153
-82.5601 -670.84 2144
-77.4332 -670.84 2144
-72.1376 -669.275 2139
-67.0226 -669.275 2139
-61.5892 -665.833 2128
-56.5005 -665.833 2128
-51.4118 -665.833 2128
-46.1925 -663.956 2122
-41.1182 -663.956 2122
-35.9589 -662.392 2117
-30.8965 -662.392 2117
-25.8341 -662.392 2117
-20.7423 -661.453 2114
-15.65 -659.888 2109
-10.6067 -659.888 2109
-5.54236 -657.385 2101
-0.517496 -656.447 2098
4.48873 -654.882 2093
9.49373 -654.882 2093
14.4433 -652.379 2085
19.4105 -651.753 2083
24.3916 -651.753 2083
29.3727 -651.753 2083
34.2713 -650.189 2078
39.2405 -650.189 2078
44.0819 -648.311 2072
49.0367 -648.311 2072
53.8612 -646.747 2067
58.6618 -645.183 2062
63.4385 -643.618 2057
68.025 -640.489 2047
72.92 -640.489 2047
77.625 -638.925 2042
82.306 -637.36 2037
87.1771 -637.36 2037
92.0482 -637.36 2037
96.7765 -636.422 2034
101.64 -636.422 2034
106.504 -636.422 2034
111.368 -636.422 2034
116.232 -636.422 2034
120.679 -634.231 2027
125.526 -634.231 2027
130.374 -634.231 2027
135.221 -634.231 2027
140.068 -634.231 2027
144.772 -633.606 2025
149.615 -633.606 2025
154.457 -633.606 2025
159.457 -634.231 2027
164.304 -634.231 2027
169.151 -634.231 2027
173.827 -633.606 2025
178.404 -632.667 2022
183.058 -632.041 2020
187.889 -632.041 2020
192.719 -632.041 2020
197.06 -630.477 2015
201.879 -630.477 2015
205.466 -626.722 2003
210.256 -626.722 2003
474.425 -1219.65 3898
483.746 -1219.65 3898
493.067 -1219.65 3898
501.229 -1216.84 3889
510.529 -1216.84 3889
518.625 -1214.02 3880
1391.28 -1167.71 3732
1400.2 -1167.71 3732
1409.13 -1167.71 3732
1415.01 -1165.21 3724
1423.92 -1165.21 3724
1429.74 -1162.71 3716
1435.14 -1159.89 3707
1440.89 -1157.39 3699
1449.74 -1157.39 3699
1458.58 -1157.39 3699
1467.43 -1157.39 3699
1483.06 -1162.71 3716
1512.02 -1178.35 3766
1524.26 -1180.85 3774
1533.28 -1180.85 3774
1542.31 -1180.85 3774
1555.03 -1183.67 3783
1564.08 -1183.67 3783
1573.12 -1183.67 3783
1582.17 -1183.67 3783
1591.22 -1183.67 3783
1600.26 -1183.67 3783
1594.84 -1173.03 3749
-2870.95 -1221.8 3935
-2861.54 -1221.8 3935
-2852.13 -1221.8 3935
-2835.5 -1218.7 3925
-2826.11 -1218.7 3925
-2777.98 -1201.93 3871
-2768.72 -1201.93 3871
-2759.46 -1201.93 3871
-2762.99 -1207.52 3889
-2753.69 -1207.52 3889
-2744.39 -1207.52 3889
-2722.43 -1201.93 3871
-2713.18 -1201.93 3871
-2697.63 -1199.14 3862
-2669.6 -1190.75 3835
-2660.43 -1190.75 3835
-2657.49 -1193.55 3844
-2648.29 -1193.55 3844
-2639.1 -1193.55 3844
-2629.91 -1193.55 3844
-2620.72 -1193.55 3844
-2593.86 -1185.47 3818
-2561.04 -1174.61 3783
-2522.98 -1161.26 3740
-2514.04 -1161.26 3740
-2482.99 -1151.01 3707
-2502.16 -1164.05 3749
-2493.19 -1164.05 3749
-2484.23 -1164.05 3749
-1358.2 -1190.75 3835
-1352.2 -1193.55 3844
-1343 -1193.55 3844
-1333.81 -1193.55 3844
-1324.62 -1193.55 3844
-1315.43 -1193.55 3844
-1300.12 -1187.96 3826
-1279.5 -1177.4 3792
-1267.42 -1174.61 3783
-1267.02 -1182.68 3809
-1257.91 -1182.68 3809
-1248.8 -1182.68 3809
-1239.69 -1182.68 3809
-1230.58 -1182.68 3809
-1224.36 -1185.47 3818
-1215.23 -1185.47 3818
-1206.1 -1185.47 3818
-1196.97 -1185.47 3818
-1187.84 -1185.47 3818
-1173.15 -1179.89 3800
-142.651 -683.402 2201
-137.388 -683.402 2201
-132.124 -683.402 2201
-126.515 -681.539 2195
-121.266 -681.539 2195
-115.436 -678.124 2184
-110.062 -677.192 2181
-104.27 -673.466 2169
-99.083 -673.466 2169
-93.4201 -670.051 2158
-88.0551 -668.498 2153
-82.4831 -665.083 2142
-77.3609 -665.083 2142
-72.0364 -663.22 2136
-66.6779 -660.736 2128
-61.5024 -659.804 2125
-56.4209 -659.804 2125
-51.2669 -658.873 2122
-46.149 -658.252 2120
-41.0213 -657.32 2117
-35.9079 -656.389 2114
-30.8527 -656.389 2114
-25.7975 -656.389 2114
-20.6932 -654.836 2109
-15.6277 -653.905 2106
-10.5916 -653.905 2106
-5.53445 -651.421 2098
-0.516263 -649.868 2093
4.48873 -649.868 2093
9.49373 -649.868 2093
14.4433 -647.384 2085
19.4105 -646.763 2083
24.3331 -645.211 2078
29.3022 -645.211 2078
34.2713 -645.211 2078
39.2405 -645.211 2078
44.0394 -642.727 2070
48.9894 -642.727 2070
53.8091 -641.174 2065
58.6618 -640.243 2062
63.2843 -637.138 2052
68.025 -635.586 2047
72.92 -635.586 2047
77.4349 -632.481 2037
82.104 -630.928 2032
86.9631 -630.928 2032
91.8222 -630.928 2032
96.6813 -630.928 2032
101.54 -630.928 2032
106.138 -629.376 2027
110.985 -629.376 2027
115.832 -629.376 2027
120.679 -629.376 2027
125.526 -629.376 2027
130.374 -629.376 2027
135.087 -628.755 2025
139.722 -627.823 2022
144.558 -627.823 2022
149.393 -627.823 2022
154.228 -627.823 2022
159.063 -627.823 2022
163.899 -627.823 2022
168.734 -627.823 2022
173.569 -627.823 2022
178.404 -627.823 2022
182.786 -626.271 2017
187.61 -626.271 2017
192.433 -626.271 2017
197.06 -625.65 2015
201.879 -625.65 2015
206.697 -625.65 2015
211.516 -625.65 2015
465.103 -1210.31 3898
474.425 -1210.31 3898
483.746 -1210.31 3898
493.067 -1210.31 3898
501.229 -1207.52 3889
510.529 -1207.52 3889
518.625 -1204.72 3880
1391.28 -1158.77 3732
1400.2 -1158.77 3732
1409.13 -1158.77 3732
1415.01 -1156.29 3724
1423.92 -1156.29 3724
1429.74 -1153.8 3716
1435.14 -1151.01 3707
1440.89 -1148.53 3699
1449.74 -1148.53 3699
1458.58 -1148.53 3699
1467.43 -1148.53 3699
1483.06 -1153.8 3716
1512.02 -1169.33 3766
1524.26 -1171.81 3774
1533.28 -1171.81 3774
1542.31 -1171.81 3774
1555.03 -1174.61 3783
1564.08 -1174.61 3783
1573.12 -1174.61 3783
1582.17 -1174.61 3783
1591.22 -1174.61 3783
1600.26 -1174.61 3783
1594.84 -1164.05 3749
-2846.69 -1198.2 3889
-2850.52 -1203.75 3907
-2841.18 -1203.75 3907
-2831.84 -1203.75 3907
-2815.99 -1200.98 3898
-2806.67 -1200.98 3898
-2777.98 -1192.66 3871
-2755.84 -1187.11 3853
-2746.63 -1187.11 3853
-2743.81 -1189.88 3862
-2734.58 -1189.88 3862
-2725.34 -1189.88 3862
-2716.1 -1189.88 3862
-2706.87 -1189.88 3862
-2678.77 -1181.57 3835
-2669.6 -1181.57 3835
-2660.43 -1181.57 3835
-2657.49 -1184.34 3844
-2648.29 -1184.34 3844
-2639.1 -1184.34 3844
-2629.91 -1184.34 3844
-2620.72 -1184.34 3844
-2593.86 -1176.33 3818
-2561.04 -1165.54 3783
-2522.98 -1152.3 3740
-2514.04 -1152.3 3740
-2499.74 -1149.83 3732
-2490.81 -1149.83 3732
-1358.2 -1181.57 3835
-1352.2 -1184.34 3844
-1343 -1184.34 3844
-1333.81 -1184.34 3844
-1324.62 -1184.34 3844
-1315.43 -1184.34 3844
-1300.12 -1178.79 3826
-1279.5 -1168.32 3792
-1267.42 -1165.54 3783
-1267.02 -1173.56 3809
-1257.91 -1173.56 3809
-1248.8 -1173.56 3809
-1239.69 -1173.56 3809
-1230.58 -1173.56 3809
-1224.36 -1176.33 3818
-1215.23 -1176.33 3818
-1206.1 -1176.33 3818
-1196.97 -1176.33 3818
-1187.84 -1176.33 3818
-1173.15 -1170.78 3800
-1153.65 -1160.31 3766
-142.651 -678.129 2201
-137.388 -678.129 2201
-132.124 -678.129 2201
-126.861 -678.129 2201
-121.598 -678.129 2201
-115.436 -672.892 2184
-110.062 -671.967 2181
-104.27 -668.27 2169
-99.083 -668.27 2169
-93.4201 -664.881 2158
-88.0551 -663.341 2153
-82.5601 -660.568 2144
-77.4332 -660.568 2144
-72.0364 -658.103 2136
-66.6779 -655.638 2128
-61.5024 -654.714 2125
-56.4209 -654.714 2125
-51.2669 -653.789 2122
-46.149 -653.173 2120
-41.0213 -652.249 2117
-35.9079 -651.325 2114
-30.8527 -651.325 2114
-25.7975 -651.325 2114
-20.6932 -649.784 2109
-15.6277 -648.86 2106
-10.5916 -648.86 2106
-5.53445 -646.395 2098
-0.516263 -644.855 2093
4.48873 -644.855 2093
9.49373 -644.855 2093
14.4433 -642.39 2085
19.4105 -641.774 2083
24.3331 -640.233 2078
29.3022 -640.233 2078
34.2713 -640.233 2078
39.2405 -640.233 2078
44.0394 -637.768 2070
48.9894 -637.768 2070
53.8091 -636.228 2065
58.6618 -635.303 2062
63.2843 -632.222 2052
68.025 -630.682 2047
72.92 -630.682 2047
77.4349 -627.601 2037
82.104 -626.06 2032
86.9631 -626.06 2032
91.8222 -626.06 2032
96.6813 -626.06 2032
101.54 -626.06 2032
106.138 -624.52 2027
110.985 -624.52 2027
115.832 -624.52 2027
120.679 -624.52 2027
125.526 -624.52 2027
130.374 -624.52 2027
135.087 -623.904 2025
139.722 -622.979 2022
144.558 -622.979 2022
149.393 -622.979 2022
154.228 -622.979 2022
159.063 -622.979 2022
163.899 -622.979 2022
168.734 -622.979 2022
173.569 -622.979 2022
178.404 -622.979 2022
183.058 -622.363 2020
187.889 -622.363 2020
192.719 -622.363 2020
197.256 -621.439 2017
202.079 -621.439 2017
206.697 -620.823 2015
211.516 -620.823 2015
465.103 -1200.98 3898
474.425 -1200.98 3898
483.746 -1200.98 3898
493.067 -1200.98 3898
501.229 -1198.2 3889
510.529 -1198.2 3889
518.625 -1195.43 3880
1391.28 -1149.83 3732
1400.2 -1149.83 3732
1409.13 -1149.83 3732
1415.01 -1147.37 3724
1423.92 -1147.37 3724
1426.28 -1142.13 3707
1432.05 -1139.66 3699
1437.78 -1137.2 3691
1446.6 -1137.2 3691
1458.58 -1139.66 3699
1467.43 -1139.66 3699
1476.27 -1139.66 3699
1501.58 -1152.3 3740
1521.03 -1160.31 3766
1530.03 -1160.31 3766
1542.31 -1162.77 3774
1551.33 -1162.77 3774
1560.36 -1162.77 3774
1569.38 -1162.77 3774
1571.3 -1157.53 3757
1576.91 -1155.07 3749
1585.88 -1155.07 3749
1587.61 -1149.83 3732
-2846.69 -1188.89 3889
-2850.52 -1194.39 3907
-2841.18 -1194.39 3907
-2831.84 -1194.39 3907
-2815.99 -1191.64 3898
-2806.67 -1191.64 3898
-2777.98 -1183.38 3871
-2755.84 -1177.88 3853
-2746.63 -1177.88 3853
-2743.81 -1180.63 3862
-2734.58 -1180.63 3862
-2725.34 -1180.63 3862
-2716.1 -1180.63 3862
-2706.87 -1180.63 3862
-2678.77 -1172.38 3835
-2669.6 -1172.38 3835
-2660.43 -1172.38 3835
-2657.49 -1175.13 3844
-2648.29 -1175.13 3844
-2639.1 -1175.13 3844
-2629.91 -1175.13 3844
-2620.72 -1175.13 3844
-2593.86 -1167.18 3818
-2567.13 -1159.23 3792
-2540.52 -1151.29 3766
-2531.52 -1151.29 3766
-2511.12 -1146.09 3749
-2502.16 -1146.09 3749
-1361.39 -1175.13 3844
-1352.2 -1175.13 3844
-1343 -1175.13 3844
-1327.57 -1169.63 3826
-1318.42 -1169.63 3826
-1300.37 -1161.68 3800
-1291.28 -1161.68 3800
-1279.5 -1159.23 3792
-1264.4 -1153.73 3774
-1261.36 -1159.23 3792
-1254.94 -1161.68 3800
-1245.85 -1161.68 3800
-1236.76 -1161.68 3800
-1227.68 -1161.68 3800
-1218.59 -1161.68 3800
-1209.5 -1161.68 3800
-1200.41 -1161.68 3800
-1191.33 -1161.68 3800
-1182.24 -1161.68 3800
-1167.91 -1156.48 3783
-1153.65 -1151.29 3766
-142.651 -672.857 2201
-137.388 -672.857 2201
-132.124 -672.857 2201
-126.861 -672.857 2201
-121.598 -672.857 2201
-115.436 -667.66 2184
-109.911 -665.826 2178
-104.174 -662.463 2167
-98.9916 -662.463 2167
-93.4201 -659.712 2158
-88.0551 -658.183 2153
-82.5601 -655.432 2144
-77.4332 -655.432 2144
-72.0364 -652.986 2136
-66.6779 -650.54 2128
-61.5024 -649.623 2125
-56.4209 -649.623 2125
-51.2669 -648.706 2122
-46.149 -648.095 2120
-41.0213 -647.178 2117
-35.9079 -646.261 2114
-30.8527 -646.261 2114
-25.7731 -645.649 2112
-20.6638 -643.815 2106
-15.6277 -643.815 2106
-10.5916 -643.815 2106
-5.53445 -641.369 2098
-0.516263 -639.841 2093
4.48445 -639.229 2091
9.48466 -639.229 2091
14.4433 -637.395 2085
19.3826 -635.867 2080
24.3331 -635.255 2078
29.3022 -635.255 2078
34.2713 -635.255 2078
39.1838 -634.338 2075
44.0394 -632.81 2070
48.9894 -632.81 2070
53.8091 -631.281 2065
58.6618 -630.364 2062
63.1301 -625.778 2047
67.9254 -624.861 2044
72.8132 -624.861 2044
77.4349 -622.721 2037
82.0231 -620.581 2030
86.8775 -620.581 2030
91.7318 -620.581 2030
96.5862 -620.581 2030
101.441 -620.581 2030
106.138 -619.664 2027
110.985 -619.664 2027
115.832 -619.664 2027
120.382 -618.136 2022
125.217 -618.136 2022
130.052 -618.136 2022
134.754 -617.524 2020
139.584 -617.524 2020
144.2 -616.607 2017
149.023 -616.607 2017
153.847 -616.607 2017
159.063 -618.136 2022
163.899 -618.136 2022
168.734 -618.136 2022
173.569 -618.136 2022
178.404 -618.136 2022
183.058 -617.524 2020
187.889 -617.524 2020
192.719 -617.524 2020
197.256 -616.607 2017
202.079 -616.607 2017
206.697 -615.996 2015
211.516 -615.996 2015
465.103 -1191.64 3898
474.425 -1191.64 3898
483.746 -1191.64 3898
491.929 -1188.89 3889
500.069 -1186.14 3880
509.347 -1186.14 3880
515.016 -1177.88 3853
1391.28 -1140.89 3732
1400.2 -1140.89 3732
1409.13 -1140.89 3732
1408.55 -1133.25 3707
1417.42 -1133.25 3707
1420.12 -1128.36 3691
1428.95 -1128.36 3691
1431.54 -1123.47 3675
1440.33 -1123.47 3675
1452.27 -1125.91 3683
1461.08 -1125.91 3683
1473.08 -1128.36 3691
1495.16 -1138.45 3724
1510.52 -1143.34 3740
1519.47 -1143.34 3740
1528.41 -1143.34 3740
1544.34 -1148.53 3757
1553.33 -1148.53 3757
1562.31 -1148.53 3757
1567.95 -1146.09 3749
1569.76 -1140.89 3732
1578.69 -1140.89 3732
1580.81 -1136 3716
1579 -1128.36 3691
-2846.69 -1179.57 3889
-2843.96 -1182.3 3898
-2834.64 -1182.3 3898
-2825.32 -1182.3 3898
-2809.49 -1179.57 3889
-2800.19 -1179.57 3889
-2739.94 -1158.04 3818
-2730.81 -1158.04 3818
-2727.38 -1160.46 3826
-2731.02 -1165.92 3844
-2721.83 -1165.92 3844
-2712.64 -1165.92 3844
-2690.79 -1160.46 3826
-2681.64 -1160.46 3826
-2672.49 -1160.46 3826
-2669.6 -1163.19 3835
-2660.43 -1163.19 3835
-2657.49 -1165.92 3844
-2648.29 -1165.92 3844
-2639.1 -1165.92 3844
-2623.75 -1163.19 3835
-2614.58 -1163.19 3835
-2587.75 -1155.31 3809
-2567.13 -1150.15 3792
-2540.52 -1142.26 3766
-2531.52 -1142.26 3766
-2511.12 -1137.11 3749
-2502.16 -1137.11 3749
-1361.39 -1165.92 3844
-1352.2 -1165.92 3844
-1343 -1165.92 3844
-1321.67 -1155.31 3809
-1312.56 -1155.31 3809
-1297.63 -1150.15 3792
-1288.57 -1150.15 3792
-1276.46 -1147.42 3783
-1264.4 -1144.69 3774
-1258.37 -1147.42 3783
-1252.29 -1150.15 3792
-1243.23 -1150.15 3792
-1234.16 -1150.15 3792
-1225.09 -1150.15 3792
-1216.02 -1150.15 3792
-1206.96 -1150.15 3792
-1197.89 -1150.15 3792
-1188.82 -1150.15 3792
-1179.75 -1150.15 3792
-1165.13 -1144.69 3774
-1153.65 -1142.26 3766
-1144.65 -1142.26 3766
-1135.64 -1142.26 3766
-142.651 -667.584 2201
-137.388 -667.584 2201
-132.124 -667.584 2201
-126.861 -667.584 2201
-121.598 -667.584 2201
-115.277 -661.518 2181
-109.911 -660.608 2178
-104.174 -657.272 2167
-98.9916 -657.272 2167
-93.4201 -654.542 2158
-88.1369 -653.632 2155
-82.5601 -650.296 2144
-77.4332 -650.296 2144
-72.1376 -648.779 2139
-66.6779 -645.443 2128
-61.5024 -644.533 2125
-56.4209 -644.533 2125
-51.2669 -643.623 2122
-46.149 -643.016 2120
-41.0213 -642.106 2117
-35.9079 -641.196 2114
-30.8527 -641.196 2114
-25.7731 -640.59 2112
-20.6932 -639.68 2109
-15.6277 -638.77 2106
-10.5916 -638.77 2106
-5.53445 -636.344 2098
-0.515769 -634.22 2091
4.47801 -633.31 2088
9.47105 -633.31 2088
14.4295 -631.794 2083
19.3639 -630.277 2078
24.2979 -629.367 2075
29.2599 -629.367 2075
34.1724 -628.457 2072
39.0894 -627.851 2070
43.9756 -626.941 2067
48.9184 -626.941 2067
53.7309 -625.424 2062
58.5195 -623.908 2057
63.0375 -619.965 2044
67.8589 -619.358 2042
72.7419 -619.358 2042
77.2448 -616.325 2032
82.0231 -615.718 2030
86.8775 -615.718 2030
91.7318 -615.718 2030
96.4434 -614.809 2027
101.291 -614.809 2027
106.033 -614.202 2025
110.875 -614.202 2025
115.546 -613.292 2022
120.263 -612.685 2020
125.093 -612.685 2020
129.923 -612.685 2020
134.754 -612.685 2020
139.377 -611.775 2017
144.2 -611.775 2017
149.023 -611.775 2017
153.847 -611.775 2017
158.906 -612.685 2020
163.736 -612.685 2020
168.734 -613.292 2022
173.569 -613.292 2022
178.404 -613.292 2022
183.058 -612.685 2020
187.889 -612.685 2020
192.719 -612.685 2020
197.549 -612.685 2020
202.38 -612.685 2020
207.415 -613.292 2022
212.251 -613.292 2022
217.086 -613.292 2022
467.852 -1165.92 3844
477.045 -1165.92 3844
486.237 -1165.92 3844
494.269 -1163.19 3835
503.44 -1163.19 3835
510.338 -1158.04 3818
1391.28 -1131.95 3732
1400.2 -1131.95 3732
1409.13 -1131.95 3732
1408.55 -1124.37 3707
1417.42 -1124.37 3707
1420.12 -1119.52 3691
1422.76 -1114.66 3675
1431.54 -1114.66 3675
1440.33 -1114.66 3675
1449.12 -1114.66 3675
1457.91 -1114.66 3675
1476.27 -1121.94 3699
1491.95 -1127.1 3716
1504.06 -1129.52 3724
1512.97 -1129.52 3724
1521.87 -1129.52 3724
1534.07 -1131.95 3732
1542.99 -1131.95 3732
1551.92 -1131.95 3732
1557.49 -1129.52 3724
1563.03 -1127.1 3716
1571.92 -1127.1 3716
1576.98 -1124.37 3707
1579 -1119.52 3691
-2846.69 -1170.25 3889
-2850.52 -1175.67 3907
-2841.18 -1175.67 3907
-2831.84 -1175.67 3907
-2809.49 -1170.25 3889
-2800.19 -1170.25 3889
-2777.98 -1164.84 3871
-2736.53 -1151.3 3826
-2746.63 -1159.42 3853
-2750.2 -1164.84 3871
-2740.95 -1164.84 3871
-2731.69 -1164.84 3871
-2703.45 -1156.71 3844
-2700.56 -1159.42 3853
-2691.35 -1159.42 3853
-2682.13 -1159.42 3853
-2672.92 -1159.42 3853
-2663.71 -1159.42 3853
-2654.49 -1159.42 3853
-2645.28 -1159.42 3853
-2623.75 -1154.01 3835
-2614.58 -1154.01 3835
-2599.3 -1151.3 3826
-2578.64 -1146.18 3809
-2563.46 -1143.47 3800
-2560.42 -1146.18 3809
-2551.31 -1146.18 3809
-2542.2 -1146.18 3809
-1364.58 -1159.42 3853
-1355.36 -1159.42 3853
-1346.15 -1159.42 3853
-1333.81 -1156.71 3844
-1306.7 -1141.07 3792
-1297.63 -1141.07 3792
-1288.57 -1141.07 3792
-1273.42 -1135.65 3774
-1264.4 -1135.65 3774
-1258.37 -1138.36 3783
-1254.94 -1143.47 3800
-1245.85 -1143.47 3800
-1236.76 -1143.47 3800
-1230.58 -1146.18 3809
-1221.47 -1146.18 3809
-1212.37 -1146.18 3809
-1203.26 -1146.18 3809
-1194.15 -1146.18 3809
-1185.04 -1146.18 3809
-1167.91 -1138.36 3783
-1158.86 -1138.36 3783
-1149.81 -1138.36 3783
-1140.77 -1138.36 3783
-147.713 -661.409 2198
-142.651 -662.312 2201
-137.388 -662.312 2201
-132.124 -662.312 2201
-126.688 -661.409 2198
-121.432 -661.409 2198
-115.277 -656.294 2181
-109.759 -654.488 2175
-104.174 -652.081 2167
-98.9916 -652.081 2167
-93.4201 -649.373 2158
-88.1369 -648.47 2155
-82.5601 -645.16 2144
-77.4332 -645.16 2144
-72.1376 -643.655 2139
-66.6779 -640.345 2128
-61.5024 -639.442 2125
-56.4209 -639.442 2125
-51.2669 -638.54 2122
-46.149 -637.938 2120
-41.0213 -637.035 2117
-35.9079 -636.132 2114
-30.8527 -636.132 2114
-25.7731 -635.531 2112
-20.6932 -634.628 2109
-15.6277 -633.725 2106
-10.5916 -633.725 2106
-5.53445 -631.318 2098
-0.515769 -629.211 2091
4.47801 -628.309 2088
9.47105 -628.309 2088
14.4087 -625.901 2080
19.336 -624.397 2075
24.2628 -623.494 2072
29.2176 -623.494 2072
34.1394 -622.892 2070
39.0327 -621.989 2067
43.933 -621.388 2065
48.8711 -621.388 2065
53.6788 -619.883 2060
58.5195 -618.98 2057
62.9758 -614.467 2042
67.7592 -613.564 2039
72.6351 -613.564 2039
77.2448 -611.457 2032
82.0231 -610.856 2030
86.8775 -610.856 2030
91.7318 -610.856 2030
96.4434 -609.953 2027
101.291 -609.953 2027
105.876 -608.448 2022
110.711 -608.448 2022
115.546 -608.448 2022
120.263 -607.846 2020
125.093 -607.846 2020
129.923 -607.846 2020
134.554 -606.944 2017
139.377 -606.944 2017
144.057 -606.342 2015
148.876 -606.342 2015
153.694 -606.342 2015
158.67 -606.944 2017
163.736 -607.846 2020
168.567 -607.846 2020
173.397 -607.846 2020
178.228 -607.846 2020
183.058 -607.846 2020
187.889 -607.846 2020
192.719 -607.846 2020
197.549 -607.846 2020
202.38 -607.846 2020
207.415 -608.448 2022
212.251 -608.448 2022
217.086 -608.448 2022
221.372 -606.944 2017
226.196 -606.944 2017
231.019 -606.944 2017
465.662 -1151.3 3826
474.811 -1151.3 3826
483.96 -1151.3 3826
492.078 -1148.89 3818
501.208 -1148.89 3818
510.338 -1148.89 3818
