-1915.68 398.511 3925
-1906.3 398.511 3925
-1901.75 399.526 3935
-1892.34 399.526 3935
-1905.42 404.298 3982
-1895.89 404.298 3982
-1895.37 406.227 4001
-1885.8 406.227 4001
-1876.24 406.227 4001
-1857.81 404.298 3982
-1834.82 401.354 3953
-1808.28 397.597 3916
-1815.92 401.354 3953
-1806.46 401.354 3953
-1814.29 405.212 3991
-1817.86 408.156 4020
-1808.24 408.156 4020
-1798.63 408.156 4020
-1789.02 408.156 4020
-1758.16 403.283 3972
-1748.66 403.283 3972
-1683.12 390.287 3844
-1628.63 379.727 3740
-1574.22 369.067 3635
-1538.39 362.67 3572
-1529.85 362.67 3572
-1499.16 357.391 3520
-1487.36 356.578 3512
-1460.43 352.111 3468
-1452.14 352.111 3468
-1417.62 345.714 3405
-1403.68 344.293 3391
-1386.93 342.161 3370
-1378.87 342.161 3370
-1365.52 340.841 3357
-1357.49 340.841 3357
-1351.88 341.45 3363
-1343.84 341.45 3363
-1335.79 341.45 3363
-1322.62 340.13 3350
-1304.01 337.389 3323
-1280.86 333.429 3284
-1273 333.429 3284
-1257.83 331.5 3265
-1235.47 327.642 3227
-1211.4 323.276 3184
-1203.78 323.276 3184
-1187.15 320.839 3160
-1175.12 319.621 3148
-1158.69 317.184 3124
-1151.22 317.184 3124
-1116.65 309.671 3050
-1105.36 308.554 3039
-1102.07 309.671 3050
-1100.88 311.397 3067
-1097.46 312.514 3078
-1090.1 312.514 3078
-1082.74 312.514 3078
-1071.54 311.397 3067
-1064.2 311.397 3067
-1051.01 309.671 3050
-1032.43 306.32 3017
-1014 302.97 2984
-1006.86 302.97 2984
-996.377 301.954 2974
-989.265 301.954 2974
-971.585 298.705 2942
-964.55 298.705 2942
-895.003 301.345 2968
-900.769 305.711 3011
-893.569 305.711 3011
-886.369 305.711 3011
-879.169 305.711 3011
-871.969 305.711 3011
-864.768 305.711 3011
-854.435 304.594 3000
-841.33 302.462 2979
-834.207 302.462 2979
-825.695 301.954 2974
-811.151 299.213 2947
-802.74 298.705 2942
-791.648 297.182 2927
-784.648 297.182 2927
-776.321 296.675 2922
-769.333 296.675 2922
-762.346 296.675 2922
-755.359 296.675 2922
-748.371 296.675 2922
-741.384 296.675 2922
-733.14 296.167 2917
-726.164 296.167 2917
-717.71 295.558 2911
-709.528 295.05 2906
-700.161 294.035 2896
-693.236 294.035 2896
-683.941 293.02 2886
-677.039 293.02 2886
-670.138 293.02 2886
-663.237 293.02 2886
-655.198 292.512 2881
-649.434 293.02 2886
-644.759 294.035 2896
-640.036 295.05 2906
-633.087 295.05 2906
-627.216 295.558 2911
-620.254 295.558 2911
-613.293 295.558 2911
-606.332 295.558 2911
-605.754 298.705 2942
-606.249 302.462 2979
-605.561 305.711 3011
-598.36 305.711 3011
-598.817 309.671 3050
-600.251 314.24 3095
-597.256 316.575 3118
-589.8 316.575 3118
-589.067 320.23 3154
-584.844 322.058 3172
-596.549 332.82 3278
-588.71 332.82 3278
-584.239 334.749 3297
-576.354 334.749 3297
-568.47 334.749 3297
-594.422 370.59 3650
-585.693 370.59 3650
-579.652 372.316 3667
-573.374 373.94 3683
-564.567 373.94 3683
-555.76 373.94 3683
-551.854 377.291 3716
-544.137 378.103 3724
-538.824 380.641 3749
-529.859 380.641 3749
-525.618 384.093 3783
-523.673 389.373 3835
-514.502 389.373 3835
-520.88 401.354 3953
-518.802 407.141 4010
-509.213 407.141 4010
-499.624 407.141 4010
-490.035 407.141 4010
-480.445 407.141 4010
-466.394 403.283 3972
-456.896 403.283 3972
-447.398 403.283 3972
-437.9 403.283 3972
-427.431 402.369 3963
-417.954 402.369 3963
-406.519 400.44 3944
-393.362 396.683 3907
-384.019 396.683 3907
-374.677 396.683 3907
-363.651 394.856 3889
-354.351 394.856 3889
-345.051 394.856 3889
-335.751 394.856 3889
-325.696 393.942 3880
-316.418 393.942 3880
-307.139 393.942 3880
-297.861 393.942 3880
-287.244 392.114 3862
-278.009 392.114 3862
-268.774 392.114 3862
-259.539 392.114 3862
-249.137 390.287 3844
-238.322 387.647 3818
-130.564 220.831 2175
-125.19 220.526 2172
-119.996 220.526 2172
-114.802 220.526 2172
-109.456 220.222 2169
-104.27 220.222 2169
-99.083 220.222 2169
-93.8963 220.222 2169
-88.7095 220.222 2169
-83.3303 219.714 2164
-78.1555 219.714 2164
-72.9807 219.714 2164
-67.8059 219.714 2164
-62.5443 219.409 2161
-57.3767 219.409 2161
-52.2091 219.409 2161
-47.1068 219.714 2164
-41.9901 220.019 2167
-36.8082 220.019 2167
-31.6262 220.019 2167
-26.4687 220.222 2169
-21.3114 220.526 2172
-16.1175 220.526 2172
-10.9236 220.526 2172
-5.73757 220.831 2175
-0.537229 221.135 2178
4.67746 221.44 2181
9.8929 221.44 2181
15.1083 221.44 2181
20.3517 221.745 2184
25.6329 222.252 2189
30.9097 222.557 2192
36.1515 222.557 2192
41.3932 222.557 2192
46.6349 222.557 2192
51.8767 222.557 2192
57.0402 222.252 2189
62.1326 221.745 2184
67.2626 221.44 2181
72.4781 221.44 2181
77.5866 221.135 2178
82.6809 220.831 2175
87.6395 220.222 2169
92.8262 220.222 2169
97.9226 220.019 2167
102.819 219.409 2161
107.837 219.105 2158
112.997 219.105 2158
117.993 218.8 2155
122.861 218.293 2150
128.002 218.293 2150
133.144 218.293 2150
138.285 218.293 2150
143.426 218.293 2150
148.153 217.683 2144
153.28 217.683 2144
158.407 217.683 2144
163.534 217.683 2144
168.661 217.683 2144
173.788 217.683 2144
178.915 217.683 2144
184.041 217.683 2144
189.168 217.683 2144
194.295 217.683 2144
199.422 217.683 2144
204.549 217.683 2144
209.676 217.683 2144
215.104 217.988 2147
220.546 218.293 2150
225.687 218.293 2150
231.15 218.597 2153
236.299 218.597 2153
241.447 218.597 2153
246.596 218.597 2153
251.393 218.293 2150
256.535 218.293 2150
261.676 218.293 2150
266.817 218.293 2150
271.579 217.988 2147
277.1 218.293 2150
282.241 218.293 2150
287.383 218.293 2150
291.708 217.683 2144
296.834 217.683 2144
301.961 217.683 2144
437.572 310.178 3055
444.878 310.178 3055
452.183 310.178 3055
458.737 309.671 3050
466.03 309.671 3050
473.324 309.671 3050
474.471 305.711 3011
477.352 302.97 2984
482.864 301.954 2974
489.976 301.954 2974
496.085 301.345 2968
501.487 300.33 2958
507.701 299.822 2953
515.634 300.33 2958
522.708 300.33 2958
529.781 300.33 2958
536.854 300.33 2958
543.008 299.822 2953
550.07 299.822 2953
557.132 299.822 2953
563.047 299.213 2947
567.192 297.69 2932
574.203 297.69 2932
581.215 297.69 2932
588.226 297.69 2932
595.237 297.69 2932
602.249 297.69 2932
609.26 297.69 2932
616.271 297.69 2932
622.22 297.182 2927
629.219 297.182 2927
636.218 297.182 2927
643.218 297.182 2927
650.217 297.182 2927
657.216 297.182 2927
664.216 297.182 2927
671.215 297.182 2927
677.056 296.675 2922
684.043 296.675 2922
692.213 297.182 2927
699.212 297.182 2927
706.212 297.182 2927
713.211 297.182 2927
720.21 297.182 2927
727.21 297.182 2927
734.209 297.182 2927
741.208 297.182 2927
748.208 297.182 2927
755.207 297.182 2927
762.207 297.182 2927
767.892 296.675 2922
774.879 296.675 2922
781.867 296.675 2922
790.204 297.182 2927
797.203 297.182 2927
804.203 297.182 2927
811.202 297.182 2927
816.804 296.675 2922
823.791 296.675 2922
830.778 296.675 2922
837.766 296.675 2922
841.573 295.558 2911
848.534 295.558 2911
855.495 295.558 2911
862.456 295.558 2911
869.417 295.558 2911
876.378 295.558 2911
883.34 295.558 2911
890.301 295.558 2911
897.262 295.558 2911
906.087 296.167 2917
916.192 297.182 2927
934.546 300.838 2963
941.631 300.838 2963
950.318 301.345 2968
957.415 301.345 2968
964.513 301.345 2968
1239.38 368.254 3627
1248.05 368.254 3627
1256.73 368.254 3627
1262.61 367.442 3619
1276.88 369.067 3635
1290.88 370.59 3650
1299.61 370.59 3650
1311.21 371.402 3658
1326.09 373.128 3675
1337.78 373.94 3683
1346.59 373.94 3683
1361.28 375.565 3699
1370.13 375.565 3699
1378.97 375.565 3699
1387.82 375.565 3699
1384.58 372.316 3667
1386.89 370.59 3650
1395.62 370.59 3650
1398.58 369.067 3635
1404.17 368.254 3627
1406.61 366.63 3611
1415.25 366.63 3611
1420.73 365.818 3603
1417.05 362.67 3572
1422.79 361.959 3565
1407.23 355.868 3505
1415.61 355.868 3505
1412.21 352.923 3476
1397.23 347.136 3419
1391.02 343.582 3384
1399.11 343.582 3384
1398.47 341.45 3363
1389.78 337.389 3323
1392.26 336.069 3310
1400.18 336.069 3310
1411.07 336.78 3317
1419 336.78 3317
1435.54 338.81 3337
1452.17 340.841 3357
1471.94 343.582 3384
1480.03 343.582 3384
1491.2 344.293 3391
1499.31 344.293 3391
1507.42 344.293 3391
1515.53 344.293 3391
1517.35 342.872 3377
1525.42 342.872 3377
1533.5 342.872 3377
1541.57 342.872 3377
1549.65 342.872 3377
1523.59 335.358 3303
1531.49 335.358 3303
1503.97 327.642 3227
1471.87 319.012 3142
1465.25 315.966 3112
1461.81 313.63 3089
1469.2 313.63 3089
1449.82 307.945 3033
1444.1 305.203 3006
1430.53 300.838 2963
1437.61 300.838 2963
1422.27 296.167 2917
1426.3 295.558 2911
1425.88 294.035 2896
1430.33 293.527 2891
1437.24 293.527 2891
1444.16 293.527 2891
1446.05 292.512 2881
1447.9 291.497 2871
1454.76 291.497 2871
1461.63 291.497 2871
1465.94 290.989 2866
1470.73 290.583 2862
1477.58 290.583 2862
1476.64 289.06 2847
1483.45 289.06 2847
1490.26 289.06 2847
1494.44 288.552 2842
1501.23 288.552 2842
1505.38 288.045 2837
1512.16 288.045 2837
1516.27 287.537 2832
1523.04 287.537 2832
1527.65 287.131 2828
1534.41 287.131 2828
1538.45 286.623 2823
1545.2 286.623 2823
1549.2 286.115 2818
1555.94 286.115 2818
1565.45 286.623 2823
1572.2 286.623 2823
1578.96 286.623 2823
1585.71 286.623 2823
1592.46 286.623 2823
1599.21 286.623 2823
1605.96 286.623 2823
1612.71 286.623 2823
1619.46 286.623 2823
1626.21 286.623 2823
1635.85 287.131 2828
1642.62 287.131 2828
1649.38 287.131 2828
1658.48 287.537 2832
1665.26 287.537 2832
1672.03 287.537 2832
1681.76 288.045 2837
1688.55 288.045 2837
1695.33 288.045 2837
1702.12 288.045 2837
1711.91 288.552 2842
1718.71 288.552 2842
1725.5 288.552 2842
1729.25 288.045 2837
1732.98 287.537 2832
1737.29 287.131 2828
1737.89 286.115 2818
1744.63 286.115 2818
1748.26 285.608 2813
1754.98 285.608 2813
1759.21 285.202 2809
1765.92 285.202 2809
1769.48 284.694 2804
1773.02 284.186 2799
1776.54 283.679 2794
1783.22 283.679 2794
1789.9 283.679 2794
1790.79 282.765 2785
1797.45 282.765 2785
1800.87 282.257 2780
1807.52 282.257 2780
1811.56 281.851 2776
1814.92 281.344 2771
1818.92 280.937 2767
1825.54 280.937 2767
1832.15 280.937 2767
1838.77 280.937 2767
1842.05 280.43 2762
1848.66 280.43 2762
1855.26 280.43 2762
1858.5 279.922 2757
1865.09 279.922 2757
1871.68 279.922 2757
1878.27 279.922 2757
1884.87 279.922 2757
1888.72 279.516 2753
1895.3 279.516 2753
1901.88 279.516 2753
1908.47 279.516 2753
1908.79 278.602 2744
1915.35 278.602 2744
1924.71 279.008 2748
1931.28 279.008 2748
1937.86 279.008 2748
1947.97 279.516 2753
1960.94 280.43 2762
1967.54 280.43 2762
1974.15 280.43 2762
1980.75 280.43 2762
1987.36 280.43 2762
1990.35 279.922 2757
1996.95 279.922 2757
2003.54 279.922 2757
2010.13 279.922 2757
2016.72 279.922 2757
2020.38 279.516 2753
2040.22 281.344 2771
2046.84 281.344 2771
2053.47 281.344 2771
2060.1 281.344 2771
2056.28 279.922 2757
2059.88 279.516 2753
2066.46 279.516 2753
2069.28 279.008 2748
2055.46 276.267 2721
2061.96 276.267 2721
2068.47 276.267 2721
2071.93 275.861 2717
2078.42 275.861 2717
-2106.16 292.346 2813
-2106.9 293.386 2823
-2114.28 295.36 2842
-2107.49 295.36 2842
-2115.47 297.439 2862
-2122.63 299.413 2881
-2115.74 299.413 2881
-2108.85 299.413 2881
-2101.96 299.413 2881
-2084.16 297.855 2866
-2077.31 297.855 2866
-2063.95 296.919 2857
-2049.92 295.88 2847
-2035.94 294.841 2837
-2029.15 294.841 2837
-2015.95 293.905 2828
-2002.09 292.866 2818
-1995.35 292.866 2818
-1988.61 292.866 2818
-1978.35 292.346 2813
-1971.63 292.346 2813
-1968.39 292.866 2818
-1965.14 293.386 2823
-1958.38 293.386 2823
-1957.86 294.321 2832
-1957.97 295.36 2842
-1951.18 295.36 2842
-1944.38 295.36 2842
-1937.58 295.36 2842
-1923.99 294.321 2832
-1930.76 296.4 2852
-1923.94 296.4 2852
-1923.84 297.439 2862
-1919.68 297.855 2866
-1916.16 298.374 2871
-1909.3 298.374 2871
-1912.37 299.933 2886
-1921.98 302.531 2911
-1932.12 305.233 2937
-1925.1 305.233 2937
-1931.79 307.416 2958
-1927.97 307.935 2963
-1924.12 308.455 2968
-1917.03 308.455 2968
-1913.79 309.079 2974
-1906.68 309.079 2974
-1899.57 309.079 2974
-1888.64 308.455 2968
-1872.03 306.896 2953
-1871.28 307.935 2963
-1874.27 309.598 2979
-1867.14 309.598 2979
-1860.02 309.598 2979
-2144.36 369.668 3557
-2135.85 369.668 3557
-2127.34 369.668 3557
-2096.8 365.823 3520
-2088.38 365.823 3520
-2079.96 365.823 3520
-2071.55 365.823 3520
-2058.44 364.991 3512
-2050.04 364.991 3512
-2041.64 364.991 3512
-2033.24 364.991 3512
-2037.53 367.278 3534
-2029.08 367.278 3534
-2020.63 367.278 3534
-2012.18 367.278 3534
-2003.73 367.278 3534
-1995.28 367.278 3534
-1982.89 366.55 3527
-1974.46 366.55 3527
-1966.02 366.55 3527
-1957.59 366.55 3527
-1949.15 366.55 3527
-1948.97 368.109 3542
-1944.34 368.837 3549
-1940.21 369.668 3557
-1931.71 369.668 3557
-1931.31 371.227 3572
-1927.08 372.058 3580
-1922.8 372.89 3588
-1914.22 372.89 3588
-1909.36 373.617 3595
-1900.77 373.617 3595
-1892.17 373.617 3595
-1883.57 373.617 3595
-1887.49 376.111 3619
-1882.99 376.943 3627
-1882.07 378.502 3642
-1873.36 378.502 3642
-1881.55 381.931 3675
-1880.91 383.594 3691
-1880.2 385.257 3707
-1871.34 385.257 3707
-1875.03 387.855 3732
-1870.11 388.687 3740
-1869.62 390.453 3757
-1860.64 390.453 3757
-1868.91 394.091 3792
-1889.76 400.43 3853
-1898.11 404.172 3889
-1888.81 404.172 3889
-1879.51 404.172 3889
-1870.21 404.172 3889
-1873.83 406.978 3916
-1864.47 406.978 3916
-1877.37 411.862 3963
-1867.89 411.862 3963
-1858.42 411.862 3963
-1848.94 411.862 3963
-1817.65 406.978 3916
-1799.97 405.107 3898
-1794.79 406.042 3907
-1785.44 406.042 3907
-1797.01 410.823 3953
-1796.15 412.798 3972
-1786.65 412.798 3972
-1777.15 412.798 3972
-1767.66 412.798 3972
-1745.76 409.888 3944
-1736.33 409.888 3944
-1683.12 399.495 3844
-1628.63 388.687 3740
-1574.22 377.774 3635
-1538.39 371.227 3572
-1529.85 371.227 3572
-1508.53 368.109 3542
-1487.36 364.991 3512
-1466.75 361.977 3483
-1458.42 361.977 3483
-1426.36 356.054 3426
-1406.58 353.144 3398
-1389.81 350.961 3377
-1381.73 350.961 3377
-1365.52 348.883 3357
-1357.49 348.883 3357
-1351.88 349.506 3363
-1343.84 349.506 3363
-1335.79 349.506 3363
-1322.62 348.155 3350
-1304.01 345.349 3323
-1283.2 341.92 3290
-1275.33 341.92 3290
-1257.83 339.321 3265
-1235.47 335.372 3227
-1211.4 330.903 3184
-1203.78 330.903 3184
-1187.15 328.409 3160
-1175.12 327.162 3148
-1158.69 324.668 3124
-1151.22 324.668 3124
-1116.65 316.977 3050
-1107.18 316.354 3044
-1102.07 316.977 3050
-1102.67 319.263 3072
-1099.6 320.511 3084
-1092.23 320.511 3084
-1084.85 320.511 3084
-1075.38 319.887 3078
-1068.02 319.887 3078
-1052.74 317.497 3055
-1036.19 314.691 3028
-1019.44 311.781 3000
-1012.26 311.781 3000
-999.727 310.118 2984
-989.265 309.079 2974
-973.236 306.273 2947
-966.189 306.273 2947
-891.987 307.416 2958
-887.906 308.455 2968
-880.808 308.455 2968
-878.421 310.118 2984
-871.285 310.118 2984
-864.149 310.118 2984
-857.014 310.118 2984
-848.454 309.598 2979
-841.33 309.598 2979
-834.207 309.598 2979
-821.253 307.416 2958
-812.803 306.896 2953
-802.74 305.753 2942
-793 304.714 2932
-785.989 304.714 2932
-778.978 304.714 2932
-771.966 304.714 2932
-764.955 304.714 2932
-757.944 304.714 2932
-750.932 304.714 2932
-741.384 303.674 2922
-733.14 303.155 2917
-726.164 303.155 2917
-719.189 303.155 2917
-710.749 302.531 2911
-701.37 301.492 2901
-694.433 301.492 2901
-685.126 300.453 2891
-677.039 299.933 2886
-668.977 299.413 2881
-662.088 299.413 2881
-655.198 299.413 2881
-649.434 299.933 2886
-645.872 301.492 2901
-640.036 302.012 2906
-633.087 302.012 2906
-627.216 302.531 2911
-621.533 303.155 2917
-614.557 303.155 2917
-607.582 303.155 2917
-612.343 309.079 2974
-607.266 310.118 2984
-605.561 312.924 3011
-598.36 312.924 3011
-598.817 316.977 3050
-600.251 321.654 3095
-597.256 324.044 3118
-589.8 324.044 3118
-589.067 327.785 3154
-584.844 329.656 3172
-592.909 338.594 3258
-585.119 338.594 3258
-584.239 342.647 3297
-576.354 342.647 3297
-568.47 342.647 3297
-552.935 337.97 3252
-551.529 341.92 3290
-543.661 341.92 3290
-535.794 341.92 3290
-575.701 378.502 3642
-570.884 381.1 3667
-564.567 382.763 3683
-555.76 382.763 3683
-548.141 383.594 3691
-546.474 388.687 3740
-543.711 393.155 3783
-534.665 393.155 3783
-531.593 397.624 3826
-529.818 403.236 3880
-520.539 403.236 3880
-520.88 410.823 3953
-517.638 415.812 4001
-509.213 416.747 4010
-499.624 416.747 4010
-490.035 416.747 4010
-480.445 416.747 4010
-469.799 415.812 4001
-460.232 415.812 4001
-448.524 413.837 3982
-437.9 412.798 3972
-428.401 412.798 3972
-418.903 412.798 3972
-408.477 411.862 3963
-396.181 408.952 3935
-385.789 407.913 3925
-376.403 407.913 3925
-365.334 406.042 3907
-354.351 404.172 3889
-345.051 404.172 3889
-335.751 404.172 3889
-326.451 404.172 3889
-317.152 404.172 3889
-307.139 403.236 3880
-297.861 403.236 3880
-287.244 401.366 3862
-276.065 398.56 3835
-267.521 399.495 3844
-258.329 399.495 3844
-249.137 399.495 3844
-239.383 398.56 3835
-130.564 226.041 2175
-125.19 225.729 2172
-119.996 225.729 2172
-114.802 225.729 2172
-109.608 225.729 2172
-104.27 225.417 2169
-99.083 225.417 2169
-93.8963 225.417 2169
-88.7095 225.417 2169
-83.4458 225.21 2167
-78.2638 225.21 2167
-72.9807 224.898 2164
-67.8059 224.898 2164
-62.6311 224.898 2164
-57.4564 224.898 2164
-52.2816 224.898 2164
-47.1721 225.21 2167
-42.0289 225.417 2169
-36.8931 225.729 2172
-31.6992 225.729 2172
-26.5053 225.729 2172
-21.3408 226.041 2175
-16.1397 226.041 2175
-10.9387 226.041 2175
-5.74549 226.353 2178
-0.537969 226.665 2181
4.67746 226.665 2181
9.8929 226.665 2181
15.1291 226.976 2184
20.3983 227.496 2189
25.7031 228.12 2195
30.952 228.12 2195
36.201 228.12 2195
41.4499 228.12 2195
46.6988 228.12 2195
51.9477 228.12 2195
57.1966 228.12 2195
62.2748 227.496 2189
67.4168 227.184 2186
72.6442 227.184 2186
77.6935 226.665 2181
82.9089 226.665 2181
87.7607 225.729 2172
92.9546 225.729 2172
98.013 225.417 2169
103.105 225.21 2167
108.137 224.898 2164
113.311 224.898 2164
118.158 224.274 2158
123.147 223.962 2155
128.3 223.962 2155
133.453 223.962 2155
138.606 223.962 2155
143.426 223.443 2150
148.567 223.443 2150
153.494 223.131 2147
158.628 223.131 2147
163.763 223.131 2147
168.897 223.131 2147
174.031 223.131 2147
179.165 223.131 2147
184.299 223.131 2147
189.698 223.443 2150
194.839 223.443 2150
199.98 223.443 2150
205.122 223.443 2150
210.263 223.443 2150
215.705 223.755 2153
221.059 223.962 2155
226.212 223.962 2155
231.365 223.962 2155
236.518 223.962 2155
241.672 223.962 2155
246.825 223.962 2155
251.978 223.962 2155
256.893 223.755 2153
262.041 223.755 2153
267.19 223.755 2153
271.959 223.443 2150
277.487 223.755 2153
282.635 223.755 2153
287.784 223.755 2153
292.932 223.755 2153
296.834 222.819 2144
301.961 222.819 2144
441.726 320.511 3084
449.101 320.511 3084
456.476 320.511 3084
458.737 316.977 3050
466.03 316.977 3050
473.324 316.977 3050
474.471 312.924 3011
479.912 311.781 3000
483.676 309.598 2979
490.8 309.598 2979
496.085 308.455 2968
501.487 307.416 2958
508.561 307.416 2958
515.634 307.416 2958
522.708 307.416 2958
529.781 307.416 2958
536.854 307.416 2958
543.928 307.416 2958
551.001 307.416 2958
557.132 306.896 2953
563.047 306.273 2947
568.159 305.233 2937
575.183 305.233 2937
581.215 304.714 2932
588.226 304.714 2932
595.237 304.714 2932
602.249 304.714 2932
609.26 304.714 2932
616.271 304.714 2932
622.22 304.194 2927
629.219 304.194 2927
636.218 304.194 2927
643.218 304.194 2927
650.217 304.194 2927
657.216 304.194 2927
664.216 304.194 2927
671.215 304.194 2927
677.056 303.674 2922
684.043 303.674 2922
691.031 303.674 2922
698.018 303.674 2922
705.005 303.674 2922
713.211 304.194 2927
720.21 304.194 2927
727.21 304.194 2927
734.209 304.194 2927
741.208 304.194 2927
748.208 304.194 2927
753.917 303.674 2922
760.904 303.674 2922
767.892 303.674 2922
774.879 303.674 2922
781.867 303.674 2922
788.854 303.674 2922
795.841 303.674 2922
802.829 303.674 2922
809.816 303.674 2922
815.406 303.155 2917
822.381 303.155 2917
827.651 302.531 2911
834.612 302.531 2911
840.128 302.012 2906
845.619 301.492 2901
852.556 301.492 2901
859.494 301.492 2901
866.431 301.492 2901
873.368 301.492 2901
880.305 301.492 2901
888.771 302.012 2906
895.721 302.012 2906
902.67 302.012 2906
914.627 303.674 2922
934.546 307.935 2963
941.631 307.935 2963
953.84 309.598 2979
960.964 309.598 2979
968.087 309.598 2979
1239.38 376.943 3627
1248.05 376.943 3627
1256.73 376.943 3627
1262.61 376.111 3619
1271.26 376.111 3619
1290.88 379.333 3650
1299.61 379.333 3650
1308.34 379.333 3650
1323.2 381.1 3667
1337.78 382.763 3683
1346.59 382.763 3683
1358.34 383.594 3691
1367.17 383.594 3691
1375.99 383.594 3691
1384.82 383.594 3691
1384.58 381.1 3667
1386.89 379.333 3650
1395.62 379.333 3650
1398.58 377.774 3635
1404.17 376.943 3627
1406.61 375.28 3611
1415.25 375.28 3611
1420.73 374.449 3603
1417.05 371.227 3572
1422.79 370.499 3565
1407.23 364.264 3505
1415.61 364.264 3505
1412.21 361.25 3476
1397.23 355.326 3419
1391.02 351.689 3384
1399.11 351.689 3384
1398.47 349.506 3363
1392.71 346.077 3330
1392.26 343.998 3310
1400.18 343.998 3310
1411.07 344.726 3317
1419 344.726 3317
1435.54 346.804 3337
1452.17 348.883 3357
1465.85 350.234 3370
1473.91 350.234 3370
1488.12 351.689 3384
1499.31 352.416 3391
1507.42 352.416 3391
1515.53 352.416 3391
1517.35 350.961 3377
1525.42 350.961 3377
1533.5 350.961 3377
1541.57 350.961 3377
1549.65 350.961 3377
1523.59 343.271 3303
1531.49 343.271 3303
1521.68 339.321 3265
1480.3 328.409 3160
1465.25 323.421 3112
1461.81 321.03 3089
1469.2 321.03 3089
1449.82 315.21 3033
1444.1 312.404 3006
1430.53 307.935 2963
1437.61 307.935 2963
1422.27 303.155 2917
1426.3 302.531 2911
1423.42 300.453 2891
1430.33 300.453 2891
1437.24 300.453 2891
1441.66 299.933 2886
1446.05 299.413 2881
1447.9 298.374 2871
1454.76 298.374 2871
1459.08 297.855 2866
1463.89 297.439 2862
1470.73 297.439 2862
1477.58 297.439 2862
1476.64 295.88 2847
1483.45 295.88 2847
1487.64 295.36 2842
1491.81 294.841 2837
1498.59 294.841 2837
1505.38 294.841 2837
1512.16 294.841 2837
1516.27 294.321 2832
1523.04 294.321 2832
1527.65 293.905 2828
1534.41 293.905 2828
1538.45 293.386 2823
1545.2 293.386 2823
1549.2 292.866 2818
1555.94 292.866 2818
1565.45 293.386 2823
1572.2 293.386 2823
1578.96 293.386 2823
1585.71 293.386 2823
1592.46 293.386 2823
1599.21 293.386 2823
1605.96 293.386 2823
1612.71 293.386 2823
1619.46 293.386 2823
1626.21 293.386 2823
1635.85 293.905 2828
1642.62 293.905 2828
1649.38 293.905 2828
1658.48 294.321 2832
1665.26 294.321 2832
1672.03 294.321 2832
1681.76 294.841 2837
1691.52 295.36 2842
1698.32 295.36 2842
1705.12 295.36 2842
1711.91 295.36 2842
1718.71 295.36 2842
1725.5 295.36 2842
1732.3 295.36 2842
1732.98 294.321 2832
1737.29 293.905 2828
1740.97 293.386 2823
1747.72 293.386 2823
1751.36 292.866 2818
1754.98 292.346 2813
1761.71 292.346 2813
1768.44 292.346 2813
1769.48 291.411 2804
1776.19 291.411 2804
1779.72 290.891 2799
1786.41 290.891 2799
1789.9 290.372 2794
1794.01 289.956 2790
1797.45 289.436 2785
1800.87 288.917 2780
1807.52 288.917 2780
1811.56 288.501 2776
1814.92 287.981 2771
1818.92 287.566 2767
1825.54 287.566 2767
1828.84 287.046 2762
1835.45 287.046 2762
1842.05 287.046 2762
1848.66 287.046 2762
1855.26 287.046 2762
1861.87 287.046 2762
1868.47 287.046 2762
1875.08 287.046 2762
1881.68 287.046 2762
1888.29 287.046 2762
1891.46 286.526 2757
1895.3 286.111 2753
1901.88 286.111 2753
1908.47 286.111 2753
1915.05 286.111 2753
1918.14 285.591 2748
1924.71 285.591 2748
1931.28 285.591 2748
1941.38 286.111 2753
1947.97 286.111 2753
1960.94 287.046 2762
1967.54 287.046 2762
1974.15 287.046 2762
1980.75 287.046 2762
1987.36 287.046 2762
1990.35 286.526 2757
1996.95 286.526 2757
2003.54 286.526 2757
2010.13 286.526 2757
2016.72 286.526 2757
2020.38 286.111 2753
2037.27 287.566 2767
2043.89 287.566 2767
2050.51 287.566 2767
2057.12 287.566 2767
2056.28 286.526 2757
2059.88 286.111 2753
2066.46 286.111 2753
2069.28 285.591 2748
2055.46 282.785 2721
2061.96 282.785 2721
2082.15 284.656 2739
2088.7 284.656 2739
2095.25 284.656 2739
-2106.16 299.085 2813
-2106.9 300.148 2823
-2114.28 302.168 2842
-2107.49 302.168 2842
-2115.47 304.295 2862
-2122.63 306.315 2881
-2115.74 306.315 2881
-2108.85 306.315 2881
-2101.96 306.315 2881
-2084.16 304.72 2866
-2077.31 304.72 2866
-2063.95 303.763 2857
-2053.52 303.232 2852
-2039.53 302.168 2842
-2032.73 302.168 2842
-2022.37 301.637 2837
-2005.64 300.148 2823
-1995.35 299.617 2818
-1988.61 299.617 2818
-1978.35 299.085 2813
-1971.63 299.085 2813
-1971.89 300.148 2823
-1968.62 300.68 2828
-1961.85 300.68 2828
-1964.77 302.168 2842
-1961.42 302.7 2847
-1954.61 302.7 2847
-1947.8 302.7 2847
-1940.99 302.7 2847
-1930.79 302.168 2842
-1934.15 303.763 2857
-1927.32 303.763 2857
-1926.53 304.72 2866
-1923.03 305.252 2871
-1919.5 305.783 2876
-1912.62 305.783 2876
-1912.37 306.846 2886
-1921.98 309.505 2911
-1935.41 312.801 2942
-1928.37 312.801 2942
-1935.05 315.033 2963
-1927.97 315.033 2963
-1924.12 315.565 2968
-1917.03 315.565 2968
-1913.79 316.203 2974
-1906.68 316.203 2974
-1899.57 316.203 2974
-1888.64 315.565 2968
-1872.03 313.97 2953
-1871.28 315.033 2963
-1874.27 316.734 2979
-1867.14 316.734 2979
-1860.02 316.734 2979
-2144.36 378.189 3557
-2135.85 378.189 3557
-2127.34 378.189 3557
-2096.8 374.255 3520
-2088.38 374.255 3520
-2079.96 374.255 3520
-2071.55 374.255 3520
-2058.44 373.404 3512
-2050.04 373.404 3512
-2041.64 373.404 3512
-2033.24 373.404 3512
-2037.53 375.743 3534
-2029.08 375.743 3534
-2020.63 375.743 3534
-2012.18 375.743 3534
-2003.73 375.743 3534
-1995.28 375.743 3534
-1982.89 374.999 3527
-1974.46 374.999 3527
-1966.02 374.999 3527
-1957.59 374.999 3527
-1949.15 374.999 3527
-1948.97 376.594 3542
-1944.34 377.338 3549
-1940.21 378.189 3557
-1931.71 378.189 3557
-1931.31 379.784 3572
-1927.08 380.634 3580
-1922.8 381.485 3588
-1914.22 381.485 3588
-1909.36 382.229 3595
-1900.77 382.229 3595
-1892.17 382.229 3595
-1883.57 382.229 3595
-1887.49 384.781 3619
-1882.99 385.631 3627
-1890.34 388.927 3658
-1881.59 388.927 3658
-1885.64 391.585 3683
-1884.99 393.287 3699
-1880.2 394.137 3707
-1871.34 394.137 3707
-1875.03 396.795 3732
-1870.11 397.646 3740
-1869.62 399.453 3757
-1860.64 399.453 3757
-1868.91 403.175 3792
-1889.76 409.66 3853
-1898.11 413.488 3889
-1888.81 413.488 3889
-1879.51 413.488 3889
-1870.21 413.488 3889
-1873.83 416.359 3916
-1864.47 416.359 3916
-1877.37 421.356 3963
-1867.89 421.356 3963
-1858.42 421.356 3963
-1848.94 421.356 3963
-1817.65 416.359 3916
-1799.97 414.445 3898
-1794.79 415.402 3907
-1785.44 415.402 3907
-1797.01 420.293 3953
-1796.15 422.313 3972
-1786.65 422.313 3972
-1777.15 422.313 3972
-1767.66 422.313 3972
-1745.76 419.336 3944
-1736.33 419.336 3944
-1687.06 409.66 3853
-1628.63 397.646 3740
-1577.25 387.226 3642
-1548.3 382.229 3595
-1539.7 382.229 3595
-1521.31 379.784 3572
-1496.67 375.743 3534
-1476.01 372.66 3505
-1467.63 372.66 3505
-1435.1 366.493 3447
-1415.27 363.516 3419
-1398.45 361.284 3398
-1390.32 361.284 3398
-1370.81 358.307 3370
-1357.49 356.924 3357
-1351.88 357.562 3363
-1343.84 357.562 3363
-1335.79 357.562 3363
-1322.62 356.18 3350
-1304.01 353.309 3323
-1283.2 349.801 3290
-1275.33 349.801 3290
-1257.83 347.143 3265
-1235.47 343.102 3227
-1213.68 339.169 3190
-1206.05 339.169 3190
-1187.15 335.979 3160
-1175.12 334.703 3148
-1158.69 332.151 3124
-1151.22 332.151 3124
-1116.65 324.283 3050
-1107.18 323.645 3044
-1102.07 324.283 3050
-1102.67 326.622 3072
-1099.6 327.898 3084
-1092.23 327.898 3084
-1084.85 327.898 3084
-1075.38 327.26 3078
-1068.02 327.26 3078
-1052.74 324.815 3055
-1036.19 321.944 3028
-1023.17 320.137 3011
-1015.97 320.137 3011
-1003.41 318.436 2995
-989.265 316.203 2974
-982.153 316.203 2974
-975.041 316.203 2974
-959.142 313.332 2947
-891.987 314.502 2958
-887.906 315.565 2968
-880.808 315.565 2968
-878.421 317.266 2984
-871.285 317.266 2984
-864.149 317.266 2984
-857.014 317.266 2984
-848.454 316.734 2979
-841.33 316.734 2979
-834.207 316.734 2979
-821.253 314.502 2958
-812.803 313.97 2953
-802.74 312.801 2942
-794.352 312.269 2937
-787.329 312.269 2937
-778.978 311.737 2932
-773.283 312.269 2937
-766.259 312.269 2937
-759.236 312.269 2937
-752.213 312.269 2937
-742.652 311.206 2927
-734.396 310.674 2922
-727.409 310.674 2922
-720.422 310.674 2922
-710.749 309.505 2911
-702.579 308.973 2906
-695.629 308.973 2906
-686.31 307.91 2896
-677.039 306.846 2886
-670.138 306.846 2886
-663.237 306.846 2886
-656.335 306.846 2886
-652.81 308.441 2901
-646.986 308.973 2906
-641.138 309.505 2911
-634.177 309.505 2911
-628.508 310.142 2917
-623.664 311.206 2927
-616.664 311.206 2927
-609.665 311.206 2927
-612.343 316.203 2974
-608.487 317.904 2990
-605.561 320.137 3011
-598.36 320.137 3011
-598.817 324.283 3050
-600.251 329.068 3095
-597.256 331.513 3118
-589.8 331.513 3118
-589.067 335.341 3154
-584.844 337.255 3172
-592.909 346.398 3258
-585.119 346.398 3258
-584.239 350.545 3297
-576.354 350.545 3297
-568.47 350.545 3297
-552.935 345.76 3252
-551.529 349.801 3290
-543.661 349.801 3290
-535.794 349.801 3290
-526.964 349.163 3284
-575.701 387.226 3642
-570.884 389.884 3667
-564.567 391.585 3683
-555.76 391.585 3683
-549.329 393.287 3699
-548.958 399.453 3757
-547.448 404.982 3809
-538.339 404.982 3809
-532.844 407.746 3835
-535.962 417.315 3925
-526.577 417.315 3925
-524.701 423.376 3982
-520.096 427.416 4020
-511.752 428.479 4030
-502.116 428.479 4030
-492.479 428.479 4030
-482.842 428.479 4030
-469.799 425.396 4001
-460.232 425.396 4001
-449.538 424.333 3991
-439.002 423.376 3982
-428.401 422.313 3972
-418.903 422.313 3972
-408.477 421.356 3963
-396.181 418.379 3935
-385.789 417.315 3925
-376.403 417.315 3925
-365.334 415.402 3907
-354.351 413.488 3889
-345.051 413.488 3889
-335.751 413.488 3889
-326.451 413.488 3889
-317.152 413.488 3889
-307.139 412.531 3880
-297.861 412.531 3880
-287.244 410.617 3862
-276.065 407.746 3835
-267.521 408.703 3844
-258.329 408.703 3844
-249.137 408.703 3844
-239.383 407.746 3835
-230.212 407.746 3835
-125.363 231.251 2175
-120.161 231.251 2175
-114.96 231.251 2175
-109.759 231.251 2175
-104.558 231.251 2175
-99.3571 231.251 2175
-94.0261 230.932 2172
-88.8322 230.932 2172
-83.6383 230.932 2172
-78.4444 230.932 2172
-73.2505 230.932 2172
-68.0566 230.932 2172
-62.7758 230.613 2169
-57.5891 230.613 2169
-52.4024 230.613 2169
-47.2809 230.932 2172
-42.1452 231.251 2175
-36.995 231.57 2178
-31.7868 231.57 2178
-26.6151 231.889 2181
-21.3997 231.889 2181
-16.1843 231.889 2181
-10.9688 231.889 2181
-5.76131 232.208 2184
-0.539202 232.421 2186
4.68819 232.421 2186
9.91558 232.421 2186
15.1637 232.74 2189
20.4542 233.378 2195
25.7031 233.378 2195
30.9943 233.697 2198
36.2504 233.697 2198
41.5065 233.697 2198
46.7626 233.697 2198
52.0187 233.697 2198
57.1966 233.378 2195
62.3602 233.059 2192
67.6019 233.059 2192
72.8436 233.059 2192
77.8716 232.421 2186
83.023 232.208 2184
88.1244 231.889 2181
93.3398 231.889 2181
98.4197 231.57 2178
103.2 230.613 2169
108.386 230.613 2169
113.573 230.613 2169
118.486 230.082 2164
123.661 230.082 2164
128.657 229.763 2161
133.825 229.763 2161
138.992 229.763 2161
143.96 229.444 2158
148.913 229.125 2155
154.066 229.125 2155
159.219 229.125 2155
164.373 229.125 2155
169.762 229.444 2158
174.922 229.444 2158
180.083 229.444 2158
185.243 229.444 2158
190.404 229.444 2158
195.564 229.444 2158
200.725 229.444 2158
205.599 229.125 2155
210.752 229.125 2155
216.206 229.444 2158
221.366 229.444 2158
226.527 229.444 2158
231.687 229.444 2158
236.848 229.444 2158
242.008 229.444 2158
247.168 229.444 2158
251.978 229.125 2155
257.131 229.125 2155
262.285 229.125 2155
267.19 228.912 2153
272.338 228.912 2153
277.744 229.125 2155
282.898 229.125 2155
288.853 229.763 2161
294.021 229.763 2161
299.188 229.763 2161
301.961 227.955 2144
441.726 327.898 3084
449.101 327.898 3084
456.476 327.898 3084
458.737 324.283 3050
466.03 324.283 3050
473.324 324.283 3050
474.471 320.137 3011
479.912 318.967 3000
483.676 316.734 2979
490.8 316.734 2979
496.085 315.565 2968
501.487 314.502 2958
508.561 314.502 2958
515.634 314.502 2958
522.708 314.502 2958
529.781 314.502 2958
536.854 314.502 2958
543.928 314.502 2958
551.001 314.502 2958
558.075 314.502 2958
563.047 313.332 2947
568.159 312.269 2937
575.183 312.269 2937
582.206 312.269 2937
588.226 311.737 2932
595.237 311.737 2932
602.249 311.737 2932
609.26 311.737 2932
616.271 311.737 2932
622.22 311.206 2927
629.219 311.206 2927
636.218 311.206 2927
643.218 311.206 2927
650.217 311.206 2927
657.216 311.206 2927
664.216 311.206 2927
670.068 310.674 2922
677.056 310.674 2922
684.043 310.674 2922
691.031 310.674 2922
698.018 310.674 2922
705.005 310.674 2922
711.993 310.674 2922
718.98 310.674 2922
725.968 310.674 2922
732.955 310.674 2922
739.942 310.674 2922
746.93 310.674 2922
753.917 310.674 2922
760.904 310.674 2922
766.578 310.142 2917
773.553 310.142 2917
780.529 310.142 2917
788.854 310.674 2922
795.841 310.674 2922
802.829 310.674 2922
808.43 310.142 2917
815.406 310.142 2917
822.381 310.142 2917
827.651 309.505 2911
834.612 309.505 2911
838.682 308.441 2901
844.162 307.91 2896
851.087 307.91 2896
858.012 307.91 2896
864.937 307.91 2896
871.863 307.91 2896
878.788 307.91 2896
885.713 307.91 2896
892.638 307.91 2896
902.67 308.973 2906
911.184 309.505 2911
939.593 316.734 2979
946.716 316.734 2979
960.564 318.967 3000
967.738 318.967 3000
974.912 318.967 3000
1228.45 382.229 3595
1239.8 383.08 3603
1248.41 383.08 3603
1259.82 383.93 3611
1268.45 383.93 3611
1282.75 385.631 3627
1291.42 385.631 3627
1308.34 388.077 3650
1317.07 388.077 3650
1334.88 390.735 3675
1343.66 390.735 3675
1358.34 392.436 3691
1370.13 393.287 3699
1378.97 393.287 3699
1387.82 393.287 3699
1390.62 391.585 3683
1389.93 388.927 3658
1398.68 388.927 3658
1398.58 386.482 3635
1404.17 385.631 3627
1406.61 383.93 3611
1415.25 383.93 3611
1420.73 383.08 3603
1417.05 379.784 3572
1422.79 379.039 3565
1407.23 372.66 3505
1415.61 372.66 3505
1412.21 369.577 3476
1397.23 363.516 3419
1391.02 359.795 3384
1399.11 359.795 3384
1398.47 357.562 3363
1392.71 354.054 3330
1389.32 351.183 3303
1389.18 349.163 3284
1405.11 351.183 3303
1413.01 351.183 3303
1429.51 353.309 3323
1443.52 354.798 3337
1460.2 356.924 3357
1468.22 356.924 3357
1481.97 358.307 3370
1496.22 359.795 3384
1504.31 359.795 3384
1512.4 359.795 3384
1514.2 358.307 3370
1522.26 358.307 3370
1533.5 359.051 3377
1541.57 359.051 3377
1549.65 359.051 3377
1520.82 350.545 3297
1528.71 350.545 3297
1530.53 349.163 3284
1485.92 337.255 3172
1473.73 332.789 3130
1464.65 329.068 3095
1472.05 329.068 3095
1449.82 322.476 3033
1438.81 318.436 2995
1425.7 313.97 2953
1412.38 309.505 2911
1419.34 309.505 2911
1421.4 308.441 2901
1420.96 306.846 2886
1425.38 306.315 2881
1432.27 306.315 2881
1436.66 305.783 2876
1441.03 305.252 2871
1445.38 304.72 2866
1452.23 304.72 2866
1457.05 304.295 2862
1463.89 304.295 2862
1468.17 303.763 2857
1475 303.763 2857
1476.64 302.7 2847
1480.85 302.168 2842
1487.64 302.168 2842
1491.81 301.637 2837
1498.59 301.637 2837
1505.38 301.637 2837
1509.5 301.105 2832
1516.27 301.105 2832
1523.04 301.105 2832
1527.65 300.68 2828
1531.7 300.148 2823
1535.73 299.617 2818
1542.47 299.617 2818
1549.2 299.617 2818
1555.94 299.617 2818
1562.68 299.617 2818
1572.2 300.148 2823
1578.96 300.148 2823
1585.71 300.148 2823
1592.46 300.148 2823
1599.21 300.148 2823
1605.96 300.148 2823
1612.71 300.148 2823
1619.46 300.148 2823
1626.21 300.148 2823
1632.96 300.148 2823
1639.71 300.148 2823
1649.38 300.68 2828
1656.14 300.68 2828
1665.26 301.105 2832
1672.03 301.105 2832
1681.76 301.637 2837
1691.52 302.168 2842
1698.32 302.168 2842
1705.12 302.168 2842
1711.91 302.168 2842
1718.71 302.168 2842
1725.5 302.168 2842
1732.3 302.168 2842
1732.98 301.105 2832
1737.29 300.68 2828
1740.97 300.148 2823
1747.72 300.148 2823
1751.36 299.617 2818
1754.98 299.085 2813
1761.71 299.085 2813
1768.44 299.085 2813
1772.64 298.66 2809
1776.19 298.128 2804
1779.72 297.596 2799
1786.41 297.596 2799
1789.9 297.065 2794
1794.01 296.64 2790
1797.45 296.108 2785
1800.87 295.576 2780
1807.52 295.576 2780
1811.56 295.151 2776
1814.92 294.619 2771
1818.92 294.194 2767
1825.54 294.194 2767
1832.15 294.194 2767
1838.77 294.194 2767
1845.39 294.194 2767
1852 294.194 2767
1855.26 293.663 2762
1861.87 293.663 2762
1871.85 294.194 2767
1878.47 294.194 2767
1885.09 294.194 2767
1888.29 293.663 2762
1891.46 293.131 2757
1898.05 293.131 2757
1904.65 293.131 2757
1908.47 292.706 2753
1915.05 292.706 2753
1924.42 293.131 2757
1931.02 293.131 2757
1937.61 293.131 2757
1944.2 293.131 2757
1950.8 293.131 2757
1960.94 293.663 2762
1967.54 293.663 2762
1974.15 293.663 2762
1980.75 293.663 2762
1987.36 293.663 2762
1990.35 293.131 2757
1996.95 293.131 2757
2000.63 292.706 2753
2007.21 292.706 2753
2013.8 292.706 2753
2020.38 292.706 2753
2029.91 293.131 2757
2036.5 293.131 2757
2043.09 293.131 2757
2049.69 293.131 2757
2053.3 292.706 2753
2056.14 292.174 2748
2062.71 292.174 2748
2066.27 291.749 2744
2045.64 287.921 2708
2079.39 291.749 2744
2095.84 293.131 2757
2102.43 293.131 2757
2109.02 293.131 2757
-2103.17 305.389 2809
-2103.17 306.367 2818
-2114.28 308.976 2842
-2107.49 308.976 2842
-2111.78 310.607 2857
-2115.26 312.129 2871
-2108.4 312.129 2871
-2101.53 312.129 2871
-2094.66 312.129 2871
-2084.16 311.586 2866
-2077.31 311.586 2866
-2063.95 310.607 2857
-2053.52 310.064 2852
-2039.53 308.976 2842
-2032.73 308.976 2842
-2022.37 308.433 2837
-2005.64 306.911 2823
-1995.35 306.367 2818
-1988.61 306.367 2818
-1978.35 305.824 2813
-1971.63 305.824 2813
-1971.89 306.911 2823
-1968.62 307.454 2828
-1961.85 307.454 2828
-1964.77 308.976 2842
-1961.42 309.52 2847
-1954.61 309.52 2847
-1947.8 309.52 2847
-1940.99 309.52 2847
-1930.79 308.976 2842
-1934.15 310.607 2857
-1927.32 310.607 2857
-1926.53 311.586 2866
-1923.03 312.129 2871
-1919.5 312.673 2876
-1912.62 312.673 2876
-1909.06 313.216 2881
-1921.98 316.478 2911
-1935.41 319.848 2942
-1928.37 319.848 2942
-1935.05 322.131 2963
-1927.97 322.131 2963
-1924.12 322.675 2968
-1917.03 322.675 2968
-1913.79 323.327 2974
-1906.68 323.327 2974
-1899.57 323.327 2974
-1882.27 321.588 2958
-1872.03 321.044 2953
-1868.13 321.588 2958
-1874.27 323.871 2979
-1867.14 323.871 2979
-1860.02 323.871 2979
-2108.18 380.187 3497
-2099.82 380.187 3497
-2091.46 380.187 3497
-2074.76 378.665 3483
-2074.73 380.187 3497
-2066.37 380.187 3497
-2058.01 380.187 3497
-2049.65 380.187 3497
-2041.29 380.187 3497
-2032.92 380.187 3497
-2020.51 379.426 3490
-2020.81 381.056 3505
-2016.45 381.817 3512
-2008.05 381.817 3512
-2004.21 382.687 3520
-1995.79 382.687 3520
-1987.37 382.687 3520
-1974.46 381.817 3512
-1966.06 381.817 3512
-1962.12 382.687 3520
-1953.7 382.687 3520
-1945.28 382.687 3520
-1940.72 383.448 3527
-1940.5 385.079 3542
-1940.21 386.71 3557
-1931.71 386.71 3557
-1927.53 387.579 3565
-1922.77 388.34 3572
-1922.8 390.08 3588
-1914.22 390.08 3588
-1909.36 390.841 3595
-1900.77 390.841 3595
-1892.17 390.841 3595
-1883.57 390.841 3595
-1887.49 393.45 3619
-1882.99 394.32 3627
-1890.34 397.69 3658
-1881.59 397.69 3658
-1885.64 400.408 3683
-1884.99 402.148 3699
-1880.2 403.017 3707
-1871.34 403.017 3707
-1875.03 405.735 3732
-1866.11 405.735 3732
-1861.17 406.605 3740
-1852.22 406.605 3740
-1856.09 409.432 3766
-1859.84 412.258 3792
-1863.46 415.085 3818
-1854.33 415.085 3818
-1845.2 415.085 3818
-1836.07 415.085 3818
-1839.38 417.912 3844
-1830.19 417.912 3844
-1855.11 425.739 3916
-1845.74 425.739 3916
-1836.38 425.739 3916
-1827.01 425.739 3916
-1800.94 421.826 3880
-1775.04 417.912 3844
-1765.84 417.912 3844
-1756.65 417.912 3844
-1755.64 419.869 3862
-1779.42 427.805 3935
-1770.01 427.805 3935
-1760.6 427.805 3935
-1746.74 426.718 3925
-1737.35 426.718 3925
-1727.97 426.718 3925
-1687.06 418.89 3853
-1621.67 404.866 3724
-1577.25 395.951 3642
-1548.3 390.841 3595
-1539.7 390.841 3595
-1521.31 388.34 3572
-1496.67 384.209 3534
-1476.01 381.056 3505
-1467.63 381.056 3505
-1435.1 374.751 3447
-1415.27 371.707 3419
-1398.45 369.424 3398
-1390.32 369.424 3398
-1370.81 366.379 3370
-1357.49 364.966 3357
-1349.47 364.966 3357
-1341.44 364.966 3357
-1333.41 364.966 3357
-1322.62 364.205 3350
-1304.01 361.27 3323
-1283.2 357.682 3290
-1275.33 357.682 3290
-1257.83 354.964 3265
-1235.47 350.833 3227
-1213.68 346.81 3190
-1206.05 346.81 3190
-1187.15 343.549 3160
-1175.12 342.244 3148
-1158.69 339.635 3124
-1151.22 339.635 3124
-1116.65 331.59 3050
-1107.18 330.937 3044
-1102.07 331.59 3050
-1102.67 333.981 3072
-1099.6 335.286 3084
-1092.23 335.286 3084
-1084.85 335.286 3084
-1075.38 334.634 3078
-1068.02 334.634 3078
-1052.74 332.133 3055
-1036.19 329.198 3028
-1023.17 327.35 3011
-1015.97 327.35 3011
-1003.41 325.61 2995
-989.265 323.327 2974
-982.153 323.327 2974
-975.041 323.327 2974
-959.142 320.392 2947
-891.987 321.588 2958
-887.906 322.675 2968
-880.808 322.675 2968
-875.477 323.327 2974
-871.285 324.414 2984
-864.149 324.414 2984
-857.014 324.414 2984
-848.454 323.871 2979
-841.33 323.871 2979
-834.207 323.871 2979
-819.865 321.044 2953
-812.803 321.044 2953
-802.74 319.848 2942
-794.352 319.305 2937
-787.329 319.305 2937
-778.978 318.761 2932
-773.283 319.305 2937
-766.259 319.305 2937
-759.236 319.305 2937
-752.213 319.305 2937
-742.652 318.217 2927
-734.396 317.674 2922
-727.409 317.674 2922
-720.422 317.674 2922
-710.749 316.478 2911
-702.579 315.934 2906
-695.629 315.934 2906
-686.31 314.847 2896
-677.039 313.76 2886
-670.138 313.76 2886
-663.237 313.76 2886
-656.335 313.76 2886
-652.81 315.391 2901
-646.986 315.934 2906
-641.138 316.478 2911
-634.177 316.478 2911
-628.508 317.13 2917
-623.664 318.217 2927
-616.664 318.217 2927
-609.665 318.217 2927
-612.343 323.327 2974
-608.487 325.067 2990
-605.561 327.35 3011
-598.36 327.35 3011
-594.498 329.198 3028
-596.954 334.634 3078
-597.256 338.982 3118
-589.8 338.982 3118
-583.464 339.635 3124
-582.631 343.549 3160
-583.81 348.767 3208
-576.139 348.767 3208
-568.468 348.767 3208
-565.167 351.485 3233
-560.711 353.551 3252
-552.935 353.551 3252
-551.529 357.682 3290
-543.661 357.682 3290
-535.794 357.682 3290
-526.964 357.03 3284
-566.992 395.951 3642
-564.567 400.408 3683
-555.76 400.408 3683
-549.329 402.148 3699
-548.958 408.453 3757
-547.448 414.107 3809
-538.339 414.107 3809
-532.844 416.933 3835
-535.962 426.718 3925
-526.577 426.718 3925
-524.701 432.915 3982
-520.096 437.046 4020
-511.752 438.133 4030
-502.116 438.133 4030
-492.479 438.133 4030
-482.842 438.133 4030
-469.799 434.98 4001
-460.232 434.98 4001
-449.538 433.893 3991
-439.002 432.915 3982
-428.401 431.828 3972
-418.903 431.828 3972
-408.477 430.849 3963
-396.181 427.805 3935
-385.789 426.718 3925
-376.403 426.718 3925
-365.334 424.761 3907
-354.351 422.804 3889
-345.051 422.804 3889
-335.751 422.804 3889
-326.451 422.804 3889
-317.152 422.804 3889
-307.139 421.826 3880
-297.861 421.826 3880
-287.244 419.869 3862
-275.418 415.955 3826
-267.521 417.912 3844
-258.329 417.912 3844
-249.137 417.912 3844
-239.383 416.933 3835
-230.212 416.933 3835
-219.543 414.107 3809
-210.434 414.107 3809
-115.277 237.114 2181
-109.911 236.788 2178
-104.702 236.788 2178
-99.4941 236.788 2178
-94.2859 236.788 2178
-88.9549 236.461 2175
-83.7538 236.461 2175
-78.5527 236.461 2175
-73.3517 236.461 2175
-68.1506 236.461 2175
-62.8627 236.135 2172
-57.6688 236.135 2172
-52.4749 236.135 2172
-47.3462 236.461 2175
-42.2033 236.788 2178
-37.046 237.114 2181
-31.8306 237.114 2181
-26.6517 237.44 2184
-21.4291 237.44 2184
-16.2065 237.44 2184
-10.9839 237.44 2184
-5.7745 237.984 2189
-0.539942 237.984 2189
4.69462 237.984 2189
9.92918 237.984 2189
15.2053 238.636 2195
20.4542 238.636 2195
25.7734 239.288 2201
31.079 239.614 2204
36.3494 239.614 2204
41.6198 239.614 2204
46.8902 239.614 2204
52.1607 239.614 2204
57.3529 239.288 2201
62.4455 238.636 2195
67.6019 238.31 2192
72.8436 238.31 2192
78.0854 238.31 2192
83.2131 237.984 2189
88.2456 237.44 2184
93.4682 237.44 2184
98.6908 237.44 2184
103.628 236.788 2178
108.686 236.461 2175
113.887 236.461 2175
118.924 236.135 2172
124.29 236.461 2175
129.491 236.461 2175
134.692 236.461 2175
139.507 235.809 2169
144.694 235.809 2169
149.742 235.592 2167
154.924 235.592 2167
160.106 235.592 2167
165.288 235.592 2167
170.47 235.592 2167
175.652 235.592 2167
180.834 235.592 2167
186.016 235.592 2167
191.198 235.592 2167
196.108 235.266 2164
201.283 235.266 2164
205.885 234.613 2158
211.045 234.613 2158
216.807 235.266 2164
221.982 235.266 2164
227.157 235.266 2164
232.331 235.266 2164
237.506 235.266 2164
242.681 235.266 2164
247.856 235.266 2164
252.68 234.939 2161
257.489 234.613 2158
262.65 234.613 2158
267.438 234.287 2155
272.338 234.07 2153
277.744 234.287 2155
283.685 234.939 2161
288.853 234.939 2161
294.021 234.939 2161
299.188 234.939 2161
301.961 233.091 2144
441.726 335.286 3084
449.101 335.286 3084
456.476 335.286 3084
458.737 331.59 3050
466.03 331.59 3050
473.324 331.59 3050
474.471 327.35 3011
479.912 326.154 3000
483.676 323.871 2979
490.8 323.871 2979
496.085 322.675 2968
501.487 321.588 2958
508.561 321.588 2958
516.506 322.131 2963
523.591 322.131 2963
530.676 322.131 2963
536.854 321.588 2958
543.928 321.588 2958
551.001 321.588 2958
558.075 321.588 2958
563.047 320.392 2947
568.159 319.305 2937
575.183 319.305 2937
582.206 319.305 2937
588.226 318.761 2932
595.237 318.761 2932
602.249 318.761 2932
609.26 318.761 2932
616.271 318.761 2932
622.22 318.217 2927
629.219 318.217 2927
636.218 318.217 2927
643.218 318.217 2927
650.217 318.217 2927
657.216 318.217 2927
664.216 318.217 2927
670.068 317.674 2922
677.056 317.674 2922
684.043 317.674 2922
691.031 317.674 2922
698.018 317.674 2922
705.005 317.674 2922
711.993 317.674 2922
718.98 317.674 2922
725.968 317.674 2922
732.955 317.674 2922
739.942 317.674 2922
746.93 317.674 2922
753.917 317.674 2922
760.904 317.674 2922
766.578 317.13 2917
773.553 317.13 2917
780.529 317.13 2917
788.854 317.674 2922
795.841 317.674 2922
802.829 317.674 2922
808.43 317.13 2917
815.406 317.13 2917
822.381 317.13 2917
827.651 316.478 2911
834.612 316.478 2911
838.682 315.391 2901
844.162 314.847 2896
851.087 314.847 2896
858.012 314.847 2896
864.937 314.847 2896
871.863 314.847 2896
878.788 314.847 2896
885.713 314.847 2896
892.638 314.847 2896
902.67 315.934 2906
913.062 317.13 2917
946.216 326.154 3000
953.39 326.154 3000
971.13 329.741 3033
978.383 329.741 3033
985.636 329.741 3033
992.889 329.741 3033
1228.45 390.841 3595
1239.8 391.711 3603
1248.41 391.711 3603
1259.82 392.58 3611
1268.45 392.58 3611
1282.75 394.32 3627
1291.42 394.32 3627
1308.34 396.82 3650
1317.07 396.82 3650
1334.88 399.538 3675
1343.66 399.538 3675
1358.34 401.278 3691
1370.13 402.148 3699
1378.97 402.148 3699
1387.82 402.148 3699
1390.62 400.408 3683
1396.39 399.538 3675
1405.18 399.538 3675
1404.35 396.82 3650
1404.17 394.32 3627
1406.61 392.58 3611
1415.25 392.58 3611
1420.73 391.711 3603
1417.05 388.34 3572
1422.79 387.579 3565
1407.23 381.056 3505
1415.61 381.056 3505
1412.21 377.904 3476
1397.23 371.707 3419
1391.02 367.901 3384
1399.11 367.901 3384
1398.47 365.618 3363
1392.71 362.031 3330
1389.32 359.095 3303
1389.18 357.03 3284
1405.11 359.095 3303
1413.01 359.095 3303
1429.51 361.27 3323
1443.52 362.792 3337
1460.2 364.966 3357
1468.22 364.966 3357
1481.97 366.379 3370
1496.22 367.901 3384
1504.31 367.901 3384
1512.4 367.901 3384
1514.2 366.379 3370
1522.26 366.379 3370
1533.5 367.14 3377
1541.57 367.14 3377
1549.65 367.14 3377
1520.82 358.443 3297
1528.71 358.443 3297
1533.33 357.682 3290
1491.54 346.158 3184
1482.2 342.244 3148
1472.7 338.33 3112
1480.14 338.33 3112
1449.82 329.741 3033
1438.81 325.61 2995
1425.7 321.044 2953
1412.38 316.478 2911
1419.34 316.478 2911
1421.4 315.391 2901
1420.96 313.76 2886
1425.38 313.216 2881
1432.27 313.216 2881
1436.66 312.673 2876
1441.03 312.129 2871
1445.38 311.586 2866
1452.23 311.586 2866
1457.05 311.151 2862
1463.89 311.151 2862
1468.17 310.607 2857
1475 310.607 2857
1476.64 309.52 2847
1480.85 308.976 2842
1487.64 308.976 2842
1491.81 308.433 2837
1498.59 308.433 2837
1505.38 308.433 2837
1509.5 307.889 2832
1516.27 307.889 2832
1523.04 307.889 2832
1527.65 307.454 2828
1531.7 306.911 2823
1535.73 306.367 2818
1542.47 306.367 2818
1549.2 306.367 2818
1555.94 306.367 2818
1562.68 306.367 2818
1572.2 306.911 2823
1578.96 306.911 2823
1585.71 306.911 2823
1592.46 306.911 2823
1599.21 306.911 2823
1605.96 306.911 2823
1612.71 306.911 2823
1619.46 306.911 2823
1626.21 306.911 2823
