1331.12 1145.54 2273
1336.56 1145.54 2273
1338.45 1142.52 2267
1343.87 1142.52 2267
1349.29 1142.52 2267
1354.71 1142.52 2267
1360.13 1142.52 2267
1365.55 1142.52 2267
1370.98 1142.52 2267
1372.75 1139.49 2261
1378.16 1139.49 2261
1385.4 1141 2264
1390.82 1141 2264
1396.23 1141 2264
1407.22 1145.54 2273
1412.65 1145.54 2273
1418.09 1145.54 2273
1419.76 1142.52 2267
1430.84 1147.05 2276
1438.18 1148.56 2279
1461.37 1162.67 2307
1466.88 1162.67 2307
1472.4 1162.67 2307
1477.92 1162.67 2307
1489.86 1167.71 2317
1495.4 1167.71 2317
1509.37 1174.27 2330
1516.89 1175.78 2333
1525.08 1177.79 2337
1530.67 1177.79 2337
1536.25 1177.79 2337
1535.25 1172.75 2327
1540.81 1172.75 2327
1546.37 1172.75 2327
1547.27 1169.23 2320
1550.81 1167.71 2317
1552.32 1164.69 2311
1557.85 1164.69 2311
1552.55 1156.63 2295
1560.07 1158.14 2298
1565.57 1158.14 2298
1571.06 1158.14 2298
1574.5 1156.63 2295
1579.99 1156.63 2295
1583.41 1155.11 2292
1588.89 1155.11 2292
1591.58 1153.1 2288
1597.06 1153.1 2288
1602.53 1153.1 2288
1608 1153.1 2288
1613.47 1153.1 2288
1618.94 1153.1 2288
1627.25 1155.11 2292
1632.73 1155.11 2292
1640.36 1156.63 2295
1645.85 1156.63 2295
1659.97 1162.67 2307
1668.37 1164.69 2311
1673.9 1164.69 2311
1679.43 1164.69 2311
1684.95 1164.69 2311
1690.48 1164.69 2311
1696 1164.69 2311
1698.59 1162.67 2307
1697.45 1158.14 2298
-1521.71 1106.93 2186
-1535.21 1120.6 2213
-1529.92 1120.6 2213
-1524.63 1120.6 2213
-1531.01 1129.21 2230
-1548.94 1146.43 2264
-1543.52 1146.43 2264
-1540.15 1147.95 2267
-1534.73 1147.95 2267
-1529.3 1147.95 2267
-1523.88 1147.95 2267
-1505.74 1138.33 2248
-1490.35 1130.73 2233
-1483.01 1129.21 2230
-1477.68 1129.21 2230
-1466.41 1124.65 2221
-1461.1 1124.65 2221
-1459.72 1127.69 2227
-1454.39 1127.69 2227
-1449.07 1127.69 2227
-1435.96 1121.61 2215
-1430.67 1121.61 2215
-1425.37 1121.61 2215
-1418.79 1120.6 2213
-1403.92 1113.01 2198
-1398.66 1113.01 2198
-1393.4 1113.01 2198
-1386.25 1111.49 2195
-1375.34 1106.93 2186
-1365.1 1102.88 2178
-1359.89 1102.88 2178
-1349.09 1098.32 2169
-1338.94 1094.27 2161
-1326.99 1088.7 2150
-1321.84 1088.7 2150
-1314.87 1087.18 2147
-1307.9 1085.66 2144
-1299.74 1083.13 2139
-1299.46 1087.18 2147
-1294.33 1087.18 2147
-1289.2 1087.18 2147
-1284.06 1087.18 2147
-1278.93 1087.18 2147
-1273.79 1087.18 2147
-1281.66 1098.32 2169
-1281.77 1102.88 2178
-1280.08 1105.92 2184
-1274.85 1105.92 2184
-1270.79 1106.93 2186
-1274.25 1114.53 2201
-1274.18 1119.08 2210
-1268.89 1119.08 2210
-1275.04 1129.21 2230
-1278.25 1136.81 2245
-1283.66 1146.43 2264
-1278.24 1146.43 2264
-1272.83 1146.43 2264
-1267.41 1146.43 2264
-1262 1146.43 2264
-1256.59 1146.43 2264
-1252.83 1147.95 2267
-1250.71 1150.98 2273
-1245.27 1150.98 2273
-1239.84 1150.98 2273
-1234.4 1150.98 2273
-1210.59 1133.77 2239
-1205.23 1133.77 2239
-1185.94 1120.6 2213
-1175.85 1116.04 2204
-1167.39 1113.01 2198
-1158.96 1109.97 2192
-1153.72 1109.97 2192
-1148.48 1109.97 2192
-1139.07 1105.92 2184
-1133.84 1105.92 2184
-1128.62 1105.92 2184
-1120.31 1102.88 2178
-1115.1 1102.88 2178
-1111.43 1104.4 2181
-1108.75 1106.93 2186
-1103.52 1106.93 2186
-1098.29 1106.93 2186
-1093.06 1106.93 2186
-1087.84 1106.93 2186
-1081.62 1105.92 2184
-1074.92 1104.4 2181
-1071.17 1105.92 2184
-1065.95 1105.92 2184
-1060.73 1105.92 2184
-1056.47 1106.93 2186
-1051.24 1106.93 2186
-1051.76 1113.01 2198
-1046.5 1113.01 2198
-1041.25 1113.01 2198
-1035.99 1113.01 2198
-1030.73 1113.01 2198
-1025.48 1113.01 2198
-1018.83 1111.49 2195
-1013.58 1111.49 2195
-1008.33 1111.49 2195
-1003.08 1111.49 2195
-996.471 1109.97 2192
-991.229 1109.97 2192
-987.337 1111.49 2195
-982.088 1111.49 2195
-976.839 1111.49 2195
-971.59 1111.49 2195
-966.341 1111.49 2195
-961.092 1111.49 2195
-955.843 1111.49 2195
-955.791 1117.56 2207
-950.513 1117.56 2207
-945.236 1117.56 2207
-938.681 1116.04 2204
-932.14 1114.53 2201
-926.876 1114.53 2201
-917.845 1109.97 2192
-912.603 1109.97 2192
-908.603 1111.49 2195
-907.058 1116.04 2204
-901.788 1116.04 2204
-897.737 1117.56 2207
-892.46 1117.56 2207
-887.182 1117.56 2207
-881.905 1117.56 2207
-874.244 1114.53 2201
-866.612 1111.49 2195
-864.894 1116.04 2204
-860.794 1117.56 2207
-855.517 1117.56 2207
-850.239 1117.56 2207
-849.173 1123.13 2218
-843.869 1123.13 2218
-838.565 1123.13 2218
-833.261 1123.13 2218
-831.317 1127.69 2227
-827.104 1129.21 2230
-821.771 1129.21 2230
-816.439 1129.21 2230
-805.65 1121.61 2215
-800.354 1121.61 2215
-795.057 1121.61 2215
-784.768 1114.53 2201
-775.255 1108.45 2189
-770.021 1108.45 2189
-763.039 1105.92 2184
-756.776 1104.4 2181
-751.56 1104.4 2181
-746.345 1104.4 2181
-741.129 1104.4 2181
-735.914 1104.4 2181
-729.693 1102.88 2178
-724.485 1102.88 2178
-719.277 1102.88 2178
-716.036 1105.92 2184
-711.464 1106.93 2186
-706.237 1106.93 2186
-701.009 1106.93 2186
-695.782 1106.93 2186
-688.975 1104.4 2181
-686.268 1108.45 2189
-681.033 1108.45 2189
-675.799 1108.45 2189
-670.564 1108.45 2189
-666.241 1109.97 2192
-663.713 1114.53 2201
-658.45 1114.53 2201
-654.968 1117.56 2207
-651.456 1120.6 2213
-646.164 1120.6 2213
-640.872 1120.6 2213
-635.58 1120.6 2213
-629.434 1119.08 2210
-625.561 1121.61 2215
-620.265 1121.61 2215
-616.634 1124.65 2221
-612.974 1127.69 2227
-610.104 1132.25 2236
-604.757 1132.25 2236
-601.019 1135.29 2242
-598.846 1141.36 2254
-593.456 1141.36 2254
-588.066 1141.36 2254
-579.574 1135.29 2242
-571.907 1130.73 2233
-568.851 1135.29 2242
-563.49 1135.29 2242
-558.128 1135.29 2242
-552.767 1135.29 2242
-547.406 1135.29 2242
-541.319 1133.77 2239
-531.656 1124.65 2221
-526.345 1124.65 2221
-521.034 1124.65 2221
-515.723 1124.65 2221
-510.412 1124.65 2221
-505.101 1124.65 2221
-499.79 1124.65 2221
-493.143 1121.61 2215
-486.745 1119.08 2210
-479.499 1114.53 2201
-474.236 1114.53 2201
-467.055 1109.97 2192
-463.71 1114.53 2201
-461.987 1123.13 2218
-457.919 1126.17 2224
-452.601 1126.17 2224
-447.282 1126.17 2224
-441.368 1124.65 2221
-436.057 1124.65 2221
-431.327 1126.17 2224
-426.009 1126.17 2224
-420.691 1126.17 2224
-414.812 1124.65 2221
-409.501 1124.65 2221
-404.19 1124.65 2221
-397.442 1120.6 2213
-392.15 1120.6 2213
-386.858 1120.6 2213
-381.049 1119.08 2210
-375.254 1117.56 2207
-369.977 1117.56 2207
-364.699 1117.56 2207
-358.444 1114.53 2201
-353.181 1114.53 2201
-347.444 1113.01 2198
-342.188 1113.01 2198
-335.552 1108.45 2189
-329.11 1104.4 2181
-322.558 1099.84 2172
-317.364 1099.84 2172
-312.17 1099.84 2172
-307.824 1102.88 2178
-302.616 1102.88 2178
-297.818 1104.4 2181
-292.602 1104.4 2181
-287.782 1105.92 2184
-282.559 1105.92 2184
-277.337 1105.92 2184
-272.363 1106.93 2186
-267.136 1106.93 2186
-262.268 1108.45 2189
-258.09 1113.01 2198
-253.524 1116.04 2204
-248.254 1116.04 2204
-242.984 1116.04 2204
-237.713 1116.04 2204
-234.868 1127.69 2227
-229.543 1127.69 2227
-225.124 1132.25 2236
-220.956 1138.33 2248
-215.58 1138.33 2248
-210.205 1138.33 2248
-204.829 1138.33 2248
-199.72 1139.84 2251
-194.596 1141.36 2254
-189.206 1141.36 2254
-183.816 1141.36 2254
-178.188 1139.84 2251
-172.806 1139.84 2251
-167.423 1139.84 2251
-162.256 1141.36 2254
-156.866 1141.36 2254
-151.476 1141.36 2254
-146.086 1141.36 2254
-140.696 1141.36 2254
-134.946 1138.33 2248
-129.743 1139.84 2251
-124.36 1139.84 2251
-119.294 1142.88 2257
-113.897 1142.88 2257
-108.5 1142.88 2257
-103.103 1142.88 2257
-97.7058 1142.88 2257
-91.6951 1135.29 2242
-86.3338 1135.29 2242
-80.9725 1135.29 2242
-75.5101 1133.77 2239
-70.1559 1133.77 2239
-64.6282 1130.73 2233
-59.607 1136.81 2245
-54.2385 1136.81 2245
-49.0006 1139.84 2251
-43.6178 1139.84 2251
-38.235 1139.84 2251
-32.7646 1136.81 2245
-27.5914 1144.91 2261
-22.1846 1144.91 2261
-16.7779 1144.91 2261
-11.3712 1144.91 2261
-5.96444 1144.91 2261
-0.554495 1138.33 2248
4.82115 1138.33 2248
10.1152 1129.21 2230
15.4478 1129.21 2230
20.594 1119.08 2210
25.8788 1119.08 2210
31.1636 1119.08 2210
36.3989 1117.56 2207
41.3932 1109.97 2192
46.6349 1109.97 2192
51.7347 1106.93 2186
120.232 1065.41 2104
125.561 1067.94 2109
130.605 1067.94 2109
135.969 1070.47 2114
141.025 1070.47 2114
146.08 1070.47 2114
168.503 1084.65 2142
173.625 1084.65 2142
178.748 1084.65 2142
183.87 1084.65 2142
189.698 1088.7 2150
196.561 1098.32 2169
202.864 1104.4 2181
208.079 1104.4 2181
214.371 1109.97 2192
220.814 1116.04 2204
227.008 1120.6 2213
232.3 1120.6 2213
240.061 1132.25 2236
247.055 1139.84 2251
252.437 1139.84 2251
257.82 1139.84 2251
263.905 1142.88 2257
269.302 1142.88 2257
274.699 1142.88 2257
279.352 1139.84 2251
283.975 1136.81 2245
288.571 1133.77 2239
294.319 1135.29 2242
299.68 1135.29 2242
307.082 1142.88 2257
313.033 1144.91 2261
318.862 1146.43 2264
324.276 1146.43 2264
330.127 1147.95 2267
335.548 1147.95 2267
340.969 1147.95 2267
346.39 1147.95 2267
351.811 1147.95 2267
356.76 1146.43 2264
362.174 1146.43 2264
367.587 1146.43 2264
372.507 1144.91 2261
377.245 1142.88 2257
382.642 1142.88 2257
388.04 1142.88 2257
392.391 1139.84 2251
397.244 1138.33 2248
402.082 1136.81 2245
407.45 1136.81 2245
412.819 1136.81 2245
417.07 1133.77 2239
422.424 1133.77 2239
428.351 1135.29 2242
433.712 1135.29 2242
439.074 1135.29 2242
443.84 1133.77 2239
449.796 1135.29 2242
455.158 1135.29 2242
461.751 1138.33 2248
467.127 1138.33 2248
472.503 1138.33 2248
477.878 1138.33 2248
483.254 1138.33 2248
487.325 1135.29 2242
492.687 1135.29 2242
498.048 1135.29 2242
502.062 1132.25 2236
507.409 1132.25 2236
514.132 1135.29 2242
522.274 1141.36 2254
527.664 1141.36 2254
533.054 1141.36 2254
537.727 1139.84 2251
543.11 1139.84 2251
548.493 1139.84 2251
556.336 1144.91 2261
562.488 1146.43 2264
567.902 1146.43 2264
573.316 1146.43 2264
578.73 1146.43 2264
580.79 1139.84 2251
586.172 1139.84 2251
591.555 1139.84 2251
596.938 1139.84 2251
603.124 1141.36 2254
608.514 1141.36 2254
613.904 1141.36 2254
617.645 1138.33 2248
621.358 1135.29 2242
625.881 1133.77 2239
632.081 1135.29 2242
637.442 1135.29 2242
642.803 1135.29 2242
649.899 1138.33 2248
655.275 1138.33 2248
660.65 1138.33 2248
662.471 1132.25 2236
666.922 1130.73 2233
672.261 1130.73 2233
675.781 1127.69 2227
679.271 1124.65 2221
685.507 1126.17 2224
690.825 1126.17 2224
696.143 1126.17 2224
701.461 1126.17 2224
707.733 1127.69 2227
714.98 1130.73 2233
720.319 1130.73 2233
730.534 1138.33 2248
738.856 1142.88 2257
747.55 1147.95 2267
753.968 1149.47 2270
759.396 1149.47 2270
764.824 1149.47 2270
769.235 1147.95 2267
774.656 1147.95 2267
780.077 1147.95 2267
789.656 1154.02 2279
795.106 1154.02 2279
800.555 1154.02 2279
806.005 1154.02 2279
810.387 1152.5 2276
815.829 1152.5 2276
821.272 1152.5 2276
825.625 1150.98 2273
831.06 1150.98 2273
837.6 1152.5 2276
843.042 1152.5 2276
848.485 1152.5 2276
852.802 1150.98 2273
855.972 1147.95 2267
861.393 1147.95 2267
865.667 1146.43 2264
869.927 1144.91 2261
872.624 1141.36 2254
876.845 1139.84 2251
882.228 1139.84 2251
886.428 1138.33 2248
891.803 1138.33 2248
897.179 1138.33 2248
902.555 1138.33 2248
904.295 1133.77 2239
908.431 1132.25 2236
912.552 1130.73 2233
917.891 1130.73 2233
921.991 1129.21 2230
927.323 1129.21 2230
936.42 1133.77 2239
944.298 1136.81 2245
949.666 1136.81 2245
963.118 1146.43 2264
968.531 1146.43 2264
973.945 1146.43 2264
979.359 1146.43 2264
983.468 1144.91 2261
985.814 1141.36 2254
988.565 1138.33 2248
993.941 1138.33 2248
999.316 1138.33 2248
1004.69 1138.33 2248
1011.42 1139.84 2251
1016.8 1139.84 2251
1022.18 1139.84 2251
1028.93 1141.36 2254
1034.32 1141.36 2254
1039.71 1141.36 2254
1043.71 1139.84 2251
1049.1 1139.84 2251
1054.48 1139.84 2251
1059.86 1139.84 2251
1058.15 1132.25 2236
1063.49 1132.25 2236
1073.14 1136.81 2245
1081.39 1139.84 2251
1088.22 1141.36 2254
1093.61 1141.36 2254
1105.34 1147.95 2267
1113.7 1150.98 2273
1122.09 1154.02 2279
1127.54 1154.02 2279
1140.95 1162.12 2295
1149.43 1165.16 2301
1157.95 1168.2 2307
1163.46 1168.2 2307
1172.53 1171.75 2314
1178.06 1171.75 2314
1183.59 1171.75 2314
1189.13 1171.75 2314
1194.66 1171.75 2314
1198.64 1170.23 2311
1205.73 1171.75 2314
1211.26 1171.75 2314
1216.79 1171.75 2314
1222.33 1171.75 2314
1227.86 1171.75 2314
1231.8 1170.23 2311
1233.57 1166.68 2304
1235.86 1163.64 2298
1241.35 1163.64 2298
1246.85 1163.64 2298
1250.71 1162.12 2295
1256.2 1162.12 2295
1260.03 1160.61 2292
1265.51 1160.61 2292
1267.11 1157.06 2285
1269.24 1154.02 2279
1267.97 1147.95 2267
1273.4 1147.95 2267
1277.12 1146.43 2264
1282.54 1146.43 2264
1289.66 1147.95 2267
1295.08 1147.95 2267
1300.5 1147.95 2267
1305.92 1147.95 2267
1311.34 1147.95 2267
1303.99 1136.81 2245
1309.35 1136.81 2245
1314.72 1136.81 2245
1320.09 1136.81 2245
1325.46 1136.81 2245
1330.83 1136.81 2245
1336.2 1136.81 2245
1329.02 1126.17 2224
1334.33 1126.17 2224
1339.65 1126.17 2224
1344.97 1126.17 2224
1350.29 1126.17 2224
1353.78 1124.65 2221
1362.76 1127.69 2227
1368.09 1127.69 2227
1373.41 1127.69 2227
1375.02 1124.65 2221
1380.33 1124.65 2221
1385.65 1124.65 2221
1389.08 1123.13 2218
1418.9 1142.88 2257
1428.71 1146.43 2264
1443.63 1154.02 2279
1449.08 1154.02 2279
1454.53 1154.02 2279
1465.74 1158.58 2288
1479.57 1165.16 2301
1485.08 1165.16 2301
1500.94 1173.26 2317
1512.99 1178.33 2327
1518.55 1178.33 2327
1524.12 1178.33 2327
1529.68 1178.33 2327
1528.65 1173.26 2317
1534.19 1173.26 2317
1539.73 1173.26 2317
1543.27 1171.75 2314
1546.79 1170.23 2311
1541.57 1162.12 2295
1547.06 1162.12 2295
1547.81 1158.58 2288
1556 1160.61 2292
1561.48 1160.61 2292
1566.96 1160.61 2292
1572.44 1160.61 2292
1573.11 1157.06 2285
1574.42 1154.02 2279
1579.87 1154.02 2279
1585.32 1154.02 2279
1588.68 1152.5 2276
1594.12 1152.5 2276
1601.67 1154.02 2279
1607.12 1154.02 2279
1612.57 1154.02 2279
1618.02 1154.02 2279
1623.47 1154.02 2279
1628.92 1154.02 2279
1634.37 1154.02 2279
1646.3 1158.58 2288
1665.49 1168.2 2307
1671 1168.2 2307
1676.52 1168.2 2307
1682.04 1168.2 2307
1683.16 1165.16 2301
1688.67 1165.16 2301
1689.75 1162.12 2295
1693.02 1160.61 2292
-1521.71 1112.17 2186
-1516.48 1112.17 2186
-1529.92 1125.9 2213
-1524.63 1125.9 2213
-1526.89 1131.5 2224
-1533.89 1140.66 2242
-1532.61 1143.71 2248
-1527.24 1143.71 2248
-1521.86 1143.71 2248
-1512.44 1140.66 2242
-1507.08 1140.66 2242
-1489.66 1131.5 2224
-1468.99 1119.8 2201
-1461.73 1118.27 2198
-1460.45 1121.32 2204
-1455.18 1121.32 2204
-1449.91 1121.32 2204
-1446.61 1122.85 2207
-1441.33 1122.85 2207
-1436.05 1122.85 2207
-1430.78 1122.85 2207
-1425.5 1122.85 2207
-1420.22 1122.85 2207
-1409.17 1118.27 2198
-1402 1116.75 2195
-1394.84 1115.22 2192
-1389.6 1115.22 2192
-1382.46 1113.69 2189
-1372.2 1109.62 2181
-1359.46 1103.52 2169
-1354.27 1103.52 2169
-1344.11 1099.45 2161
-1332.13 1093.85 2150
-1325.13 1092.32 2147
-1320 1092.32 2147
-1314.87 1092.32 2147
-1307.9 1090.8 2144
-1299.74 1088.25 2139
-1299.46 1092.32 2147
-1294.33 1092.32 2147
-1289.2 1092.32 2147
-1284.06 1092.32 2147
-1278.93 1092.32 2147
-1273.79 1092.32 2147
-1281.66 1103.52 2169
-1281.77 1108.1 2178
-1280.08 1111.15 2184
-1274.85 1111.15 2184
-1270.79 1112.17 2186
-1274.25 1119.8 2201
-1274.18 1124.38 2210
-1268.89 1124.38 2210
-1275.04 1134.55 2230
-1278.25 1142.18 2245
-1283.66 1151.85 2264
-1278.24 1151.85 2264
-1272.83 1151.85 2264
-1267.41 1151.85 2264
-1262 1151.85 2264
-1256.59 1151.85 2264
-1252.83 1153.38 2267
-1250.71 1156.43 2273
-1245.27 1156.43 2273
-1239.84 1156.43 2273
-1234.4 1156.43 2273
-1210.59 1139.13 2239
-1205.23 1139.13 2239
-1185.94 1125.9 2213
-1175.85 1121.32 2204
-1167.39 1118.27 2198
-1158.96 1115.22 2192
-1153.72 1115.22 2192
-1148.48 1115.22 2192
-1139.07 1111.15 2184
-1133.84 1111.15 2184
-1128.62 1111.15 2184
-1120.31 1108.1 2178
-1115.1 1108.1 2178
-1111.43 1109.62 2181
-1108.75 1112.17 2186
-1103.52 1112.17 2186
-1098.29 1112.17 2186
-1093.06 1112.17 2186
-1087.84 1112.17 2186
-1081.62 1111.15 2184
-1074.92 1109.62 2181
-1071.17 1111.15 2184
-1065.95 1111.15 2184
-1060.73 1111.15 2184
-1056.47 1112.17 2186
-1051.24 1112.17 2186
-1051.76 1118.27 2198
-1046.5 1118.27 2198
-1041.25 1118.27 2198
-1035.99 1118.27 2198
-1030.73 1118.27 2198
-1025.48 1118.27 2198
-1018.83 1116.75 2195
-1013.58 1116.75 2195
-1008.33 1116.75 2195
-1003.08 1116.75 2195
-996.471 1115.22 2192
-991.229 1115.22 2192
-987.337 1116.75 2195
-982.088 1116.75 2195
-976.839 1116.75 2195
-971.59 1116.75 2195
-966.341 1116.75 2195
-961.092 1116.75 2195
-955.843 1116.75 2195
-955.791 1122.85 2207
-950.513 1122.85 2207
-945.236 1122.85 2207
-938.681 1121.32 2204
-932.14 1119.8 2201
-926.876 1119.8 2201
-917.845 1115.22 2192
-912.603 1115.22 2192
-908.603 1116.75 2195
-907.058 1121.32 2204
-901.788 1121.32 2204
-897.737 1122.85 2207
-892.46 1122.85 2207
-887.182 1122.85 2207
-881.905 1122.85 2207
-874.244 1119.8 2201
-866.612 1116.75 2195
-864.894 1121.32 2204
-860.794 1122.85 2207
-855.517 1122.85 2207
-850.239 1122.85 2207
-849.173 1128.45 2218
-843.869 1128.45 2218
-838.565 1128.45 2218
-830.256 1124.38 2210
-824.971 1124.38 2210
-819.686 1124.38 2210
-814.401 1124.38 2210
-809.116 1124.38 2210
-799.467 1118.27 2198
-794.211 1118.27 2198
-786.801 1115.22 2192
-779.42 1112.17 2186
-772.422 1109.62 2181
-767.206 1109.62 2181
-757.799 1103.52 2169
-752.612 1103.52 2169
-746.736 1102.5 2167
-741.554 1102.5 2167
-736.372 1102.5 2167
-731.19 1102.5 2167
-726.008 1102.5 2167
-720.826 1102.5 2167
-715.644 1102.5 2167
-713.085 1106.57 2175
-707.884 1106.57 2175
-702.683 1106.57 2175
-697.482 1106.57 2175
-692.281 1106.57 2175
-685.184 1103.52 2169
-680.938 1105.04 2172
-678.544 1109.62 2181
-673.329 1109.62 2181
-668.113 1109.62 2181
-664.418 1112.17 2186
-660.999 1115.22 2192
-655.758 1115.22 2192
-653.187 1119.8 2201
-648.807 1121.32 2204
-643.536 1121.32 2204
-638.266 1121.32 2204
-632.134 1119.8 2201
-626.016 1118.27 2198
-620.76 1118.27 2198
-615.504 1118.27 2198
-610.248 1118.27 2198
-604.992 1118.27 2198
-604.374 1126.92 2215
-599.078 1126.92 2215
-593.781 1126.92 2215
-588.484 1126.92 2215
-586.347 1133.03 2227
-581.021 1133.03 2227
-575.696 1133.03 2227
-570.371 1133.03 2227
-565.045 1133.03 2227
-559.72 1133.03 2227
-553.647 1131.5 2224
-548.329 1131.5 2224
-543.011 1131.5 2224
-536.967 1129.97 2221
-528.305 1122.85 2207
-524.449 1125.9 2213
-519.627 1126.92 2215
-514.33 1126.92 2215
-509.033 1126.92 2215
-503.281 1125.9 2213
-497.99 1125.9 2213
-491.362 1122.85 2207
-482.78 1115.22 2192
-477.539 1115.22 2192
-472.297 1115.22 2192
-467.055 1115.22 2192
-461.813 1115.22 2192
-459.071 1121.32 2204
-456.683 1128.45 2218
-451.379 1128.45 2218
-446.076 1128.45 2218
-440.175 1126.92 2215
-434.879 1126.92 2215
-429.582 1126.92 2215
-424.285 1126.92 2215
-418.989 1126.92 2215
-413.318 1125.9 2213
-408.026 1125.9 2213
-402.734 1125.9 2213
-395.826 1121.32 2204
-390.556 1121.32 2204
-385.285 1121.32 2204
-379.497 1119.8 2201
-373.724 1118.27 2198
-368.468 1118.27 2198
-363.212 1118.27 2198
-356.979 1115.22 2192
-351.737 1115.22 2192
-346.021 1113.69 2189
-340.786 1113.69 2189
-334.326 1109.62 2181
-326.998 1102.5 2167
-321.816 1102.5 2167
-316.926 1103.52 2169
-311.739 1103.52 2169
-306.976 1105.04 2172
-301.783 1105.04 2172
-296.998 1106.57 2175
-291.797 1106.57 2175
-286.596 1106.57 2175
-281.395 1106.57 2175
-276.194 1106.57 2175
-270.993 1106.57 2175
-265.792 1106.57 2175
-261.31 1109.62 2181
-257.034 1113.69 2189
-252.144 1115.22 2192
-246.902 1115.22 2192
-241.661 1115.22 2192
-236.742 1116.75 2195
-232.443 1121.32 2204
-227.172 1121.32 2204
-223.915 1131.5 2224
-219.482 1136.08 2233
-214.142 1136.08 2233
-208.802 1136.08 2233
-204.009 1139.13 2239
-198.655 1139.13 2239
-193.819 1142.18 2245
-188.45 1142.18 2245
-183.082 1142.18 2245
-177.476 1140.66 2242
-172.115 1140.66 2242
-166.753 1140.66 2242
-162.04 1145.24 2251
-156.866 1146.76 2254
-151.476 1146.76 2254
-146.086 1146.76 2254
-140.509 1145.24 2251
-134.766 1142.18 2245
-129.57 1143.71 2248
-124.194 1143.71 2248
-119.136 1146.76 2254
-113.746 1146.76 2254
-108.356 1146.76 2254
-102.418 1140.66 2242
-97.0564 1140.66 2242
-91.5724 1139.13 2239
-86.2183 1139.13 2239
-80.8642 1139.13 2239
-75.5101 1139.13 2239
-69.5919 1129.97 2221
-64.2808 1129.97 2221
-59.1291 1133.03 2227
-53.8036 1133.03 2227
-48.7394 1139.13 2239
-43.3853 1139.13 2239
-38.0312 1139.13 2239
-32.5457 1134.55 2230
-27.1399 1131.5 2224
-21.9099 1136.08 2233
-16.5701 1136.08 2233
-11.2304 1136.08 2233
-5.85101 1128.45 2218
-0.547095 1128.45 2218
4.75681 1128.45 2218
9.97001 1118.27 2198
15.2261 1118.27 2198
20.5101 1119.8 2201
25.7734 1119.8 2201
31.0366 1119.8 2201
36.1515 1115.22 2192
41.1855 1109.62 2181
46.4009 1109.62 2181
51.6164 1109.62 2181
120.232 1070.45 2104
125.859 1075.54 2114
130.914 1075.54 2114
135.969 1075.54 2114
141.025 1075.54 2114
147.393 1085.2 2133
152.708 1086.73 2136
157.816 1086.73 2136
162.923 1086.73 2136
168.503 1089.78 2142
173.625 1089.78 2142
179.165 1092.32 2147
184.299 1092.32 2147
189.698 1093.85 2150
196.561 1103.52 2169
202.585 1108.1 2178
207.793 1108.1 2178
214.077 1113.69 2189
219.913 1116.75 2195
226.085 1121.32 2204
231.355 1121.32 2204
238.451 1129.97 2221
245.408 1137.6 2236
251.428 1140.66 2242
256.789 1140.66 2242
263.203 1145.24 2251
268.586 1145.24 2251
273.969 1145.24 2251
278.607 1142.18 2245
282.837 1137.6 2236
287.411 1134.55 2230
293.925 1139.13 2239
299.279 1139.13 2239
305.041 1140.66 2242
311.233 1143.71 2248
316.609 1143.71 2248
321.984 1143.71 2248
327.797 1145.24 2251
334.068 1148.29 2257
339.465 1148.29 2257
344.862 1148.29 2257
350.259 1148.29 2257
355.657 1148.29 2257
361.054 1148.29 2257
365.964 1146.76 2254
371.354 1146.76 2254
376.242 1145.24 2251
380.099 1140.66 2242
385.461 1140.66 2242
390.822 1140.66 2242
395.123 1137.6 2236
399.933 1136.08 2233
405.272 1136.08 2233
409.509 1133.03 2227
414.834 1133.03 2227
420.16 1133.03 2227
425.485 1133.03 2227
430.811 1133.03 2227
436.136 1133.03 2227
441.462 1133.03 2227
446.787 1133.03 2227
450.894 1129.97 2221
456.205 1129.97 2221
461.516 1129.97 2221
466.828 1129.97 2221
472.139 1129.97 2221
477.45 1129.97 2221
481.022 1125.9 2213
486.314 1125.9 2213
491.606 1125.9 2213
496.898 1125.9 2213
501.509 1124.38 2210
507.94 1126.92 2215
516.018 1133.03 2227
521.343 1133.03 2227
526.668 1133.03 2227
533.427 1136.08 2233
539.491 1137.6 2236
544.838 1137.6 2236
550.923 1139.13 2239
557.768 1142.18 2245
563.136 1142.18 2245
568.505 1142.18 2245
573.873 1142.18 2245
579.242 1142.18 2245
584.61 1142.18 2245
589.19 1140.66 2242
594.551 1140.66 2242
601.518 1143.71 2248
606.894 1143.71 2248
612.27 1143.71 2248
614.348 1137.6 2236
618.864 1136.08 2233
624.203 1136.08 2233
630.389 1137.6 2236
635.736 1137.6 2236
641.083 1137.6 2236
647.297 1139.13 2239
652.651 1139.13 2239
658.005 1139.13 2239
660.693 1134.55 2230
665.13 1133.03 2227
670.455 1133.03 2227
672.139 1126.92 2215
677.436 1126.92 2215
682.733 1126.92 2215
688.029 1126.92 2215
693.326 1126.92 2215
698.623 1126.92 2215
703.92 1126.92 2215
712.098 1131.5 2224
717.416 1131.5 2224
727.609 1139.13 2239
735.909 1143.71 2248
744.253 1148.29 2257
749.65 1148.29 2257
755.047 1148.29 2257
760.444 1148.29 2257
765.842 1148.29 2257
772.606 1150.32 2261
778.012 1150.32 2261
786.537 1154.9 2270
794.059 1157.96 2276
799.502 1157.96 2276
804.944 1157.96 2276
810.387 1157.96 2276
815.829 1157.96 2276
821.272 1157.96 2276
825.625 1156.43 2273
831.06 1156.43 2273
837.6 1157.96 2276
843.042 1157.96 2276
848.485 1157.96 2276
852.802 1156.43 2273
855.972 1153.38 2267
861.393 1153.38 2267
865.667 1151.85 2264
869.927 1150.32 2261
872.624 1146.76 2254
876.845 1145.24 2251
882.228 1145.24 2251
886.428 1143.71 2248
891.803 1143.71 2248
897.179 1143.71 2248
902.555 1143.71 2248
904.295 1139.13 2239
908.431 1137.6 2236
912.552 1136.08 2233
917.891 1136.08 2233
921.991 1134.55 2230
927.323 1134.55 2230
936.42 1139.13 2239
944.298 1142.18 2245
949.666 1142.18 2245
963.118 1151.85 2264
968.531 1151.85 2264
973.945 1151.85 2264
979.359 1151.85 2264
983.468 1150.32 2261
985.814 1146.76 2254
988.565 1143.71 2248
993.941 1143.71 2248
999.316 1143.71 2248
1004.69 1143.71 2248
1011.42 1145.24 2251
1016.8 1145.24 2251
1022.18 1145.24 2251
1028.93 1146.76 2254
1034.32 1146.76 2254
1039.71 1146.76 2254
1043.71 1145.24 2251
1049.1 1145.24 2251
1054.48 1145.24 2251
1059.86 1145.24 2251
1058.15 1137.6 2236
1063.49 1137.6 2236
1073.14 1142.18 2245
1081.39 1145.24 2251
1088.22 1146.76 2254
1093.61 1146.76 2254
1105.34 1153.38 2267
1113.7 1156.43 2273
1122.09 1159.48 2279
1127.54 1159.48 2279
1140.95 1167.62 2295
1149.43 1170.67 2301
1157.95 1173.73 2307
1163.46 1173.73 2307
1172.53 1177.29 2314
1178.06 1177.29 2314
1183.59 1177.29 2314
1189.13 1177.29 2314
1194.66 1177.29 2314
1198.64 1175.76 2311
1205.73 1177.29 2314
1211.26 1177.29 2314
1216.79 1177.29 2314
1222.33 1177.29 2314
1227.86 1177.29 2314
1231.8 1175.76 2311
1233.57 1172.2 2304
1235.86 1169.15 2298
1241.35 1169.15 2298
1246.85 1169.15 2298
1250.71 1167.62 2295
1256.2 1167.62 2295
1260.03 1166.1 2292
1265.51 1166.1 2292
1267.11 1162.53 2285
1269.24 1159.48 2279
1267.97 1153.38 2267
1273.4 1153.38 2267
1277.12 1151.85 2264
1282.54 1151.85 2264
1289.66 1153.38 2267
1295.08 1153.38 2267
1300.5 1153.38 2267
1305.92 1153.38 2267
1311.34 1153.38 2267
1303.99 1142.18 2245
1309.35 1142.18 2245
1300.67 1129.97 2221
1305.98 1129.97 2221
1306.57 1125.9 2213
1311.86 1125.9 2213
1310.01 1119.8 2201
1315.27 1119.8 2201
1328.93 1126.92 2215
1334.23 1126.92 2215
1339.53 1126.92 2215
1339.97 1122.85 2207
1345.25 1122.85 2207
1354.19 1125.9 2213
1359.49 1125.9 2213
1364.78 1125.9 2213
1366.36 1122.85 2207
1371.63 1122.85 2207
1376.91 1122.85 2207
1376.55 1118.27 2198
1394.38 1128.45 2218
1405.36 1133.03 2227
1429.69 1148.29 2257
1435.09 1148.29 2257
1440.49 1148.29 2257
1454.21 1154.9 2270
1465.43 1159.48 2279
1470.88 1159.48 2279
1492.52 1172.2 2304
1504.53 1177.29 2314
1512.03 1178.82 2317
1517.57 1178.82 2317
1523.11 1178.82 2317
1526.67 1177.29 2314
1532.2 1177.29 2314
1535.74 1175.76 2311
1538.6 1173.73 2307
1540.1 1170.67 2301
1536.87 1164.06 2288
1542.34 1164.06 2288
1543.76 1161.01 2282
1549.21 1161.01 2282
1554.67 1161.01 2282
1560.13 1161.01 2282
1561.47 1157.96 2276
1558.65 1151.85 2264
1561.99 1150.32 2261
1567.4 1150.32 2261
1572.8 1150.32 2261
1578.21 1150.32 2261
1583.62 1150.32 2261
1593.24 1153.38 2267
1598.66 1153.38 2267
1604.08 1153.38 2267
1607.37 1151.85 2264
1612.79 1151.85 2264
1618.2 1151.85 2264
1618.59 1148.29 2257
1633.35 1154.9 2270
1651.77 1164.06 2288
1657.24 1164.06 2288
1662.71 1164.06 2288
1671.1 1166.1 2292
1676.58 1166.1 2292
1682.06 1166.1 2292
1682.39 1162.53 2285
1676.77 1154.9 2270
-1557.07 1069.86 2093
-1552.07 1069.86 2093
-1547.06 1069.86 2093
-1542.06 1069.86 2093
-1546.6 1076.51 2106
-1551.81 1083.67 2120
-1546.74 1083.67 2120
-1541.67 1083.67 2120
-1536.6 1083.67 2120
-1552.16 1128.14 2207
-1546.88 1128.14 2207
-1541.61 1128.14 2207
-1525.89 1120.47 2192
-1516.48 1117.4 2186
-1511.25 1117.4 2186
-1506.03 1117.4 2186
-1520.71 1132.23 2215
-1521.57 1136.83 2224
-1516.25 1136.83 2224
-1510.93 1136.83 2224
-1505.62 1136.83 2224
-1496.25 1133.76 2218
-1490.95 1133.76 2218
-1470.24 1122 2195
-1460.98 1118.94 2189
-1452.42 1116.38 2184
-1447.2 1116.38 2184
-1441.98 1116.38 2184
-1442.02 1120.47 2192
-1438.74 1122 2195
-1433.49 1122 2195
-1428.24 1122 2195
-1423 1122 2195
-1417.75 1122 2195
-1412.5 1122 2195
-1400.2 1116.38 2184
-1394.97 1116.38 2184
-1389.75 1116.38 2184
-1384.53 1116.38 2184
-1377.41 1114.85 2181
-1366.53 1110.25 2172
-1354.45 1104.62 2161
-1349.28 1104.62 2161
-1339.13 1100.53 2153
-1330.27 1097.47 2147
-1323.28 1095.93 2144
-1318.16 1095.93 2144
-1313.03 1095.93 2144
-1307.9 1095.93 2144
-1299.74 1093.38 2139
-1294.62 1093.38 2139
-1289.51 1093.38 2139
-1289.2 1097.47 2147
-1284.06 1097.47 2147
-1278.93 1097.47 2147
-1272.01 1095.93 2144
-1275.16 1103.09 2158
-1276.47 1108.71 2169
-1274.8 1111.78 2175
-1269.6 1111.78 2175
-1267.89 1114.85 2181
-1267.3 1118.94 2189
-1268.99 1125.07 2201
-1263.72 1125.07 2201
-1263.61 1129.67 2210
-1269.71 1139.89 2230
-1272.88 1147.56 2245
-1267.51 1147.56 2245
-1262.15 1147.56 2245
-1256.78 1147.56 2245
-1251.41 1147.56 2245
-1246.04 1147.56 2245
-1239.01 1146.03 2242
-1232 1144.49 2239
-1226.65 1144.49 2239
-1213.11 1136.83 2224
-1201.82 1131.2 2213
-1196.53 1131.2 2213
-1191.24 1131.2 2213
-1181.12 1126.6 2204
-1171.05 1122 2195
-1161.02 1117.4 2186
-1157.38 1118.94 2189
-1152.14 1118.94 2189
-1146.91 1118.94 2189
-1137.5 1114.85 2181
-1132.29 1114.85 2181
-1127.07 1114.85 2181
-1118.77 1111.78 2175
-1113.57 1111.78 2175
-1109.9 1113.31 2178
-1106.21 1114.85 2181
-1100.99 1114.85 2181
-1095.78 1114.85 2181
-1089.06 1113.31 2178
-1083.85 1113.31 2178
-1077.16 1111.78 2175
-1071.96 1111.78 2175
-1066.76 1111.78 2175
-1063.02 1113.31 2178
-1057.81 1113.31 2178
-1054.06 1114.85 2181
-1048.84 1114.85 2181
-1047.45 1118.94 2189
-1042.22 1118.94 2189
-1036.98 1118.94 2189
-1035.99 1123.54 2198
-1030.73 1123.54 2198
-1025.48 1123.54 2198
-1018.83 1122 2195
-1013.58 1122 2195
-1008.33 1122 2195
-1003.08 1122 2195
-996.471 1120.47 2192
-991.229 1120.47 2192
-987.337 1122 2195
-982.088 1122 2195
-976.839 1122 2195
-971.59 1122 2195
-966.341 1122 2195
-961.092 1122 2195
-955.843 1122 2195
-954.492 1126.6 2204
-949.221 1126.6 2204
-943.951 1126.6 2204
-938.681 1126.6 2204
-932.14 1125.07 2201
-926.876 1125.07 2201
-917.845 1120.47 2192
-912.603 1120.47 2192
-907.361 1120.47 2192
-902.119 1120.47 2192
-899.333 1123.54 2198
-894.076 1123.54 2198
-888.82 1123.54 2198
-882.358 1122 2195
-877.109 1122 2195
-869.477 1118.94 2189
-862.269 1116.38 2184
-860.185 1120.47 2192
-859.624 1126.6 2204
-854.354 1126.6 2204
-849.083 1126.6 2204
-843.813 1126.6 2204
-838.542 1126.6 2204
-833.272 1126.6 2204
-830.256 1129.67 2210
-824.971 1129.67 2210
-819.686 1129.67 2210
-814.401 1129.67 2210
-809.116 1129.67 2210
-799.467 1123.54 2198
-794.211 1123.54 2198
-786.801 1120.47 2192
-779.42 1117.4 2186
-772.422 1114.85 2181
-767.206 1114.85 2181
-757.799 1108.71 2169
-752.612 1108.71 2169
-746.736 1107.69 2167
-741.554 1107.69 2167
-736.372 1107.69 2167
-731.19 1107.69 2167
-726.008 1107.69 2167
-720.826 1107.69 2167
-715.644 1107.69 2167
-713.085 1111.78 2175
-707.884 1111.78 2175
-702.683 1111.78 2175
-697.482 1111.78 2175
-692.281 1111.78 2175
-685.184 1108.71 2169
-680.938 1110.25 2172
-678.544 1114.85 2181
-673.329 1114.85 2181
-668.113 1114.85 2181
-664.418 1117.4 2186
-660.999 1120.47 2192
-655.758 1120.47 2192
-653.187 1125.07 2201
-648.807 1126.6 2204
-643.536 1126.6 2204
-638.266 1126.6 2204
-632.134 1125.07 2201
-626.016 1123.54 2198
-620.76 1123.54 2198
-615.504 1123.54 2198
-610.248 1123.54 2198
-604.992 1123.54 2198
-604.374 1132.23 2215
-599.078 1132.23 2215
-593.781 1132.23 2215
-588.484 1132.23 2215
-586.347 1138.36 2227
-581.021 1138.36 2227
-575.696 1138.36 2227
-570.371 1138.36 2227
-565.045 1138.36 2227
-559.72 1138.36 2227
-553.647 1136.83 2224
-548.329 1136.83 2224
-543.011 1136.83 2224
-536.967 1135.29 2221
-528.305 1128.14 2207
-524.449 1131.2 2213
-519.627 1132.23 2215
-514.33 1132.23 2215
-509.033 1132.23 2215
-503.281 1131.2 2213
-497.99 1131.2 2213
-491.362 1128.14 2207
-482.78 1120.47 2192
-477.539 1120.47 2192
-472.297 1120.47 2192
-467.055 1120.47 2192
-461.813 1120.47 2192
-459.071 1126.6 2204
-456.683 1133.76 2218
-451.379 1133.76 2218
-446.076 1133.76 2218
-440.175 1132.23 2215
-434.879 1132.23 2215
-429.582 1132.23 2215
-424.285 1132.23 2215
-418.989 1132.23 2215
-413.318 1131.2 2213
-408.026 1131.2 2213
-402.734 1131.2 2213
-395.826 1126.6 2204
-390.556 1126.6 2204
-385.285 1126.6 2204
-379.497 1125.07 2201
-373.724 1123.54 2198
-368.468 1123.54 2198
-363.212 1123.54 2198
-356.979 1120.47 2192
-351.737 1120.47 2192
-346.021 1118.94 2189
-340.786 1118.94 2189
-334.326 1114.85 2181
-326.998 1107.69 2167
-321.816 1107.69 2167
-316.634 1107.69 2167
-311.452 1107.69 2167
-306.552 1108.71 2169
-301.366 1108.71 2169
-296.589 1110.25 2172
-291.395 1110.25 2172
-286.201 1110.25 2172
-281.007 1110.25 2172
-275.813 1110.25 2172
-270.619 1110.25 2172
-265.425 1110.25 2172
-260.231 1110.25 2172
-255.742 1113.31 2178
-251.799 1118.94 2189
-246.564 1118.94 2189
-241.33 1118.94 2189
-236.419 1120.47 2192
-231.177 1120.47 2192
-225.935 1120.47 2192
-221.298 1123.54 2198
-218.597 1136.83 2224
-213.279 1136.83 2224
-207.961 1136.83 2224
-202.916 1138.36 2227
-197.856 1139.89 2230
-192.783 1141.43 2233
-187.443 1141.43 2233
-182.103 1141.43 2233
-176.764 1141.43 2233
-171.424 1141.43 2233
-166.084 1141.43 2233
-160.744 1141.43 2233
-155.613 1142.96 2236
-150.266 1142.96 2236
-144.919 1142.96 2236
-139.572 1142.96 2236
-133.685 1138.36 2227
-128.533 1139.89 2230
-123.2 1139.89 2230
-117.867 1139.89 2230
-112.535 1139.89 2230
-107.491 1142.96 2236
-102.144 1142.96 2236
-96.7967 1142.96 2236
-90.5909 1132.23 2215
-85.2941 1132.23 2215
-79.9974 1132.23 2215
-74.7007 1132.23 2215
-69.4039 1132.23 2215
-63.702 1125.07 2201
-58.8901 1133.76 2218
-53.5862 1133.76 2218
-48.2823 1133.76 2218
-42.9784 1133.76 2218
-37.6745 1133.76 2218
-32.21 1128.14 2207
-26.786 1122 2195
-21.5371 1122 2195
-16.2882 1122 2195
-11.0392 1122 2195
-5.79033 1122 2195
-0.541422 1122 2195
4.71392 1123.54 2198
9.97001 1123.54 2198
15.2261 1123.54 2198
20.4263 1120.47 2192
25.668 1120.47 2192
30.9097 1120.47 2192
36.0195 1116.38 2184
41.1855 1114.85 2181
46.2094 1110.25 2172
51.4034 1110.25 2172
120.347 1076.51 2106
125.859 1080.6 2114
130.914 1080.6 2114
135.969 1080.6 2114
141.025 1080.6 2114
147.393 1090.31 2133
152.708 1091.85 2136
157.816 1091.85 2136
162.923 1091.85 2136
168.031 1091.85 2136
173.625 1094.91 2142
179.415 1099 2150
184.557 1099 2150
189.698 1099 2150
196.561 1108.71 2169
202.027 1110.25 2172
207.221 1110.25 2172
213.001 1113.31 2178
219.312 1118.94 2189
225.469 1123.54 2198
230.726 1123.54 2198
236.948 1128.14 2207
243.762 1135.29 2221
249.073 1135.29 2221
254.384 1135.29 2221
260.748 1139.89 2230
266.08 1139.89 2230
271.413 1139.89 2230
275.629 1135.29 2221
279.928 1131.2 2213
285.477 1132.23 2215
291.956 1136.83 2224
297.274 1136.83 2224
303 1138.36 2227
309.572 1142.96 2236
314.919 1142.96 2236
320.266 1142.96 2236
326.486 1146.03 2242
331.848 1146.03 2242
337.209 1146.03 2242
342.112 1144.49 2239
347.466 1144.49 2239
352.347 1142.96 2236
357.694 1142.96 2236
363.041 1142.96 2236
368.388 1142.96 2236
373.735 1142.96 2236
378.574 1141.43 2233
383.913 1141.43 2233
387.684 1136.83 2224
393.003 1136.83 2224
397.783 1135.29 2221
403.095 1135.29 2221
407.302 1132.23 2215
412.599 1132.23 2215
416.952 1129.67 2210
422.237 1129.67 2210
427.522 1129.67 2210
432.807 1129.67 2210
438.092 1129.67 2210
443.978 1131.2 2213
449.27 1131.2 2213
454.562 1131.2 2213
459.854 1131.2 2213
465.146 1131.2 2213
470.438 1131.2 2213
474.44 1128.14 2207
479.718 1128.14 2207
483.677 1125.07 2201
488.94 1125.07 2201
494.203 1125.07 2201
499.467 1125.07 2201
505.418 1126.6 2204
511.383 1128.14 2207
516.661 1128.14 2207
521.939 1128.14 2207
528.65 1131.2 2213
535.148 1133.76 2218
540.452 1133.76 2218
546.494 1135.29 2221
553.296 1138.36 2227
558.621 1138.36 2227
563.946 1138.36 2227
569.272 1138.36 2227
574.597 1138.36 2227
579.923 1138.36 2227
583.671 1135.29 2221
587.391 1132.23 2215
591.35 1129.67 2210
596.635 1129.67 2210
600.286 1126.6 2204
603.908 1123.54 2198
608.332 1122 2195
613.581 1122 2195
620.522 1125.07 2201
625.785 1125.07 2201
631.048 1125.07 2201
638.046 1128.14 2207
643.324 1128.14 2207
648.601 1128.14 2207
652.101 1125.07 2201
655.572 1122 2195
660.821 1122 2195
665.16 1120.47 2192
668.567 1117.4 2186
673.794 1117.4 2186
679.021 1117.4 2186
684.249 1117.4 2186
693.261 1123.54 2198
699.47 1125.07 2201
708.576 1131.2 2213
717.416 1136.83 2224
722.734 1136.83 2224
730.999 1141.43 2233
739.307 1146.03 2242
744.668 1146.03 2242
750.029 1146.03 2242
755.391 1146.03 2242
760.752 1146.03 2242
768.163 1149.1 2248
773.539 1149.1 2248
782.033 1153.7 2257
789.872 1157.27 2264
797.394 1160.34 2270
802.822 1160.34 2270
808.251 1160.34 2270
813.679 1160.34 2270
819.107 1160.34 2270
823.446 1158.81 2267
828.867 1158.81 2267
834.288 1158.81 2267
839.709 1158.81 2267
845.13 1158.81 2267
848.3 1155.74 2261
852.196 1153.7 2257
857.594 1153.7 2257
860.696 1150.63 2251
862.617 1146.03 2242
866.816 1144.49 2239
869.833 1141.43 2233
875.173 1141.43 2233
879.33 1139.89 2230
884.663 1139.89 2230
889.995 1139.89 2230
895.328 1139.89 2230
895.814 1133.76 2218
897.867 1129.67 2210
903.152 1129.67 2210
908.437 1129.67 2210
911.241 1126.6 2204
915.264 1125.07 2201
920.527 1125.07 2201
928.314 1128.14 2207
933.592 1128.14 2207
947.378 1138.36 2227
952.703 1138.36 2227
959.319 1139.89 2230
964.652 1139.89 2230
969.984 1139.89 2230
972.693 1136.83 2224
978.011 1136.83 2224
983.329 1136.83 2224
985.98 1133.76 2218
991.284 1133.76 2218
1000.63 1138.36 2227
1007.31 1139.89 2230
1012.65 1139.89 2230
1020.72 1142.96 2236
1026.06 1142.96 2236
1031.41 1142.96 2236
1036.76 1142.96 2236
1040.71 1141.43 2233
1044.64 1139.89 2230
1049.97 1139.89 2230
1052.47 1136.83 2224
1057.78 1136.83 2224
1068.84 1142.96 2236
1074.19 1142.96 2236
1079.53 1142.96 2236
1084.88 1142.96 2236
1099 1152.16 2254
1107.82 1155.74 2261
1120.62 1163.41 2276
1126.06 1163.41 2276
1137.47 1169.54 2288
1147.93 1174.65 2298
1154.93 1176.19 2301
1160.44 1176.19 2301
1165.94 1176.19 2301
1171.44 1176.19 2301
1176.94 1176.19 2301
1182.45 1176.19 2301
1186.4 1174.65 2298
1191.89 1174.65 2298
1197.39 1174.65 2298
1199.74 1171.59 2292
1205.23 1171.59 2292
1210.71 1171.59 2292
1216.19 1171.59 2292
1219.54 1169.54 2288
1225.01 1169.54 2288
1230.48 1169.54 2288
1235.95 1169.54 2288
1241.42 1169.54 2288
1245.26 1168.01 2285
1244.15 1161.87 2273
1247.94 1160.34 2270
1253.37 1160.34 2270
1244.93 1147.56 2245
1246.96 1144.49 2239
1242.25 1135.29 2221
1247.56 1135.29 2221
1256.25 1138.36 2227
1261.58 1138.36 2227
1273.73 1144.49 2239
1280.8 1146.03 2242
1286.16 1146.03 2242
1291.52 1146.03 2242
1296.88 1146.03 2242
1290.05 1135.29 2221
1295.36 1135.29 2221
1300.67 1135.29 2221
1305.98 1135.29 2221
1306.57 1131.2 2213
1311.86 1131.2 2213
1310.01 1125.07 2201
1315.27 1125.07 2201
1328.93 1132.23 2215
1334.23 1132.23 2215
1339.53 1132.23 2215
1339.97 1128.14 2207
1345.25 1128.14 2207
1354.19 1131.2 2213
1359.49 1131.2 2213
1364.78 1131.2 2213
1366.36 1128.14 2207
1371.63 1128.14 2207
1376.91 1128.14 2207
1376.55 1123.54 2198
1394.38 1133.76 2218
1405.36 1138.36 2227
1429.69 1153.7 2257
1435.09 1153.7 2257
1440.49 1153.7 2257
1454.21 1160.34 2270
1465.43 1164.94 2279
1470.88 1164.94 2279
1492.52 1177.72 2304
1504.53 1182.83 2314
1512.03 1184.37 2317
1517.57 1184.37 2317
1523.11 1184.37 2317
1526.67 1182.83 2314
1532.2 1182.83 2314
1535.74 1181.3 2311
1538.6 1179.25 2307
1540.1 1176.19 2301
1536.87 1169.54 2288
1542.34 1169.54 2288
1543.76 1166.47 2282
1549.21 1166.47 2282
1554.67 1166.47 2282
1560.13 1166.47 2282
1561.47 1163.41 2276
1558.65 1157.27 2264
1561.99 1155.74 2261
1567.4 1155.74 2261
1572.8 1155.74 2261
1578.21 1155.74 2261
1583.62 1155.74 2261
1593.24 1158.81 2267
1598.66 1158.81 2267
1604.08 1158.81 2267
1607.37 1157.27 2264
1612.79 1157.27 2264
1618.2 1157.27 2264
1618.59 1153.7 2257
1633.35 1160.34 2270
1651.77 1169.54 2288
1657.24 1169.54 2288
1662.71 1169.54 2288
1671.1 1171.59 2292
1676.58 1171.59 2292
1682.06 1171.59 2292
1682.39 1168.01 2285
1676.77 1160.34 2270
-1565.58 1073.85 2091
-1560.58 1073.85 2091
-1557.07 1074.88 2093
-1552.07 1074.88 2093
-1547.06 1074.88 2093
-1542.06 1074.88 2093
-1546.6 1081.56 2106
-1551.81 1088.74 2120
-1546.74 1088.74 2120
-1541.67 1088.74 2120
-1536.6 1088.74 2120
-1546.85 1125.72 2192
-1552.16 1133.42 2207
-1546.88 1133.42 2207
-1541.61 1133.42 2207
-1525.89 1125.72 2192
-1513.01 1120.07 2181
-1507.8 1120.07 2181
-1483.29 1105.69 2153
-1478.14 1105.69 2153
-1517.47 1139.07 2218
-1512.16 1139.07 2218
-1506.86 1139.07 2218
-1499.52 1137.53 2215
-1480.73 1127.26 2195
-1475.49 1127.26 2195
-1464.21 1122.64 2186
-1447.63 1113.91 2169
-1439.12 1111.34 2164
-1439.25 1115.45 2172
-1434.06 1115.45 2172
-1428.86 1115.45 2172
-1425.63 1116.99 2175
-1420.43 1116.99 2175
-1415.23 1116.99 2175
-1408.09 1115.45 2172
-1402.89 1115.45 2172
-1397.7 1115.45 2172
-1389.3 1112.88 2167
-1384.12 1112.88 2167
-1378.93 1112.88 2167
-1373.75 1112.88 2167
-1368.57 1112.88 2167
-1357.73 1108.26 2158
-1349.43 1105.69 2153
-1344.28 1105.69 2153
-1335.4 1102.61 2147
-1330.27 1102.61 2147
-1320.2 1098.5 2139
-1315.08 1098.5 2139
-1309.97 1098.5 2139
-1304.85 1098.5 2139
-1297.91 1096.96 2136
-1292.81 1096.96 2136
-1284.68 1094.39 2131
-1279.59 1094.39 2131
-1274.49 1094.39 2131
-1275.95 1100.04 2142
-1270.83 1100.04 2142
-1266.89 1101.07 2144
-1270 1108.26 2158
-1266.6 1109.8 2161
-1261.43 1109.8 2161
-1262.66 1115.45 2172
-1259.2 1116.99 2175
-1262.07 1124.18 2189
-1256.83 1124.18 2189
-1256.75 1128.8 2198
-1258.32 1134.97 2210
-1264.38 1145.24 2230
-1259.05 1145.24 2230
-1253.71 1145.24 2230
-1248.38 1145.24 2230
-1243.05 1145.24 2230
-1237.71 1145.24 2230
-1230.72 1143.7 2227
-1218.8 1137.53 2215
-1213.5 1137.53 2215
-1205.47 1134.97 2210
-1193.67 1128.8 2198
-1186.8 1127.26 2195
-1179.93 1125.72 2192
-1174.69 1125.72 2192
-1166.25 1122.64 2186
-1158.36 1120.07 2181
-1145.75 1112.88 2167
-1140.56 1112.88 2167
-1135.38 1112.88 2167
-1128.64 1111.34 2164
-1123.46 1111.34 2164
-1118.29 1111.34 2164
-1111.57 1109.8 2161
-1104.86 1108.26 2158
-1099.7 1108.26 2158
-1094.54 1108.26 2158
-1089.38 1108.26 2158
-1085.73 1109.8 2161
-1084.56 1113.91 2169
-1079.38 1113.91 2169
-1074.19 1113.91 2169
-1071.96 1116.99 2175
-1066.76 1116.99 2175
-1061.56 1116.99 2175
-1056.36 1116.99 2175
-1051.16 1116.99 2175
-1045.95 1116.99 2175
-1045.06 1121.61 2184
-1039.84 1121.61 2184
-1034.61 1121.61 2184
-1030.33 1122.64 2186
-1025.11 1122.64 2186
-1019.88 1122.64 2186
-1017.44 1125.72 2192
-1012.2 1125.72 2192
-1006.95 1125.72 2192
-1001.71 1125.72 2192
-996.471 1125.72 2192
-991.229 1125.72 2192
-987.337 1127.26 2195
-982.088 1127.26 2195
-976.839 1127.26 2195
-971.59 1127.26 2195
-966.341 1127.26 2195
-958.465 1124.18 2189
-953.23 1124.18 2189
-950.594 1127.26 2195
-945.345 1127.26 2195
-940.096 1127.26 2195
-932.292 1124.18 2189
-927.057 1124.18 2189
-921.823 1124.18 2189
-915.332 1122.64 2186
-906.774 1118.53 2178
-901.566 1118.53 2178
-898.827 1121.61 2184
-893.604 1121.61 2184
-888.382 1121.61 2184
-883.159 1121.61 2184
-874.319 1116.99 2175
-869.118 1116.99 2175
-862.725 1115.45 2172
-857.531 1115.45 2172
-857.046 1121.61 2184
-854.944 1125.72 2192
-849.702 1125.72 2192
-844.46 1125.72 2192
-838.07 1124.18 2189
-832.835 1124.18 2189
-827.601 1124.18 2189
-824.62 1127.26 2195
-820.491 1128.8 2198
-815.235 1128.8 2198
-809.979 1128.8 2198
-802.526 1125.72 2192
-796.193 1124.18 2189
-790.959 1124.18 2189
-784.647 1122.64 2186
-773.359 1113.91 2169
-766.401 1111.34 2164
-761.226 1111.34 2164
-756.052 1111.34 2164
-749.836 1109.8 2161
-743.635 1108.26 2158
-738.474 1108.26 2158
-732.294 1106.72 2155
-727.141 1106.72 2155
-721.318 1105.69 2153
-716.834 1106.72 2155
-711.681 1106.72 2155
-709.479 1111.34 2164
-705.28 1112.88 2167
-700.098 1112.88 2167
-694.916 1112.88 2167
-689.734 1112.88 2167
-684.552 1112.88 2167
-679.37 1112.88 2167
-674.189 1112.88 2167
-669.007 1112.88 2167
-664.437 1113.91 2169
-660.162 1115.45 2172
-655.873 1116.99 2175
-650.672 1116.99 2175
-648.142 1121.61 2184
-643.508 1122.64 2186
-638.281 1122.64 2186
-633.053 1122.64 2186
-627.826 1122.64 2186
-621.174 1120.07 2181
-615.959 1120.07 2181
-610.744 1120.07 2181
-605.528 1120.07 2181
-600.313 1120.07 2181
-595.916 1121.61 2184
-590.693 1121.61 2184
-588.419 1127.26 2195
-583.17 1127.26 2195
-578.711 1128.8 2198
-573.455 1128.8 2198
-568.199 1128.8 2198
-565.248 1133.42 2207
-559.971 1133.42 2207
-554.693 1133.42 2207
-549.415 1133.42 2207
-544.138 1133.42 2207
-538.86 1133.42 2207
-532.132 1130.34 2201
-526.151 1128.8 2198
-520.894 1128.8 2198
-515.638 1128.8 2198
-510.382 1128.8 2198
-505.126 1128.8 2198
-499.87 1128.8 2198
-494.614 1128.8 2198
-488.022 1125.72 2192
-481.018 1121.61 2184
-474.489 1118.53 2178
-469.28 1118.53 2178
-465.777 1122.64 2186
-460.549 1122.64 2186
-457.197 1127.26 2195
-453.801 1131.88 2204
-448.53 1131.88 2204
-443.26 1131.88 2204
-437.99 1131.88 2204
-432.13 1130.34 2201
-426.867 1130.34 2201
-421.604 1130.34 2201
-416.908 1131.88 2204
-411.637 1131.88 2204
-406.367 1131.88 2204
-401.096 1131.88 2204
-394.21 1127.26 2195
-388.429 1125.72 2192
-383.187 1125.72 2192
-377.946 1125.72 2192
-372.704 1125.72 2192
-367.462 1125.72 2192
-362.22 1125.72 2192
-356.002 1122.64 2186
-350.774 1122.64 2186
-344.756 1120.07 2181
-339.541 1120.07 2181
-332.486 1113.91 2169
-326.545 1111.34 2164
-320.925 1109.8 2161
-316.195 1111.34 2164
-311.021 1111.34 2164
-306.552 1113.91 2169
-301.366 1113.91 2169
-296.589 1115.45 2172
-291.395 1115.45 2172
-286.201 1115.45 2172
-281.007 1115.45 2172
-275.813 1115.45 2172
-270.619 1115.45 2172
-265.425 1115.45 2172
-260.231 1115.45 2172
-255.742 1118.53 2178
-251.799 1124.18 2189
-246.564 1124.18 2189
-241.33 1124.18 2189
-236.419 1125.72 2192
-231.177 1125.72 2192
-225.935 1125.72 2192
-221.298 1128.8 2198
-218.597 1142.16 2224
-213.279 1142.16 2224
-207.961 1142.16 2224
-202.916 1143.7 2227
-197.856 1145.24 2230
-192.783 1146.78 2233
-187.443 1146.78 2233
-182.103 1146.78 2233
-176.764 1146.78 2233
-171.424 1146.78 2233
-166.084 1146.78 2233
-160.744 1146.78 2233
-155.613 1148.32 2236
-150.266 1148.32 2236
-144.919 1148.32 2236
-139.572 1148.32 2236
-133.685 1143.7 2227
-128.533 1145.24 2230
-123.2 1145.24 2230
-117.867 1145.24 2230
-112.535 1145.24 2230
-107.491 1148.32 2236
-102.144 1148.32 2236
-96.7967 1148.32 2236
-90.5909 1137.53 2215
-85.2941 1137.53 2215
-79.9974 1137.53 2215
-74.7007 1137.53 2215
-69.4039 1137.53 2215
-63.702 1130.34 2201
-58.8901 1139.07 2218
-53.5862 1139.07 2218
-48.2823 1139.07 2218
-42.9784 1139.07 2218
-37.6745 1139.07 2218
-32.21 1133.42 2207
-26.786 1127.26 2195
-21.5371 1127.26 2195
-16.2882 1127.26 2195
-11.0392 1127.26 2195
-5.79033 1127.26 2195
-0.541422 1127.26 2195
4.71392 1128.8 2198
9.97001 1128.8 2198
15.2261 1128.8 2198
20.4263 1125.72 2192
25.668 1125.72 2192
30.9097 1125.72 2192
36.0195 1121.61 2184
41.1855 1120.07 2181
46.2094 1115.45 2172
51.4034 1115.45 2172
120.689 1084.64 2112
125.859 1085.66 2114
130.914 1085.66 2114
135.969 1085.66 2114
141.025 1085.66 2114
147.393 1095.42 2133
152.708 1096.96 2136
157.816 1096.96 2136
162.923 1096.96 2136
168.031 1096.96 2136
173.625 1100.04 2142
179.415 1104.15 2150
184.557 1104.15 2150
189.963 1105.69 2153
195.836 1109.8 2161
201.748 1113.91 2169
206.934 1113.91 2169
212.415 1115.45 2172
217.909 1116.99 2175
224.546 1124.18 2189
229.781 1124.18 2189
235.66 1127.26 2195
242.225 1133.42 2207
247.503 1133.42 2207
252.781 1133.42 2207
258.409 1134.97 2210
263.694 1134.97 2210
268.979 1134.97 2210
273.891 1133.42 2207
278.03 1128.8 2198
282.9 1127.26 2195
288.936 1130.34 2201
294.2 1130.34 2201
300.279 1133.42 2207
305.557 1133.42 2207
311.257 1134.97 2210
316.542 1134.97 2210
322.555 1137.53 2215
328.739 1140.61 2221
334.502 1142.16 2224
339.82 1142.16 2224
345.138 1142.16 2224
351.402 1145.24 2230
356.735 1145.24 2230
362.067 1145.24 2230
367.4 1145.24 2230
371.729 1142.16 2224
376.539 1140.61 2221
381.85 1140.61 2221
387.161 1140.61 2221
391.942 1139.07 2218
396.709 1137.53 2215
402.006 1137.53 2215
406.935 1136.51 2213
411.668 1134.97 2210
416.952 1134.97 2210
422.237 1134.97 2210
427.522 1134.97 2210
432.807 1134.97 2210
436.902 1131.88 2204
442.173 1131.88 2204
447.443 1131.88 2204
452.714 1131.88 2204
457.984 1131.88 2204
463.254 1131.88 2204
468.525 1131.88 2204
472.505 1128.8 2198
477.762 1128.8 2198
483.018 1128.8 2198
488.274 1128.8 2198
493.53 1128.8 2198
497.424 1125.72 2192
503.354 1127.26 2195
509.298 1128.8 2198
514.554 1128.8 2198
519.81 1128.8 2198
525.066 1128.8 2198
531.046 1130.34 2201
536.309 1130.34 2201
543.049 1133.42 2207
551.06 1139.07 2218
556.363 1139.07 2218
561.667 1139.07 2218
566.971 1139.07 2218
572.275 1139.07 2218
577.579 1139.07 2218
580.781 1134.97 2210
584.474 1131.88 2204
588.139 1128.8 2198
592.585 1127.26 2195
597.834 1127.26 2195
600.61 1122.64 2186
604.452 1120.07 2181
609.668 1120.07 2181
614.883 1120.07 2181
620.098 1120.07 2181
623.594 1116.99 2175
628.795 1116.99 2175
633.996 1116.99 2175
639.197 1116.99 2175
644.398 1116.99 2175
649.599 1116.99 2175
654.8 1116.99 2175
