-2687.18 -1877.53 3757
-2678.2 -1877.53 3757
-2669.21 -1877.53 3757
-2654.56 -1873.53 3749
-2645.6 -1873.53 3749
-2630.3 -1869.03 3740
-2621.36 -1869.03 3740
-2606.83 -1865.03 3732
-2580.5 -1852.54 3707
-2566.09 -1848.54 3699
-2557.24 -1848.54 3699
-2548.4 -1848.54 3699
-2534.06 -1844.55 3691
-2525.23 -1844.55 3691
-2516.41 -1844.55 3691
-2507.58 -1844.55 3691
-2493.34 -1840.55 3683
-1284.84 -1916.51 3835
-1275.67 -1916.51 3835
-1266.5 -1916.51 3835
-1254.37 -1912.01 3826
-52.3586 -985.49 1972
-47.6429 -985.49 1972
-42.9273 -985.49 1972
-38.4829 -992.486 1986
-33.9716 -999.483 2000
-29.3349 -1004.48 2010
-24.5284 -1004.48 2010
-19.82 -1009.48 2020
-15.0267 -1011.98 2025
-10.2295 -1016.47 2034
-5.36562 -1016.47 2034
-0.511083 -1035.46 2072
4.47801 -1043.46 2088
9.54363 -1051.46 2104
14.5749 -1051.46 2104
19.6062 -1051.46 2104
24.6375 -1051.46 2104
29.697 -1052.46 2106
34.7331 -1052.46 2106
39.9769 -1057.95 2117
45.1457 -1060.45 2122
50.362 -1063.45 2128
55.4507 -1063.45 2128
60.6817 -1065.95 2133
65.7823 -1065.95 2133
70.883 -1065.95 2133
75.8055 -1063.45 2128
80.8942 -1063.45 2128
85.6596 -1059.45 2120
90.7292 -1059.45 2120
95.6632 -1057.95 2117
100.583 -1056.45 2114
105.788 -1057.95 2117
110.85 -1057.95 2117
115.913 -1057.95 2117
120.975 -1057.95 2117
1331.82 -1708.62 3419
1340 -1708.62 3419
1348.17 -1708.62 3419
1356.35 -1708.62 3419
1416.92 -1722.61 3447
1442.94 -1744.1 3490
1451.28 -1744.1 3490
1475.1 -1762.59 3527
1483.54 -1762.59 3527
1491.97 -1762.59 3527
1500.4 -1762.59 3527
1508.84 -1762.59 3527
1517.27 -1762.59 3527
1525.71 -1762.59 3527
1518.05 -1744.1 3490
1523.33 -1740.6 3483
1512.75 -1719.11 3440
-2845.15 -1889.91 3800
-2836.07 -1889.91 3800
-2886.49 -1929.7 3880
-2877.22 -1929.7 3880
-2874.59 -1934.18 3889
-2865.29 -1934.18 3889
-2855.99 -1934.18 3889
-2813.75 -1911.8 3844
-2804.56 -1911.8 3844
-2776.46 -1898.87 3818
-2760.81 -1894.39 3809
-2745.2 -1889.91 3800
-2736.11 -1889.91 3800
-2714.82 -1881.46 3783
-2687.18 -1868.53 3757
-2678.2 -1868.53 3757
-2669.21 -1868.53 3757
-2648.19 -1860.07 3740
-2633.6 -1856.09 3732
-2624.68 -1856.09 3732
-2615.75 -1856.09 3732
-2601.24 -1852.12 3724
-2580.5 -1843.66 3707
-2566.09 -1839.68 3699
-2557.24 -1839.68 3699
-2548.4 -1839.68 3699
-2539.55 -1839.68 3699
-2530.71 -1839.68 3699
-2521.86 -1839.68 3699
-2513.01 -1839.68 3699
-2493.34 -1831.72 3683
-1315.75 -1873 3766
-1306.75 -1873 3766
-1297.74 -1873 3766
-1318.51 -1916.27 3853
-1315.41 -1925.23 3871
-1306.15 -1925.23 3871
-1296.9 -1925.23 3871
-1287.64 -1925.23 3871
-1278.38 -1925.23 3871
-1269.13 -1925.23 3871
-1256.94 -1920.75 3862
-52.5444 -984.247 1979
-47.8604 -985.242 1981
-43.1232 -985.242 1981
-38.7542 -994.692 2000
-34.1414 -999.665 2010
-29.4809 -1004.64 2020
-24.6504 -1004.64 2020
-19.8396 -1005.63 2022
-15.0638 -1009.61 2030
-10.2798 -1016.57 2044
-5.392 -1016.57 2044
-0.511083 -1030.5 2072
4.47801 -1038.46 2088
9.54363 -1046.42 2104
14.5749 -1046.42 2104
19.6062 -1046.42 2104
24.6375 -1046.42 2104
29.697 -1047.41 2106
34.7331 -1047.41 2106
39.9769 -1052.88 2117
45.1457 -1055.37 2122
50.362 -1058.35 2128
55.4507 -1058.35 2128
60.6817 -1060.84 2133
65.7823 -1060.84 2133
70.883 -1060.84 2133
75.8055 -1058.35 2128
80.8942 -1058.35 2128
85.7405 -1055.37 2122
90.8148 -1055.37 2122
95.7988 -1054.37 2120
100.868 -1054.37 2120
105.938 -1054.37 2120
111.007 -1054.37 2120
116.351 -1056.86 2125
121.432 -1056.86 2125
126.514 -1056.86 2125
1331.82 -1700.43 3419
1340 -1700.43 3419
1348.17 -1700.43 3419
1356.35 -1700.43 3419
1416.92 -1714.35 3447
1437.15 -1728.77 3476
1445.46 -1728.77 3476
1459.63 -1735.74 3490
1467.97 -1735.74 3490
1476.32 -1735.74 3490
1484.66 -1735.74 3490
1493.01 -1735.74 3490
1498.34 -1732.26 3483
1491.1 -1714.35 3447
1499.34 -1714.35 3447
1504.52 -1710.87 3440
1503.52 -1700.43 3419
-2845.15 -1880.81 3800
-2836.07 -1880.81 3800
-2886.49 -1920.41 3880
-2877.22 -1920.41 3880
-2874.59 -1924.86 3889
-2865.29 -1924.86 3889
-2855.99 -1924.86 3889
-2813.75 -1902.59 3844
-2804.56 -1902.59 3844
-2776.46 -1889.72 3818
-2760.81 -1885.27 3809
-2745.2 -1880.81 3800
-2736.11 -1880.81 3800
-2714.82 -1872.4 3783
-2687.18 -1859.53 3757
-2672.49 -1855.57 3749
-2663.53 -1855.57 3749
-2642.53 -1847.15 3732
-2633.6 -1847.15 3732
-2619.05 -1843.19 3724
-2610.15 -1843.19 3724
-2601.24 -1843.19 3724
-2592.34 -1843.19 3724
-2571.64 -1834.78 3707
-2562.77 -1834.78 3707
-2548.4 -1830.82 3699
-2539.55 -1830.82 3699
-2530.71 -1830.82 3699
-2521.86 -1830.82 3699
-2513.01 -1830.82 3699
-2498.75 -1826.86 3691
-1315.75 -1863.98 3766
-1306.75 -1863.98 3766
-1297.74 -1863.98 3766
-1318.51 -1907.04 3853
-1315.41 -1915.95 3871
-1306.15 -1915.95 3871
-1296.9 -1915.95 3871
-1287.64 -1915.95 3871
-1278.38 -1915.95 3871
-1269.13 -1915.95 3871
-1256.94 -1911.5 3862
-1233.49 -1889.72 3818
-1224.36 -1889.72 3818
-52.5444 -979.507 1979
-47.8604 -980.497 1981
-43.1232 -980.497 1981
-38.7542 -989.901 2000
-34.1414 -994.85 2010
-29.4809 -999.8 2020
-24.6504 -999.8 2020
-19.8396 -1000.79 2022
-15.0638 -1004.75 2030
-10.2798 -1011.68 2044
-5.392 -1011.68 2044
-0.508616 -1020.59 2062
4.47801 -1033.46 2088
9.49373 -1035.93 2093
14.4987 -1035.93 2093
19.5317 -1037.42 2096
24.6375 -1041.38 2104
29.697 -1042.37 2106
34.7331 -1042.37 2106
39.8259 -1043.85 2109
45.1031 -1049.29 2120
50.291 -1051.77 2125
55.3726 -1051.77 2125
60.5394 -1053.25 2128
65.6281 -1053.25 2128
70.7168 -1053.25 2128
75.8055 -1053.25 2128
80.8942 -1053.25 2128
85.7405 -1050.28 2122
90.8148 -1050.28 2122
95.7988 -1049.29 2120
100.868 -1049.29 2120
105.938 -1049.29 2120
111.007 -1049.29 2120
116.351 -1051.77 2125
121.432 -1051.77 2125
126.514 -1051.77 2125
1331.82 -1692.24 3419
1340 -1692.24 3419
1348.17 -1692.24 3419
1356.35 -1692.24 3419
1364.53 -1692.24 3419
1423.38 -1723.91 3483
1431.71 -1723.91 3483
1445.83 -1730.84 3497
1454.19 -1730.84 3497
1468.83 -1738.27 3512
1477.23 -1738.27 3512
1485.63 -1738.27 3512
1494.02 -1738.27 3512
1499.43 -1734.8 3505
1501.36 -1727.38 3490
1497.16 -1713.02 3461
1505.43 -1713.02 3461
1510.65 -1709.56 3454
1512.75 -1702.63 3440
-2845.15 -1871.71 3800
-2836.07 -1871.71 3800
-2873.1 -1902.25 3862
-2863.87 -1902.25 3862
-2854.63 -1902.25 3862
-2845.4 -1902.25 3862
-2836.16 -1902.25 3862
-2813.75 -1893.38 3844
-2804.56 -1893.38 3844
-2776.46 -1880.57 3818
-2760.81 -1876.14 3809
-2745.2 -1871.71 3800
-2736.11 -1871.71 3800
-2714.82 -1863.33 3783
-2687.18 -1850.53 3757
-2672.49 -1846.59 3749
-2663.53 -1846.59 3749
-2642.53 -1838.21 3732
-2633.6 -1838.21 3732
-2619.05 -1834.27 3724
-2610.15 -1834.27 3724
-2601.24 -1834.27 3724
-2592.34 -1834.27 3724
-2571.64 -1825.9 3707
-2562.77 -1825.9 3707
-2548.4 -1821.96 3699
-2539.55 -1821.96 3699
-2530.71 -1821.96 3699
-2521.86 -1821.96 3699
-2513.01 -1821.96 3699
-2498.75 -1818.02 3691
-1315.75 -1854.96 3766
-1306.75 -1854.96 3766
-1297.74 -1854.96 3766
-1318.51 -1897.81 3853
-1315.41 -1906.68 3871
-1306.15 -1906.68 3871
-1296.9 -1906.68 3871
-1287.64 -1906.68 3871
-1278.38 -1906.68 3871
-1269.13 -1906.68 3871
-1256.94 -1902.25 3862
-1233.49 -1880.57 3818
-1224.36 -1880.57 3818
-52.5975 -975.751 1981
-48.3194 -985.11 2000
-43.5368 -985.11 2000
-39.0836 -993.483 2017
-34.5151 -1000.87 2032
-29.656 -1000.87 2032
-24.7969 -1000.87 2032
-19.9868 -1003.33 2037
-15.1676 -1006.78 2044
-10.3703 -1015.65 2062
-5.43948 -1015.65 2062
-0.511083 -1020.57 2072
4.49517 -1032.39 2096
9.50734 -1032.39 2096
14.5195 -1032.39 2096
19.5317 -1032.39 2096
24.6375 -1036.34 2104
29.6688 -1036.34 2104
34.7001 -1036.34 2104
39.8825 -1040.28 2112
45.0393 -1042.74 2117
50.22 -1045.2 2122
55.2944 -1045.2 2122
60.4541 -1046.68 2125
65.5356 -1046.68 2125
70.6171 -1046.68 2125
75.6986 -1046.68 2125
80.7802 -1046.68 2125
85.7405 -1045.2 2122
90.8148 -1045.2 2122
95.8891 -1045.2 2122
100.868 -1044.22 2120
105.938 -1044.22 2120
111.007 -1044.22 2120
116.351 -1046.68 2125
121.432 -1046.68 2125
126.99 -1050.62 2133
132.091 -1050.62 2133
137.191 -1050.62 2133
142.292 -1050.62 2133
1342.73 -1697.84 3447
1350.97 -1697.84 3447
1359.22 -1697.84 3447
1367.46 -1697.84 3447
1378.49 -1701.28 3454
1407.23 -1726.4 3505
1415.61 -1726.4 3505
1423.99 -1726.4 3505
1432.37 -1726.4 3505
1440.76 -1726.4 3505
1461.13 -1740.69 3534
1469.58 -1740.69 3534
1478.03 -1740.69 3534
1486.48 -1740.69 3534
1494.93 -1740.69 3534
1503.38 -1740.69 3534
1502.42 -1729.85 3512
1507.81 -1726.4 3505
1516.19 -1726.4 3505
1518.05 -1719.02 3490
1513.71 -1704.73 3461
1512.75 -1694.39 3440
-2845.15 -1862.61 3800
-2836.07 -1862.61 3800
-2873.1 -1893 3862
-2863.87 -1893 3862
-2854.63 -1893 3862
-2845.4 -1893 3862
-2836.16 -1893 3862
-2813.75 -1884.17 3844
-2804.56 -1884.17 3844
-2776.46 -1871.43 3818
-2760.81 -1867.02 3809
-2745.2 -1862.61 3800
-2736.11 -1862.61 3800
-2714.82 -1854.27 3783
-2687.18 -1841.53 3757
-2672.49 -1837.61 3749
-2663.53 -1837.61 3749
-2642.53 -1829.27 3732
-2627.96 -1825.35 3724
-2619.05 -1825.35 3724
-2610.15 -1825.35 3724
-2601.24 -1825.35 3724
-2592.34 -1825.35 3724
-2571.64 -1817.02 3707
-2562.77 -1817.02 3707
-2548.4 -1813.1 3699
-2539.55 -1813.1 3699
-2530.71 -1813.1 3699
-2521.86 -1813.1 3699
-2513.01 -1813.1 3699
-2498.75 -1809.18 3691
-1312.8 -1829.27 3732
-1315.75 -1845.94 3766
-1306.75 -1845.94 3766
-1297.74 -1845.94 3766
-1297.63 -1858.68 3792
-1312.35 -1893 3862
-1303.12 -1893 3862
-1293.88 -1893 3862
-1284.65 -1893 3862
-1275.41 -1893 3862
-1260.28 -1884.17 3844
-1251.08 -1884.17 3844
-1233.49 -1871.43 3818
-1224.36 -1871.43 3818
-53.8189 -993.553 2027
-48.9717 -993.553 2027
-44.1245 -993.553 2027
-39.7037 -1004.34 2049
-35.1606 -1014.63 2070
-30.2106 -1014.63 2070
-25.2606 -1014.63 2070
-20.3106 -1014.63 2070
-15.3606 -1014.63 2070
-10.4206 -1015.61 2072
-5.46586 -1015.61 2072
-0.513056 -1019.53 2080
4.49517 -1027.37 2096
9.50734 -1027.37 2096
14.5195 -1027.37 2096
19.5317 -1027.37 2096
24.6375 -1031.3 2104
29.697 -1032.28 2106
34.7331 -1032.28 2106
39.8825 -1035.22 2112
45.0393 -1037.67 2117
50.22 -1040.12 2122
55.2944 -1040.12 2122
60.4541 -1041.59 2125
65.5356 -1041.59 2125
70.6171 -1041.59 2125
75.6986 -1041.59 2125
80.7802 -1041.59 2125
85.7405 -1040.12 2122
90.8148 -1040.12 2122
95.8891 -1040.12 2122
100.868 -1039.14 2120
105.938 -1039.14 2120
111.007 -1039.14 2120
116.351 -1041.59 2125
121.432 -1041.59 2125
126.99 -1045.51 2133
132.091 -1045.51 2133
137.577 -1048.45 2139
142.692 -1048.45 2139
147.807 -1048.45 2139
152.708 -1046.98 2136
157.816 -1046.98 2136
1342.79 -1710.66 3490
1351.13 -1710.66 3490
1359.48 -1710.66 3490
1362.34 -1703.79 3476
1370.65 -1703.79 3476
1375.79 -1699.87 3468
1384.08 -1699.87 3468
1407.23 -1718.01 3505
1424.5 -1728.79 3527
1432.93 -1728.79 3527
1444.23 -1732.22 3534
1452.68 -1732.22 3534
1470.64 -1743.5 3557
1479.14 -1743.5 3557
1487.65 -1743.5 3557
1492.79 -1739.58 3549
1501.28 -1739.58 3549
1503.38 -1732.22 3534
1511.83 -1732.22 3534
1507.81 -1718.01 3505
1516.19 -1718.01 3505
1518.05 -1710.66 3490
1523.33 -1707.22 3483
1512.75 -1686.15 3440
-2832.42 -1845.21 3783
-2823.38 -1845.21 3783
-2826.98 -1853.5 3800
-2843.85 -1870.57 3835
-2847.98 -1879.35 3853
-2838.77 -1879.35 3853
-2829.55 -1879.35 3853
-2800.58 -1866.18 3826
-2791.43 -1866.18 3826
-2769.92 -1857.89 3809
-2754.28 -1853.5 3800
-2732.92 -1845.21 3783
-2723.87 -1845.21 3783
-2708.36 -1840.82 3774
-2681.46 -1828.63 3749
-2660.37 -1820.33 3732
-2651.45 -1820.33 3732
-2642.53 -1820.33 3732
-2627.96 -1816.43 3724
-2619.05 -1816.43 3724
-2610.15 -1816.43 3724
-2601.24 -1816.43 3724
-2586.77 -1812.53 3716
-2571.64 -1808.14 3707
-2562.77 -1808.14 3707
-2548.4 -1804.24 3699
-2539.55 -1804.24 3699
-2525.23 -1800.34 3691
-2516.41 -1800.34 3691
-2507.58 -1800.34 3691
-1312.8 -1820.33 3732
-1303.87 -1820.33 3732
-1294.95 -1820.33 3732
-1286.03 -1820.33 3732
-1288.74 -1836.92 3766
-1288.57 -1849.6 3792
-1279.5 -1849.6 3792
-1270.43 -1849.6 3792
-1264.02 -1853.5 3800
-1254.94 -1853.5 3800
-1245.85 -1853.5 3800
-1234.16 -1849.6 3792
-1225.09 -1849.6 3792
-1216.02 -1849.6 3792
-1201.23 -1840.82 3774
-53.8189 -988.697 2027
-49.5032 -999.428 2049
-44.6034 -999.428 2049
-40.1106 -1009.67 2070
-35.3814 -1016.01 2083
-30.4295 -1016.99 2085
-25.4436 -1016.99 2085
-20.4578 -1016.99 2085
-15.457 -1016.01 2083
-10.476 -1016.01 2083
-5.49488 -1016.01 2083
-0.514289 -1016.99 2085
4.49517 -1022.35 2096
9.50734 -1022.35 2096
14.5195 -1022.35 2096
19.5317 -1022.35 2096
24.6375 -1026.26 2104
29.697 -1027.23 2106
34.7331 -1027.23 2106
39.8825 -1030.16 2112
45.0393 -1032.6 2117
50.22 -1035.03 2122
55.2944 -1035.03 2122
60.4541 -1036.5 2125
65.5356 -1036.5 2125
70.6171 -1036.5 2125
75.6986 -1036.5 2125
80.7802 -1036.5 2125
85.7405 -1035.03 2122
90.8148 -1035.03 2122
95.8891 -1035.03 2122
100.868 -1034.06 2120
105.938 -1034.06 2120
111.007 -1034.06 2120
116.351 -1036.5 2125
121.432 -1036.5 2125
126.99 -1040.4 2133
132.091 -1040.4 2133
137.577 -1043.33 2139
142.692 -1043.33 2139
147.807 -1043.33 2139
152.922 -1043.33 2139
158.037 -1043.33 2139
163.152 -1043.33 2139
1342.79 -1702.3 3490
1351.13 -1702.3 3490
1359.48 -1702.3 3490
1362.34 -1695.47 3476
1370.65 -1695.47 3476
1375.79 -1691.56 3468
1384.08 -1691.56 3468
1407.23 -1709.61 3505
1424.5 -1720.34 3527
1432.93 -1720.34 3527
1444.23 -1723.76 3534
1452.68 -1723.76 3534
1470.64 -1734.98 3557
1479.14 -1734.98 3557
1487.65 -1734.98 3557
1492.79 -1731.07 3549
1501.28 -1731.07 3549
1503.38 -1723.76 3534
1511.83 -1723.76 3534
1507.81 -1709.61 3505
1516.19 -1709.61 3505
1518.05 -1702.3 3490
1523.33 -1698.88 3483
-2806.97 -1819.65 3749
-2798 -1819.65 3749
-2814.33 -1836.15 3783
-2805.29 -1836.15 3783
-2808.81 -1844.4 3800
-2799.72 -1844.4 3800
-2790.63 -1844.4 3800
-2775.69 -1840.52 3792
-2766.62 -1840.52 3792
-2757.55 -1840.52 3792
-2723.12 -1823.53 3757
-2714.13 -1823.53 3757
-2705.15 -1823.53 3757
-2690.42 -1819.65 3749
-2675.02 -1815.28 3740
-2654.67 -1807.51 3724
-2645.77 -1807.51 3724
-2631.2 -1803.63 3716
-2622.31 -1803.63 3716
-2613.42 -1803.63 3716
-2604.54 -1803.63 3716
-2595.65 -1803.63 3716
-2586.77 -1803.63 3716
-2571.64 -1799.26 3707
-2562.77 -1799.26 3707
-2548.4 -1795.38 3699
-2528.57 -1787.61 3683
-2508.81 -1779.85 3667
-2500.04 -1779.85 3667
-2491.27 -1779.85 3667
-1321.59 -1823.53 3757
-1312.61 -1823.53 3757
-1303.62 -1823.53 3757
-1291.88 -1819.65 3749
-1288.74 -1827.9 3766
-1288.57 -1840.52 3792
-1279.5 -1840.52 3792
-1270.43 -1840.52 3792
-1264.02 -1844.4 3800
-1254.94 -1844.4 3800
-1245.85 -1844.4 3800
-1234.16 -1840.52 3792
-1225.09 -1840.52 3792
-1216.02 -1840.52 3792
-1201.23 -1831.78 3774
-1181.46 -1815.28 3740
-53.8189 -983.841 2027
-50.3246 -1011.02 2083
-45.3436 -1011.02 2083
-40.4594 -1013.45 2088
-35.4663 -1013.45 2088
-30.4733 -1013.45 2088
-25.4436 -1011.99 2085
-20.4578 -1011.99 2085
-15.457 -1011.02 2083
-10.476 -1011.02 2083
-5.49488 -1011.02 2083
-0.514289 -1011.99 2085
4.49517 -1017.33 2096
9.50734 -1017.33 2096
14.5195 -1017.33 2096
19.5317 -1017.33 2096
24.6375 -1021.21 2104
29.697 -1022.19 2106
34.7331 -1022.19 2106
39.8825 -1025.1 2112
45.0393 -1027.52 2117
50.22 -1029.95 2122
55.2944 -1029.95 2122
60.3687 -1029.95 2122
65.4431 -1029.95 2122
70.5174 -1029.95 2122
75.5918 -1029.95 2122
80.6661 -1029.95 2122
85.7405 -1029.95 2122
90.8148 -1029.95 2122
95.7988 -1028.98 2120
100.868 -1028.98 2120
105.938 -1028.98 2120
111.007 -1028.98 2120
116.187 -1029.95 2122
121.261 -1029.95 2122
126.692 -1032.86 2128
132.091 -1035.29 2133
137.577 -1038.2 2139
142.692 -1038.2 2139
147.807 -1038.2 2139
152.922 -1038.2 2139
158.037 -1038.2 2139
163.152 -1038.2 2139
1348.56 -1701.22 3505
1356.94 -1701.22 3505
1365.32 -1701.22 3505
1367.83 -1693.94 3490
1376.17 -1693.94 3490
1384.52 -1693.94 3490
1401.64 -1704.61 3512
1416.06 -1711.89 3527
1427.32 -1715.29 3534
1435.78 -1715.29 3534
1450.36 -1722.57 3549
1465.42 -1730.34 3565
1473.94 -1730.34 3565
1482.47 -1730.34 3565
1490.99 -1730.34 3565
1499.52 -1730.34 3565
1508.04 -1730.34 3565
1513.17 -1726.45 3557
1511.83 -1715.29 3534
1520.28 -1715.29 3534
1528.73 -1715.29 3534
1531.1 -1708.5 3520
1526.39 -1693.94 3490
-2806.97 -1810.66 3749
-2798 -1810.66 3749
-2814.33 -1827.09 3783
-2831.24 -1843.99 3818
-2822.11 -1843.99 3818
-2812.98 -1843.99 3818
-2784.76 -1831.43 3792
-2769.1 -1827.09 3783
-2760.05 -1827.09 3783
-2732.1 -1814.53 3757
-2723.12 -1814.53 3757
-2714.13 -1814.53 3757
-2705.15 -1814.53 3757
-2683.96 -1806.32 3740
-2663.58 -1798.59 3724
-2648.97 -1794.73 3716
-2640.08 -1794.73 3716
-2624.82 -1790.38 3707
-2622.31 -1794.73 3716
-2613.42 -1794.73 3716
-2604.54 -1794.73 3716
-2595.65 -1794.73 3716
-2586.77 -1794.73 3716
-2571.64 -1790.38 3707
-2562.77 -1790.38 3707
-2548.4 -1786.52 3699
-2528.57 -1778.79 3683
-2508.81 -1771.06 3667
-2500.04 -1771.06 3667
-2491.27 -1771.06 3667
-1339.79 -1827.09 3783
-1330.74 -1827.09 3783
-1321.69 -1827.09 3783
-1312.65 -1827.09 3783
-1294.64 -1814.53 3757
-1285.66 -1814.53 3757
-1282.45 -1822.74 3774
-1273.42 -1822.74 3774
-1264.4 -1822.74 3774
-1252.71 -1818.88 3766
-1252.29 -1831.43 3792
-1243.23 -1831.43 3792
-1234.16 -1831.43 3792
-1225.09 -1831.43 3792
-1216.02 -1831.43 3792
-1201.23 -1822.74 3774
-1181.46 -1806.32 3740
-50.3246 -1006.03 2083
-45.3436 -1006.03 2083
-40.4594 -1008.45 2088
-35.5173 -1009.9 2091
-30.5171 -1009.9 2091
-25.5168 -1009.9 2091
-20.5166 -1009.9 2091
-15.4942 -1008.45 2088
-10.5011 -1008.45 2088
-5.50807 -1008.45 2088
-0.515029 -1008.45 2088
4.48873 -1010.86 2093
9.49373 -1010.86 2093
14.4987 -1010.86 2093
19.5037 -1010.86 2093
24.5673 -1013.28 2098
29.697 -1017.14 2106
34.7331 -1017.14 2106
39.8825 -1020.04 2112
44.9755 -1021 2114
50.1017 -1022.45 2117
55.1641 -1022.45 2117
60.3687 -1024.87 2122
65.4431 -1024.87 2122
70.5174 -1024.87 2122
75.5918 -1024.87 2122
80.6661 -1024.87 2122
85.6596 -1023.9 2120
90.7292 -1023.9 2120
95.7988 -1023.9 2120
100.726 -1022.45 2117
105.788 -1022.45 2117
111.007 -1023.9 2120
116.187 -1024.87 2122
121.261 -1024.87 2122
126.692 -1027.77 2128
131.967 -1029.21 2131
137.577 -1033.08 2139
142.692 -1033.08 2139
147.807 -1033.08 2139
152.922 -1033.08 2139
158.037 -1033.08 2139
163.152 -1033.08 2139
167.638 -1029.21 2131
1348.56 -1692.82 3505
1356.94 -1692.82 3505
1365.32 -1692.82 3505
1367.83 -1685.57 3490
1376.17 -1685.57 3490
1384.52 -1685.57 3490
1401.64 -1696.2 3512
1424.9 -1714.07 3549
1439.84 -1721.8 3565
1448.37 -1721.8 3565
1466.29 -1732.91 3588
1481.04 -1740.15 3603
1489.66 -1740.15 3603
1498.27 -1740.15 3603
1506.89 -1740.15 3603
1515.5 -1740.15 3603
1524.12 -1740.15 3603
1526.35 -1732.91 3588
1528.09 -1725.18 3572
1520.28 -1706.83 3534
1528.73 -1706.83 3534
1531.1 -1700.06 3520
1532.95 -1692.82 3505
-2825.69 -1813.7 3774
-2816.66 -1813.7 3774
-2840.37 -1834.84 3818
-2837.17 -1838.69 3826
-2828.02 -1838.69 3826
-2818.87 -1838.69 3826
-2803.85 -1834.84 3818
-2775.69 -1822.35 3792
-2766.62 -1822.35 3792
-2738.65 -1809.85 3766
-2729.64 -1809.85 3766
-2720.63 -1809.85 3766
-2711.63 -1809.85 3766
-2683.96 -1797.36 3740
-2663.58 -1789.67 3724
-2654.67 -1789.67 3724
-2645.77 -1789.67 3724
-2624.82 -1781.5 3707
-2615.96 -1781.5 3707
-2613.42 -1785.83 3716
-2604.54 -1785.83 3716
-2595.65 -1785.83 3716
-2586.77 -1785.83 3716
-2571.64 -1781.5 3707
-2562.77 -1781.5 3707
-2542.88 -1773.81 3691
-2517.58 -1762.28 3667
-2508.81 -1762.28 3667
-2500.04 -1762.28 3667
-2491.27 -1762.28 3667
-1339.79 -1818.02 3783
-1330.74 -1818.02 3783
-1321.69 -1818.02 3783
-1312.65 -1818.02 3783
-1294.64 -1805.53 3757
-1285.66 -1805.53 3757
-1282.45 -1813.7 3774
-1273.42 -1813.7 3774
-1264.4 -1813.7 3774
-1255.38 -1813.7 3774
-1246.35 -1813.7 3774
-1237.33 -1813.7 3774
-1228.3 -1813.7 3774
-1219.28 -1813.7 3774
-1210.25 -1813.7 3774
-1198.68 -1809.85 3766
-1181.46 -1797.36 3740
-50.6387 -1007.29 2096
-45.6265 -1007.29 2096
-40.6144 -1007.29 2096
-35.6362 -1008.25 2098
-30.6192 -1008.25 2098
-25.6023 -1008.25 2098
-20.5853 -1008.25 2098
-15.5313 -1005.85 2093
-10.5263 -1005.85 2093
-5.52126 -1005.85 2093
-0.515769 -1004.89 2091
4.48445 -1004.89 2091
9.49373 -1005.85 2093
14.4987 -1005.85 2093
19.5037 -1005.85 2093
24.5673 -1008.25 2098
29.697 -1012.1 2106
34.7331 -1012.1 2106
39.8259 -1013.54 2109
44.9755 -1015.94 2114
50.1017 -1017.38 2117
55.1641 -1017.38 2117
60.3118 -1018.82 2120
65.3814 -1018.82 2120
70.451 -1018.82 2120
75.5205 -1018.82 2120
80.5901 -1018.82 2120
85.5384 -1017.38 2117
90.6008 -1017.38 2117
95.6632 -1017.38 2117
100.726 -1017.38 2117
105.788 -1017.38 2117
111.007 -1018.82 2120
116.187 -1019.78 2122
121.261 -1019.78 2122
126.514 -1021.23 2125
131.781 -1022.67 2128
137.063 -1024.11 2131
142.159 -1024.11 2131
147.255 -1024.11 2131
152.493 -1025.07 2133
157.594 -1025.07 2133
162.695 -1025.07 2133
167.638 -1024.11 2131
1348.56 -1684.42 3505
1356.94 -1684.42 3505
1365.32 -1684.42 3505
1367.83 -1677.21 3490
1376.17 -1677.21 3490
1384.52 -1677.21 3490
1401.64 -1687.79 3512
1440.55 -1724.31 3588
1464.89 -1743.05 3627
1473.56 -1743.05 3627
1482.23 -1743.05 3627
1490.91 -1743.05 3627
1499.58 -1743.05 3627
1508.25 -1743.05 3627
1516.93 -1743.05 3627
1522.23 -1739.21 3619
1530.89 -1739.21 3619
1532.74 -1731.52 3603
1534.93 -1724.31 3588
1536.63 -1716.62 3572
1545.17 -1716.62 3572
1537.19 -1698.36 3534
1539.51 -1691.63 3520
-2825.69 -1804.66 3774
-2816.66 -1804.66 3774
-2840.37 -1825.7 3818
-2837.17 -1829.52 3826
-2828.02 -1829.52 3826
-2818.87 -1829.52 3826
-2803.85 -1825.7 3818
-2775.69 -1813.27 3792
-2766.62 -1813.27 3792
-2738.65 -1800.83 3766
-2729.64 -1800.83 3766
-2720.63 -1800.83 3766
-2711.63 -1800.83 3766
-2683.96 -1788.4 3740
-2663.58 -1780.75 3724
-2654.67 -1780.75 3724
-2645.77 -1780.75 3724
-2624.82 -1772.62 3707
-2615.96 -1772.62 3707
-2613.42 -1776.92 3716
-2604.54 -1776.92 3716
-2595.65 -1776.92 3716
-2586.77 -1776.92 3716
-2571.64 -1772.62 3707
-2562.77 -1772.62 3707
-2542.88 -1764.97 3691
-2517.58 -1753.49 3667
-2508.81 -1753.49 3667
-2500.04 -1753.49 3667
-2491.27 -1753.49 3667
-1348.99 -1821.39 3809
-1339.89 -1821.39 3809
-1330.78 -1821.39 3809
-1315.77 -1813.27 3792
-1294.64 -1796.53 3757
-1291.47 -1804.66 3774
-1285.51 -1808.96 3783
-1276.46 -1808.96 3783
-1267.42 -1808.96 3783
-1258.37 -1808.96 3783
-1249.32 -1808.96 3783
-1240.28 -1808.96 3783
-1231.23 -1808.96 3783
-1222.18 -1808.96 3783
-1213.14 -1808.96 3783
-1198.68 -1800.83 3766
-1186.83 -1796.53 3757
-50.6387 -1002.27 2096
-45.6265 -1002.27 2096
-40.6531 -1003.23 2098
-35.7381 -1006.09 2104
-30.7068 -1006.09 2104
-25.6755 -1006.09 2104
-20.6442 -1006.09 2104
-15.6129 -1006.09 2104
-10.5816 -1006.09 2104
-5.52917 -1002.27 2096
-0.515769 -999.878 2091
4.48445 -999.878 2091
9.49373 -1000.83 2093
14.4987 -1000.83 2093
19.5037 -1000.83 2093
24.5673 -1003.23 2098
29.697 -1007.05 2106
34.7331 -1007.05 2106
39.8259 -1008.49 2109
44.9755 -1010.88 2114
50.1017 -1012.31 2117
55.1641 -1012.31 2117
60.3118 -1013.75 2120
65.3814 -1013.75 2120
70.451 -1013.75 2120
75.5205 -1013.75 2120
80.5901 -1013.75 2120
85.5384 -1012.31 2117
90.6008 -1012.31 2117
95.6632 -1012.31 2117
100.726 -1012.31 2117
105.788 -1012.31 2117
111.007 -1013.75 2120
116.187 -1014.7 2122
121.261 -1014.7 2122
126.514 -1016.14 2125
131.781 -1017.57 2128
137.063 -1019.01 2131
142.159 -1019.01 2131
147.255 -1019.01 2131
152.493 -1019.96 2133
157.594 -1019.96 2133
162.695 -1019.96 2133
167.638 -1019.01 2131
172.491 -1017.57 2128
177.579 -1017.57 2128
1359.48 -1668.85 3490
1367.83 -1668.85 3490
1376.17 -1668.85 3490
1384.52 -1668.85 3490
1401.64 -1679.37 3512
1440.55 -1715.72 3588
1464.89 -1734.37 3627
1473.56 -1734.37 3627
1482.23 -1734.37 3627
1490.91 -1734.37 3627
1499.58 -1734.37 3627
1508.25 -1734.37 3627
1516.93 -1734.37 3627
1522.23 -1730.54 3619
1530.89 -1730.54 3619
1532.74 -1722.89 3603
1534.93 -1715.72 3588
1536.63 -1708.07 3572
1545.17 -1708.07 3572
1537.19 -1689.89 3534
1539.51 -1683.2 3520
-2825.69 -1795.62 3774
-2816.66 -1795.62 3774
-2840.37 -1816.55 3818
-2837.17 -1820.36 3826
-2828.02 -1820.36 3826
-2818.87 -1820.36 3826
-2809.73 -1820.36 3826
-2794.72 -1816.55 3818
-2785.59 -1816.55 3818
-2751.01 -1799.9 3783
-2735.44 -1795.62 3774
-2726.41 -1795.62 3774
-2717.39 -1795.62 3774
-2690.42 -1783.72 3749
-2669.3 -1775.63 3732
-2654.67 -1771.83 3724
-2645.77 -1771.83 3724
-2624.82 -1763.74 3707
-2615.96 -1763.74 3707
-2607.1 -1763.74 3707
-2604.54 -1768.02 3716
-2595.65 -1768.02 3716
-2586.77 -1768.02 3716
-2571.64 -1763.74 3707
-2562.77 -1763.74 3707
-2542.88 -1756.13 3691
-2517.58 -1744.71 3667
-2508.81 -1744.71 3667
-2500.04 -1744.71 3667
-2491.27 -1744.71 3667
-2471 -1736.62 3650
-2452.15 -1729.48 3635
-1348.99 -1812.27 3809
-1339.89 -1812.27 3809
-1330.78 -1812.27 3809
-1315.77 -1804.18 3792
-1303.6 -1799.9 3783
-1291.47 -1795.62 3774
-1285.51 -1799.9 3783
-1276.46 -1799.9 3783
-1267.42 -1799.9 3783
-1258.37 -1799.9 3783
-1249.32 -1799.9 3783
-1240.28 -1799.9 3783
-1231.23 -1799.9 3783
-1222.18 -1799.9 3783
-1213.14 -1799.9 3783
-1198.68 -1791.81 3766
-1186.83 -1787.53 3757
-82.252 -1016.28 2136
-77.1442 -1016.28 2136
-72.0364 -1016.28 2136
-50.832 -1001.05 2104
-45.8007 -1001.05 2104
-40.8081 -1002.01 2106
-35.823 -1003.43 2109
-30.7798 -1003.43 2109
-25.7365 -1003.43 2109
-20.6638 -1002.01 2106
-15.6129 -1001.05 2104
-10.5816 -1001.05 2104
-5.52917 -997.248 2096
-0.515769 -994.869 2091
4.48445 -994.869 2091
9.49373 -995.821 2093
14.4987 -995.821 2093
19.5037 -995.821 2093
24.5673 -998.2 2098
29.6688 -1001.05 2104
34.7001 -1001.05 2104
39.8259 -1003.43 2109
44.9755 -1005.81 2114
50.1017 -1007.24 2117
55.1641 -1007.24 2117
60.3118 -1008.67 2120
65.3814 -1008.67 2120
70.451 -1008.67 2120
75.5205 -1008.67 2120
80.5901 -1008.67 2120
85.5384 -1007.24 2117
90.6008 -1007.24 2117
95.6632 -1007.24 2117
100.583 -1005.81 2114
105.638 -1005.81 2114
110.85 -1007.24 2117
116.077 -1008.67 2120
121.147 -1008.67 2120
126.335 -1009.62 2122
131.41 -1009.62 2122
136.677 -1011.05 2125
141.758 -1011.05 2125
147.047 -1012.47 2128
152.136 -1012.47 2128
157.225 -1012.47 2128
162.313 -1012.47 2128
167.402 -1012.47 2128
172.491 -1012.47 2128
177.579 -1012.47 2128
1440.55 -1707.12 3588
1490.73 -1756.13 3691
1499.56 -1756.13 3691
1508.39 -1756.13 3691
1510.64 -1748.51 3675
1519.42 -1748.51 3675
1528.21 -1748.51 3675
1529.89 -1740.43 3658
1531.91 -1732.81 3642
1540.62 -1732.81 3642
1539.54 -1721.87 3619
1541.35 -1714.26 3603
1543.51 -1707.12 3588
1552.09 -1707.12 3588
1547.19 -1692.37 3557
1542.58 -1678.1 3527
-2825.69 -1786.58 3774
-2816.66 -1786.58 3774
-2807.64 -1786.58 3774
-2828.02 -1811.19 3826
-2818.87 -1811.19 3826
-2809.73 -1811.19 3826
-2800.58 -1811.19 3826
-2791.43 -1811.19 3826
-2757.55 -1795.1 3792
-2741.96 -1790.84 3783
-2726.41 -1786.58 3774
-2717.39 -1786.58 3774
-2702.62 -1782.79 3766
-2675.02 -1770.48 3740
-2660.37 -1766.69 3732
-2651.45 -1766.69 3732
-2631.2 -1759.12 3716
-2615.96 -1754.86 3707
-2607.1 -1754.86 3707
-2604.54 -1759.12 3716
-2595.65 -1759.12 3716
-2586.77 -1759.12 3716
-2571.64 -1754.86 3707
-2562.77 -1754.86 3707
-2548.4 -1751.07 3699
-2528.57 -1743.5 3683
-2508.81 -1735.92 3667
-2500.04 -1735.92 3667
-2491.27 -1735.92 3667
-2471 -1727.88 3650
-2462.27 -1727.88 3650
-2453.54 -1727.88 3650
-2444.81 -1727.88 3650
-1348.99 -1803.15 3809
-1339.89 -1803.15 3809
-1330.78 -1803.15 3809
-1321.67 -1803.15 3809
-1306.7 -1795.1 3792
-1291.47 -1786.58 3774
-1285.51 -1790.84 3783
-1276.46 -1790.84 3783
-1267.42 -1790.84 3783
-1258.37 -1790.84 3783
-1249.32 -1790.84 3783
-1240.28 -1790.84 3783
-1231.23 -1790.84 3783
-1222.18 -1790.84 3783
-1213.14 -1790.84 3783
-1198.68 -1782.79 3766
-1186.83 -1778.53 3757
-82.252 -1011.16 2136
-77.1442 -1011.16 2136
-72.0364 -1011.16 2136
-50.832 -996.014 2104
-45.8007 -996.014 2104
-40.8081 -996.961 2106
-35.823 -998.381 2109
-30.7798 -998.381 2109
-25.7365 -998.381 2109
-20.6638 -996.961 2106
-15.6129 -996.014 2104
-10.5816 -996.014 2104
-5.52917 -992.227 2096
-0.515769 -989.86 2091
4.48445 -989.86 2091
9.49373 -990.807 2093
14.4987 -990.807 2093
19.5037 -990.807 2093
24.5673 -993.174 2098
29.6688 -996.014 2104
34.7001 -996.014 2104
39.8259 -998.381 2109
44.9755 -1000.75 2114
50.1017 -1002.17 2117
55.1641 -1002.17 2117
60.3118 -1003.59 2120
65.3814 -1003.59 2120
70.451 -1003.59 2120
75.5205 -1003.59 2120
80.5901 -1003.59 2120
85.5384 -1002.17 2117
90.6008 -1002.17 2117
95.6632 -1002.17 2117
100.583 -1000.75 2114
105.538 -999.801 2112
110.85 -1002.17 2117
115.913 -1002.17 2117
120.975 -1002.17 2117
126.335 -1004.54 2122
131.41 -1004.54 2122
136.484 -1004.54 2122
141.558 -1004.54 2122
146.84 -1005.96 2125
152.136 -1007.38 2128
157.225 -1007.38 2128
162.313 -1007.38 2128
167.402 -1007.38 2128
172.491 -1007.38 2128
177.579 -1007.38 2128
182.668 -1007.38 2128
1481.91 -1747.29 3691
1490.73 -1747.29 3691
1499.56 -1747.29 3691
1508.39 -1747.29 3691
1517.21 -1747.29 3691
1526.04 -1747.29 3691
1534.87 -1747.29 3691
1537 -1739.71 3675
1538.64 -1731.66 3658
1547.39 -1731.66 3658
1546.35 -1720.78 3635
1548.2 -1713.2 3619
1549.97 -1705.63 3603
1558.58 -1705.63 3603
1553.71 -1690.95 3572
1545.64 -1672.96 3534
-2825.69 -1777.54 3774
-2816.66 -1777.54 3774
-2807.64 -1777.54 3774
-2828.02 -1802.03 3826
-2818.87 -1802.03 3826
-2809.73 -1802.03 3826
-2800.58 -1802.03 3826
-2791.43 -1802.03 3826
-2757.55 -1786.01 3792
-2741.96 -1781.77 3783
-2732.92 -1781.77 3783
-2723.87 -1781.77 3783
-2702.62 -1773.77 3766
-2675.02 -1761.52 3740
-2660.37 -1757.75 3732
-2651.45 -1757.75 3732
-2631.2 -1750.22 3716
-2615.96 -1745.98 3707
-2607.1 -1745.98 3707
-2604.54 -1750.22 3716
-2595.65 -1750.22 3716
-2586.77 -1750.22 3716
-2571.64 -1745.98 3707
-2562.77 -1745.98 3707
-2548.4 -1742.21 3699
-2528.57 -1734.68 3683
-2514.29 -1730.91 3675
-2505.5 -1730.91 3675
-2491.27 -1727.14 3667
-2482.51 -1727.14 3667
-2467.67 -1722.9 3658
-2458.92 -1722.9 3658
-2450.17 -1722.9 3658
-1348.99 -1794.02 3809
-1339.89 -1794.02 3809
-1330.78 -1794.02 3809
-1321.67 -1794.02 3809
-1306.7 -1786.01 3792
-1288.74 -1773.77 3766
-1282.45 -1777.54 3774
-1273.42 -1777.54 3774
-1264.4 -1777.54 3774
-1255.38 -1777.54 3774
-1246.35 -1777.54 3774
-1237.33 -1777.54 3774
-1228.3 -1777.54 3774
-1219.28 -1777.54 3774
-1210.25 -1777.54 3774
-1198.68 -1773.77 3766
-1181.46 -1761.52 3740
-82.252 -1006.05 2136
-77.1442 -1006.05 2136
-72.0364 -1006.05 2136
-66.9286 -1006.05 2136
-50.9528 -993.329 2109
-45.9095 -993.329 2109
-40.8663 -993.329 2109
-35.823 -993.329 2109
-30.7798 -993.329 2109
-25.7365 -993.329 2109
-20.6638 -991.916 2106
-15.6129 -990.974 2104
-10.5816 -990.974 2104
-5.53445 -988.148 2098
-0.516263 -985.793 2093
4.48873 -985.793 2093
9.49373 -985.793 2093
14.4987 -985.793 2093
19.5037 -985.793 2093
24.5673 -988.148 2098
29.6688 -990.974 2104
34.7001 -990.974 2104
39.8259 -993.329 2109
44.9755 -995.684 2114
50.0307 -995.684 2114
55.0859 -995.684 2114
60.2265 -997.097 2117
65.2889 -997.097 2117
70.3513 -997.097 2117
75.4137 -997.097 2117
80.5901 -998.51 2120
85.6596 -998.51 2120
90.7292 -998.51 2120
95.7988 -998.51 2120
100.583 -995.684 2114
105.638 -995.684 2114
110.85 -997.097 2117
115.913 -997.097 2117
120.975 -997.097 2117
126.216 -998.51 2120
131.41 -999.452 2122
136.484 -999.452 2122
141.558 -999.452 2122
146.633 -999.452 2122
151.707 -999.452 2122
156.781 -999.452 2122
161.856 -999.452 2122
166.93 -999.452 2122
173.139 -1006.05 2136
178.247 -1006.05 2136
183.355 -1006.05 2136
188.463 -1006.05 2136
1437.96 -1697 3603
1481.91 -1738.44 3691
1490.73 -1738.44 3691
1499.56 -1738.44 3691
1508.39 -1738.44 3691
1517.21 -1738.44 3691
1526.04 -1738.44 3691
1534.87 -1738.44 3691
1537 -1730.91 3675
1538.64 -1722.9 3658
1547.39 -1722.9 3658
1546.35 -1712.07 3635
1548.2 -1704.53 3619
1549.97 -1697 3603
1558.58 -1697 3603
1553.71 -1682.39 3572
1552.2 -1671.56 3549
-2828.02 -1792.86 3826
-2818.87 -1792.86 3826
-2809.73 -1792.86 3826
-2800.58 -1792.86 3826
-2791.43 -1792.86 3826
-2757.55 -1776.93 3792
-2741.96 -1772.71 3783
-2732.92 -1772.71 3783
-2723.87 -1772.71 3783
-2702.62 -1764.75 3766
-2675.02 -1752.56 3740
-2660.37 -1748.81 3732
-2651.45 -1748.81 3732
-2631.2 -1741.32 3716
-2615.96 -1737.1 3707
-2607.1 -1737.1 3707
-2604.54 -1741.32 3716
-2595.65 -1741.32 3716
-2586.77 -1741.32 3716
-2571.64 -1737.1 3707
-2562.77 -1737.1 3707
-2548.4 -1733.35 3699
-2528.57 -1725.85 3683
-2514.29 -1722.1 3675
-2505.5 -1722.1 3675
-2491.27 -1718.36 3667
-2482.51 -1718.36 3667
-2467.67 -1714.14 3658
-2458.92 -1714.14 3658
-2450.17 -1714.14 3658
-1348.99 -1784.9 3809
-1343.05 -1789.11 3818
-1333.92 -1789.11 3818
-1324.79 -1789.11 3818
-1306.7 -1776.93 3792
-1288.74 -1764.75 3766
-1279.73 -1764.75 3766
-1267.69 -1760.53 3757
-1258.7 -1760.53 3757
-1249.72 -1760.53 3757
-1240.74 -1760.53 3757
-1231.75 -1760.53 3757
-1217.23 -1752.56 3740
-1203.12 -1745.07 3724
-1194.22 -1745.07 3724
-1185.31 -1745.07 3724
-1171.04 -1737.1 3707
-82.252 -1000.93 2136
-77.1442 -1000.93 2136
-72.0364 -1000.93 2136
-66.9286 -1000.93 2136
-61.8208 -1000.93 2136
-56.7129 -1000.93 2136
-51.2185 -993.431 2120
-46.149 -993.431 2120
-41.0213 -992.026 2117
-35.9589 -992.026 2117
-30.8965 -992.026 2117
-25.8341 -992.026 2117
-20.7423 -990.62 2114
-15.6277 -986.871 2106
-10.5916 -986.871 2106
-5.54236 -984.528 2101
-0.517496 -983.122 2098
4.49946 -983.122 2098
9.51641 -983.122 2098
14.5195 -982.185 2096
19.5317 -982.185 2096
24.6024 -984.528 2101
29.6688 -985.934 2104
34.7001 -985.934 2104
39.8259 -988.277 2109
44.9329 -989.683 2112
50.0307 -990.62 2114
55.0859 -990.62 2114
60.1411 -990.62 2114
65.1964 -990.62 2114
70.3513 -992.026 2117
75.4137 -992.026 2117
80.5901 -993.431 2120
85.6596 -993.431 2120
90.7292 -993.431 2120
95.7988 -993.431 2120
100.583 -990.62 2114
105.638 -990.62 2114
110.85 -992.026 2117
115.913 -992.026 2117
120.975 -992.026 2117
126.216 -993.431 2120
131.41 -994.369 2122
136.484 -994.369 2122
141.558 -994.369 2122
146.633 -994.369 2122
151.707 -994.369 2122
156.781 -994.369 2122
161.856 -994.369 2122
166.93 -994.369 2122
173.139 -1000.93 2136
178.247 -1000.93 2136
183.355 -1000.93 2136
188.463 -1000.93 2136
1437.96 -1688.36 3603
1481.91 -1729.6 3691
1490.73 -1729.6 3691
1499.56 -1729.6 3691
1508.39 -1729.6 3691
1517.21 -1729.6 3691
1526.04 -1729.6 3691
1534.87 -1729.6 3691
1537 -1722.1 3675
1538.64 -1714.14 3658
1547.39 -1714.14 3658
1546.35 -1703.36 3635
1548.2 -1695.86 3619
1549.97 -1688.36 3603
1558.58 -1688.36 3603
1553.71 -1673.84 3572
1552.2 -1663.06 3549
-2828.02 -1783.7 3826
-2818.87 -1783.7 3826
-2809.73 -1783.7 3826
-2781.54 -1771.58 3800
-2772.46 -1771.58 3800
-2751.01 -1763.65 3783
-2741.96 -1763.65 3783
-2732.92 -1763.65 3783
-2723.87 -1763.65 3783
-2702.62 -1755.72 3766
-2675.02 -1743.6 3740
-2654.67 -1736.14 3724
-2645.77 -1736.14 3724
-2631.2 -1732.41 3716
-2615.96 -1728.22 3707
-2607.1 -1728.22 3707
-2604.54 -1732.41 3716
-2595.65 -1732.41 3716
-2586.77 -1732.41 3716
-2571.64 -1728.22 3707
-2562.77 -1728.22 3707
-2548.4 -1724.49 3699
-2534.06 -1720.76 3691
-2514.29 -1713.3 3675
-2505.5 -1713.3 3675
-2496.71 -1713.3 3675
-2482.51 -1709.57 3667
-2467.67 -1705.38 3658
-2458.92 -1705.38 3658
-2450.17 -1705.38 3658
-1348.99 -1775.77 3809
-1343.05 -1779.97 3818
-1333.92 -1779.97 3818
-1324.79 -1779.97 3818
-1312.56 -1775.77 3809
-1288.74 -1755.72 3766
-1279.73 -1755.72 3766
-1264.99 -1747.8 3749
-1256.02 -1747.8 3749
-1244.07 -1743.6 3740
-1235.12 -1743.6 3740
-1226.18 -1743.6 3740
-1214.63 -1739.87 3732
-1203.12 -1736.14 3724
-1194.22 -1736.14 3724
-1179.9 -1728.22 3707
-1168.51 -1724.49 3699
-82.252 -995.812 2136
-77.2526 -997.211 2139
-72.1376 -997.211 2139
-67.0226 -997.211 2139
-61.9076 -997.211 2139
-56.7926 -997.211 2139
-51.6051 -995.812 2136
-46.2578 -990.684 2125
-41.1182 -989.285 2122
-36.0438 -989.285 2122
-30.9695 -989.285 2122
-25.8951 -989.285 2122
-20.8012 -988.353 2120
-15.6871 -985.556 2114
-10.6319 -985.556 2114
-5.56347 -983.225 2109
-0.518236 -979.495 2101
4.50589 -979.495 2101
9.53002 -979.495 2101
14.5334 -978.096 2098
19.5783 -979.495 2101
24.6375 -980.894 2104
29.7393 -983.225 2109
34.7826 -983.225 2109
39.8259 -983.225 2109
44.9329 -984.623 2112
50.0307 -985.556 2114
55.0859 -985.556 2114
60.1411 -985.556 2114
65.1964 -985.556 2114
70.3513 -986.954 2117
75.4137 -986.954 2117
80.5901 -988.353 2120
85.6596 -988.353 2120
90.7292 -988.353 2120
95.7988 -988.353 2120
100.583 -985.556 2114
105.638 -985.556 2114
110.85 -986.954 2117
115.913 -986.954 2117
120.975 -986.954 2117
126.216 -988.353 2120
131.41 -989.285 2122
136.484 -989.285 2122
141.558 -989.285 2122
146.633 -989.285 2122
151.707 -989.285 2122
156.781 -989.285 2122
161.856 -989.285 2122
166.93 -989.285 2122
173.139 -995.812 2136
178.247 -995.812 2136
183.355 -995.812 2136
188.463 -995.812 2136
1437.96 -1679.73 3603
1468.66 -1705.38 3658
1484.27 -1713.3 3675
1493.06 -1713.3 3675
1508.39 -1720.76 3691
1517.21 -1720.76 3691
1526.04 -1720.76 3691
1534.87 -1720.76 3691
1533.65 -1709.57 3667
1538.64 -1705.38 3658
1547.39 -1705.38 3658
1546.35 -1694.65 3635
1548.2 -1687.19 3619
1549.97 -1679.73 3603
1558.58 -1679.73 3603
1560.67 -1672.74 3588
1562.26 -1665.28 3572
-2778.15 -1754.59 3783
-2769.1 -1754.59 3783
-2760.05 -1754.59 3783
-2751.01 -1754.59 3783
-2741.96 -1754.59 3783
-2720.63 -1746.7 3766
-2711.63 -1746.7 3766
-2690.42 -1738.82 3749
-2675.02 -1734.64 3740
-2654.67 -1727.22 3724
-2645.77 -1727.22 3724
-2619.16 -1715.63 3699
-2604.67 -1711.92 3691
-2607.1 -1719.34 3707
-2598.23 -1719.34 3707
-2589.37 -1719.34 3707
-2586.77 -1723.51 3716
-2577.88 -1723.51 3716
-2568.99 -1723.51 3716
-2553.91 -1719.34 3707
-2539.55 -1715.63 3699
-2530.71 -1715.63 3699
-2521.86 -1715.63 3699
-2496.71 -1704.5 3675
-2482.51 -1700.79 3667
-2467.67 -1696.61 3658
-2458.92 -1696.61 3658
-2450.17 -1696.61 3658
-1348.99 -1766.65 3809
-1343.05 -1770.82 3818
-1333.92 -1770.82 3818
-1324.79 -1770.82 3818
-1312.56 -1766.65 3809
-1288.74 -1746.7 3766
-1279.73 -1746.7 3766
-1264.99 -1738.82 3749
-1256.02 -1738.82 3749
-1244.07 -1734.64 3740
-1235.12 -1734.64 3740
-1226.18 -1734.64 3740
-1214.63 -1730.93 3732
-1203.12 -1727.22 3724
-1194.22 -1727.22 3724
-1179.9 -1719.34 3707
-1168.51 -1715.63 3699
-1154.65 -1708.21 3683
-1145.84 -1708.21 3683
-82.252 -990.695 2136
-77.2526 -992.087 2139
-72.1376 -992.087 2139
-67.0226 -992.087 2139
-61.9076 -992.087 2139
-56.7926 -992.087 2139
-51.6051 -990.695 2136
-46.2578 -985.593 2125
-41.1182 -984.202 2122
-36.0438 -984.202 2122
-30.9695 -984.202 2122
-25.8951 -984.202 2122
-20.8012 -983.274 2120
-15.6871 -980.492 2114
-10.6319 -980.492 2114
-5.56347 -978.173 2109
-0.518236 -974.462 2101
4.50589 -974.462 2101
9.53002 -974.462 2101
14.5334 -973.071 2098
19.5783 -974.462 2101
24.6375 -975.853 2104
29.7393 -978.173 2109
34.7826 -978.173 2109
39.8259 -978.173 2109
44.9329 -979.564 2112
50.0307 -980.492 2114
55.0859 -980.492 2114
60.1411 -980.492 2114
65.1964 -980.492 2114
70.3513 -981.883 2117
75.4137 -981.883 2117
80.476 -981.883 2117
85.5384 -981.883 2117
90.6008 -981.883 2117
95.6632 -981.883 2117
100.583 -980.492 2114
105.638 -980.492 2114
110.85 -981.883 2117
115.913 -981.883 2117
120.975 -981.883 2117
126.216 -983.274 2120
131.286 -983.274 2120
136.355 -983.274 2120
141.425 -983.274 2120
146.494 -983.274 2120
151.564 -983.274 2120
156.781 -984.202 2122
161.856 -984.202 2122
166.93 -984.202 2122
173.139 -990.695 2136
178.247 -990.695 2136
183.355 -990.695 2136
188.463 -990.695 2136
1450.73 -1685.94 3635
1468.66 -1696.61 3658
1484.27 -1704.5 3675
1493.06 -1704.5 3675
1505.12 -1708.21 3683
1513.92 -1708.21 3683
1522.73 -1708.21 3683
1531.54 -1708.21 3683
1540.35 -1708.21 3683
1542.42 -1700.79 3667
1551.19 -1700.79 3667
1549.33 -1689.19 3642
1551.62 -1682.23 3627
1553.41 -1674.81 3611
1562.04 -1674.81 3611
1567.2 -1671.1 3603
1569.25 -1664.15 3588
-2778.15 -1745.53 3783
-2769.1 -1745.53 3783
-2760.05 -1745.53 3783
-2751.01 -1745.53 3783
-2741.96 -1745.53 3783
-2720.63 -1737.68 3766
-2711.63 -1737.68 3766
-2690.42 -1729.84 3749
-2675.02 -1725.69 3740
-2654.67 -1718.3 3724
-2645.77 -1718.3 3724
-2619.16 -1706.77 3699
-2604.67 -1703.08 3691
-2607.1 -1710.46 3707
-2604.54 -1714.61 3716
-2595.65 -1714.61 3716
-2603.47 -1725.69 3740
-2594.53 -1725.69 3740
-2585.59 -1725.69 3740
-2576.64 -1725.69 3740
-2567.7 -1725.69 3740
-2558.76 -1725.69 3740
-2549.81 -1725.69 3740
-2496.71 -1695.69 3675
-2482.51 -1692 3667
-2467.67 -1687.85 3658
-2458.92 -1687.85 3658
-2450.17 -1687.85 3658
-1348.99 -1757.52 3809
-1343.05 -1761.68 3818
-1333.92 -1761.68 3818
-1324.79 -1761.68 3818
-1312.56 -1757.52 3809
-1288.74 -1737.68 3766
-1279.73 -1737.68 3766
-1264.99 -1729.84 3749
-1256.02 -1729.84 3749
-1244.07 -1725.69 3740
-1235.12 -1725.69 3740
-1226.18 -1725.69 3740
-1214.63 -1721.99 3732
-1200.54 -1714.61 3716
-1191.65 -1714.61 3716
-1179.9 -1710.46 3707
-1165.98 -1703.08 3691
-1154.65 -1699.38 3683
-1145.84 -1699.38 3683
-82.9067 -993.423 2153
-77.7582 -993.423 2153
-72.6097 -993.423 2153
-67.0226 -986.963 2139
-61.9076 -986.963 2139
-56.7926 -986.963 2139
-51.6051 -985.579 2136
-46.3884 -983.271 2131
-41.2344 -981.887 2128
-36.1457 -981.887 2128
-31.0571 -981.887 2128
-25.8951 -979.119 2122
-20.8208 -979.119 2122
-15.7093 -976.812 2117
-10.647 -976.812 2117
-5.57138 -974.505 2112
-0.519469 -971.736 2106
4.50589 -969.429 2101
9.53002 -969.429 2101
14.5541 -969.429 2101
19.5783 -969.429 2101
24.661 -971.736 2106
29.7393 -973.12 2109
34.7826 -973.12 2109
39.8259 -973.12 2109
44.9329 -974.505 2112
50.0307 -975.427 2114
55.0859 -975.427 2114
60.1411 -975.427 2114
65.1964 -975.427 2114
70.3513 -976.812 2117
75.4137 -976.812 2117
80.476 -976.812 2117
85.5384 -976.812 2117
90.6008 -976.812 2117
95.6632 -976.812 2117
100.583 -975.427 2114
105.638 -975.427 2114
110.693 -975.427 2114
115.913 -976.812 2117
120.975 -976.812 2117
126.216 -978.196 2120
131.286 -978.196 2120
136.355 -978.196 2120
141.425 -978.196 2120
146.494 -978.196 2120
151.564 -978.196 2120
156.634 -978.196 2120
161.703 -978.196 2120
166.93 -979.119 2122
173.139 -985.579 2136
178.247 -985.579 2136
183.355 -985.579 2136
188.463 -985.579 2136
1466.7 -1695.69 3675
1485.12 -1706.77 3699
1504.06 -1718.3 3724
1512.97 -1718.3 3724
1525.14 -1721.99 3732
1534.07 -1721.99 3732
1542.99 -1721.99 3732
1548.59 -1718.3 3724
1543.69 -1703.08 3691
1552.52 -1703.08 3691
1561.34 -1703.08 3691
1552.73 -1684.16 3650
1551.62 -1673.55 3627
1553.41 -1666.16 3611
1562.04 -1666.16 3611
1567.2 -1662.47 3603
1569.25 -1655.55 3588
-2750.07 -1724.53 3757
-2741.08 -1724.53 3757
-2732.1 -1724.53 3757
-2723.12 -1724.53 3757
-2708.35 -1720.86 3749
-2699.39 -1720.86 3749
-2672.48 -1709.38 3724
-2663.58 -1709.38 3724
-2636.85 -1697.91 3699
-2628.01 -1697.91 3699
-2613.5 -1694.23 3691
-2604.67 -1694.23 3691
-2607.1 -1701.58 3707
-2604.54 -1705.71 3716
-2595.65 -1705.71 3716
-2603.47 -1716.73 3740
-2594.53 -1716.73 3740
-2585.59 -1716.73 3740
-2576.64 -1716.73 3740
-2567.7 -1716.73 3740
-2558.76 -1716.73 3740
-2549.81 -1716.73 3740
-2496.71 -1686.89 3675
-1339.89 -1748.4 3809
-1330.78 -1748.4 3809
-1321.67 -1748.4 3809
-1312.56 -1748.4 3809
-1288.74 -1728.66 3766
-1279.73 -1728.66 3766
-1261.95 -1716.73 3740
-1253.01 -1716.73 3740
-1244.07 -1716.73 3740
-1235.12 -1716.73 3740
-1223.56 -1713.05 3732
-1212.03 -1709.38 3724
-1200.54 -1705.71 3716
-1191.65 -1705.71 3716
-1179.9 -1701.58 3707
-1171.04 -1701.58 3707
-1157.16 -1694.23 3691
-1148.33 -1694.23 3691
-103.501 -988.265 2153
-98.3521 -988.265 2153
-93.2036 -988.265 2153
-88.0551 -988.265 2153
-82.9067 -988.265 2153
-77.7582 -988.265 2153
-72.6097 -988.265 2153
-67.3672 -986.888 2150
-62.1391 -985.511 2147
-57.005 -985.511 2147
-51.7501 -983.216 2142
-46.3884 -978.167 2131
-41.2926 -978.167 2131
-36.1457 -976.79 2128
-31.0571 -976.79 2128
-25.9684 -976.79 2128
-20.8208 -974.035 2122
-15.7316 -973.117 2120
-10.662 -973.117 2120
-5.57138 -969.445 2112
-0.520209 -968.068 2109
4.50589 -964.396 2101
9.53002 -964.396 2101
14.5541 -964.396 2101
19.5783 -964.396 2101
24.661 -966.691 2106
29.7393 -968.068 2109
34.7826 -968.068 2109
39.8259 -968.068 2109
44.9329 -969.445 2112
50.0307 -970.363 2114
55.0859 -970.363 2114
60.1411 -970.363 2114
65.1964 -970.363 2114
70.2516 -970.363 2114
75.3068 -970.363 2114
80.362 -970.363 2114
85.4172 -970.363 2114
90.4724 -970.363 2114
95.4373 -969.445 2112
100.488 -969.445 2112
105.638 -970.363 2114
110.693 -970.363 2114
115.913 -971.74 2117
120.975 -971.74 2117
126.038 -971.74 2117
131.286 -973.117 2120
136.355 -973.117 2120
141.425 -973.117 2120
146.494 -973.117 2120
151.349 -971.74 2117
156.412 -971.74 2117
161.474 -971.74 2117
166.93 -974.035 2122
173.139 -980.462 2136
178.247 -980.462 2136
183.355 -980.462 2136
188.992 -983.216 2142
194.114 -983.216 2142
199.236 -983.216 2142
213.295 -1001.12 2181
218.811 -1002.49 2184
224.033 -1002.49 2184
229.256 -1002.49 2184
234.156 -1001.12 2181
1452.27 -1690.56 3683
1461.08 -1690.56 3683
1469.89 -1690.56 3683
1498.37 -1713.05 3732
1507.29 -1713.05 3732
1516.22 -1713.05 3732
1525.14 -1713.05 3732
1534.07 -1713.05 3732
1542.99 -1713.05 3732
1548.59 -1709.38 3724
1557.49 -1709.38 3724
1552.52 -1694.23 3691
1561.34 -1694.23 3691
1563.36 -1686.89 3675
1555.04 -1668.53 3635
1560.29 -1664.86 3627
1568.96 -1664.86 3627
1567.2 -1653.84 3603
1569.25 -1646.96 3588
-2720.06 -1696.81 3716
-2711.17 -1696.81 3716
-2702.29 -1696.81 3716
-2693.4 -1696.81 3716
-2672.23 -1689.05 3699
-2663.39 -1689.05 3699
-2654.54 -1689.05 3699
-2634.25 -1681.74 3683
-2625.44 -1681.74 3683
-2616.64 -1681.74 3683
-2602.17 -1678.09 3675
-2599.02 -1681.74 3683
-2613.42 -1696.81 3716
-2627.67 -1711.88 3749
-2618.7 -1711.88 3749
-2609.74 -1711.88 3749
-2612.57 -1719.64 3766
-2603.56 -1719.64 3766
-2594.56 -1719.64 3766
-2579.37 -1715.53 3757
-2564.91 -1711.88 3749
-2555.95 -1711.88 3749
-1339.89 -1739.27 3809
-1330.78 -1739.27 3809
-1321.67 -1739.27 3809
-1312.56 -1739.27 3809
-1288.74 -1719.64 3766
-1279.73 -1719.64 3766
-1264.99 -1711.88 3749
-1256.02 -1711.88 3749
-1247.06 -1711.88 3749
-1238.09 -1711.88 3749
-1223.56 -1704.11 3732
-1212.03 -1700.46 3724
-1200.54 -1696.81 3716
-1191.65 -1696.81 3716
-1182.77 -1696.81 3716
-1171.04 -1692.7 3707
-1157.16 -1685.39 3691
-1148.33 -1685.39 3691
-103.741 -985.391 2158
-98.5805 -985.391 2158
-93.4201 -985.391 2158
-88.1369 -984.021 2155
-82.9837 -984.021 2155
-77.8304 -984.021 2155
-72.6772 -984.021 2155
-67.4612 -983.107 2153
-62.3128 -983.107 2153
-57.1643 -983.107 2153
-51.8709 -980.368 2147
-46.4973 -975.345 2136
-41.2926 -973.062 2131
-36.1967 -973.062 2131
-31.1008 -973.062 2131
-25.9684 -971.692 2128
-20.8208 -968.952 2122
-15.7316 -968.039 2120
-10.662 -968.039 2120
-5.57138 -964.386 2112
-0.520209 -963.016 2109
4.50589 -959.363 2101
9.53002 -959.363 2101
14.5541 -959.363 2101
19.5783 -959.363 2101
24.661 -961.646 2106
29.7393 -963.016 2109
34.7826 -963.016 2109
39.8259 -963.016 2109
44.9329 -964.386 2112
50.0307 -965.299 2114
55.0859 -965.299 2114
60.1411 -965.299 2114
65.1964 -965.299 2114
70.2516 -965.299 2114
75.3068 -965.299 2114
80.362 -965.299 2114
85.4172 -965.299 2114
90.4724 -965.299 2114
95.4373 -964.386 2112
100.488 -964.386 2112
105.638 -965.299 2114
110.693 -965.299 2114
115.913 -966.669 2117
120.975 -966.669 2117
126.038 -966.669 2117
131.286 -968.039 2120
136.355 -968.039 2120
141.425 -968.039 2120
146.494 -968.039 2120
151.349 -966.669 2117
156.412 -966.669 2117
161.474 -966.669 2117
166.773 -968.039 2120
172.247 -970.322 2125
178.247 -975.345 2136
183.355 -975.345 2136
189.168 -978.998 2144
195.111 -983.107 2153
201.004 -986.76 2161
206.171 -986.76 2161
213.295 -995.893 2181
218.811 -997.263 2184
224.033 -997.263 2184
229.256 -997.263 2184
234.479 -997.263 2184
1452.27 -1681.74 3683
1461.08 -1681.74 3683
1469.89 -1681.74 3683
1498.37 -1704.11 3732
1507.29 -1704.11 3732
1516.22 -1704.11 3732
1525.14 -1704.11 3732
1534.07 -1704.11 3732
1542.99 -1704.11 3732
1548.59 -1700.46 3724
1557.49 -1700.46 3724
1552.52 -1685.39 3691
1561.34 -1685.39 3691
1563.36 -1678.09 3675
1555.04 -1659.82 3635
1560.29 -1656.17 3627
1568.96 -1656.17 3627
1567.2 -1645.21 3603
-2722.33 -1683.82 3707
-2713.47 -1683.82 3707
-2704.61 -1683.82 3707
-2689.92 -1680.18 3699
-2681.08 -1680.18 3699
-2666.45 -1676.55 3691
-2657.63 -1676.55 3691
-2648.8 -1676.55 3691
-2634.25 -1672.92 3683
-2614.04 -1665.65 3667
-2605.27 -1665.65 3667
-2596.5 -1665.65 3667
-2593.38 -1669.28 3675
-2613.42 -1687.91 3716
-2627.67 -1702.9 3749
-2618.7 -1702.9 3749
-2621.57 -1710.62 3766
-2618.12 -1714.25 3774
-2609.09 -1714.25 3774
-2600.07 -1714.25 3774
-2591.04 -1714.25 3774
-2582.02 -1714.25 3774
-2572.99 -1714.25 3774
-2563.97 -1714.25 3774
-1339.89 -1730.15 3809
-1330.78 -1730.15 3809
