516.813 117.98 3006
519.295 116.92 2979
526.418 116.92 2979
532.647 116.724 2974
538.669 116.489 2968
544.847 116.292 2963
551.933 116.292 2963
559.018 116.292 2963
565.148 116.096 2958
571.255 115.9 2953
578.316 115.9 2953
583.197 115.468 2942
589.229 115.272 2937
595.237 115.076 2932
602.249 115.076 2932
608.221 114.879 2927
614.169 114.683 2922
621.157 114.683 2922
628.144 114.683 2922
634.045 114.487 2917
641.02 114.487 2917
647.996 114.487 2917
653.624 114.251 2911
660.585 114.251 2911
667.546 114.251 2911
674.507 114.251 2911
679.127 113.859 2901
687.247 114.055 2906
694.196 114.055 2906
701.145 114.055 2906
708.094 114.055 2906
716.274 114.251 2911
723.235 114.251 2911
730.196 114.251 2911
737.157 114.251 2911
744.118 114.251 2911
751.079 114.251 2911
759.602 114.487 2917
766.578 114.487 2917
773.553 114.487 2917
780.529 114.487 2917
787.504 114.487 2917
794.48 114.487 2917
802.829 114.683 2922
809.816 114.683 2922
816.804 114.683 2922
823.791 114.683 2922
832.2 114.879 2927
839.199 114.879 2927
846.199 114.879 2927
853.198 114.879 2927
860.197 114.879 2927
867.197 114.879 2927
874.196 114.879 2927
881.195 114.879 2927
886.677 114.683 2922
893.665 114.683 2922
899.111 114.487 2917
902.67 114.055 2906
911.184 114.251 2911
918.145 114.251 2911
925.106 114.251 2911
933.988 114.487 2917
940.964 114.487 2917
947.939 114.487 2917
954.915 114.487 2917
961.89 114.487 2917
968.865 114.487 2917
973.834 114.251 2911
980.795 114.251 2911
1415.88 152.989 3898
1455.91 156.286 3982
1465.43 156.286 3982
1474.95 156.286 3982
1477.39 155.54 3963
1486.87 155.54 3963
1475.2 153.343 3907
1464.03 151.223 3853
1473.24 151.223 3853
1465.52 149.496 3809
1461.08 148.123 3774
1437.78 144.865 3691
1446.6 144.865 3691
1455.43 144.865 3691
1447.99 143.256 3650
1456.72 143.256 3650
1440.55 140.822 3588
1449.13 140.822 3588
1435.78 138.703 3534
1429.11 137.251 3497
1422.67 135.838 3461
1430.95 135.838 3461
1433.4 135.288 3447
1429.93 134.189 3419
1432.22 133.64 3405
1440.36 133.64 3405
1433.62 132.266 3370
1441.67 132.266 3370
1449.73 132.266 3370
1454.76 131.992 3363
1468.9 132.541 3377
1476.97 132.541 3377
1509.67 134.739 3433
1586.41 140.822 3588
1601.66 141.411 3603
1610.28 141.411 3603
1626.08 142.039 3619
1667.26 144.865 3691
1706.06 147.455 3757
1715.04 147.455 3757
1724.03 147.455 3757
1733.01 147.455 3757
1741.99 147.455 3757
1743.05 146.788 3740
1752 146.788 3740
1753.41 146.16 3724
1762.31 146.16 3724
1751.72 144.551 3683
1760.53 144.551 3683
1719.85 140.508 3580
1728.41 140.508 3580
1729.69 139.92 3565
1719.69 138.428 3527
1724.7 138.154 3520
1718.34 136.976 3490
1726.69 136.976 3490
1706.7 134.739 3433
1693.93 133.091 3391
1681.46 131.481 3350
1689.47 131.481 3350
1687.34 130.696 3330
1665.27 128.381 3271
1653.65 126.889 3233
1645.45 125.673 3202
1653.11 125.673 3202
1654.54 125.202 3190
1649.67 124.26 3166
1650.96 123.789 3154
1667.96 124.495 3172
1675.55 124.495 3172
1683.14 124.495 3172
1690.72 124.495 3172
1698.31 124.495 3172
1696.21 123.789 3154
1700.51 123.553 3148
1691.76 122.376 3118
1699.22 122.376 3118
1706.67 122.376 3118
1701.49 121.473 3095
1686.8 119.903 3055
1666.93 117.98 3006
1674.12 117.98 3006
1642.72 115.272 2937
1635.14 114.251 2911
1636.46 113.859 2901
1643.39 113.859 2901
1644.64 113.466 2891
1642.99 112.878 2876
1641.83 112.328 2862
1645.8 112.132 2857
1652.63 112.132 2857
1656.56 111.936 2852
1660.46 111.74 2847
1661.41 111.347 2837
1668.2 111.347 2837
1672.03 111.151 2832
1678.8 111.151 2832
1685.57 111.151 2832
1692.34 111.151 2832
1693.72 110.798 2823
1700.47 110.798 2823
1704.19 110.601 2818
1707.9 110.405 2813
1714.62 110.405 2813
1718.9 110.248 2809
1722.55 110.052 2804
1726.17 109.856 2799
1732.86 109.856 2799
1733.96 109.502 2790
1740.63 109.502 2790
1747.31 109.502 2790
1753.98 109.502 2790
1754.34 109.11 2780
1760.99 109.11 2780
1765.09 108.953 2776
1771.73 108.953 2776
1778.37 108.953 2776
1781.79 108.757 2771
1788.42 108.757 2771
1795.04 108.757 2771
1801.67 108.757 2771
1805.69 108.6 2767
1809.03 108.403 2762
1812.35 108.207 2757
1818.94 108.207 2757
1822.88 108.05 2753
1829.47 108.05 2753
1836.05 108.05 2753
1842.63 108.05 2753
1845.86 107.854 2748
1852.43 107.854 2748
1859 107.854 2748
1865.57 107.854 2748
1872.14 107.854 2748
1878.71 107.854 2748
1885.29 107.854 2748
1891.86 107.854 2748
1898.43 107.854 2748
1905 107.854 2748
1905.31 107.501 2739
1909.07 107.344 2735
1915.61 107.344 2735
1922.15 107.344 2735
1928.69 107.344 2735
1935.23 107.344 2735
1941.77 107.344 2735
1944.75 107.147 2730
1951.28 107.147 2730
1957.8 107.147 2730
1964.33 107.147 2730
1954.98 106.284 2708
1961.45 106.284 2708
1967.93 106.284 2708
1971.49 106.127 2704
1977.95 106.127 2704
1984.42 106.127 2704
1987.21 105.931 2699
1987.75 105.617 2691
1994.19 105.617 2691
1993.93 105.264 2682
2000.34 105.264 2682
2000.02 104.91 2673
2006.41 104.91 2673
2022.6 105.421 2686
2029.02 105.421 2686
2049.08 106.127 2704
2062.39 106.48 2713
2074.98 106.794 2721
2081.48 106.794 2721
-2109.91 117.352 2818
-2103.17 117.352 2818
-2096.43 117.352 2818
-2089.69 117.352 2818
-2082.95 117.352 2818
-2076.21 117.352 2818
-2069.47 117.352 2818
-2062.73 117.352 2818
-2063.29 117.768 2828
-2056.53 117.768 2828
-2049.77 117.768 2828
-2035.78 117.352 2818
-2022.56 116.977 2809
-1992.16 115.603 2776
-1985.52 115.603 2776
-1965.34 114.812 2757
-1962.3 115.02 2762
-1955.7 115.02 2762
-1949.09 115.02 2762
-1942.49 115.02 2762
-1904.34 113.146 2717
-1897.84 113.146 2717
-1891.35 113.146 2717
-1875.83 112.605 2704
-1865.91 112.396 2699
-1836.03 110.98 2665
-1829.66 110.98 2665
-1335.73 132.843 3190
-1328.1 132.843 3190
-1320.48 132.843 3190
-1312.85 132.843 3190
-1305.22 132.843 3190
-1302.47 133.343 3202
-1294.81 133.343 3202
-1291.98 133.843 3214
-1284.3 133.843 3214
-1279.39 134.134 3221
-1271.69 134.134 3221
-1263.99 134.134 3221
-1251.21 133.593 3208
-1243.54 133.593 3208
-1228.94 132.843 3190
-1200.63 130.595 3136
-1164.6 127.471 3061
-1157.28 127.471 3061
-1121.03 124.265 2984
-1107.92 123.598 2968
-1097.12 123.182 2958
-1090.04 123.182 2958
-1082.97 123.182 2958
-1074.08 122.974 2953
-1064.85 122.724 2947
-1059.96 122.974 2953
-1052.89 122.974 2953
-1045.83 122.974 2953
-1038.77 122.974 2953
-1031.71 122.974 2953
-1024.65 122.974 2953
-1017.59 122.974 2953
-1006.76 122.516 2942
-999.726 122.516 2942
-994.378 122.724 2947
-987.331 122.724 2947
-985.606 123.39 2963
-982.153 123.848 2974
-975.041 123.848 2974
-967.93 123.848 2974
-960.818 123.848 2974
-953.706 123.848 2974
-946.594 123.848 2974
-939.483 123.848 2974
-930.49 123.598 2968
-923.392 123.598 2968
-916.295 123.598 2968
-907.666 123.39 2963
-899.061 123.182 2958
-891.987 123.182 2958
-886.41 123.39 2963
-879.324 123.39 2963
-872.239 123.39 2963
-865.153 123.39 2963
-858.068 123.39 2963
-848.111 122.974 2953
-841.049 122.974 2953
-833.988 122.974 2953
-823.846 122.516 2942
-816.81 122.516 2942
-807.023 122.099 2932
-800.011 122.099 2932
-793 122.099 2932
-785.989 122.099 2932
-778.978 122.099 2932
-771.966 122.099 2932
-764.955 122.099 2932
-757.944 122.099 2932
-750.932 122.099 2932
-743.921 122.099 2932
-736.91 122.099 2932
-729.898 122.099 2932
-722.887 122.099 2932
-714.655 121.891 2927
-706.447 121.683 2922
-699.46 121.683 2922
-691.287 121.475 2917
-685.485 121.683 2922
-678.497 121.683 2922
-671.51 121.683 2922
-664.523 121.683 2922
-658.66 121.891 2927
-651.661 121.891 2927
-645.763 122.099 2932
-638.752 122.099 2932
-631.74 122.099 2932
-625.794 122.307 2937
-618.771 122.307 2937
-611.748 122.307 2937
-603.695 122.099 2932
-314.75 92.7405 2227
-309.424 92.7405 2227
-304.099 92.7405 2227
-297.566 92.3657 2218
-291.867 92.2407 2215
-285.147 91.7827 2204
-279.115 91.5328 2198
-273.859 91.5328 2198
-268.602 91.5328 2198
-262.628 91.2829 2192
-256.681 91.0331 2186
-251.454 91.0331 2186
-244.65 90.4501 2172
-238.904 90.2419 2167
-233.938 90.3251 2169
-228.751 90.3251 2169
-223.565 90.3251 2169
-218.378 90.3251 2169
-213.191 90.3251 2169
-208.004 90.3251 2169
-202.818 90.3251 2169
-197.631 90.3251 2169
-192.267 90.2419 2167
-187.085 90.2419 2167
-180.728 89.6588 2153
-175.579 89.6588 2153
-170.589 89.7421 2155
-165.436 89.7421 2155
-160.283 89.7421 2155
-154.769 89.5339 2150
-149.419 89.409 2147
-143.949 89.2008 2142
-138.827 89.2008 2142
-133.705 89.2008 2142
-128.583 89.2008 2142
-123.46 89.2008 2142
-118.338 89.2008 2142
-113.216 89.2008 2142
-107.791 88.9509 2136
-102.539 88.826 2133
-97.4385 88.826 2133
-92.2512 88.7427 2131
-87.0327 88.6177 2128
-81.8285 88.4928 2125
-76.7469 88.4928 2125
-71.6654 88.4928 2125
-66.5839 88.4928 2125
-61.4156 88.3679 2122
-56.3412 88.3679 2122
-51.2669 88.3679 2122
-46.1925 88.3679 2122
-41.1182 88.3679 2122
-36.0438 88.3679 2122
-31.0133 88.4928 2125
-25.9318 88.4928 2125
-20.8502 88.4928 2125
-15.7687 88.4928 2125
-10.6872 88.4928 2125
-5.60567 88.4928 2125
-0.524156 88.4928 2125
4.5638 88.6177 2128
9.67517 88.826 2133
14.7758 88.826 2133
19.9044 88.9509 2136
25.0474 89.0758 2139
30.2047 89.2008 2142
35.3269 89.2008 2142
40.4868 89.284 2144
45.6776 89.409 2147
50.8117 89.409 2147
55.9458 89.409 2147
61.08 89.409 2147
66.3066 89.5339 2150
71.6141 89.7421 2155
76.7673 89.7421 2155
81.9206 89.7421 2155
87.0738 89.7421 2155
92.3555 89.8671 2158
97.5159 89.8671 2158
102.819 89.992 2161
107.987 89.992 2161
113.154 89.992 2161
118.322 89.992 2161
123.49 89.992 2161
128.657 89.992 2161
133.825 89.992 2161
138.799 89.8671 2158
143.96 89.8671 2158
149.12 89.8671 2158
154.281 89.8671 2158
159.441 89.8671 2158
164.602 89.8671 2158
169.998 89.992 2161
175.166 89.992 2161
180.584 90.1169 2164
185.758 90.1169 2164
190.933 90.1169 2164
196.108 90.1169 2164
201.562 90.2419 2167
206.744 90.2419 2167
211.926 90.2419 2167
217.108 90.2419 2167
222.802 90.4501 2172
227.996 90.4501 2172
233.19 90.4501 2172
239.043 90.6999 2178
244.251 90.6999 2178
249.459 90.6999 2178
254.667 90.6999 2178
259.876 90.6999 2178
265.084 90.6999 2178
270.292 90.6999 2178
275.5 90.6999 2178
280.709 90.6999 2178
286.967 91.0331 2186
292.195 91.0331 2186
297.83 91.158 2189
304.726 91.6577 2201
312.384 92.3657 2218
317.688 92.3657 2218
325.613 93.1153 2236
330.96 93.1153 2236
336.307 93.1153 2236
486.151 126.555 3039
493.418 126.555 3039
500.685 126.555 3039
507.952 126.555 3039
512.337 125.847 3022
516.813 125.181 3006
519.295 124.057 2979
526.418 124.057 2979
532.647 123.848 2974
538.669 123.598 2968
544.847 123.39 2963
551.933 123.39 2963
559.018 123.39 2963
565.148 123.182 2958
571.255 122.974 2953
578.316 122.974 2953
583.197 122.516 2942
589.229 122.307 2937
595.237 122.099 2932
602.249 122.099 2932
608.221 121.891 2927
614.169 121.683 2922
621.157 121.683 2922
628.144 121.683 2922
634.045 121.475 2917
641.02 121.475 2917
647.996 121.475 2917
653.624 121.225 2911
660.585 121.225 2911
667.546 121.225 2911
674.507 121.225 2911
679.127 120.808 2901
687.247 121.017 2906
694.196 121.017 2906
701.145 121.017 2906
708.094 121.017 2906
716.274 121.225 2911
723.235 121.225 2911
730.196 121.225 2911
737.157 121.225 2911
744.118 121.225 2911
751.079 121.225 2911
759.602 121.475 2917
766.578 121.475 2917
773.553 121.475 2917
780.529 121.475 2917
787.504 121.475 2917
794.48 121.475 2917
802.829 121.683 2922
809.816 121.683 2922
816.804 121.683 2922
823.791 121.683 2922
832.2 121.891 2927
839.199 121.891 2927
846.199 121.891 2927
853.198 121.891 2927
860.197 121.891 2927
867.197 121.891 2927
874.196 121.891 2927
881.195 121.891 2927
886.677 121.683 2922
893.665 121.683 2922
899.111 121.475 2917
902.67 121.017 2906
909.619 121.017 2906
918.145 121.225 2911
925.106 121.225 2911
932.067 121.225 2911
937.415 121.017 2906
944.364 121.017 2906
951.314 121.017 2906
956.614 120.808 2901
956.908 119.975 2881
960.452 119.559 2871
967.318 119.559 2871
1455.91 165.825 3982
1465.43 165.825 3982
1474.95 165.825 3982
1477.39 165.034 3963
1486.87 165.034 3963
1475.2 162.702 3907
1464.03 160.453 3853
1473.24 160.453 3853
1465.52 158.621 3809
1461.08 157.163 3774
1437.78 153.707 3691
1446.6 153.707 3691
1455.43 153.707 3691
1447.99 151.999 3650
1456.72 151.999 3650
1440.55 149.418 3588
1449.13 149.418 3588
1435.78 147.169 3534
1429.11 145.628 3497
1422.67 144.129 3461
1430.95 144.129 3461
1433.4 143.546 3447
1429.93 142.38 3419
1429.28 141.505 3398
1437.4 141.505 3398
1433.62 140.339 3370
1441.67 140.339 3370
1449.73 140.339 3370
1454.76 140.048 3363
1468.9 140.631 3377
1476.97 140.631 3377
1509.67 142.963 3433
1586.41 149.418 3588
1601.66 150.042 3603
1610.28 150.042 3603
1626.08 150.708 3619
1667.26 153.707 3691
1706.06 156.455 3757
1715.04 156.455 3757
1724.03 156.455 3757
1733.01 156.455 3757
1741.99 156.455 3757
1743.05 155.747 3740
1752 155.747 3740
1753.41 155.081 3724
1762.31 155.081 3724
1751.72 153.374 3683
1760.53 153.374 3683
1719.85 149.084 3580
1728.41 149.084 3580
1729.69 148.46 3565
1719.69 146.877 3527
1724.7 146.586 3520
1718.34 145.336 3490
1726.69 145.336 3490
1685.82 141.214 3391
1673.44 139.506 3350
1674.93 138.965 3337
1682.91 138.965 3337
1657.45 136.216 3271
1642.87 134.384 3227
1634.73 133.093 3196
1626.96 131.844 3166
1634.53 131.844 3166
1635.87 131.344 3154
1634.04 130.595 3136
1632.11 129.845 3118
1639.57 129.845 3118
1647.03 129.845 3118
1651.3 129.595 3112
1658.74 129.595 3112
1666.18 129.595 3112
1664.48 128.887 3095
1665.94 128.429 3084
1645.64 126.305 3033
1640.91 125.389 3011
1648.11 125.389 3011
1637.71 124.057 2979
1630.48 122.974 2953
1620.35 121.683 2922
1627.34 121.683 2922
1619.79 120.6 2896
1618.29 119.975 2881
1622.35 119.767 2876
1629.23 119.767 2876
1636.11 119.767 2876
1634.99 119.184 2862
1638.96 118.976 2857
1642.92 118.768 2852
1649.74 118.768 2852
1653.65 118.56 2847
1657.54 118.351 2842
1658.48 117.935 2832
1665.26 117.935 2832
1672.03 117.935 2832
1678.8 117.935 2832
1685.57 117.935 2832
1692.34 117.935 2832
1693.72 117.56 2823
1700.47 117.56 2823
1704.19 117.352 2818
1707.9 117.144 2813
1714.62 117.144 2813
1718.9 116.977 2809
1722.55 116.769 2804
1726.17 116.561 2799
1732.86 116.561 2799
1733.96 116.186 2790
1740.63 116.186 2790
1747.31 116.186 2790
1753.98 116.186 2790
1754.34 115.769 2780
1760.99 115.769 2780
1765.09 115.603 2776
1771.73 115.603 2776
1778.37 115.603 2776
1781.79 115.395 2771
1788.42 115.395 2771
1795.04 115.395 2771
1801.67 115.395 2771
1805.69 115.228 2767
1809.03 115.02 2762
1812.35 114.812 2757
1818.94 114.812 2757
1822.88 114.645 2753
1829.47 114.645 2753
1836.05 114.645 2753
1842.63 114.645 2753
1845.86 114.437 2748
1852.43 114.437 2748
1859 114.437 2748
1865.57 114.437 2748
1872.14 114.437 2748
1878.71 114.437 2748
1885.29 114.437 2748
1891.86 114.437 2748
1898.43 114.437 2748
1905 114.437 2748
1905.31 114.062 2739
1909.07 113.895 2735
1915.61 113.895 2735
1922.15 113.895 2735
1928.69 113.895 2735
1935.23 113.895 2735
1941.77 113.895 2735
1944.75 113.687 2730
1951.28 113.687 2730
1957.8 113.687 2730
1964.33 113.687 2730
1954.98 112.771 2708
1961.45 112.771 2708
1967.93 112.771 2708
1971.49 112.605 2704
1977.95 112.605 2704
1984.42 112.605 2704
1987.21 112.396 2699
1987.75 112.063 2691
1994.19 112.063 2691
1993.93 111.688 2682
2000.34 111.688 2682
2000.02 111.314 2673
2006.41 111.314 2673
2022.6 111.855 2686
2029.02 111.855 2686
2049.08 112.605 2704
2062.39 112.979 2713
2071.93 113.146 2717
2078.42 113.146 2717
-2109.91 124.102 2818
-2106.9 124.323 2823
-2100.15 124.323 2823
-2093.4 124.323 2823
-2086.65 124.323 2823
-2079.9 124.323 2823
-2073.15 124.323 2823
-2066.39 124.323 2823
-2066.21 124.719 2832
-2059.44 124.719 2832
-2052.67 124.719 2832
-2045.89 124.719 2832
-2022.56 123.706 2809
-1992.16 122.253 2776
-1985.52 122.253 2776
-1965.34 121.416 2757
-1962.3 121.636 2762
-1955.7 121.636 2762
-1949.09 121.636 2762
-1942.49 121.636 2762
-1907.14 119.831 2721
-1897.84 119.654 2717
-1891.35 119.654 2717
-1872.36 118.862 2699
-1854.16 118.113 2682
-1836.03 117.364 2665
-1829.66 117.364 2665
-1325.68 139.428 3166
-1318.11 139.428 3166
-1310.54 139.428 3166
-1302.97 139.428 3166
-1302.76 140.221 3184
-1295.15 140.221 3184
-1287.54 140.221 3184
-1279.92 140.221 3184
-1279.5 141.013 3202
-1274.23 141.278 3208
-1266.56 141.278 3208
-1258.88 141.278 3208
-1251.21 141.278 3208
-1243.54 141.278 3208
-1224.31 139.957 3178
-1187.23 136.566 3101
-1160.41 134.32 3050
-1153.12 134.32 3050
-1121.03 131.413 2984
-1084.15 129.563 2942
-1077.11 129.563 2942
-1070.08 129.563 2942
-1061.24 129.343 2937
-1054.21 129.343 2937
-1048.97 129.563 2942
-1041.94 129.563 2942
-1034.9 129.563 2942
-1027.87 129.563 2942
-1020.83 129.563 2942
-1013.8 129.563 2942
-1006.76 129.563 2942
-996.328 129.123 2932
-992.691 129.563 2942
-985.656 129.563 2942
-985.606 130.488 2963
-978.52 130.488 2963
-975.041 130.973 2974
-967.93 130.973 2974
-960.818 130.973 2974
-953.706 130.973 2974
-946.594 130.973 2974
-939.483 130.973 2974
-928.922 130.488 2963
-921.837 130.488 2963
-914.751 130.488 2963
-906.134 130.268 2958
-899.061 130.268 2958
-891.987 130.268 2958
-886.41 130.488 2963
-879.324 130.488 2963
-872.239 130.488 2963
-865.153 130.488 2963
-858.068 130.488 2963
-848.111 130.048 2953
-841.049 130.048 2953
-832.293 129.783 2947
-822.446 129.343 2937
-815.422 129.343 2937
-807.023 129.123 2932
-800.011 129.123 2932
-793 129.123 2932
-785.989 129.123 2932
-778.978 129.123 2932
-771.966 129.123 2932
-764.955 129.123 2932
-759.236 129.343 2937
-752.213 129.343 2937
-745.19 129.343 2937
-738.166 129.343 2937
-731.143 129.343 2937
-724.12 129.343 2937
-715.876 129.123 2932
-707.656 128.903 2927
-700.656 128.903 2927
-692.472 128.683 2922
-685.485 128.683 2922
-678.497 128.683 2922
-673.808 129.123 2932
-666.797 129.123 2932
-660.911 129.343 2937
-655.001 129.563 2942
-647.965 129.563 2942
-640.93 129.563 2942
-634.972 129.783 2947
-629.203 130.048 2953
-622.142 130.048 2953
-615.08 130.048 2953
-606.784 129.783 2947
-313.478 97.6789 2218
-308.174 97.6789 2218
-302.87 97.6789 2218
-297.566 97.6789 2218
-290.417 97.0624 2204
-285.147 97.0624 2204
-279.877 97.0624 2204
-274.606 97.0624 2204
-269.336 97.0624 2204
-263.346 96.7981 2198
-257.034 96.4018 2189
-251.799 96.4018 2189
-246.001 96.1816 2184
-238.904 95.4329 2167
-233.938 95.521 2169
-228.751 95.521 2169
-223.565 95.521 2169
-218.378 95.521 2169
-213.191 95.521 2169
-208.292 95.6531 2172
-203.098 95.6531 2172
-197.904 95.6531 2172
-192.444 95.521 2169
-187.258 95.521 2169
-180.896 94.9044 2155
-175.742 94.9044 2155
-170.589 94.9044 2155
-165.436 94.9044 2155
-160.283 94.9044 2155
-154.769 94.6842 2150
-149.419 94.5521 2147
-143.949 94.3319 2142
-138.827 94.3319 2142
-133.705 94.3319 2142
-128.583 94.3319 2142
-123.46 94.3319 2142
-118.338 94.3319 2142
-113.216 94.3319 2142
-107.791 94.0677 2136
-102.539 93.9356 2133
-97.4385 93.9356 2133
-92.2512 93.8475 2131
-87.0327 93.7154 2128
-81.944 93.7154 2128
-76.8553 93.7154 2128
-71.6654 93.5833 2125
-66.5839 93.5833 2125
-61.5024 93.5833 2125
-56.4209 93.5833 2125
-51.2669 93.4512 2122
-46.1925 93.4512 2122
-41.1182 93.4512 2122
-36.0948 93.5833 2125
-31.0133 93.5833 2125
-25.9318 93.5833 2125
-20.8502 93.5833 2125
-15.7687 93.5833 2125
-10.6872 93.5833 2125
-5.60567 93.5833 2125
-0.524896 93.7154 2128
4.57023 93.8475 2131
9.67517 93.9356 2133
14.7758 93.9356 2133
19.9324 94.1998 2139
25.0825 94.3319 2142
30.2047 94.3319 2142
35.3269 94.3319 2142
40.5434 94.5521 2147
45.7414 94.6842 2150
50.8827 94.6842 2150
56.024 94.6842 2150
61.2506 94.8164 2153
66.4608 94.9044 2155
71.7138 95.0366 2158
76.8742 95.0366 2158
82.0346 95.0366 2158
87.1951 95.0366 2158
92.4839 95.1687 2161
97.6515 95.1687 2161
102.962 95.3008 2164
108.137 95.3008 2164
113.311 95.3008 2164
118.486 95.3008 2164
123.49 95.1687 2161
128.657 95.1687 2161
133.825 95.1687 2161
138.992 95.1687 2161
143.96 95.0366 2158
149.328 95.1687 2161
154.495 95.1687 2161
159.663 95.1687 2161
164.83 95.1687 2161
169.998 95.1687 2161
175.166 95.1687 2161
180.584 95.3008 2164
185.758 95.3008 2164
190.933 95.3008 2164
196.108 95.3008 2164
201.562 95.4329 2167
206.744 95.4329 2167
211.926 95.4329 2167
217.108 95.4329 2167
222.802 95.6531 2172
227.996 95.6531 2172
233.512 95.7852 2175
239.043 95.9174 2178
244.251 95.9174 2178
249.459 95.9174 2178
254.667 95.9174 2178
259.876 95.9174 2178
265.084 95.9174 2178
269.92 95.7852 2175
275.121 95.7852 2175
280.322 95.7852 2175
285.523 95.7852 2175
291.125 95.9174 2178
296.333 95.9174 2178
303.48 96.5339 2192
309.989 96.9303 2201
315.253 96.9303 2201
320.516 96.9303 2201
325.779 96.9303 2201
475.031 134.804 3061
482.35 134.804 3061
489.67 134.804 3061
495.204 134.32 3050
502.497 134.32 3050
504.275 132.866 3017
509.625 132.382 3006
514.062 131.677 2990
518.423 130.973 2974
525.535 130.973 2974
529.781 130.268 2958
537.762 130.488 2963
544.847 130.488 2963
551.933 130.488 2963
559.018 130.488 2963
565.148 130.268 2958
571.255 130.048 2953
578.316 130.048 2953
583.197 129.563 2942
588.226 129.123 2932
595.237 129.123 2932
602.249 129.123 2932
607.182 128.683 2922
614.169 128.683 2922
621.157 128.683 2922
628.144 128.683 2922
634.045 128.462 2917
641.02 128.462 2917
647.996 128.462 2917
653.624 128.198 2911
660.585 128.198 2911
667.546 128.198 2911
674.507 128.198 2911
681.468 128.198 2911
688.429 128.198 2911
695.39 128.198 2911
702.351 128.198 2911
709.312 128.198 2911
717.75 128.462 2917
724.725 128.462 2917
731.701 128.462 2917
739.942 128.683 2922
746.93 128.683 2922
753.917 128.683 2922
759.602 128.462 2917
766.578 128.462 2917
774.879 128.683 2922
781.867 128.683 2922
788.854 128.683 2922
795.841 128.683 2922
802.829 128.683 2922
809.816 128.683 2922
816.804 128.683 2922
823.791 128.683 2922
832.2 128.903 2927
839.199 128.903 2927
846.199 128.903 2927
853.198 128.903 2927
860.197 128.903 2927
867.197 128.903 2927
874.196 128.903 2927
881.195 128.903 2927
886.677 128.683 2922
893.665 128.683 2922
899.111 128.462 2917
901.117 127.758 2901
909.619 127.978 2906
918.145 128.198 2911
925.106 128.198 2911
932.067 128.198 2911
937.415 127.978 2906
944.364 127.978 2906
949.677 127.758 2901
950.019 126.877 2881
956.908 126.877 2881
962.125 126.657 2876
969.002 126.657 2876
1455.91 175.364 3982
1465.43 175.364 3982
1474.95 175.364 3982
1480.75 174.924 3972
1486.87 174.527 3963
1475.2 172.061 3907
1464.03 169.683 3853
1473.24 169.683 3853
1465.52 167.745 3809
1468.05 166.997 3792
1437.78 162.549 3691
1446.6 162.549 3691
1455.43 162.549 3691
1464.26 162.549 3691
1456.72 160.743 3650
1440.55 158.013 3588
1449.13 158.013 3588
1435.78 155.634 3534
1429.11 154.005 3497
1425.55 152.728 3468
1433.84 152.728 3468
1433.4 151.803 3447
1429.93 150.57 3419
1423.39 149.029 3384
1431.48 149.029 3384
1430.64 148.104 3363
1438.68 148.104 3363
1452.74 148.72 3377
1463.85 149.029 3384
1471.94 149.029 3384
1480.03 149.029 3384
1537.82 154.005 3497
1586.41 158.013 3588
1601.66 158.673 3603
1610.28 158.673 3603
1626.08 159.378 3619
1685.78 164.354 3732
1713.78 166.204 3774
1722.8 166.204 3774
1731.83 166.204 3774
1734.11 164.707 3740
1743.05 164.707 3740
1752 164.707 3740
1753.41 164.002 3724
1762.31 164.002 3724
1751.72 162.196 3683
1760.53 162.196 3683
1719.85 157.66 3580
1728.41 157.66 3580
1602.58 145.461 3303
1610.47 145.461 3303
1628.17 146.342 3323
1636.12 146.342 3323
1644.06 146.342 3323
1642.07 145.461 3303
1630.98 143.788 3265
1625.74 142.643 3239
1633.49 142.643 3239
1632.11 141.85 3221
1627.09 140.749 3196
1600.97 137.843 3130
1587.39 136.037 3089
1594.77 136.037 3089
1596.45 135.553 3078
1591.83 134.54 3055
1599.14 134.54 3055
1606.44 134.54 3055
1613.75 134.54 3055
1612.56 133.835 3039
1619.83 133.835 3039
1627.1 133.835 3039
1619.31 132.602 3011
1615.16 131.677 2990
1598.98 129.783 2947
1595.13 128.903 2927
1602.13 128.903 2927
1609.13 128.903 2927
1610.61 128.462 2917
1600.39 127.097 2886
1607.29 127.097 2886
1608.6 126.657 2876
1615.48 126.657 2876
1616.71 126.216 2866
1621.3 126.04 2862
1628.14 126.04 2862
1632.13 125.82 2857
1636.1 125.6 2852
1640.04 125.38 2847
1646.84 125.38 2847
1650.75 125.159 2842
1654.63 124.939 2837
1658.48 124.719 2832
1665.26 124.719 2832
1672.03 124.719 2832
1678.8 124.719 2832
1685.57 124.719 2832
1692.34 124.719 2832
1693.72 124.323 2823
1700.47 124.323 2823
1707.22 124.323 2823
1707.9 123.882 2813
1714.62 123.882 2813
1718.9 123.706 2809
1722.55 123.486 2804
1729.25 123.486 2804
1735.96 123.486 2804
1736.45 123.045 2794
1740.63 122.869 2790
1747.31 122.869 2790
1753.98 122.869 2790
1757.49 122.649 2785
1760.99 122.429 2780
1767.64 122.429 2780
1774.28 122.429 2780
1778.37 122.253 2776
1781.79 122.033 2771
1788.42 122.033 2771
1795.04 122.033 2771
1801.67 122.033 2771
1805.69 121.856 2767
1809.03 121.636 2762
1815.63 121.636 2762
1822.24 121.636 2762
1825.53 121.416 2757
1832.12 121.416 2757
1836.05 121.24 2753
1842.63 121.24 2753
1849.22 121.24 2753
1855.8 121.24 2753
1862.38 121.24 2753
1868.97 121.24 2753
1875.55 121.24 2753
1882.13 121.24 2753
1888.72 121.24 2753
1891.86 121.02 2748
1898.43 121.02 2748
1905 121.02 2748
1905.31 120.623 2739
1909.07 120.447 2735
1915.61 120.447 2735
1922.15 120.447 2735
1928.69 120.447 2735
1935.23 120.447 2735
1941.77 120.447 2735
1944.75 120.227 2730
1951.28 120.227 2730
1957.8 120.227 2730
1964.33 120.227 2730
1954.98 119.258 2708
1961.45 119.258 2708
1967.93 119.258 2708
1971.49 119.082 2704
1977.95 119.082 2704
1984.42 119.082 2704
1987.21 118.862 2699
1987.75 118.509 2691
1994.19 118.509 2691
1993.93 118.113 2682
2000.34 118.113 2682
2000.02 117.717 2673
2006.41 117.717 2673
2022.6 118.289 2686
2029.02 118.289 2686
2049.08 119.082 2704
2058.59 119.258 2708
2068.88 119.478 2713
2075.36 119.478 2713
-2113.65 131.085 2823
-2106.9 131.085 2823
-2100.15 131.085 2823
-2093.4 131.085 2823
-2086.65 131.085 2823
-2079.9 131.085 2823
-2076.82 131.317 2828
-2070.05 131.317 2828
-2066.21 131.503 2832
-2059.44 131.503 2832
-2052.67 131.503 2832
-2045.89 131.503 2832
-2022.56 130.435 2809
-1992.16 128.903 2776
-1985.52 128.903 2776
-1968.91 128.253 2762
-1965.85 128.485 2767
-1959.24 128.485 2767
-1952.62 128.485 2767
-1942.49 128.253 2762
-1907.14 126.349 2721
-1897.84 126.163 2717
-1891.35 126.163 2717
-1872.36 125.327 2699
-1854.16 124.538 2682
-1836.03 123.748 2665
-1829.66 123.748 2665
-1338.31 147.569 3178
-1330.71 147.569 3178
-1323.11 147.569 3178
-1315.51 147.569 3178
-1307.91 147.569 3178
-1305.22 148.127 3190
-1300.03 148.405 3196
-1292.39 148.405 3196
-1284.75 148.405 3196
-1279.5 148.684 3202
-1274.23 148.963 3208
-1266.56 148.963 3208
-1261.24 149.241 3214
-1253.55 149.241 3214
-1245.87 149.241 3214
-1228.94 148.127 3190
-1209.82 146.734 3160
-1179.82 143.994 3101
-1172.4 143.994 3101
-1121.03 138.561 2984
-1084.15 136.611 2942
-1077.11 136.611 2942
-1070.08 136.611 2942
-1061.24 136.379 2937
-1054.21 136.379 2937
-1048.97 136.611 2942
-1041.94 136.611 2942
-1034.9 136.611 2942
-1027.87 136.611 2942
-1020.83 136.611 2942
-1013.8 136.611 2942
-1006.76 136.611 2942
-996.328 136.147 2932
-992.691 136.611 2942
-985.656 136.611 2942
-985.606 137.586 2963
-978.52 137.586 2963
-975.041 138.097 2974
-967.93 138.097 2974
-960.818 138.097 2974
-953.706 138.097 2974
-946.594 138.097 2974
-939.483 138.097 2974
-928.922 137.586 2963
-921.837 137.586 2963
-914.751 137.586 2963
-906.134 137.354 2958
-899.061 137.354 2958
-891.987 137.354 2958
-886.41 137.586 2963
-879.324 137.586 2963
-872.239 137.586 2963
-865.153 137.586 2963
-858.068 137.586 2963
-848.111 137.122 2953
-841.049 137.122 2953
-832.293 136.843 2947
-822.446 136.379 2937
-815.422 136.379 2937
-807.023 136.147 2932
-800.011 136.147 2932
-793 136.147 2932
-785.989 136.147 2932
-778.978 136.147 2932
-771.966 136.147 2932
-764.955 136.147 2932
-759.236 136.379 2937
-752.213 136.379 2937
-745.19 136.379 2937
-738.166 136.379 2937
-731.143 136.379 2937
-724.12 136.379 2937
-715.876 136.147 2932
-707.656 135.914 2927
-700.656 135.914 2927
-692.472 135.682 2922
-685.485 135.682 2922
-679.658 135.914 2927
-673.808 136.147 2932
-666.797 136.147 2932
-660.911 136.379 2937
-655.001 136.611 2942
-649.067 136.843 2947
-642.019 136.843 2947
-636.265 137.122 2953
-629.203 137.122 2953
-622.142 137.122 2953
-615.08 137.122 2953
-608.019 137.122 2953
-600.957 137.122 2953
-593.896 137.122 2953
-583.655 136.379 2937
-307.479 102.76 2213
-302.187 102.76 2213
-296.895 102.76 2213
-294.239 103.689 2233
-288.899 103.689 2233
-498.419 182.256 3925
-489.033 182.256 3925
-479.647 182.256 3925
-263.346 102.063 2198
-258.09 102.063 2198
-252.834 102.063 2198
-246.001 101.413 2184
-233.938 100.717 2169
-228.751 100.717 2169
-223.565 100.717 2169
-218.982 100.995 2175
-213.781 100.995 2175
-208.58 100.995 2175
-203.379 100.995 2175
-198.178 100.995 2175
-192.444 100.717 2169
-187.258 100.717 2169
-181.147 100.206 2158
-175.987 100.206 2158
-170.827 100.206 2158
-165.666 100.206 2158
-160.283 100.067 2155
-154.769 99.8346 2150
-149.419 99.6953 2147
-144.084 99.556 2144
-138.957 99.556 2144
-133.705 99.4631 2142
-128.703 99.556 2144
-123.576 99.556 2144
-118.449 99.556 2144
-113.322 99.556 2144
-107.791 99.1845 2136
-102.539 99.0452 2133
-97.4385 99.0452 2133
-92.2512 98.9523 2131
-87.0327 98.813 2128
-81.944 98.813 2128
-76.8553 98.813 2128
-71.6654 98.6737 2125
-66.5839 98.6737 2125
-61.5024 98.6737 2125
-56.4209 98.6737 2125
-51.2669 98.5344 2122
-46.1925 98.5344 2122
-41.1182 98.5344 2122
-36.0948 98.6737 2125
-31.0133 98.6737 2125
-25.9318 98.6737 2125
-20.8502 98.6737 2125
-15.7687 98.6737 2125
-10.6872 98.6737 2125
-5.60567 98.6737 2125
-0.524896 98.813 2128
4.57023 98.9523 2131
9.67517 99.0452 2133
14.7758 99.0452 2133
19.9603 99.4631 2142
25.0825 99.4631 2142
30.2752 99.6953 2147
35.4093 99.6953 2147
40.6001 99.8346 2150
45.8052 99.9739 2153
50.9537 99.9739 2153
56.1022 99.9739 2153
61.3075 100.067 2155
66.5533 100.206 2158
71.8134 100.345 2161
76.9811 100.345 2161
82.1487 100.345 2161
87.3163 100.345 2161
92.6123 100.485 2164
97.787 100.485 2164
103.105 100.624 2167
108.287 100.624 2167
113.468 100.624 2167
118.65 100.624 2167
123.661 100.485 2164
128.836 100.485 2164
134.01 100.485 2164
138.992 100.345 2161
144.16 100.345 2161
149.328 100.345 2161
154.495 100.345 2161
159.663 100.345 2161
164.83 100.345 2161
169.998 100.345 2161
175.409 100.485 2164
180.584 100.485 2164
185.758 100.485 2164
190.933 100.485 2164
196.108 100.485 2164
201.562 100.624 2167
206.744 100.624 2167
211.926 100.624 2167
217.108 100.624 2167
222.802 100.856 2172
227.996 100.856 2172
233.512 100.995 2175
239.043 101.135 2178
244.251 101.135 2178
249.459 101.135 2178
254.667 101.135 2178
259.518 100.995 2175
264.719 100.995 2175
269.92 100.995 2175
275.121 100.995 2175
280.322 100.995 2175
285.523 100.995 2175
290.724 100.995 2175
295.925 100.995 2175
301.542 101.135 2178
308.722 101.785 2192
314.393 101.924 2195
319.642 101.924 2195
324.891 101.924 2195
477.669 142.926 3078
485.029 142.926 3078
492.39 142.926 3078
495.204 141.626 3050
502.497 141.626 3050
502.437 139.583 3006
508.608 139.304 3000
513.031 138.561 2984
516.506 137.586 2963
523.591 137.586 2963
529.781 137.354 2958
536.854 137.354 2958
543.928 137.354 2958
551.001 137.354 2958
558.075 137.354 2958
564.193 137.122 2953
570.094 136.843 2947
577.141 136.843 2947
582.206 136.379 2937
588.226 136.147 2932
594.222 135.914 2927
601.222 135.914 2927
607.182 135.682 2922
614.169 135.682 2922
621.157 135.682 2922
628.144 135.682 2922
634.045 135.45 2917
641.02 135.45 2917
647.996 135.45 2917
653.624 135.171 2911
660.585 135.171 2911
667.546 135.171 2911
674.507 135.171 2911
681.468 135.171 2911
688.429 135.171 2911
695.39 135.171 2911
702.351 135.171 2911
710.774 135.45 2917
717.75 135.45 2917
724.725 135.45 2917
732.955 135.682 2922
739.942 135.682 2922
746.93 135.682 2922
753.917 135.682 2922
760.904 135.682 2922
767.892 135.682 2922
774.879 135.682 2922
781.867 135.682 2922
788.854 135.682 2922
795.841 135.682 2922
802.829 135.682 2922
809.816 135.682 2922
816.804 135.682 2922
823.791 135.682 2922
832.2 135.914 2927
839.199 135.914 2927
846.199 135.914 2927
853.198 135.914 2927
860.197 135.914 2927
867.197 135.914 2927
872.703 135.682 2922
879.69 135.682 2922
886.677 135.682 2922
893.665 135.682 2922
900.652 135.682 2922
901.117 134.707 2901
908.054 134.707 2901
918.145 135.171 2911
925.106 135.171 2911
932.067 135.171 2911
935.802 134.707 2901
942.74 134.707 2901
949.677 134.707 2901
951.668 134.011 2886
956.908 133.778 2881
962.125 133.546 2876
969.002 133.546 2876
1455.91 184.903 3982
1465.43 184.903 3982
1474.95 184.903 3982
1480.75 184.439 3972
1486.87 184.021 3963
1475.2 181.42 3907
1464.03 178.913 3853
1473.24 178.913 3853
1465.52 176.87 3809
1468.05 176.08 3792
1444.01 172.133 3707
1452.87 172.133 3707
1455.43 171.39 3691
1464.26 171.39 3691
1456.72 169.487 3650
1440.55 166.608 3588
1449.13 166.608 3588
1435.78 164.1 3534
1429.11 162.382 3497
1425.55 161.036 3468
1433.84 161.036 3468
1433.4 160.06 3447
1429.93 158.76 3419
1417.5 156.485 3370
1425.56 156.485 3370
1428.09 155.881 3357
1436.11 155.881 3357
1458.77 157.46 3391
1469.9 157.785 3398
1481.07 158.11 3405
1489.22 158.11 3405
1551.01 163.775 3527
1589.51 166.933 3595
1605.22 167.676 3611
1613.85 167.676 3611
1626.08 168.047 3619
1689.39 173.666 3740
1713.78 175.245 3774
1722.8 175.245 3774
1731.83 175.245 3774
1744.5 172.923 3724
1753.41 172.923 3724
1762.31 172.923 3724
1751.72 171.019 3683
1744.75 169.487 3650
1586.78 153.374 3303
1594.68 153.374 3303
1602.58 153.374 3303
1610.47 153.374 3303
1596.32 151.284 3258
1601.16 151.006 3252
1608.94 151.006 3252
1610.25 150.402 3239
1615 150.123 3233
1610.18 148.963 3208
1617.85 148.963 3208
1592.08 145.898 3142
1578.72 143.994 3101
1574.37 142.926 3078
1573 142.137 3061
1580.32 142.137 3061
1581.93 141.626 3050
1580.37 140.836 3033
1581.86 140.326 3022
1589.09 140.326 3022
1596.32 140.326 3022
1586.56 138.84 2990
1579.32 137.586 2963
1569.81 136.147 2932
1576.82 136.147 2932
1578.43 135.682 2922
1574.02 134.707 2901
1575.51 134.243 2891
1582.42 134.243 2891
1586.59 134.011 2886
1593.49 134.011 2886
1594.84 133.546 2876
1601.72 133.546 2876
1603.01 133.082 2866
1607.61 132.896 2862
1611.64 132.664 2857
1618.47 132.664 2857
1625.3 132.664 2857
1629.28 132.432 2852
1633.23 132.2 2847
1637.16 131.967 2842
1643.95 131.967 2842
1650.75 131.967 2842
1654.63 131.735 2837
1658.48 131.503 2832
1665.26 131.503 2832
1672.03 131.503 2832
1678.8 131.503 2832
1685.57 131.503 2832
1692.34 131.503 2832
1696.72 131.317 2828
1700.47 131.085 2823
1707.22 131.085 2823
1710.93 130.853 2818
1717.67 130.853 2818
1721.35 130.621 2813
1722.55 130.203 2804
1729.25 130.203 2804
1735.96 130.203 2804
1736.45 129.739 2794
1743.13 129.739 2794
1747.31 129.553 2790
1753.98 129.553 2790
1757.49 129.321 2785
1760.99 129.088 2780
1767.64 129.088 2780
1774.28 129.088 2780
1778.37 128.903 2776
1785.01 128.903 2776
1788.42 128.671 2771
1795.04 128.671 2771
1801.67 128.671 2771
1808.3 128.671 2771
1812.3 128.485 2767
1815.63 128.253 2762
1822.24 128.253 2762
1828.84 128.253 2762
1835.45 128.253 2762
1836.05 127.835 2753
1842.63 127.835 2753
1849.22 127.835 2753
1855.8 127.835 2753
1862.38 127.835 2753
1868.97 127.835 2753
1875.55 127.835 2753
1882.13 127.835 2753
1888.72 127.835 2753
1895.3 127.835 2753
1901.88 127.835 2753
1908.47 127.835 2753
1908.79 127.417 2744
1911.86 127.185 2739
1918.41 127.185 2739
1924.96 127.185 2739
1928.69 126.999 2735
1935.23 126.999 2735
1941.77 126.999 2735
1944.75 126.767 2730
1951.28 126.767 2730
1954.94 126.581 2726
1961.45 126.581 2726
1961.48 126.163 2717
1967.97 126.163 2717
1974.47 126.163 2717
1978.05 125.977 2713
1984.54 125.977 2713
1991.03 125.977 2713
1990.89 125.559 2704
1990.7 125.142 2695
1997.15 125.142 2695
1996.9 124.724 2686
2003.33 124.724 2686
2006.76 124.538 2682
2013.17 124.538 2682
2019.58 124.538 2682
2026 124.538 2682
2049.08 125.559 2704
2055.55 125.559 2704
2062.01 125.559 2704
2068.48 125.559 2704
-2113.65 137.848 2823
-2106.9 137.848 2823
-2100.15 137.848 2823
-2093.4 137.848 2823
-2086.65 137.848 2823
-2079.9 137.848 2823
-2076.82 138.092 2828
-2070.05 138.092 2828
-2066.21 138.287 2832
-2059.44 138.287 2832
-2052.67 138.287 2832
-2045.89 138.287 2832
-2022.56 137.164 2809
-1988.57 135.309 2771
-1981.95 135.309 2771
-1968.91 134.869 2762
-1965.85 135.113 2767
-1959.24 135.113 2767
-1952.62 135.113 2767
-1942.49 134.869 2762
-1907.14 132.867 2721
-1897.84 132.672 2717
-1891.35 132.672 2717
-1872.36 131.793 2699
-1854.16 130.963 2682
-1824.32 129.302 2648
-1817.99 129.302 2648
-1338.31 155.182 3178
-1330.71 155.182 3178
-1323.11 155.182 3178
-1315.51 155.182 3178
-1307.91 155.182 3178
-1305.22 155.768 3190
-1300.03 156.061 3196
-1292.39 156.061 3196
-1284.75 156.061 3196
-1277.1 156.061 3196
-1274.23 156.647 3208
-1266.56 156.647 3208
-1261.24 156.94 3214
-1253.55 156.94 3214
-1245.87 156.94 3214
-1228.94 155.768 3190
-1209.82 154.303 3160
-1179.82 151.422 3101
-1172.4 151.422 3101
-1121.03 145.709 2984
-1074.94 142.438 2917
-1069.79 142.682 2922
-1062.8 142.682 2922
-1055.82 142.682 2922
-1052.42 143.17 2932
-1047.19 143.414 2937
-1040.17 143.414 2937
-1033.14 143.414 2937
-1026.12 143.414 2937
-1019.1 143.414 2937
-1010.35 143.17 2932
-1003.34 143.17 2932
-994.629 142.926 2927
-989.317 143.17 2932
-982.305 143.17 2932
-982.279 144.196 2953
-978.52 144.684 2963
-971.435 144.684 2963
-964.349 144.684 2963
-957.264 144.684 2963
-950.179 144.684 2963
-943.093 144.684 2963
-936.008 144.684 2963
-927.355 144.44 2958
-920.281 144.44 2958
-913.208 144.44 2958
-904.603 144.196 2953
-897.541 144.196 2953
-890.48 144.196 2953
-884.914 144.44 2958
-877.84 144.44 2958
-870.767 144.44 2958
-862.234 144.196 2953
-855.172 144.196 2953
-848.111 144.196 2953
-839.34 143.903 2947
-830.881 143.658 2942
-822.446 143.414 2937
-815.422 143.414 2937
-807.023 143.17 2932
-800.011 143.17 2932
-791.648 142.926 2927
-784.648 142.926 2927
-777.649 142.926 2927
-771.966 143.17 2932
-764.955 143.17 2932
-759.236 143.414 2937
-752.213 143.414 2937
-745.19 143.414 2937
-738.166 143.414 2937
-731.143 143.414 2937
-724.12 143.414 2937
-715.876 143.17 2932
-707.656 142.926 2927
-700.656 142.926 2927
-693.657 142.926 2927
-686.658 142.926 2927
-680.819 143.17 2932
-673.808 143.17 2932
-666.797 143.17 2932
-660.911 143.414 2937
-655.001 143.658 2942
-649.067 143.903 2947
-642.019 143.903 2947
-636.265 144.196 2953
-629.203 144.196 2953
-622.142 144.196 2953
-615.08 144.196 2953
-608.019 144.196 2953
-601.975 144.44 2958
-594.901 144.44 2958
-587.828 144.44 2958
-580.755 144.44 2958
-307.479 108.061 2213
-302.187 108.061 2213
-526.577 191.659 3925
-517.191 191.659 3925
-507.805 191.659 3925
-499.689 192.147 3935
-491.4 192.586 3944
-481.969 192.586 3944
-472.538 192.586 3944
-462.05 192.147 3935
-452.64 192.147 3935
-440.076 190.78 3907
-233.938 105.913 2169
-228.751 105.913 2169
-223.565 105.913 2169
-219.888 106.645 2184
-214.666 106.645 2184
-209.443 106.645 2184
-203.94 106.499 2181
-198.451 106.352 2178
-192.71 106.059 2172
-187.517 106.059 2172
-181.651 105.669 2164
-176.232 105.522 2161
-170.827 105.376 2158
-165.666 105.376 2158
-160.283 105.229 2155
-154.985 105.131 2153
-149.419 104.838 2147
-144.084 104.692 2144
-138.957 104.692 2144
-133.705 104.594 2142
-128.703 104.692 2144
-123.576 104.692 2144
-118.449 104.692 2144
-113.322 104.692 2144
-107.943 104.448 2139
-102.539 104.155 2133
-97.4385 104.155 2133
-92.2512 104.057 2131
-87.0327 103.911 2128
-81.944 103.911 2128
-76.8553 103.911 2128
-71.6654 103.764 2125
-66.5839 103.764 2125
-61.5024 103.764 2125
-56.4209 103.764 2125
-51.2669 103.618 2122
-46.1925 103.618 2122
-41.1182 103.618 2122
-36.0948 103.764 2125
-31.0133 103.764 2125
-25.9318 103.764 2125
-20.8502 103.764 2125
-15.7687 103.764 2125
-10.7023 103.911 2128
-5.61359 103.911 2128
-0.524896 103.911 2128
4.57023 104.057 2131
9.70239 104.448 2139
14.8174 104.448 2139
19.9603 104.594 2142
25.1059 104.692 2144
30.2752 104.838 2147
35.4093 104.838 2147
40.6001 104.985 2150
45.8052 105.131 2153
51.001 105.229 2155
56.1543 105.229 2155
61.3929 105.376 2158
66.6458 105.522 2161
71.9131 105.669 2164
77.0879 105.669 2164
82.2627 105.669 2164
87.4375 105.669 2164
92.7407 105.815 2167
97.9226 105.815 2167
103.2 105.913 2169
108.386 105.913 2169
113.573 105.913 2169
118.76 105.913 2169
123.832 105.815 2167
129.014 105.815 2167
134.196 105.815 2167
139.185 105.669 2164
144.36 105.669 2164
149.328 105.522 2161
154.495 105.522 2161
159.663 105.522 2161
164.83 105.522 2161
170.234 105.669 2164
175.409 105.669 2164
180.584 105.669 2164
185.758 105.669 2164
190.933 105.669 2164
196.108 105.669 2164
201.562 105.815 2167
206.744 105.815 2167
211.926 105.815 2167
217.108 105.815 2167
222.802 106.059 2172
227.996 106.059 2172
233.512 106.206 2175
239.043 106.352 2178
244.251 106.352 2178
249.459 106.352 2178
254.667 106.352 2178
259.518 106.206 2175
264.719 106.206 2175
269.92 106.206 2175
275.121 106.206 2175
280.322 106.206 2175
285.523 106.206 2175
290.724 106.206 2175
295.925 106.206 2175
301.542 106.352 2178
308.722 107.036 2192
314.393 107.182 2195
319.642 107.182 2195
324.891 107.182 2195
477.669 150.299 3078
485.029 150.299 3078
492.39 150.299 3078
496.99 149.469 3061
504.31 149.469 3061
503.272 147.028 3011
508.608 146.491 3000
513.031 145.709 2984
517.377 144.928 2968
524.475 144.928 2968
529.781 144.44 2958
536.854 144.44 2958
543.928 144.44 2958
551.001 144.44 2958
558.075 144.44 2958
564.193 144.196 2953
570.094 143.903 2947
577.141 143.903 2947
582.206 143.414 2937
588.226 143.17 2932
594.222 142.926 2927
601.222 142.926 2927
608.221 142.926 2927
614.169 142.682 2922
621.157 142.682 2922
628.144 142.682 2922
634.045 142.438 2917
641.02 142.438 2917
647.996 142.438 2917
653.624 142.145 2911
660.585 142.145 2911
667.546 142.145 2911
675.897 142.438 2917
682.873 142.438 2917
689.848 142.438 2917
696.824 142.438 2917
703.799 142.438 2917
710.774 142.438 2917
718.98 142.682 2922
725.968 142.682 2922
732.955 142.682 2922
739.942 142.682 2922
746.93 142.682 2922
753.917 142.682 2922
760.904 142.682 2922
767.892 142.682 2922
774.879 142.682 2922
781.867 142.682 2922
788.854 142.682 2922
795.841 142.682 2922
802.829 142.682 2922
809.816 142.682 2922
816.804 142.682 2922
823.791 142.682 2922
832.2 142.926 2927
839.199 142.926 2927
846.199 142.926 2927
853.198 142.926 2927
860.197 142.926 2927
867.197 142.926 2927
872.703 142.682 2922
879.69 142.682 2922
886.677 142.682 2922
893.665 142.682 2922
900.652 142.682 2922
901.117 141.656 2901
908.054 141.656 2901
918.145 142.145 2911
925.106 142.145 2911
932.067 142.145 2911
937.415 141.901 2906
944.364 141.901 2906
951.314 141.901 2906
953.316 141.168 2891
958.569 140.924 2886
962.125 140.436 2876
969.002 140.436 2876
1455.91 194.442 3982
1465.43 194.442 3982
1474.95 194.442 3982
1480.75 193.954 3972
1486.87 193.514 3963
1475.2 190.78 3907
1467.45 188.582 3862
1476.68 188.582 3862
1468.99 186.434 3818
1471.15 185.555 3800
1453.75 182.234 3732
1462.67 182.234 3732
1465.29 181.453 3716
1467.43 180.623 3699
1456.72 178.23 3650
1440.55 175.203 3588
1449.13 175.203 3588
1435.78 172.566 3534
1429.11 170.759 3497
1425.55 169.343 3468
1433.84 169.343 3468
1433.4 168.318 3447
1429.93 166.95 3419
1417.5 164.558 3370
1425.56 164.558 3370
1428.09 163.923 3357
1436.11 163.923 3357
1461.78 165.925 3398
1478.99 166.95 3419
1490.21 167.292 3426
1498.4 167.292 3426
1551.01 172.224 3527
1589.51 175.545 3595
1605.22 176.326 3611
1613.85 176.326 3611
1626.08 176.717 3619
1689.39 182.625 3740
1713.78 184.285 3774
1722.8 184.285 3774
1731.83 184.285 3774
1744.5 181.844 3724
1753.41 181.844 3724
1762.31 181.844 3724
1751.72 179.842 3683
1744.75 178.23 3650
1593.5 161.97 3317
1594.68 161.286 3303
1602.58 161.286 3303
1610.47 161.286 3303
1596.32 159.089 3258
1601.16 158.796 3252
1608.94 158.796 3252
1610.25 158.161 3239
1615 157.868 3233
1610.18 156.647 3208
1617.85 156.647 3208
1592.08 153.424 3142
1578.72 151.422 3101
1574.37 150.299 3078
1573 149.469 3061
1580.32 149.469 3061
1581.93 148.932 3050
1580.37 148.102 3033
1581.86 147.565 3022
1589.09 147.565 3022
1596.32 147.565 3022
1586.56 146.002 2990
1579.32 144.684 2963
1569.81 143.17 2932
1576.82 143.17 2932
1578.43 142.682 2922
1574.02 141.656 2901
1575.51 141.168 2891
1582.42 141.168 2891
1586.59 140.924 2886
1593.49 140.924 2886
1594.84 140.436 2876
1601.72 140.436 2876
1603.01 139.947 2866
1607.61 139.752 2862
1611.64 139.508 2857
1618.47 139.508 2857
1625.3 139.508 2857
1629.28 139.264 2852
1633.23 139.02 2847
1637.16 138.775 2842
1643.95 138.775 2842
1650.75 138.775 2842
1654.63 138.531 2837
1658.48 138.287 2832
1665.26 138.287 2832
1672.03 138.287 2832
1678.8 138.287 2832
1685.57 138.287 2832
1692.34 138.287 2832
1696.72 138.092 2828
1700.47 137.848 2823
1707.22 137.848 2823
1710.93 137.604 2818
1717.67 137.604 2818
1721.35 137.359 2813
1725.62 137.164 2809
1729.25 136.92 2804
1735.96 136.92 2804
1739.56 136.676 2799
1743.13 136.432 2794
1749.81 136.432 2794
1756.49 136.432 2794
1760.65 136.236 2790
1764.15 135.992 2785
1767.64 135.748 2780
1774.28 135.748 2780
1780.93 135.748 2780
1785.01 135.553 2776
1788.42 135.309 2771
1795.04 135.309 2771
1801.67 135.309 2771
1808.3 135.309 2771
1812.3 135.113 2767
1818.92 135.113 2767
1825.54 135.113 2767
1828.84 134.869 2762
1835.45 134.869 2762
1838.72 134.625 2757
1845.31 134.625 2757
1851.9 134.625 2757
1858.5 134.625 2757
1865.09 134.625 2757
1871.68 134.625 2757
1878.27 134.625 2757
1884.87 134.625 2757
1891.46 134.625 2757
1895.3 134.43 2753
1901.88 134.43 2753
1908.47 134.43 2753
1911.57 134.185 2748
1915.35 133.99 2744
1921.91 133.99 2744
1924.96 133.746 2739
1931.51 133.746 2739
1935.23 133.551 2735
1941.77 133.551 2735
1948.31 133.551 2735
1954.85 133.551 2735
1957.8 133.306 2730
1964.33 133.306 2730
1967.97 133.111 2726
1970.87 132.867 2721
1977.38 132.867 2721
1980.97 132.672 2717
1987.46 132.672 2717
1991.03 132.476 2713
1993.83 132.232 2708
1997.35 132.037 2704
2003.82 132.037 2704
2000.62 131.402 2691
2003.33 131.158 2686
2006.76 130.963 2682
2013.17 130.963 2682
2019.58 130.963 2682
2026 130.963 2682
2049.08 132.037 2704
2055.55 132.037 2704
2062.01 132.037 2704
2068.48 132.037 2704
-2117.39 144.866 2828
-2110.63 144.866 2828
-2103.87 144.866 2828
-2097.11 144.866 2828
-2090.34 144.866 2828
-2083.58 144.866 2828
-2076.82 144.866 2828
-2070.05 144.866 2828
-2066.21 145.071 2832
-2059.44 145.071 2832
-2052.67 145.071 2832
-2043 144.866 2828
-2025.44 144.098 2813
-1995.03 142.407 2780
-1988.38 142.407 2780
-1978.89 142.203 2776
-1975.09 142.407 2780
-1968.44 142.407 2780
-1961.79 142.407 2780
-1955.15 142.407 2780
-1919.76 140.307 2739
-1904.13 139.641 2726
-1897.61 139.641 2726
-1878.61 138.719 2708
-1854.16 137.387 2682
-1824.32 135.646 2648
-1817.99 135.646 2648
-2044.72 190.355 3716
-2058.29 192.455 3757
-2063.49 193.787 3783
-2054.44 193.787 3783
-2045.4 193.787 3783
-2036.35 193.787 3783
-2027.3 193.787 3783
-2013.46 193.326 3774
-1991.15 192.045 3749
-1982.19 192.045 3749
-1973.22 192.045 3749
-1361.17 163.717 3196
-1353.53 163.717 3196
-1345.89 163.717 3196
-1338.24 163.717 3196
-1330.6 163.717 3196
-1315.51 162.795 3178
-1312.85 163.41 3190
-1310.13 164.025 3202
-1302.47 164.025 3202
-1294.81 164.025 3202
-1287.16 164.025 3202
-1279.5 164.025 3202
-1276.61 164.639 3214
-1268.92 164.639 3214
-1263.99 164.998 3221
-1256.28 164.998 3221
-1248.58 164.998 3221
-1240.88 164.998 3221
-1219.01 163.103 3184
-1190.85 160.336 3130
-1183.37 160.336 3130
-1065.76 149.118 2911
-1058.8 149.118 2911
-1059.43 150.194 2932
-1071.08 152.858 2984
-1063.95 152.858 2984
-1056.81 152.858 2984
-1046.16 152.345 2974
-1035.2 151.782 2963
-1028.12 151.782 2963
-1019.31 151.526 2958
-1006.76 150.706 2942
-996.328 150.194 2932
-991.004 150.45 2937
-983.98 150.45 2937
-987.269 152.038 2968
-980.172 152.038 2968
-973.074 152.038 2968
-965.977 152.038 2968
-958.879 152.038 2968
-948.575 151.526 2958
-941.502 151.526 2958
-934.428 151.526 2958
-925.787 151.27 2953
-918.726 151.27 2953
-911.664 151.27 2953
-902.765 150.962 2947
-895.718 150.962 2947
-887.163 150.706 2942
-881.623 150.962 2947
-874.576 150.962 2947
-867.529 150.962 2947
-860.482 150.962 2947
-853.435 150.962 2947
-844.951 150.706 2942
-836.492 150.45 2937
-829.469 150.45 2937
-819.645 149.938 2927
-812.646 149.938 2927
-804.27 149.682 2922
-797.283 149.682 2922
-790.296 149.682 2922
-783.308 149.682 2922
-776.321 149.682 2922
-770.65 149.938 2927
