-1800.15 495.055 3800
-1795.31 496.227 3809
-1786.2 496.227 3809
-1777.09 496.227 3809
-1767.98 496.227 3809
-1758.87 496.227 3809
-1749.77 496.227 3809
-1736.55 495.055 3800
-1731.55 496.227 3809
-1730.13 498.442 3826
-1725.03 499.614 3835
-1715.86 499.614 3835
-1706.69 499.614 3835
-1697.52 499.614 3835
-1688.35 499.614 3835
-1663.85 495.055 3800
-1639.96 490.625 3766
-1612.76 485.153 3724
-1586.2 479.812 3683
-1577.39 479.812 3683
-1554.53 475.513 3650
-1539.45 473.559 3635
-1520.65 470.432 3611
-1512.01 470.432 3611
-1484.23 464.439 3565
-1459.97 459.489 3527
-1433.43 453.757 3483
-1425.1 453.757 3483
-1404.98 449.979 3454
-1391.06 448.155 3440
-1374.39 445.419 3419
-1366.21 445.419 3419
-1358.04 445.419 3419
-1336.04 440.859 3384
-1314.61 436.43 3350
-1298.8 433.824 3330
-1290.83 433.824 3330
-1270.16 429.525 3297
-1247.34 424.444 3258
-1225.47 419.624 3221
-1217.77 419.624 3221
-1205.19 417.93 3208
-1186.32 414.022 3178
-1174.27 412.459 3166
-1166.69 412.459 3166
-1135.33 403.991 3101
-1123.55 402.427 3089
-1114.35 401.776 3084
-1106.98 401.776 3084
-1099.6 401.776 3084
-1092.23 401.776 3084
-1082.74 400.994 3078
-1071.54 399.561 3067
-1064.2 399.561 3067
-1051.01 397.346 3050
-1036.19 394.48 3028
-1021.47 391.614 3006
-1014.29 391.614 3006
-996.377 387.445 2974
-971.968 380.671 2922
-959.696 378.586 2906
-952.747 378.586 2906
-939.289 375.981 2886
-930.772 375.329 2881
-917.79 372.854 2862
-910.946 372.854 2862
-847.22 368.946 2832
-841.932 369.597 2837
-835.147 369.597 2837
-851.722 380.019 2917
-851.987 383.276 2942
-844.951 383.276 2942
-837.916 383.276 2942
-832.293 383.928 2947
-825.246 383.928 2947
-818.199 383.928 2947
-807.023 381.974 2932
-800.011 381.974 2932
-793 381.974 2932
-787.329 382.625 2937
-780.306 382.625 2937
-775.916 383.928 2947
-768.868 383.928 2947
-761.821 383.928 2947
-754.774 383.928 2947
-747.727 383.928 2947
-740.68 383.928 2947
-735.126 384.709 2953
-728.065 384.709 2953
-721.003 384.709 2953
-713.942 384.709 2953
-706.88 384.709 2953
-697.212 383.276 2942
-685.485 380.671 2922
-680.819 381.974 2932
-676.106 383.276 2942
-669.071 383.276 2942
-670.362 388.097 2979
-665.687 389.53 2990
-660.74 390.833 3000
-653.566 390.833 3000
-650.055 393.047 3017
-643.906 393.699 3022
-638.996 395.132 3033
-631.744 395.132 3033
-629.021 397.998 3055
-622.936 398.779 3061
-616.823 399.561 3067
-609.489 399.561 3067
-607.652 403.209 3095
-601.415 403.991 3101
-595.149 404.772 3107
-587.719 404.772 3107
-581.223 405.424 3112
-577.1 407.769 3130
-569.615 407.769 3130
-562.13 407.769 3130
-554.646 407.769 3130
-547.161 407.769 3130
-539.676 407.769 3130
-532.191 407.769 3130
-527.724 410.114 3148
-521.188 410.895 3154
-514.623 411.677 3160
-507.066 411.677 3160
-499.51 411.677 3160
-496.624 415.585 3190
-491.755 417.93 3208
-484.083 417.93 3208
-485.768 426.138 3271
-477.946 426.138 3271
-470.124 426.138 3271
-507.139 475.513 3650
-500.732 477.728 3667
-496.257 481.896 3699
-487.411 481.896 3699
-488.269 491.667 3774
-483.689 496.227 3809
-480.062 501.959 3853
-470.849 501.959 3853
-461.635 501.959 3853
-453.478 503.132 3862
-449.419 508.994 3907
-440.076 508.994 3907
-431.726 510.167 3916
-424.411 512.642 3935
-415.95 513.814 3944
-406.519 513.814 3944
-397.087 513.814 3944
-388.541 514.987 3953
-379.088 514.987 3953
-369.635 514.987 3953
-359.362 513.814 3944
-348.245 511.339 3925
-338.859 511.339 3925
-328.718 510.167 3916
-319.354 510.167 3916
-310.702 511.339 3925
-301.316 511.339 3925
-291.93 511.339 3925
-282.544 511.339 3925
-273.158 511.339 3925
-263.772 511.339 3925
-254.386 511.339 3925
-250.306 522.413 4010
-240.717 522.413 4010
-231.128 522.413 4010
-218.942 516.29 3963
-209.466 516.29 3963
-111.929 288.956 2218
-106.625 288.956 2218
-101.321 288.956 2218
-96.0175 288.956 2218
-90.3864 287.913 2210
-84.9861 287.522 2207
-79.7085 287.522 2207
-74.4309 287.522 2207
-69.1533 287.522 2207
-63.8757 287.522 2207
-58.598 287.522 2207
-53.1755 286.741 2201
-47.9775 287.132 2204
-42.7071 287.132 2204
-37.5386 287.913 2210
-32.2538 287.913 2210
-26.969 287.913 2210
-21.6548 287.522 2207
-16.3772 287.522 2207
-11.0845 287.132 2204
-5.82199 287.522 2207
-0.544382 287.522 2207
4.73966 287.913 2210
10.0244 287.913 2210
15.3092 287.913 2210
20.622 288.304 2213
25.9373 288.565 2215
31.2341 288.565 2215
36.5308 288.565 2215
41.8842 288.956 2218
47.2519 289.346 2221
52.634 289.737 2224
57.9523 289.737 2224
63.3559 290.128 2227
68.6813 290.128 2227
74.0067 290.128 2227
79.1184 289.346 2221
84.4295 289.346 2221
89.6194 288.956 2218
95.0517 289.346 2221
100.363 289.346 2221
105.674 289.346 2221
110.985 289.346 2221
116.296 289.346 2221
121.279 288.565 2215
126.575 288.565 2215
132.051 288.956 2218
137.355 288.956 2218
142.658 288.956 2218
147.762 288.565 2215
153.059 288.565 2215
158.356 288.565 2215
163.505 288.304 2213
168.797 288.304 2213
174.246 288.565 2215
179.543 288.565 2215
185.09 288.956 2218
190.394 288.956 2218
195.698 288.956 2218
201.001 288.956 2218
206.305 288.956 2218
211.323 288.565 2215
216.424 288.304 2213
222.217 288.956 2218
227.521 288.956 2218
232.825 288.956 2218
238.129 288.956 2218
243.104 288.565 2215
248.4 288.565 2215
253.468 288.304 2213
257.006 286.35 2198
261.188 285.177 2189
266.423 285.177 2189
270.292 283.744 2178
437.572 397.998 3055
444.878 397.998 3055
452.183 397.998 3055
457.834 396.565 3044
464.349 395.913 3039
471.616 395.913 3039
476.205 393.699 3022
482.631 393.047 3017
487.086 390.833 3000
494.26 390.833 3000
499.762 389.53 2990
505.047 388.097 2979
512.171 388.097 2979
519.295 388.097 2979
526.418 388.097 2979
533.542 388.097 2979
539.758 387.445 2974
546.87 387.445 2974
553.982 387.445 2974
561.094 387.445 2974
564.193 384.709 2953
570.094 383.928 2947
577.141 383.928 2947
584.188 383.928 2947
590.232 383.276 2942
597.268 383.276 2942
604.303 383.276 2942
610.299 382.625 2937
617.322 382.625 2937
624.345 382.625 2937
631.369 382.625 2937
637.305 381.974 2932
644.316 381.974 2932
650.217 381.322 2927
657.216 381.322 2927
664.216 381.322 2927
670.068 380.671 2922
678.214 381.322 2927
685.214 381.322 2927
692.213 381.322 2927
699.212 381.322 2927
706.212 381.322 2927
713.211 381.322 2927
720.21 381.322 2927
727.21 381.322 2927
734.209 381.322 2927
741.208 381.322 2927
748.208 381.322 2927
755.207 381.322 2927
762.207 381.322 2927
769.206 381.322 2927
776.205 381.322 2927
783.205 381.322 2927
791.554 381.974 2932
798.565 381.974 2932
805.576 381.974 2932
812.588 381.974 2932
819.599 381.974 2932
826.61 381.974 2932
833.622 381.974 2932
840.633 381.974 2932
844.753 380.671 2922
851.741 380.671 2922
857.259 380.019 2917
864.234 380.019 2917
871.209 380.019 2917
874.873 378.586 2906
881.822 378.586 2906
888.771 378.586 2906
892.638 377.284 2896
899.563 377.284 2896
911.184 379.238 2911
953.155 393.699 3022
960.381 393.699 3022
974.652 396.565 3044
990.964 400.212 3072
1003.83 402.427 3089
1011.22 402.427 3089
1045.98 413.24 3172
1080.13 423.662 3252
1125.04 438.123 3363
1133.09 438.123 3363
1157.75 444.507 3412
1205.21 459.489 3527
1218.81 461.443 3542
1227.28 461.443 3542
1246.21 465.351 3572
1254.75 465.351 3572
1263.3 465.351 3572
1271.84 465.351 3572
1277.87 464.439 3565
1280.62 462.355 3549
1294.92 464.439 3565
1303.44 464.439 3565
1314.55 465.351 3572
1340.5 471.474 3619
1352.13 472.517 3627
1360.81 472.517 3627
1369.48 472.517 3627
1378.15 472.517 3627
1386.83 472.517 3627
1392.42 471.474 3619
1401.08 471.474 3619
1400.38 468.348 3595
1408.98 468.348 3595
1414.81 467.436 3588
1411.1 463.397 3557
1407.63 459.489 3527
1389.56 450.89 3461
1397.84 450.89 3461
1391.9 446.331 3426
1369.03 436.43 3350
1360.6 431.219 3310
1368.52 431.219 3310
1373.52 430.307 3303
1375.98 428.613 3290
1381.32 427.831 3284
1383.68 426.138 3271
1397.03 427.831 3284
1404.88 427.831 3284
1418.33 429.525 3297
1428.81 430.307 3303
1442.8 432.13 3317
1450.73 432.13 3317
1464.38 433.824 3330
1475.44 434.736 3337
1483.42 434.736 3337
1491.4 434.736 3337
1499.38 434.736 3337
1507.35 434.736 3337
1515.33 434.736 3337
1523.31 434.736 3337
1522.12 432.13 3317
1523.59 430.307 3303
1531.49 430.307 3303
1530.53 427.831 3284
1523.4 423.662 3252
1516.58 419.624 3221
1506.77 414.804 3184
1514.38 414.804 3184
1496.18 407.769 3130
1467.64 397.998 3055
1440.66 388.748 2984
1447.8 388.748 2984
1427.14 381.322 2927
1421.4 377.935 2901
1416.03 374.678 2876
1417.96 373.375 2866
1424.82 373.375 2866
1429.67 372.854 2862
1436.52 372.854 2862
1440.84 372.203 2857
1447.67 372.203 2857
1451.96 371.551 2852
1458.78 371.551 2852
1465.6 371.551 2852
1472.42 371.551 2852
1476.64 370.9 2847
1483.45 370.9 2847
1490.26 370.9 2847
1494.44 370.249 2842
1501.23 370.249 2842
1505.38 369.597 2837
1512.16 369.597 2837
1516.27 368.946 2832
1523.04 368.946 2832
1524.95 367.773 2823
1531.7 367.773 2823
1535.73 367.122 2818
1542.47 367.122 2818
1546.46 366.471 2813
1553.18 366.471 2813
1552.15 364.647 2799
1558.84 364.647 2799
1565.53 364.647 2799
1572.23 364.647 2799
1578.92 364.647 2799
1585.61 364.647 2799
1592.3 364.647 2799
1599 364.647 2799
1605.69 364.647 2799
1615.26 365.298 2804
1621.97 365.298 2804
1628.68 365.298 2804
1638.3 365.95 2809
1645.01 365.95 2809
1651.73 365.95 2809
1658.45 365.95 2809
1665.17 365.95 2809
1674.26 366.471 2813
1680.99 366.471 2813
1687.72 366.471 2813
1694.44 366.471 2813
1701.17 366.471 2813
1707.9 366.471 2813
1714.62 366.471 2813
1721.35 366.471 2813
1725.62 365.95 2809
1729.25 365.298 2804
1735.96 365.298 2804
1739.56 364.647 2799
1749.37 365.298 2804
1756.07 365.298 2804
1762.78 365.298 2804
1769.48 365.298 2804
1769.86 363.995 2794
1770.81 362.823 2785
1777.47 362.823 2785
1780.93 362.171 2780
1787.58 362.171 2780
1791.64 361.65 2776
1798.28 361.65 2776
1804.92 361.65 2776
1808.3 360.999 2771
1814.92 360.999 2771
1818.92 360.478 2767
1828.18 360.999 2771
1834.8 360.999 2771
1841.43 360.999 2771
1848.05 360.999 2771
1854.68 360.999 2771
1855.26 359.826 2762
1861.87 359.826 2762
1865.09 359.175 2757
1871.68 359.175 2757
1878.27 359.175 2757
1882.13 358.654 2753
1891.46 359.175 2757
1898.05 359.175 2757
1904.65 359.175 2757
1911.24 359.175 2757
1921.31 359.826 2762
1927.91 359.826 2762
1934.52 359.826 2762
1941.12 359.826 2762
1944.2 359.175 2757
1957.87 360.478 2767
1964.49 360.478 2767
1971.1 360.478 2767
1977.72 360.478 2767
1984.34 360.478 2767
1990.95 360.478 2767
1997.57 360.478 2767
2000.57 359.826 2762
2000.63 358.654 2753
2003.57 358.003 2748
2010.14 358.003 2748
2016.71 358.003 2748
2029.91 359.175 2757
2036.5 359.175 2757
2046.8 359.826 2762
2053.41 359.826 2762
2060.01 359.826 2762
2066.61 359.826 2762
2073.22 359.826 2762
2079.82 359.826 2762
2062.26 355.658 2730
2068.78 355.658 2730
2075.31 355.658 2730
2081.84 355.658 2730
2088.37 355.658 2730
-2113.65 374.536 2823
-2110.63 375.199 2828
-2103.87 375.199 2828
-2097.11 375.199 2828
-2090.34 375.199 2828
-2090.21 376.393 2837
-2083.43 376.393 2837
-2076.64 376.393 2837
-2069.86 376.393 2837
-2063.07 376.393 2837
-2056.29 376.393 2837
-2049.51 376.393 2837
-2042.72 376.393 2837
-2029.48 375.199 2828
-2025.58 375.73 2832
-2018.81 375.73 2832
-2015.59 376.393 2837
-2012.34 377.057 2842
-2005.55 377.057 2842
-1998.75 377.057 2842
-1991.95 377.057 2842
-1985.16 377.057 2842
-1978.36 377.057 2842
-1971.57 377.057 2842
-1978.6 379.71 2862
-1981.4 381.568 2876
-1977.95 382.231 2881
-1971.06 382.231 2881
-1964.17 382.231 2881
-1953.89 381.568 2876
-1947.01 381.568 2876
-1936.76 380.904 2871
-1936.62 382.231 2881
-1939.77 384.221 2896
-1942.86 386.211 2911
-1935.9 386.211 2911
-1939.54 388.334 2927
-1939.14 389.661 2937
-1935.41 390.324 2942
-1928.37 390.324 2942
-1921.34 390.324 2942
-1917.56 390.987 2947
-1910.51 390.987 2947
-1903.46 390.987 2947
-1896.42 390.987 2947
-1882.96 389.661 2937
-1875.93 389.661 2937
-1865.73 388.997 2932
-1855.55 388.334 2927
-1848.55 388.334 2927
-1847.84 389.661 2937
-1840.82 389.661 2937
-1843.78 391.783 2953
-1839.83 392.447 2958
-1832.76 392.447 2958
-1825.69 392.447 2958
-1811.85 390.987 2947
-1831.14 396.692 2990
-1836.8 399.478 3011
-1829.6 399.478 3011
-1856.29 406.908 3067
-1859.2 409.164 3084
-1868.64 412.878 3112
-1861.2 412.878 3112
-1868.06 416.063 3136
-1967.94 440.076 3317
-1960.01 440.076 3317
-1975.62 445.383 3357
-1975.21 447.108 3370
-1975.32 448.965 3384
-1967.23 448.965 3384
-1967.24 450.823 3398
-1959.12 450.823 3398
-1950.99 450.823 3398
-1942.87 450.823 3398
-1934.74 450.823 3398
-1934.55 452.68 3412
-1938.25 455.466 3433
-1930.04 455.466 3433
-1925.75 456.395 3440
-1921.43 457.324 3447
-1937.05 463.029 3490
-1928.71 463.029 3490
-1928.61 465.019 3505
-1924.07 465.948 3512
-1923.85 467.938 3527
-1915.42 467.938 3527
-1915.09 469.928 3542
-1910.39 470.857 3549
-1906.19 471.918 3557
-1897.69 471.918 3557
-1889.18 471.918 3557
-1884.9 472.979 3565
-1888.48 476.031 3588
-1879.9 476.031 3588
-1879.15 478.021 3603
-1874.68 479.082 3611
-1882.07 483.195 3642
-1873.36 483.195 3642
-1868.75 484.257 3650
-1864.1 485.318 3658
-1863.97 487.573 3675
-1855.18 487.573 3675
-1854.43 489.696 3691
-1845.61 489.696 3691
-1836.78 489.696 3691
-1827.95 489.696 3691
-1819.13 489.696 3691
-1814.23 490.757 3699
-1809.28 491.819 3707
-1800.42 491.819 3707
-1799.77 494.074 3724
-1794.71 495.136 3732
-1797.75 498.453 3757
-1788.77 498.453 3757
-1792.1 501.902 3783
-1791.07 504.157 3800
-1786.2 505.352 3809
-1777.09 505.352 3809
-1767.98 505.352 3809
-1754.72 504.157 3800
-1745.63 504.157 3800
-1736.55 504.157 3800
-1727.46 504.157 3800
-1730.13 507.607 3826
-1720.98 507.607 3826
-1711.83 507.607 3826
-1702.68 507.607 3826
-1693.53 507.607 3826
-1684.38 507.607 3826
-1663.85 504.157 3800
-1639.96 499.647 3766
-1612.76 494.074 3724
-1589.64 489.696 3691
-1580.82 489.696 3691
-1557.94 485.318 3658
-1542.41 483.195 3642
-1520.65 479.082 3611
-1512.01 479.082 3611
-1487.14 473.908 3572
-1469.08 470.857 3549
-1445.37 465.948 3512
-1436.97 465.948 3512
-1407.82 459.181 3461
-1391.06 456.395 3440
-1380.02 455.466 3433
-1371.81 455.466 3433
-1358.04 453.609 3419
-1336.04 448.965 3384
-1314.61 444.455 3350
-1298.8 441.801 3330
-1290.83 441.801 3330
-1270.16 437.423 3297
-1247.34 432.249 3258
-1225.47 427.34 3221
-1217.77 427.34 3221
-1205.19 425.615 3208
-1190.79 423.227 3190
-1174.27 420.043 3166
-1166.69 420.043 3166
-1139.35 412.878 3112
-1125.73 410.623 3095
-1112.18 408.368 3078
-1104.82 408.368 3078
-1095.32 407.572 3072
-1087.98 407.572 3072
-1080.63 407.572 3072
-1069.44 406.112 3061
-1062.12 406.112 3061
-1051.01 404.653 3050
-1034.14 400.938 3022
-1017.74 397.356 2995
-1010.57 397.356 2995
-991.016 392.447 2958
-971.968 387.671 2922
-956.394 384.221 2896
-949.469 384.221 2896
-939.289 382.894 2886
-924.634 379.71 2862
-911.376 377.057 2842
-904.58 377.057 2842
-840.448 375.73 2832
-833.675 375.73 2832
-826.903 375.73 2832
-847.643 388.334 2927
-840.643 388.334 2927
-833.644 388.334 2927
-828.057 388.997 2932
-821.045 388.997 2932
-814.034 388.997 2932
-807.023 388.997 2932
-800.011 388.997 2932
-794.352 389.661 2937
-788.67 390.324 2942
-781.634 390.324 2942
-777.495 391.783 2953
-770.434 391.783 2953
-763.372 391.783 2953
-756.311 391.783 2953
-747.727 390.987 2947
-740.68 390.987 2947
-736.371 392.447 2958
-729.297 392.447 2958
-722.224 392.447 2958
-715.151 392.447 2958
-708.077 392.447 2958
-698.397 390.987 2947
-685.485 387.671 2922
-680.819 388.997 2932
-676.106 390.324 2942
-669.071 390.324 2942
-670.362 395.233 2979
-665.687 396.692 2990
-660.74 398.019 3000
-653.566 398.019 3000
-647.685 398.815 3006
-643.906 400.938 3022
-638.996 402.397 3033
-631.744 402.397 3033
-627.991 404.653 3050
-621.715 405.316 3055
-616.823 406.908 3067
-609.489 406.908 3067
-605.493 409.164 3084
-600.251 410.623 3095
-592.85 410.623 3095
-585.449 410.623 3095
-581.223 412.878 3112
-577.1 415.267 3130
-569.615 415.267 3130
-562.13 415.267 3130
-554.646 415.267 3130
-547.161 415.267 3130
-539.676 415.267 3130
-532.191 415.267 3130
-526.718 416.859 3142
-520.196 417.655 3148
-514.623 419.247 3160
-507.066 419.247 3160
-499.51 419.247 3160
-497.558 424.023 3196
-491.755 425.615 3208
-484.083 425.615 3208
-492.599 440.076 3317
-484.667 440.076 3317
-522.44 482.266 3635
-513.747 482.266 3635
-507.139 484.257 3650
-500.732 486.512 3667
-495.183 489.696 3691
-486.357 489.696 3691
-480.765 493.013 3716
-481.53 503.096 3792
-474.58 505.352 3809
-465.472 505.352 3809
-457.442 506.546 3818
-452.421 511.189 3853
-444.243 512.383 3862
-435.008 512.383 3862
-427.757 514.771 3880
-421.391 518.353 3907
-413.946 520.742 3925
-404.56 520.742 3925
-395.174 520.742 3925
-387.656 523.262 3944
-378.225 523.262 3944
-368.794 523.262 3944
-357.631 520.742 3925
-348.245 520.742 3925
-338.859 520.742 3925
-328.718 519.548 3916
-319.354 519.548 3916
-311.493 522.068 3935
-302.774 523.262 3944
-293.343 523.262 3944
-283.912 523.262 3944
-275.107 524.456 3953
-266.326 525.783 3963
-256.849 525.783 3963
-250.306 532.019 4010
-240.717 532.019 4010
-231.128 532.019 4010
-218.942 525.783 3963
-112.535 295.861 2230
-107.202 295.861 2230
-101.87 295.861 2230
-96.0175 294.269 2218
-90.5091 293.605 2213
-85.1016 293.207 2210
-79.9252 293.605 2213
-74.6332 293.605 2213
-69.3413 293.605 2213
-63.8757 292.809 2207
-58.598 292.809 2207
-53.3204 292.809 2207
-48.1081 293.207 2210
-42.8234 293.207 2210
-37.5386 293.207 2210
-32.2538 293.207 2210
-26.969 293.207 2210
-21.6842 293.207 2210
-16.3995 293.207 2210
-11.1147 293.207 2210
-5.84309 293.871 2215
-0.546355 293.871 2215
4.75038 293.871 2215
10.0471 293.871 2215
15.3439 293.871 2215
20.6406 293.871 2215
25.9725 294.269 2218
31.2764 294.269 2218
36.6298 294.667 2221
41.9975 295.065 2224
47.4434 295.861 2230
52.776 295.861 2230
58.1086 295.861 2230
63.6119 296.657 2236
68.9589 296.657 2236
74.3058 296.657 2236
79.439 295.861 2230
84.7716 295.861 2230
89.983 295.463 2227
95.3085 295.463 2227
100.634 295.463 2227
105.959 295.463 2227
110.985 294.667 2221
116.296 294.667 2221
121.607 294.667 2221
126.747 294.269 2218
132.229 294.667 2221
137.54 294.667 2221
142.851 294.667 2221
147.962 294.269 2218
153.266 294.269 2218
158.57 294.269 2218
163.652 293.871 2215
169.178 294.269 2218
174.482 294.269 2218
180.029 294.667 2221
185.34 294.667 2221
191.166 295.463 2227
196.492 295.463 2227
201.817 295.463 2227
207.143 295.463 2227
212.468 295.463 2227
217.207 294.667 2221
222.818 295.065 2224
228.444 295.463 2227
233.77 295.463 2227
239.095 295.463 2227
244.421 295.463 2227
249.746 295.463 2227
254.041 294.269 2218
258.994 293.871 2215
262.978 292.411 2204
268.248 292.411 2204
270.292 288.962 2178
456.18 402.397 3033
463.432 402.397 3033
470.685 402.397 3033
476.205 400.938 3022
481.672 399.478 3011
487.086 398.019 3000
494.26 398.019 3000
499.762 396.692 2990
503.182 393.773 2968
512.171 395.233 2979
519.295 395.233 2979
526.418 395.233 2979
533.542 395.233 2979
539.758 394.57 2974
546.87 394.57 2974
553.982 394.57 2974
561.094 394.57 2974
564.193 391.783 2953
570.094 390.987 2947
577.141 390.987 2947
584.188 390.987 2947
590.232 390.324 2942
597.268 390.324 2942
604.303 390.324 2942
611.338 390.324 2942
618.373 390.324 2942
625.408 390.324 2942
632.444 390.324 2942
637.305 388.997 2932
644.316 388.997 2932
651.328 388.997 2932
657.216 388.334 2927
664.216 388.334 2927
671.215 388.334 2927
678.214 388.334 2927
685.214 388.334 2927
692.213 388.334 2927
699.212 388.334 2927
706.212 388.334 2927
714.429 388.997 2932
721.441 388.997 2932
728.452 388.997 2932
734.209 388.334 2927
741.208 388.334 2927
749.486 388.997 2932
756.497 388.997 2932
763.509 388.997 2932
770.52 388.997 2932
777.531 388.997 2932
784.542 388.997 2932
791.554 388.997 2932
798.565 388.997 2932
805.576 388.997 2932
812.588 388.997 2932
819.599 388.997 2932
826.61 388.997 2932
833.622 388.997 2932
840.633 388.997 2932
844.753 387.671 2922
851.741 387.671 2922
858.728 387.671 2922
865.715 387.671 2922
869.417 386.211 2911
876.378 386.211 2911
880.305 384.884 2901
887.242 384.884 2901
892.638 384.221 2896
899.563 384.221 2896
909.619 385.548 2906
946.216 398.019 3000
953.39 398.019 3000
974.652 403.857 3044
992.899 408.368 3078
1002.21 409.164 3084
1009.58 409.164 3084
1045.98 420.839 3172
1071.83 428.136 3227
1125.04 446.179 3363
1133.09 446.179 3363
1153 450.823 3398
1165.91 452.68 3412
1213.64 467.938 3527
1222.08 467.938 3527
1235.75 469.928 3542
1249.48 471.918 3557
1257.99 471.918 3557
1266.5 471.918 3557
1266.76 468.866 3534
1275.21 468.866 3534
1283.66 468.866 3534
1292.11 468.866 3534
1311.97 472.979 3565
1337.53 479.082 3611
1346.17 479.082 3611
1354.8 479.082 3611
1366.46 480.144 3619
1375.11 480.144 3619
1383.77 480.144 3619
1389.34 479.082 3611
1397.98 479.082 3611
1400.38 476.959 3595
1408.98 476.959 3595
1405.74 472.979 3565
1411.1 471.918 3557
1404.84 467.009 3520
1386.75 458.253 3454
1395.01 458.253 3454
1380.52 450.823 3398
1363.72 442.73 3337
1360.6 439.148 3310
1368.52 439.148 3310
1371.02 437.423 3297
1373.47 435.698 3284
1378.8 434.902 3278
1383.68 433.973 3271
1394.48 434.902 3278
1402.32 434.902 3278
1415.32 436.494 3290
1426.21 437.423 3297
1439.75 439.148 3310
1447.67 439.148 3310
1461.3 440.872 3323
1472.34 441.801 3330
1480.3 441.801 3330
1488.27 441.801 3330
1499.38 442.73 3337
1507.35 442.73 3337
1515.33 442.73 3337
1523.31 442.73 3337
1522.12 440.076 3317
1523.59 438.219 3303
1531.49 438.219 3303
1530.53 435.698 3284
1523.4 431.453 3252
1516.58 427.34 3221
1506.77 422.431 3184
1514.38 422.431 3184
1496.18 415.267 3130
1467.64 405.316 3055
1440.66 395.896 2984
1447.8 395.896 2984
1427.14 388.334 2927
1421.4 384.884 2901
1416.03 381.568 2876
1417.96 380.241 2866
1424.82 380.241 2866
1429.67 379.71 2862
1436.52 379.71 2862
1440.84 379.047 2857
1447.67 379.047 2857
1451.96 378.383 2852
1458.78 378.383 2852
1465.6 378.383 2852
1472.42 378.383 2852
1476.64 377.72 2847
1483.45 377.72 2847
1490.26 377.72 2847
1494.44 377.057 2842
1501.23 377.057 2842
1505.38 376.393 2837
1512.16 376.393 2837
1516.27 375.73 2832
1523.04 375.73 2832
1524.95 374.536 2823
1531.7 374.536 2823
1535.73 373.873 2818
1542.47 373.873 2818
1546.46 373.209 2813
1553.18 373.209 2813
1552.15 371.352 2799
1558.84 371.352 2799
1565.53 371.352 2799
1572.23 371.352 2799
1578.92 371.352 2799
1585.61 371.352 2799
1592.3 371.352 2799
1599 371.352 2799
1605.69 371.352 2799
1612.38 371.352 2799
1621.97 372.015 2804
1628.68 372.015 2804
1635.38 372.015 2804
1642.09 372.015 2804
1651.73 372.678 2809
1658.45 372.678 2809
1665.17 372.678 2809
1671.88 372.678 2809
1678.6 372.678 2809
1685.32 372.678 2809
1692.03 372.678 2809
1701.17 373.209 2813
1707.9 373.209 2813
1714.62 373.209 2813
1721.35 373.209 2813
1725.62 372.678 2809
1729.25 372.015 2804
1735.96 372.015 2804
1739.56 371.352 2799
1749.37 372.015 2804
1756.07 372.015 2804
1762.78 372.015 2804
1769.48 372.015 2804
1769.86 370.688 2794
1770.81 369.494 2785
1777.47 369.494 2785
1780.93 368.831 2780
1787.58 368.831 2780
1791.64 368.3 2776
1798.28 368.3 2776
1804.92 368.3 2776
1808.3 367.637 2771
1812.3 367.106 2767
1818.92 367.106 2767
1828.18 367.637 2771
1834.8 367.637 2771
1841.43 367.637 2771
1848.05 367.637 2771
1854.68 367.637 2771
1855.26 366.443 2762
1861.87 366.443 2762
1865.09 365.78 2757
1871.68 365.78 2757
1878.27 365.78 2757
1882.13 365.249 2753
1891.46 365.78 2757
1898.05 365.78 2757
1904.65 365.78 2757
1911.24 365.78 2757
1917.83 365.78 2757
1924.42 365.78 2757
1931.02 365.78 2757
1937.61 365.78 2757
1944.2 365.78 2757
1950.8 365.78 2757
1964.49 367.106 2767
1971.1 367.106 2767
1977.72 367.106 2767
1984.34 367.106 2767
1990.95 367.106 2767
1993.96 366.443 2762
1996.95 365.78 2757
1997 364.585 2748
1997.01 363.391 2739
2003.56 363.391 2739
2010.11 363.391 2739
2023.28 364.585 2748
2036.5 365.78 2757
2043.09 365.78 2757
2049.69 365.78 2757
2056.28 365.78 2757
2062.87 365.78 2757
2069.47 365.78 2757
2076.06 365.78 2757
2059.23 361.667 2726
2065.75 361.667 2726
2072.27 361.667 2726
2068.88 359.942 2713
2068.48 358.748 2704
-2113.65 381.298 2823
-2110.63 381.974 2828
-2103.87 381.974 2828
-2097.11 381.974 2828
-2090.34 381.974 2828
-2090.21 383.189 2837
-2083.43 383.189 2837
-2076.64 383.189 2837
-2069.86 383.189 2837
-2063.07 383.189 2837
-2056.29 383.189 2837
-2049.51 383.189 2837
-2042.72 383.189 2837
-2029.48 381.974 2828
-2025.58 382.514 2832
-2018.81 382.514 2832
-2015.59 383.189 2837
-2012.34 383.865 2842
-2005.55 383.865 2842
-1998.75 383.865 2842
-1991.95 383.865 2842
-1985.16 383.865 2842
-1978.36 383.865 2842
-1971.57 383.865 2842
-1978.6 386.566 2862
-1981.4 388.457 2876
-1977.95 389.132 2881
-1971.06 389.132 2881
-1964.17 389.132 2881
-1953.89 388.457 2876
-1947.01 388.457 2876
-1936.76 387.782 2871
-1936.62 389.132 2881
-1939.77 391.158 2896
-1942.86 393.184 2911
-1935.9 393.184 2911
-1939.54 395.346 2927
-1939.14 396.696 2937
-1935.41 397.372 2942
-1928.37 397.372 2942
-1921.34 397.372 2942
-1917.56 398.047 2947
-1910.51 398.047 2947
-1903.46 398.047 2947
-1896.42 398.047 2947
-1882.96 396.696 2937
-1875.93 396.696 2937
-1865.73 396.021 2932
-1855.55 395.346 2927
-1848.55 395.346 2927
-1847.84 396.696 2937
-1840.82 396.696 2937
-1843.78 398.857 2953
-1839.83 399.533 2958
-1832.76 399.533 2958
-1825.69 399.533 2958
-1811.85 398.047 2947
-1831.14 403.855 2990
-1836.8 406.691 3011
-1829.6 406.691 3011
-1856.29 414.255 3067
-1859.2 416.551 3084
-1868.64 420.333 3112
-1861.2 420.333 3112
-1868.06 423.575 3136
-1967.94 448.022 3317
-1960.01 448.022 3317
-1975.62 453.425 3357
-1975.21 455.181 3370
-1983.5 458.963 3398
-1975.37 458.963 3398
-1975.35 460.854 3412
-1967.19 460.854 3412
-1959.03 460.854 3412
-1950.87 460.854 3412
-1938.73 459.908 3405
-1942.49 462.745 3426
-1946.16 465.581 3447
-1937.91 465.581 3447
-1929.67 465.581 3447
-1929.23 467.472 3461
-1937.05 471.389 3490
-1928.71 471.389 3490
-1928.61 473.415 3505
-1924.07 474.361 3512
-1923.85 476.387 3527
-1915.42 476.387 3527
-1915.09 478.413 3542
-1910.39 479.358 3549
-1906.19 480.439 3557
-1897.69 480.439 3557
-1889.18 480.439 3557
-1884.9 481.519 3565
-1888.48 484.626 3588
-1879.9 484.626 3588
-1879.15 486.652 3603
-1874.68 487.732 3611
-1882.07 491.92 3642
-1873.36 491.92 3642
-1868.75 493 3650
-1864.1 494.081 3658
-1863.97 496.377 3675
-1855.18 496.377 3675
-1854.43 498.538 3691
-1845.61 498.538 3691
-1836.78 498.538 3691
-1827.95 498.538 3691
-1819.13 498.538 3691
-1814.23 499.618 3699
-1809.28 500.699 3707
-1800.42 500.699 3707
-1799.77 502.995 3724
-1794.71 504.076 3732
-1797.75 507.452 3757
-1788.77 507.452 3757
-1792.1 510.964 3783
-1791.07 513.26 3800
-1786.2 514.476 3809
-1777.09 514.476 3809
-1767.98 514.476 3809
-1754.72 513.26 3800
-1745.63 513.26 3800
-1736.55 513.26 3800
-1727.46 513.26 3800
-1730.13 516.772 3826
-1720.98 516.772 3826
-1711.83 516.772 3826
-1702.68 516.772 3826
-1693.53 516.772 3826
-1684.38 516.772 3826
-1663.85 513.26 3800
-1639.96 508.668 3766
-1612.76 502.995 3724
-1589.64 498.538 3691
-1580.82 498.538 3691
-1557.94 494.081 3658
-1542.41 491.92 3642
-1520.65 487.732 3611
-1512.01 487.732 3611
-1490.47 483.545 3580
-1469.08 479.358 3549
-1448.66 475.441 3520
-1440.24 475.441 3520
-1410.67 468.418 3468
-1393.89 465.581 3447
-1380.02 463.69 3433
-1371.81 463.69 3433
-1358.04 461.799 3419
-1336.04 457.072 3384
-1314.61 452.48 3350
-1298.8 449.778 3330
-1290.83 449.778 3330
-1270.16 445.321 3297
-1247.34 440.053 3258
-1225.47 435.056 3221
-1217.77 435.056 3221
-1205.19 433.3 3208
-1190.79 430.869 3190
-1174.27 427.627 3166
-1166.69 427.627 3166
-1139.35 420.333 3112
-1125.73 418.037 3095
-1112.18 415.741 3078
-1104.82 415.741 3078
-1095.32 414.931 3072
-1087.98 414.931 3072
-1080.63 414.931 3072
-1069.44 413.445 3061
-1062.12 413.445 3061
-1051.01 411.959 3050
-1034.14 408.177 3022
-1021.47 406.016 3006
-1014.29 406.016 3006
-991.016 399.533 2958
-971.968 394.67 2922
-956.394 391.158 2896
-949.469 391.158 2896
-939.289 389.808 2886
-927.541 387.782 2871
-911.376 383.865 2842
-904.58 383.865 2842
-840.448 382.514 2832
-833.675 382.514 2832
-826.903 382.514 2832
-847.643 395.346 2927
-840.643 395.346 2927
-833.644 395.346 2927
-828.057 396.021 2932
-821.045 396.021 2932
-814.034 396.021 2932
-807.023 396.021 2932
-800.011 396.021 2932
-798.68 398.857 2953
-791.618 398.857 2953
-784.557 398.857 2953
-778.812 399.533 2958
-771.738 399.533 2958
-764.665 399.533 2958
-756.311 398.857 2953
-749.249 398.857 2953
-740.68 398.047 2947
-737.616 400.208 2963
-730.53 400.208 2963
-723.445 400.208 2963
-716.359 400.208 2963
-709.274 400.208 2963
-701.004 399.533 2958
-685.485 394.67 2922
-680.819 396.021 2932
-676.106 397.372 2942
-669.071 397.372 2942
-669.237 401.694 2974
-664.351 403.044 2984
-660.74 405.206 3000
-653.566 405.206 3000
-646.392 405.206 3000
-642.84 407.502 3017
-637.943 408.987 3028
-630.702 408.987 3028
-625.726 410.473 3039
-620.698 411.959 3050
-617.829 414.931 3072
-610.483 414.931 3072
-603.137 414.931 3072
-596.954 415.741 3078
-590.743 416.551 3084
-583.368 416.551 3084
-579.169 418.847 3101
-575.994 421.954 3124
-568.523 421.954 3124
-561.053 421.954 3124
-553.582 421.954 3124
-546.112 421.954 3124
-539.676 422.764 3130
-532.191 422.764 3130
-526.718 424.385 3142
-519.205 424.385 3142
-514.623 426.817 3160
-507.066 426.817 3160
-499.51 426.817 3160
-497.558 431.679 3196
-494.667 435.866 3227
-486.95 435.866 3227
-496.46 451.534 3343
-488.466 451.534 3343
-522.44 490.974 3635
-513.747 490.974 3635
-507.139 493 3650
-500.732 495.296 3667
-494.11 497.457 3683
-485.303 497.457 3683
-478.566 499.618 3699
-477.085 507.452 3757
-472.462 512.18 3792
-463.394 512.18 3792
-455.285 513.26 3800
-447.255 514.476 3809
-443.208 520.419 3853
-433.994 520.419 3853
-426.765 522.85 3871
-418.479 524.066 3880
-411.099 526.497 3898
-401.777 526.497 3898
-392.456 526.497 3898
-385.789 530.144 3925
-376.403 530.144 3925
-367.017 530.144 3925
-357.631 530.144 3925
-348.245 530.144 3925
-338.859 530.144 3925
-328.718 528.928 3916
-319.354 528.928 3916
-311.493 531.495 3935
-302.774 532.71 3944
-293.343 532.71 3944
-283.912 532.71 3944
-275.107 533.926 3953
-267.603 537.843 3982
-258.081 537.843 3982
-249.745 540.409 4001
-240.177 540.409 4001
-230.609 540.409 4001
-221.042 540.409 4001
-112.535 301.203 2230
-107.202 301.203 2230
-101.87 301.203 2230
-96.537 301.203 2230
-90.7136 299.582 2218
-85.2171 298.907 2213
-79.9974 299.177 2215
-74.7007 299.177 2215
-69.4039 299.177 2215
-64.1072 299.177 2215
-58.8105 299.177 2215
-53.4654 298.907 2213
-48.1081 298.501 2210
-42.9202 299.177 2215
-37.6745 299.582 2218
-32.3706 299.582 2218
-27.0666 299.582 2218
-21.7627 299.582 2218
-16.4588 299.582 2218
-11.1398 299.177 2215
-5.85101 299.582 2218
-0.547095 299.582 2218
4.75681 299.582 2218
10.0607 299.582 2218
15.3646 299.582 2218
20.7245 300.392 2224
26.0427 300.392 2224
31.361 300.392 2224
36.6792 300.392 2224
42.1674 301.608 2233
47.571 302.013 2236
53.06 302.824 2242
58.4213 302.824 2242
63.868 303.229 2245
69.2364 303.229 2245
74.6049 303.229 2245
79.7596 302.418 2239
85.1138 302.418 2239
90.2255 301.608 2233
95.5652 301.608 2233
100.905 301.608 2233
106.102 301.203 2230
111.285 300.798 2227
116.61 300.798 2227
121.771 300.392 2224
127.09 300.392 2224
132.586 300.798 2227
137.912 300.798 2227
143.237 300.798 2227
148.363 300.392 2224
153.474 299.987 2221
158.785 299.987 2221
164.096 299.987 2221
169.865 300.798 2227
175.19 300.798 2227
180.759 301.203 2230
186.091 301.203 2230
191.681 301.608 2233
197.021 301.608 2233
202.361 301.608 2233
207.701 301.608 2233
213.04 301.608 2233
218.087 301.203 2230
224.321 302.418 2239
229.675 302.418 2239
235.029 302.418 2239
241.35 303.634 2248
246.725 303.634 2248
252.101 303.634 2248
257.133 303.229 2245
261.098 301.608 2233
266.08 301.203 2230
271.413 301.203 2230
270.292 294.179 2178
461.752 408.177 3022
468.978 408.177 3022
476.205 408.177 3022
483.431 408.177 3022
488.872 406.691 3011
496.072 406.691 3011
500.598 404.53 2995
505.047 402.369 2979
512.171 402.369 2979
520.166 403.044 2984
527.302 403.044 2984
534.438 403.044 2984
540.666 402.369 2979
547.789 402.369 2979
554.913 402.369 2979
561.094 401.694 2974
566.104 400.208 2963
571.255 398.857 2953
578.316 398.857 2953
584.188 398.047 2947
591.235 398.047 2947
597.268 397.372 2942
604.303 397.372 2942
611.338 397.372 2942
618.373 397.372 2942
625.408 397.372 2942
632.444 397.372 2942
639.479 397.372 2942
644.316 396.021 2932
652.438 396.696 2937
659.462 396.696 2937
666.485 396.696 2937
671.215 395.346 2927
679.373 396.021 2932
686.384 396.021 2932
693.396 396.021 2932
700.407 396.021 2932
707.418 396.021 2932
714.429 396.021 2932
721.441 396.021 2932
728.452 396.021 2932
735.463 396.021 2932
742.475 396.021 2932
750.764 396.696 2937
757.787 396.696 2937
764.811 396.696 2937
771.834 396.696 2937
778.857 396.696 2937
785.88 396.696 2937
792.904 396.696 2937
799.927 396.696 2937
806.95 396.696 2937
813.973 396.696 2937
820.997 396.696 2937
828.02 396.696 2937
835.043 396.696 2937
842.066 396.696 2937
847.644 396.021 2932
853.198 395.346 2927
858.728 394.67 2922
865.715 394.67 2922
869.417 393.184 2911
876.378 393.184 2911
880.305 391.834 2901
887.242 391.834 2901
892.638 391.158 2896
899.563 391.158 2896
911.184 393.184 2911
943.062 403.855 2990
950.212 403.855 2990
969.529 408.987 3028
992.899 415.741 3078
1005.78 418.037 3095
1013.18 418.037 3095
1047.96 429.248 3178
1069.84 435.056 3221
1125.04 454.235 3363
1133.09 454.235 3363
1153 458.963 3398
1165.91 460.854 3412
1193.34 468.418 3468
1201.64 468.418 3468
1232.95 477.332 3534
1244.22 478.413 3542
1252.69 478.413 3542
1261.16 478.413 3542
1266.76 477.332 3534
1270.16 475.441 3520
1283.66 477.332 3534
1292.11 477.332 3534
1309.03 480.439 3557
1334.57 486.652 3603
1343.19 486.652 3603
1351.8 486.652 3603
1363.44 487.732 3611
1375.11 488.813 3619
1383.77 488.813 3619
1392.42 488.813 3619
1401.08 488.813 3619
1406.61 487.732 3611
1415.25 487.732 3611
1411.66 483.545 3580
1411.1 480.439 3557
1404.84 475.441 3520
1398.4 470.444 3483
1406.73 470.444 3483
1397.59 464.636 3440
1371.89 453.425 3357
1363.48 448.022 3317
1371.41 448.022 3317
1371.02 445.321 3297
1375.98 444.375 3290
1381.32 443.565 3284
1383.68 441.809 3271
1394.48 442.755 3278
1402.32 442.755 3278
1415.32 444.375 3290
1426.21 445.321 3297
1439.75 447.077 3310
1447.67 447.077 3310
1461.3 448.833 3323
1472.34 449.778 3330
1483.42 450.724 3337
1491.4 450.724 3337
1502.07 451.534 3343
1510.07 451.534 3343
1518.06 451.534 3343
1526.05 451.534 3343
1531.29 450.724 3337
1530.05 448.022 3317
1537.98 448.022 3317
1539.39 446.131 3303
1532.3 441.809 3271
1528.35 438.432 3246
1520.97 434.11 3214
1528.65 434.11 3214
1516.26 428.437 3172
1495.02 420.333 3112
1474.94 412.634 3055
1482.25 412.634 3055
1447.14 400.883 2968
1431.69 394.67 2922
1420.96 389.808 2886
1420.44 387.782 2871
1427.3 387.782 2871
1434.17 387.782 2871
1436.52 386.566 2862
1440.84 385.891 2857
1447.67 385.891 2857
1454.5 385.891 2857
1458.78 385.215 2852
1465.6 385.215 2852
1472.42 385.215 2852
1476.64 384.54 2847
1483.45 384.54 2847
1490.26 384.54 2847
1494.44 383.865 2842
1501.23 383.865 2842
1505.38 383.189 2837
1512.16 383.189 2837
1516.27 382.514 2832
1523.04 382.514 2832
1524.95 381.298 2823
1531.7 381.298 2823
1535.73 380.623 2818
1542.47 380.623 2818
1546.46 379.948 2813
1553.18 379.948 2813
1552.15 378.057 2799
1558.84 378.057 2799
1568.33 378.732 2804
1575.03 378.732 2804
1581.74 378.732 2804
1588.44 378.732 2804
1595.15 378.732 2804
1599 378.057 2799
1605.69 378.057 2799
1612.38 378.057 2799
1621.97 378.732 2804
1628.68 378.732 2804
1638.3 379.407 2809
1645.01 379.407 2809
1651.73 379.407 2809
1658.45 379.407 2809
1667.54 379.948 2813
1674.26 379.948 2813
1680.99 379.948 2813
1687.72 379.948 2813
1694.44 379.948 2813
1704.19 380.623 2818
1710.93 380.623 2818
1717.67 380.623 2818
1721.35 379.948 2813
1728.08 379.948 2813
1732.34 379.407 2809
1739.05 379.407 2809
1742.66 378.732 2804
1749.37 378.732 2804
1756.07 378.732 2804
1762.78 378.732 2804
1769.48 378.732 2804
1773.02 378.057 2799
1773.99 376.841 2790
1780.67 376.841 2790
1784.13 376.166 2785
1787.58 375.49 2780
1794.23 375.49 2780
1798.28 374.95 2776
1804.92 374.95 2776
1811.56 374.95 2776
1814.92 374.275 2771
1818.92 373.735 2767
1828.18 374.275 2771
1834.8 374.275 2771
1841.43 374.275 2771
1848.05 374.275 2771
1854.68 374.275 2771
1855.26 373.059 2762
1861.87 373.059 2762
1868.47 373.059 2762
1875.08 373.059 2762
1878.27 372.384 2757
1878.71 371.168 2748
1885.29 371.168 2748
1895.3 371.844 2753
1901.88 371.844 2753
1908.47 371.844 2753
1915.05 371.844 2753
1921.63 371.844 2753
1928.22 371.844 2753
1934.8 371.844 2753
1941.38 371.844 2753
1947.97 371.844 2753
1957.39 372.384 2757
1963.98 372.384 2757
1970.57 372.384 2757
1977.17 372.384 2757
1983.76 372.384 2757
1987.46 371.844 2753
1990.43 371.168 2748
1987.55 369.412 2735
1990.45 368.737 2730
2000.63 369.412 2735
2007.17 369.412 2735
2016.66 369.953 2739
2029.85 371.168 2748
2043.09 372.384 2757
2049.69 372.384 2757
2056.28 372.384 2757
2062.87 372.384 2757
2069.47 372.384 2757
2069.28 371.168 2748
2059.23 368.197 2726
2065.75 368.197 2726
2072.27 368.197 2726
2062.01 365.225 2704
2038.65 359.958 2665
-2113.65 388.061 2823
-2106.9 388.061 2823
-2100.15 388.061 2823
-2093.4 388.061 2823
-2090.34 388.748 2828
-2086.53 389.298 2832
-2079.75 389.298 2832
-2072.98 389.298 2832
-2066.21 389.298 2832
-2056.53 388.748 2828
-2049.77 388.748 2828
-2043 388.748 2828
-2036.24 388.748 2828
-2022.3 387.374 2818
-2015.56 387.374 2818
-2008.83 387.374 2818
-2012.03 389.298 2832
-2012.34 390.673 2842
-2005.55 390.673 2842
-1998.75 390.673 2842
-1991.95 390.673 2842
-1985.16 390.673 2842
-1978.36 390.673 2842
-1968.1 389.985 2837
-1975.14 392.735 2857
-1974.51 393.972 2866
-1974.52 395.347 2876
-1967.64 395.347 2876
-1960.76 395.347 2876
-1950.49 394.659 2871
-1943.63 394.659 2871
-1936.76 394.659 2871
-1933.26 395.347 2876
-1936.43 397.409 2891
-1942.86 400.158 2911
-1935.9 400.158 2911
-1928.94 400.158 2911
-1929.24 401.67 2922
-1925.54 402.357 2927
-1918.54 402.357 2927
-1911.54 402.357 2927
-1904.54 402.357 2927
-1900.79 403.045 2932
-1893.77 403.045 2932
-1886.76 403.045 2932
-1879.75 403.045 2932
-1872.74 403.045 2932
-1862.55 402.357 2927
-1852.38 401.67 2922
-1842.23 400.983 2917
-1844.7 403.045 2932
-1837.68 403.045 2932
-1833.79 403.732 2937
-1832.99 405.107 2947
-1825.94 405.107 2947
-1818.9 405.107 2947
-1799.55 402.357 2927
-1804.8 405.107 2947
-1820.33 410.193 2984
-1813.19 410.193 2984
-1822.4 413.904 3011
-1821.83 415.416 3022
-1831.41 419.265 3050
-1824.12 419.265 3050
-1853.76 427.788 3112
-1967.94 455.968 3317
-1960.01 455.968 3317
-1975.62 461.467 3357
-1975.21 463.254 3370
-1983.5 467.103 3398
-1975.37 467.103 3398
-1975.35 469.027 3412
-1967.19 469.027 3412
-1959.03 469.027 3412
-1950.87 469.027 3412
-1938.73 468.065 3405
-1942.49 470.952 3426
-1946.16 473.839 3447
-1937.91 473.839 3447
-1929.67 473.839 3447
-1929.23 475.763 3461
-1937.05 479.749 3490
-1928.71 479.749 3490
-1928.61 481.811 3505
-1924.07 482.774 3512
-1923.85 484.836 3527
-1915.42 484.836 3527
-1915.09 486.898 3542
-1910.39 487.86 3549
-1906.19 488.96 3557
-1897.69 488.96 3557
-1889.18 488.96 3557
-1884.9 490.059 3565
-1888.48 493.221 3588
-1879.9 493.221 3588
-1879.15 495.283 3603
-1874.68 496.383 3611
-1874.32 498.582 3627
-1865.64 498.582 3627
-1864.65 500.644 3642
-1860.02 501.744 3650
-1855.35 502.843 3658
-1846.6 502.843 3658
-1846.39 505.18 3675
-1837.61 505.18 3675
-1828.82 505.18 3675
-1820.03 505.18 3675
-1815.19 506.28 3683
-1806.38 506.28 3683
-1801.48 507.38 3691
-1792.65 507.38 3691
-1791.56 509.579 3707
-1790.87 511.916 3724
-1793.92 515.353 3749
-1784.96 515.353 3749
-1779.78 516.452 3757
-1783.05 520.026 3783
-1774.01 520.026 3783
-1764.96 520.026 3783
-1755.92 520.026 3783
-1746.87 520.026 3783
-1737.82 520.026 3783
-1728.78 520.026 3783
-1723.82 521.264 3792
-1726.51 524.838 3818
-1720.98 525.937 3826
-1711.83 525.937 3826
-1702.68 525.937 3826
-1693.53 525.937 3826
-1684.38 525.937 3826
-1660.35 521.264 3792
-1639.96 517.69 3766
-1612.76 511.916 3724
-1589.64 507.38 3691
-1580.82 507.38 3691
-1557.94 502.843 3658
-1542.41 500.644 3642
-1520.65 496.383 3611
-1512.01 496.383 3611
-1490.47 492.121 3580
-1469.08 487.86 3549
-1448.66 483.873 3520
-1440.24 483.873 3520
-1410.67 476.725 3468
-1393.89 473.839 3447
-1380.02 471.914 3433
-1371.81 471.914 3433
-1346.92 466.141 3391
-1327.75 462.292 3363
-1306.76 457.755 3330
-1293.73 455.968 3317
-1285.79 455.968 3317
-1270.16 453.219 3297
-1247.34 447.858 3258
-1225.47 442.772 3221
-1217.77 442.772 3221
-1205.19 440.985 3208
-1190.79 438.51 3190
-1174.27 435.211 3166
-1166.69 435.211 3166
-1139.35 427.788 3112
-1125.73 425.451 3095
-1112.18 423.114 3078
-1104.82 423.114 3078
-1095.32 422.289 3072
-1086.21 421.602 3067
-1078.87 421.602 3067
-1067.35 419.953 3055
-1060.04 419.953 3055
-1045.15 416.928 3033
-1034.14 415.416 3022
-1021.47 413.217 3006
-1014.29 413.217 3006
-987.331 405.107 2947
-963.319 398.096 2896
-956.394 398.096 2896
-949.469 398.096 2896
-939.289 396.721 2886
-927.541 394.659 2871
-914.583 392.047 2852
-907.763 392.047 2852
-847.643 402.357 2927
-840.643 402.357 2927
-841.049 405.931 2953
-833.988 405.931 2953
-826.926 405.931 2953
-819.865 405.931 2953
-812.803 405.931 2953
-805.741 405.931 2953
-801.385 407.306 2963
-794.299 407.306 2963
-787.214 407.306 2963
-781.445 407.993 2968
-774.347 407.993 2968
-767.25 407.993 2968
-758.872 407.306 2963
-749.249 405.931 2953
-740.68 405.107 2947
-737.616 407.306 2963
-730.53 407.306 2963
-723.445 407.306 2963
-716.359 407.306 2963
-709.274 407.306 2963
-701.004 406.619 2958
-686.658 402.357 2927
-681.98 403.732 2937
-677.255 405.107 2947
-670.208 405.107 2947
-671.487 410.193 2984
-667.914 412.392 3000
-662.061 413.217 3006
-654.873 413.217 3006
-648.762 413.904 3011
-646.249 416.928 3033
-638.996 416.928 3033
-631.744 416.928 3033
-629.021 419.953 3055
-625.175 422.289 3072
-619.035 423.114 3078
-611.675 423.114 3078
-604.315 423.114 3078
-598.118 423.939 3084
-590.743 423.939 3084
-583.368 423.939 3084
-579.169 426.276 3101
-575.994 429.438 3124
-569.615 430.262 3130
-562.13 430.262 3130
-554.646 430.262 3130
-547.161 430.262 3130
-540.711 431.087 3136
-533.211 431.087 3136
-526.718 431.912 3142
-520.196 432.737 3148
-514.623 434.386 3160
-507.066 434.386 3160
-506.149 440.16 3202
-502.384 443.596 3227
-494.667 443.596 3227
-486.95 443.596 3227
-496.46 459.542 3343
-488.466 459.542 3343
-522.44 499.682 3635
-513.747 499.682 3635
-507.139 501.744 3650
-500.732 504.081 3667
-494.11 506.28 3683
-485.303 506.28 3683
-478.566 508.479 3699
-477.085 516.452 3757
-472.462 521.264 3792
-463.394 521.264 3792
-455.285 522.363 3800
-447.255 523.601 3809
-443.208 529.649 3853
-433.994 529.649 3853
-426.765 532.123 3871
-418.479 533.36 3880
-411.099 535.835 3898
-401.777 535.835 3898
-392.456 535.835 3898
-385.789 539.546 3925
-376.403 539.546 3925
-367.017 539.546 3925
-357.631 539.546 3925
-348.245 539.546 3925
-338.859 539.546 3925
-328.718 538.309 3916
-319.354 538.309 3916
-311.493 540.921 3935
-302.774 542.158 3944
-293.343 542.158 3944
-283.912 542.158 3944
-275.107 543.395 3953
-267.603 547.382 3982
-258.081 547.382 3982
-249.745 549.994 4001
-240.177 549.994 4001
-230.609 549.994 4001
-221.042 549.994 4001
-112.535 306.545 2230
-107.779 308.194 2242
-102.418 308.194 2242
-97.0564 308.194 2242
-91.6951 308.194 2242
-86.2183 307.782 2239
-80.8642 307.782 2239
-75.5101 307.782 2239
-70.0619 307.37 2236
-64.3677 305.72 2224
-59.0494 305.72 2224
-53.5137 304.483 2215
-48.217 304.483 2215
-43.0365 305.308 2221
-37.7764 305.72 2224
-32.4581 305.72 2224
-27.1399 305.72 2224
-21.8216 305.72 2224
-16.5033 305.72 2224
-11.17 305.308 2221
-5.87475 306.132 2227
-0.549315 306.132 2227
4.77612 306.132 2227
10.1015 306.132 2227
15.427 306.132 2227
20.7245 305.72 2224
26.0778 306.132 2227
31.4033 306.132 2227
36.7782 306.545 2230
42.2807 307.782 2239
47.6987 308.194 2242
53.131 308.607 2245
58.4995 308.607 2245
63.868 308.607 2245
69.2364 308.607 2245
74.6049 308.607 2245
79.9734 308.607 2245
85.1138 307.782 2239
90.2255 306.957 2233
95.5652 306.957 2233
100.905 306.957 2233
106.245 306.957 2233
111.285 306.132 2227
116.61 306.132 2227
121.771 305.72 2224
127.261 306.132 2227
132.586 306.132 2227
137.912 306.132 2227
143.237 306.132 2227
148.563 306.132 2227
153.888 306.132 2227
159.214 306.132 2227
164.539 306.132 2227
170.093 306.545 2230
175.426 306.545 2230
181.002 306.957 2233
186.341 306.957 2233
191.939 307.37 2236
197.286 307.37 2236
202.633 307.37 2236
207.98 307.37 2236
213.04 306.957 2233
218.967 307.782 2239
224.622 308.194 2242
230.906 309.432 2251
236.289 309.432 2251
241.672 309.432 2251
247.055 309.432 2251
252.437 309.432 2251
257.477 309.019 2248
262.151 308.194 2242
266.438 306.957 2233
271.778 306.957 2233
270.292 299.397 2178
464.349 417.753 3039
471.616 417.753 3039
478.884 417.753 3039
486.151 417.753 3039
492.444 416.928 3033
499.697 416.928 3033
502.437 413.217 3006
507.76 411.705 2995
514.062 411.017 2990
521.212 411.017 2990
528.362 411.017 2990
535.512 411.017 2990
542.662 411.017 2990
549.812 411.017 2990
556.962 411.017 2990
562.98 410.193 2984
568.205 408.818 2974
573.189 407.306 2963
580.274 407.306 2963
587.36 407.306 2963
591.235 405.107 2947
598.283 405.107 2947
605.33 405.107 2947
612.377 405.107 2947
619.424 405.107 2947
626.471 405.107 2947
633.518 405.107 2947
639.479 404.419 2942
646.514 404.419 2942
652.438 403.732 2937
659.462 403.732 2937
666.485 403.732 2937
673.508 403.732 2937
679.373 403.045 2932
686.384 403.045 2932
694.578 403.732 2937
701.601 403.732 2937
708.625 403.732 2937
715.648 403.732 2937
722.671 403.732 2937
729.694 403.732 2937
736.718 403.732 2937
743.741 403.732 2937
750.764 403.732 2937
757.787 403.732 2937
764.811 403.732 2937
771.834 403.732 2937
778.857 403.732 2937
785.88 403.732 2937
792.904 403.732 2937
799.927 403.732 2937
806.95 403.732 2937
813.973 403.732 2937
820.997 403.732 2937
828.02 403.732 2937
835.043 403.732 2937
842.066 403.732 2937
849.09 403.732 2937
854.655 403.045 2932
860.197 402.357 2927
867.197 402.357 2927
871.209 400.983 2917
876.378 400.158 2911
880.305 398.783 2901
887.242 398.783 2901
894.179 398.783 2901
902.67 399.47 2906
920.887 404.419 2942
944.639 411.705 2995
951.801 411.705 2995
973.051 417.753 3039
994.834 423.939 3084
1007.73 426.276 3101
1015.15 426.276 3101
1047.96 436.861 3178
1069.84 442.772 3221
1125.04 462.292 3363
1133.09 462.292 3363
1153 467.103 3398
1165.91 469.027 3412
1208.48 482.774 3512
1216.88 482.774 3512
1232.95 485.798 3534
1244.22 486.898 3542
1252.69 486.898 3542
1261.16 486.898 3542
1266.76 485.798 3534
1270.16 483.873 3520
1283.66 485.798 3534
1292.11 485.798 3534
1309.03 488.96 3557
1334.57 495.283 3603
1343.19 495.283 3603
1351.8 495.283 3603
1363.44 496.383 3611
1375.11 497.482 3619
1383.77 497.482 3619
1392.42 497.482 3619
1401.08 497.482 3619
1406.61 496.383 3611
1415.25 496.383 3611
1414.81 493.221 3588
1411.1 488.96 3557
1404.84 483.873 3520
1398.4 478.787 3483
1406.73 478.787 3483
1397.59 472.876 3440
1371.89 461.467 3357
1363.48 455.968 3317
1371.41 455.968 3317
1373.52 454.044 3303
1378.91 453.219 3297
1383.85 452.257 3290
1389.18 451.432 3284
1397.03 451.432 3284
1404.88 451.432 3284
1415.32 452.257 3290
1426.21 453.219 3297
1439.75 455.006 3310
1447.67 455.006 3310
1461.3 456.793 3323
1472.34 457.755 3330
1483.42 458.717 3337
1491.4 458.717 3337
1502.07 459.542 3343
1510.07 459.542 3343
1518.06 459.542 3343
1526.05 459.542 3343
1531.29 458.717 3337
1530.05 455.968 3317
1537.98 455.968 3317
1539.39 454.044 3303
1532.3 449.645 3271
1531.17 447.033 3252
1524.28 442.772 3221
1531.98 442.772 3221
1516.26 436.036 3172
1506.55 431.087 3136
1480.74 421.602 3067
1488.07 421.602 3067
1450.06 408.818 2974
1441.49 404.419 2942
1425.88 398.096 2896
1427.86 396.721 2886
1434.76 396.721 2886
1434.17 394.659 2871
1438.52 393.972 2866
1443.36 393.422 2862
1450.2 393.422 2862
1454.5 392.735 2857
1458.78 392.047 2852
1465.6 392.047 2852
1472.42 392.047 2852
1479.24 392.047 2852
1483.45 391.36 2847
1487.64 390.673 2842
1494.44 390.673 2842
1501.23 390.673 2842
1505.38 389.985 2837
1509.5 389.298 2832
1516.27 389.298 2832
1523.04 389.298 2832
1524.95 388.061 2823
1531.7 388.061 2823
1535.73 387.374 2818
1542.47 387.374 2818
