753.917 156.681 2922
762.207 156.949 2927
769.206 156.949 2927
776.205 156.949 2927
781.867 156.681 2922
788.854 156.681 2922
795.841 156.681 2922
802.829 156.681 2922
809.816 156.681 2922
816.804 156.681 2922
823.791 156.681 2922
830.778 156.681 2922
837.766 156.681 2922
844.753 156.681 2922
850.283 156.413 2917
857.259 156.413 2917
864.234 156.413 2917
871.209 156.413 2917
878.185 156.413 2917
885.16 156.413 2917
892.136 156.413 2917
899.111 156.413 2917
901.117 155.555 2901
908.054 155.555 2901
916.568 155.823 2906
923.517 155.823 2906
932.067 156.091 2911
939.028 156.091 2911
945.989 156.091 2911
952.95 156.091 2911
958.263 155.823 2906
965.212 155.823 2906
972.161 155.823 2906
979.11 155.823 2906
1431.35 215.557 4020
1440.96 215.557 4020
1450.58 215.557 4020
1446.39 213.52 3982
1435.07 210.463 3925
1431.21 208.533 3889
1427.17 206.603 3853
1436.39 206.603 3853
1435.47 205.155 3826
1441.6 204.726 3818
1440.85 203.332 3792
1449.92 203.332 3792
1455.52 202.849 3783
1454.5 201.455 3757
1444.01 198.774 3707
1452.87 198.774 3707
1461.74 198.774 3707
1467.43 198.345 3699
1463.5 196.629 3667
1472.27 196.629 3667
1455.19 193.197 3603
1448.37 191.16 3565
1435.24 188.318 3512
1434.59 187.138 3490
1442.94 187.138 3490
1418.85 182.956 3412
1409.44 180.704 3370
1400.67 178.559 3330
1408.64 178.559 3330
1397.03 176.092 3284
1399.32 175.395 3271
1423.92 177.486 3310
1443.52 178.934 3337
1451.5 178.934 3337
1459.48 178.934 3337
1515.83 184.832 3447
1536.89 186.387 3476
1545.21 186.387 3476
1553.52 186.387 3476
1652.35 196.146 3658
1725.58 203.761 3800
1734.67 203.761 3800
1755.69 205.155 3826
1764.84 205.155 3826
1773.99 205.155 3826
1771.02 203.761 3800
1767.93 202.366 3774
1768.95 201.455 3757
1777.93 201.455 3757
1783.11 201.026 3749
1780.12 199.685 3724
1417.72 156.681 2922
1442.26 158.612 2958
1449.33 158.612 2958
1456.41 158.612 2958
1463.48 158.612 2958
1470.55 158.612 2958
1477.63 158.612 2958
1479.18 158.022 2947
1478.66 157.217 2932
1485.67 157.217 2932
1481.99 156.091 2911
1488.95 156.091 2911
1495.91 156.091 2911
1502.88 156.091 2911
1502.06 155.287 2896
1508.98 155.287 2896
1515.91 155.287 2896
1522.83 155.287 2896
1529.76 155.287 2896
1534.03 155.019 2891
1540.94 155.019 2891
1547.86 155.019 2891
1554.77 155.019 2891
1561.68 155.019 2891
1565.88 154.751 2886
1570.06 154.483 2881
1576.95 154.483 2881
1581.09 154.215 2876
1585.21 153.947 2871
1592.07 153.947 2871
1598.94 153.947 2871
1603.01 153.678 2866
1607.61 153.464 2862
1614.46 153.464 2862
1621.3 153.464 2862
1628.14 153.464 2862
1629.28 152.928 2852
1633.23 152.66 2847
1640.04 152.66 2847
1646.84 152.66 2847
1653.65 152.66 2847
1657.54 152.392 2842
1661.41 152.123 2837
1668.2 152.123 2837
1674.98 152.123 2837
1678.8 151.855 2832
1685.57 151.855 2832
1692.34 151.855 2832
1699.12 151.855 2832
1705.89 151.855 2832
1712.66 151.855 2832
1717 151.641 2828
1723.77 151.641 2828
1724.41 151.105 2818
1731.15 151.105 2818
1734.8 150.837 2813
1741.53 150.837 2813
1748.26 150.837 2813
1752.49 150.622 2809
1759.21 150.622 2809
1765.92 150.622 2809
1766.33 150.086 2799
1773.02 150.086 2799
1776.54 149.818 2794
1783.22 149.818 2794
1787.34 149.603 2790
1794.01 149.603 2790
1797.45 149.335 2785
1800.87 149.067 2780
1807.52 149.067 2780
1814.17 149.067 2780
1818.2 148.853 2776
1824.84 148.853 2776
1831.47 148.853 2776
1834.8 148.584 2771
1841.43 148.584 2771
1845.39 148.37 2767
1852 148.37 2767
1858.62 148.37 2767
1861.87 148.102 2762
1868.47 148.102 2762
1875.08 148.102 2762
1881.68 148.102 2762
1884.87 147.834 2757
1891.46 147.834 2757
1898.05 147.834 2757
1904.65 147.834 2757
1911.24 147.834 2757
1915.05 147.619 2753
1918.14 147.351 2748
1924.71 147.351 2748
1931.28 147.351 2748
1935.04 147.137 2744
1938.06 146.869 2739
1944.61 146.869 2739
1948.31 146.654 2735
1948.42 146.171 2726
1951.35 145.903 2721
1957.86 145.903 2721
1961.48 145.689 2717
1965.08 145.474 2713
1971.56 145.474 2713
1980.97 145.689 2717
1987.46 145.689 2717
1993.96 145.689 2717
1997.51 145.474 2713
2004 145.474 2713
2010.49 145.474 2713
2013.26 145.206 2708
2016.75 144.992 2704
2019.48 144.724 2699
2025.93 144.724 2699
2029.37 144.509 2695
2035.82 144.509 2695
2049.08 144.992 2704
2058.59 145.206 2708
2065.06 145.206 2708
2071.54 145.206 2708
-2088.94 156.287 2790
-2088.99 156.791 2799
-2082.29 156.791 2799
-2075.6 156.791 2799
-2082.95 157.855 2818
-2076.21 157.855 2818
-2073.15 158.135 2823
-2066.39 158.135 2823
-2063.29 158.415 2828
-2056.53 158.415 2828
-2049.77 158.415 2828
-2039.39 158.135 2823
-2029.04 157.855 2818
-2012.26 157.071 2804
-2009.13 157.351 2809
-2002.41 157.351 2809
-2005.64 158.135 2823
-1998.89 158.135 2823
-1992.14 158.135 2823
-1985.39 158.135 2823
-1965.32 157.071 2804
-1962.11 157.351 2809
-1955.39 157.351 2809
-1948.67 157.351 2809
-1973.92 201.828 3603
-2022.03 207.654 3707
-2013.17 207.654 3707
-2004.31 207.654 3707
-1991.13 207.206 3699
-1982.29 207.206 3699
-1960.64 205.861 3675
-1951.85 205.861 3675
-1955.75 207.206 3699
-1955.85 208.158 3716
-1946.97 208.158 3716
-1955.29 210.007 3749
-1946.33 210.007 3749
-1937.36 210.007 3749
-1919.65 209.054 3732
-1897.93 207.654 3707
-1884.99 207.206 3699
-1876.14 207.206 3699
-1859.22 206.31 3683
-1871.01 208.606 3724
-1870.11 209.503 3740
-1861.17 209.503 3740
-1852.22 209.503 3740
-1447.76 187.264 3343
-1439.77 187.264 3343
-1431.77 187.264 3343
-1423.78 187.264 3343
-1413.24 186.928 3337
-1399.37 186.144 3323
-1391.42 186.144 3323
-1367.24 183.959 3284
-1359.39 183.959 3284
-1349.06 183.623 3278
-1333.04 182.503 3258
-1325.25 182.503 3258
-1309.78 181.438 3239
-1299.62 181.102 3233
-1287.09 180.43 3221
-1279.39 180.43 3221
-1271.69 180.43 3221
-1263.99 180.43 3221
-1256.28 180.43 3221
-1250.91 180.766 3227
-1243.19 180.766 3227
-1235.47 180.766 3227
-1106.4 169.283 3022
-1099.18 169.283 3022
-1094.12 169.619 3028
-1086.88 169.619 3028
-1079.64 169.619 3028
-1072.4 169.619 3028
-1065.15 169.619 3028
-1057.91 169.619 3028
-1050.67 169.619 3028
-1041.36 169.283 3022
-1032.43 169.002 3017
-1025.21 169.002 3017
-1018 169.002 3017
-1010.78 169.002 3017
-1003.57 169.002 3017
-996.354 169.002 3017
-989.139 169.002 3017
-979.972 168.666 3011
-972.772 168.666 3011
-960.44 167.77 2995
-953.278 167.77 2995
-944.537 167.49 2990
-935.506 167.154 2984
-926.815 166.874 2979
-919.691 166.874 2979
-909.198 166.258 2968
-902.1 166.258 2968
-895.003 166.258 2968
-887.906 166.258 2968
-880.808 166.258 2968
-870.767 165.697 2958
-860.482 165.081 2947
-853.435 165.081 2947
-843.515 164.521 2937
-836.492 164.521 2937
-828.057 164.241 2932
-818.245 163.681 2922
-811.258 163.681 2922
-804.27 163.681 2922
-798.647 163.961 2927
-791.648 163.961 2927
-784.648 163.961 2927
-777.649 163.961 2927
-771.966 164.241 2932
-764.955 164.241 2932
-759.236 164.521 2937
-752.213 164.521 2937
-745.19 164.521 2937
-738.166 164.521 2937
-731.143 164.521 2937
-724.12 164.521 2937
-715.876 164.241 2932
-708.865 164.241 2932
-703.05 164.521 2937
-696.027 164.521 2937
-689.004 164.521 2937
-680.819 164.241 2932
-673.808 164.241 2932
-666.797 164.241 2932
-658.66 163.961 2927
-650.548 163.681 2922
-643.56 163.681 2922
-634.177 163.065 2911
-626.138 162.785 2906
-620.254 163.065 2911
-613.293 163.065 2911
-606.332 163.065 2911
-602.666 163.961 2927
-596.684 164.241 2932
-594.901 165.697 2958
-587.828 165.697 2958
-580.755 165.697 2958
-491.4 220.93 3944
-481.969 220.93 3944
-472.538 220.93 3944
-465.337 221.994 3963
-455.861 221.994 3963
-446.384 221.994 3963
-437.9 222.498 3972
-435.628 226.252 4039
-425.969 226.252 4039
-416.311 226.252 4039
-406.652 226.252 4039
-399.942 227.932 4069
-391.171 228.492 4079
-381.417 228.492 4079
-371.663 228.492 4079
-361.909 228.492 4079
-352.155 228.492 4079
-342.401 228.492 4079
-141.32 126.822 2264
-136.446 127.326 2273
-131.011 127.326 2273
-125.576 127.326 2273
-119.823 126.99 2267
-113.897 126.43 2257
-108.5 126.43 2257
-102.966 126.262 2254
-97.3162 125.926 2248
-91.6951 125.59 2242
-86.2183 125.421 2239
-80.8642 125.421 2239
-75.3077 125.085 2233
-69.7799 124.749 2227
-64.1072 124.077 2215
-58.8105 124.077 2215
-53.1755 123.293 2201
-47.651 122.621 2189
-42.2033 122.004 2178
-36.995 122.004 2178
-31.6554 121.5 2169
-26.3711 121.052 2161
-21.125 120.604 2153
-15.9765 120.604 2153
-10.7727 119.988 2142
-5.62678 119.484 2133
-0.524156 119.036 2125
4.54664 118.755 2120
9.6162 118.755 2120
14.6442 118.419 2114
19.6808 118.307 2112
24.6024 117.691 2101
29.6265 117.691 2101
34.6507 117.691 2101
39.6181 117.523 2098
44.5925 117.411 2096
49.6047 117.411 2096
54.4866 117.131 2091
59.4868 117.131 2091
64.3945 116.963 2088
69.3875 116.963 2088
74.2737 116.795 2085
79.2596 116.795 2085
84.3667 116.963 2088
89.4881 117.131 2091
94.5787 117.243 2093
99.5837 117.243 2093
104.739 117.411 2096
109.855 117.523 2098
114.872 117.523 2098
119.889 117.523 2098
124.906 117.523 2098
130.109 117.691 2101
135.326 117.859 2104
140.357 117.859 2104
145.527 117.971 2106
150.778 118.139 2109
156.19 118.419 2114
161.245 118.419 2114
166.537 118.587 2117
171.599 118.587 2117
177.329 119.036 2125
182.411 119.036 2125
187.757 119.204 2128
193.117 119.372 2131
198.213 119.372 2131
203.309 119.372 2131
208.405 119.372 2131
213.501 119.372 2131
218.597 119.372 2131
223.378 119.204 2128
227.822 118.868 2122
232.348 118.587 2117
237.41 118.587 2117
241.9 118.307 2112
246.015 117.859 2104
250.33 117.523 2098
253.521 116.683 2083
258.503 116.683 2083
262.092 116.067 2072
265.114 115.226 2057
267.407 114.106 2037
272.278 114.106 2037
276.469 113.826 2032
280.636 113.546 2027
284.497 113.154 2020
289.328 113.154 2020
294.158 113.154 2020
300.025 113.546 2027
305.323 113.714 2030
310.483 113.826 2032
315.342 113.826 2032
320.201 113.826 2032
482.631 169.002 3017
489.846 169.002 3017
497.061 169.002 3017
504.275 169.002 3017
508.608 168.05 3000
514.922 167.77 2995
521.212 167.49 2990
528.362 167.49 2990
533.542 166.874 2979
540.666 166.874 2979
544.847 165.978 2963
551.933 165.978 2963
558.075 165.697 2958
563.047 165.081 2947
569.127 164.801 2942
576.162 164.801 2942
582.206 164.521 2937
588.226 164.241 2932
594.222 163.961 2927
601.222 163.961 2927
608.221 163.961 2927
614.169 163.681 2922
621.157 163.681 2922
628.144 163.681 2922
635.132 163.681 2922
642.119 163.681 2922
649.106 163.681 2922
654.971 163.401 2917
661.946 163.401 2917
668.922 163.401 2917
675.897 163.401 2917
682.873 163.401 2917
689.848 163.401 2917
696.824 163.401 2917
703.799 163.401 2917
710.774 163.401 2917
718.98 163.681 2922
725.968 163.681 2922
732.955 163.681 2922
739.942 163.681 2922
746.93 163.681 2922
753.917 163.681 2922
762.207 163.961 2927
769.206 163.961 2927
776.205 163.961 2927
781.867 163.681 2922
788.854 163.681 2922
795.841 163.681 2922
802.829 163.681 2922
809.816 163.681 2922
816.804 163.681 2922
823.791 163.681 2922
830.778 163.681 2922
837.766 163.681 2922
844.753 163.681 2922
850.283 163.401 2917
857.259 163.401 2917
864.234 163.401 2917
869.417 163.065 2911
876.378 163.065 2911
883.34 163.065 2911
890.301 163.065 2911
897.262 163.065 2911
901.117 162.505 2901
908.054 162.505 2901
916.568 162.785 2906
923.517 162.785 2906
932.067 163.065 2911
939.028 163.065 2911
945.989 163.065 2911
952.95 163.065 2911
958.263 162.785 2906
970.526 163.681 2922
977.514 163.681 2922
984.501 163.681 2922
1421.03 223.563 3991
1430.57 223.563 3991
1440.11 223.563 3991
1406.07 216.841 3871
1415.33 216.841 3871
1417.96 215.832 3853
1417.17 214.32 3826
1426.32 214.32 3826
1419.34 211.911 3783
1421.96 210.959 3766
1430.97 210.959 3766
1439.97 210.959 3766
1445.52 210.455 3757
1438.63 208.158 3716
1444.01 207.654 3707
1452.87 207.654 3707
1461.74 207.654 3707
1464.26 206.758 3691
1459.91 204.909 3658
1468.66 204.909 3658
1455.19 201.828 3603
1448.37 199.7 3565
1435.24 196.731 3512
1434.59 195.498 3490
1442.94 195.498 3490
1427.58 192.305 3433
1409.44 188.776 3370
1400.67 186.536 3330
1408.64 186.536 3330
1394.48 183.623 3278
1399.32 183.231 3271
1435.54 186.928 3337
1443.52 186.928 3337
1451.5 186.928 3337
1459.48 186.928 3337
1515.83 193.09 3447
1536.89 194.714 3476
1545.21 194.714 3476
1553.52 194.714 3476
1652.35 204.909 3658
1725.58 212.864 3800
1746.54 214.32 3826
1763.95 215.328 3844
1773.14 215.328 3844
1782.33 215.328 3844
1771.02 212.864 3800
1759.96 210.455 3757
1765.18 210.007 3749
1774.14 210.007 3749
1778.83 209.503 3740
1394.37 163.401 2917
1401.34 163.401 2917
1408.32 163.401 2917
1417.72 163.681 2922
1429.58 164.241 2932
1436.59 164.241 2932
1443.6 164.241 2932
1458.04 165.081 2947
1465.08 165.081 2947
1472.13 165.081 2947
1469.14 163.961 2927
1465.55 162.785 2906
1472.5 162.785 2906
1479.45 162.785 2906
1483.84 162.505 2901
1488.21 162.224 2896
1495.13 162.224 2896
1502.06 162.224 2896
1506.38 161.944 2891
1510.67 161.664 2886
1517.57 161.664 2886
1524.48 161.664 2886
1531.38 161.664 2886
1538.28 161.664 2886
1545.18 161.664 2886
1552.08 161.664 2886
1558.98 161.664 2886
1563.17 161.384 2881
1564.61 160.824 2871
1571.48 160.824 2871
1575.59 160.544 2866
1582.45 160.544 2866
1589.3 160.544 2866
1596.15 160.544 2866
1600.77 160.32 2862
1607.61 160.32 2862
1614.46 160.32 2862
1621.3 160.32 2862
1628.14 160.32 2862
1629.28 159.76 2852
1636.1 159.76 2852
1642.92 159.76 2852
1649.74 159.76 2852
1653.65 159.48 2847
1660.46 159.48 2847
1664.34 159.2 2842
1671.14 159.2 2842
1677.93 159.2 2842
1684.73 159.2 2842
1691.52 159.2 2842
1698.32 159.2 2842
1705.12 159.2 2842
1708.9 158.919 2837
1712.66 158.639 2832
1717 158.415 2828
1723.77 158.415 2828
1727.47 158.135 2823
1731.15 157.855 2818
1734.8 157.575 2813
1741.53 157.575 2813
1748.26 157.575 2813
1754.98 157.575 2813
1759.21 157.351 2809
1765.92 157.351 2809
1769.48 157.071 2804
1773.02 156.791 2799
1776.54 156.511 2794
1783.22 156.511 2794
1787.34 156.287 2790
1794.01 156.287 2790
1797.45 156.007 2785
1804.11 156.007 2785
1810.77 156.007 2785
1814.17 155.727 2780
1818.2 155.502 2776
1824.84 155.502 2776
1831.47 155.502 2776
1834.8 155.222 2771
1841.43 155.222 2771
1848.05 155.222 2771
1854.68 155.222 2771
1858.62 154.998 2767
1865.24 154.998 2767
1871.85 154.998 2767
1878.47 154.998 2767
1881.68 154.718 2762
1888.29 154.718 2762
1894.89 154.718 2762
1901.5 154.718 2762
1908.1 154.718 2762
1911.24 154.438 2757
1917.83 154.438 2757
1921.63 154.214 2753
1928.22 154.214 2753
1931.28 153.934 2748
1937.86 153.934 2748
1941.6 153.71 2744
1948.16 153.71 2744
1948.31 153.206 2735
1954.85 153.206 2735
1957.8 152.926 2730
1964.33 152.926 2730
1964.36 152.422 2721
1967.97 152.197 2717
1974.47 152.197 2717
1983.88 152.422 2721
1990.39 152.422 2721
1996.9 152.422 2721
2003.4 152.422 2721
2006.96 152.197 2717
2013.45 152.197 2717
2016.98 151.973 2713
2019.73 151.693 2708
2023.22 151.469 2704
2029.68 151.469 2704
2029.37 150.965 2695
2035.82 150.965 2695
2049.08 151.469 2704
2058.59 151.693 2708
2065.06 151.693 2708
2071.54 151.693 2708
-2088.94 162.97 2790
-2088.99 163.496 2799
-2082.29 163.496 2799
-2075.6 163.496 2799
-2082.95 164.606 2818
-2076.21 164.606 2818
-2073.15 164.898 2823
-2066.39 164.898 2823
-2063.29 165.19 2828
-2056.53 165.19 2828
-2049.77 165.19 2828
-2039.39 164.898 2823
-2029.04 164.606 2818
-2012.26 163.788 2804
-2009.13 164.08 2809
-2002.41 164.08 2809
-2005.64 164.898 2823
-1998.89 164.898 2823
-1992.14 164.898 2823
-1985.39 164.898 2823
-1965.32 163.788 2804
-1962.11 164.08 2809
-1955.39 164.08 2809
-1948.67 164.08 2809
-1973.92 210.459 3603
-2022.03 216.534 3707
-2013.17 216.534 3707
-2004.31 216.534 3707
-1986.83 215.6 3691
-1978 215.6 3691
-1960.64 214.665 3675
-1942.82 213.672 3658
-1947.29 215.132 3683
-1942.7 215.6 3691
-1933.87 215.6 3691
-1925.04 215.6 3691
-1924.52 216.534 3707
-1915.66 216.534 3707
-1906.79 216.534 3707
-1893.83 216.067 3699
-1876.84 215.132 3683
-1868.03 215.132 3683
-1859.22 215.132 3683
-1871.01 217.527 3724
-1862.11 217.527 3724
-1853.2 217.527 3724
-1517.92 204.735 3505
-1509.54 204.735 3505
-1501.16 204.735 3505
-1459.13 200.12 3426
-1445.01 199.303 3412
-1422.11 197.258 3377
-1414.03 197.258 3377
-1386.39 194.513 3330
-1375.53 194.104 3323
-1354 192.176 3290
-1346.13 192.176 3290
-1338.27 192.176 3290
-1317.46 190.307 3258
-1302.03 189.197 3239
-1291.89 188.847 3233
-1284.16 188.847 3233
-1274.06 188.496 3227
-1263.99 188.146 3221
-1256.28 188.146 3221
-1248.58 188.146 3221
-1240.88 188.146 3221
-1219.01 185.985 3184
-1106.4 176.522 3022
-1099.18 176.522 3022
-1094.12 176.872 3028
-1086.88 176.872 3028
-1083.56 177.515 3039
-1076.29 177.515 3039
-1069.02 177.515 3039
-1065.6 178.157 3050
-1058.31 178.157 3050
-1051.01 178.157 3050
-1043.72 178.157 3050
-1030.65 177.164 3033
-1023.4 177.164 3033
-1014.47 176.872 3028
-1010.89 177.515 3039
-1003.62 177.515 3039
-996.352 177.515 3039
-989.085 177.515 3039
-978.264 176.872 3028
-963.968 175.587 3006
-956.78 175.587 3006
-949.591 175.587 3006
-935.506 174.302 2984
-928.37 174.302 2984
-921.235 174.302 2984
-912.567 174.01 2979
-905.444 174.01 2979
-895.003 173.368 2968
-887.906 173.368 2968
-880.808 173.368 2968
-870.767 172.783 2958
-860.482 172.141 2947
-853.435 172.141 2947
-843.515 171.557 2937
-836.492 171.557 2937
-828.057 171.265 2932
-818.245 170.681 2922
-811.258 170.681 2922
-804.27 170.681 2922
-798.647 170.973 2927
-791.648 170.973 2927
-784.648 170.973 2927
-777.649 170.973 2927
-771.966 171.265 2932
-764.955 171.265 2932
-759.236 171.557 2937
-752.213 171.557 2937
-745.19 171.557 2937
-738.166 171.557 2937
-731.143 171.557 2937
-724.12 171.557 2937
-715.876 171.265 2932
-708.865 171.265 2932
-703.05 171.557 2937
-696.027 171.557 2937
-689.004 171.557 2937
-680.819 171.265 2932
-673.808 171.265 2932
-666.797 171.265 2932
-658.66 170.973 2927
-650.548 170.681 2922
-643.56 170.681 2922
-634.177 170.038 2911
-626.138 169.746 2906
-620.254 170.038 2911
-613.293 170.038 2911
-606.332 170.038 2911
-602.666 170.973 2927
-596.684 171.265 2932
-594.901 172.783 2958
-587.828 172.783 2958
-580.755 172.783 2958
-491.4 230.378 3944
-481.969 230.378 3944
-474.814 231.488 3963
-468.625 233.123 3991
-459.082 233.123 3991
-449.538 233.123 3991
-447.491 237.095 4059
-438.863 237.679 4069
-429.133 237.679 4069
-419.403 237.679 4069
-409.673 237.679 4069
-399.942 237.679 4069
-391.171 238.264 4079
-381.417 238.264 4079
-371.663 238.264 4079
-361.909 238.264 4079
-352.155 238.264 4079
-342.401 238.264 4079
-332.646 238.264 4079
-141.32 132.245 2264
-136.627 132.946 2276
-131.184 132.946 2276
-125.741 132.946 2276
-120.14 132.771 2273
-114.251 132.245 2264
-108.837 132.245 2264
-103.103 131.836 2257
-97.5759 131.661 2254
-91.8178 131.135 2245
-86.3338 130.96 2242
-80.9725 130.96 2242
-75.5101 130.785 2239
-69.9679 130.435 2233
-64.194 129.558 2218
-58.8901 129.558 2218
-53.248 128.741 2204
-47.7163 128.04 2192
-42.2614 127.397 2181
-37.046 127.397 2181
-31.6992 126.871 2172
-26.4077 126.404 2164
-21.125 125.762 2153
-15.9765 125.762 2153
-10.7727 125.119 2142
-5.63469 124.769 2136
-0.524896 124.301 2128
4.55093 123.951 2122
9.62527 123.951 2122
14.665 123.659 2117
19.6808 123.367 2112
24.6375 122.899 2104
29.6688 122.899 2104
34.6507 122.724 2101
39.6181 122.549 2098
44.5925 122.432 2096
49.6047 122.432 2096
54.5387 122.257 2093
59.4868 122.14 2091
64.487 122.14 2091
69.4872 122.14 2091
74.2737 121.79 2085
79.2596 121.79 2085
84.3667 121.965 2088
89.4881 122.14 2091
94.5787 122.257 2093
99.5837 122.257 2093
104.739 122.432 2096
109.855 122.549 2098
114.872 122.549 2098
119.889 122.549 2098
124.906 122.549 2098
130.109 122.724 2101
135.326 122.899 2104
140.357 122.899 2104
145.527 123.016 2106
150.778 123.191 2109
156.19 123.483 2114
161.245 123.483 2114
166.537 123.659 2117
171.842 123.834 2120
177.329 124.126 2125
182.411 124.126 2125
187.757 124.301 2128
193.117 124.476 2131
198.213 124.476 2131
203.309 124.476 2131
208.405 124.476 2131
213.501 124.476 2131
218.597 124.476 2131
223.693 124.476 2131
228.144 124.126 2125
232.677 123.834 2120
237.747 123.834 2120
242.129 123.483 2114
246.95 123.367 2112
251.046 122.899 2104
254.13 121.965 2088
259.123 121.965 2088
262.851 121.381 2078
265.114 120.154 2057
267.407 118.986 2037
272.278 118.986 2037
276.469 118.694 2032
280.636 118.402 2027
284.497 117.993 2020
289.328 117.993 2020
294.158 117.993 2020
300.025 118.402 2027
305.323 118.577 2030
311.247 118.986 2037
316.118 118.986 2037
320.989 118.986 2037
484.391 176.872 3028
491.632 176.872 3028
498.873 176.872 3028
505.111 176.522 3022
509.625 175.587 3006
514.922 174.945 2995
521.212 174.653 2990
528.362 174.653 2990
534.438 174.302 2984
540.666 174.01 2979
545.767 173.368 2968
552.864 173.368 2968
558.075 172.783 2958
564.193 172.491 2953
569.127 171.849 2942
576.162 171.849 2942
582.206 171.557 2937
588.226 171.265 2932
594.222 170.973 2927
601.222 170.973 2927
608.221 170.973 2927
615.22 170.973 2927
621.157 170.681 2922
628.144 170.681 2922
635.132 170.681 2922
642.119 170.681 2922
649.106 170.681 2922
656.094 170.681 2922
663.081 170.681 2922
668.922 170.389 2917
675.897 170.389 2917
682.873 170.389 2917
689.848 170.389 2917
696.824 170.389 2917
703.799 170.389 2917
711.993 170.681 2922
718.98 170.681 2922
725.968 170.681 2922
732.955 170.681 2922
739.942 170.681 2922
746.93 170.681 2922
753.917 170.681 2922
762.207 170.973 2927
769.206 170.973 2927
776.205 170.973 2927
781.867 170.681 2922
788.854 170.681 2922
795.841 170.681 2922
802.829 170.681 2922
809.816 170.681 2922
816.804 170.681 2922
823.791 170.681 2922
830.778 170.681 2922
837.766 170.681 2922
844.753 170.681 2922
851.741 170.681 2922
857.259 170.389 2917
864.234 170.389 2917
871.209 170.389 2917
878.185 170.389 2917
885.16 170.389 2917
892.136 170.389 2917
897.262 170.038 2911
902.67 169.746 2906
909.619 169.746 2906
918.145 170.038 2911
925.106 170.038 2911
932.067 170.038 2911
944.189 170.973 2927
951.189 170.973 2927
958.188 170.973 2927
963.539 170.681 2922
970.526 170.681 2922
977.514 170.681 2922
984.501 170.681 2922
1421.03 233.123 3991
1430.57 233.123 3991
1440.11 233.123 3991
1406.07 226.114 3871
1415.33 226.114 3871
1417.96 225.062 3853
1417.17 223.485 3826
1426.32 223.485 3826
1419.34 220.974 3783
1421.96 219.98 3766
1430.97 219.98 3766
1439.97 219.98 3766
1445.52 219.455 3757
1438.63 217.06 3716
1444.01 216.534 3707
1452.87 216.534 3707
1461.74 216.534 3707
1464.26 215.6 3691
1459.91 213.672 3658
1468.66 213.672 3658
1455.19 210.459 3603
1448.37 208.24 3565
1435.24 205.144 3512
1434.59 203.859 3490
1442.94 203.859 3490
1427.58 200.529 3433
1409.44 196.849 3370
1400.67 194.513 3330
1408.64 194.513 3330
1394.48 191.475 3278
1399.32 191.066 3271
1435.54 194.922 3337
1443.52 194.922 3337
1451.5 194.922 3337
1459.48 194.922 3337
1515.83 201.347 3447
1536.89 203.041 3476
1545.21 203.041 3476
1553.52 203.041 3476
1561.83 203.041 3476
1652.35 213.672 3658
1725.58 221.967 3800
1746.54 223.485 3826
1763.95 224.537 3844
1773.14 224.537 3844
1782.33 224.537 3844
1771.02 221.967 3800
1759.96 219.455 3757
1765.18 218.987 3749
1774.14 218.987 3749
1778.83 218.462 3740
1396.76 170.681 2922
1403.74 170.681 2922
1408.32 170.389 2917
1417.72 170.681 2922
1429.58 171.265 2932
1436.59 171.265 2932
1443.6 171.265 2932
1458.04 172.141 2947
1465.08 172.141 2947
1472.13 172.141 2947
1469.14 170.973 2927
1465.55 169.746 2906
1472.5 169.746 2906
1479.45 169.746 2906
1483.84 169.454 2901
1488.21 169.162 2896
1495.13 169.162 2896
1502.06 169.162 2896
1506.38 168.87 2891
1510.67 168.578 2886
1517.57 168.578 2886
1524.48 168.578 2886
1531.38 168.578 2886
1538.28 168.578 2886
1545.18 168.578 2886
1552.08 168.578 2886
1558.98 168.578 2886
1563.17 168.286 2881
1564.61 167.702 2871
1571.48 167.702 2871
1575.59 167.409 2866
1582.45 167.409 2866
1589.3 167.409 2866
1596.15 167.409 2866
1600.77 167.176 2862
1607.61 167.176 2862
1614.46 167.176 2862
1621.3 167.176 2862
1628.14 167.176 2862
1632.13 166.884 2857
1636.1 166.592 2852
1642.92 166.592 2852
1649.74 166.592 2852
1656.56 166.592 2852
1660.46 166.3 2847
1667.27 166.3 2847
1674.08 166.3 2847
1677.93 166.008 2842
1684.73 166.008 2842
1691.52 166.008 2842
1698.32 166.008 2842
1705.12 166.008 2842
1711.91 166.008 2842
1715.68 165.716 2837
1719.43 165.423 2832
1726.2 165.423 2832
1727.47 164.898 2823
1734.22 164.898 2823
1734.8 164.314 2813
1741.53 164.314 2813
1748.26 164.314 2813
1754.98 164.314 2813
1759.21 164.08 2809
1765.92 164.08 2809
1769.48 163.788 2804
1776.19 163.788 2804
1779.72 163.496 2799
1786.41 163.496 2799
1789.9 163.204 2794
1794.01 162.97 2790
1797.45 162.678 2785
1804.11 162.678 2785
1810.77 162.678 2785
1817.43 162.678 2785
1820.82 162.386 2780
1824.84 162.152 2776
1831.47 162.152 2776
1838.11 162.152 2776
1844.75 162.152 2776
1848.05 161.86 2771
1854.68 161.86 2771
1858.62 161.627 2767
1865.24 161.627 2767
1871.85 161.627 2767
1878.47 161.627 2767
1885.09 161.627 2767
1891.7 161.627 2767
1898.32 161.627 2767
1901.5 161.335 2762
1908.1 161.335 2762
1914.7 161.335 2762
1917.83 161.043 2757
1924.42 161.043 2757
1931.02 161.043 2757
1934.8 160.809 2753
1937.86 160.517 2748
1944.43 160.517 2748
1951 160.517 2748
1954.72 160.283 2744
1954.85 159.757 2735
1961.39 159.757 2735
1967.93 159.757 2735
1970.86 159.465 2730
1974.49 159.232 2726
1981.01 159.232 2726
1987.53 159.232 2726
1994.05 159.232 2726
1996.9 158.94 2721
2003.4 158.94 2721
2009.91 158.94 2721
2016.42 158.94 2721
2019.95 158.706 2717
2026.45 158.706 2717
2026.21 158.18 2708
2032.69 158.18 2708
2026.36 157.187 2691
2032.8 157.187 2691
2045.29 157.655 2699
2055.55 157.947 2704
2062.01 157.947 2704
2068.48 157.947 2704
-2088.94 169.654 2790
-2088.99 170.201 2799
-2082.29 170.201 2799
-2075.6 170.201 2799
-2082.95 171.356 2818
-2076.21 171.356 2818
-2073.15 171.66 2823
-2066.39 171.66 2823
-2063.29 171.964 2828
-2056.53 171.964 2828
-2049.77 171.964 2828
-2039.39 171.66 2823
-2029.04 171.356 2818
-2012.26 170.505 2804
-2009.13 170.809 2809
-2002.41 170.809 2809
-2002.09 171.356 2818
-1995.35 171.356 2818
-1988.61 171.356 2818
-1981.87 171.356 2818
-1958.31 169.897 2794
-1962.11 170.809 2809
-1961.65 171.356 2818
-1954.92 171.356 2818
-1948.18 171.356 2818
-1978.14 218.604 3595
-1973.92 219.09 3603
-1978.4 220.55 3627
-1969.72 220.55 3627
-1977.81 222.435 3658
-1969.06 222.435 3658
-1960.32 222.435 3658
-1951.57 222.435 3658
-1938.57 221.948 3650
-1934.07 222.435 3658
-1930.06 222.982 3667
-1921.3 222.982 3667
-1912.53 222.982 3667
-1903.76 222.982 3667
-1894.99 222.982 3667
-1886.22 222.982 3667
-1877.45 222.982 3667
-1868.68 222.982 3667
-1859.91 222.982 3667
-1846.6 222.435 3658
-1862.47 225.414 3707
-1853.61 225.414 3707
-1844.74 225.414 3707
-1517.92 213.131 3505
-1509.54 213.131 3505
-1501.16 213.131 3505
-1459.13 208.327 3426
-1445.01 207.476 3412
-1422.11 205.348 3377
-1414.03 205.348 3377
-1386.39 202.49 3330
-1375.53 202.064 3323
-1354 200.057 3290
-1346.13 200.057 3290
-1338.27 200.057 3290
-1317.46 198.112 3258
-1302.03 196.956 3239
-1291.89 196.591 3233
-1284.16 196.591 3233
-1274.06 196.227 3227
-1263.99 195.862 3221
-1253.55 195.436 3214
-1245.87 195.436 3214
-1238.18 195.436 3214
-1219.01 193.612 3184
-1094.12 184.126 3028
-1086.88 184.126 3028
-1083.56 184.795 3039
-1076.29 184.795 3039
-1069.02 184.795 3039
-1065.6 185.464 3050
-1058.31 185.464 3050
-1051.01 185.464 3050
-1043.72 185.464 3050
-1030.65 184.43 3033
-1023.4 184.43 3033
-1014.47 184.126 3028
-1010.89 184.795 3039
-1003.62 184.795 3039
-996.352 184.795 3039
-989.085 184.795 3039
-978.264 184.126 3028
-963.968 182.788 3006
-956.78 182.788 3006
-949.591 182.788 3006
-935.506 181.45 2984
-928.37 181.45 2984
-921.235 181.45 2984
-912.567 181.146 2979
-905.444 181.146 2979
-893.495 180.173 2963
-886.41 180.173 2963
-879.324 180.173 2963
-867.529 179.2 2947
-857.562 178.592 2937
-850.539 178.592 2937
-840.643 177.984 2927
-833.644 177.984 2927
-826.645 177.984 2927
-815.165 177.011 2911
-809.87 177.376 2917
-802.894 177.376 2917
-797.283 177.68 2922
-791.648 177.984 2927
-784.648 177.984 2927
-777.649 177.984 2927
-770.65 177.984 2927
-763.651 177.984 2927
-757.944 178.288 2932
-750.932 178.288 2932
-743.921 178.288 2932
-736.91 178.288 2932
-729.898 178.288 2932
-722.887 178.288 2932
-713.434 177.68 2922
-707.656 177.984 2927
-703.05 178.592 2937
-696.027 178.592 2937
-689.004 178.592 2937
-680.819 178.288 2932
-673.808 178.288 2932
-665.66 177.984 2927
-656.41 177.376 2917
-648.099 177.011 2911
-641.138 177.011 2911
-631.998 176.403 2901
-625.061 176.403 2901
-617.058 176.099 2896
-611.187 176.403 2901
-604.249 176.403 2901
-597.312 176.403 2901
-590.375 176.403 2901
-583.438 176.403 2901
-490.279 239.278 3935
-480.869 239.278 3935
-474.814 240.981 3963
-468.625 242.684 3991
-459.082 242.684 3991
-449.538 242.684 3991
-447.491 246.819 4059
-438.863 247.427 4069
-429.133 247.427 4069
-419.403 247.427 4069
-409.673 247.427 4069
-399.942 247.427 4069
-391.171 248.035 4079
-381.417 248.035 4079
-371.663 248.035 4079
-361.909 248.035 4079
-352.155 248.035 4079
-342.401 248.035 4079
-332.646 248.035 4079
-136.627 138.398 2276
-131.184 138.398 2276
-125.741 138.398 2276
-120.14 138.216 2273
-114.251 137.669 2264
-108.837 137.669 2264
-103.103 137.243 2257
-97.5759 137.061 2254
-91.8178 136.513 2245
-86.3338 136.331 2242
-80.9725 136.331 2242
-75.5101 136.149 2239
-69.9679 135.784 2233
-64.194 134.872 2218
-58.8901 134.872 2218
-53.248 134.02 2204
-47.7163 133.291 2192
-42.2614 132.622 2181
-37.046 132.622 2181
-31.6992 132.074 2172
-26.4077 131.588 2164
-21.125 130.919 2153
-15.9765 130.919 2153
-10.7727 130.25 2142
-5.63469 129.885 2136
-0.524896 129.399 2128
4.55093 129.034 2122
9.62527 129.034 2122
14.665 128.73 2117
19.6808 128.426 2112
24.6375 127.94 2104
29.6688 127.94 2104
34.6507 127.757 2101
39.6181 127.575 2098
44.5925 127.453 2096
49.6047 127.453 2096
54.5387 127.271 2093
59.4868 127.149 2091
64.487 127.149 2091
69.4872 127.149 2091
74.2737 126.784 2085
79.2596 126.784 2085
84.2454 126.784 2085
89.3597 126.967 2088
94.4883 127.149 2091
99.4885 127.149 2091
104.589 127.271 2093
109.751 127.453 2096
114.763 127.453 2096
119.775 127.453 2096
124.906 127.575 2098
130.109 127.757 2101
135.326 127.94 2104
140.357 127.94 2104
145.527 128.061 2106
150.778 128.244 2109
156.19 128.548 2114
161.245 128.548 2114
166.537 128.73 2117
171.842 128.912 2120
177.329 129.216 2125
182.411 129.216 2125
187.757 129.399 2128
193.117 129.581 2131
198.213 129.581 2131
203.309 129.581 2131
208.405 129.581 2131
213.501 129.581 2131
218.597 129.581 2131
223.693 129.581 2131
228.144 129.216 2125
232.677 128.912 2120
237.747 128.912 2120
242.129 128.548 2114
246.95 128.426 2112
251.046 127.94 2104
254.13 126.967 2088
259.123 126.967 2088
262.851 126.359 2078
265.114 125.082 2057
267.407 123.865 2037
272.278 123.865 2037
276.469 123.561 2032
280.636 123.257 2027
284.497 122.832 2020
289.328 122.832 2020
294.158 122.832 2020
300.025 123.257 2027
305.323 123.44 2030
311.247 123.865 2037
316.118 123.865 2037
320.989 123.865 2037
484.391 184.126 3028
491.632 184.126 3028
498.873 184.126 3028
505.111 183.761 3022
509.625 182.788 3006
514.922 182.119 2995
521.212 181.815 2990
528.362 181.815 2990
534.438 181.45 2984
540.666 181.146 2979
545.767 180.477 2968
552.864 180.477 2968
558.075 179.869 2958
564.193 179.565 2953
569.127 178.896 2942
576.162 178.896 2942
582.206 178.592 2937
588.226 178.288 2932
594.222 177.984 2927
601.222 177.984 2927
608.221 177.984 2927
615.22 177.984 2927
621.157 177.68 2922
628.144 177.68 2922
635.132 177.68 2922
642.119 177.68 2922
649.106 177.68 2922
656.094 177.68 2922
663.081 177.68 2922
668.922 177.376 2917
675.897 177.376 2917
682.873 177.376 2917
689.848 177.376 2917
696.824 177.376 2917
703.799 177.376 2917
711.993 177.68 2922
718.98 177.68 2922
725.968 177.68 2922
732.955 177.68 2922
739.942 177.68 2922
746.93 177.68 2922
753.917 177.68 2922
762.207 177.984 2927
769.206 177.984 2927
776.205 177.984 2927
781.867 177.68 2922
788.854 177.68 2922
795.841 177.68 2922
802.829 177.68 2922
809.816 177.68 2922
816.804 177.68 2922
823.791 177.68 2922
830.778 177.68 2922
837.766 177.68 2922
844.753 177.68 2922
851.741 177.68 2922
857.259 177.376 2917
864.234 177.376 2917
871.209 177.376 2917
878.185 177.376 2917
885.16 177.376 2917
892.136 177.376 2917
897.262 177.011 2911
902.67 176.707 2906
909.619 176.707 2906
918.145 177.011 2911
925.106 177.011 2911
932.067 177.011 2911
944.189 177.984 2927
951.189 177.984 2927
958.188 177.984 2927
963.539 177.68 2922
970.526 177.68 2922
977.514 177.68 2922
984.501 177.68 2922
1375.09 234.84 3862
1384.33 234.84 3862
1393.56 234.84 3862
1402.8 234.84 3862
1392.66 231.617 3809
1398.45 231.069 3800
1397.91 229.488 3774
1406.93 229.488 3774
1412.96 229.002 3766
1412.15 227.421 3740
1418.05 226.935 3732
1426.97 226.935 3732
1426.28 225.414 3707
1435.14 225.414 3707
1437.78 224.441 3691
1446.6 224.441 3691
1445.97 222.982 3667
1454.73 222.982 3667
1456.72 221.948 3650
1440.55 218.178 3588
1449.13 218.178 3588
1445.12 216.293 3557
1432.37 213.131 3505
1431.71 211.793 3483
1440.04 211.793 3483
1427.58 208.753 3433
1406.51 204.496 3363
1397.73 202.064 3323
1405.68 202.064 3323
1394.48 199.328 3278
1399.32 198.902 3271
1435.54 202.915 3337
1443.52 202.915 3337
1451.5 202.915 3337
1459.48 202.915 3337
1515.83 209.604 3447
1530.26 210.456 3461
1545.21 211.368 3476
1553.52 211.368 3476
1561.83 211.368 3476
1746.54 232.65 3826
1763.95 233.745 3844
1773.14 233.745 3844
1782.33 233.745 3844
1389.77 177.68 2922
1396.76 177.68 2922
1403.74 177.68 2922
1408.32 177.376 2917
1412.38 177.011 2911
1424.71 177.68 2922
1431.69 177.68 2922
1441.14 177.984 2927
1448.14 177.984 2927
1455.14 177.984 2927
1462.14 177.984 2927
1458.6 176.707 2906
1465.55 176.707 2906
1472.5 176.707 2906
1476.9 176.403 2901
1481.28 176.099 2896
1485.64 175.795 2891
1492.55 175.795 2891
1496.87 175.491 2886
1501.17 175.187 2881
1505.44 174.883 2876
1512.32 174.883 2876
1519.19 174.883 2876
1523.42 174.579 2871
1530.28 174.579 2871
1537.15 174.579 2871
1544.01 174.579 2871
1550.88 174.579 2871
1557.74 174.579 2871
1561.89 174.275 2866
1568.74 174.275 2866
1573.39 174.032 2862
1580.24 174.032 2862
1587.08 174.032 2862
1593.92 174.032 2862
1600.77 174.032 2862
1607.61 174.032 2862
1614.46 174.032 2862
1621.3 174.032 2862
1628.14 174.032 2862
1632.13 173.728 2857
1638.96 173.728 2857
1645.8 173.728 2857
1652.63 173.728 2857
1659.46 173.728 2857
1663.38 173.424 2852
1667.27 173.12 2847
1674.08 173.12 2847
1680.88 173.12 2847
1687.69 173.12 2847
1691.52 172.816 2842
1698.32 172.816 2842
1705.12 172.816 2842
1711.91 172.816 2842
1715.68 172.512 2837
1722.47 172.512 2837
1729.25 172.512 2837
1730.53 171.964 2828
1734.22 171.66 2823
1737.89 171.356 2818
1744.63 171.356 2818
1748.26 171.052 2813
1754.98 171.052 2813
1761.71 171.052 2813
1768.44 171.052 2813
1772.64 170.809 2809
1776.19 170.505 2804
1782.9 170.505 2804
1789.6 170.505 2804
1789.9 169.897 2794
1794.01 169.654 2790
1797.45 169.35 2785
1804.11 169.35 2785
1810.77 169.35 2785
1817.43 169.35 2785
1820.82 169.046 2780
1827.47 169.046 2780
1834.11 169.046 2780
1838.11 168.802 2776
1844.75 168.802 2776
1851.39 168.802 2776
1858.03 168.802 2776
1864.67 168.802 2776
1867.93 168.498 2771
1874.56 168.498 2771
1881.19 168.498 2771
1885.09 168.255 2767
1891.7 168.255 2767
1898.32 168.255 2767
1904.94 168.255 2767
1911.55 168.255 2767
1918.17 168.255 2767
1921.31 167.951 2762
1924.42 167.647 2757
1931.02 167.647 2757
1937.61 167.647 2757
1944.2 167.647 2757
1944.43 167.1 2748
1951 167.1 2748
1957.57 167.1 2748
1961.28 166.856 2744
1964.26 166.552 2739
1970.81 166.552 2739
1970.86 166.005 2730
1977.39 166.005 2730
1983.92 166.005 2730
1990.45 166.005 2730
1996.97 166.005 2730
2003.5 166.005 2730
2007.08 165.762 2726
2013.6 165.762 2726
2020.12 165.762 2726
2022.92 165.458 2721
2026.45 165.215 2717
2032.94 165.215 2717
2039.44 165.215 2717
2029.37 163.877 2695
2032.8 163.634 2691
2045.29 164.12 2699
2055.55 164.424 2704
2062.01 164.424 2704
2068.48 164.424 2704
-2085.2 176.021 2785
-2085.26 176.59 2794
-2082.29 176.906 2799
-2075.6 176.906 2799
-2079.26 177.791 2813
-2076.21 178.107 2818
-2069.47 178.107 2818
-2062.73 178.107 2818
-2059.64 178.423 2823
-2052.89 178.423 2823
-2046.14 178.423 2823
-2039.39 178.423 2823
-2025.44 177.791 2813
-2008.67 176.906 2799
-2011.99 177.791 2813
-2005.26 177.791 2813
-2002.09 178.107 2818
-1995.35 178.107 2818
-1988.61 178.107 2818
-1981.87 178.107 2818
-1961.81 176.906 2799
-1962.11 177.538 2809
-1965.14 178.423 2823
-1958.38 178.423 2823
-1951.63 178.423 2823
-1974.24 224.814 3557
-1965.73 224.814 3557
-1978.14 227.216 3595
-1973.92 227.721 3603
-1965.31 227.721 3603
-1956.69 227.721 3603
-1956.73 228.733 3619
-1948.07 228.733 3619
-1939.42 228.733 3619
-1930.76 228.733 3619
-1913.61 227.721 3603
-1917.68 229.238 3627
-1913.22 229.744 3635
-1904.53 229.744 3635
-1895.84 229.744 3635
-1890.78 230.186 3642
-1882.07 230.186 3642
-1873.36 230.186 3642
-1864.65 230.186 3642
-1855.94 230.186 3642
-1847.23 230.186 3642
-1830.95 229.238 3627
-1842.38 231.766 3667
-1841.61 232.778 3683
-1832.8 232.778 3683
-1823.99 232.778 3683
-1574.09 227.216 3595
-1565.49 227.216 3595
-1556.9 227.216 3595
-1528.49 224.308 3549
-1520 224.308 3549
-1502.14 222.918 3527
-1465.76 218.746 3461
-1436.85 215.65 3412
-1428.69 215.65 3412
-1408.87 213.88 3384
-1397.88 213.437 3377
-1373.34 210.909 3337
-1359.64 210.024 3323
-1351.69 210.024 3323
-1330.4 207.939 3290
-1314.89 206.738 3271
-1307.07 206.738 3271
-1299.25 206.738 3271
-1289.06 206.359 3265
-1273.8 205.158 3246
-1260.96 204.336 3233
-1253.23 204.336 3233
-1238.18 203.135 3214
-1219.01 201.239 3184
-1206.83 200.481 3172
-1199.25 200.481 3172
-1182.64 198.964 3148
-1091.95 191 3022
-1086.88 191.379 3028
-1083.56 192.075 3039
-1076.29 192.075 3039
-1072.89 192.77 3050
-1067.35 193.086 3055
-1062.12 193.465 3061
-1054.8 193.465 3061
-1047.48 193.465 3061
-1038.12 193.086 3055
-1030.82 193.086 3055
-1023.51 193.086 3055
-1016.21 193.086 3055
-1008.9 193.086 3055
-1001.6 193.086 3055
-989.085 192.075 3039
-981.818 192.075 3039
-971.023 191.379 3028
-963.782 191.379 3028
-953.066 190.684 3017
-940.522 189.61 3000
-928.37 188.599 2984
-921.235 188.599 2984
-912.567 188.283 2979
-905.444 188.283 2979
-896.812 187.966 2974
-889.701 187.966 2974
-879.324 187.271 2963
-869.295 186.639 2953
-853.182 184.68 2922
-846.195 184.68 2922
-839.207 184.68 2922
-832.22 184.68 2922
-823.82 184.364 2917
-813.765 183.669 2906
-808.204 183.985 2911
-801.243 183.985 2911
-795.919 184.364 2917
-790.296 184.68 2922
-783.308 184.68 2922
-776.321 184.68 2922
-770.65 184.996 2927
-763.651 184.996 2927
-756.651 184.996 2927
-749.652 184.996 2927
-742.652 184.996 2927
-735.653 184.996 2927
-728.654 184.996 2927
-720.422 184.68 2922
-713.434 184.68 2922
-706.447 184.68 2922
-701.853 185.312 2932
-694.842 185.312 2932
-687.831 185.312 2932
-678.497 184.68 2922
-671.51 184.68 2922
-664.523 184.68 2922
-655.06 183.985 2911
-645.872 183.353 2901
-638.935 183.353 2901
-631.998 183.353 2901
-622.906 182.721 2891
-615.993 182.721 2891
-609.08 182.721 2891
-602.167 182.721 2891
-594.224 182.405 2886
-499.624 253.445 4010
-490.035 253.445 4010
-481.643 254.077 4020
-473.205 254.709 4030
-466.904 256.542 4059
-457.197 256.542 4059
-448.593 257.174 4069
-438.863 257.174 4069
-431.242 258.438 4089
-421.464 258.438 4089
-411.686 258.438 4089
-399.942 257.174 4069
-391.171 257.806 4079
-381.417 257.806 4079
-371.663 257.806 4079
-361.909 257.806 4079
-352.155 257.806 4079
-342.401 257.806 4079
-332.646 257.806 4079
-316.718 252.876 4001
-307.15 252.876 4001
-297.583 252.876 4001
-136.627 143.851 2276
-131.184 143.851 2276
-125.741 143.851 2276
-120.14 143.661 2273
-114.553 143.471 2270
-109.125 143.471 2270
-103.286 142.903 2261
-97.7058 142.65 2257
-91.8178 141.891 2245
-86.3338 141.702 2242
-80.9725 141.702 2242
-75.6112 141.702 2242
-70.0619 141.322 2236
-64.3677 140.564 2224
-59.0494 140.564 2224
-53.3204 139.49 2207
-47.7163 138.542 2192
-42.2614 137.846 2181
-37.046 137.846 2181
-31.743 137.467 2175
-26.4077 136.772 2164
-21.1446 136.203 2155
-15.9913 136.203 2155
-10.7828 135.508 2144
-5.63469 135.002 2136
-0.524896 134.497 2128
4.55093 134.117 2122
9.62527 134.117 2122
14.665 133.801 2117
19.6808 133.485 2112
24.6375 132.98 2104
29.6688 132.98 2104
34.6507 132.79 2101
39.6181 132.6 2098
44.5925 132.474 2096
49.6047 132.474 2096
54.5387 132.284 2093
59.4868 132.158 2091
64.487 132.158 2091
69.4872 132.158 2091
74.2737 131.779 2085
79.2596 131.779 2085
84.2454 131.779 2085
89.3597 131.968 2088
94.4883 132.158 2091
99.4885 132.158 2091
104.589 132.284 2093
109.751 132.474 2096
114.763 132.474 2096
119.775 132.474 2096
124.906 132.6 2098
129.923 132.6 2098
135.455 133.106 2106
140.491 133.106 2106
145.527 133.106 2106
150.778 133.296 2109
156.412 133.801 2117
161.474 133.801 2117
166.773 133.991 2120
172.004 134.117 2122
177.329 134.307 2125
182.411 134.307 2125
187.757 134.497 2128
193.117 134.686 2131
198.213 134.686 2131
203.309 134.686 2131
208.405 134.686 2131
213.501 134.686 2131
218.597 134.686 2131
223.693 134.686 2131
228.788 134.686 2131
232.896 134.117 2122
237.971 134.117 2122
242.816 133.991 2120
247.184 133.612 2114
251.285 133.106 2106
254.739 132.284 2093
259.744 132.284 2093
263.484 131.652 2083
266.403 130.641 2067
267.67 128.871 2039
272.546 128.871 2039
276.469 128.429 2032
280.636 128.113 2027
284.075 127.481 2017
289.328 127.671 2020
294.158 127.671 2020
299.729 127.987 2025
305.323 128.303 2030
311.247 128.745 2037
469.909 191.379 3028
477.15 191.379 3028
484.391 191.379 3028
491.632 191.379 3028
498.873 191.379 3028
505.111 191 3022
509.625 189.989 3006
514.922 189.294 2995
521.212 188.978 2990
528.362 188.978 2990
534.438 188.599 2984
540.666 188.283 2979
545.767 187.587 2968
552.864 187.587 2968
558.075 186.955 2958
564.193 186.639 2953
569.127 185.944 2942
576.162 185.944 2942
582.206 185.628 2937
588.226 185.312 2932
594.222 184.996 2927
601.222 184.996 2927
608.221 184.996 2927
615.22 184.996 2927
621.157 184.68 2922
628.144 184.68 2922
635.132 184.68 2922
642.119 184.68 2922
649.106 184.68 2922
656.094 184.68 2922
663.081 184.68 2922
670.068 184.68 2922
675.897 184.364 2917
682.873 184.364 2917
691.031 184.68 2922
698.018 184.68 2922
705.005 184.68 2922
711.993 184.68 2922
718.98 184.68 2922
725.968 184.68 2922
732.955 184.68 2922
741.208 184.996 2927
748.208 184.996 2927
755.207 184.996 2927
762.207 184.996 2927
769.206 184.996 2927
776.205 184.996 2927
781.867 184.68 2922
788.854 184.68 2922
795.841 184.68 2922
802.829 184.68 2922
809.816 184.68 2922
816.804 184.68 2922
823.791 184.68 2922
830.778 184.68 2922
837.766 184.68 2922
844.753 184.68 2922
851.741 184.68 2922
857.259 184.364 2917
864.234 184.364 2917
871.209 184.364 2917
878.185 184.364 2917
885.16 184.364 2917
892.136 184.364 2917
899.111 184.364 2917
904.223 183.985 2911
911.184 183.985 2911
921.614 184.68 2922
928.602 184.68 2922
937.19 184.996 2927
944.189 184.996 2927
951.189 184.996 2927
958.188 184.996 2927
965.188 184.996 2927
972.187 184.996 2927
977.514 184.68 2922
984.501 184.68 2922
1375.09 244.091 3862
1384.33 244.091 3862
1393.56 244.091 3862
1386.82 241.31 3818
1392.66 240.741 3809
1398.45 240.172 3800
1404.58 239.667 3792
1413.64 239.667 3792
1406.58 236.949 3749
1409.13 235.875 3732
1408.55 234.294 3707
1417.42 234.294 3707
1423.2 233.789 3699
1428.95 233.283 3691
1428.43 231.766 3667
1437.2 231.766 3667
1442.42 231.198 3658
1451.16 231.198 3658
1453.53 230.186 3642
1440.55 226.773 3588
1449.13 226.773 3588
1445.12 224.814 3557
1432.37 221.527 3505
1428.84 219.695 3476
1437.15 219.695 3476
1427.58 216.977 3433
1404 212.173 3357
1392.26 209.203 3310
1383.68 206.738 3271
1391.5 206.738 3271
1399.32 206.738 3271
1423.92 209.203 3310
1440.49 210.467 3330
1448.45 210.467 3330
1456.41 210.467 3330
1500.44 215.65 3412
1527.17 218.304 3454
1545.21 219.695 3476
1553.52 219.695 3476
1561.83 219.695 3476
1392.15 184.996 2927
1399.15 184.996 2927
1406.15 184.996 2927
1410.73 184.68 2922
1412.38 183.985 2911
1419.34 183.985 2911
1426.3 183.985 2911
1433.27 183.985 2911
1440.23 183.985 2911
1447.19 183.985 2911
1454.15 183.985 2911
1458.6 183.669 2906
1463.03 183.353 2901
1469.96 183.353 2901
1471.81 182.721 2891
1478.72 182.721 2891
1480.5 182.089 2881
1487.39 182.089 2881
1494.28 182.089 2881
1498.56 181.773 2876
1505.44 181.773 2876
1509.69 181.457 2871
1516.55 181.457 2871
1523.42 181.457 2871
1530.28 181.457 2871
1534.47 181.141 2866
1541.32 181.141 2866
1548.18 181.141 2866
1555.03 181.141 2866
1559.71 180.888 2862
1566.55 180.888 2862
1570.64 180.572 2857
1577.48 180.572 2857
1584.31 180.572 2857
1593.92 180.888 2862
1600.77 180.888 2862
1607.61 180.888 2862
1614.46 180.888 2862
1621.3 180.888 2862
1628.14 180.888 2862
1632.13 180.572 2857
1638.96 180.572 2857
1645.8 180.572 2857
1652.63 180.572 2857
1659.46 180.572 2857
1663.38 180.256 2852
1667.27 179.94 2847
1674.08 179.94 2847
1680.88 179.94 2847
1687.69 179.94 2847
1691.52 179.624 2842
1698.32 179.624 2842
1705.12 179.624 2842
1711.91 179.624 2842
1715.68 179.308 2837
1722.47 179.308 2837
1729.25 179.308 2837
1730.53 178.739 2828
1734.22 178.423 2823
1737.89 178.107 2818
1744.63 178.107 2818
1748.26 177.791 2813
1754.98 177.791 2813
1761.71 177.791 2813
1768.44 177.791 2813
1772.64 177.538 2809
1776.19 177.222 2804
1782.9 177.222 2804
1789.6 177.222 2804
1789.9 176.59 2794
1794.01 176.337 2790
1797.45 176.021 2785
1804.11 176.021 2785
1810.77 176.021 2785
1817.43 176.021 2785
1820.82 175.705 2780
1827.47 175.705 2780
1834.11 175.705 2780
1838.11 175.452 2776
1844.75 175.452 2776
1851.39 175.452 2776
1858.03 175.452 2776
1864.67 175.452 2776
1867.93 175.136 2771
1874.56 175.136 2771
1881.19 175.136 2771
1885.09 174.883 2767
1891.7 174.883 2767
1898.32 174.883 2767
1904.94 174.883 2767
1911.55 174.883 2767
1918.17 174.883 2767
1921.31 174.567 2762
1924.42 174.251 2757
1931.02 174.251 2757
1937.61 174.251 2757
1944.2 174.251 2757
1944.43 173.683 2748
1951 173.683 2748
1957.57 173.683 2748
1961.28 173.43 2744
1964.26 173.114 2739
1970.81 173.114 2739
1970.86 172.545 2730
1977.39 172.545 2730
1983.92 172.545 2730
1990.45 172.545 2730
1996.97 172.545 2730
2003.5 172.545 2730
2007.08 172.292 2726
2013.6 172.292 2726
2020.12 172.292 2726
2022.92 171.976 2721
2026.45 171.723 2717
2032.94 171.723 2717
2039.44 171.723 2717
2029.37 170.333 2695
2032.8 170.08 2691
2045.29 170.586 2699
2051.75 170.586 2699
2058.2 170.586 2699
2061.59 170.333 2695
-2091.94 183.283 2794
-2085.26 183.283 2794
-2092.71 184.529 2813
-2085.98 184.529 2813
-2086.65 185.185 2823
-2079.9 185.185 2823
-2073.15 185.185 2823
-2066.39 185.185 2823
-2059.64 185.185 2823
-2052.89 185.185 2823
-2046.14 185.185 2823
-2039.39 185.185 2823
-2025.44 184.529 2813
-2015.84 184.267 2809
-2011.99 184.529 2813
-2005.26 184.529 2813
-2005.64 185.185 2823
-1998.89 185.185 2823
-1992.14 185.185 2823
-1985.39 185.185 2823
-1968.82 184.267 2809
-1962.11 184.267 2809
-1965.14 185.185 2823
-1958.38 185.185 2823
-1951.63 185.185 2823
-1974.38 232.351 3542
-1974.24 233.335 3557
-1965.73 233.335 3557
-1978.14 235.828 3595
-1973.92 236.352 3603
-1965.31 236.352 3603
-1956.69 236.352 3603
-1956.73 237.402 3619
-1948.07 237.402 3619
-1939.42 237.402 3619
-1930.76 237.402 3619
-1913.61 236.352 3603
-1917.68 237.927 3627
-1913.22 238.452 3635
-1904.53 238.452 3635
-1895.84 238.452 3635
-1890.78 238.911 3642
-1882.07 238.911 3642
-1873.36 238.911 3642
-1864.65 238.911 3642
-1855.94 238.911 3642
-1847.23 238.911 3642
-1830.95 237.927 3627
-1842.38 240.551 3667
-1841.61 241.6 3683
-1832.8 241.6 3683
-1823.99 241.6 3683
-1708.16 254.523 3880
-1698.88 254.523 3880
-1689.6 254.523 3880
-1609.3 243.765 3716
-1548.3 235.828 3595
-1539.7 235.828 3595
-1508.53 232.351 3542
-1493.71 231.367 3527
-1454.53 226.578 3454
-1446.28 226.578 3454
-1414.7 222.905 3398
-1406.58 222.905 3398
-1389.81 221.527 3377
-1381.73 221.527 3377
-1367.96 220.609 3363
-1343.74 217.985 3323
-1330.57 217.132 3310
-1322.66 217.132 3310
-1314.74 217.132 3310
-1304.06 216.673 3303
-1283.61 214.574 3271
-1266.03 212.934 3246
-1258.27 212.934 3246
-1245.5 212.081 3233
-1225.9 210.047 3202
-1206.83 208.079 3172
-1199.25 208.079 3172
-1182.64 206.505 3148
-1168.4 205.324 3130
-1091.95 198.239 3022
-1086.88 198.633 3028
-1083.56 199.355 3039
-1076.29 199.355 3039
-1072.89 200.076 3050
