-2280.64 952.002 3505
-2272.26 952.002 3505
-2263.87 952.002 3505
-2245.84 947.928 3490
-2237.49 947.928 3490
-2224.68 946.026 3483
-2225.26 949.829 3497
-2240.35 959.879 3534
-2231.9 959.879 3534
-2223.45 959.879 3534
-2220.01 962.052 3542
-2215.91 963.953 3549
-2212.4 966.126 3557
-2203.9 966.126 3557
-2195.39 966.126 3557
-2186.88 966.126 3557
-2178.38 966.126 3557
-2138.15 952.002 3505
-2116.4 946.026 3483
-2103.84 944.125 3476
-2095.52 944.125 3476
-2087.21 944.125 3476
-2065.74 938.15 3454
-2044.97 932.446 3433
-2036.76 932.446 3433
-2020.28 928.643 3419
-2012.11 928.643 3419
-1991.62 922.939 3398
-1983.5 922.939 3398
-1963.16 917.235 3377
-1897.77 890.346 3278
-1893.39 891.976 3284
-1885.54 891.976 3284
-1877.69 891.976 3284
-1866.42 890.346 3278
-1851.21 886.815 3265
-1843.4 886.815 3265
-1828.28 883.284 3252
-1817.15 881.654 3246
-1809.39 881.654 3246
-1804.95 883.284 3252
-1804.36 886.815 3265
-1796.55 886.815 3265
-1795.87 890.346 3278
-1805.49 899.037 3310
-1804.63 902.568 3323
-1796.68 902.568 3323
-1792.51 904.47 3330
-1784.54 904.47 3330
-1776.58 904.47 3330
-1768.62 904.47 3330
-1771.23 909.902 3350
-1773.74 915.334 3370
-1773.02 919.137 3384
-1764.93 919.137 3384
-1756.84 919.137 3384
-1755.98 922.939 3398
-1747.85 922.939 3398
-1739.73 922.939 3398
-1728.03 921.038 3391
-1719.93 921.038 3391
-1711.82 921.038 3391
-1703.71 921.038 3391
-1692.1 919.137 3384
-1673.56 913.433 3363
-1668.98 915.334 3370
-1660.92 915.334 3370
-1652.86 915.334 3370
-1644.8 915.334 3370
-1636.75 915.334 3370
-1615.64 908.001 3343
-1607.64 908.001 3343
-1599.65 908.001 3343
-1591.66 908.001 3343
-1577.5 904.47 3330
-1553.99 895.506 3297
-1537.19 890.346 3278
-1529.35 890.346 3278
-1518.27 888.445 3271
-1516.45 891.976 3284
-1508.59 891.976 3284
-1572.03 934.347 3440
-1563.8 934.347 3440
-1555.58 934.347 3440
-1451.54 876.494 3227
-1449.19 879.753 3239
-1441.45 879.753 3239
-1433.7 879.753 3239
-1431.68 883.284 3252
-1423.9 883.284 3252
-1416.13 883.284 3252
-1386.7 869.703 3202
-1371.29 864.814 3184
-1373.95 871.333 3208
-1366.28 871.333 3208
-1358.61 871.333 3208
-1358.94 876.494 3227
-1361.69 883.284 3252
-1361.83 888.445 3271
-1354 888.445 3271
-1346.18 888.445 3271
-1338.36 888.445 3271
-1330.54 888.445 3271
-1317.46 884.914 3258
-1304.85 881.654 3246
-1304.68 886.815 3265
-1296.87 886.815 3265
-1289.06 886.815 3265
-1276.15 883.284 3252
-1260.96 878.123 3233
-1253.23 878.123 3233
-1243.19 876.494 3227
-1233.18 874.864 3221
-1220.53 871.333 3208
-1215.13 872.963 3214
-1207.44 872.963 3214
-1199.75 872.963 3214
-1192.07 872.963 3214
-1184.38 872.963 3214
-1167.91 866.444 3190
-1158.1 864.814 3184
-1146.15 861.555 3172
-1138.56 861.555 3172
-1113.86 848.518 3124
-1104.27 846.888 3118
-1010.6 932.446 3433
-1004.43 934.347 3440
-996.205 934.347 3440
-996.02 941.952 3468
-990.006 944.125 3476
-983.67 946.026 3483
-975.341 946.026 3483
-975.064 953.903 3512
-974.923 962.052 3542
-966.453 962.052 3542
-957.983 962.052 3542
-627.653 962.052 3542
-619.183 962.052 3542
-610.713 962.052 3542
-597.142 953.903 3512
-586.23 949.829 3497
-576.711 947.928 3490
-568.365 947.928 3490
-560.019 947.928 3490
-549.461 944.125 3476
-541.148 944.125 3476
-532.836 944.125 3476
-523.317 941.952 3468
-515.024 941.952 3468
-502.64 934.347 3440
-494.413 934.347 3440
-484.209 930.544 3426
-477.961 934.347 3440
-469.735 934.347 3440
-461.509 934.347 3440
-453.283 934.347 3440
-445.057 934.347 3440
-436.831 934.347 3440
-429.477 936.248 3447
-421.234 936.248 3447
-412.991 936.248 3447
-406.392 940.051 3461
-399.842 944.125 3476
-391.529 944.125 3476
-387.186 953.903 3512
-381.161 959.879 3534
-373.553 962.052 3542
-365.083 962.052 3542
-357.318 963.953 3549
-348.832 963.953 3549
-340.345 963.953 3549
-331.203 962.052 3542
-159.664 602.437 2218
-154.36 602.437 2218
-149.661 604.881 2227
-144.336 604.881 2227
-139.011 604.881 2227
-133.145 602.437 2218
-127.841 602.437 2218
-122.095 600.264 2210
-116.493 598.634 2204
-111.071 597.819 2201
-105.808 597.819 2201
-100.545 597.819 2201
-95.2815 597.819 2201
-89.8956 597.004 2198
-84.524 596.19 2195
-79.2751 596.19 2195
-73.925 595.375 2192
-68.6833 595.375 2192
-63.3547 594.56 2189
-58.1201 594.56 2189
-52.8856 594.56 2189
-47.4769 592.387 2181
-42.087 589.942 2172
-36.8931 589.942 2172
-31.6992 589.942 2172
-26.5053 589.942 2172
-21.3114 589.942 2172
-16.1175 589.942 2172
-10.9085 589.128 2169
-5.71647 588.584 2167
-0.533776 587.77 2164
4.641 587.77 2164
9.80218 586.955 2161
14.949 586.14 2158
20.0815 585.325 2155
25.1762 583.967 2150
30.3175 583.967 2150
35.4588 583.967 2150
40.449 581.794 2142
45.5074 580.979 2139
50.6224 580.979 2139
55.7374 580.979 2139
60.8524 580.979 2139
66.2141 583.152 2147
71.3482 583.152 2147
76.4823 583.152 2147
81.6165 583.152 2147
86.6294 582.337 2144
91.7563 582.337 2144
96.8833 582.337 2144
102.01 582.337 2144
107.137 582.337 2144
112.264 582.337 2144
117.391 582.337 2144
122.861 583.967 2150
128.002 583.967 2150
133.144 583.967 2150
138.285 583.967 2150
143.226 583.152 2147
148.913 585.325 2155
154.495 586.955 2161
160.106 588.584 2167
165.288 588.584 2167
171.335 591.572 2178
176.787 592.387 2181
182.002 592.387 2181
187.218 592.387 2181
485.739 850.147 3130
493.223 850.147 3130
500.708 850.147 3130
508.193 850.147 3130
515.678 850.147 3130
521.157 846.888 3118
525.731 842.27 3101
531.083 839.011 3089
538.47 839.011 3089
544.973 837.653 3084
549.303 833.036 3067
551.001 803.43 2958
558.075 803.43 2958
569.161 809.134 2979
584.603 820.813 3022
593.983 823.801 3033
601.236 823.801 3033
608.489 823.801 3033
615.742 823.801 3033
628.746 831.406 3061
636.066 831.406 3061
648.22 837.653 3084
664.098 848.518 3124
671.568 848.518 3124
679.039 848.518 3124
690.465 853.407 3142
697.978 853.407 3142
706.839 855.036 3148
714.367 855.036 3148
721.894 855.036 3148
730.812 856.666 3154
739.759 858.296 3160
747.316 858.296 3160
757.739 861.555 3172
765.324 861.555 3172
772.909 861.555 3172
780.495 861.555 3172
788.08 861.555 3172
798.675 864.814 3184
806.289 864.814 3184
813.903 864.814 3184
816.873 859.925 3166
826.006 861.555 3172
833.591 861.555 3172
841.176 861.555 3172
842.34 855.036 3148
851.487 856.666 3154
859.029 856.666 3154
866.572 856.666 3154
874.114 856.666 3154
881.656 856.666 3154
887.507 855.036 3148
900.152 859.925 3166
907.723 859.925 3166
918.763 863.185 3178
935.107 871.333 3208
950.126 878.123 3233
957.857 878.123 3233
971.263 883.284 3252
988.673 891.976 3284
1002.29 897.136 3303
1010.19 897.136 3303
1026.41 904.47 3330
1038.41 908.001 3343
1061.43 921.038 3391
1069.54 921.038 3391
1084.32 926.742 3412
1099.21 932.446 3433
1111.93 936.248 3447
1120.17 936.248 3447
1130.71 938.15 3454
1143.58 941.952 3468
1161.51 949.829 3497
1169.87 949.829 3497
1178.23 949.829 3497
1186.6 949.829 3497
1194.96 949.829 3497
1203.32 949.829 3497
1209.26 947.928 3490
1217.6 947.928 3490
1231.22 952.002 3505
1239.6 952.002 3505
1247.98 952.002 3505
1256.36 952.002 3505
1264.74 952.002 3505
1273.13 952.002 3505
1278.58 949.829 3497
1286.95 949.829 3497
1295.31 949.829 3497
1303.67 949.829 3497
1309.41 947.928 3490
1326.06 953.903 3512
1340.16 957.977 3527
1348.59 957.977 3527
1357.02 957.977 3527
1359.65 953.903 3512
1359.48 947.928 3490
1334.51 924.841 3405
1342.65 924.841 3405
1348.02 922.939 3398
1353.35 921.038 3391
1355.84 917.235 3377
1363.91 917.235 3377
1355.74 906.371 3337
1363.72 906.371 3337
1371.7 906.371 3337
1379.68 906.371 3337
1387.66 906.371 3337
1395.64 906.371 3337
1403.62 906.371 3337
1411.6 906.371 3337
1419.58 906.371 3337
1421.57 902.568 3323
1426.93 900.939 3317
1426.21 895.506 3297
1434.1 895.506 3297
1436.3 891.976 3284
1438.43 888.445 3271
1440.51 884.914 3258
1448.3 884.914 3258
1456.09 884.914 3258
1463.88 884.914 3258
1471.67 884.914 3258
1479.46 884.914 3258
1487.25 884.914 3258
1492.29 883.284 3252
1500.07 883.284 3252
1507.84 883.284 3252
1515.62 883.284 3252
1523.4 883.284 3252
1531.17 883.284 3252
1536.11 881.654 3246
1543.87 881.654 3246
1551.63 881.654 3246
1553.15 878.123 3233
1560.88 878.123 3233
1568.61 878.123 3233
1570.49 874.864 3221
1578.19 874.864 3221
1582.45 872.963 3214
1590.14 872.963 3214
1588.87 868.074 3196
1590.52 864.814 3184
1592.11 861.555 3172
1599.7 861.555 3172
1592.08 853.407 3142
1590.43 848.518 3124
1591.76 845.258 3112
1578.65 834.394 3072
1586 834.394 3072
1573.11 823.801 3033
1546.5 806.146 2968
1534.75 796.368 2932
1541.76 796.368 2932
1532.4 787.948 2901
1528.72 782.516 2881
1527.62 778.442 2866
1524.3 773.281 2847
1531.11 773.281 2847
1529.81 769.207 2832
1534.41 768.12 2828
1541.18 768.12 2828
1547.94 768.12 2828
1551.95 766.762 2823
1555.94 765.404 2818
1559.91 764.046 2813
1566.64 764.046 2813
1576.16 765.404 2818
1582.9 765.404 2818
1592.46 766.762 2823
1599.21 766.762 2823
1608.8 768.12 2828
1615.57 768.12 2828
1630.36 771.923 2842
1659.62 782.516 2881
1672.3 785.232 2891
1679.21 785.232 2891
1686.12 785.232 2891
2006.34 930.544 3426
2014.54 930.544 3426
2035.13 936.248 3447
2060.56 944.125 3476
2090.3 953.903 3512
2098.7 953.903 3512
2107.1 953.903 3512
2115.49 953.903 3512
2123.89 953.903 3512
2132.29 953.903 3512
2140.69 953.903 3512
2149.09 953.903 3512
2157.49 953.903 3512
2161.57 952.002 3505
2160.66 947.928 3490
2164.66 946.026 3483
2163.63 941.952 3468
2171.92 941.952 3468
2114.2 913.433 3363
2114.04 909.902 3350
2101.15 900.939 3317
2109.08 900.939 3317
2083.83 886.815 3265
2079.46 881.654 3246
2075.01 876.494 3227
2082.72 876.494 3227
2090.44 876.494 3227
2098.16 876.494 3227
2126.1 884.914 3258
2142.41 888.445 3271
2154.83 890.346 3278
2162.67 890.346 3278
2183.09 895.506 3297
2244.14 917.235 3377
2289.56 932.446 3433
2297.77 932.446 3433
2320.08 938.15 3454
2333.06 940.051 3461
2341.34 940.051 3461
2349.62 940.051 3461
2353.12 938.15 3454
2342.24 930.544 3426
2350.43 930.544 3426
2353.81 928.643 3419
2337.8 919.137 3384
2327.18 911.803 3357
2335.2 911.803 3357
2333.46 908.001 3343
2313.44 897.136 3303
2321.34 897.136 3303
2302.44 886.815 3265
2310.25 886.815 3265
2313.08 884.914 3258
2303.07 878.123 3233
2310.8 878.123 3233
2318.53 878.123 3233
2317.62 874.864 3221
2311.61 869.703 3202
2306.23 864.814 3184
2300.76 859.925 3166
2308.33 859.925 3166
2315.9 859.925 3166
2323.47 859.925 3166
2331.05 859.925 3166
2338.62 859.925 3166
2346.19 859.925 3166
2353.76 859.925 3166
2361.33 859.925 3166
2368.9 859.925 3166
2376.47 859.925 3166
2384.04 859.925 3166
2414.27 868.074 3196
2426.46 869.703 3202
2434.12 869.703 3202
2441.78 869.703 3202
2449.44 869.703 3202
-2434.85 891.074 3252
-2436.78 894.636 3265
-2428.97 894.636 3265
-2421.16 894.636 3265
-2413.36 894.636 3265
-2405.55 894.636 3265
-2344.89 919.845 3357
-2336.86 919.845 3357
-2333 921.489 3363
-2324.95 921.489 3363
-2316.91 921.489 3363
-2304.75 919.845 3357
-2283.04 914.365 3337
-2265.52 910.529 3323
-2257.57 910.529 3323
-2249.62 910.529 3323
-2246.4 912.447 3330
-2247.17 916.009 3343
-2239.18 916.009 3343
-2231.19 916.009 3343
-2269.08 934.915 3412
-2279.47 942.588 3440
-2295.02 952.452 3476
-2286.7 952.452 3476
-2278.39 952.452 3476
-2270.08 952.452 3476
-2261.77 952.452 3476
-2253.46 952.452 3476
-2226.41 944.506 3447
-2213.66 942.588 3440
-2214.41 946.424 3454
-2206.15 946.424 3454
-2216.35 954.37 3483
-2231.48 964.508 3520
-2223.06 964.508 3520
-2214.64 964.508 3520
-2215 968.344 3534
-2211.54 970.536 3542
-2212.4 974.647 3557
-2203.9 974.647 3557
-2195.39 974.647 3557
-2181.97 972.455 3549
-2173.48 972.455 3549
-2124.73 954.37 3483
-2090.27 942.588 3440
-2086.28 944.506 3447
-2078.04 944.506 3447
-2069.8 944.506 3447
-2053.18 940.67 3433
-2040.8 938.752 3426
-2032.61 938.752 3426
-2020.28 936.833 3419
-2012.11 936.833 3419
-1991.62 931.079 3398
-1983.5 931.079 3398
-1963.16 925.325 3377
-1893.72 896.28 3271
-1889.93 898.198 3278
-1882.09 898.198 3278
-1874.26 898.198 3278
-1862.43 896.28 3271
-1843.84 891.074 3252
-1836.06 891.074 3252
-1820.98 887.512 3239
-1809.87 885.868 3233
-1802.14 885.868 3233
-1801.62 889.43 3246
-1793.86 889.43 3246
-1786.1 889.43 3246
-1781.62 891.074 3252
-1805.49 906.967 3310
-1797.57 906.967 3310
-1789.65 906.967 3310
-1785.51 908.885 3317
-1780.79 910.529 3323
-1780.31 914.365 3337
-1772.33 914.365 3337
-1771.23 917.927 3350
-1773.74 923.407 3370
-1773.02 927.243 3384
-1764.93 927.243 3384
-1756.84 927.243 3384
-1755.98 931.079 3398
-1747.85 931.079 3398
-1739.73 931.079 3398
-1728.03 929.161 3391
-1719.93 929.161 3391
-1711.82 929.161 3391
-1703.71 929.161 3391
-1692.1 927.243 3384
-1673.56 921.489 3363
-1668.98 923.407 3370
-1660.92 923.407 3370
-1652.86 923.407 3370
-1644.8 923.407 3370
-1636.75 923.407 3370
-1615.64 916.009 3343
-1607.64 916.009 3343
-1599.65 916.009 3343
-1591.66 916.009 3343
-1577.5 912.447 3330
-1553.99 903.404 3297
-1537.19 898.198 3278
-1529.35 898.198 3278
-1518.27 896.28 3271
-1516.45 899.842 3284
-1508.59 899.842 3284
-1572.03 942.588 3440
-1563.8 942.588 3440
-1555.58 942.588 3440
-1451.54 884.224 3227
-1449.19 887.512 3239
-1441.45 887.512 3239
-1433.7 887.512 3239
-1431.68 891.074 3252
-1423.9 891.074 3252
-1416.13 891.074 3252
-1386.7 877.374 3202
-1371.29 872.442 3184
-1373.95 879.018 3208
-1366.28 879.018 3208
-1358.61 879.018 3208
-1358.94 884.224 3227
-1361.69 891.074 3252
-1361.83 896.28 3271
-1354 896.28 3271
-1346.18 896.28 3271
-1338.36 896.28 3271
-1330.54 896.28 3271
-1317.46 892.718 3258
-1304.85 889.43 3246
-1304.68 894.636 3265
-1296.87 894.636 3265
-1289.06 894.636 3265
-1276.15 891.074 3252
-1260.96 885.868 3233
-1253.23 885.868 3233
-1243.19 884.224 3227
-1233.18 882.58 3221
-1220.53 879.018 3208
-1215.13 880.662 3214
-1207.44 880.662 3214
-1199.75 880.662 3214
-1192.07 880.662 3214
-1184.38 880.662 3214
-1167.91 874.086 3190
-1158.1 872.442 3184
-1146.15 869.154 3172
-1138.56 869.154 3172
-1113.86 856.001 3124
-1104.27 854.357 3118
-1010.6 940.67 3433
-1004.43 942.588 3440
-996.205 942.588 3440
-996.02 950.26 3468
-990.006 952.452 3476
-983.67 954.37 3483
-975.341 954.37 3483
-975.064 962.316 3512
-974.923 970.536 3542
-966.453 970.536 3542
-957.983 970.536 3542
-627.653 970.536 3542
-619.183 970.536 3542
-610.713 970.536 3542
-597.142 962.316 3512
-586.23 958.206 3497
-576.711 956.288 3490
-568.365 956.288 3490
-560.019 956.288 3490
-549.461 952.452 3476
-541.148 952.452 3476
-532.836 952.452 3476
-523.317 950.26 3468
-515.024 950.26 3468
-502.64 942.588 3440
-494.413 942.588 3440
-484.209 938.752 3426
-477.961 942.588 3440
-469.735 942.588 3440
-461.509 942.588 3440
-453.283 942.588 3440
-445.057 942.588 3440
-431.497 931.079 3398
-423.372 931.079 3398
-415.246 931.079 3398
-408.798 934.915 3412
-401.461 936.833 3419
-396.506 944.506 3447
-388.263 944.506 3447
-383.217 952.452 3476
-378.033 960.398 3505
-372.71 968.344 3534
-364.259 968.344 3534
-355.808 968.344 3534
-347.357 968.344 3534
-338.906 968.344 3534
-154.36 607.75 2218
-149.863 611.038 2230
-144.53 611.038 2230
-139.198 611.038 2230
-133.685 610.216 2227
-128.36 610.216 2227
-122.261 606.38 2213
-116.493 603.914 2204
-110.92 602.27 2198
-105.664 602.27 2198
-100.408 602.27 2198
-95.1517 602.27 2198
-89.8956 602.27 2198
-84.4085 600.626 2192
-79.1667 600.626 2192
-73.925 600.626 2192
-68.6833 600.626 2192
-63.3547 599.804 2189
-58.1201 599.804 2189
-52.8856 599.804 2189
-47.4769 597.612 2181
-42.087 595.145 2172
-36.8931 595.145 2172
-31.6992 595.145 2172
-26.5419 595.967 2175
-21.3408 595.967 2175
-16.1397 595.967 2175
-10.9236 595.145 2172
-5.72175 594.323 2169
-0.534516 593.775 2167
4.64744 593.775 2167
9.81578 592.953 2164
14.9698 592.131 2161
20.0815 590.487 2155
25.2113 589.939 2153
30.3598 589.939 2153
35.4588 589.117 2150
40.4868 587.473 2144
45.5712 586.925 2142
50.6934 586.925 2142
55.7374 586.103 2139
60.8524 586.103 2139
66.3066 589.117 2150
71.4479 589.117 2150
76.5892 589.117 2150
81.7305 589.117 2150
86.6294 587.473 2144
91.7563 587.473 2144
96.8833 587.473 2144
102.01 587.473 2144
107.137 587.473 2144
112.264 587.473 2144
117.391 587.473 2144
122.861 589.117 2150
128.002 589.117 2150
133.144 589.117 2150
138.285 589.117 2150
143.226 588.295 2147
148.913 590.487 2155
154.495 592.131 2161
160.106 593.775 2167
165.288 593.775 2167
171.335 596.789 2178
176.787 597.612 2181
182.002 597.612 2181
187.218 597.612 2181
485.739 857.645 3130
493.223 857.645 3130
500.708 857.645 3130
508.193 857.645 3130
515.678 857.645 3130
521.157 854.357 3118
526.748 851.343 3107
532.115 848.055 3095
539.516 848.055 3095
544.973 845.041 3084
549.303 840.383 3067
554.459 837.095 3055
561.765 837.095 3055
554.913 816.27 2979
562.037 816.27 2979
569.161 816.27 2979
584.603 828.052 3022
593.983 831.066 3033
601.236 831.066 3033
608.489 831.066 3033
615.742 831.066 3033
628.746 838.739 3061
636.066 838.739 3061
648.22 845.041 3084
664.098 856.001 3124
671.568 856.001 3124
679.039 856.001 3124
690.465 860.933 3142
697.978 860.933 3142
705.492 860.933 3142
713.005 860.933 3142
720.519 860.933 3142
730.812 864.221 3154
739.759 865.865 3160
747.316 865.865 3160
756.306 867.509 3166
765.324 869.154 3172
772.909 869.154 3172
780.495 869.154 3172
786.589 867.509 3166
794.16 867.509 3166
801.731 867.509 3166
809.302 867.509 3166
816.873 867.509 3166
824.443 867.509 3166
828.861 864.221 3154
836.403 864.221 3154
842.34 862.577 3148
849.867 862.577 3148
857.395 862.577 3148
864.923 862.577 3148
870.788 860.933 3142
878.302 860.933 3142
885.815 860.933 3142
893.328 860.933 3142
900.842 860.933 3142
910.09 862.577 3148
924.614 869.154 3172
942.779 879.018 3208
950.45 879.018 3208
959.913 880.662 3214
979.039 891.074 3252
994.705 898.198 3278
1002.54 898.198 3278
1016.24 903.404 3297
1034.37 912.447 3330
1046.41 916.009 3343
1054.4 916.009 3343
1077.65 929.161 3391
1094.72 936.833 3419
1107.41 940.67 3433
1115.62 940.67 3433
1126.12 942.588 3440
1141.28 948.342 3461
1156.86 954.37 3483
1165.19 954.37 3483
1173.52 954.37 3483
1184.22 956.288 3490
1192.57 956.288 3490
1200.91 956.288 3490
1204.41 952.452 3476
1212.72 952.452 3476
1221.03 952.452 3476
1229.34 952.452 3476
1237.66 952.452 3476
1240.59 948.342 3461
1248.87 948.342 3461
1257.14 948.342 3461
1265.42 948.342 3461
1268.54 944.506 3447
1276.79 944.506 3447
1287.64 946.424 3454
1295.9 946.424 3454
1312.47 952.452 3476
1331.8 960.398 3505
1340.18 960.398 3505
1348.56 960.398 3505
1351.13 956.288 3490
1354.03 952.452 3476
1337.26 934.915 3412
1345.41 934.915 3412
1348.02 931.079 3398
1356.15 931.079 3398
1358.65 927.243 3384
1366.74 927.243 3384
1363.86 919.845 3357
1369.03 917.927 3350
1377.04 917.927 3350
1385.05 917.927 3350
1393.06 917.927 3350
1401.08 917.927 3350
1406.14 916.009 3343
1414.14 916.009 3343
1422.13 916.009 3343
1427.56 914.365 3337
1426.93 908.885 3317
1426.21 903.404 3297
1434.1 903.404 3297
1436.3 899.842 3284
1438.43 896.28 3271
1443.6 894.636 3265
1451.41 894.636 3265
1456.09 892.718 3258
1463.88 892.718 3258
1471.67 892.718 3258
1479.46 892.718 3258
1487.25 892.718 3258
1492.29 891.074 3252
1500.07 891.074 3252
1507.84 891.074 3252
1515.62 891.074 3252
1523.4 891.074 3252
1531.17 891.074 3252
1538.95 891.074 3252
1546.72 891.074 3252
1551.63 889.43 3246
1553.15 885.868 3233
1560.88 885.868 3233
1568.61 885.868 3233
1573.42 884.224 3227
1578.19 882.58 3221
1582.45 880.662 3214
1590.14 880.662 3214
1588.87 875.73 3196
1590.52 872.442 3184
1592.11 869.154 3172
1599.7 869.154 3172
1592.08 860.933 3142
1593.49 857.645 3130
1591.76 852.713 3112
1581.73 843.397 3078
1589.09 843.397 3078
1573.11 831.066 3033
1546.5 813.256 2968
1545.74 809.146 2953
1552.81 809.146 2953
1543.49 800.651 2922
1536.68 793.527 2896
1535.61 789.417 2881
1534.47 785.307 2866
1541.32 785.307 2866
1537.91 780.101 2847
1539.3 777.361 2837
1546.08 777.361 2837
1552.87 777.361 2837
1559.65 777.361 2837
1561.46 774.895 2828
1568.23 774.895 2828
1574.99 774.895 2828
1581.75 774.895 2828
1588.51 774.895 2828
1600.35 777.361 2837
1612.8 780.101 2847
1619.61 780.101 2847
1626.42 780.101 2847
1649.86 788.047 2876
1665.38 792.157 2891
1708.16 809.146 2953
1715.22 809.146 2953
1722.28 809.146 2953
2006.34 938.752 3426
2014.54 938.752 3426
2022.73 938.752 3426
2060.56 952.452 3476
2068.87 952.452 3476
2077.19 952.452 3476
2102.9 960.398 3505
2111.28 960.398 3505
2119.66 960.398 3505
2128.04 960.398 3505
2136.42 960.398 3505
2144.8 960.398 3505
2153.19 960.398 3505
2148 954.37 3483
2156.33 954.37 3483
2155.33 950.26 3468
2163.63 950.26 3468
2171.92 950.26 3468
2114.2 921.489 3363
2114.04 917.927 3350
2101.15 908.885 3317
2109.08 908.885 3317
2083.83 894.636 3265
2071.13 885.868 3233
2075.01 884.224 3227
2082.72 884.224 3227
2090.44 884.224 3227
2094.25 882.58 3221
2101.96 882.58 3221
2133.89 892.718 3258
2141.68 892.718 3258
2149.48 892.718 3258
2170.51 898.198 3278
2234.83 921.489 3363
2275.55 934.915 3412
2283.71 934.915 3412
2305.98 940.67 3433
2328.34 946.424 3454
2336.6 946.424 3454
2344.86 946.424 3454
2353.12 946.424 3454
2337.45 936.833 3419
2345.63 936.833 3419
2329.71 927.243 3384
2328.13 923.407 3370
2322.32 917.927 3350
2330.34 917.927 3350
2305.54 905.049 3303
2309.24 903.404 3297
2307.98 899.842 3284
2302.44 894.636 3265
2310.25 894.636 3265
2291.07 884.224 3227
2298.79 884.224 3227
2302.22 882.58 3221
2309.92 882.58 3221
2317.62 882.58 3221
2307.28 875.73 3196
2306.23 872.442 3184
2296.4 865.865 3160
2303.96 865.865 3160
2311.51 865.865 3160
2323.47 867.509 3166
2331.05 867.509 3166
2338.62 867.509 3166
2346.19 867.509 3166
2353.76 867.509 3166
2361.33 867.509 3166
2368.9 867.509 3166
2376.47 867.509 3166
2384.04 867.509 3166
2382.55 864.221 3154
2403.73 869.154 3172
2420.44 872.442 3184
2428.05 872.442 3184
2435.67 872.442 3184
-2430.36 897.206 3246
-2427.08 898.864 3252
-2419.3 898.864 3252
-2411.52 898.864 3252
-2321.14 918.489 3323
-2313.19 918.489 3323
-2314.96 922.359 3337
-2315.97 925.952 3350
-2307.96 925.952 3350
-2299.94 925.952 3350
-2255.67 911.302 3297
-2247.79 911.302 3297
-2239.91 911.302 3297
-2232.02 911.302 3297
-2239.18 924.017 3343
-2231.19 924.017 3343
-2269.08 943.089 3412
-2260.92 943.089 3412
-2257.38 945.024 3419
-2249.21 945.024 3419
-2263.97 954.698 3454
-2255.71 954.698 3454
-2247.45 954.698 3454
-2230.12 950.828 3440
-2217.37 948.893 3433
-2204.66 946.959 3426
-2196.46 946.959 3426
-2188.27 946.959 3426
-2153.35 935.35 3384
-2216.9 966.583 3497
-2208.53 966.583 3497
-2200.17 966.583 3497
-2201.21 970.729 3512
-2206.55 976.81 3534
-2207.43 980.956 3549
-2198.94 980.956 3549
-2190.45 980.956 3549
-2181.97 980.956 3549
-2173.48 980.956 3549
-2098.5 950.828 3440
-2086.02 948.893 3433
-2082.05 950.828 3440
-2073.82 950.828 3440
-2065.6 950.828 3440
-2057.37 950.828 3440
-2040.8 946.959 3426
-2032.61 946.959 3426
-2020.28 945.024 3419
-2012.11 945.024 3419
-1991.62 939.219 3398
-1983.5 939.219 3398
-1939.91 922.359 3337
-1890.25 902.458 3265
-1882.44 902.458 3265
-1874.63 902.458 3265
-1859.39 898.864 3252
-1851.61 898.864 3252
-1836.47 895.271 3239
-1828.72 895.271 3239
-1817.6 893.613 3233
-1803.15 890.296 3221
-1795.45 890.296 3221
-1787.75 890.296 3221
-1789.99 895.271 3239
-1782.25 895.271 3239
-1778.34 897.206 3246
-1791.3 907.709 3284
-1797.57 914.896 3310
-1789.65 914.896 3310
-1785.51 916.831 3317
-1780.79 918.489 3323
-1780.31 922.359 3337
-1772.33 922.359 3337
-1771.23 925.952 3350
-1763.22 925.952 3350
-1769.35 933.415 3377
-1761.28 933.415 3377
-1753.2 933.415 3377
-1745.13 933.415 3377
-1737.05 933.415 3377
-1728.98 933.415 3377
-1724.47 935.35 3384
-1716.37 935.35 3384
-1708.28 935.35 3384
-1700.19 935.35 3384
-1675.1 925.952 3350
-1650.66 916.831 3317
-1642.73 916.831 3317
-1634.8 916.831 3317
-1617.06 911.302 3297
-1609.18 911.302 3297
-1611 916.831 3317
-1603.07 916.831 3317
-1595.14 916.831 3317
-1583.86 914.896 3310
-1575.94 914.896 3310
-1555.71 907.709 3284
-1541.73 904.116 3271
-1522.19 897.206 3246
-1514.42 897.206 3246
-1506.66 897.206 3246
-1498.9 897.206 3246
-1491.14 897.206 3246
-1483.38 897.206 3246
-1475.61 897.206 3246
-1459.26 891.954 3227
-1445.69 888.361 3214
-1443.83 891.954 3227
-1436.11 891.954 3227
-1428.39 891.954 3227
-1412.31 886.703 3208
-1404.64 886.703 3208
-1394.36 885.044 3202
-1386.7 885.044 3202
-1371.29 880.069 3184
-1363.68 880.069 3184
-1356.06 880.069 3184
-1348.45 880.069 3184
-1353.47 888.361 3214
-1356.25 895.271 3239
-1353.92 898.864 3252
-1346.14 898.864 3252
-1338.36 898.864 3252
-1333.04 900.523 3258
-1325.25 900.523 3258
-1317.46 900.523 3258
-1304.85 897.206 3246
-1297.08 897.206 3246
-1289.32 897.206 3246
-1281.56 897.206 3246
-1273.8 897.206 3246
-1258.62 891.954 3227
-1250.91 891.954 3227
-1240.88 890.296 3221
-1228.2 886.703 3208
-1220.53 886.703 3208
-1212.86 886.703 3208
-1202.93 885.044 3202
-1195.27 885.044 3202
-1187.62 885.044 3202
-1179.96 885.044 3202
-1165.71 880.069 3184
-1153.73 876.752 3172
-1146.15 876.752 3172
-1138.56 876.752 3172
-1113.86 863.485 3124
-1104.27 861.826 3118
-987.978 950.828 3440
-981.746 952.763 3447
-973.503 952.763 3447
-965.26 952.763 3447
-957.018 952.763 3447
-948.775 952.763 3447
-613.939 970.729 3512
-605.541 970.729 3512
-597.142 970.729 3512
-582.709 960.779 3476
-573.075 958.568 3468
-564.782 958.568 3468
-554.243 954.698 3454
-545.983 954.698 3454
-537.723 954.698 3454
-529.464 954.698 3454
-521.204 954.698 3454
-510.866 950.828 3440
-500.594 946.959 3426
-492.401 946.959 3426
-480.251 939.219 3398
-473.098 941.154 3405
-464.956 941.154 3405
-456.814 941.154 3405
-448.671 941.154 3405
-440.529 941.154 3405
-431.497 939.219 3398
-423.372 939.219 3398
-415.246 939.219 3398
-408.798 943.089 3412
-401.461 945.024 3419
-396.506 952.763 3447
-388.263 952.763 3447
-383.217 960.779 3476
-378.033 968.794 3505
-372.71 976.81 3534
-364.259 976.81 3534
-355.808 976.81 3534
-347.357 976.81 3534
-338.906 976.81 3534
-154.36 613.063 2218
-149.863 616.38 2230
-144.53 616.38 2230
-139.198 616.38 2230
-133.685 615.551 2227
-128.36 615.551 2227
-122.261 611.681 2213
-116.493 609.193 2204
-110.92 607.535 2198
-105.664 607.535 2198
-100.408 607.535 2198
-95.1517 607.535 2198
-89.8956 607.535 2198
-84.4085 605.877 2192
-79.1667 605.877 2192
-73.925 605.877 2192
-68.6833 605.877 2192
-63.3547 605.047 2189
-58.1201 605.047 2189
-52.8856 605.047 2189
-47.4769 602.836 2181
-42.1452 601.178 2175
-36.9441 601.178 2175
-31.743 601.178 2175
-26.5419 601.178 2175
-21.3408 601.178 2175
-16.1397 601.178 2175
-10.9387 601.178 2175
-5.72966 600.349 2172
-0.535009 599.519 2169
4.65173 599.519 2169
9.81578 598.137 2164
14.9698 597.308 2161
20.1094 596.479 2158
25.2113 595.097 2153
30.3598 595.097 2153
35.5083 595.097 2153
40.4868 592.609 2144
45.6137 592.609 2144
50.7407 592.609 2144
55.8155 592.056 2142
60.9377 592.056 2142
66.3991 595.097 2153
71.5476 595.097 2153
76.6961 595.097 2153
81.8445 595.097 2153
86.6294 592.609 2144
91.7563 592.609 2144
96.8833 592.609 2144
102.01 592.609 2144
107.137 592.609 2144
112.264 592.609 2144
117.391 592.609 2144
122.861 594.268 2150
128.002 594.268 2150
133.144 594.268 2150
138.285 594.268 2150
143.226 593.438 2147
148.913 595.65 2155
154.495 597.308 2161
160.106 598.966 2167
165.288 598.966 2167
171.335 602.007 2178
176.787 602.836 2181
182.002 602.836 2181
187.218 602.836 2181
487.601 868.46 3142
495.114 868.46 3142
502.628 868.46 3142
509.167 866.802 3136
516.666 866.802 3136
523.162 865.143 3130
528.613 861.826 3118
536.069 861.826 3118
543.525 861.826 3118
546.917 855.469 3095
552.348 852.429 3084
555.548 846.071 3061
562.868 846.071 3061
564.041 836.95 3028
565.056 827.829 2995
569.161 823.406 2979
584.603 835.292 3022
593.983 838.332 3033
601.236 838.332 3033
608.489 838.332 3033
615.742 838.332 3033
628.746 846.071 3061
636.066 846.071 3061
648.22 852.429 3084
664.098 863.485 3124
671.568 863.485 3124
679.039 863.485 3124
690.465 868.46 3142
697.978 868.46 3142
705.492 868.46 3142
713.005 868.46 3142
720.519 868.46 3142
730.812 871.777 3154
741.164 875.094 3166
748.735 875.094 3166
757.739 876.752 3172
765.324 876.752 3172
772.909 876.752 3172
780.495 876.752 3172
788.08 876.752 3172
794.16 875.094 3166
801.731 875.094 3166
809.302 875.094 3166
816.873 875.094 3166
824.443 875.094 3166
830.438 873.435 3160
837.994 873.435 3160
843.945 871.777 3154
851.487 871.777 3154
857.395 870.118 3148
864.923 870.118 3148
872.451 870.118 3148
876.624 866.802 3136
882.432 865.143 3130
893.328 868.46 3142
900.842 868.46 3142
910.09 870.118 3148
922.865 875.094 3166
933.962 878.41 3178
941.562 878.41 3178
956.329 885.044 3202
973.319 893.613 3233
984.995 897.206 3246
992.757 897.206 3246
1010.38 906.051 3278
1025.99 912.961 3303
1044.53 922.359 3337
1052.51 922.359 3337
1073.2 933.415 3377
1088 939.219 3398
1105.16 946.959 3426
1113.35 946.959 3426
1126.12 950.828 3440
1141.28 956.633 3461
1151.88 958.568 3468
1160.17 958.568 3468
1168.46 958.568 3468
1179.47 960.779 3476
1187.78 960.779 3476
1196.09 960.779 3476
1199.21 956.633 3461
1207.49 956.633 3461
1213.3 954.698 3454
1221.56 954.698 3454
1229.82 954.698 3454
1225.54 945.024 3419
1228.66 941.154 3405
1236.8 941.154 3405
1244.95 941.154 3405
1253.09 941.154 3405
1261.23 941.154 3405
1274.59 945.024 3419
1282.77 945.024 3419
1312.47 960.779 3476
1323.44 962.714 3483
1331.77 962.714 3483
1340.1 962.714 3483
1348.42 962.714 3483
1354.03 960.779 3476
1340 945.024 3419
1348.17 945.024 3419
1353.57 943.089 3412
1361.73 943.089 3412
1364.27 939.219 3398
1372.4 939.219 3398
1369.15 931.48 3370
1377.2 931.48 3370
1385.26 931.48 3370
1393.32 931.48 3370
1393.06 925.952 3350
1401.08 925.952 3350
1409.09 925.952 3350
1417.1 925.952 3350
1422.13 924.017 3343
1427.56 922.359 3337
1426.93 916.831 3317
1426.21 911.302 3297
1434.1 911.302 3297
1436.3 907.709 3284
1438.43 904.116 3271
1443.6 902.458 3265
1451.41 902.458 3265
1456.09 900.523 3258
1463.88 900.523 3258
1471.67 900.523 3258
1479.46 900.523 3258
1487.25 900.523 3258
1492.29 898.864 3252
1500.07 898.864 3252
1507.84 898.864 3252
1515.62 898.864 3252
1523.4 898.864 3252
1531.17 898.864 3252
1538.95 898.864 3252
1546.72 898.864 3252
1551.63 897.206 3246
1553.15 893.613 3233
1560.88 893.613 3233
1568.61 893.613 3233
1573.42 891.954 3227
1578.19 890.296 3221
1582.45 888.361 3214
1590.14 888.361 3214
1591.86 885.044 3202
1590.52 880.069 3184
1592.11 876.752 3172
1599.7 876.752 3172
1592.08 868.46 3142
1593.49 865.143 3130
1591.76 860.168 3112
1581.73 850.77 3078
1589.09 850.77 3078
1573.11 838.332 3033
1549.62 822.024 2974
1548.36 817.602 2958
1555.43 817.602 2958
1548.77 810.415 2932
1544.64 804.611 2911
1538.28 797.701 2886
1537.15 793.555 2871
1544.01 793.555 2871
1543.32 789.685 2857
1547.44 788.303 2852
1554.26 788.303 2852
1561.08 788.303 2852
1567.9 788.303 2852
1569.19 785.539 2842
1573.22 784.157 2837
1580 784.157 2837
1586.79 784.157 2837
1602 788.303 2852
1611.64 789.685 2857
1623.57 792.173 2866
1636.11 794.937 2876
1642.99 794.937 2876
1658.47 799.083 2891
1701.1 816.22 2953
1708.16 816.22 2953
1715.22 816.22 2953
1722.28 816.22 2953
1950.12 920.424 3330
1958.09 920.424 3330
1993.8 933.415 3377
2043.37 952.763 3447
2064.11 958.568 3468
2072.4 958.568 3468
2080.7 958.568 3468
2088.99 958.568 3468
2106.35 962.714 3483
2114.68 962.714 3483
2123.01 962.714 3483
2131.34 962.714 3483
2139.67 962.714 3483
2143.68 960.779 3476
2147.04 958.568 3468
2155.33 958.568 3468
2154.89 954.698 3454
2163.15 954.698 3454
2114.2 929.545 3363
2105.84 922.359 3337
2101.15 916.831 3317
2109.08 916.831 3317
2071.7 897.206 3246
2043.59 881.727 3190
2051.21 881.727 3190
2058.84 881.727 3190
2070.36 883.386 3196
2078 883.386 3196
2085.64 883.386 3196
2089.36 881.727 3190
2096.98 881.727 3190
2104.61 881.727 3190
2170.51 906.051 3278
2212.9 920.424 3330
2266.22 939.219 3398
2274.34 939.219 3398
2305.98 948.893 3433
2328.34 954.698 3454
2336.6 954.698 3454
2344.86 954.698 3454
2353.12 954.698 3454
2337.45 945.024 3419
2345.63 945.024 3419
2329.71 935.35 3384
2319.15 927.887 3357
2299.45 916.831 3317
2284.42 907.709 3284
2292.28 907.709 3284
2300.13 907.709 3284
2294.63 902.458 3265
2279.87 893.613 3233
2287.6 893.613 3233
2286.81 890.296 3221
2294.52 890.296 3221
2302.22 890.296 3221
2309.92 890.296 3221
2312.59 888.361 3214
2302.95 881.727 3190
2301.88 878.41 3178
2296.4 873.435 3160
2303.96 873.435 3160
2311.51 873.435 3160
2323.47 875.094 3166
2331.05 875.094 3166
2338.62 875.094 3166
2346.19 875.094 3166
2353.76 875.094 3166
2361.33 875.094 3166
2368.9 875.094 3166
2376.47 875.094 3166
2384.04 875.094 3166
2378.02 870.118 3148
2403.73 876.752 3172
2411.32 876.752 3172
2418.9 876.752 3172
2426.49 876.752 3172
-2416.13 899.685 3227
-2422.6 904.982 3246
-2414.84 904.982 3246
-2407.07 904.982 3246
-2293.15 924.776 3317
-2285.22 924.776 3317
-2277.29 924.776 3317
-2229.23 955.166 3426
-2221.04 955.166 3426
-2212.85 955.166 3426
-2204.66 955.166 3426
-2196.46 955.166 3426
-2199.69 971.057 3483
-2191.36 971.057 3483
-2191.81 974.96 3497
-2192.81 979.142 3512
-2207.43 989.458 3549
-2198.94 989.458 3549
-2190.45 989.458 3549
-2181.97 989.458 3549
-2173.48 989.458 3549
-2098.5 959.069 3440
-2086.02 957.117 3433
-2082.05 959.069 3440
-2073.82 959.069 3440
-2065.6 959.069 3440
-2057.37 959.069 3440
-2040.8 955.166 3426
-2032.61 955.166 3426
-2020.28 953.214 3419
-1999.75 947.359 3398
-1979.31 941.504 3377
-1971.24 941.504 3377
-1928.28 924.776 3317
-1886.19 908.327 3258
-1871.48 904.982 3246
-1863.72 904.982 3246
-1855.96 904.982 3246
-1848.2 904.982 3246
-1833.06 901.357 3233
-1825.33 901.357 3233
-1810.86 898.012 3221
-1799.23 896.06 3214
-1788.2 894.387 3208
-1780.53 894.387 3208
-1776.18 896.06 3214
-1768.49 896.06 3214
-1774.5 903.03 3239
-1791.3 915.576 3284
-1797.57 922.825 3310
-1789.65 922.825 3310
-1785.51 924.776 3317
-1780.79 926.449 3323
-1780.31 930.352 3337
-1772.33 930.352 3337
-1771.23 933.977 3350
-1763.22 933.977 3350
-1769.35 941.504 3377
-1761.28 941.504 3377
-1753.2 941.504 3377
-1635.08 903.03 3239
-1627.34 903.03 3239
-1619.59 903.03 3239
-1605.88 899.685 3227
-1598.16 899.685 3227
-1590.44 899.685 3227
-1582.73 899.685 3227
-1572.08 898.012 3221
-1564.38 898.012 3221
-1553.29 896.06 3214
-1551.86 899.685 3227
-1544.14 899.685 3227
-1536.43 899.685 3227
-1528.71 899.685 3227
-1518.16 898.012 3221
-1501.55 892.715 3202
-1496.69 894.387 3208
-1489.02 894.387 3208
-1481.35 894.387 3208
-1473.68 894.387 3208
-1466.01 894.387 3208
-1458.34 894.387 3208
-1437.1 886.023 3178
-1443 894.387 3208
-1435.32 894.387 3208
-1427.65 894.387 3208
-1419.98 894.387 3208
-1409.67 892.715 3202
-1402.01 892.715 3202
-1370.84 877.659 3148
-1363.31 877.659 3148
-1353.2 875.987 3142
-1355.97 882.678 3166
-1353.51 886.023 3178
-1345.91 886.023 3178
-1350.94 894.387 3208
-1351.22 899.685 3227
-1348.5 903.03 3239
-1340.76 903.03 3239
-1333.01 903.03 3239
-1330.59 906.655 3252
-1322.81 906.655 3252
-1315.03 906.655 3252
-1304.85 904.982 3246
-1297.08 904.982 3246
-1289.32 904.982 3246
-1281.56 904.982 3246
-1271.05 903.03 3239
-1256.28 898.012 3221
-1248.58 898.012 3221
-1238.18 896.06 3214
-1228.2 894.387 3208
-1218.25 892.715 3202
-1210.59 892.715 3202
-1202.93 892.715 3202
-1193.03 891.042 3196
-1180.94 887.696 3184
-1173.33 887.696 3184
-1161.32 884.351 3172
-1136.28 870.968 3124
-1126.64 869.295 3118
-1119.18 869.295 3118
-1111.73 869.295 3118
-1092.23 859.816 3084
-595.54 962.972 3454
-587.281 962.972 3454
-579.021 962.972 3454
-570.762 962.972 3454
-562.502 962.972 3454
-551.996 959.069 3440
-540.45 953.214 3419
-532.275 953.214 3419
-524.099 953.214 3419
-514.867 951.262 3412
-505.668 949.311 3405
-493.434 941.504 3377
-485.359 941.504 3377
-476.294 939.553 3370
-468.235 939.553 3370
-460.177 939.553 3370
-452.118 939.553 3370
-444.059 939.553 3370
-436.001 939.553 3370
-425.402 933.977 3350
-417.391 933.977 3350
-409.38 933.977 3350
-402.927 937.601 3363
-398.995 947.359 3398
-392.48 951.262 3412
-384.321 951.262 3412
-381.564 964.924 3461
-374.905 969.106 3476
-369.651 977.191 3505
-361.27 977.191 3505
-352.888 977.191 3505
-344.507 977.191 3505
-336.125 977.191 3505
-149.863 621.722 2230
-144.53 621.722 2230
-139.198 621.722 2230
-133.685 620.885 2227
-128.36 620.885 2227
-122.261 616.982 2213
-116.493 614.473 2204
-110.92 612.8 2198
-105.664 612.8 2198
-100.408 612.8 2198
-95.1517 612.8 2198
-89.7729 611.964 2195
-84.4085 611.128 2192
-79.1667 611.128 2192
-73.925 611.128 2192
-68.6833 611.128 2192
-63.3547 610.291 2189
-58.1201 610.291 2189
-52.8856 610.291 2189
-47.4769 608.061 2181
-42.1452 606.388 2175
-36.9441 606.388 2175
-31.743 606.388 2175
-26.5419 606.388 2175
-21.3408 606.388 2175
-16.1397 606.388 2175
-10.9387 606.388 2175
-5.72966 605.552 2172
-0.535009 604.715 2169
4.65173 604.715 2169
9.81578 603.321 2164
14.9698 602.485 2161
20.1094 601.648 2158
25.2113 600.254 2153
30.3598 600.254 2153
35.5083 600.254 2153
40.4868 597.745 2144
45.6137 597.745 2144
50.7407 597.745 2144
55.8155 597.188 2142
60.9377 597.188 2142
66.3991 600.254 2153
71.5476 600.254 2153
76.6961 600.254 2153
81.8445 600.254 2153
86.6294 597.745 2144
91.7563 597.745 2144
96.8833 597.745 2144
102.01 597.745 2144
107.137 597.745 2144
112.264 597.745 2144
117.391 597.745 2144
122.861 599.418 2150
128.002 599.418 2150
133.144 599.418 2150
138.285 599.418 2150
143.226 598.582 2147
148.913 600.812 2155
154.495 602.485 2161
159.884 603.321 2164
165.059 603.321 2164
171.335 607.224 2178
176.544 607.224 2178
181.752 607.224 2178
186.96 607.224 2178
487.601 875.987 3142
495.114 875.987 3142
502.628 875.987 3142
509.167 874.314 3136
516.666 874.314 3136
523.162 872.641 3130
528.613 869.295 3118
536.069 869.295 3118
543.525 869.295 3118
546.917 862.883 3095
552.348 859.816 3084
555.548 853.404 3061
562.868 853.404 3061
564.041 844.204 3028
565.056 835.003 2995
569.161 830.542 2979
582.475 839.464 3011
591.829 842.531 3022
599.056 842.531 3022
607.486 844.204 3028
614.727 844.204 3028
627.513 851.731 3055
634.819 851.731 3055
648.22 859.816 3084
664.098 870.968 3124
671.568 870.968 3124
679.039 870.968 3124
689.146 874.314 3136
696.645 874.314 3136
705.492 875.987 3142
713.005 875.987 3142
720.519 875.987 3142
729.422 877.659 3148
741.164 882.678 3166
748.735 882.678 3166
757.739 884.351 3172
766.772 886.023 3178
774.371 886.023 3178
781.971 886.023 3178
788.08 884.351 3172
795.665 884.351 3172
803.25 884.351 3172
810.835 884.351 3172
818.421 884.351 3172
824.443 882.678 3166
830.438 881.005 3160
837.994 881.005 3160
845.551 881.005 3160
853.107 881.005 3160
859.029 879.332 3154
866.572 879.332 3154
872.451 877.659 3148
876.624 874.314 3136
884.123 874.314 3136
895.034 877.659 3148
902.562 877.659 3148
913.559 881.005 3160
922.865 882.678 3166
933.962 886.023 3178
941.562 886.023 3178
956.329 892.715 3202
973.319 901.357 3233
984.995 904.982 3246
992.757 904.982 3246
1010.38 913.903 3278
1025.99 920.873 3303
1044.53 930.352 3337
1052.51 930.352 3337
1073.2 941.504 3377
1088 947.359 3398
1105.16 955.166 3426
1113.35 955.166 3426
1126.12 959.069 3440
1141.28 964.924 3461
1151.88 966.875 3468
1160.17 966.875 3468
1168.46 966.875 3468
1179.47 969.106 3476
1187.78 969.106 3476
1196.09 969.106 3476
1199.21 964.924 3461
1207.49 964.924 3461
1213.3 962.972 3454
1221.56 962.972 3454
1229.82 962.972 3454
1225.54 953.214 3419
1228.66 949.311 3405
1236.8 949.311 3405
1244.95 949.311 3405
1253.09 949.311 3405
1261.23 949.311 3405
1274.59 953.214 3419
1282.77 953.214 3419
1312.47 969.106 3476
1323.44 971.057 3483
1331.77 971.057 3483
1340.1 971.057 3483
1348.42 971.057 3483
1354.03 969.106 3476
1340 953.214 3419
1348.17 953.214 3419
1353.57 951.262 3412
1361.73 951.262 3412
1364.27 947.359 3398
1372.4 947.359 3398
1369.15 939.553 3370
1380.07 941.504 3377
1388.14 941.504 3377
1396.22 941.504 3377
1398.47 937.601 3363
1401.08 933.977 3350
1409.09 933.977 3350
1417.1 933.977 3350
1422.13 932.025 3343
1430.12 932.025 3343
1426.93 924.776 3317
1426.21 919.201 3297
1434.1 919.201 3297
1436.3 915.576 3284
1438.43 911.952 3271
1443.6 910.279 3265
1451.41 910.279 3265
1456.09 908.327 3258
1463.88 908.327 3258
1471.67 908.327 3258
1479.46 908.327 3258
1487.25 908.327 3258
1492.29 906.655 3252
1500.07 906.655 3252
1507.84 906.655 3252
1515.62 906.655 3252
1523.4 906.655 3252
1531.17 906.655 3252
1538.95 906.655 3252
1546.72 906.655 3252
1551.63 904.982 3246
1553.15 901.357 3233
1560.88 901.357 3233
1568.61 901.357 3233
1573.42 899.685 3227
1578.19 898.012 3221
1582.45 896.06 3214
1590.14 896.06 3214
1591.86 892.715 3202
1590.52 887.696 3184
1592.11 884.351 3172
1599.7 884.351 3172
1592.08 875.987 3142
1593.49 872.641 3130
1591.76 867.623 3112
1584.82 859.816 3084
1592.19 859.816 3084
1573.11 845.598 3033
1563.17 836.397 3000
1556.74 829.148 2974
1563.85 829.148 2974
1556.7 821.621 2947
1547.83 813.257 2917
1543.61 807.402 2896
1539.83 801.826 2876
1546.7 801.826 2876
1548.18 799.038 2866
1552.86 797.923 2862
1559.71 797.923 2862
1566.55 797.923 2862
1573.39 797.923 2862
1577.48 796.529 2857
1578.76 793.741 2847
1588.36 795.135 2852
1595.18 795.135 2852
1607.61 797.923 2862
1622.35 801.826 2876
1632.06 803.22 2881
1644.64 806.008 2891
1651.56 806.008 2891
1667.07 810.19 2906
1706.86 826.082 2963
1735.35 836.397 3000
1742.52 836.397 3000
1749.69 836.397 3000
1950.12 928.401 3330
1958.09 928.401 3330
1993.8 941.504 3377
2043.37 961.02 3447
2064.11 966.875 3468
2072.4 966.875 3468
2080.7 966.875 3468
2088.99 966.875 3468
2106.35 971.057 3483
2114.68 971.057 3483
2123.01 971.057 3483
2131.34 971.057 3483
2139.67 971.057 3483
2143.68 969.106 3476
2147.04 966.875 3468
2155.33 966.875 3468
2154.89 962.972 3454
2163.15 962.972 3454
2114.2 937.601 3363
2105.84 930.352 3337
2101.15 924.776 3317
2109.08 924.776 3317
2071.7 904.982 3246
2043.59 889.369 3190
2051.21 889.369 3190
2054.97 887.696 3184
2062.58 887.696 3184
2066.3 886.023 3178
2073.9 886.023 3178
2077.57 884.351 3172
2085.15 884.351 3172
2092.74 884.351 3172
2100.32 884.351 3172
2135.82 896.06 3214
2177.52 910.279 3265
2185.32 910.279 3265
2282.47 947.359 3398
2300.03 951.262 3412
2312.93 953.214 3419
2321.1 953.214 3419
2329.28 953.214 3419
2313.53 943.456 3384
2321.62 943.456 3384
2292.53 928.401 3330
2291.52 924.776 3317
2276.57 915.576 3284
2257.99 904.982 3246
2265.75 904.982 3246
2268.61 903.03 3239
2272.14 901.357 3233
2271.41 898.012 3221
2279.11 898.012 3221
2277.58 894.387 3208
2285.26 894.387 3208
2292.93 894.387 3208
2300.6 894.387 3208
2308.27 894.387 3208
2298.62 887.696 3184
2293.19 882.678 3166
2292.04 879.332 3154
2299.58 879.332 3154
2298.35 875.987 3142
2314.67 879.332 3154
2322.21 879.332 3154
2329.75 879.332 3154
2337.29 879.332 3154
2340.38 877.659 3148
2356.85 881.005 3160
2364.41 881.005 3160
2371.97 881.005 3160
2375.01 879.332 3154
2378.02 877.659 3148
2390.09 879.332 3154
2411.32 884.351 3172
2418.9 884.351 3172
2426.49 884.351 3172
-2416.13 907.415 3227
-2422.6 912.758 3246
-2414.84 912.758 3246
-2407.07 912.758 3246
-2293.15 932.722 3317
-2285.22 932.722 3317
-2277.29 932.722 3317
-2229.23 963.373 3426
-2221.04 963.373 3426
-2212.85 963.373 3426
-2204.66 963.373 3426
-2196.46 963.373 3426
-2199.69 979.401 3483
-2191.36 979.401 3483
-2191.81 983.337 3497
-2192.81 987.555 3512
-2207.43 997.959 3549
-2198.94 997.959 3549
-2190.45 997.959 3549
-2181.97 997.959 3549
-2173.48 997.959 3549
-2098.5 967.309 3440
-2086.02 965.341 3433
-2082.05 967.309 3440
-2073.82 967.309 3440
-2065.6 967.309 3440
-2057.37 967.309 3440
-2040.8 963.373 3426
-2032.61 963.373 3426
-2020.28 961.404 3419
-1999.75 955.499 3398
-1979.31 949.594 3377
-1971.24 949.594 3377
-1928.28 932.722 3317
-1886.19 916.132 3258
-1871.48 912.758 3246
-1863.72 912.758 3246
-1855.96 912.758 3246
-1848.2 912.758 3246
-1833.06 909.102 3233
-1825.33 909.102 3233
-1800.17 900.385 3202
-1792.52 900.385 3202
-1784.86 900.385 3202
-1777.2 900.385 3202
-1769.55 900.385 3202
-1761.89 900.385 3202
-1760.81 903.759 3214
-1805.49 930.754 3310
-1797.57 930.754 3310
-1789.65 930.754 3310
-1788.74 934.41 3323
-1784.54 936.378 3330
-1787.25 942.002 3350
-1779.24 942.002 3350
-1774.93 943.97 3357
-1770.06 945.657 3363
-1762.02 945.657 3363
-1753.98 945.657 3363
-1739.18 942.002 3350
-1635.08 910.789 3239
-1627.34 910.789 3239
-1619.59 910.789 3239
-1605.88 907.415 3227
-1598.16 907.415 3227
-1590.44 907.415 3227
-1576.35 903.759 3214
-1559.88 898.698 3196
-1555.15 900.385 3202
-1547.49 900.385 3202
-1539.84 900.385 3202
-1532.18 900.385 3202
-1524.52 900.385 3202
-1516.87 900.385 3202
-1506.38 898.698 3196
-1490.3 893.636 3178
-1485.5 895.323 3184
-1477.88 895.323 3184
-1470.27 895.323 3184
-1462.66 895.323 3184
-1455.04 895.323 3184
-1444.7 893.636 3178
-1434.39 891.949 3172
-1424.1 890.262 3166
-1416.53 890.262 3166
-1408.96 890.262 3166
-1393.42 885.201 3148
-1385.9 885.201 3148
-1375.74 883.513 3142
-1368.23 883.513 3142
-1360.71 883.513 3142
-1353.2 883.513 3142
-1343.12 881.826 3136
-1340.73 885.201 3148
-1333.2 885.201 3148
-1338.31 893.636 3178
-1335.73 897.011 3190
-1338.1 903.759 3214
-1330.41 903.759 3214
-1325.61 905.728 3221
-1317.9 905.728 3221
-1310.2 905.728 3221
-1302.5 905.728 3221
-1299.62 909.102 3233
-1291.89 909.102 3233
-1284.16 909.102 3233
-1274.06 907.415 3227
-1261.24 903.759 3214
-1248.87 900.385 3202
-1241.22 900.385 3202
-1233.56 900.385 3202
-1223.61 898.698 3196
-1215.96 898.698 3196
-1208.32 898.698 3196
-1200.68 898.698 3196
-1188.56 895.323 3184
-1180.94 895.323 3184
-1173.33 895.323 3184
-1152.53 885.201 3148
-1134.09 876.765 3118
-1116.16 868.61 3089
-1108.77 868.61 3089
-1101.39 868.61 3089
-1087.98 863.83 3072
-1059.17 846.677 3011
-537.131 955.499 3398
-529.005 955.499 3398
-520.88 955.499 3398
-509.585 949.594 3377
-498.54 943.97 3357
-486.567 936.378 3330
-478.604 936.378 3330
-470.641 936.378 3330
-464.484 940.033 3343
-456.49 940.033 3343
-448.496 940.033 3343
-440.502 940.033 3343
-432.507 940.033 3343
-421.974 934.41 3323
-414.027 934.41 3323
-406.936 936.378 3330
-398.973 936.378 3330
-394.885 945.657 3363
-389.259 951.562 3384
-384.321 959.436 3412
-376.161 959.436 3412
-373.287 973.214 3461
-368.069 981.369 3490
-359.724 981.369 3490
-352.083 983.337 3497
-343.72 983.337 3497
-335.358 983.337 3497
-149.863 627.064 2230
-144.53 627.064 2230
-139.198 627.064 2230
-133.685 626.22 2227
-128.36 626.22 2227
-122.261 622.284 2213
-116.652 620.596 2207
-110.92 618.066 2198
-105.664 618.066 2198
-100.408 618.066 2198
-95.1517 618.066 2198
-89.7729 617.222 2195
-84.524 617.222 2195
-79.2751 617.222 2195
-74.0262 617.222 2195
-68.6833 616.378 2192
-63.3547 615.535 2189
-58.1201 615.535 2189
-52.8856 615.535 2189
-47.5422 614.129 2184
-42.2033 612.442 2178
-36.995 612.442 2178
-31.7868 612.442 2178
-26.6151 613.285 2181
-21.3997 613.285 2181
-16.1843 613.285 2181
-10.9537 612.442 2178
-5.73757 611.598 2175
-0.535749 610.755 2172
4.65816 610.755 2172
9.81578 608.505 2164
14.9906 608.505 2164
20.1094 606.818 2158
25.2347 605.974 2155
30.388 605.974 2155
35.5413 605.974 2155
40.5434 603.725 2147
45.6137 602.881 2144
50.7407 602.881 2144
55.8676 602.881 2144
60.9946 602.881 2144
66.3991 605.412 2153
71.5476 605.412 2153
76.6961 605.412 2153
81.8445 605.412 2153
86.6294 602.881 2144
91.7563 602.881 2144
96.8833 602.881 2144
102.01 602.881 2144
107.287 603.725 2147
112.421 603.725 2147
117.555 603.725 2147
122.689 603.725 2147
127.824 603.725 2147
132.958 603.725 2147
138.092 603.725 2147
143.226 603.725 2147
148.775 605.412 2153
154.066 605.974 2155
159.663 607.661 2161
164.83 607.661 2161
170.627 609.911 2169
176.3 611.598 2175
181.501 611.598 2175
186.703 611.598 2175
191.198 609.349 2167
487.601 883.513 3142
495.114 883.513 3142
502.628 883.513 3142
510.141 883.513 3142
517.655 883.513 3142
525.168 883.513 3142
530.647 880.139 3130
538.132 880.139 3130
545.617 880.139 3130
549.921 875.077 3112
556.467 873.672 3107
557.545 863.83 3072
564.891 863.83 3072
567.021 855.956 3044
567.131 845.271 3006
572.217 842.178 2995
579.379 842.178 2995
590.85 848.364 3017
598.064 848.364 3017
605.279 848.364 3017
614.727 851.457 3028
624.227 854.55 3039
631.494 854.55 3039
644.647 862.424 3067
657.933 870.297 3095
668.989 875.077 3112
676.43 875.077 3112
685.191 876.765 3118
692.647 876.765 3118
704.144 881.826 3136
711.643 881.826 3136
719.143 881.826 3136
729.422 885.201 3148
741.164 890.262 3166
748.735 890.262 3166
757.739 891.949 3172
766.772 893.636 3178
774.371 893.636 3178
781.971 893.636 3178
788.08 891.949 3172
795.665 891.949 3172
