-244.356 964.997 2911
-237.395 964.997 2911
-230.434 964.997 2911
-223.089 963.34 2906
-215.024 958.367 2891
-208.831 961.682 2901
-201.894 961.682 2901
-195.628 964.997 2911
-188.667 964.997 2911
-181.706 964.997 2911
-110.92 728.638 2198
-106.097 731.621 2207
-100.956 732.616 2210
-95.6712 732.616 2210
-90.3864 732.616 2210
-85.1016 732.616 2210
-79.8168 732.616 2210
-74.4309 731.621 2207
-69.1533 731.621 2207
-63.8757 731.621 2207
-58.598 731.621 2207
-53.3204 731.621 2207
-47.9775 730.627 2204
-42.5908 728.638 2198
-37.3348 728.638 2198
-32.0787 728.638 2198
-26.7494 726.649 2192
-21.4291 723.997 2184
-16.2065 723.997 2184
-10.9688 723.002 2181
-5.73757 721.013 2175
-0.536489 721.013 2175
4.6646 721.013 2175
9.85207 720.019 2172
15.0252 719.024 2169
20.2119 719.024 2169
25.3987 719.024 2169
30.4726 716.372 2161
35.5413 714.383 2155
40.6945 714.383 2155
45.8478 714.383 2155
51.072 715.378 2158
56.2325 715.378 2158
61.5636 717.367 2164
66.8309 718.361 2167
72.0128 718.361 2167
77.1948 718.361 2167
239.363 978.92 2953
247.259 982.235 2963
254.774 983.893 2968
261.871 983.893 2968
268.969 983.893 2968
274.671 978.92 2953
281.732 978.92 2953
286.74 971.959 2932
292.249 966.986 2917
299.224 966.986 2917
306.724 968.644 2922
314.249 970.301 2927
321.248 970.301 2927
328.247 970.301 2927
336.965 975.274 2942
350.197 992.843 2995
357.359 992.843 2995
369.146 1005.44 3033
376.399 1005.44 3033
384.41 1007.43 3039
391.678 1007.43 3039
398.945 1007.43 3039
406.212 1007.43 3039
416.472 1014.72 3061
423.792 1014.72 3061
431.112 1014.72 3061
436.856 1011.08 3050
444.15 1011.08 3050
449.815 1007.43 3039
458.737 1011.08 3050
470.308 1020.36 3078
482.169 1029.97 3107
489.599 1029.97 3107
497.029 1029.97 3107
504.459 1029.97 3107
511.888 1029.97 3107
518.315 1027.98 3101
525.731 1027.98 3101
531.083 1024 3089
538.47 1024 3089
542.852 1018.37 3072
551.273 1020.36 3078
558.634 1020.36 3078
565.994 1020.36 3078
573.354 1020.36 3078
580.715 1020.36 3078
589.222 1022.35 3084
598.724 1025.99 3095
608.475 1029.97 3107
615.905 1029.97 3107
623.335 1029.97 3107
628.329 1025.99 3095
635.73 1025.99 3095
640.845 1022.35 3084
643.385 1014.72 3061
649.43 1012.73 3055
661.68 1020.36 3078
669.04 1020.36 3078
678.818 1024 3089
686.204 1024 3089
693.591 1024 3089
700.978 1024 3089
704.466 1018.37 3072
707.873 1012.73 3055
715.179 1012.73 3055
719.883 1009.09 3044
723.34 1003.78 3028
727.927 1000.14 3017
735.141 1000.14 3017
742.356 1000.14 3017
749.57 1000.14 3017
758.039 1001.79 3022
770.837 1009.09 3044
780.928 1012.73 3055
788.233 1012.73 3055
795.538 1012.73 3055
802.844 1012.73 3055
816.249 1020.36 3078
823.609 1020.36 3078
830.969 1020.36 3078
838.33 1020.36 3078
853.658 1029.97 3107
861.088 1029.97 3107
869.915 1031.63 3112
880.74 1035.61 3124
888.211 1035.61 3124
895.681 1035.61 3124
903.152 1035.61 3124
910.622 1035.61 3124
918.092 1035.61 3124
925.563 1035.61 3124
931.241 1033.62 3118
938.697 1033.62 3118
946.153 1033.62 3118
950.245 1029.97 3107
948.736 1020.36 3078
956.097 1020.36 3078
968.778 1025.99 3095
976.18 1025.99 3095
983.581 1025.99 3095
987.46 1022.35 3084
990.964 1018.37 3072
1000.26 1020.36 3078
1007.62 1020.36 3078
1018.61 1024 3089
1025.99 1024 3089
1033.38 1024 3089
1040.77 1024 3089
1046.46 1022.35 3084
1053.83 1022.35 3084
1061.21 1022.35 3084
1058.53 1012.73 3055
1065.84 1012.73 3055
1067.52 1007.43 3039
1074.79 1007.43 3039
1083.84 1009.09 3044
1091.12 1009.09 3044
1098.4 1009.09 3044
1103.86 1007.43 3039
1111.13 1007.43 3039
1110.3 1000.14 3017
1105.29 989.197 2984
1112.43 989.197 2984
1119.56 989.197 2984
1120.66 983.893 2968
1130.03 985.882 2974
1137.14 985.882 2974
1144.26 985.882 2974
1143.24 978.92 2953
1146.01 975.274 2942
1138.94 963.34 2906
1205.82 983.893 2968
1212.92 983.893 2968
1224.54 987.539 2979
1231.66 987.539 2979
1238.79 987.539 2979
1243.82 985.882 2974
1250.93 985.882 2974
1244.51 975.274 2942
1251.54 975.274 2942
1258.58 975.274 2942
1265.61 975.274 2942
1286.49 985.882 2974
1293.6 985.882 2974
1300.71 985.882 2974
1307.83 985.882 2974
1263.21 947.096 2857
1500.79 1035.61 3124
1508.26 1035.61 3124
1518.64 1037.6 3130
1526.12 1037.6 3130
1533.61 1037.6 3130
1521.76 1014.72 3061
1529.08 1014.72 3061
1536.4 1014.72 3061
1538.17 1011.08 3050
1545.46 1011.08 3050
1519.16 989.197 2984
1556.98 1009.09 3044
1567.34 1011.08 3050
1574.64 1011.08 3050
1581.93 1011.08 3050
1586.1 1009.09 3044
1573.49 996.49 3006
1580.68 996.49 3006
1570.96 985.882 2974
1572.23 982.235 2963
1570.79 976.931 2947
1577.84 976.931 2947
1602.1 987.539 2979
1609.22 987.539 2979
1657.58 1012.73 3055
1664.88 1012.73 3055
1672.19 1012.73 3055
1679.5 1012.73 3055
1581.75 937.483 2828
1588.51 937.483 2828
1595.28 937.483 2828
1621.3 948.754 2862
1628.14 948.754 2862
1720.11 998.147 3011
1727.31 998.147 3011
1734.51 998.147 3011
-1907.63 1024.06 3067
-1900.3 1024.06 3067
-1892.96 1024.06 3067
-1924.36 1045.09 3130
-1920.55 1047.1 3136
-1913.05 1047.1 3136
-1909.2 1049.1 3142
-1905.32 1051.1 3148
-1897.79 1051.1 3148
-1890.26 1051.1 3148
-1882.73 1051.1 3148
-1875.2 1051.1 3148
-1867.68 1051.1 3148
-1860.15 1051.1 3148
-1849.09 1049.1 3142
-1841.58 1049.1 3142
-1025.42 1014.71 3039
-1018.15 1014.71 3039
-1033.51 1037.41 3107
-1026.08 1037.41 3107
-1018.65 1037.41 3107
-1009.26 1035.41 3101
-996.356 1029.73 3084
-988.981 1029.73 3084
-981.606 1029.73 3084
-972.336 1027.73 3078
-964.976 1027.73 3078
-954.193 1024.06 3067
-950.255 1027.73 3078
-942.894 1027.73 3078
-937.358 1029.73 3084
-936.919 1037.41 3107
-929.489 1037.41 3107
-922.059 1037.41 3107
-911.097 1033.41 3095
-898.732 1027.73 3078
-891.371 1027.73 3078
-880.852 1024.06 3067
-865.543 1014.71 3039
-856.581 1012.71 3033
-849.328 1012.71 3033
-842.076 1012.71 3033
-833.446 1011.04 3028
-820.203 1003.69 3006
-813.015 1003.69 3006
-802.877 1000.02 2995
-797.044 1001.69 3000
-789.87 1001.69 3000
-782.696 1001.69 3000
-772.937 998.348 2990
-765.787 998.348 2990
-755.846 994.675 2979
-744.701 989.333 2963
-737.616 989.333 2963
-726.585 983.991 2947
-715.876 978.982 2932
-707.656 977.313 2927
-700.656 977.313 2927
-689.865 971.971 2911
-681.731 970.301 2906
-674.782 970.301 2906
-670.361 973.974 2917
-663.385 973.974 2917
-656.41 973.974 2917
-650.548 975.643 2922
-643.56 975.643 2922
-636.573 975.643 2922
-632.818 980.652 2937
-625.794 980.652 2937
-618.771 980.652 2937
-611.748 980.652 2937
-608.019 985.994 2953
-600.957 985.994 2953
-593.896 985.994 2953
-586.834 985.994 2953
-579.773 985.994 2953
-574.651 989.333 2963
-567.565 989.333 2963
-560.48 989.333 2963
-555.449 993.006 2974
-552.209 1000.02 2995
-549.051 1007.36 3017
-541.836 1007.36 3017
-534.622 1007.36 3017
-527.407 1007.36 3017
-520.193 1007.36 3017
-513.828 1009.03 3022
-506.602 1009.03 3022
-499.375 1009.03 3022
-492.149 1009.03 3022
-484.922 1009.03 3022
-477.696 1009.03 3022
-473.894 1016.38 3044
-466.615 1016.38 3044
-460.241 1018.38 3050
-452.948 1018.38 3050
-445.654 1018.38 3050
-437.498 1016.38 3044
-430.219 1016.38 3044
-422.94 1016.38 3044
-410.472 1003.69 3006
-403.284 1003.69 3006
-396.096 1003.69 3006
-379.333 978.982 2932
-368.386 968.632 2901
-360.825 966.962 2896
-353.9 966.962 2896
-346.376 965.293 2891
-337.701 960.284 2876
-330.824 960.284 2876
-323.383 958.615 2871
-317.62 961.954 2881
-310.731 961.954 2881
-305.951 968.632 2901
-299.529 970.301 2906
-293.084 971.971 2911
-286.122 971.971 2911
-280.216 975.643 2922
-273.229 975.643 2922
-266.241 975.643 2922
-259.254 975.643 2922
-251.835 973.974 2917
-244.356 971.971 2911
-237.395 971.971 2911
-230.434 971.971 2911
-223.089 970.301 2906
-215.024 965.293 2891
-209.191 970.301 2906
-202.241 970.301 2906
-195.628 971.971 2911
-188.667 971.971 2911
-181.706 971.971 2911
-110.92 733.903 2198
-106.097 736.908 2207
-100.819 736.908 2207
-95.5413 736.908 2207
-90.2637 736.908 2207
-84.9861 736.908 2207
-79.7085 736.908 2207
-74.4309 736.908 2207
-69.1533 736.908 2207
-63.8757 736.908 2207
-58.598 736.908 2207
-53.3204 736.908 2207
-47.9775 735.906 2204
-42.5908 733.903 2198
-37.3348 733.903 2198
-32.0349 732.901 2195
-26.7128 730.898 2189
-21.4291 729.228 2184
-16.2065 729.228 2184
-10.9688 728.227 2181
-5.73757 726.223 2175
-0.536489 726.223 2175
4.6646 726.223 2175
9.86568 726.223 2175
15.046 725.222 2172
20.2119 724.22 2169
25.3987 724.22 2169
30.5149 722.55 2164
35.5907 720.547 2158
40.6945 719.545 2155
45.8052 718.878 2153
50.9537 718.878 2153
56.1022 718.878 2153
61.3929 720.547 2158
66.7384 722.55 2164
71.9131 722.55 2164
77.0879 722.55 2164
190.897 991.003 2968
197.995 991.003 2968
205.092 991.003 2968
212.19 991.003 2968
235.959 971.971 2911
245.09 980.652 2937
252.971 983.991 2947
260.018 983.991 2947
267.066 983.991 2947
274.113 983.991 2947
281.16 983.991 2947
286.74 978.982 2932
292.249 973.974 2917
299.224 973.974 2917
306.724 975.643 2922
314.249 977.313 2927
321.248 977.313 2927
328.247 977.313 2927
336.965 982.321 2942
348.911 996.345 2984
356.046 996.345 2984
365.86 1003.69 3006
376.399 1012.71 3033
384.41 1014.71 3039
391.678 1014.71 3039
398.945 1014.71 3039
406.212 1014.71 3039
414.976 1018.38 3050
422.269 1018.38 3050
429.563 1018.38 3050
433.705 1011.04 3028
440.946 1011.04 3028
448.187 1011.04 3028
457.834 1016.38 3044
467.711 1022.05 3061
476.738 1025.73 3072
484.084 1025.73 3072
491.43 1025.73 3072
498.776 1025.73 3072
506.122 1025.73 3072
513.468 1025.73 3072
519.966 1024.06 3067
527.301 1024.06 3067
534.635 1024.06 3067
541.969 1024.06 3067
549.303 1024.06 3067
556.637 1024.06 3067
563.971 1024.06 3067
569.07 1020.05 3055
576.375 1020.05 3055
585.974 1024.06 3067
596.596 1029.73 3084
603.971 1029.73 3084
611.346 1029.73 3084
618.721 1029.73 3084
626.095 1029.73 3084
633.47 1029.73 3084
637.312 1024.06 3067
641.073 1018.38 3050
647.091 1016.38 3044
656.735 1020.05 3055
664.041 1020.05 3055
673.983 1024.06 3067
681.317 1024.06 3067
688.651 1024.06 3067
695.986 1024.06 3067
700.568 1020.05 3055
704.166 1014.71 3039
711.433 1014.71 3039
716.099 1011.04 3028
720.712 1007.36 3017
723.825 1001.69 3000
729.78 1000.02 2995
736.942 1000.02 2995
741.371 996.345 2984
752.521 1001.69 3000
765.266 1009.03 3022
774.026 1011.04 3028
781.267 1011.04 3028
792.674 1016.38 3044
799.953 1016.38 3044
807.232 1016.38 3044
814.511 1016.38 3044
826.38 1022.05 3061
836.696 1025.73 3072
844.042 1025.73 3072
851.388 1025.73 3072
858.734 1025.73 3072
877.357 1039.08 3112
884.799 1039.08 3112
892.241 1039.08 3112
899.682 1039.08 3112
907.124 1039.08 3112
914.566 1039.08 3112
922.008 1039.08 3112
929.449 1039.08 3112
936.891 1039.08 3112
944.333 1039.08 3112
944.74 1031.4 3089
948.736 1027.73 3078
956.097 1027.73 3078
963.457 1027.73 3078
970.818 1027.73 3078
978.178 1027.73 3078
983.617 1025.73 3072
985.48 1020.05 3055
992.785 1020.05 3055
1000.09 1020.05 3055
1014.98 1027.73 3078
1024.33 1029.73 3084
1031.71 1029.73 3084
1039.08 1029.73 3084
1034.92 1018.38 3050
1042.21 1018.38 3050
1049.51 1018.38 3050
1052.99 1014.71 3039
1060.26 1014.71 3039
1061.55 1009.03 3022
1067.01 1007.36 3017
1074.23 1007.36 3017
1081.44 1007.36 3017
1088.65 1007.36 3017
1087.88 1000.02 2995
1095.04 1000.02 2995
1096.31 994.675 2979
1101.59 993.006 2974
1102.73 987.664 2958
1109.81 987.664 2958
1107.06 978.982 2932
1115.97 980.652 2937
1123 980.652 2937
1130.02 980.652 2937
1137.04 980.652 2937
1136.28 973.974 2917
1138.94 970.301 2906
1180.63 970.301 2906
1187.58 970.301 2906
1209.33 982.321 2942
1216.37 982.321 2942
1223.4 982.321 2942
1230.44 982.321 2942
1237.47 982.321 2942
1227.16 968.632 2901
1234.1 968.632 2901
1241.04 968.632 2901
1247.98 968.632 2901
1254.91 968.632 2901
1261.85 968.632 2901
1268.79 968.632 2901
1260.33 956.945 2866
1263.21 953.94 2857
1248.7 937.913 2809
1255.42 937.913 2809
1262.14 937.913 2809
1266.59 936.244 2804
1505.36 1041.09 3118
1512.82 1041.09 3118
1520.27 1041.09 3118
1535.68 1031.4 3089
1543.07 1031.4 3089
1550.45 1031.4 3089
1546.74 1024.06 3067
1554.08 1024.06 3067
1519.16 996.345 2984
1526.29 996.345 2984
1564.26 1016.38 3044
1571.54 1016.38 3044
1578.82 1016.38 3044
1577.76 1011.04 3028
1573.49 1003.69 3006
1580.68 1003.69 3006
1570.96 993.006 2974
1566.93 985.994 2953
1560.13 977.313 2927
1567.13 977.313 2927
1574.13 977.313 2927
1581.13 977.313 2927
1590.84 978.982 2932
1597.85 978.982 2932
1604.86 978.982 2932
1603.63 973.974 2917
1587.97 960.284 2876
1594.84 960.284 2876
1601.72 960.284 2876
1581.75 944.257 2828
1588.51 944.257 2828
1595.28 944.257 2828
1621.3 955.61 2862
1628.14 955.61 2862
1634.99 955.61 2862
1641.83 955.61 2862
-1907.63 1031.41 3067
-1900.3 1031.41 3067
-1892.96 1031.41 3067
-1906.53 1042.84 3101
-1899.12 1042.84 3101
-1891.7 1042.84 3101
-1901.91 1052.59 3130
-1894.42 1052.59 3130
-1886.94 1052.59 3130
-1879.45 1052.59 3130
-1879.14 1056.63 3142
-1871.63 1056.63 3142
-1864.12 1056.63 3142
-1856.6 1056.63 3142
-1849.09 1056.63 3142
-1025.42 1021.99 3039
-1018.15 1021.99 3039
-1025.85 1037.12 3084
-1018.48 1037.12 3084
-1011.11 1037.12 3084
-1001.78 1035.1 3078
-992.479 1033.09 3072
-985.133 1033.09 3072
-977.787 1033.09 3072
-968.861 1031.41 3067
-961.527 1031.41 3067
-952.326 1029.39 3061
-945.006 1029.39 3061
-935.849 1027.37 3055
-935.534 1035.1 3078
-931.491 1038.8 3089
-924.104 1038.8 3089
-916.717 1038.8 3089
-907.858 1037.12 3084
-895.52 1031.41 3067
-888.186 1031.41 3067
-879.128 1029.39 3061
-865.543 1021.99 3039
-856.581 1019.97 3033
-849.328 1019.97 3033
-842.076 1019.97 3033
-831.795 1016.27 3022
-820.203 1010.89 3006
-813.015 1010.89 3006
-801.537 1005.51 2990
-797.044 1008.87 3000
-789.87 1008.87 3000
-782.696 1008.87 3000
-772.937 1005.51 2990
-765.787 1005.51 2990
-755.846 1001.81 2979
-743.444 994.75 2958
-736.371 994.75 2958
-726.585 991.05 2947
-714.655 984.325 2927
-706.447 982.643 2922
-699.46 982.643 2922
-689.865 978.944 2911
-681.731 977.262 2906
-671.299 972.218 2891
-664.386 972.218 2891
-656.335 970.537 2886
-649.434 970.537 2886
-642.533 970.537 2886
-636.733 972.218 2891
-629.82 972.218 2891
-625.061 975.581 2901
-618.124 975.581 2901
-611.187 975.581 2901
-604.249 975.581 2901
-599.371 978.944 2911
-592.41 978.944 2911
-585.449 978.944 2911
-578.488 978.944 2911
-571.527 978.944 2911
-563.596 977.262 2906
-556.647 977.262 2906
-554.616 986.006 2932
-547.605 986.006 2932
-546.309 996.431 2963
-545.047 1007.19 2995
-537.885 1007.19 2995
-531.609 1008.87 3000
-525.484 1010.89 3006
-518.296 1010.89 3006
-511.108 1010.89 3006
-503.919 1010.89 3006
-496.731 1010.89 3006
-489.543 1010.89 3006
-482.355 1010.89 3006
-475.166 1010.89 3006
-466.266 1007.19 2995
-459.104 1007.19 2995
-458.581 1021.99 3039
-451.314 1021.99 3039
-444.047 1021.99 3039
-424.419 993.068 2953
-417.358 993.068 2953
-410.296 993.068 2953
-403.235 993.068 2953
-396.173 993.068 2953
-389.112 993.068 2953
-379.333 986.006 2932
-367.751 973.899 2896
-360.825 973.899 2896
-353.9 973.899 2896
-345.777 970.537 2886
-337.701 967.174 2876
-330.824 967.174 2876
-323.383 965.492 2871
-317.62 968.855 2881
-310.731 968.855 2881
-305.424 973.899 2896
-299.014 975.581 2901
-293.084 978.944 2911
-286.122 978.944 2911
-280.216 982.643 2922
-273.229 982.643 2922
-266.241 982.643 2922
-259.254 982.643 2922
-251.835 980.962 2917
-244.356 978.944 2911
-237.395 978.944 2911
-230.434 978.944 2911
-223.089 977.262 2906
-215.024 972.218 2891
-209.191 977.262 2906
-202.241 977.262 2906
-195.628 978.944 2911
-188.667 978.944 2911
-181.706 978.944 2911
-105.952 741.186 2204
-101.458 746.903 2221
-96.1474 746.903 2221
-90.8363 746.903 2221
-85.5252 746.903 2221
-80.2141 746.903 2221
-74.903 746.903 2221
-69.4979 745.894 2218
-64.194 745.894 2218
-58.8901 745.894 2218
-53.5137 744.885 2215
-48.0428 742.195 2207
-42.7071 741.186 2204
-37.4367 741.186 2204
-32.1225 740.177 2201
-26.786 738.159 2195
-21.4782 736.142 2189
-16.2436 736.142 2189
-10.9839 734.46 2184
-5.74549 732.442 2178
-0.537229 732.442 2178
4.67103 732.442 2178
9.87929 732.442 2178
15.0668 731.433 2175
20.2399 730.425 2172
25.4338 730.425 2172
30.5149 727.734 2164
35.6402 726.725 2161
40.6945 724.708 2155
45.8052 724.035 2153
50.9537 724.035 2153
56.1022 724.035 2153
61.3929 725.717 2158
66.7384 727.734 2164
71.9131 727.734 2164
77.0879 727.734 2164
190.897 998.112 2968
197.995 998.112 2968
205.092 998.112 2968
212.19 998.112 2968
235.959 978.944 2911
245.09 987.687 2937
252.971 991.05 2947
260.018 991.05 2947
267.066 991.05 2947
274.113 991.05 2947
281.16 991.05 2947
286.74 986.006 2932
292.249 980.962 2917
299.224 980.962 2917
306.724 982.643 2922
314.249 984.325 2927
321.248 984.325 2927
328.247 984.325 2927
336.965 989.369 2942
348.911 1003.49 2984
356.046 1003.49 2984
365.86 1010.89 3006
376.399 1019.97 3033
384.41 1021.99 3039
391.678 1021.99 3039
398.945 1021.99 3039
406.212 1021.99 3039
414.976 1025.69 3050
422.269 1025.69 3050
429.563 1025.69 3050
433.705 1018.29 3028
440.946 1018.29 3028
448.187 1018.29 3028
457.834 1023.67 3044
467.711 1029.39 3061
476.738 1033.09 3072
484.084 1033.09 3072
491.43 1033.09 3072
498.776 1033.09 3072
506.122 1033.09 3072
513.468 1033.09 3072
519.966 1031.41 3067
527.301 1031.41 3067
534.635 1031.41 3067
541.969 1031.41 3067
549.303 1031.41 3067
556.637 1031.41 3067
563.971 1031.41 3067
569.07 1027.37 3055
576.375 1027.37 3055
585.974 1031.41 3067
596.596 1037.12 3084
603.971 1037.12 3084
611.346 1037.12 3084
618.721 1037.12 3084
626.095 1037.12 3084
633.47 1037.12 3084
637.312 1031.41 3067
641.073 1025.69 3050
647.091 1023.67 3044
656.735 1027.37 3055
664.041 1027.37 3055
673.983 1031.41 3067
681.317 1031.41 3067
688.651 1031.41 3067
695.986 1031.41 3067
700.568 1027.37 3055
704.166 1021.99 3039
711.433 1021.99 3039
716.099 1018.29 3028
720.712 1014.59 3017
723.825 1008.87 3000
729.78 1007.19 2995
736.942 1007.19 2995
741.371 1003.49 2984
752.521 1008.87 3000
765.266 1016.27 3022
774.026 1018.29 3028
781.267 1018.29 3028
792.674 1023.67 3044
799.953 1023.67 3044
807.232 1023.67 3044
814.511 1023.67 3044
826.38 1029.39 3061
836.696 1033.09 3072
844.042 1033.09 3072
851.388 1033.09 3072
858.734 1033.09 3072
870.873 1038.8 3089
879.965 1040.82 3095
887.367 1040.82 3095
894.768 1040.82 3095
902.169 1040.82 3095
909.57 1040.82 3095
916.971 1040.82 3095
924.372 1040.82 3095
929.967 1038.8 3089
934.016 1035.1 3078
941.376 1035.1 3078
945.346 1031.41 3067
952.68 1031.41 3067
961.579 1033.09 3072
968.925 1033.09 3072
976.271 1033.09 3072
978.174 1027.37 3055
981.931 1023.67 3044
989.21 1023.67 3044
996.49 1023.67 3044
1003.77 1023.67 3044
1013.04 1025.69 3050
1020.33 1025.69 3050
1027.63 1025.69 3050
1032.89 1023.67 3044
1034.7 1018.29 3028
1041.94 1018.29 3028
1043.29 1012.57 3011
1050.49 1012.57 3011
1055.93 1010.89 3006
1059.23 1007.19 2995
1066.39 1007.19 2995
1067.82 1001.81 2979
1073.14 1000.13 2974
1080.25 1000.13 2974
1087.36 1000.13 2974
1086.75 993.068 2953
1089.73 989.369 2942
1094.9 987.687 2937
1101.93 987.687 2937
1107.06 986.006 2932
1115.97 987.687 2937
1123 987.687 2937
1130.02 987.687 2937
1137.04 987.687 2937
1136.28 980.962 2917
1138.94 977.262 2906
1139.97 972.218 2891
1146.89 972.218 2891
1153.9 960.784 2857
1180.63 977.262 2906
1187.58 977.262 2906
1199.05 980.962 2917
1206.03 980.962 2917
1213.01 980.962 2917
1219.98 980.962 2917
1220.23 975.581 2901
1225.05 973.899 2896
1231.97 973.899 2896
1236.76 972.218 2891
1243.67 972.218 2891
1248.42 970.537 2886
1246.63 963.811 2866
1253.48 963.811 2866
1254.18 959.103 2852
1258.79 957.421 2847
1250.48 945.987 2813
1257.21 945.987 2813
1262.14 944.642 2809
1266.59 942.961 2804
1535.68 1038.8 3089
1543.07 1038.8 3089
1550.45 1038.8 3089
1557.84 1038.8 3089
1565.23 1038.8 3089
1519.16 1003.49 2984
1510.44 993.068 2953
1520.07 994.75 2958
1543.66 1005.51 2990
1550.81 1005.51 2990
1557.96 1005.51 2990
1561.97 1003.49 2984
1569.11 1003.49 2984
1556.7 991.05 2947
1558.44 987.687 2937
1551.6 978.944 2911
1558.56 978.944 2911
1565.53 978.944 2911
1572.49 978.944 2911
1576.73 977.262 2906
1583.68 977.262 2906
1590.63 977.262 2906
1581.09 967.174 2876
1587.97 967.174 2876
1594.84 967.174 2876
1601.72 967.174 2876
1571.12 944.642 2809
1575.03 942.961 2804
1595.28 951.032 2828
1602.04 951.032 2828
1608.8 951.032 2828
1615.57 951.032 2828
1622.33 951.032 2828
-1921 918.857 2713
-1914.51 918.857 2713
-1908.03 918.857 2713
-1901.54 918.857 2713
-1895.05 918.857 2713
-1888.56 918.857 2713
-1907.63 1038.75 3067
-1900.3 1038.75 3067
-1892.96 1038.75 3067
-1878.25 1034.69 3055
-1870.94 1034.69 3055
-1863.64 1034.69 3055
-1884.28 1050.27 3101
-1890.79 1058.06 3124
-1886.94 1060.09 3130
-1879.45 1060.09 3130
-1871.97 1060.09 3130
-1864.48 1060.09 3130
-1857 1060.09 3130
-1019.68 1023.51 3022
-1012.46 1023.51 3022
-1005.23 1023.51 3022
-1007.25 1032.99 3050
-999.958 1032.99 3050
-992.665 1032.99 3050
-985.371 1032.99 3050
-978.078 1032.99 3050
-974.286 1036.72 3061
-966.966 1036.72 3061
-959.646 1036.72 3061
-947.037 1030.96 3044
-941.611 1032.99 3050
-934.317 1032.99 3050
-928.543 1034.69 3055
-929.983 1044.51 3084
-922.608 1044.51 3084
-915.233 1044.51 3084
-906.092 1042.48 3078
-895.52 1038.75 3067
-888.186 1038.75 3067
-875.969 1032.99 3050
-865.543 1029.27 3039
-856.581 1027.24 3033
-849.328 1027.24 3033
-840.687 1025.54 3028
-831.795 1023.51 3022
-820.203 1018.09 3006
-813.015 1018.09 3006
-801.537 1012.67 2990
-794.387 1012.67 2990
-787.237 1012.67 2990
-780.087 1012.67 2990
-772.937 1012.67 2990
-765.787 1012.67 2990
-755.846 1008.95 2979
-742.188 1000.14 2953
-735.126 1000.14 2953
-721.654 991.336 2927
-713.434 989.643 2922
-705.238 987.949 2917
-698.263 987.949 2917
-687.495 982.53 2901
-678.212 979.143 2891
-667.816 974.063 2876
-660.939 974.063 2876
-652.924 972.37 2871
-646.059 972.37 2871
-640.306 974.063 2876
-633.429 974.063 2876
-626.552 974.063 2876
-621.829 977.45 2886
-614.928 977.45 2886
-608.026 977.45 2886
-601.125 977.45 2886
-596.283 980.837 2896
-590.375 982.53 2901
-583.438 982.53 2901
-576.501 982.53 2901
-568.582 980.837 2896
-557.778 974.063 2876
-552.816 977.45 2886
-549.698 984.224 2906
-542.749 984.224 2906
-539.672 991.336 2927
-539.224 1003.53 2963
-535.012 1008.95 2979
-527.888 1008.95 2979
-520.764 1008.95 2979
-513.641 1008.95 2979
-506.517 1008.95 2979
-498.555 1007.25 2974
-491.443 1007.25 2974
-488.566 1016.06 3000
-481.392 1016.06 3000
-474.218 1016.06 3000
-462.062 1005.22 2968
-452.666 1000.14 2953
-445.604 1000.14 2953
-434.681 991.336 2927
-426.221 987.949 2917
-417.664 984.224 2906
-414.39 993.03 2932
-407.379 993.03 2932
-400.367 993.03 2932
-393.356 993.03 2932
-386.345 993.03 2932
-376.617 985.917 2911
-367.751 980.837 2896
-360.825 980.837 2896
-353.9 980.837 2896
-345.777 977.45 2886
-337.701 974.063 2876
-330.249 972.37 2871
-323.383 972.37 2871
-317.069 974.063 2876
-310.192 974.063 2876
-305.424 980.837 2896
-299.014 982.53 2901
-293.084 985.917 2911
-286.122 985.917 2911
-280.216 989.643 2922
-273.229 989.643 2922
-266.241 989.643 2922
-259.254 989.643 2922
-251.835 987.949 2917
-243.936 984.224 2906
-236.987 984.224 2906
-230.038 984.224 2906
-223.089 984.224 2906
-215.024 979.143 2891
-209.191 984.224 2906
-202.241 984.224 2906
-195.628 985.917 2911
-188.667 985.917 2911
-181.706 985.917 2911
-105.952 746.466 2204
-101.458 752.223 2221
-96.1474 752.223 2221
-90.8363 752.223 2221
-85.5252 752.223 2221
-80.2141 752.223 2221
-74.903 752.223 2221
-69.4979 751.207 2218
-64.194 751.207 2218
-58.8901 751.207 2218
-53.5137 750.191 2215
-48.0428 747.482 2207
-42.7071 746.466 2204
-37.4367 746.466 2204
-32.1225 745.45 2201
-26.786 743.417 2195
-21.4782 741.385 2189
-16.2436 741.385 2189
-10.9839 739.692 2184
-5.74549 737.66 2178
-0.537229 737.66 2178
4.67103 737.66 2178
9.87929 737.66 2178
15.0668 736.644 2175
20.2399 735.628 2172
25.4338 735.628 2172
30.5149 732.918 2164
35.6402 731.902 2161
40.6945 729.87 2155
45.8052 729.193 2153
50.9537 729.193 2153
56.1022 729.193 2153
61.3929 730.886 2158
66.5533 730.886 2158
71.7138 730.886 2158
76.8742 730.886 2158
190.897 1005.22 2968
197.995 1005.22 2968
205.092 1005.22 2968
212.19 1005.22 2968
235.959 985.917 2911
243.838 989.643 2922
251.684 993.03 2932
258.695 993.03 2932
265.706 993.03 2932
272.718 993.03 2932
279.729 993.03 2932
285.273 987.949 2917
291.647 985.917 2911
298.096 984.224 2906
306.724 989.643 2922
314.249 991.336 2927
321.248 991.336 2927
328.247 991.336 2927
336.965 996.417 2942
345.871 1001.84 2958
352.944 1001.84 2958
363.182 1010.64 2984
373.048 1018.09 3006
380.869 1019.79 3011
388.069 1019.79 3011
395.269 1019.79 3011
402.469 1019.79 3011
409.669 1019.79 3011
416.87 1019.79 3011
423.366 1018.09 3006
430.554 1018.09 3006
437.742 1018.09 3006
444.93 1018.09 3006
454.525 1023.51 3022
463.432 1027.24 3033
474.099 1034.69 3055
481.405 1034.69 3055
488.71 1034.69 3055
496.016 1034.69 3055
503.321 1034.69 3055
507.952 1029.27 3039
515.219 1029.27 3039
523.346 1030.96 3044
530.625 1030.96 3044
537.905 1030.96 3044
546.258 1032.99 3050
553.552 1032.99 3050
560.845 1032.99 3050
567.021 1030.96 3044
574.3 1030.96 3044
582.726 1032.99 3050
593.308 1038.75 3067
600.642 1038.75 3067
607.976 1038.75 3067
615.31 1038.75 3067
622.644 1038.75 3067
629.978 1038.75 3067
632.533 1030.96 3044
637.5 1027.24 3033
643.69 1025.54 3028
654.371 1030.96 3044
661.65 1030.96 3044
670.247 1032.99 3050
677.541 1032.99 3050
684.834 1032.99 3050
690.766 1030.96 3044
696.899 1029.27 3039
702.776 1027.24 3033
710.028 1027.24 3033
712.078 1019.79 3011
716.651 1016.06 3000
721.412 1012.67 2990
725.882 1008.95 2979
733.005 1008.95 2979
736.154 1003.53 2963
748.507 1010.64 2984
758.428 1014.37 2995
766.868 1016.06 3000
774.042 1016.06 3000
781.216 1016.06 3000
788.39 1016.06 3000
798.481 1019.79 3011
805.681 1019.79 3011
820.441 1029.27 3039
827.708 1029.27 3039
839.371 1034.69 3055
846.676 1034.69 3055
857.336 1038.75 3067
870.873 1046.2 3089
879.965 1048.24 3095
887.367 1048.24 3095
894.768 1048.24 3095
902.169 1048.24 3095
909.57 1048.24 3095
916.971 1048.24 3095
924.372 1048.24 3095
929.967 1046.2 3089
934.016 1042.48 3078
941.376 1042.48 3078
945.346 1038.75 3067
952.68 1038.75 3067
961.579 1040.45 3072
968.925 1040.45 3072
976.271 1040.45 3072
978.174 1034.69 3055
981.931 1030.96 3044
989.21 1030.96 3044
996.49 1030.96 3044
1003.77 1030.96 3044
1013.04 1032.99 3050
1020.33 1032.99 3050
1027.63 1032.99 3050
1032.89 1030.96 3044
1034.7 1025.54 3028
1041.94 1025.54 3028
1043.29 1019.79 3011
1050.49 1019.79 3011
1055.93 1018.09 3006
1059.23 1014.37 2995
1066.39 1014.37 2995
1067.82 1008.95 2979
1073.14 1007.25 2974
1080.25 1007.25 2974
1087.36 1007.25 2974
1086.75 1000.14 2953
1089.73 996.417 2942
1094.9 994.723 2937
1101.93 994.723 2937
1107.06 993.03 2932
1115.97 994.723 2937
1123 994.723 2937
1130.02 994.723 2937
1137.04 994.723 2937
1136.28 987.949 2917
1138.94 984.224 2906
1139.97 979.143 2891
1146.89 979.143 2891
1145.82 972.37 2871
1149.07 969.322 2862
1153.9 967.628 2857
1180.63 984.224 2906
1187.58 984.224 2906
1199.05 987.949 2917
1206.03 987.949 2917
1213.01 987.949 2917
1219.98 987.949 2917
1220.23 982.53 2901
1225.05 980.837 2896
1231.97 980.837 2896
1236.76 979.143 2891
1243.67 979.143 2891
1248.42 977.45 2886
1246.63 970.676 2866
1253.48 970.676 2866
1254.18 965.935 2852
1258.79 964.241 2847
1261.15 960.854 2837
1267.93 960.854 2837
1262.14 951.371 2809
1266.59 949.678 2804
1535.68 1046.2 3089
1543.07 1046.2 3089
1550.45 1046.2 3089
1557.84 1046.2 3089
1565.23 1046.2 3089
1519.16 1010.64 2984
1510.44 1000.14 2953
1520.07 1001.84 2958
1543.66 1012.67 2990
1550.81 1012.67 2990
1557.96 1012.67 2990
1561.97 1010.64 2984
1569.11 1010.64 2984
1556.7 998.11 2947
1558.44 994.723 2937
1551.6 985.917 2911
1558.56 985.917 2911
1565.53 985.917 2911
1572.49 985.917 2911
1576.73 984.224 2906
1583.68 984.224 2906
1590.63 984.224 2906
1581.09 974.063 2876
1587.97 974.063 2876
1594.84 974.063 2876
1601.72 974.063 2876
1571.12 951.371 2809
1575.03 949.678 2804
1595.28 957.806 2828
1602.04 957.806 2828
1608.8 957.806 2828
1615.57 957.806 2828
1622.33 957.806 2828
-1933.17 928.085 2721
-1926.66 928.085 2721
-1920.16 928.085 2721
-1913.65 928.085 2721
-1916.96 932.86 2735
-1910.42 932.86 2735
-1910.14 935.93 2744
-1903.58 935.93 2744
-1897.02 935.93 2744
-1907.63 1046.1 3067
-1900.3 1046.1 3067
-1892.96 1046.1 3067
-1878.25 1042.01 3055
-1870.94 1042.01 3055
-1863.64 1042.01 3055
-1884.28 1057.7 3101
-1890.79 1065.54 3124
-1886.94 1067.59 3130
-1879.45 1067.59 3130
-1871.97 1067.59 3130
-1864.48 1067.59 3130
-1857 1067.59 3130
-1006.86 1017.79 2984
-999.727 1017.79 2984
-1005.23 1030.75 3022
-998.005 1030.75 3022
-990.778 1030.75 3022
-978.344 1025.29 3006
-976.325 1030.75 3022
-969.099 1030.75 3022
-963.782 1032.8 3028
-956.541 1032.8 3028
-949.3 1032.8 3028
-942.059 1032.8 3028
-936.362 1034.5 3033
-929.109 1034.5 3033
-923.68 1036.55 3039
-924.856 1046.1 3067
-917.522 1046.1 3067
-910.188 1046.1 3067
-901.088 1044.05 3061
-893.768 1044.05 3061
-886.448 1044.05 3061
-871.087 1034.5 3033
-860.701 1030.75 3022
-852.062 1029.05 3017
-844.848 1029.05 3017
-837.633 1029.05 3017
-825.74 1023.25 3000
-812.836 1016.08 2979
-805.712 1016.08 2979
-794.299 1010.63 2963
-787.214 1010.63 2963
-780.128 1010.63 2963
-773.043 1010.63 2963
-765.957 1010.63 2963
-757.591 1008.92 2958
-746.458 1003.46 2942
-735.653 998.348 2927
-728.654 998.348 2927
-719.189 994.937 2917
-709.528 991.185 2906
-701.37 989.48 2901
-694.433 989.48 2901
-685.126 986.069 2891
-674.693 980.953 2876
-664.565 976.177 2862
-657.721 976.177 2862
-650.877 976.177 2862
-644.934 977.542 2866
-638.08 977.542 2866
-631.227 977.542 2866
-624.373 977.542 2866
-616.658 976.177 2862
-610.666 977.542 2866
-603.813 977.542 2866
-596.959 977.542 2866
-591.135 979.247 2871
-585.287 980.953 2876
-578.41 980.953 2876
-571.533 980.953 2876
-563.674 979.247 2871
-555.063 976.177 2862
-548.219 976.177 2862
-545.915 984.363 2886
-539.013 984.363 2886
-536.721 992.891 2911
-533.582 1000.05 2932
-532.138 1010.63 2963
-525.053 1010.63 2963
-517.967 1010.63 2963
-510.882 1010.63 2963
-503.796 1010.63 2963
-495.873 1008.92 2958
-490.452 1012.33 2968
-487.752 1021.54 2995
-480.59 1021.54 2995
-473.428 1021.54 2995
-459.727 1007.22 2953
-450.213 1001.76 2937
-443.19 1001.76 2937
-430.82 989.48 2901
-423.152 987.774 2896
-416.227 987.774 2896
-412.27 994.937 2917
-405.295 994.937 2917
-398.319 994.937 2917
-391.344 994.937 2917
-384.368 994.937 2917
-374.676 987.774 2896
-367.751 987.774 2896
-359.579 984.363 2886
-352.678 984.363 2886
-345.178 982.658 2881
-337.114 979.247 2871
-330.249 979.247 2871
-322.82 977.542 2866
-315.967 977.542 2866
-309.113 977.542 2866
-304.369 984.363 2886
-298.499 987.774 2896
-292.58 991.185 2906
-285.631 991.185 2906
-279.161 992.891 2911
-272.2 992.891 2911
-265.239 992.891 2911
-257.835 991.185 2906
-250.022 987.774 2896
-243.097 987.774 2896
-236.172 987.774 2896
-229.246 987.774 2896
-222.321 987.774 2896
-213.165 977.542 2866
-206.311 977.542 2866
-199.458 977.542 2866
-190.991 969.356 2842
-107.202 760.613 2230
-101.87 760.613 2230
-96.7967 762.66 2236
-91.4497 762.66 2236
-86.1028 762.66 2236
-80.5391 760.613 2230
-75.2065 760.613 2230
-69.8739 760.613 2230
-64.4545 759.59 2227
-59.1291 759.59 2227
-53.5862 756.521 2218
-48.217 755.497 2215
-42.7652 752.769 2207
-37.4876 752.769 2207
-32.21 752.769 2207
-26.8592 750.722 2201
-21.5076 747.652 2192
-16.2659 747.652 2192
-11.0091 746.629 2189
-5.7534 743.9 2181
-0.537969 743.9 2181
4.67746 743.9 2181
9.8929 743.9 2181
15.0875 742.877 2178
20.2678 741.854 2175
25.4689 741.854 2175
30.5572 739.125 2167
35.6402 737.079 2161
40.7512 736.056 2158
45.8052 734.35 2153
50.9537 734.35 2153
56.1022 734.35 2153
61.3075 735.032 2155
66.5533 736.056 2158
71.7138 736.056 2158
76.8742 736.056 2158
156.562 1019.84 2990
164.588 1025.29 3006
171.777 1025.29 3006
178.965 1025.29 3006
185.162 1019.84 2990
190.576 1010.63 2963
197.661 1010.63 2963
204.747 1010.63 2963
211.832 1010.63 2963
215.888 996.642 2922
222.876 996.642 2922
228.998 992.891 2911
235.959 992.891 2911
242.92 992.891 2911
251.254 998.348 2927
258.254 998.348 2927
265.706 1000.05 2932
272.718 1000.05 2932
279.729 1000.05 2932
285.273 994.937 2917
290.646 989.48 2901
297.583 989.48 2901
305.045 991.185 2906
312.531 992.891 2911
319.492 992.891 2911
328.247 998.348 2927
335.819 1000.05 2932
344.584 1005.17 2947
351.632 1005.17 2947
360.018 1008.92 2958
370.318 1017.79 2984
380.236 1025.29 3006
387.424 1025.29 3006
395.269 1027 3011
402.469 1027 3011
409.669 1027 3011
415.347 1023.25 3000
419.563 1016.08 2979
426.687 1016.08 2979
433.81 1016.08 2979
439.306 1012.33 2968
448.058 1016.08 2979
458.39 1023.25 3000
466.495 1025.29 3006
473.684 1025.29 3006
480.872 1025.29 3006
488.06 1025.29 3006
495.248 1025.29 3006
500.598 1021.54 2995
506.912 1019.84 2990
511.311 1014.38 2974
518.423 1014.38 2974
525.535 1014.38 2974
527.811 1005.17 2947
534.858 1005.17 2947
549.812 1019.84 2990
556.962 1019.84 2990
564.112 1019.84 2990
573.173 1023.25 3000
583.635 1029.05 3017
595.158 1036.55 3039
602.426 1036.55 3039
610.696 1038.25 3044
617.975 1038.25 3044
625.254 1038.25 3044
631.494 1036.55 3039
636.449 1032.8 3028
641.352 1029.05 3017
652.006 1034.5 3033
659.259 1034.5 3033
667.83 1036.55 3039
675.097 1036.55 3039
682.364 1036.55 3039
689.632 1036.55 3039
696.899 1036.55 3039
695.129 1023.25 3000
702.303 1023.25 3000
708.295 1021.54 2995
712.829 1017.79 2984
717.552 1014.38 2974
720.765 1008.92 2958
727.838 1008.92 2958
734.912 1008.92 2958
743.239 1010.63 2963
751.591 1012.33 2968
764.312 1019.84 2990
771.462 1019.84 2990
778.612 1019.84 2990
784.185 1017.79 2984
791.321 1017.79 2984
798.457 1017.79 2984
809.912 1023.25 3000
817.086 1023.25 3000
830.304 1030.75 3022
837.531 1030.75 3022
846.434 1032.8 3028
862.979 1044.05 3061
872.005 1046.1 3067
879.339 1046.1 3067
893.033 1053.6 3089
900.42 1053.6 3089
907.807 1053.6 3089
913.712 1051.9 3084
919.295 1049.85 3078
926.655 1049.85 3078
923.698 1038.25 3044
930.977 1038.25 3044
936.715 1036.55 3039
945.536 1038.25 3044
956.258 1042.01 3055
963.563 1042.01 3055
970.869 1042.01 3055
974.652 1038.25 3044
974.835 1030.75 3022
982.061 1030.75 3022
989.288 1030.75 3022
996.514 1030.75 3022
1007.39 1034.5 3033
1014.65 1034.5 3033
1021.9 1034.5 3033
1023.72 1029.05 3017
1028.89 1027 3011
1036.09 1027 3011
1039.48 1023.25 3000
1046.65 1023.25 3000
1046.45 1016.08 2979
1051.8 1014.38 2974
1058.92 1014.38 2974
1063.88 1012.33 2968
1069.17 1010.63 2963
1070.44 1005.17 2947
1077.49 1005.17 2947
1080.86 1001.76 2937
1086.03 1000.05 2932
1087.45 994.937 2917
1094.42 994.937 2917
1101.4 994.937 2917
1110.27 996.642 2922
1117.26 996.642 2922
1124.25 996.642 2922
1131.24 996.642 2922
1136.28 994.937 2917
1138.94 991.185 2906
1139.97 986.069 2891
1146.89 986.069 2891
1145.82 979.247 2871
1149.07 976.177 2862
1153.9 974.472 2857
1172.51 984.363 2886
1179.41 984.363 2886
1190.42 987.774 2896
1197.35 987.774 2896
1204.27 987.774 2896
1211.2 987.774 2896
1218.12 987.774 2896
1218.7 982.658 2881
1225.59 982.658 2881
1232.48 982.658 2881
1239.37 982.658 2881
1241.93 979.247 2871
1240.54 972.767 2852
1247.36 972.767 2852
1254.18 972.767 2852
1256.57 969.356 2842
1261.15 967.65 2837
1267.93 967.65 2837
1262.14 958.1 2809
1266.59 956.395 2804
1535.68 1053.6 3089
1543.07 1053.6 3089
1550.45 1053.6 3089
1557.84 1053.6 3089
1565.23 1053.6 3089
1505.92 1008.92 2958
1507.37 1005.17 2947
1495.91 992.891 2911
1511.14 998.348 2927
1518.14 998.348 2927
1525.14 998.348 2927
1532.13 998.348 2927
1539.13 998.348 2927
1540.85 994.937 2917
1534.03 986.069 2891
1532.95 980.953 2876
1539.83 980.953 2876
1546.7 980.953 2876
1540.62 972.767 2852
1544.72 971.061 2847
1551.53 971.061 2847
1558.34 971.061 2847
1556.9 965.945 2832
1563.67 965.945 2832
1559.91 959.464 2813
1566.64 959.464 2813
1571.12 958.1 2809
1554.25 943.775 2767
1595.28 964.581 2828
1602.04 964.581 2828
1608.8 964.581 2828
1599 954.689 2799
-1933.17 934.603 2721
-1926.66 934.603 2721
-1920.16 934.603 2721
-1913.65 934.603 2721
-1916.96 939.412 2735
-1910.42 939.412 2735
-1910.14 942.503 2744
-1903.58 942.503 2744
-1897.02 942.503 2744
-1854.89 1036.27 3017
-1867.88 1047.61 3050
-1860.59 1047.61 3050
-1853.29 1047.61 3050
-1876.87 1065.12 3101
-1869.45 1065.12 3101
-1862.04 1065.12 3101
-1006.86 1024.94 2984
-999.727 1024.94 2984
-1005.23 1037.99 3022
-998.005 1037.99 3022
-990.778 1037.99 3022
-978.344 1032.49 3006
-976.325 1037.99 3022
-969.099 1037.99 3022
-963.782 1040.05 3028
-956.541 1040.05 3028
-949.3 1040.05 3028
-942.059 1040.05 3028
-936.362 1041.77 3033
-929.109 1041.77 3033
-923.68 1043.83 3039
-924.856 1053.45 3067
-917.522 1053.45 3067
-910.188 1053.45 3067
-901.088 1051.39 3061
-893.768 1051.39 3061
-886.448 1051.39 3061
-871.087 1041.77 3033
-860.701 1037.99 3022
-852.062 1036.27 3017
-844.848 1036.27 3017
-837.633 1036.27 3017
-825.74 1030.43 3000
-812.836 1023.22 2979
-805.712 1023.22 2979
-794.299 1017.72 2963
-787.214 1017.72 2963
-780.128 1017.72 2963
-773.043 1017.72 2963
-765.957 1017.72 2963
-757.591 1016.01 2958
-746.458 1010.51 2942
-735.653 1005.36 2927
-728.654 1005.36 2927
-719.189 1001.92 2917
-709.528 998.146 2906
-701.37 996.429 2901
-694.433 996.429 2901
-685.126 992.994 2891
-674.693 987.842 2876
-664.565 983.033 2862
-657.721 983.033 2862
-650.877 983.033 2862
-644.934 984.407 2866
-638.08 984.407 2866
-631.227 984.407 2866
-624.373 984.407 2866
-616.658 983.033 2862
-610.666 984.407 2866
-603.813 984.407 2866
-596.959 984.407 2866
-591.135 986.125 2871
-585.287 987.842 2876
-578.41 987.842 2876
-571.533 987.842 2876
-563.674 986.125 2871
-555.063 983.033 2862
-548.219 983.033 2862
-545.915 991.277 2886
-539.013 991.277 2886
-536.721 999.864 2911
-533.582 1007.08 2932
-532.138 1017.72 2963
-525.053 1017.72 2963
-517.967 1017.72 2963
-510.882 1017.72 2963
-503.796 1017.72 2963
-495.873 1016.01 2958
-490.452 1019.44 2968
-487.752 1028.72 2995
-480.59 1028.72 2995
-473.428 1028.72 2995
-459.727 1014.29 2953
-450.213 1008.79 2937
-443.19 1008.79 2937
-430.82 996.429 2901
-423.152 994.712 2896
-416.227 994.712 2896
-412.27 1001.92 2917
-405.295 1001.92 2917
-398.319 1001.92 2917
-391.344 1001.92 2917
-384.368 1001.92 2917
-374.676 994.712 2896
-367.751 994.712 2896
-359.579 991.277 2886
-352.678 991.277 2886
-345.178 989.56 2881
-337.114 986.125 2871
-330.249 986.125 2871
-322.82 984.407 2866
-315.967 984.407 2866
-309.113 984.407 2866
-304.369 991.277 2886
-298.499 994.712 2896
-292.58 998.146 2906
-285.631 998.146 2906
-278.682 998.146 2906
-269.863 991.277 2886
-262.961 991.277 2886
-256.06 991.277 2886
-247.432 984.407 2866
-240.243 983.033 2862
-233.399 983.033 2862
-226.555 983.033 2862
-219.711 983.033 2862
-211.008 974.446 2837
-204.224 974.446 2837
-197.439 974.446 2837
-190.319 972.729 2832
-107.491 768.016 2236
-102.144 768.016 2236
-96.7967 768.016 2236
-91.4497 768.016 2236
-86.1028 768.016 2236
-80.7558 768.016 2236
-75.3077 766.986 2233
-69.9679 766.986 2233
-64.6282 766.986 2233
-59.2884 766.986 2233
-53.8036 764.925 2227
-48.2823 761.834 2218
-42.9202 760.803 2215
-37.6235 760.803 2215
-32.2538 759.086 2210
-26.8958 757.025 2204
-21.5665 754.964 2198
-16.3104 754.964 2198
-11.0242 752.903 2192
-5.76659 750.842 2186
-0.538709 750.156 2184
4.6839 750.156 2184
9.9065 750.156 2184
15.1291 750.156 2184
20.2958 748.095 2178
25.5041 748.095 2178
30.67 747.064 2175
35.7392 744.316 2167
40.8078 742.255 2161
45.9116 741.225 2158
51.072 741.225 2158
56.2325 741.225 2158
61.4782 742.255 2161
66.6458 742.255 2161
71.8134 742.255 2161
76.9811 742.255 2161
156.562 1027 2990
164.588 1032.49 3006
171.777 1032.49 3006
178.965 1032.49 3006
185.162 1027 2990
189.933 1014.29 2953
196.994 1014.29 2953
203.641 1012.23 2947
209.973 1008.79 2937
215.888 1003.64 2922
222.876 1003.64 2922
228.998 999.864 2911
235.959 999.864 2911
242.92 999.864 2911
251.254 1005.36 2927
258.254 1005.36 2927
265.253 1005.36 2927
272.252 1005.36 2927
279.252 1005.36 2927
285.273 1001.92 2917
290.646 996.429 2901
297.583 996.429 2901
305.045 998.146 2906
312.531 999.864 2911
319.492 999.864 2911
326.453 999.864 2911
335.247 1005.36 2927
343.415 1008.79 2937
350.438 1008.79 2937
359.409 1014.29 2953
367.712 1017.72 2963
378.212 1027 2990
385.362 1027 2990
392.512 1027 2990
399.662 1027 2990
406.812 1027 2990
412.439 1023.22 2979
418.014 1019.44 2968
424.395 1017.72 2963
431.48 1017.72 2963
438.566 1017.72 2963
448.058 1023.22 2979
457.626 1028.72 2995
465.564 1030.43 3000
472.738 1030.43 3000
479.912 1030.43 3000
487.086 1030.43 3000
494.26 1030.43 3000
499.762 1027 2990
504.2 1021.5 2974
510.28 1019.44 2968
516.506 1017.72 2963
523.591 1017.72 2963
526.915 1010.51 2942
531.228 1005.36 2927
539.147 1007.08 2932
548.952 1012.23 2947
556 1012.23 2947
567.059 1019.44 2968
576.284 1023.22 2979
589.675 1034.21 3011
596.875 1034.21 3011
605.279 1036.27 3017
612.494 1036.27 3017
619.708 1036.27 3017
625.676 1034.21 3011
631.825 1032.49 3006
639.013 1032.49 3006
647.277 1034.21 3011
654.477 1034.21 3011
665.413 1040.05 3028
672.654 1040.05 3028
679.894 1040.05 3028
682.143 1032.49 3006
687.955 1030.43 3000
692.812 1027 2990
699.962 1027 2990
703.328 1021.5 2974
710.44 1021.5 2974
711.037 1012.23 2947
718.084 1012.23 2947
725.132 1012.23 2947
732.179 1012.23 2947
739.226 1012.23 2947
749.059 1016.01 2958
758.688 1019.44 2968
765.786 1019.44 2968
772.883 1019.44 2968
777.353 1016.01 2958
785.752 1017.72 2963
792.837 1017.72 2963
804.242 1023.22 2979
811.366 1023.22 2979
822.886 1028.72 2995
830.048 1028.72 2995
837.21 1028.72 2995
853.675 1040.05 3028
860.916 1040.05 3028
868.157 1040.05 3028
876.843 1041.77 3033
884.096 1041.77 3033
891.349 1041.77 3033
898.602 1041.77 3033
905.855 1041.77 3033
908.291 1036.27 3017
913.684 1034.21 3011
920.885 1034.21 3011
928.085 1034.21 3011
933.732 1032.49 3006
940.92 1032.49 3006
948.108 1032.49 3006
955.297 1032.49 3006
960.564 1030.43 3000
967.738 1030.43 3000
974.912 1030.43 3000
980.449 1028.72 2995
991.238 1032.49 3006
998.426 1032.49 3006
1005.61 1032.49 3006
1012.8 1032.49 3006
1017.96 1030.43 3000
1025.13 1030.43 3000
1032.3 1030.43 3000
1036.01 1027 2990
1039.32 1023.22 2979
1044.69 1021.5 2974
1047.91 1017.72 2963
1055 1017.72 2963
1058.5 1014.29 2953
1063.4 1012.23 2947
1066.81 1008.79 2937
1073.83 1008.79 2937
1077.18 1005.36 2927
1080.47 1001.92 2917
1087.45 1001.92 2917
1096.3 1003.64 2922
1103.29 1003.64 2922
1110.27 1003.64 2922
1117.26 1003.64 2922
1124.25 1003.64 2922
1131.24 1003.64 2922
1136.28 1001.92 2917
1133.06 992.994 2891
1138 991.277 2886
1144.9 991.277 2886
1147.81 987.842 2876
1149.07 983.033 2862
1153.9 981.316 2857
1164.38 984.407 2866
1171.24 984.407 2866
1186.31 991.277 2886
1193.21 991.277 2886
1200.11 991.277 2886
1204.92 989.56 2881
1211.81 989.56 2881
1214.47 986.125 2871
1221.34 986.125 2871
1228.2 986.125 2871
1232.92 984.407 2866
1233.72 979.599 2852
1234.01 974.446 2837
1240.8 974.446 2837
1247.58 974.446 2837
1254.36 974.446 2837
1261.15 974.446 2837
1267.93 974.446 2837
1535.68 1061 3089
1543.07 1061 3089
1550.45 1061 3089
1496.82 1019.44 2968
1503.91 1019.44 2968
1500.32 1012.23 2947
1483.84 996.429 2901
1488.21 994.712 2896
1497.71 996.429 2901
1504.65 996.429 2901
1511.59 996.429 2901
1515.91 994.712 2896
1522.83 994.712 2896
1521.83 989.56 2881
1523.42 986.125 2871
1520.16 979.599 2852
1526.98 979.599 2852
1533.8 979.599 2852
1532.51 974.446 2837
1528.99 967.92 2818
1535.73 967.92 2818
1542.47 967.92 2818
1546.46 966.203 2813
1553.18 966.203 2813
1557.69 964.829 2809
1564.41 964.829 2809
1568.33 963.112 2804
1554.25 950.403 2767
1555.23 946.968 2757
-1936.72 942.851 2726
-1930.21 942.851 2726
-1939.21 950.46 2748
-1932.64 950.46 2748
-1926.07 950.46 2748
-1919.5 950.46 2748
-1919.19 953.573 2757
-1912.6 953.573 2757
-1912.92 957.031 2767
-1912.5 960.144 2776
-1905.86 960.144 2776
-1899.23 960.144 2776
-990.928 1030.36 2979
-985.456 1032.09 2984
-978.32 1032.09 2984
-971.184 1032.09 2984
-967.602 1035.89 2995
-960.44 1035.89 2995
-958.371 1041.42 3011
-951.171 1041.42 3011
-945.852 1043.5 3017
-940.193 1045.23 3022
-932.966 1045.23 3022
-925.74 1045.23 3022
-916.993 1043.5 3017
-919.73 1054.91 3050
-912.437 1054.91 3050
-905.143 1054.91 3050
-896.083 1052.84 3044
-888.804 1052.84 3044
-881.525 1052.84 3044
-867.928 1045.23 3022
-857.568 1041.42 3011
-842.743 1032.09 2984
-835.607 1032.09 2984
-828.471 1032.09 2984
-816.932 1026.55 2968
-804.104 1019.29 2947
-795.705 1017.56 2942
-788.67 1017.56 2942
-781.634 1017.56 2942
-774.599 1017.56 2942
-767.564 1017.56 2942
-760.529 1017.56 2942
-753.494 1017.56 2942
-741.384 1010.64 2922
-733.14 1008.91 2917
-726.164 1008.91 2917
-716.477 1005.11 2906
-708.307 1003.38 2901
-701.37 1003.38 2901
-694.433 1003.38 2901
-683.941 998.19 2886
-672.347 991.273 2866
-663.404 988.16 2857
-656.572 988.16 2857
-647.466 984.701 2847
-640.658 984.701 2847
-633.85 984.701 2847
-627.042 984.701 2847
-620.234 984.701 2847
-615.581 988.16 2857
-608.749 988.16 2857
-602.97 989.889 2862
-596.126 989.889 2862
-589.282 989.889 2862
-582.438 989.889 2862
-575.594 989.889 2862
-568.75 989.889 2862
-559.943 986.431 2852
-552.154 984.701 2847
-545.345 984.701 2847
-541.375 989.889 2862
-534.531 989.889 2862
-534.878 1003.38 2901
-530.852 1008.91 2917
-526.571 1014.1 2932
-519.559 1014.1 2932
-515.17 1019.29 2947
-508.123 1019.29 2947
-501.076 1019.29 2947
-493.191 1017.56 2942
-486.155 1017.56 2942
-482.54 1024.82 2963
-475.455 1024.82 2963
-468.369 1024.82 2963
-457.236 1015.83 2937
-447.914 1010.64 2922
-440.926 1010.64 2922
-430.078 1001.65 2896
-420.23 994.732 2876
-414.79 998.19 2886
-410.715 1005.11 2906
-403.766 1005.11 2906
-396.817 1005.11 2906
-389.868 1005.11 2906
-382.919 1005.11 2906
-373.382 998.19 2886
-366.481 998.19 2886
-359.579 998.19 2886
-352.678 998.19 2886
-343.98 993.002 2871
-336.057 989.889 2862
-329.214 989.889 2862
-321.806 988.16 2857
-314.975 988.16 2857
-307.603 986.431 2852
-302.26 991.273 2866
-295.922 993.002 2871
-290.063 996.461 2881
-283.174 996.461 2881
-276.764 998.19 2886
-269.863 998.19 2886
-262.961 998.19 2886
-256.06 998.19 2886
-247.432 991.273 2866
-240.243 989.889 2862
-233.399 989.889 2862
-226.555 989.889 2862
-219.711 989.889 2862
-211.008 981.243 2837
-204.224 981.243 2837
-197.439 981.243 2837
-190.319 979.513 2832
-107.491 773.373 2236
-102.144 773.373 2236
-96.9266 774.41 2239
-91.5724 774.41 2239
-86.2183 774.41 2239
-80.8642 774.41 2239
-75.5101 774.41 2239
-70.0619 773.373 2236
-64.715 773.373 2236
-59.368 773.373 2236
-53.8761 771.297 2230
-48.4782 770.26 2227
-43.0365 768.185 2221
-37.7254 768.185 2221
-32.2976 765.418 2213
-26.9324 763.342 2207
-21.5959 761.267 2201
-16.3327 761.267 2201
-11.0392 759.192 2195
-5.7745 757.117 2189
-0.539202 756.079 2186
4.68819 756.079 2186
9.91558 756.079 2186
15.143 756.079 2186
20.3704 756.079 2186
25.5977 756.079 2186
30.7969 755.387 2184
36.0195 755.387 2184
41.1288 753.312 2178
46.2733 752.274 2175
51.4744 752.274 2175
56.6754 752.274 2175
62.2748 757.117 2189
67.972 762.305 2204
73.2424 762.305 2204
78.5128 762.305 2204
156.562 1034.16 2990
164.588 1039.7 3006
171.777 1039.7 3006
178.965 1039.7 3006
185.162 1034.16 2990
189.933 1021.36 2953
196.994 1021.36 2953
203.641 1019.29 2947
209.973 1015.83 2937
215.888 1010.64 2922
222.876 1010.64 2922
228.998 1006.84 2911
235.959 1006.84 2911
242.92 1006.84 2911
251.254 1012.37 2927
258.254 1012.37 2927
265.253 1012.37 2927
272.252 1012.37 2927
279.252 1012.37 2927
285.273 1008.91 2917
290.646 1003.38 2901
297.583 1003.38 2901
305.045 1005.11 2906
312.531 1006.84 2911
319.492 1006.84 2911
326.453 1006.84 2911
335.247 1012.37 2927
343.415 1015.83 2937
350.438 1015.83 2937
359.409 1021.36 2953
367.712 1024.82 2963
378.212 1034.16 2990
385.362 1034.16 2990
392.512 1034.16 2990
399.662 1034.16 2990
406.812 1034.16 2990
412.439 1030.36 2979
418.014 1026.55 2968
424.395 1024.82 2963
431.48 1024.82 2963
438.566 1024.82 2963
448.058 1030.36 2979
457.626 1035.89 2995
465.564 1037.62 3000
472.738 1037.62 3000
479.912 1037.62 3000
487.086 1037.62 3000
494.26 1037.62 3000
499.762 1034.16 2990
504.2 1028.63 2974
510.28 1026.55 2968
516.506 1024.82 2963
523.591 1024.82 2963
526.915 1017.56 2942
531.228 1012.37 2927
539.147 1014.1 2932
548.952 1019.29 2947
556 1019.29 2947
567.059 1026.55 2968
576.284 1030.36 2979
589.675 1041.42 3011
596.875 1041.42 3011
