-1396.98 1016.08 2979
-1382.39 1010.63 2963
-1375.3 1010.63 2963
-1346.98 994.937 2917
-1325.76 984.363 2886
-1307.89 976.177 2862
-1301.05 976.177 2862
-1285.16 969.356 2842
-1278.36 969.356 2842
-1269.33 967.65 2837
-1264.77 969.356 2842
-1257.98 969.356 2842
-1257.78 974.472 2857
-1250.95 974.472 2857
-1248.04 977.542 2866
-1241.19 977.542 2866
-1247.25 987.774 2896
-1249.32 994.937 2917
-1242.35 994.937 2917
-1235.37 994.937 2917
-1228.4 994.937 2917
-1227.7 1000.05 2932
-1220.69 1000.05 2932
-1213.68 1000.05 2932
-1215.31 1007.22 2953
-1212.34 1010.63 2963
-1213.8 1017.79 2984
-1206.66 1017.79 2984
-1201.94 1019.84 2990
-1194.79 1019.84 2990
-1187.64 1019.84 2990
-1180.49 1019.84 2990
-977.674 974.472 2857
-970.842 974.472 2857
-978.857 989.48 2901
-971.919 989.48 2901
-971.968 996.642 2922
-966.631 998.348 2927
-959.632 998.348 2927
-952.633 998.348 2927
-909.146 1036.55 3039
-901.879 1036.55 3039
-894.612 1036.55 3039
-887.344 1036.55 3039
-880.077 1036.55 3039
-871.087 1034.5 3033
-862.41 1032.8 3028
-855.169 1032.8 3028
-847.928 1032.8 3028
-837.633 1029.05 3017
-821.336 1017.79 2984
-809.834 1012.33 2968
-802.737 1012.33 2968
-791.618 1007.22 2953
-784.557 1007.22 2953
-777.495 1007.22 2953
-770.434 1007.22 2953
-763.372 1007.22 2953
-752.213 1001.76 2937
-737.324 991.185 2906
-726.605 986.069 2891
-719.692 986.069 2891
-712.779 986.069 2891
-709.528 991.185 2906
-702.579 991.185 2906
-695.629 991.185 2906
-685.126 986.069 2891
-675.866 982.658 2881
-666.655 979.247 2871
-659.79 979.247 2871
-647.466 971.061 2847
-640.658 971.061 2847
-636.076 974.472 2857
-631.227 977.542 2866
-624.373 977.542 2866
-619.674 980.953 2876
-612.797 980.953 2876
-608.026 984.363 2886
-601.125 984.363 2886
-595.253 986.069 2891
-588.34 986.069 2891
-581.427 986.069 2891
-574.513 986.069 2891
-566.619 984.363 2886
-557.778 980.953 2876
-550.9 980.953 2876
-545.915 984.363 2886
-539.013 984.363 2886
-533.034 986.069 2891
-530.852 994.937 2917
-525.673 998.348 2927
-518.673 998.348 2927
-515.17 1005.17 2947
-508.123 1005.17 2947
-501.076 1005.17 2947
-490.676 998.348 2927
-483.677 998.348 2927
-469.186 982.658 2881
-462.297 982.658 2881
-454.617 980.953 2876
-418.184 976.177 2862
-411.915 977.542 2866
-405.062 977.542 2866
-398.208 977.542 2866
-391.355 977.542 2866
-384.502 977.542 2866
-377.648 977.542 2866
-370.277 976.177 2862
-362.798 974.472 2857
-354.72 971.061 2847
-347.912 971.061 2847
-341.104 971.061 2847
-351.674 1021.54 2995
-345.778 1025.29 3006
-338.59 1025.29 3006
-331.401 1025.29 3006
-323.027 1021.54 2995
-303.842 982.658 2881
-297.983 986.069 2891
-291.07 986.069 2891
-284.157 986.069 2891
-277.243 986.069 2891
-269.863 984.363 2886
-262.961 984.363 2886
-256.06 984.363 2886
-249.159 984.363 2886
-242.257 984.363 2886
-235.356 984.363 2886
-227.663 980.953 2876
-220.402 979.247 2871
-213.165 977.542 2866
-207.031 980.953 2876
-200.154 980.953 2876
-193.612 982.658 2881
-187.695 987.774 2896
-181.706 992.891 2911
-174.745 992.891 2911
-167.784 992.891 2911
-160.823 992.891 2911
-153.862 992.891 2911
-146.648 991.185 2906
-138.978 986.069 2891
-132.065 986.069 2891
-126.71 998.348 2927
-119.711 998.348 2927
-113.905 1008.92 2958
-107.59 1016.08 2979
-100.466 1016.08 2979
-93.3428 1016.08 2979
-86.2191 1016.08 2979
-57.0846 733.327 2150
-51.9433 733.327 2150
-46.8673 734.35 2153
-41.7189 734.35 2153
-36.5704 734.35 2153
-31.4219 734.35 2153
-26.2734 734.35 2153
-21.125 734.35 2153
-15.9913 735.032 2155
-10.8381 735.032 2155
-5.69273 736.056 2158
-0.533036 737.079 2161
4.63457 737.079 2161
9.80218 737.079 2161
14.9698 737.079 2161
20.1653 738.102 2164
25.3401 738.102 2164
30.7969 744.924 2184
36.0195 744.924 2184
41.2421 744.924 2184
46.5711 746.629 2189
52.1607 751.745 2204
57.4311 751.745 2204
63.0145 755.497 2215
68.6813 759.59 2227
74.2061 761.637 2233
79.5459 761.637 2233
85.5699 767.776 2251
91.1952 769.823 2257
96.7635 771.187 2261
102.17 771.187 2261
107.72 772.21 2264
113.583 775.28 2273
119.019 775.28 2273
124.454 775.28 2273
129.89 775.28 2273
134.789 772.21 2264
140.203 772.21 2264
145.617 772.21 2264
150.564 769.823 2257
155.547 767.776 2251
160.929 767.776 2251
165.426 763.683 2239
170.551 762.66 2236
175.898 762.66 2236
181.245 762.66 2236
186.592 762.66 2236
191.939 762.66 2236
197.286 762.66 2236
202.633 762.66 2236
208.259 763.683 2239
213.613 763.683 2239
219.26 764.706 2242
224.622 764.706 2242
229.983 764.706 2242
306.196 972.767 2852
313.016 972.767 2852
322.528 980.953 2876
329.978 982.658 2881
338.036 986.069 2891
344.95 986.069 2891
353.08 989.48 2901
360.638 991.185 2906
368.978 994.937 2917
375.954 994.937 2917
384.242 998.348 2927
392.578 1001.76 2937
402.458 1008.92 2958
409.532 1008.92 2958
417.31 1010.63 2963
427.403 1017.79 2984
437.742 1025.29 3006
444.93 1025.29 3006
456.18 1034.5 3033
463.432 1034.5 3033
470.685 1034.5 3033
477.938 1034.5 3033
502.497 1040.3 3050
509.791 1040.3 3050
517.084 1040.3 3050
524.378 1040.3 3050
531.671 1040.3 3050
572.246 1061.45 3112
579.688 1061.45 3112
587.129 1061.45 3112
584.827 1044.05 3061
592.147 1044.05 3061
599.467 1044.05 3061
606.787 1044.05 3061
614.106 1044.05 3061
621.426 1044.05 3061
628.746 1044.05 3061
631.494 1036.55 3039
630.564 1023.25 3000
630.935 1012.33 2968
638.033 1012.33 2968
644.043 1010.63 2963
653.546 1014.38 2974
660.658 1014.38 2974
667.77 1014.38 2974
667.62 1003.46 2942
672.362 1000.05 2932
678.214 998.348 2927
685.214 998.348 2927
692.213 998.348 2927
699.212 998.348 2927
705.005 996.642 2922
711.993 996.642 2922
721.441 1000.05 2932
728.452 1000.05 2932
736.718 1001.76 2937
745.007 1003.46 2942
754.854 1007.22 2953
761.916 1007.22 2953
768.977 1007.22 2953
776.039 1007.22 2953
789.995 1016.08 2979
797.119 1016.08 2979
807.212 1019.84 2990
824.712 1032.8 3028
841.02 1044.05 3061
848.339 1044.05 3061
866.841 1057.7 3101
882.432 1067.59 3130
891.622 1069.63 3136
899.122 1069.63 3136
906.621 1069.63 3136
908.873 1063.49 3118
916.329 1063.49 3118
920.526 1059.74 3107
926.164 1057.7 3101
931.773 1055.65 3095
937.353 1053.6 3089
944.74 1053.6 3089
950.586 1051.9 3084
954.233 1047.8 3072
956.258 1042.01 3055
965.456 1044.05 3061
972.776 1044.05 3061
980.095 1044.05 3061
987.415 1044.05 3061
994.735 1044.05 3061
998.454 1040.3 3050
1014.98 1049.85 3078
1037.62 1065.54 3124
1053.12 1073.73 3148
1060.65 1073.73 3148
1070.21 1075.77 3154
1077.75 1075.77 3154
1085.29 1075.77 3154
1092.84 1075.77 3154
1100.38 1075.77 3154
1112.14 1079.87 3166
1123.95 1083.96 3178
1131.55 1083.96 3178
1141.3 1086.01 3184
1151.08 1088.05 3190
1158.71 1088.05 3190
1166.34 1088.05 3190
1173.96 1088.05 3190
1177.15 1083.96 3178
1173.56 1073.73 3148
1181.09 1073.73 3148
1155.77 1044.05 3061
1169.55 1049.85 3078
1176.91 1049.85 3078
1184.27 1049.85 3078
1174.21 1034.5 3033
1154.19 1010.63 2963
1155.01 1005.17 2947
1162.06 1005.17 2947
1173.47 1008.92 2958
1180.54 1008.92 2958
1189.62 1010.63 2963
1196.71 1010.63 2963
1203.79 1010.63 2963
1210.88 1010.63 2963
1215.91 1008.92 2958
1218.43 1005.17 2947
1225.48 1005.17 2947
1226.25 1000.05 2932
1224.43 992.891 2911
1227.16 989.48 2901
1240.91 994.937 2917
1247.88 994.937 2917
1254.86 994.937 2917
1261.83 994.937 2917
1268.81 994.937 2917
1280.16 998.348 2927
1287.16 998.348 2927
1294.16 998.348 2927
1294.04 992.891 2911
1305.92 996.642 2922
1312.91 996.642 2922
1324.41 1000.05 2932
1343.23 1008.92 2958
1357.61 1014.38 2974
1364.72 1014.38 2974
1371.83 1014.38 2974
1376.16 1012.33 2968
1383.26 1012.33 2968
1373.49 1000.05 2932
1415.35 1025.29 3006
1448.56 1044.05 3061
1455.88 1044.05 3061
1463.2 1044.05 3061
1451.78 1030.75 3022
1459.01 1030.75 3022
1466.24 1030.75 3022
1447.14 1012.33 2968
1449.33 1008.92 2958
1465.08 1005.17 2947
1472.13 1005.17 2947
1479.18 1005.17 2947
1486.23 1005.17 2947
1493.27 1005.17 2947
1492.68 1000.05 2932
1497.14 998.348 2927
1527.12 986.069 2891
1600.89 1029.05 3017
1608.1 1029.05 3017
1615.32 1029.05 3017
1574.13 998.348 2927
1581.13 998.348 2927
1590.84 1000.05 2932
1597.85 1000.05 2932
1604.86 1000.05 2932
1609.13 998.348 2927
1616.13 998.348 2927
1625.9 1000.05 2932
1641.26 1005.17 2947
1648.31 1005.17 2947
1655.36 1005.17 2947
1674.25 1012.33 2968
1681.35 1012.33 2968
1688.45 1012.33 2968
1683.55 1005.17 2947
1690.59 1005.17 2947
1697.64 1005.17 2947
1701.8 1003.46 2942
1703.02 1000.05 2932
1710.03 1000.05 2932
1717.05 1000.05 2932
1742.29 1010.63 2963
1749.37 1010.63 2963
1756.46 1010.63 2963
1739.14 996.642 2922
1746.13 996.642 2922
-1899.69 950.403 2767
-1893.07 950.403 2767
-1889.18 951.777 2771
-1882.55 951.777 2771
-1875.93 951.777 2771
-1367.9 1001.92 2917
-1360.93 1001.92 2917
-1353.95 1001.92 2917
-1337.28 994.712 2896
-1318.87 986.125 2871
-1301.04 977.881 2847
-1294.23 977.881 2847
-1285.16 976.164 2842
-1276.12 974.446 2837
-1269.33 974.446 2837
-1264.77 976.164 2842
-1257.98 976.164 2842
-1257.78 981.316 2857
-1250.95 981.316 2857
-1244.12 981.316 2857
-1237.29 981.316 2857
-1245.1 992.994 2891
-1240.33 994.712 2896
-1242.35 1001.92 2917
-1235.37 1001.92 2917
-1228.4 1001.92 2917
-1227.7 1007.08 2932
-1220.69 1007.08 2932
-1213.68 1007.08 2932
-1215.31 1014.29 2953
-1212.34 1017.72 2963
-1213.8 1024.94 2984
-1206.66 1024.94 2984
-1201.94 1027 2990
-1194.79 1027 2990
-1187.64 1027 2990
-1180.49 1027 2990
-977.674 981.316 2857
-970.842 981.316 2857
-978.857 996.429 2901
-971.919 996.429 2901
-971.968 1003.64 2922
-966.631 1005.36 2927
-959.632 1005.36 2927
-952.633 1005.36 2927
-912.437 1047.61 3050
-905.143 1047.61 3050
-897.85 1047.61 3050
-890.556 1047.61 3050
-883.263 1047.61 3050
-874.246 1045.55 3044
-863.834 1041.77 3033
-855.169 1040.05 3028
-847.928 1040.05 3028
-837.633 1036.27 3017
-821.336 1024.94 2984
-809.834 1019.44 2968
-802.737 1019.44 2968
-791.618 1014.29 2953
-784.557 1014.29 2953
-777.495 1014.29 2953
-770.434 1014.29 2953
-763.372 1014.29 2953
-752.213 1008.79 2937
-737.324 998.146 2906
-726.605 992.994 2891
-719.692 992.994 2891
-712.779 992.994 2891
-709.528 998.146 2906
-702.579 998.146 2906
-695.629 998.146 2906
-685.126 992.994 2891
-675.866 989.56 2881
-666.655 986.125 2871
-659.79 986.125 2871
-647.466 977.881 2847
-640.658 977.881 2847
-636.076 981.316 2857
-631.227 984.407 2866
-624.373 984.407 2866
-619.674 987.842 2876
-612.797 987.842 2876
-608.026 991.277 2886
-601.125 991.277 2886
-595.253 992.994 2891
-588.34 992.994 2891
-581.427 992.994 2891
-574.513 992.994 2891
-566.619 991.277 2886
-557.778 987.842 2876
-550.9 987.842 2876
-545.915 991.277 2886
-539.013 991.277 2886
-533.034 992.994 2891
-530.852 1001.92 2917
-525.673 1005.36 2927
-518.673 1005.36 2927
-515.17 1012.23 2947
-508.123 1012.23 2947
-501.076 1012.23 2947
-494.029 1012.23 2947
-486.982 1012.23 2947
-469.186 989.56 2881
-462.297 989.56 2881
-454.617 987.842 2876
-418.184 983.033 2862
-411.915 984.407 2866
-405.062 984.407 2866
-398.208 984.407 2866
-391.355 984.407 2866
-384.502 984.407 2866
-377.648 984.407 2866
-370.277 983.033 2862
-362.798 981.316 2857
-354.72 977.881 2847
-347.912 977.881 2847
-341.104 977.881 2847
-351.674 1028.72 2995
-345.778 1032.49 3006
-338.59 1032.49 3006
-331.401 1032.49 3006
-323.027 1028.72 2995
-303.842 989.56 2881
-297.983 992.994 2891
-291.07 992.994 2891
-284.157 992.994 2891
-277.243 992.994 2891
-268.46 986.125 2871
-262.05 987.842 2876
-255.173 987.842 2876
-248.295 987.842 2876
-240.998 986.125 2871
-234.133 986.125 2871
-226.872 984.407 2866
-219.711 983.033 2862
-213.165 984.407 2866
-206.671 986.125 2871
-199.806 986.125 2871
-193.276 987.842 2876
-187.695 994.712 2896
-180.77 994.712 2896
-173.845 994.712 2896
-167.496 998.146 2906
-160.547 998.146 2906
-153.598 998.146 2906
-146.396 996.429 2901
-138.978 992.994 2891
-132.293 994.712 2896
-126.494 1003.64 2922
-119.506 1003.64 2922
-113.097 1008.79 2937
-107.193 1019.44 2968
-100.096 1019.44 2968
-92.9981 1019.44 2968
-85.1482 1010.51 2942
-57.0846 738.477 2150
-51.9433 738.477 2150
-46.8673 739.508 2153
-41.7189 739.508 2153
-36.5704 739.508 2153
-31.4219 739.508 2153
-26.2734 739.508 2153
-21.125 739.508 2153
-15.9913 740.195 2155
-10.8381 740.195 2155
-5.69273 741.225 2158
-0.533036 742.255 2161
4.641 743.286 2164
9.81578 743.286 2164
14.9906 743.286 2164
20.1933 744.316 2167
25.4338 746.034 2172
30.8674 751.873 2189
36.102 751.873 2189
41.3366 751.873 2189
46.7626 754.964 2198
52.1607 757.025 2204
57.4311 757.025 2204
63.3559 764.925 2227
68.8663 766.986 2233
74.3058 768.016 2236
79.6528 768.016 2236
85.5699 773.169 2251
91.3568 776.603 2261
96.7635 776.603 2261
102.17 776.603 2261
107.863 778.664 2267
113.583 780.725 2273
119.019 780.725 2273
124.454 780.725 2273
129.89 780.725 2273
134.968 778.664 2267
140.389 778.664 2267
145.424 776.603 2261
150.364 774.199 2254
155.339 772.138 2248
160.715 772.138 2248
165.647 770.077 2242
170.78 769.047 2239
175.898 768.016 2236
181.488 769.047 2239
186.842 769.047 2239
192.196 769.047 2239
197.286 768.016 2236
202.905 769.047 2239
208.259 769.047 2239
213.613 769.047 2239
219.26 770.077 2242
224.622 770.077 2242
229.983 770.077 2242
306.196 979.599 2852
313.016 979.599 2852
320.397 981.316 2857
327.229 981.316 2857
335.698 986.125 2871
342.563 986.125 2871
349.429 986.125 2871
358.156 991.277 2886
366.322 994.712 2896
373.247 994.712 2896
380.829 996.429 2901
390.573 1003.64 2922
397.56 1003.64 2922
404.548 1003.64 2922
412.944 1007.08 2932
423.679 1016.01 2958
433.082 1021.5 2974
440.194 1021.5 2974
453.773 1036.27 3017
460.988 1036.27 3017
468.202 1036.27 3017
475.417 1036.27 3017
560.845 1047.61 3050
569.07 1049.32 3055
576.375 1049.32 3055
584.827 1051.39 3061
592.147 1051.39 3061
599.467 1051.39 3061
606.787 1051.39 3061
612.903 1049.32 3055
616.96 1043.83 3039
624.227 1043.83 3039
623.39 1030.43 3000
628.462 1027 2990
627.747 1014.29 2953
634.808 1014.29 2953
640.566 1012.23 2947
646.514 1010.51 2942
653.549 1010.51 2942
660.584 1010.51 2942
661.946 1001.92 2917
667.546 999.864 2911
673.349 998.146 2906
680.298 998.146 2906
687.247 998.146 2906
694.196 998.146 2906
701.145 998.146 2906
708.094 998.146 2906
715.043 998.146 2906
720.75 996.429 2901
727.687 996.429 2901
734.625 996.429 2901
741.562 996.429 2901
747.209 994.712 2896
754.134 994.712 2896
762.373 996.429 2901
770.636 998.146 2906
777.585 998.146 2906
792.904 1008.79 2937
807.008 1017.72 2963
831.953 1040.05 3028
839.194 1040.05 3028
858.734 1055.16 3072
874.256 1065.12 3101
881.671 1065.12 3101
889.087 1065.12 3101
896.502 1065.12 3101
895.464 1055.16 3072
902.81 1055.16 3072
908.675 1053.45 3067
916.009 1053.45 3067
919.731 1049.32 3055
927.036 1049.32 3055
934.342 1049.32 3055
941.647 1049.32 3055
940.566 1040.05 3028
947.807 1040.05 3028
955.047 1040.05 3028
958.792 1036.27 3017
966.007 1036.27 3017
973.222 1036.27 3017
989.21 1045.55 3044
996.49 1045.55 3044
1007.4 1049.32 3055
1025.99 1061 3089
1053.12 1081.27 3148
1060.65 1081.27 3148
1070.21 1083.33 3154
1077.75 1083.33 3154
1085.29 1083.33 3154
1092.84 1083.33 3154
1100.38 1083.33 3154
1103.71 1079.21 3142
1115.46 1083.33 3154
1123.01 1083.33 3154
1139.15 1091.57 3178
1151.08 1095.69 3190
1158.71 1095.69 3190
1166.34 1095.69 3190
1173.96 1095.69 3190
1177.15 1091.57 3178
1164.62 1073.02 3124
1172.09 1073.02 3124
1153.5 1049.32 3055
1160.81 1049.32 3055
1168.12 1049.32 3055
1175.42 1049.32 3055
1174.21 1041.77 3033
1147.96 1012.23 2947
1151.09 1008.79 2937
1145.89 998.146 2906
1152.84 998.146 2906
1159.79 998.146 2906
1171.15 1001.92 2917
1178.13 1001.92 2917
1185.1 1001.92 2917
1192.08 1001.92 2917
1201.11 1003.64 2922
1208.1 1003.64 2922
1215.08 1003.64 2922
1215.38 998.146 2906
1220.23 996.429 2901
1227.16 996.429 2901
1240.91 1001.92 2917
1247.88 1001.92 2917
1254.86 1001.92 2917
1264 1003.64 2922
1270.98 1003.64 2922
1280.16 1005.36 2927
1287.16 1005.36 2927
1294.16 1005.36 2927
1291.82 998.146 2906
1303.69 1001.92 2917
1310.66 1001.92 2917
1324.41 1007.08 2932
1343.23 1016.01 2958
1350.3 1016.01 2958
1357.38 1016.01 2958
1364.45 1016.01 2958
1371.52 1016.01 2958
1378.6 1016.01 2958
1385.67 1016.01 2958
1407.81 1027 2990
1424.9 1034.21 3011
1432.1 1034.21 3011
1439.3 1034.21 3011
1446.5 1034.21 3011
1453.7 1034.21 3011
1460.9 1034.21 3011
1447.14 1019.44 2968
1449.33 1016.01 2958
1457.63 1007.08 2932
1464.64 1007.08 2932
1471.65 1007.08 2932
1476.14 1005.36 2927
1483.14 1005.36 2927
1490.14 1005.36 2927
1492.02 1001.92 2917
1487.39 989.56 2881
1494.28 989.56 2881
1503.77 991.277 2886
1510.67 991.277 2886
1517.57 991.277 2886
1527.12 992.994 2891
1534.03 992.994 2891
1543.61 994.712 2896
1558.56 999.864 2911
1568.75 1001.92 2917
1575.73 1001.92 2917
1590.84 1007.08 2932
1597.85 1007.08 2932
1604.86 1007.08 2932
1603.63 1001.92 2917
1610.61 1001.92 2917
1617.58 1001.92 2917
1638.48 1010.51 2942
1645.51 1010.51 2942
1652.55 1010.51 2942
1665.79 1014.29 2953
1672.85 1014.29 2953
1679.91 1014.29 2953
1669.26 1003.64 2922
1676.25 1003.64 2922
1683.24 1003.64 2922
1690.23 1003.64 2922
1682.11 994.712 2896
1701.29 1001.92 2917
1711.19 1003.64 2922
1742.29 1017.72 2963
1749.37 1017.72 2963
1756.46 1017.72 2963
1739.14 1003.64 2922
1746.13 1003.64 2922
-1899.69 957.031 2767
-1893.07 957.031 2767
-1889.18 958.415 2771
-1882.55 958.415 2771
-1875.93 958.415 2771
-1866.6 957.031 2767
-1707.22 991.273 2866
-1700.37 991.273 2866
-1693.52 991.273 2866
-1686.66 991.273 2866
-1668.67 984.701 2847
-1642.02 972.942 2813
-1635.29 972.942 2813
-1609.46 961.528 2780
-1364.8 996.461 2881
-1357.91 996.461 2881
-1351.02 996.461 2881
-1344.13 996.461 2881
-1337.24 996.461 2881
-1330.35 996.461 2881
-1314.74 989.889 2862
-1301.04 984.701 2847
-1294.23 984.701 2847
-1282.9 981.243 2837
-1276.12 981.243 2837
-1269.33 981.243 2837
-1262.55 981.243 2837
-1255.76 981.243 2837
-1253.38 984.701 2847
-1246.57 984.701 2847
-1244.12 988.16 2857
-1237.29 988.16 2857
-1232.61 989.889 2862
-1238.19 999.92 2891
-1233.4 1001.65 2896
-1226.48 1001.65 2896
-1225.87 1006.84 2911
-1221.42 1008.91 2917
-1216.53 1010.64 2922
-1209.54 1010.64 2922
-1206.67 1014.1 2932
-1208.25 1021.36 2953
-1213.8 1032.09 2984
-1206.66 1032.09 2984
-1201.94 1034.16 2990
-1194.79 1034.16 2990
-1187.64 1034.16 2990
-1180.49 1034.16 2990
-974.252 984.701 2847
-970.842 988.16 2857
-970.421 994.732 2876
-963.544 994.732 2876
-971.968 1010.64 2922
-966.631 1012.37 2927
-959.632 1012.37 2927
-952.633 1012.37 2927
-912.437 1054.91 3050
-905.143 1054.91 3050
-897.85 1054.91 3050
-890.556 1054.91 3050
-883.263 1054.91 3050
-874.246 1052.84 3044
-863.834 1049.03 3033
-852.062 1043.5 3017
-844.848 1043.5 3017
-837.633 1043.5 3017
-816.932 1026.55 2968
-798.647 1012.37 2927
-787.32 1006.84 2911
-780.359 1006.84 2911
-773.398 1006.84 2911
-766.437 1006.84 2911
-759.476 1006.84 2911
-752.515 1006.84 2911
-744.273 1005.11 2906
-732.25 998.19 2886
-722.835 994.732 2876
-715.958 994.732 2876
-709.08 994.732 2876
-703.424 996.461 2881
-696.534 996.461 2881
-689.645 996.461 2881
-679.201 991.273 2866
-671.409 989.889 2862
-661.082 984.701 2847
-654.274 984.701 2847
-645.192 981.243 2837
-636.382 978.13 2828
-631.624 981.243 2837
-627.042 984.701 2847
-620.234 984.701 2847
-615.581 988.16 2857
-609.814 989.889 2862
-602.97 989.889 2862
-596.126 989.889 2862
-589.282 989.889 2862
-582.438 989.889 2862
-576.399 991.273 2866
-569.545 991.273 2866
-562.692 991.273 2866
-555.063 989.889 2862
-548.219 989.889 2862
-542.131 991.273 2866
-535.278 991.273 2866
-533.034 999.92 2891
-527.031 1001.65 2896
-521.901 1005.11 2906
-514.952 1005.11 2906
-515.17 1019.29 2947
-508.123 1019.29 2947
-501.076 1019.29 2947
-494.029 1019.29 2947
-486.982 1019.29 2947
-469.186 996.461 2881
-462.297 996.461 2881
-417.454 988.16 2857
-411.915 991.273 2866
-405.062 991.273 2866
-398.208 991.273 2866
-390.809 989.889 2862
-383.965 989.889 2862
-377.121 989.889 2862
-367.69 982.972 2842
-360.893 982.972 2842
-352.851 979.513 2832
-346.079 979.513 2832
-339.307 979.513 2832
-351.674 1035.89 2995
-345.778 1039.7 3006
-338.59 1039.7 3006
-331.401 1039.7 3006
-323.027 1035.89 2995
-303.842 996.461 2881
-295.922 993.002 2871
-289.056 993.002 2871
-282.191 993.002 2871
-275.325 993.002 2871
-268.46 993.002 2871
-262.05 994.732 2876
-255.173 994.732 2876
-248.295 994.732 2876
-240.998 993.002 2871
-234.541 994.732 2876
-227.663 994.732 2876
-221.17 996.461 2881
-214.28 996.461 2881
-208.111 999.92 2891
-201.198 999.92 2891
-194.284 999.92 2891
-187.695 1001.65 2896
-181.082 1003.38 2901
-174.145 1003.38 2901
-167.496 1005.11 2906
-160.547 1005.11 2906
-153.598 1005.11 2906
-146.396 1003.38 2901
-139.219 1001.65 2896
-132.293 1001.65 2896
-126.494 1010.64 2922
-119.506 1010.64 2922
-113.097 1015.83 2937
-107.193 1026.55 2968
-100.096 1026.55 2968
-92.9981 1026.55 2968
-85.1482 1017.56 2942
-57.0846 743.628 2150
-51.9433 743.628 2150
-46.8673 744.665 2153
-41.7189 744.665 2153
-36.5704 744.665 2153
-31.4219 744.665 2153
-26.2734 744.665 2153
-21.125 744.665 2153
-16.0136 746.395 2158
-10.8532 746.395 2158
-5.70064 747.432 2161
-0.533776 748.47 2164
4.65173 750.199 2169
9.83846 750.199 2169
15.0252 750.199 2169
20.2119 750.199 2169
25.5743 755.387 2184
30.952 759.192 2195
36.201 759.192 2195
41.5632 761.267 2201
46.8902 762.305 2204
52.1607 762.305 2204
57.4311 762.305 2204
63.3559 770.26 2227
68.8663 772.335 2233
74.3058 773.373 2236
79.6528 773.373 2236
85.5699 778.561 2251
91.3568 782.02 2261
96.8919 783.057 2264
102.306 783.057 2264
107.863 784.095 2267
113.733 787.208 2276
119.176 787.208 2276
124.619 787.208 2276
130.061 787.208 2276
135.147 785.132 2270
140.575 785.132 2270
145.617 783.057 2264
150.564 780.636 2257
155.339 777.523 2248
160.715 777.523 2248
165.869 776.486 2245
171.237 776.486 2245
176.606 776.486 2245
181.974 776.486 2245
187.093 775.448 2242
192.454 775.448 2242
198.08 776.486 2245
203.448 776.486 2245
208.817 776.486 2245
213.899 775.448 2242
219.26 775.448 2242
224.622 775.448 2242
229.983 775.448 2242
300.426 989.889 2862
307.27 989.889 2862
314.114 989.889 2862
320.397 988.16 2857
327.229 988.16 2857
335.698 993.002 2871
342.563 993.002 2871
349.429 993.002 2871
358.156 998.19 2886
366.322 1001.65 2896
373.247 1001.65 2896
380.829 1003.38 2901
390.573 1010.64 2922
397.56 1010.64 2922
404.548 1010.64 2922
412.944 1014.1 2932
423.679 1023.09 2958
433.082 1028.63 2974
440.194 1028.63 2974
453.773 1043.5 3017
460.988 1043.5 3017
468.202 1043.5 3017
475.417 1043.5 3017
560.845 1054.91 3050
569.07 1056.64 3055
576.375 1056.64 3055
584.827 1058.72 3061
592.147 1058.72 3061
599.467 1058.72 3061
606.787 1058.72 3061
612.903 1056.64 3055
616.96 1051.11 3039
624.227 1051.11 3039
623.39 1037.62 3000
628.462 1034.16 2990
627.747 1021.36 2953
634.808 1021.36 2953
640.566 1019.29 2947
646.514 1017.56 2942
653.549 1017.56 2942
660.584 1017.56 2942
661.946 1008.91 2917
667.546 1006.84 2911
666.397 994.732 2876
674.445 996.461 2881
681.334 996.461 2881
688.224 996.461 2881
695.113 996.461 2881
703.221 998.19 2886
711.352 999.92 2891
718.266 999.92 2891
725.179 999.92 2891
732.092 999.92 2891
739.005 999.92 2891
745.919 999.92 2891
751.53 998.19 2886
759.745 999.92 2891
767.984 1001.65 2896
774.91 1001.65 2896
784.535 1005.11 2906
797.203 1012.37 2927
814.094 1024.82 2963
821.179 1024.82 2963
850.907 1052.84 3044
866.08 1062.52 3072
873.426 1062.52 3072
880.772 1062.52 3072
886.673 1060.79 3067
894.007 1060.79 3067
901.341 1060.79 3067
900.38 1051.11 3039
907.647 1051.11 3039
914.914 1051.11 3039
915.505 1043.5 3017
922.72 1043.5 3017
929.934 1043.5 3017
925.345 1030.36 2979
925.896 1023.09 2958
936.123 1026.55 2968
943.22 1026.55 2968
955.441 1032.09 2984
962.576 1032.09 2984
969.712 1032.09 2984
976.848 1032.09 2984
989.26 1037.62 3000
1018.69 1060.79 3067
1035.39 1070.48 3095
1042.79 1070.48 3095
1068.17 1088.81 3148
1075.7 1088.81 3148
1083.23 1088.81 3148
1088.68 1086.73 3142
1092.01 1082.58 3130
1099.49 1082.58 3130
1106.98 1082.58 3130
1116.6 1084.66 3136
1124.1 1084.66 3136
1146.75 1099.19 3178
1154.35 1099.19 3178
1161.95 1099.19 3178
1169.55 1099.19 3178
1177.15 1099.19 3178
1132.93 1051.11 3039
1140.2 1051.11 3039
1147.46 1051.11 3039
1154.73 1051.11 3039
1145.17 1035.89 2995
1152.34 1035.89 2995
1143.24 1021.36 2953
1136.28 1008.91 2917
1140.9 1006.84 2911
1139.97 999.92 2891
1146.89 999.92 2891
1153.8 999.92 2891
1162.72 1001.65 2896
1171.67 1003.38 2901
1178.6 1003.38 2901
1185.54 1003.38 2901
1194.53 1005.11 2906
1201.48 1005.11 2906
1208.43 1005.11 2906
1213.29 1003.38 2901
1218.12 1001.65 2896
1220.82 998.19 2886
1234.1 1003.38 2901
1241.04 1003.38 2901
1254.86 1008.91 2917
1264 1010.64 2922
1270.98 1010.64 2922
1277.97 1010.64 2922
1273.53 1001.65 2896
1280.45 1001.65 2896
1289.6 1003.38 2901
1301 1006.84 2911
1307.97 1006.84 2911
1324.41 1014.1 2932
1331.42 1014.1 2932
1345.28 1019.29 2947
1352.33 1019.29 2947
1376.44 1032.09 2984
1383.58 1032.09 2984
1390.72 1032.09 2984
1397.85 1032.09 2984
1378.15 1012.37 2927
1428.11 1023.09 2958
1435.19 1023.09 2958
1442.26 1023.09 2958
1443.94 1019.29 2947
1447.19 1006.84 2911
1454.15 1006.84 2911
1461.11 1006.84 2911
1468.07 1006.84 2911
1475.03 1006.84 2911
1474.36 1001.65 2896
1461.33 988.16 2857
1463.03 984.701 2847
1487.39 996.461 2881
1494.28 996.461 2881
1503.77 998.19 2886
1510.67 998.19 2886
1517.57 998.19 2886
1527.12 999.92 2891
1534.03 999.92 2891
1540.94 999.92 2891
1558.56 1006.84 2911
1568.75 1008.91 2917
1575.73 1008.91 2917
1590.84 1014.1 2932
1597.85 1014.1 2932
1604.86 1014.1 2932
1603.63 1008.91 2917
1607.29 1006.84 2911
1614.25 1006.84 2911
1624.56 1008.91 2917
1631.53 1008.91 2917
1638.51 1008.91 2917
1645.48 1008.91 2917
1652.46 1008.91 2917
1659.43 1008.91 2917
1666.41 1008.91 2917
1673.38 1008.91 2917
1668.26 1001.65 2896
1675.19 1001.65 2896
1670.5 994.732 2876
1680.29 996.461 2881
1704.75 1006.84 2911
1715.24 1008.91 2917
1722.21 1008.91 2917
1732.15 1010.64 2922
1739.14 1010.64 2922
1746.13 1010.64 2922
-1890.07 958.784 2753
-1883.49 958.784 2753
-1886.45 963.66 2767
-1879.84 963.66 2767
-1873.22 963.66 2767
-1866.6 963.66 2767
-1691.5 961.918 2762
-1684.9 961.918 2762
-1678.3 961.918 2762
-1707.22 998.138 2866
-1700.37 998.138 2866
-1693.52 998.138 2866
-1686.66 998.138 2866
-1668.67 991.521 2847
-1642.02 979.68 2813
-1635.29 979.68 2813
-1609.46 968.187 2780
-1597.62 965.053 2771
-1591 965.053 2771
-1584.37 965.053 2771
-1371.69 1003.36 2881
-1364.8 1003.36 2881
-1357.91 1003.36 2881
-1351.02 1003.36 2881
-1344.13 1003.36 2881
-1337.24 1003.36 2881
-1321.58 996.745 2862
-1307.85 991.521 2847
-1294.18 986.297 2832
-1287.41 986.297 2832
-1276.57 983.163 2823
-1269.82 983.163 2823
-1265.3 984.904 2828
-1258.54 984.904 2828
-1251.78 984.904 2828
-1246.78 986.297 2832
-1240.01 986.297 2832
-1235.41 988.039 2837
-1228.63 988.039 2837
-1224 989.78 2842
-1225.77 996.745 2862
-1229.14 1005.1 2886
-1222.24 1005.1 2886
-1215.34 1005.1 2886
-1212.63 1008.59 2896
-1214.44 1015.9 2917
-1207.47 1015.9 2917
-1200.49 1015.9 2917
-1205.79 1026.35 2947
-1207.29 1033.66 2968
-1200.19 1033.66 2968
-1201.94 1041.32 2990
-1194.79 1041.32 2990
-1187.64 1041.32 2990
-1180.49 1041.32 2990
-974.252 991.521 2847
-970.842 995.004 2857
-970.421 1001.62 2876
-963.544 1001.62 2876
-973.631 1019.38 2927
-978.52 1031.92 2963
-971.435 1031.92 2963
-964.349 1031.92 2963
-919.73 1062.22 3050
-912.437 1062.22 3050
-905.143 1062.22 3050
-897.85 1062.22 3050
-890.556 1062.22 3050
-883.263 1062.22 3050
-874.246 1060.13 3044
-863.834 1056.3 3033
-852.062 1050.73 3017
-844.848 1050.73 3017
-837.633 1050.73 3017
-816.932 1033.66 2968
-794.282 1013.81 2911
-785.968 1012.07 2906
-779.019 1012.07 2906
-770.741 1010.33 2901
-763.804 1010.33 2901
-756.867 1010.33 2901
-749.93 1010.33 2901
-741.712 1008.59 2896
-729.713 1001.62 2876
-720.322 998.138 2866
-713.468 998.138 2866
-705.629 996.745 2862
-698.785 996.745 2862
-691.941 996.745 2862
-685.097 996.745 2862
-675.883 993.263 2852
-666.717 989.78 2842
-657.599 986.297 2832
-650.827 986.297 2832
-643.145 984.904 2828
-635.257 983.163 2823
-628.507 983.163 2823
-624.839 988.039 2837
-618.055 988.039 2837
-611.271 988.039 2837
-607.683 993.263 2852
-600.863 993.263 2852
-594.043 993.263 2852
-588.253 995.004 2857
-582.438 996.745 2862
-575.594 996.745 2862
-568.75 996.745 2862
-561.906 996.745 2862
-555.063 996.745 2862
-548.219 996.745 2862
-541.375 996.745 2862
-534.531 996.745 2862
-533.034 1006.85 2891
-526.121 1006.85 2891
-519.207 1006.85 2891
-512.294 1006.85 2891
-515.17 1026.35 2947
-508.123 1026.35 2947
-501.076 1026.35 2947
-494.029 1026.35 2947
-486.982 1026.35 2947
-411.915 998.138 2866
-405.062 998.138 2866
-398.208 998.138 2866
-390.126 995.004 2857
-381.952 991.521 2847
-375.144 991.521 2847
-367.043 988.039 2837
-360.259 988.039 2837
-352.851 986.297 2832
-346.079 986.297 2832
-338.229 983.163 2823
-340.637 1010.33 2901
-343.937 1041.32 2990
-336.787 1041.32 2990
-329.637 1041.32 2990
-312.888 1010.33 2901
-303.842 1003.36 2881
-295.406 998.138 2866
-288.553 998.138 2866
-281.699 998.138 2866
-275.325 999.88 2871
-268.46 999.88 2871
-261.595 999.88 2871
-254.729 999.88 2871
-247.864 999.88 2871
-240.998 999.88 2871
-234.541 1001.62 2876
-227.663 1001.62 2876
-221.17 1003.36 2881
-214.28 1003.36 2881
-208.111 1006.85 2891
-201.198 1006.85 2891
-194.284 1006.85 2891
-187.695 1008.59 2896
-181.082 1010.33 2901
-174.145 1010.33 2901
-167.496 1012.07 2906
-160.547 1012.07 2906
-153.598 1012.07 2906
-146.396 1010.33 2901
-139.219 1008.59 2896
-132.293 1008.59 2896
-126.494 1017.64 2922
-119.506 1017.64 2922
-112.904 1021.12 2932
-106.651 1028.44 2953
-99.5896 1028.44 2953
-92.5281 1028.44 2953
-85.1482 1024.61 2942
-57.005 747.733 2147
-51.8709 747.733 2147
-46.802 748.778 2150
-41.7189 749.823 2153
-36.5704 749.823 2153
-31.4219 749.823 2153
-26.2734 749.823 2153
-21.125 749.823 2153
-16.0136 751.564 2158
-10.8532 751.564 2158
-5.70064 752.609 2161
-0.533776 753.654 2164
4.65173 755.395 2169
9.83846 755.395 2169
15.0252 755.395 2169
20.2119 755.395 2169
25.5743 760.619 2184
30.952 764.45 2195
36.201 764.45 2195
41.5632 766.54 2201
46.8902 767.584 2204
52.1607 767.584 2204
57.4311 767.584 2204
63.3559 775.595 2227
68.8663 777.684 2233
74.3058 778.729 2236
79.6528 778.729 2236
85.5699 783.953 2251
91.3568 787.436 2261
96.8919 788.481 2264
102.306 788.481 2264
107.863 789.525 2267
113.733 792.66 2276
119.176 792.66 2276
124.619 792.66 2276
130.061 792.66 2276
135.147 790.57 2270
140.575 790.57 2270
145.617 788.481 2264
150.564 786.043 2257
155.339 782.908 2248
160.715 782.908 2248
165.869 781.863 2245
171.237 781.863 2245
176.606 781.863 2245
181.974 781.863 2245
187.093 780.819 2242
192.454 780.819 2242
198.08 781.863 2245
203.448 781.863 2245
208.817 781.863 2245
213.899 780.819 2242
218.967 779.774 2239
300.426 996.745 2862
307.27 996.745 2862
314.114 996.745 2862
319.836 993.263 2852
326.084 991.521 2847
333.476 993.263 2852
340.296 993.263 2852
348.333 996.745 2862
356.294 999.88 2871
365.057 1005.1 2886
371.958 1005.1 2886
379.516 1006.85 2891
387.766 1010.33 2901
396.064 1013.81 2911
403.025 1013.81 2911
411.535 1017.64 2922
419.955 1021.12 2932
427.694 1022.87 2937
434.717 1022.87 2937
447.306 1035.75 2974
454.417 1035.75 2974
461.529 1035.75 2974
535.285 1013.81 2911
544.295 1017.64 2922
551.283 1017.64 2922
584.827 1066.05 3061
592.147 1066.05 3061
599.467 1066.05 3061
605.597 1063.96 3055
596.652 1035.75 2974
603.764 1035.75 2974
610.876 1035.75 2974
617.987 1035.75 2974
622.787 1031.92 2963
623.283 1021.12 2932
630.294 1021.12 2932
632.741 1013.81 2911
639.702 1013.81 2911
646.663 1013.81 2911
648.01 1005.1 2886
654.912 1005.1 2886
660.666 1003.36 2881
666.397 1001.62 2876
674.445 1003.36 2881
681.334 1003.36 2881
688.224 1003.36 2881
695.113 1003.36 2881
703.221 1005.1 2886
711.352 1006.85 2891
718.266 1006.85 2891
725.179 1006.85 2891
732.092 1006.85 2891
739.005 1006.85 2891
745.919 1006.85 2891
751.53 1005.1 2886
759.745 1006.85 2891
767.984 1008.59 2896
774.91 1008.59 2896
784.535 1012.07 2906
797.203 1019.38 2927
814.094 1031.92 2963
821.179 1031.92 2963
850.907 1060.13 3044
866.08 1069.88 3072
873.426 1069.88 3072
880.772 1069.88 3072
886.673 1068.14 3067
894.007 1068.14 3067
901.341 1068.14 3067
900.38 1058.39 3039
907.647 1058.39 3039
914.914 1058.39 3039
915.505 1050.73 3017
922.72 1050.73 3017
929.934 1050.73 3017
925.345 1037.49 2979
925.896 1030.18 2958
936.123 1033.66 2968
943.22 1033.66 2968
955.441 1039.23 2984
962.576 1039.23 2984
969.712 1039.23 2984
976.848 1039.23 2984
989.26 1044.81 3000
1018.69 1068.14 3067
1035.39 1077.89 3095
1042.79 1077.89 3095
1068.17 1096.35 3148
1075.7 1096.35 3148
1083.23 1096.35 3148
1088.68 1094.26 3142
1092.01 1090.08 3130
1099.49 1090.08 3130
1106.98 1090.08 3130
1116.6 1092.17 3136
1124.1 1092.17 3136
1146.75 1106.8 3178
1154.35 1106.8 3178
1161.95 1106.8 3178
1169.55 1106.8 3178
1177.15 1106.8 3178
1134.79 1060.13 3044
1142.07 1060.13 3044
1147.46 1058.39 3039
1154.73 1058.39 3039
1145.17 1043.07 2995
1152.34 1043.07 2995
1143.24 1028.44 2953
1136.28 1015.9 2917
1140.9 1013.81 2911
1143.92 1010.33 2901
1150.85 1010.33 2901
1157.79 1010.33 2901
1164.73 1010.33 2901
1171.67 1010.33 2901
1178.6 1010.33 2901
1185.54 1010.33 2901
1194.53 1012.07 2906
1201.48 1012.07 2906
1208.43 1012.07 2906
1213.29 1010.33 2901
1218.12 1008.59 2896
1220.82 1005.1 2886
1234.1 1010.33 2901
1241.04 1010.33 2901
1254.86 1015.9 2917
1264 1017.64 2922
1270.98 1017.64 2922
1277.97 1017.64 2922
1273.53 1008.59 2896
1280.45 1008.59 2896
1289.6 1010.33 2901
1301 1013.81 2911
1307.97 1013.81 2911
1324.41 1021.12 2932
1331.42 1021.12 2932
1345.28 1026.35 2947
1352.33 1026.35 2947
1376.44 1039.23 2984
1383.58 1039.23 2984
1390.72 1039.23 2984
1397.85 1039.23 2984
1378.15 1019.38 2927
1428.11 1030.18 2958
1435.19 1030.18 2958
1442.26 1030.18 2958
1443.94 1026.35 2947
1447.19 1013.81 2911
1454.15 1013.81 2911
1461.11 1013.81 2911
1468.07 1013.81 2911
1475.03 1013.81 2911
1474.36 1008.59 2896
1461.33 995.004 2857
1463.03 991.521 2847
1487.39 1003.36 2881
1494.28 1003.36 2881
1503.77 1005.1 2886
1521.14 1012.07 2906
1528.09 1012.07 2906
1535.04 1012.07 2906
1534.03 1006.85 2891
1543.61 1008.59 2896
1564.45 1017.64 2922
1571.44 1017.64 2922
1578.43 1017.64 2922
1590.84 1021.12 2932
1597.85 1021.12 2932
1604.86 1021.12 2932
1606.38 1017.64 2922
1613.37 1017.64 2922
1614.25 1013.81 2911
1635.69 1022.87 2937
1642.72 1022.87 2937
1649.74 1022.87 2937
1656.76 1022.87 2937
1663.79 1022.87 2937
1662.28 1017.64 2922
1666.41 1015.9 2917
1667.07 1012.07 2906
1665.38 1006.85 2891
1672.3 1006.85 2891
1664.69 998.138 2866
1671.54 998.138 2866
1687.18 1003.36 2881
1699.95 1006.85 2891
1706.86 1006.85 2891
1713.77 1006.85 2891
1720.69 1006.85 2891
1727.6 1006.85 2891
-1863.55 919.792 2623
-1857.27 919.792 2623
-1851 919.792 2623
-1844.73 919.792 2623
-1890.07 965.379 2753
-1883.49 965.379 2753
-1886.45 970.288 2767
-1879.84 970.288 2767
-1873.22 970.288 2767
-1866.6 970.288 2767
-1832.42 955.911 2726
-1698.11 968.535 2762
-1697.02 971.691 2771
-1693.44 973.444 2776
-1686.8 973.444 2776
-1680.16 973.444 2776
-1707.22 1005 2866
-1700.37 1005 2866
-1693.52 1005 2866
-1686.66 1005 2866
-1668.67 998.341 2847
-1642.02 986.419 2813
-1635.29 986.419 2813
-1609.46 974.847 2780
-1602.81 974.847 2780
-1604.2 979.756 2794
-1606.1 985.016 2809
-1599.38 985.016 2809
-1592.66 985.016 2809
-1371.69 1010.26 2881
-1364.8 1010.26 2881
-1357.91 1010.26 2881
-1351.02 1010.26 2881
-1344.13 1010.26 2881
-1337.24 1010.26 2881
-1321.58 1003.6 2862
-1307.85 998.341 2847
-1294.18 993.081 2832
-1287.41 993.081 2832
-1274.31 988.172 2818
-1269.82 989.925 2823
-1265.3 991.679 2828
-1258.54 991.679 2828
-1251.78 991.679 2828
-1245.02 991.679 2828
-1238.25 991.679 2828
-1233.23 993.081 2832
-1226.46 993.081 2832
-1221.84 994.835 2837
-1223.62 1001.85 2857
-1218.92 1003.6 2862
-1212.08 1003.6 2862
-1209.02 1006.76 2871
-1208.44 1012.02 2886
-1201.54 1012.02 2886
-1194.64 1012.02 2886
-1198.02 1020.78 2911
-1193.52 1022.89 2917
-1207.29 1040.77 2968
-1200.19 1040.77 2968
-1195.51 1042.88 2974
-1188.39 1042.88 2974
-1181.28 1042.88 2974
-975.963 1000.09 2852
-970.842 1001.85 2857
-970.421 1008.51 2876
-963.544 1008.51 2876
-982.279 1035.51 2953
-978.52 1039.02 2963
-973.074 1040.77 2968
-965.977 1040.77 2968
-958.879 1040.77 2968
-913.748 1029.9 2937
-921.235 1046.38 2984
-914.099 1046.38 2984
-906.963 1046.38 2984
-919.73 1069.53 3050
-912.437 1069.53 3050
-905.143 1069.53 3050
-897.85 1069.53 3050
-890.556 1069.53 3050
-883.263 1069.53 3050
-874.246 1067.42 3044
-859.277 1057.95 3017
-852.062 1057.95 3017
-844.848 1057.95 3017
-824.029 1040.77 2968
-801.243 1020.78 2911
-792.917 1019.03 2906
-781.911 1013.77 2891
-774.998 1013.77 2891
-768.085 1013.77 2891
-762.488 1015.52 2896
-755.563 1015.52 2896
-748.637 1015.52 2896
-735.309 1006.76 2871
-727.175 1005 2866
-715.546 998.341 2847
-708.738 998.341 2847
-701.93 998.341 2847
-693.901 996.588 2842
-687.105 996.588 2842
-680.309 996.588 2842
-672.328 994.835 2837
-664.371 993.081 2832
-654.348 988.172 2818
-647.61 988.172 2818
-639.734 986.419 2813
-630.982 983.263 2804
-624.277 983.263 2804
-617.571 983.263 2804
-610.866 983.263 2804
-607.177 988.172 2818
-602.569 991.679 2828
-595.807 991.679 2828
-589.877 993.081 2832
-583.105 993.081 2832
-578.368 996.588 2842
-574.589 1001.85 2857
-567.757 1001.85 2857
-560.925 1001.85 2857
-554.093 1001.85 2857
-547.261 1001.85 2857
-541.375 1003.6 2862
-534.531 1003.6 2862
-532.112 1012.02 2886
-526.121 1013.77 2891
-519.207 1013.77 2891
-512.294 1013.77 2891
-508.877 1020.78 2911
-508.123 1033.41 2947
-501.076 1033.41 2947
-494.029 1033.41 2947
-486.982 1033.41 2947
-410.622 1001.85 2857
-403.79 1001.85 2857
-396.958 1001.85 2857
-389.443 1000.09 2852
-381.282 996.588 2842
-374.486 996.588 2842
-366.396 993.081 2832
-359.624 993.081 2832
-352.353 991.679 2828
-345.59 991.679 2828
-338.229 989.925 2823
-338.289 1010.26 2881
-333.7 1017.28 2901
-326.763 1017.28 2901
-319.825 1017.28 2901
-312.888 1017.28 2901
-303.842 1010.26 2881
-295.406 1005 2866
-288.553 1005 2866
-281.699 1005 2866
-275.325 1006.76 2871
-268.46 1006.76 2871
-261.595 1006.76 2871
-254.729 1006.76 2871
-247.432 1005 2866
-240.579 1005 2866
-234.541 1008.51 2876
-227.663 1008.51 2876
-221.17 1010.26 2881
-214.28 1010.26 2881
-208.111 1013.77 2891
-201.198 1013.77 2891
-194.284 1013.77 2891
-187.371 1013.77 2891
-181.082 1017.28 2901
-174.145 1017.28 2901
-167.496 1019.03 2906
-160.547 1019.03 2906
-153.598 1019.03 2906
-146.396 1017.28 2901
-139.219 1015.52 2896
-132.065 1013.77 2891
-125.801 1019.03 2906
-118.852 1019.03 2906
-112.711 1026.39 2927
-106.254 1031.65 2942
-99.2187 1031.65 2942
-92.1835 1031.65 2942
-84.7141 1026.39 2927
-46.7367 752.876 2147
-41.7189 754.98 2153
-36.5704 754.98 2153
-31.4219 754.98 2153
-26.2734 754.98 2153
-21.1446 755.682 2155
-16.0359 757.786 2161
-10.8682 757.786 2161
-5.70856 758.838 2164
-0.534516 759.89 2167
4.65173 760.591 2169
9.83846 760.591 2169
15.0252 760.591 2169
20.2678 762.695 2175
25.6329 767.604 2189
30.952 769.708 2195
36.2999 771.812 2201
41.6198 772.864 2204
46.8902 772.864 2204
52.2317 773.916 2207
57.5093 773.916 2207
63.3559 780.929 2227
68.8663 783.033 2233
74.3058 784.085 2236
79.6528 784.085 2236
85.5699 789.345 2251
91.3568 792.852 2261
96.8919 793.904 2264
102.306 793.904 2264
107.863 794.956 2267
113.883 799.164 2279
119.333 799.164 2279
124.783 799.164 2279
130.233 799.164 2279
135.147 796.008 2270
140.575 796.008 2270
145.81 794.956 2267
150.831 792.852 2261
155.339 788.293 2248
160.715 788.293 2248
165.869 787.241 2245
171.237 787.241 2245
176.606 787.241 2245
181.974 787.241 2245
187.343 787.241 2245
192.969 788.293 2248
198.345 788.293 2248
203.72 788.293 2248
209.096 788.293 2248
213.899 786.189 2242
300.426 1003.6 2862
307.27 1003.6 2862
314.114 1003.6 2862
320.397 1001.85 2857
325.511 996.588 2842
332.892 998.341 2847
339.7 998.341 2847
347.116 1000.09 2852
353.936 1000.09 2852
363.16 1006.76 2871
370.025 1006.76 2871
378.86 1012.02 2886
386.429 1013.77 2891
394.703 1017.28 2901
401.64 1017.28 2901
409.986 1020.78 2911
418.523 1024.64 2922
426.966 1028.15 2932
433.977 1028.15 2932
440.989 1028.15 2932
535.285 1020.78 2911
544.295 1024.64 2922
551.283 1024.64 2922
558.27 1024.64 2922
565.258 1024.64 2922
572.245 1024.64 2922
579.232 1024.64 2922
587.223 1026.39 2927
595.237 1028.15 2932
602.249 1028.15 2932
609.26 1028.15 2932
616.271 1028.15 2932
616.693 1017.28 2901
623.63 1017.28 2901
628.393 1013.77 2891
634.208 1012.02 2886
641.109 1012.02 2886
645.765 1008.51 2876
652.642 1008.51 2876
656.309 1003.6 2862
663.153 1003.6 2862
669.997 1003.6 2862
676.841 1003.6 2862
683.685 1003.6 2862
691.494 1005 2866
698.347 1005 2866
705.201 1005 2866
712.054 1005 2866
718.908 1005 2866
725.761 1005 2866
733.893 1006.76 2871
740.758 1006.76 2871
748.926 1008.51 2876
755.803 1008.51 2876
765.333 1012.02 2886
772.234 1012.02 2886
781.835 1015.52 2896
791.484 1019.03 2906
806.95 1029.9 2937
813.973 1029.9 2937
831.339 1042.88 2974
858.186 1067.42 3044
865.465 1067.42 3044
872.744 1067.42 3044
880.023 1067.42 3044
880.89 1059.71 3022
888.116 1059.71 3022
890.602 1054.1 3006
878.676 1031.65 2942
885.711 1031.65 2942
892.746 1031.65 2942
899.782 1031.65 2942
905.276 1029.9 2937
910.746 1028.15 2932
904.924 1013.77 2891
916.568 1019.03 2906
923.517 1019.03 2906
930.466 1019.03 2906
937.415 1019.03 2906
952.814 1028.15 2932
959.825 1028.15 2932
978.707 1040.77 2968
1002.08 1057.95 3017
1026.02 1075.49 3067
1033.36 1075.49 3067
1050.19 1085.31 3095
1057.59 1085.31 3095
1069.12 1089.51 3107
1076.55 1089.51 3107
1083.98 1089.51 3107
1091.41 1089.51 3107
1098.84 1089.51 3107
1106.27 1089.51 3107
1113.7 1089.51 3107
1127.26 1095.48 3124
1134.73 1095.48 3124
1142.21 1095.48 3124
1136.8 1083.2 3089
1137.89 1077.24 3072
1134.79 1067.42 3044
1142.07 1067.42 3044
1141.04 1059.71 3022
1146.37 1057.95 3017
1145.17 1050.24 2995
1152.34 1050.24 2995
1138.98 1031.65 2942
1136.28 1022.89 2917
1140.9 1020.78 2911
1143.92 1017.28 2901
1150.85 1017.28 2901
1157.79 1017.28 2901
1164.73 1017.28 2901
1171.67 1017.28 2901
1178.6 1017.28 2901
1185.54 1017.28 2901
1194.53 1019.03 2906
1201.48 1019.03 2906
1208.43 1019.03 2906
1213.29 1017.28 2901
1211.81 1010.26 2881
1218.7 1010.26 2881
1227.72 1012.02 2886
1234.62 1012.02 2886
1241.52 1012.02 2886
1264 1024.64 2922
1270.98 1024.64 2922
1277.97 1024.64 2922
1273.53 1015.52 2896
1280.45 1015.52 2896
1289.6 1017.28 2901
1298.77 1019.03 2906
1305.72 1019.03 2906
1312.67 1019.03 2906
1329.15 1026.39 2927
1336.15 1026.39 2927
1343.15 1026.39 2927
1376.44 1046.38 2984
1383.58 1046.38 2984
1390.72 1046.38 2984
1397.85 1046.38 2984
1427.3 1006.76 2871
1434.17 1006.76 2871
1441.03 1006.76 2871
1447.9 1006.76 2871
1454.76 1006.76 2871
1454.5 1001.85 2857
1456.22 998.341 2847
1463.03 998.341 2847
1487.39 1010.26 2881
1494.28 1010.26 2881
1501.17 1010.26 2881
1521.14 1019.03 2906
1528.09 1019.03 2906
1535.04 1019.03 2906
1528.72 1010.26 2881
1546.27 1017.28 2901
1564.45 1024.64 2922
1576.82 1028.15 2932
1583.83 1028.15 2932
1593.55 1029.9 2937
1600.58 1029.9 2937
1607.6 1029.9 2937
1611.88 1028.15 2932
1618.89 1028.15 2932
1628.67 1029.9 2937
1638.48 1031.65 2942
1645.51 1031.65 2942
1652.55 1031.65 2942
1656.76 1029.9 2937
1663.79 1029.9 2937
1670.81 1029.9 2937
1666.41 1022.89 2917
1667.07 1019.03 2906
1665.38 1013.77 2891
1672.3 1013.77 2891
1664.69 1005 2866
1671.54 1005 2866
1687.18 1010.26 2881
1699.95 1013.77 2891
1706.86 1013.77 2891
1713.77 1013.77 2891
1720.69 1013.77 2891
1727.6 1013.77 2891
-1863.55 926.076 2623
-1857.27 926.076 2623
-1851 926.076 2623
-1844.73 926.076 2623
-1859.18 956.086 2708
-1852.7 956.086 2708
-1873.5 970.208 2748
-1866.93 970.208 2748
-1860.36 970.208 2748
-1853.78 970.208 2748
-1832.42 962.441 2726
-1698.11 975.151 2762
-1697.02 978.329 2771
-1693.44 980.094 2776
-1686.8 980.094 2776
-1680.16 980.094 2776
-1661.95 985.037 2790
-1655.28 985.037 2790
-1648.61 985.037 2790
-1641.94 985.037 2790
-1635.26 985.037 2790
-1628.59 985.037 2790
-1621.92 985.037 2790
-1609.46 981.506 2780
-1602.81 981.506 2780
-1604.2 986.449 2794
-1606.1 991.745 2809
-1599.38 991.745 2809
-1592.66 991.745 2809
-1371.69 1017.17 2881
-1364.8 1017.17 2881
-1357.91 1017.17 2881
-1351.02 1017.17 2881
-1330.6 1006.93 2852
-1323.78 1006.93 2852
-1312.35 1003.4 2842
-1300.96 999.865 2832
-1294.18 999.865 2832
-1287.41 999.865 2832
-1274.31 994.923 2818
-1269.82 996.688 2823
-1265.3 998.453 2828
-1258.54 998.453 2828
-1251.78 998.453 2828
-1245.02 998.453 2828
-1238.25 998.453 2828
-1233.23 999.865 2832
-1226.46 999.865 2832
-1221.84 1001.63 2837
-1223.62 1008.69 2857
-1218.92 1010.46 2862
-1212.08 1010.46 2862
-1209.02 1013.63 2871
-1208.44 1018.93 2886
-1201.54 1018.93 2886
-1194.64 1018.93 2886
-1198.02 1027.76 2911
-1193.52 1029.88 2917
-1207.29 1047.88 2968
-1200.19 1047.88 2968
-1195.51 1050 2974
-1188.39 1050 2974
-1181.28 1050 2974
-975.963 1006.93 2852
-970.842 1008.69 2857
-970.421 1015.4 2876
-963.544 1015.4 2876
-982.279 1042.59 2953
-978.52 1046.12 2963
-973.074 1047.88 2968
-965.977 1047.88 2968
-958.879 1047.88 2968
-938.634 1033.41 2927
-931.635 1033.41 2927
-909.485 1024.23 2901
-913.748 1036.94 2937
-921.235 1053.53 2984
-914.099 1053.53 2984
-906.963 1053.53 2984
-919.73 1076.83 3050
-912.437 1076.83 3050
-905.143 1076.83 3050
-897.85 1076.83 3050
-890.556 1076.83 3050
-883.263 1076.83 3050
-874.246 1074.71 3044
-859.277 1065.18 3017
-852.062 1065.18 3017
-844.848 1065.18 3017
-824.029 1047.88 2968
-801.243 1027.76 2911
-792.917 1025.99 2906
-781.911 1020.7 2891
-774.998 1020.7 2891
-768.085 1020.7 2891
-762.488 1022.46 2896
-755.563 1022.46 2896
-748.637 1022.46 2896
-735.309 1013.63 2871
-727.175 1011.87 2866
-715.546 1005.16 2847
-708.738 1005.16 2847
-701.93 1005.16 2847
-693.901 1003.4 2842
-687.105 1003.4 2842
-680.309 1003.4 2842
-672.328 1001.63 2837
-664.371 999.865 2832
-654.348 994.923 2818
-647.61 994.923 2818
-639.734 993.157 2813
-630.982 989.98 2804
-624.277 989.98 2804
-617.571 989.98 2804
-610.866 989.98 2804
-607.177 994.923 2818
-602.569 998.453 2828
-595.807 998.453 2828
-589.877 999.865 2832
-583.105 999.865 2832
-578.368 1003.4 2842
-574.589 1008.69 2857
-567.757 1008.69 2857
-560.925 1008.69 2857
-554.093 1008.69 2857
-547.261 1008.69 2857
-541.375 1010.46 2862
-534.531 1010.46 2862
-532.112 1018.93 2886
-526.121 1020.7 2891
-519.207 1020.7 2891
-512.294 1020.7 2891
-508.877 1027.76 2911
-508.123 1040.47 2947
-501.076 1040.47 2947
-494.029 1040.47 2947
-486.982 1040.47 2947
-405.618 980.094 2776
-410.622 1008.69 2857
-403.79 1008.69 2857
-396.958 1008.69 2857
-389.443 1006.93 2852
-376.854 991.745 2809
-370.664 993.157 2813
-363.938 993.157 2813
-357.211 993.157 2813
-350.484 993.157 2813
-343.757 993.157 2813
-337.63 994.923 2818
-330.891 994.923 2818
-331.399 1017.17 2881
-324.51 1017.17 2881
-317.62 1017.17 2881
-310.731 1017.17 2881
-303.314 1015.4 2876
-295.406 1011.87 2866
-288.553 1011.87 2866
-281.699 1011.87 2866
-275.325 1013.63 2871
-268.46 1013.63 2871
-261.595 1013.63 2871
-254.729 1013.63 2871
-247.432 1011.87 2866
-240.579 1011.87 2866
-234.541 1015.4 2876
-227.663 1015.4 2876
-221.17 1017.17 2881
-214.28 1017.17 2881
-208.111 1020.7 2891
-201.198 1020.7 2891
-194.284 1020.7 2891
-187.371 1020.7 2891
-180.458 1020.7 2891
-173.244 1018.93 2886
-166.919 1022.46 2896
-159.994 1022.46 2896
-153.069 1022.46 2896
-146.144 1022.46 2896
-138.498 1017.17 2881
-131.608 1017.17 2881
-125.152 1020.7 2891
-118.238 1020.7 2891
-111.325 1020.7 2891
-104.954 1025.99 2906
-98.0046 1025.99 2906
-91.0555 1025.99 2906
-83.5275 1018.93 2886
-46.7367 758.019 2147
-41.6026 758.019 2147
-36.4685 758.019 2147
-31.3343 758.019 2147
-26.2734 760.138 2153
-21.1446 760.844 2155
-16.0359 762.962 2161
-10.8682 762.962 2161
-5.70856 764.021 2164
-0.535009 765.787 2169
4.65816 766.846 2172
9.85207 766.846 2172
15.046 766.846 2172
20.2678 767.905 2175
25.668 773.907 2192
30.9097 773.907 2192
36.2999 777.085 2201
41.6198 778.144 2204
46.8902 778.144 2204
52.2317 779.203 2207
57.5093 779.203 2207
63.2705 785.205 2224
68.7738 787.323 2230
74.3058 789.442 2236
79.6528 789.442 2236
85.4559 793.678 2248
91.074 795.797 2254
96.7635 798.268 2261
102.17 798.268 2261
107.863 800.387 2267
113.883 804.623 2279
119.333 804.623 2279
124.783 804.623 2279
