735.105 1075.75 2699
741.559 1075.75 2699
748.013 1075.75 2699
752.231 1072.56 2691
758.666 1072.56 2691
765.101 1072.56 2691
771.536 1072.56 2691
775.369 1068.98 2682
771.872 1055.43 2648
778.204 1055.43 2648
784.536 1055.43 2648
793.258 1058.61 2656
799.609 1058.61 2656
805.96 1058.61 2656
812.311 1058.61 2656
818.663 1058.61 2656
825.014 1058.61 2656
835.435 1063.8 2669
841.817 1063.8 2669
848.199 1063.8 2669
854.582 1063.8 2669
858.383 1060.61 2661
860.522 1055.43 2648
866.854 1055.43 2648
873.186 1055.43 2648
879.519 1055.43 2648
888.527 1058.61 2656
899.258 1063.8 2669
905.641 1063.8 2669
915.099 1067.38 2678
924.255 1070.57 2686
930.678 1070.57 2686
937.101 1070.57 2686
943.524 1070.57 2686
947.118 1067.38 2678
953.522 1067.38 2678
959.926 1067.38 2678
966.33 1067.38 2678
985.447 1081.33 2713
991.934 1081.33 2713
1009.83 1093.69 2744
1016.39 1093.69 2744
1031.53 1102.86 2767
1041.52 1106.44 2776
1048.16 1106.44 2776
1054.8 1106.44 2776
1064.88 1110.03 2785
1071.54 1110.03 2785
1078.2 1110.03 2785
1084.86 1110.03 2785
1089.56 1108.04 2780
1092.66 1104.45 2771
1099.28 1104.45 2771
1098.72 1097.28 2753
1098.08 1090.1 2735
1104.62 1090.1 2735
1111.16 1090.1 2735
1110.35 1082.93 2717
1091.77 1058.61 2656
1112.59 1072.56 2691
1119.03 1072.56 2691
1125.46 1072.56 2691
1128.11 1068.98 2682
1132.83 1067.38 2678
1132 1060.61 2661
1138.37 1060.61 2661
1133.55 1050.24 2635
1134.66 1045.46 2623
1130.49 1035.9 2599
1136.7 1035.9 2599
1142.92 1035.9 2599
1143.39 1030.71 2586
1149.57 1030.71 2586
1161.56 1035.9 2599
1173.17 1040.68 2611
1179.41 1040.68 2611
1189.29 1043.87 2619
1195.55 1043.87 2619
1201.82 1043.87 2619
1208.08 1043.87 2619
1212.49 1042.27 2615
1216.88 1040.68 2611
1223.12 1040.68 2611
1223.71 1035.9 2599
1231.82 1037.49 2603
1239.95 1039.08 2607
1253.83 1045.46 2623
1260.1 1045.46 2623
1274.58 1052.24 2640
1288.66 1058.61 2656
1301.35 1063.8 2669
1307.73 1063.8 2669
1316.08 1065.39 2673
1333.36 1074.16 2695
1339.8 1074.16 2695
1346.25 1074.16 2695
1352.69 1074.16 2695
1359.14 1074.16 2695
1365.58 1074.16 2695
1378.65 1079.34 2708
1385.12 1079.34 2708
1391.6 1079.34 2708
1402.72 1082.93 2717
1411.29 1084.52 2721
1417.8 1084.52 2721
1433.73 1091.7 2739
1447.64 1097.28 2753
1458.97 1100.86 2762
1465.58 1100.86 2762
1472.18 1100.86 2762
1478.79 1100.86 2762
1485.39 1100.86 2762
1489.3 1098.87 2757
1495.89 1098.87 2757
1500.3 1097.28 2753
1506.89 1097.28 2753
1513.47 1097.28 2753
1517.29 1095.28 2748
1523.86 1095.28 2748
1530.44 1095.28 2748
1537.01 1095.28 2748
1543.58 1095.28 2748
1550.15 1095.28 2748
1556.72 1095.28 2748
1566.14 1097.28 2753
1572.72 1097.28 2753
1584.47 1100.86 2762
1591.07 1100.86 2762
1597.68 1100.86 2762
1599.05 1097.28 2753
1605.64 1097.28 2753
1609.29 1095.28 2748
1624.09 1100.86 2762
1630.7 1100.86 2762
1650.94 1110.03 2785
1668.91 1117.6 2804
1683.98 1123.18 2818
1690.72 1123.18 2818
1711.91 1132.75 2842
1718.71 1132.75 2842
1725.5 1132.75 2842
1729.25 1130.76 2837
1732.98 1128.76 2832
1734.22 1125.18 2823
1734.8 1121.19 2813
1741.53 1121.19 2813
1745.77 1119.6 2809
1749.37 1117.6 2804
1752.94 1115.61 2799
1759.64 1115.61 2799
1754.34 1108.04 2780
1749.59 1100.86 2762
1739.02 1090.1 2735
1745.56 1090.1 2735
1752.1 1090.1 2735
1758.64 1090.1 2735
1741.95 1075.75 2699
1734.8 1067.38 2678
1741.2 1067.38 2678
1711.71 1045.46 2623
1710.13 1040.68 2611
1713.74 1039.08 2607
1719.98 1039.08 2607
1895.66 1093.69 2744
1902.23 1093.69 2744
1915.05 1097.28 2753
1934.2 1104.45 2771
1963.94 1117.6 2804
1970.64 1117.6 2804
1980.87 1119.6 2809
1987.59 1119.6 2809
1994.31 1119.6 2809
2001.02 1119.6 2809
2007.74 1119.6 2809
2020.91 1123.18 2818
2034.85 1127.17 2828
2041.61 1127.17 2828
2069.38 1138.73 2857
2076.21 1138.73 2857
2083.04 1138.73 2857
2086.22 1136.73 2852
2075.42 1127.17 2828
-1774.48 950.299 2370
-1794.19 963.932 2404
-1798.85 969.545 2418
-1808.64 977.966 2439
-1802.81 977.966 2439
-1813.19 986.787 2461
-1839.61 1004.43 2505
-1833.62 1004.43 2505
-1830.55 1006.03 2509
-1824.55 1006.03 2509
-1818.55 1006.03 2509
-1894.56 1058.56 2640
-1896.83 1063.37 2652
-1890.49 1063.37 2652
-1890.54 1066.98 2661
-1892.68 1071.79 2673
-1886.29 1071.79 2673
-1879.89 1071.79 2673
-1873.5 1071.79 2673
-1858.73 1066.98 2661
-1864.2 1073.8 2678
-1857.79 1073.8 2678
-1919.14 1113.09 2776
-1928.35 1122.32 2799
-1928.52 1126.32 2809
-1921.8 1126.32 2809
-1921.22 1129.93 2818
-1914.48 1129.93 2818
-1907.74 1129.93 2818
-1862.1 1118.71 2790
-1855.43 1118.71 2790
-1848.76 1118.71 2790
-1842.09 1118.71 2790
-1835.42 1118.71 2790
-1828.74 1118.71 2790
-1822.07 1118.71 2790
-1815.4 1118.71 2790
-1808.73 1118.71 2790
-1636.44 1054.95 2631
-1630.15 1054.95 2631
-1623.86 1054.95 2631
-1636.1 1075.4 2682
-1629.68 1075.4 2682
-1623.27 1075.4 2682
-1606.61 1068.59 2665
-1600.24 1068.59 2665
-1604.03 1075.4 2682
-1597.62 1075.4 2682
-1591.2 1075.4 2682
-1577.11 1070.19 2669
-1570.73 1070.19 2669
-1336.22 977.966 2439
-1330.39 977.966 2439
-1324.55 977.966 2439
-1311.15 972.352 2425
-1305.35 972.352 2425
-1292.05 966.739 2411
-1275.08 958.318 2390
-1237.83 1032.1 2574
-1231.68 1032.1 2574
-1225.52 1032.1 2574
-1214.16 1027.69 2563
-1208.03 1027.69 2563
-1201.9 1027.69 2563
-1195.77 1027.69 2563
-1189.64 1027.69 2563
-1195.98 1038.51 2590
-1189.79 1038.51 2590
-1183.59 1038.51 2590
-1177.4 1038.51 2590
-1171.21 1038.51 2590
-1143.87 1019.67 2543
-1137.79 1019.67 2543
-1129.93 1018.06 2539
-1123.86 1018.06 2539
-1111.18 1012.05 2524
-1105.15 1012.05 2524
-1092.58 1006.03 2509
-1086.58 1006.03 2509
-1080.58 1006.03 2509
-1019.62 1029.29 2567
-1013.48 1029.29 2567
-1007.34 1029.29 2567
-1001.2 1029.29 2567
-1005.53 1040.12 2594
-1001.26 1042.12 2599
-995.041 1042.12 2599
-990.347 1043.72 2603
-990.172 1050.14 2619
-983.909 1050.14 2619
-977.646 1050.14 2619
-971.384 1050.14 2619
-960.699 1045.33 2607
-958.858 1050.14 2619
-952.595 1050.14 2619
-949.223 1053.35 2627
-942.941 1053.35 2627
-936.659 1053.35 2627
-930.377 1053.35 2627
-922.688 1051.74 2623
-912.223 1046.93 2611
-910.143 1051.74 2623
-906.628 1054.95 2631
-900.336 1054.95 2631
-902.54 1064.98 2656
-896.189 1064.98 2656
-889.837 1064.98 2656
-883.486 1064.98 2656
-873.172 1060.16 2644
-866.849 1060.16 2644
-861.828 1061.77 2648
-855.496 1061.77 2648
-849.164 1061.77 2648
-841.559 1060.16 2644
-837.763 1063.37 2652
-831.422 1063.37 2652
-826.324 1064.98 2656
-819.973 1064.98 2656
-815.153 1066.98 2661
-808.79 1066.98 2661
-803.633 1068.59 2665
-797.26 1068.59 2665
-790.887 1068.59 2665
-784.515 1068.59 2665
-775.514 1064.98 2656
-769.163 1064.98 2656
-762.811 1064.98 2656
-754.181 1061.77 2648
-746.72 1060.16 2644
-740.397 1060.16 2644
-734.074 1060.16 2644
-725.275 1056.56 2635
-716.791 1053.35 2627
-710.509 1053.35 2627
-704.227 1053.35 2627
-696.882 1051.74 2623
-687.45 1046.93 2611
-681.206 1046.93 2611
-674.963 1046.93 2611
-666.67 1043.72 2603
-658.162 1040.12 2594
-651.959 1040.12 2594
-645.756 1040.12 2594
-639.553 1040.12 2594
-633.35 1040.12 2594
-629.323 1043.72 2603
-623.098 1043.72 2603
-617.822 1045.33 2607
-611.588 1045.33 2607
-605.353 1045.33 2607
-598.2 1043.72 2603
-591.975 1043.72 2603
-584.851 1042.12 2599
-576.632 1038.51 2590
-570.439 1038.51 2590
-564.245 1038.51 2590
-558.052 1038.51 2590
-551.858 1038.51 2590
-545.665 1038.51 2590
-539.471 1038.51 2590
-533.278 1038.51 2590
-527.084 1038.51 2590
-520.891 1038.51 2590
-514.697 1038.51 2590
-508.504 1038.51 2590
-503.086 1040.12 2594
-496.883 1040.12 2594
-490.68 1040.12 2594
-484.477 1040.12 2594
-478.274 1040.12 2594
-467.885 1030.89 2571
-461.737 1030.89 2571
-456.121 1032.1 2574
-449.966 1032.1 2574
-443.81 1032.1 2574
-439.015 1035.3 2582
-433.512 1036.91 2586
-427.328 1036.91 2586
-424.564 1045.33 2607
-419.613 1048.54 2615
-414.625 1051.74 2623
-408.352 1051.74 2623
-404.686 1058.56 2640
-398.373 1058.56 2640
-393.248 1061.77 2648
-386.916 1061.77 2648
-380.583 1061.77 2648
-374.251 1061.77 2648
-370.281 1068.59 2665
-363.908 1068.59 2665
-359.28 1073.8 2678
-353.93 1077.01 2686
-347.507 1077.01 2686
-341.084 1077.01 2686
-335.782 1080.61 2695
-329.337 1080.61 2695
-322.893 1080.61 2695
-315.392 1077.01 2686
-308.968 1077.01 2686
-300.18 1068.59 2665
-293.807 1068.59 2665
-287.003 1066.98 2661
-280.112 1064.98 2656
-273.761 1064.98 2656
-267.41 1064.98 2656
-261.058 1064.98 2656
-254.707 1064.98 2656
-248.356 1064.98 2656
-242.005 1064.98 2656
-234.943 1061.77 2648
-228.611 1061.77 2648
-222.279 1061.77 2648
-215.947 1061.77 2648
-209.615 1061.77 2648
-202.976 1060.16 2644
-195.984 1056.56 2635
-190.33 1060.16 2644
-184.843 1064.98 2656
-178.492 1064.98 2656
-172.14 1064.98 2656
-165.04 1060.16 2644
-158.717 1060.16 2644
-151.876 1056.56 2635
-144.47 1048.54 2615
-116.118 922.632 2301
-110.615 922.632 2301
-105.113 922.632 2301
-99.4807 921.429 2298
-93.8628 920.226 2295
-88.3747 920.226 2295
-82.7784 919.023 2292
-76.8591 913.811 2279
-71.2213 911.405 2273
-65.7858 911.405 2273
-59.9256 904.989 2257
-54.4559 903.786 2254
-49.0659 903.786 2254
-43.676 903.786 2254
-38.4049 906.593 2261
-32.9981 906.593 2261
-27.5914 906.593 2261
-22.1846 906.593 2261
-16.7779 906.593 2261
-11.3712 906.593 2261
-5.97235 907.796 2264
-0.558442 907.796 2264
4.8619 908.999 2267
10.283 908.999 2267
15.7041 908.999 2267
21.1531 910.202 2270
26.5814 910.202 2270
32.0096 910.202 2270
37.4379 910.202 2270
42.8661 910.202 2270
48.3582 911.405 2273
53.7937 911.405 2273
59.3854 913.811 2279
65.0059 916.216 2285
70.5626 917.419 2288
76.0339 917.419 2288
81.5052 917.419 2288
86.8624 916.216 2285
92.3265 916.216 2285
97.9191 917.419 2288
103.39 917.419 2288
109.052 919.023 2292
114.683 920.226 2295
120.171 920.226 2295
125.659 920.226 2295
131.147 920.226 2295
136.814 921.429 2298
142.495 922.632 2301
147.997 922.632 2301
153.9 925.038 2307
160.522 931.453 2323
166.363 933.057 2327
171.927 933.057 2327
178.255 937.067 2337
185.338 944.685 2356
191.296 946.289 2360
196.94 946.289 2360
205.416 959.521 2393
221.991 1008.84 2516
228.007 1008.84 2516
238.023 1026.08 2559
244.524 1027.69 2563
250.653 1027.69 2563
256.782 1027.69 2563
264.45 1033.7 2578
271.454 1036.91 2586
279.034 1042.12 2599
285.249 1042.12 2599
293.707 1050.14 2619
300.428 1051.74 2623
307.168 1053.35 2627
313.927 1054.95 2631
320.218 1054.95 2631
327.006 1056.56 2635
334.446 1060.16 2644
341.8 1063.37 2652
348.141 1063.37 2652
356.221 1068.59 2665
362.594 1068.59 2665
369.52 1070.19 2669
375.903 1070.19 2669
382.285 1070.19 2669
391.871 1079.01 2691
398.306 1079.01 2691
404.741 1079.01 2691
411.176 1079.01 2691
418.232 1080.61 2695
425.307 1082.22 2699
431.761 1082.22 2699
438.215 1082.22 2699
443.351 1079.01 2691
449.786 1079.01 2691
455.373 1077.01 2686
462.656 1079.01 2691
469.788 1080.61 2695
476.233 1080.61 2695
482.677 1080.61 2695
489.122 1080.61 2695
494.831 1079.01 2691
501.266 1079.01 2691
505.248 1073.8 2678
511.652 1073.8 2678
515.541 1068.59 2665
521.914 1068.59 2665
528.287 1068.59 2665
534.66 1068.59 2665
541.033 1068.59 2665
546.584 1066.98 2661
552.947 1066.98 2661
559.31 1066.98 2661
565.674 1066.98 2661
570.962 1064.98 2656
577.313 1064.98 2656
583.665 1064.98 2656
586.462 1058.56 2640
592.775 1058.56 2640
599.995 1060.16 2644
606.318 1060.16 2644
612.641 1060.16 2644
618.963 1060.16 2644
625.286 1060.16 2644
631.608 1060.16 2644
636.966 1058.56 2640
643.279 1058.56 2640
649.592 1058.56 2640
655.905 1058.56 2640
659.96 1054.95 2631
670.557 1061.77 2648
680.212 1066.98 2661
686.575 1066.98 2661
692.939 1066.98 2661
699.302 1066.98 2661
706.726 1068.59 2665
713.099 1068.59 2665
719.472 1068.59 2665
729.385 1073.8 2678
735.789 1073.8 2678
742.193 1073.8 2678
747.199 1071.79 2673
753.591 1071.79 2673
756.571 1066.98 2661
762.935 1066.98 2661
764.383 1060.16 2644
765.75 1053.35 2627
772.032 1053.35 2627
778.314 1053.35 2627
785.791 1054.95 2631
792.082 1054.95 2631
798.374 1054.95 2631
804.665 1054.95 2631
812.19 1056.56 2635
818.491 1056.56 2635
827.609 1060.16 2644
833.932 1060.16 2644
840.254 1060.16 2644
846.577 1060.16 2644
849.996 1056.56 2635
853.698 1053.35 2627
859.98 1053.35 2627
866.262 1053.35 2627
872.544 1053.35 2627
880.164 1054.95 2631
889.487 1058.56 2640
895.801 1058.56 2640
906.214 1063.37 2652
918.406 1070.19 2669
924.788 1070.19 2669
931.17 1070.19 2669
937.553 1070.19 2669
939.337 1064.98 2656
944.264 1063.37 2652
950.606 1063.37 2652
956.948 1063.37 2652
968.012 1068.59 2665
975.847 1070.19 2669
991.798 1080.61 2695
998.242 1080.61 2695
1012.89 1089.44 2717
1020.89 1091.04 2721
1027.39 1091.04 2721
1033.9 1091.04 2721
1047.29 1098.26 2739
1053.84 1098.26 2739
1060.39 1098.26 2739
1066.94 1098.26 2739
1071.92 1096.65 2735
1076.49 1094.65 2730
1083.02 1094.65 2730
1079.17 1084.22 2704
1080.42 1079.01 2691
1086.85 1079.01 2691
1093.29 1079.01 2691
1099.72 1079.01 2691
1091.77 1064.98 2656
1112.59 1079.01 2691
1119.03 1079.01 2691
1125.46 1079.01 2691
1128.11 1075.4 2682
1129.02 1070.19 2669
1128.17 1063.37 2652
1134.52 1063.37 2652
1131.82 1054.95 2631
1134.66 1051.74 2623
1130.49 1042.12 2599
1136.7 1042.12 2599
1142.92 1042.12 2599
1143.39 1036.91 2586
1149.57 1036.91 2586
1159.33 1040.12 2594
1171.37 1045.33 2607
1177.61 1045.33 2607
1189.29 1050.14 2619
1195.55 1050.14 2619
1201.82 1050.14 2619
1208.08 1050.14 2619
1212.49 1048.54 2615
1215.01 1045.33 2607
1221.25 1045.33 2607
1221.36 1040.12 2594
1229.93 1042.12 2599
1238.05 1043.72 2603
1253.83 1051.74 2623
1260.1 1051.74 2623
1274.58 1058.56 2640
1288.66 1064.98 2656
1301.35 1070.19 2669
1307.73 1070.19 2669
1314.11 1070.19 2669
1333.36 1080.61 2695
1339.8 1080.61 2695
1346.25 1080.61 2695
1352.69 1080.61 2695
1348.04 1071.79 2673
1359 1075.4 2682
1372.03 1080.61 2695
1378.47 1080.61 2695
1384.92 1080.61 2695
1396.01 1084.22 2704
1407.14 1087.83 2713
1413.63 1087.83 2713
1426.92 1093.04 2726
1445.01 1101.87 2748
1454.22 1103.87 2753
1460.8 1103.87 2753
1467.39 1103.87 2753
1473.97 1103.87 2753
1480.55 1103.87 2753
1487.14 1103.87 2753
1493.72 1103.87 2753
1500.3 1103.87 2753
1506.89 1103.87 2753
1513.47 1103.87 2753
1517.29 1101.87 2748
1523.86 1101.87 2748
1530.44 1101.87 2748
1537.01 1101.87 2748
1543.58 1101.87 2748
1550.15 1101.87 2748
1556.72 1101.87 2748
1566.14 1103.87 2753
1572.72 1103.87 2753
1584.47 1107.48 2762
1591.07 1107.48 2762
1597.68 1107.48 2762
1599.05 1103.87 2753
1605.64 1103.87 2753
1609.29 1101.87 2748
1624.09 1107.48 2762
1630.7 1107.48 2762
1650.94 1116.7 2785
1668.91 1124.32 2804
1683.98 1129.93 2818
1690.72 1129.93 2818
1711.91 1139.56 2842
1718.71 1139.56 2842
1725.5 1139.56 2842
1729.25 1137.55 2837
1732.98 1135.55 2832
1734.22 1131.94 2823
1734.8 1127.93 2813
1741.53 1127.93 2813
1745.77 1126.32 2809
1749.37 1124.32 2804
1752.94 1122.32 2799
1759.64 1122.32 2799
1754.34 1114.7 2780
1749.59 1107.48 2762
1739.02 1096.65 2735
1745.56 1096.65 2735
1752.1 1096.65 2735
1758.64 1096.65 2735
1741.95 1082.22 2699
1734.8 1073.8 2678
1741.2 1073.8 2678
1714.33 1053.35 2627
1715.37 1050.14 2619
1721.63 1050.14 2619
1727.89 1050.14 2619
1726.21 1045.33 2607
1876.71 1093.04 2726
1895.66 1100.26 2744
1902.23 1100.26 2744
1915.05 1103.87 2753
1937.69 1113.09 2776
1963.94 1124.32 2804
1970.64 1124.32 2804
1980.87 1126.32 2809
1987.59 1126.32 2809
1994.31 1126.32 2809
2001.02 1126.32 2809
2014.17 1129.93 2818
2020.91 1129.93 2818
2034.85 1133.94 2828
2041.61 1133.94 2828
2069.38 1145.57 2857
2076.21 1145.57 2857
2083.04 1145.57 2857
2086.22 1143.57 2852
2085.7 1139.56 2842
-1774.48 955.976 2370
-1785.98 965.254 2393
-1788.44 969.691 2404
-1793.07 975.338 2418
-1787.29 975.338 2418
-1796.98 983.808 2439
-1817.58 998.33 2475
-1811.66 998.33 2475
-1813.77 1002.77 2486
-1807.83 1002.77 2486
-1801.88 1002.77 2486
-1894.56 1064.89 2640
-1896.83 1069.73 2652
-1890.49 1069.73 2652
-1884.15 1069.73 2652
-1884.18 1073.36 2661
-1883.46 1076.58 2669
-1877.08 1076.58 2669
-1870.7 1076.58 2669
-1858.73 1073.36 2661
-1864.2 1080.21 2678
-1857.79 1080.21 2678
-1878.35 1095.94 2717
-1912.5 1119.74 2776
-1905.86 1119.74 2776
-1899.23 1119.74 2776
-1836.17 1117.73 2771
-1829.54 1117.73 2771
-1822.92 1117.73 2771
-1789.42 1101.19 2730
-1777.01 1097.56 2721
-1313.15 975.338 2418
-1307.37 975.338 2418
-1301.58 975.338 2418
-1288.3 969.691 2404
-1269.75 960.01 2380
-1226.77 1028.99 2551
-1220.67 1028.99 2551
-1214.57 1028.99 2551
-1214.16 1033.83 2563
-1208.03 1033.83 2563
-1201.9 1033.83 2563
-1195.77 1033.83 2563
-1187.78 1032.21 2559
-1195.98 1044.72 2590
-1189.79 1044.72 2590
-1183.59 1044.72 2590
-1177.4 1044.72 2590
-1171.21 1044.72 2590
-1143.87 1025.76 2543
-1137.79 1025.76 2543
-1129.93 1024.15 2539
-1123.86 1024.15 2539
-1111.18 1018.09 2524
-1103.39 1016.48 2520
-1092.58 1012.04 2509
-1086.58 1012.04 2509
-1080.58 1012.04 2509
-1019.62 1035.44 2567
-1013.48 1035.44 2567
-1007.34 1035.44 2567
-1001.2 1035.44 2567
-1003.98 1044.72 2590
-999.329 1046.33 2594
-993.126 1046.33 2594
-990.347 1049.96 2603
-987.147 1053.19 2611
-980.904 1053.19 2611
-974.66 1053.19 2611
-968.416 1053.19 2611
-960.699 1051.57 2607
-957.393 1054.8 2615
-951.14 1054.8 2615
-949.223 1059.64 2627
-942.941 1059.64 2627
-936.659 1059.64 2627
-930.377 1059.64 2627
-917.06 1051.57 2607
-910.826 1051.57 2607
-905.979 1053.19 2611
-905.249 1059.64 2627
-898.967 1059.64 2627
-895.404 1062.87 2635
-892.14 1066.5 2644
-885.817 1066.5 2644
-879.494 1066.5 2644
-871.851 1064.89 2640
-863.898 1062.87 2635
-857.597 1062.87 2635
-851.296 1062.87 2635
-844.995 1062.87 2635
-841.559 1066.5 2644
-837.763 1069.73 2652
-831.422 1069.73 2652
-826.324 1071.34 2656
-819.973 1071.34 2656
-815.153 1073.36 2661
-808.79 1073.36 2661
-803.633 1074.97 2665
-797.26 1074.97 2665
-790.887 1074.97 2665
-784.515 1074.97 2665
-775.514 1071.34 2656
-769.163 1071.34 2656
-762.811 1071.34 2656
-754.181 1068.11 2648
-746.72 1066.5 2644
-740.397 1066.5 2644
-734.074 1066.5 2644
-725.275 1062.87 2635
-716.791 1059.64 2627
-710.509 1059.64 2627
-704.227 1059.64 2627
-696.882 1058.03 2623
-687.45 1053.19 2611
-681.206 1053.19 2611
-674.963 1053.19 2611
-666.67 1049.96 2603
-658.162 1046.33 2594
-651.959 1046.33 2594
-645.756 1046.33 2594
-639.553 1046.33 2594
-633.35 1046.33 2594
-629.323 1049.96 2603
-623.098 1049.96 2603
-617.822 1051.57 2607
-611.588 1051.57 2607
-605.353 1051.57 2607
-598.2 1049.96 2603
-591.975 1049.96 2603
-584.851 1048.35 2599
-576.632 1044.72 2590
-570.439 1044.72 2590
-564.245 1044.72 2590
-558.052 1044.72 2590
-551.858 1044.72 2590
-545.665 1044.72 2590
-539.471 1044.72 2590
-533.278 1044.72 2590
-527.084 1044.72 2590
-520.891 1044.72 2590
-514.697 1044.72 2590
-508.504 1044.72 2590
-503.086 1046.33 2594
-496.883 1046.33 2594
-490.68 1046.33 2594
-484.477 1046.33 2594
-478.274 1046.33 2594
-469.887 1041.49 2582
-463.713 1041.49 2582
-456.83 1039.88 2578
-450.665 1039.88 2578
-444.5 1039.88 2578
-439.015 1041.49 2582
-434.182 1044.72 2590
-427.989 1044.72 2590
-424.564 1051.57 2607
-419.613 1054.8 2615
-414.625 1058.03 2623
-408.352 1058.03 2623
-404.686 1064.89 2640
-398.373 1064.89 2640
-393.248 1068.11 2648
-386.916 1068.11 2648
-380.583 1068.11 2648
-374.251 1068.11 2648
-370.281 1074.97 2665
-363.908 1074.97 2665
-359.28 1080.21 2678
-353.93 1083.44 2686
-347.507 1083.44 2686
-341.084 1083.44 2686
-335.782 1087.07 2695
-329.337 1087.07 2695
-322.893 1087.07 2695
-315.392 1083.44 2686
-308.968 1083.44 2686
-300.18 1074.97 2665
-293.807 1074.97 2665
-287.003 1073.36 2661
-280.112 1071.34 2656
-273.761 1071.34 2656
-267.41 1071.34 2656
-261.058 1071.34 2656
-254.707 1071.34 2656
-248.356 1071.34 2656
-242.005 1071.34 2656
-234.943 1068.11 2648
-228.611 1068.11 2648
-222.279 1068.11 2648
-215.947 1068.11 2648
-209.615 1068.11 2648
-202.976 1066.5 2644
-195.984 1062.87 2635
-190.33 1066.5 2644
-185.191 1073.36 2661
-178.828 1073.36 2661
-172.464 1073.36 2661
-165.04 1066.5 2644
-158.717 1066.5 2644
-151.876 1062.87 2635
-144.47 1054.8 2615
-116.118 928.144 2301
-110.615 928.144 2301
-105.113 928.144 2301
-99.4807 926.934 2298
-93.8628 925.724 2295
-88.3747 925.724 2295
-82.7784 924.514 2292
-76.8591 919.27 2279
-71.2213 916.85 2273
-65.7858 916.85 2273
-59.9256 910.396 2257
-54.4559 909.186 2254
-49.0659 909.186 2254
-43.676 909.186 2254
-38.286 909.186 2254
-32.896 909.186 2254
-27.506 909.186 2254
-22.0865 907.976 2251
-16.7037 907.976 2251
-11.3209 907.976 2251
-5.94597 909.186 2254
-0.555975 909.186 2254
4.84046 910.396 2257
10.2376 910.396 2257
15.6348 910.396 2257
21.0692 912.009 2261
26.476 912.009 2261
31.8827 912.009 2261
37.2895 912.009 2261
42.6962 912.009 2261
48.1029 912.009 2261
53.5097 912.009 2261
59.2291 916.85 2273
64.6645 916.85 2273
70.1925 918.06 2276
75.6351 918.06 2276
81.1846 919.27 2279
86.7484 920.48 2282
92.2053 920.48 2282
97.7907 921.69 2285
103.255 921.69 2285
108.719 921.69 2285
114.533 924.514 2292
120.171 925.724 2295
125.659 925.724 2295
131.147 925.724 2295
136.635 925.724 2295
142.495 928.144 2301
147.997 928.144 2301
153.9 930.564 2307
160.315 935.808 2320
166.363 938.632 2327
171.927 938.632 2327
178.255 942.665 2337
184.315 945.085 2343
190.972 950.329 2356
196.606 950.329 2356
204.557 961.22 2383
218.373 998.33 2475
224.292 998.33 2475
234.024 1014.87 2516
241.185 1019.71 2528
248.306 1024.15 2539
254.378 1024.15 2539
262.09 1030.6 2555
269.88 1037.05 2571
276.028 1037.05 2571
284.7 1046.33 2594
290.903 1046.33 2594
297.679 1048.35 2599
304.361 1049.96 2603
312.018 1054.8 2615
318.271 1054.8 2615
325.021 1056.41 2619
332.296 1059.64 2627
339.609 1062.87 2635
345.91 1062.87 2635
354.483 1069.73 2652
360.825 1069.73 2652
367.72 1071.34 2656
374.072 1071.34 2656
381.139 1073.36 2661
387.502 1073.36 2661
394.458 1074.97 2665
400.83 1074.97 2665
409.19 1080.21 2678
415.594 1080.21 2678
421.997 1080.21 2678
428.401 1080.21 2678
434.805 1080.21 2678
441.209 1080.21 2678
447.613 1080.21 2678
453.169 1078.2 2673
459.561 1078.2 2673
467.522 1081.83 2682
473.936 1081.83 2682
480.349 1081.83 2682
486.037 1080.21 2678
492.44 1080.21 2678
498.844 1080.21 2678
503.55 1076.58 2669
506.685 1069.73 2652
512.253 1068.11 2648
519.368 1069.73 2652
527.494 1073.36 2661
533.857 1073.36 2661
540.221 1073.36 2661
545.557 1071.34 2656
551.908 1071.34 2656
554.896 1064.89 2640
561.209 1064.89 2640
566.448 1062.87 2635
572.749 1062.87 2635
579.05 1062.87 2635
584.462 1061.25 2631
590.754 1061.25 2631
597.045 1061.25 2631
602.42 1059.64 2627
607.775 1058.03 2623
614.047 1058.03 2623
620.319 1058.03 2623
626.592 1058.03 2623
632.864 1058.03 2623
639.137 1058.03 2623
643.44 1054.8 2615
649.694 1054.8 2615
652.937 1049.96 2603
659.161 1049.96 2603
668.454 1054.8 2615
674.707 1054.8 2615
680.96 1054.8 2615
687.213 1054.8 2615
701.157 1066.5 2644
707.48 1066.5 2644
713.802 1066.5 2644
721.214 1068.11 2648
727.546 1068.11 2648
733.879 1068.11 2648
740.211 1068.11 2648
746.543 1068.11 2648
751.738 1066.5 2644
758.06 1066.5 2644
760.625 1061.25 2631
764.584 1058.03 2623
769.681 1056.41 2619
775.944 1056.41 2619
783.401 1058.03 2623
789.674 1058.03 2623
795.946 1058.03 2623
802.219 1058.03 2623
808.491 1058.03 2623
814.763 1058.03 2623
821.036 1058.03 2623
827.308 1058.03 2623
833.581 1058.03 2623
839.853 1058.03 2623
844.835 1056.41 2619
849.798 1054.8 2615
856.051 1054.8 2615
859.667 1051.57 2607
867.229 1053.19 2611
874.811 1054.8 2615
882.412 1056.41 2619
888.675 1056.41 2619
899.038 1061.25 2631
908.427 1064.89 2640
914.74 1064.89 2640
921.053 1064.89 2640
927.366 1064.89 2640
931.91 1062.87 2635
938.211 1062.87 2635
947.739 1066.5 2644
954.061 1066.5 2644
961.837 1068.11 2648
971.094 1071.34 2656
980.757 1074.97 2665
987.13 1074.97 2665
999.841 1081.83 2682
1009.63 1085.46 2691
1016.07 1085.46 2691
1022.5 1085.46 2691
1031.99 1088.68 2699
1038.45 1088.68 2699
1046.84 1090.7 2704
1053.3 1090.7 2704
1059.77 1090.7 2704
1064.27 1088.68 2699
1070.72 1088.68 2699
1066.8 1078.2 2673
1068.37 1073.36 2661
1074.73 1073.36 2661
1079.07 1071.34 2656
1085.42 1071.34 2656
1091.77 1071.34 2656
1098.12 1071.34 2656
1104.47 1071.34 2656
1110.82 1071.34 2656
1115.49 1069.73 2652
1121.83 1069.73 2652
1117.54 1059.64 2627
1123.82 1059.64 2627
1128.38 1058.03 2623
1127.73 1051.57 2607
1130.49 1048.35 2599
1136.7 1048.35 2599
1137.2 1043.1 2586
1143.39 1043.1 2586
1149.57 1043.1 2586
1157.54 1044.72 2590
1169.58 1049.96 2603
1175.8 1049.96 2603
1185.66 1053.19 2611
1191.9 1053.19 2611
1198.14 1053.19 2611
1204.39 1053.19 2611
1208.78 1051.57 2607
1207.09 1044.72 2590
1213.28 1044.72 2590
1219.48 1044.72 2590
1227.56 1046.33 2594
1239.95 1051.57 2607
1257.65 1061.25 2631
1263.95 1061.25 2631
1274.58 1064.89 2640
1291.08 1073.36 2661
1301.35 1076.58 2669
1307.73 1076.58 2669
1316.08 1078.2 2673
1328.91 1083.44 2686
1335.33 1083.44 2686
1341.75 1083.44 2686
1348.18 1083.44 2686
1346.03 1076.58 2669
1359 1081.83 2682
1372.03 1087.07 2695
1378.47 1087.07 2695
1384.92 1087.07 2695
1396.01 1090.7 2704
1402.47 1090.7 2704
1408.94 1090.7 2704
1424.3 1097.56 2721
1445.01 1108.45 2748
1451.58 1108.45 2748
1458.15 1108.45 2748
1464.72 1108.45 2748
1471.29 1108.45 2748
1477.86 1108.45 2748
1484.44 1108.45 2748
1491.01 1108.45 2748
1497.58 1108.45 2748
1504.15 1108.45 2748
1510.72 1108.45 2748
1517.29 1108.45 2748
1523.86 1108.45 2748
1530.44 1108.45 2748
1537.01 1108.45 2748
1541.33 1106.83 2744
1547.89 1106.83 2744
1556.72 1108.45 2748
1563.29 1108.45 2748
1569.86 1108.45 2748
1584.47 1114.1 2762
1591.07 1114.1 2762
1597.68 1114.1 2762
1596.15 1108.45 2748
1600.39 1106.83 2744
1604.02 1104.82 2739
1624.09 1114.1 2762
1630.7 1114.1 2762
1642.64 1117.73 2771
1660.57 1125.39 2790
1675.61 1131.04 2804
1682.32 1131.04 2804
1689.02 1131.04 2804
1695.73 1131.04 2804
1702.43 1131.04 2804
1709.14 1131.04 2804
1709.72 1127 2794
1716.41 1127 2794
1723.09 1127 2794
1729.77 1127 2794
1730.86 1123.37 2785
1726.29 1116.11 2767
1729.77 1114.1 2762
1736.38 1114.1 2762
1742.98 1114.1 2762
1749.59 1114.1 2762
1735.84 1101.19 2730
1742.37 1101.19 2730
1748.9 1101.19 2730
1755.43 1101.19 2730
1741.95 1088.68 2699
1734.8 1080.21 2678
1741.2 1080.21 2678
1714.33 1059.64 2627
1715.37 1056.41 2619
1721.63 1056.41 2619
1727.89 1056.41 2619
1726.21 1051.57 2607
1876.71 1099.57 2726
1895.66 1106.83 2744
1902.23 1106.83 2744
1915.05 1110.47 2753
1937.69 1119.74 2776
1956.93 1127 2794
1963.61 1127 2794
1977.35 1131.04 2804
1987.59 1133.05 2809
1994.31 1133.05 2809
2001.02 1133.05 2809
2014.17 1136.68 2818
2020.91 1136.68 2818
2034.85 1140.72 2828
2041.61 1140.72 2828
2058.51 1146.36 2842
2065.31 1146.36 2842
2072.1 1146.36 2842
2078.9 1146.36 2842
2085.7 1146.36 2842
-1774.48 961.654 2370
-1781.5 968.552 2387
-1780.25 970.986 2393
-1793.07 981.13 2418
-1787.29 981.13 2418
-1791.82 986.811 2432
-1817.58 1004.26 2475
-1811.66 1004.26 2475
-1813.77 1008.72 2486
-1807.83 1008.72 2486
-1801.88 1008.72 2486
-1896.83 1076.08 2652
-1890.49 1076.08 2652
-1884.15 1076.08 2652
-1877.81 1076.08 2652
-1877.82 1079.73 2661
-1871.45 1079.73 2661
-1865.09 1079.73 2661
-1858.73 1079.73 2661
-1864.2 1086.63 2678
-1857.79 1086.63 2678
-1851.39 1086.63 2678
-1871.86 1102.45 2717
-1865.36 1102.45 2717
-1858.86 1102.45 2717
-1791.25 1100.83 2713
-1784.76 1100.83 2713
-1778.27 1100.83 2713
-1771.79 1100.83 2713
-1294.14 966.929 2383
-1288.44 966.929 2383
-1282.74 966.929 2383
-1275.44 965.711 2380
-1266.01 962.871 2373
-1226.77 1035.1 2551
-1220.67 1035.1 2551
-1214.57 1035.1 2551
-1210.37 1036.72 2555
-1204.26 1036.72 2555
-1198.15 1036.72 2555
-1192.04 1036.72 2555
-1187.78 1038.34 2559
-1185.36 1041.59 2567
-1179.22 1041.59 2567
-1173.08 1041.59 2567
-1166.94 1041.59 2567
-1160.8 1041.59 2567
-1143.87 1031.85 2543
-1137.79 1031.85 2543
-1128.15 1028.6 2535
-1122.09 1028.6 2535
-1111.18 1024.14 2524
-1103.39 1022.52 2520
-1092.58 1018.05 2509
-1086.58 1018.05 2509
-1080.58 1018.05 2509
-1072.87 1016.43 2505
-1016.44 1038.34 2559
-1010.32 1038.34 2559
-1004.2 1038.34 2559
-996.524 1036.72 2555
-990.414 1036.72 2555
-997.788 1050.92 2590
-991.595 1050.92 2590
-985.401 1050.92 2590
-984.123 1056.2 2603
-979.401 1057.82 2607
-973.167 1057.82 2607
-966.933 1057.82 2607
-957.751 1054.57 2599
-954.464 1057.82 2607
-949.685 1059.44 2611
-943.442 1059.44 2611
-937.198 1059.44 2611
-930.954 1059.44 2611
-924.711 1059.44 2611
-915.653 1056.2 2603
-908.031 1054.57 2599
-903.204 1056.2 2603
-899.736 1059.44 2611
-893.492 1059.44 2611
-892.685 1065.93 2627
-886.403 1065.93 2627
-880.121 1065.93 2627
-873.839 1065.93 2627
-863.595 1061.07 2615
-857.341 1061.07 2615
-852.39 1062.69 2619
-846.127 1062.69 2619
-842.43 1065.93 2627
-836.148 1065.93 2627
-832.393 1069.18 2635
-826.092 1069.18 2635
-822.591 1072.83 2644
-816.268 1072.83 2644
-809.946 1072.83 2644
-800.888 1069.18 2635
-797.3 1072.83 2644
-790.978 1072.83 2644
-784.655 1072.83 2644
-778.333 1072.83 2644
-772.01 1072.83 2644
-764.529 1071.21 2640
-758.216 1071.21 2640
-750.479 1069.18 2635
-743.048 1067.56 2631
-736.757 1067.56 2631
-730.465 1067.56 2631
-723.073 1065.93 2627
-716.791 1065.93 2627
-709.427 1064.31 2623
-703.154 1064.31 2623
-693.694 1059.44 2611
-686.397 1057.82 2607
-680.163 1057.82 2607
-670.568 1052.54 2594
-664.365 1052.54 2594
-658.162 1052.54 2594
-649.948 1049.3 2586
-643.764 1049.3 2586
-637.581 1049.3 2586
-631.397 1049.3 2586
-625.213 1049.3 2586
-620.944 1052.54 2594
-615.926 1054.57 2599
-609.711 1054.57 2599
-603.496 1054.57 2599
-595.212 1050.92 2590
-589.019 1050.92 2590
-581.925 1049.3 2586
-574.851 1047.67 2582
-568.677 1047.67 2582
-562.502 1047.67 2582
-556.328 1047.67 2582
-551.006 1049.3 2586
-544.822 1049.3 2586
-538.638 1049.3 2586
-532.454 1049.3 2586
-526.27 1049.3 2586
-520.086 1049.3 2586
-513.902 1049.3 2586
-507.718 1049.3 2586
-502.31 1050.92 2590
-496.883 1052.54 2594
-490.68 1052.54 2594
-484.477 1052.54 2594
-478.274 1052.54 2594
-469.887 1047.67 2582
-463.713 1047.67 2582
-456.83 1046.05 2578
-450.665 1046.05 2578
-444.5 1046.05 2578
-439.015 1047.67 2582
-434.182 1050.92 2590
-427.989 1050.92 2590
-423.912 1056.2 2603
-418.33 1057.82 2607
-413.36 1061.07 2615
-407.107 1061.07 2615
-403.306 1067.56 2631
-397.618 1069.18 2635
-392.06 1071.21 2640
-385.747 1071.21 2640
-379.434 1071.21 2640
-373.121 1071.21 2640
-366.808 1071.21 2640
-360.494 1071.21 2640
-355.255 1074.46 2648
-351.163 1081.35 2665
-344.79 1081.35 2665
-338.417 1081.35 2665
-332.543 1082.98 2669
-326.16 1082.98 2669
-319.778 1082.98 2669
-312.926 1081.35 2665
-306.553 1081.35 2665
-296.801 1069.18 2635
-290.5 1069.18 2635
-282.904 1064.31 2623
-277.054 1065.93 2627
-271.184 1067.56 2631
-265.295 1069.18 2635
-258.994 1069.18 2635
-253.556 1072.83 2644
-247.234 1072.83 2644
-240.911 1072.83 2644
-234.589 1072.83 2644
-228.266 1072.83 2644
-221.943 1072.83 2644
-215.621 1072.83 2644
-209.298 1072.83 2644
-202.668 1071.21 2640
-195.984 1069.18 2635
-190.33 1072.83 2644
-185.191 1079.73 2661
-178.828 1079.73 2661
-172.464 1079.73 2661
-165.04 1072.83 2644
-158.717 1072.83 2644
-151.876 1069.18 2635
-144.691 1062.69 2619
-115.966 932.439 2298
-110.471 932.439 2298
-104.976 932.439 2298
-99.4807 932.439 2298
-93.7401 930.004 2292
-88.2592 930.004 2292
-82.6339 928.381 2288
-76.7579 923.512 2276
-71.1273 921.078 2270
-65.699 921.078 2270
-60.0318 917.426 2261
-54.4559 914.585 2254
-49.0659 914.585 2254
-43.676 914.585 2254
-38.286 914.585 2254
-32.896 914.585 2254
-27.506 914.585 2254
-22.0865 913.368 2251
-16.7037 913.368 2251
-11.3209 913.368 2251
-5.94597 914.585 2254
-0.555975 914.585 2254
4.84046 915.803 2257
10.2376 915.803 2257
15.6348 915.803 2257
21.0692 917.426 2261
26.476 917.426 2261
31.8827 917.426 2261
37.2895 917.426 2261
42.6962 917.426 2261
48.1029 917.426 2261
53.5097 917.426 2261
59.2291 922.295 2273
64.6645 922.295 2273
70.1925 923.512 2276
75.6351 923.512 2276
81.1846 924.729 2279
86.7484 925.947 2282
92.2053 925.947 2282
97.7907 927.164 2285
103.255 927.164 2285
108.719 927.164 2285
114.533 930.004 2292
120.171 931.222 2295
125.659 931.222 2295
131.147 931.222 2295
136.635 931.222 2295
142.495 933.656 2301
147.997 933.656 2301
153.9 936.091 2307
160.315 941.366 2320
166.363 944.206 2327
171.927 944.206 2327
178.255 948.263 2337
184.315 950.698 2343
190.972 955.973 2356
196.606 955.973 2356
204.557 966.929 2383
218.373 1004.26 2475
224.292 1004.26 2475
234.024 1020.89 2516
241.185 1025.76 2528
248.306 1030.23 2539
254.378 1030.23 2539
262.09 1036.72 2555
269.88 1043.21 2571
276.028 1043.21 2571
284.7 1052.54 2594
290.903 1052.54 2594
297.679 1054.57 2599
304.361 1056.2 2603
312.018 1061.07 2615
318.271 1061.07 2615
325.021 1062.69 2619
332.296 1065.93 2627
339.609 1069.18 2635
345.91 1069.18 2635
354.483 1076.08 2652
360.825 1076.08 2652
367.72 1077.7 2656
374.072 1077.7 2656
381.139 1079.73 2661
387.502 1079.73 2661
394.458 1081.35 2665
400.83 1081.35 2665
409.19 1086.63 2678
415.594 1086.63 2678
421.997 1086.63 2678
428.401 1086.63 2678
434.805 1086.63 2678
441.209 1086.63 2678
447.613 1086.63 2678
453.169 1084.6 2673
459.561 1084.6 2673
467.522 1088.25 2682
473.936 1088.25 2682
480.349 1088.25 2682
486.037 1086.63 2678
492.44 1086.63 2678
498.844 1086.63 2678
503.55 1082.98 2669
506.685 1076.08 2652
512.253 1074.46 2648
519.368 1076.08 2652
527.494 1079.73 2661
533.857 1079.73 2661
540.221 1079.73 2661
545.557 1077.7 2656
551.908 1077.7 2656
554.896 1071.21 2640
561.209 1071.21 2640
566.448 1069.18 2635
572.749 1069.18 2635
579.05 1069.18 2635
584.462 1067.56 2631
590.754 1067.56 2631
597.045 1067.56 2631
602.42 1065.93 2627
607.775 1064.31 2623
614.047 1064.31 2623
620.319 1064.31 2623
626.592 1064.31 2623
632.864 1064.31 2623
639.137 1064.31 2623
643.44 1061.07 2615
649.694 1061.07 2615
652.937 1056.2 2603
654.857 1049.3 2586
664.364 1054.57 2599
670.579 1054.57 2599
676.794 1054.57 2599
684.06 1056.2 2603
692.406 1059.44 2611
705.071 1069.18 2635
711.372 1069.18 2635
719.035 1071.21 2640
725.348 1071.21 2640
731.661 1071.21 2640
737.974 1071.21 2640
744.288 1071.21 2640
748.042 1067.56 2631
754.333 1067.56 2631
759.468 1065.93 2627
762.252 1061.07 2615
768.506 1061.07 2615
775.944 1062.69 2619
782.207 1062.69 2619
788.47 1062.69 2619
794.732 1062.69 2619
800.995 1062.69 2619
807.258 1062.69 2619
811.036 1059.44 2611
819.784 1062.69 2619
826.047 1062.69 2619
832.309 1062.69 2619
837.292 1061.07 2615
840.964 1057.82 2607
845.898 1056.2 2603
852.123 1056.2 2603
857.029 1054.57 2599
865.901 1057.82 2607
872.135 1057.82 2607
879.717 1059.44 2611
888.675 1062.69 2619
894.938 1062.69 2619
905.33 1067.56 2631
911.621 1067.56 2631
917.913 1067.56 2631
924.204 1067.56 2631
929.081 1065.93 2627
935.363 1065.93 2627
944.513 1069.18 2635
950.814 1069.18 2635
960.384 1072.83 2644
969.631 1076.08 2652
977.445 1077.7 2656
983.797 1077.7 2656
992.012 1079.73 2661
998.375 1079.73 2661
1004.74 1079.73 2661
1011.1 1079.73 2661
1017.46 1079.73 2661
1023.83 1079.73 2661
1030.19 1079.73 2661
1034.61 1077.7 2656
1040.96 1077.7 2656
1045.73 1076.08 2652
1052.07 1076.08 2652
1056.82 1074.46 2648
1061.55 1072.83 2644
1067.87 1072.83 2644
1075.82 1074.46 2648
1082.15 1074.46 2648
1088.48 1074.46 2648
1094.81 1074.46 2648
1101.14 1074.46 2648
1107.48 1074.46 2648
1112.13 1072.83 2644
1116.76 1071.21 2640
1115.84 1064.31 2623
1122.11 1064.31 2623
1124.94 1061.07 2615
1127.73 1057.82 2607
1128.31 1052.54 2594
1134.52 1052.54 2594
1137.2 1049.3 2586
1143.39 1049.3 2586
1147.79 1047.67 2582
1157.54 1050.92 2590
1165.53 1052.54 2594
1171.73 1052.54 2594
1183.84 1057.82 2607
1190.08 1057.82 2607
1196.31 1057.82 2607
1202.54 1057.82 2607
1206.92 1056.2 2603
1207.09 1050.92 2590
1213.28 1050.92 2590
1219.48 1050.92 2590
1225.67 1050.92 2590
1239.95 1057.82 2607
1257.65 1067.56 2631
1263.95 1067.56 2631
1274.58 1071.21 2640
1291.08 1079.73 2661
1301.35 1082.98 2669
1307.73 1082.98 2669
1316.08 1084.6 2673
1328.91 1089.87 2686
1335.33 1089.87 2686
1341.75 1089.87 2686
1348.18 1089.87 2686
1346.03 1082.98 2669
1359 1088.25 2682
1372.03 1093.53 2695
1378.47 1093.53 2695
1384.92 1093.53 2695
1396.01 1097.18 2704
1402.47 1097.18 2704
1408.94 1097.18 2704
1420.12 1100.83 2713
1438.17 1109.76 2735
1451.58 1115.03 2748
1458.15 1115.03 2748
1464.72 1115.03 2748
1471.29 1115.03 2748
1477.86 1115.03 2748
1479.57 1111.38 2739
1488.84 1113.41 2744
1495.4 1113.41 2744
1501.96 1113.41 2744
1508.52 1113.41 2744
1515.08 1113.41 2744
1521.65 1113.41 2744
1525.42 1111.38 2739
1531.97 1111.38 2739
1538.52 1111.38 2739
1542.82 1109.76 2735
1549.36 1109.76 2735
1558.17 1111.38 2739
1564.72 1111.38 2739
1574.14 1113.41 2744
1580.7 1113.41 2744
1587.26 1113.41 2744
1593.82 1113.41 2744
1597.47 1111.38 2739
1596.41 1106.1 2726
1610.57 1111.38 2739
1617.12 1111.38 2739
1637.3 1120.71 2762
1654.62 1128.02 2780
1667.25 1132.07 2790
1673.92 1132.07 2790
1680.59 1132.07 2790
1687.26 1132.07 2790
1693.93 1132.07 2790
1700.6 1132.07 2790
1701.16 1128.02 2780
1707.8 1128.02 2780
1711.99 1126.39 2776
1718.62 1126.39 2776
1722.15 1124.36 2771
1723.17 1120.71 2762
1729.77 1120.71 2762
1736.38 1120.71 2762
1737.3 1117.06 2753
1729.31 1107.73 2730
1735.84 1107.73 2730
1742.37 1107.73 2730
1746.34 1106.1 2726
1749.64 1104.08 2721
1741.95 1095.15 2699
1728.97 1082.98 2669
1735.35 1082.98 2669
1714.33 1065.93 2627
1717.99 1064.31 2623
1724.26 1064.31 2623
1730.53 1064.31 2623
1731.51 1061.07 2615
1729.79 1056.2 2603
1788.55 1057.82 2607
1876.71 1106.1 2726
1895.66 1113.41 2744
1902.23 1113.41 2744
1915.05 1117.06 2753
1937.69 1126.39 2776
1954.13 1132.07 2790
1960.8 1132.07 2790
1973.82 1135.73 2799
1984.05 1137.75 2804
1994.31 1139.78 2809
2001.02 1139.78 2809
2014.17 1143.43 2818
2020.91 1143.43 2818
2034.85 1147.49 2828
2041.61 1147.49 2828
2058.51 1153.17 2842
2065.31 1153.17 2842
2072.1 1153.17 2842
2078.9 1153.17 2842
2085.7 1153.17 2842
-1774.48 967.331 2370
-1781.5 974.27 2387
-1780.25 976.719 2393
-1793.07 986.922 2418
-1787.29 986.922 2418
-1791.82 992.637 2432
-1817.58 1010.19 2475
-1811.66 1010.19 2475
-1813.77 1014.68 2486
-1807.83 1014.68 2486
-1801.88 1014.68 2486
-1896.83 1082.43 2652
-1890.49 1082.43 2652
-1884.15 1082.43 2652
-1877.81 1082.43 2652
-1877.82 1086.1 2661
-1871.45 1086.1 2661
-1865.09 1086.1 2661
-1858.73 1086.1 2661
-1864.2 1093.04 2678
-1857.79 1093.04 2678
-1851.39 1093.04 2678
-1871.86 1108.96 2717
-1865.36 1108.96 2717
-1858.86 1108.96 2717
-1791.25 1107.33 2713
-1784.76 1107.33 2713
-1778.27 1107.33 2713
-1771.79 1107.33 2713
-1290.34 969.78 2376
-1284.66 969.78 2376
-1278.98 969.78 2376
-1273.29 969.78 2376
-1266.01 968.555 2373
-1224.85 1039.57 2547
-1218.76 1039.57 2547
-1214.57 1041.21 2551
-1208.47 1041.21 2551
-1202.37 1041.21 2551
-1196.27 1041.21 2551
-1190.17 1041.21 2551
-1184.07 1041.21 2551
-1181.66 1044.47 2559
-1175.55 1044.47 2559
-1169.43 1044.47 2559
-1157.85 1039.57 2547
-1151.76 1039.57 2547
-1142.07 1036.31 2539
-1132.87 1033.45 2532
-1125.03 1031.82 2528
-1118.99 1031.82 2528
-1111.18 1030.19 2524
-1101.64 1026.92 2516
-1093.89 1025.29 2512
-1087.88 1025.29 2512
-1080.58 1024.06 2509
-1072.87 1022.43 2505
-1065.17 1020.8 2501
-1059.19 1020.8 2501
-1017.77 1039.57 2547
-1011.68 1039.57 2547
-1005.59 1039.57 2547
-999.495 1039.57 2547
-990.284 1036.31 2539
-988.864 1041.21 2551
-984.305 1042.84 2555
-978.195 1042.84 2555
-979.314 1050.59 2574
-979.208 1057.13 2590
-973.014 1057.13 2590
-966.821 1057.13 2590
-960.628 1057.13 2590
-954.434 1057.13 2590
-948.241 1057.13 2590
-948.23 1064.06 2607
-941.996 1064.06 2607
-935.762 1064.06 2607
-929.528 1064.06 2607
-923.294 1064.06 2607
-908.266 1053.86 2582
-902.091 1053.86 2582
-898.693 1057.13 2590
-896.979 1062.43 2603
-890.754 1062.43 2603
-884.53 1062.43 2603
-878.305 1062.43 2603
-872.081 1062.43 2603
-865.856 1062.43 2603
-856.659 1058.76 2594
-850.456 1058.76 2594
-844.253 1058.76 2594
-838.05 1058.76 2594
-830.565 1057.13 2590
-824.371 1057.13 2590
-823.548 1064.06 2607
-817.314 1064.06 2607
-811.08 1064.06 2607
-804.845 1064.06 2607
-798.611 1064.06 2607
-791.161 1062.43 2603
-788.555 1067.33 2615
-782.302 1067.33 2615
-776.049 1067.33 2615
-769.796 1067.33 2615
-762.375 1065.7 2611
-754.972 1064.06 2607
-748.738 1064.06 2607
-742.504 1064.06 2607
-738.529 1067.33 2615
-732.276 1067.33 2615
-726.023 1067.33 2615
-719.77 1067.33 2615
-713.516 1067.33 2615
-705.099 1064.06 2607
-698.865 1064.06 2607
-692.631 1064.06 2607
-684.291 1060.8 2599
-676.771 1058.76 2594
-668.5 1055.49 2586
-662.316 1055.49 2586
-655.117 1053.86 2582
-647.938 1052.23 2578
-640.777 1050.59 2574
-634.622 1050.59 2574
-628.467 1050.59 2574
-621.586 1049.37 2571
-618.071 1053.86 2582
-611.897 1053.86 2582
-605.723 1053.86 2582
-599.548 1053.86 2582
-591.535 1050.59 2574
-585.38 1050.59 2574
-578.55 1049.37 2571
-571.511 1047.74 2567
-565.373 1047.74 2567
-559.234 1047.74 2567
-553.096 1047.74 2567
-549.301 1052.23 2578
-543.136 1052.23 2578
-537.805 1053.86 2582
-531.63 1053.86 2582
-525.456 1053.86 2582
-520.086 1055.49 2586
-513.902 1055.49 2586
-507.718 1055.49 2586
-502.31 1057.13 2590
-496.117 1057.13 2590
-489.923 1057.13 2590
-483.73 1057.13 2590
-477.536 1057.13 2590
-469.887 1053.86 2582
-463.713 1053.86 2582
-457.538 1053.86 2582
-451.364 1053.86 2582
-445.19 1053.86 2582
-439.015 1053.86 2582
-434.182 1057.13 2590
-427.989 1057.13 2590
-423.912 1062.43 2603
-418.33 1064.06 2607
-412.095 1064.06 2607
-405.861 1064.06 2607
-402.693 1072.23 2627
-397.015 1073.86 2631
-391.317 1075.49 2635
-385.016 1075.49 2635
-378.715 1075.49 2635
-372.414 1075.49 2635
-366.113 1075.49 2635
-359.812 1075.49 2635
-353.511 1075.49 2635
-349.45 1082.43 2652
-343.108 1082.43 2652
-336.766 1082.43 2652
-330.424 1082.43 2652
-323.594 1080.8 2648
-317.262 1080.8 2648
-309.99 1077.53 2640
-303.677 1077.53 2640
-294.548 1067.33 2615
-288.295 1067.33 2615
-282.042 1067.33 2615
-274.945 1064.06 2607
-268.711 1064.06 2607
-262.879 1065.7 2611
-256.635 1065.7 2611
-251.159 1068.96 2619
-244.896 1068.96 2619
-240.091 1075.49 2635
-233.79 1075.49 2635
-227.489 1075.49 2635
-221.188 1075.49 2635
-214.887 1075.49 2635
-208.586 1075.49 2635
-202.285 1075.49 2635
-195.984 1075.49 2635
-190.33 1079.17 2644
-185.191 1086.1 2661
-178.828 1086.1 2661
-172.464 1086.1 2661
-165.04 1079.17 2644
-158.717 1079.17 2644
-151.876 1075.49 2635
-144.691 1068.96 2619
-110.183 935.495 2292
-104.702 935.495 2292
-99.2209 935.495 2292
-93.7401 935.495 2292
-88.2592 935.495 2292
-82.6339 933.862 2288
-76.7579 928.964 2276
-71.1273 926.515 2270
-65.699 926.515 2270
-60.0318 922.842 2261
-54.3835 918.76 2251
-49.0006 918.76 2251
-43.6178 918.76 2251
-38.235 918.76 2251
-32.8522 918.76 2251
-27.4694 918.76 2251
-22.0865 918.76 2251
-16.7037 918.76 2251
-11.3209 918.76 2251
-5.93014 917.536 2248
-0.554495 917.536 2248
4.82759 918.76 2251
10.2104 918.76 2251
15.5932 918.76 2251
21.004 919.985 2254
26.394 919.985 2254
31.784 919.985 2254
37.174 919.985 2254
42.564 919.985 2254
48.0178 921.209 2257
53.415 921.209 2257
58.9164 922.842 2261
64.4085 924.066 2264
70.0074 926.515 2270
75.4357 926.515 2270
80.9708 927.74 2273
86.4062 927.74 2273
91.9629 928.964 2276
97.4055 928.964 2276
102.848 928.964 2276
108.433 930.189 2279
114.033 931.413 2282
119.804 933.862 2288
125.276 933.862 2288
130.747 933.862 2288
136.218 933.862 2288
142.123 936.719 2295
147.611 936.719 2295
153.699 940.393 2304
159.9 944.474 2314
165.862 946.923 2320
171.41 946.923 2320
177.187 948.148 2323
183.843 953.862 2337
189.918 956.311 2343
195.521 956.311 2343
202.24 961.617 2356
212.373 982.433 2407
224.292 1010.19 2475
230.21 1010.19 2475
238.227 1019.17 2497
245.665 1025.29 2512
252.474 1028.55 2520
258.5 1028.55 2520
266.101 1034.68 2535
272.163 1034.68 2535
281.298 1046.11 2563
287.427 1046.11 2563
294.014 1047.74 2567
300.971 1050.59 2574
308.558 1055.49 2586
314.742 1055.49 2586
323.532 1064.06 2607
331.284 1068.96 2619
337.546 1068.96 2619
343.809 1068.96 2619
352.211 1075.49 2635
358.512 1075.49 2635
364.813 1075.49 2635
371.114 1075.49 2635
378.131 1077.53 2640
386.774 1084.06 2656
393.126 1084.06 2656
399.477 1084.06 2656
405.828 1084.06 2656
412.955 1086.1 2661
419.319 1086.1 2661
425.682 1086.1 2661
432.045 1086.1 2661
438.408 1086.1 2661
444.772 1086.1 2661
451.135 1086.1 2661
456.639 1084.06 2656
462.99 1084.06 2656
469.341 1084.06 2656
475.692 1084.06 2656
481.318 1082.43 2652
487.66 1082.43 2652
493.256 1080.8 2648
499.588 1080.8 2648
505.156 1079.17 2644
509.738 1075.49 2635
514.472 1072.23 2627
520.754 1072.23 2627
527.036 1072.23 2627
533.318 1072.23 2627
539.6 1072.23 2627
546.713 1073.86 2631
553.005 1073.86 2631
559.296 1073.86 2631
565.588 1073.86 2631
571.879 1073.86 2631
576.413 1070.59 2623
580.019 1065.7 2611
586.263 1065.7 2611
592.507 1065.7 2611
598.75 1065.7 2611
604.994 1065.7 2611
607.258 1058.76 2594
613.461 1058.76 2594
619.664 1058.76 2594
625.867 1058.76 2594
630.121 1055.49 2586
635.321 1053.86 2582
641.495 1053.86 2582
646.666 1052.23 2578
654.857 1055.49 2586
664.364 1060.8 2599
670.579 1060.8 2599
676.794 1060.8 2599
684.06 1062.43 2603
692.406 1065.7 2611
705.071 1075.49 2635
711.372 1075.49 2635
719.035 1077.53 2640
725.348 1077.53 2640
731.661 1077.53 2640
737.974 1077.53 2640
744.288 1077.53 2640
748.042 1073.86 2631
754.333 1073.86 2631
759.468 1072.23 2627
762.252 1067.33 2615
768.506 1067.33 2615
775.944 1068.96 2619
782.207 1068.96 2619
788.47 1068.96 2619
794.732 1068.96 2619
800.995 1068.96 2619
807.258 1068.96 2619
811.036 1065.7 2611
819.784 1068.96 2619
826.047 1068.96 2619
832.309 1068.96 2619
837.292 1067.33 2615
840.964 1064.06 2607
845.898 1062.43 2603
852.123 1062.43 2603
857.029 1060.8 2599
865.901 1064.06 2607
872.135 1064.06 2607
879.717 1065.7 2611
888.675 1068.96 2619
894.938 1068.96 2619
905.33 1073.86 2631
911.621 1073.86 2631
917.913 1073.86 2631
924.204 1073.86 2631
929.081 1072.23 2627
935.363 1072.23 2627
944.513 1075.49 2635
950.814 1075.49 2635
960.384 1079.17 2644
969.631 1082.43 2652
977.445 1084.06 2656
983.797 1084.06 2656
992.012 1086.1 2661
998.375 1086.1 2661
1004.74 1086.1 2661
1011.1 1086.1 2661
1017.46 1086.1 2661
1023.83 1086.1 2661
1030.19 1086.1 2661
1034.61 1084.06 2656
1040.96 1084.06 2656
1045.73 1082.43 2652
1052.07 1082.43 2652
1056.82 1080.8 2648
1061.55 1079.17 2644
1067.87 1079.17 2644
1075.82 1080.8 2648
1082.15 1080.8 2648
1088.48 1080.8 2648
1094.81 1080.8 2648
1101.14 1080.8 2648
1107.48 1080.8 2648
1112.13 1079.17 2644
1116.76 1077.53 2640
1115.84 1070.59 2623
1122.11 1070.59 2623
1124.94 1067.33 2615
1127.73 1064.06 2607
1128.31 1058.76 2594
1134.52 1058.76 2594
1137.2 1055.49 2586
1143.39 1055.49 2586
1147.79 1053.86 2582
1157.54 1057.13 2590
1165.53 1058.76 2594
1171.73 1058.76 2594
1183.84 1064.06 2607
1190.08 1064.06 2607
1196.31 1064.06 2607
1202.54 1064.06 2607
1206.92 1062.43 2603
1207.09 1057.13 2590
1213.28 1057.13 2590
1219.48 1057.13 2590
1225.67 1057.13 2590
1239.95 1064.06 2607
1257.65 1073.86 2631
1263.95 1073.86 2631
1274.58 1077.53 2640
1291.08 1086.1 2661
1301.35 1089.37 2669
1307.73 1089.37 2669
1316.08 1091 2673
1328.91 1096.31 2686
1335.33 1096.31 2686
1341.75 1096.31 2686
1348.18 1096.31 2686
1346.03 1089.37 2669
1359 1094.68 2682
1372.03 1099.98 2695
1378.47 1099.98 2695
1384.92 1099.98 2695
1396.01 1103.66 2704
1402.47 1103.66 2704
1408.94 1103.66 2704
1420.12 1107.33 2713
1438.17 1116.31 2735
1444.71 1116.31 2735
1451.25 1116.31 2735
1455.13 1114.27 2730
1461.66 1114.27 2730
1468.18 1114.27 2730
1460.67 1103.66 2704
1474.19 1108.96 2717
1480.68 1108.96 2717
1487.18 1108.96 2717
1493.68 1108.96 2717
1500.18 1108.96 2717
1506.67 1108.96 2717
1513.17 1108.96 2717
1519.67 1108.96 2717
1526.16 1108.96 2717
1530.41 1107.33 2713
1544.26 1112.63 2726
1555.9 1116.31 2735
1562.44 1116.31 2735
1571.27 1117.94 2739
1577.82 1117.94 2739
1584.37 1117.94 2739
1590.92 1117.94 2739
1586.97 1110.59 2721
1593.48 1110.59 2721
1599.99 1110.59 2721
1604.13 1108.96 2717
1629 1121.61 2748
1646.88 1129.37 2767
1661.27 1134.68 2780
1667.92 1134.68 2780
1674.57 1134.68 2780
1678.79 1133.04 2776
1685.43 1133.04 2776
1692.07 1133.04 2776
1698.71 1133.04 2776
1705.35 1133.04 2776
1706.44 1129.37 2767
1713.05 1129.37 2767
1716.56 1127.33 2762
1717.55 1123.65 2753
1724.13 1123.65 2753
1730.72 1123.65 2753
1722.79 1114.27 2730
1726.78 1112.63 2726
1733.3 1112.63 2726
1739.82 1112.63 2726
1743.13 1110.59 2721
1749.64 1110.59 2721
1730.98 1094.68 2682
1728.97 1089.37 2669
1735.35 1089.37 2669
1714.33 1072.23 2627
1717.99 1070.59 2623
