1419.58 -108.843 3337
1419 -108.191 3317
1423.92 -107.963 3310
1431.84 -107.963 3310
1439.75 -107.963 3310
1447.67 -107.963 3310
1446.79 -107.31 3290
1452 -107.115 3284
1459.86 -107.115 3284
1461.9 -106.691 3271
1467.02 -106.495 3265
1474.83 -106.495 3265
1482.64 -106.495 3265
1490.45 -106.495 3265
1495.04 -106.266 3258
1502.83 -106.266 3258
1510.62 -106.266 3258
1655.46 -111.29 3412
1663.62 -111.29 3412
1671.78 -111.29 3412
1770.27 -112.888 3461
1778.55 -112.888 3461
1786.83 -112.888 3461
1784.21 -112.203 3440
1738.77 -108.843 3337
1736.28 -108.191 3317
1744.21 -108.191 3317
1752.14 -108.191 3317
1760.08 -108.191 3317
1648.11 -98.2101 3011
1655.31 -98.2101 3011
1662.51 -98.2101 3011
1634.22 -96.1226 2947
1641.26 -96.1226 2947
1642.72 -95.7964 2937
1635.14 -94.9484 2911
1636.46 -94.6222 2901
1643.39 -94.6222 2901
1633.26 -93.6437 2871
1626.42 -92.8609 2847
1622.33 -92.2411 2828
1623.33 -91.915 2818
1630.07 -91.915 2818
1628.68 -91.4583 2804
1635.38 -91.4583 2804
1639.16 -91.2952 2799
1645.85 -91.2952 2799
1649.59 -91.1322 2794
1653.9 -91.0017 2790
1657.6 -90.8386 2785
1664.26 -90.8386 2785
1665.52 -90.5451 2776
1666.73 -90.2515 2767
1670.33 -90.0884 2762
1673.9 -89.9253 2757
1680.49 -89.9253 2757
1684.63 -89.7949 2753
1685.69 -89.5013 2744
1683.62 -89.0447 2730
1690.15 -89.0447 2730
1694.19 -88.9142 2726
1700.71 -88.9142 2726
1701.59 -88.6207 2717
1708.09 -88.6207 2717
1714.58 -88.6207 2717
1721.08 -88.6207 2717
1721.85 -88.3271 2708
1725.78 -88.1966 2704
1732.24 -88.1966 2704
1732.92 -87.9031 2695
1733.56 -87.6095 2686
1737.39 -87.479 2682
1743.8 -87.479 2682
1747.61 -87.3486 2678
1748.12 -87.055 2669
1751.87 -86.9246 2665
1758.24 -86.9246 2665
1761.97 -86.7941 2661
1765.01 -86.631 2656
1771.36 -86.631 2656
1777.71 -86.631 2656
1781.37 -86.5005 2652
1787.72 -86.5005 2652
1794.06 -86.5005 2652
1800.4 -86.5005 2652
1806.74 -86.5005 2652
1813.08 -86.5005 2652
1813.94 -86.2396 2644
1817.5 -86.1091 2640
1826.58 -86.2396 2644
1832.9 -86.2396 2644
1839.23 -86.2396 2644
1845.55 -86.2396 2644
1851.87 -86.2396 2644
1855.38 -86.1091 2640
1861.7 -86.1091 2640
1870.84 -86.2396 2644
1877.16 -86.2396 2644
1883.48 -86.2396 2644
1886.95 -86.1091 2640
1886.81 -85.8156 2631
1893.1 -85.8156 2631
1899.39 -85.8156 2631
1902.78 -85.6851 2627
1909.07 -85.6851 2627
1912.43 -85.5546 2623
1918.7 -85.5546 2623
1924.98 -85.5546 2623
1928.3 -85.4242 2619
1934.57 -85.4242 2619
1940.83 -85.4242 2619
1947.09 -85.4242 2619
1953.35 -85.4242 2619
1956.62 -85.2937 2615
1962.88 -85.2937 2615
1969.13 -85.2937 2615
1975.38 -85.2937 2615
1972.54 -84.9023 2603
1971.93 -84.6087 2594
1978.13 -84.6087 2594
1978.21 -84.3478 2586
-2041.02 -82.384 2726
-2034.5 -82.384 2726
-2037.66 -82.7769 2739
-2031.11 -82.7769 2739
-2024.56 -82.7769 2739
-2018.01 -82.7769 2739
-2011.46 -82.7769 2739
-1998.32 -82.5049 2730
-1985.23 -82.2329 2721
-1966.36 -81.7192 2704
-1959.89 -81.7192 2704
-1937.53 -81.0543 2682
-1912.4 -80.2685 2656
-1912.5 -80.5405 2665
-1906.13 -80.5405 2665
-1899.76 -80.5405 2665
-1893.39 -80.5405 2665
-1887.01 -80.5405 2665
-1880.64 -80.5405 2665
-2257.59 -97.3437 3221
-2275.74 -98.4619 3258
-2267.95 -98.4619 3258
-2296.23 -100.033 3310
-2378.19 -103.962 3440
-2409.23 -105.685 3497
-2400.87 -105.685 3497
-2392.51 -105.685 3497
-2384.14 -105.685 3497
-2375.78 -105.685 3497
-2357.94 -105.262 3483
-2349.61 -105.262 3483
-2350.69 -105.685 3497
-2342.33 -105.685 3497
-2333.97 -105.685 3497
-2325.61 -105.685 3497
-2312.61 -105.473 3490
-2318.79 -106.138 3512
-2310.39 -106.138 3512
-2301.99 -106.138 3512
-2293.59 -106.138 3512
-2285.19 -106.138 3512
-2276.79 -106.138 3512
-2273.56 -106.38 3520
-2265.15 -106.38 3520
-2256.73 -106.38 3520
-2238.73 -105.927 3505
-2225.26 -105.685 3497
-2226.4 -106.138 3512
-2227.48 -106.592 3527
-2219.05 -106.592 3527
-2215 -106.803 3534
-2206.55 -106.803 3534
-2198.1 -106.803 3534
-2189.65 -106.803 3534
-2176.87 -106.592 3527
-2154.91 -105.927 3505
-2169.19 -107.045 3542
-2160.72 -107.045 3542
-2161.37 -107.498 3557
-2157.7 -107.74 3565
-2149.18 -107.74 3565
-2140.65 -107.74 3565
-2132.13 -107.74 3565
-2123.6 -107.74 3565
-2119.23 -107.952 3572
-2110.69 -107.952 3572
-2111.56 -108.435 3588
-2107.09 -108.647 3595
-2103.16 -108.888 3603
-2094.54 -108.888 3603
-2085.93 -108.888 3603
-2077.31 -108.888 3603
-2068.7 -108.888 3603
-2046.93 -108.193 3580
-2029.83 -107.74 3565
-2025.27 -107.952 3572
-2016.73 -107.952 3572
-2008.19 -107.952 3572
-1999.65 -107.952 3572
-1991.11 -107.952 3572
-1982.56 -107.952 3572
-1970.15 -107.74 3565
-1948.97 -107.045 3542
-1948.72 -107.498 3557
-1940.21 -107.498 3557
-1931.71 -107.498 3557
-1923.2 -107.498 3557
-1914.7 -107.498 3557
-1906.19 -107.498 3557
-1897.69 -107.498 3557
-1876.96 -106.803 3534
-1868.51 -106.803 3534
-1860.06 -106.803 3534
-1840.08 -106.138 3512
-1831.69 -106.138 3512
-1838.86 -107.045 3542
-1838.14 -107.498 3557
-1829.64 -107.498 3557
-1825.23 -107.74 3565
-1816.7 -107.74 3565
-1808.18 -107.74 3565
-1791.58 -107.256 3549
-1779.57 -107.045 3542
-1771.1 -107.045 3542
-1762.63 -107.045 3542
-1754.16 -107.045 3542
-1745.69 -107.045 3542
-1733.3 -106.803 3534
-1718.02 -106.38 3520
-1709.6 -106.38 3520
-1701.18 -106.38 3520
-1703.34 -107.045 3542
-1694.87 -107.045 3542
-1686.4 -107.045 3542
-1677.93 -107.045 3542
-1680.3 -107.74 3565
-1671.78 -107.74 3565
-1663.25 -107.74 3565
-1654.73 -107.74 3565
-1646.2 -107.74 3565
-1627.11 -107.045 3542
-1618.64 -107.045 3542
-1610.17 -107.045 3542
-1608.49 -107.498 3557
-1606.73 -107.952 3572
-1598.19 -107.952 3572
-1589.64 -107.952 3572
-1581.1 -107.952 3572
-1572.56 -107.952 3572
-1567.52 -108.193 3580
-1558.96 -108.193 3580
-1553.86 -108.435 3588
-1545.28 -108.435 3588
-1536.7 -108.435 3588
-1528.12 -108.435 3588
-1512.77 -107.952 3572
-1494.54 -107.256 3549
-1486.05 -107.256 3549
-1468.41 -106.592 3527
-1459.97 -106.592 3527
-1436.31 -105.473 3490
-1427.97 -105.473 3490
-1273.18 -94.5936 3130
-1265.7 -94.5936 3130
-1258.21 -94.5936 3130
-1236.74 -93.5358 3095
-1229.34 -93.5358 3095
-1210.89 -92.6896 3067
-1181.58 -90.9972 3011
-1157.61 -89.6977 2968
-1142.37 -89.063 2947
-1135.32 -89.063 2947
-1124.45 -88.7608 2937
-1115.52 -88.6097 2932
-1108.51 -88.6097 2932
-1101.5 -88.6097 2932
-1094.49 -88.6097 2932
-1091.18 -88.9119 2942
-1088.2 -89.2443 2953
-1081.14 -89.2443 2953
-1074.08 -89.2443 2953
-1067.02 -89.2443 2953
-1057.8 -89.063 2947
-1050.76 -89.063 2947
-1041.94 -88.9119 2942
-1033.14 -88.7608 2937
-1022.63 -88.4586 2927
-1015.63 -88.4586 2927
-1008.63 -88.4586 2927
-998.206 -88.1564 2917
-991.231 -88.1564 2917
-984.255 -88.1564 2917
-977.28 -88.1564 2917
-970.304 -88.1564 2917
-963.329 -88.1564 2917
-956.354 -88.1564 2917
-947.425 -87.975 2911
-938.849 -87.8239 2906
-931.9 -87.8239 2906
-924.951 -87.8239 2906
-918.002 -87.8239 2906
-911.052 -87.8239 2906
-902.548 -87.6728 2901
-895.611 -87.6728 2901
-888.673 -87.6728 2901
-881.736 -87.6728 2901
-874.799 -87.6728 2901
-867.862 -87.6728 2901
-860.925 -87.6728 2901
-853.987 -87.6728 2901
-847.05 -87.6728 2901
-840.113 -87.6728 2901
-833.176 -87.6728 2901
-826.239 -87.6728 2901
-817.89 -87.5217 2896
-810.964 -87.5217 2896
-804.039 -87.5217 2896
-795.738 -87.3706 2891
-788.824 -87.3706 2891
-781.911 -87.3706 2891
-774.998 -87.3706 2891
-768.085 -87.3706 2891
-759.855 -87.2195 2886
-752.954 -87.2195 2886
-746.052 -87.2195 2886
-737.87 -87.0684 2881
-730.981 -87.0684 2881
-724.092 -87.0684 2881
-717.202 -87.0684 2881
-709.08 -86.9173 2876
-700.982 -86.7662 2871
-694.117 -86.7662 2871
-687.251 -86.7662 2871
-680.386 -86.7662 2871
-672.347 -86.6151 2866
-664.565 -86.4942 2862
-657.721 -86.4942 2862
-649.74 -86.3431 2857
-641.783 -86.192 2852
-634.963 -86.192 2852
-628.143 -86.192 2852
-623.502 -86.4942 2862
-616.658 -86.4942 2862
-610.666 -86.6151 2866
-605.919 -86.9173 2876
-602.167 -87.3706 2891
-595.253 -87.3706 2891
-590.375 -87.6728 2901
-591.684 -88.9119 2942
-584.648 -88.9119 2942
-596.658 -91.8434 3039
-618.676 -96.4069 3190
-621.774 -98.0993 3246
-614.012 -98.0993 3246
-607.371 -98.2806 3252
-600.7 -98.4619 3258
-594.183 -98.6735 3265
-586.376 -98.6735 3265
-579.631 -98.8548 3271
-577.403 -99.8219 3303
-569.505 -99.8219 3303
-561.606 -99.8219 3303
-556.055 -100.245 3317
-548.123 -100.245 3317
-541.168 -100.426 3323
-533.222 -100.426 3323
-525.275 -100.426 3323
-518.419 -100.638 3330
-510.456 -100.638 3330
-502.493 -100.638 3330
-494.53 -100.638 3330
-486.567 -100.638 3330
-478.604 -100.638 3330
-470.641 -100.638 3330
-461.705 -100.426 3323
-450.208 -99.6406 3297
-442.324 -99.6406 3297
-432.727 -99.2477 3284
-424.874 -99.2477 3284
-418.672 -99.6406 3297
-410.788 -99.6406 3297
-402.904 -99.6406 3297
-393.462 -99.2477 3284
-384.082 -98.8548 3271
-375.57 -98.6735 3265
-367.763 -98.6735 3265
-224.242 -61.4707 2034
-219.701 -61.5614 2037
-215.041 -61.6218 2039
-210.165 -61.6218 2039
-205.289 -61.6218 2039
-200.217 -61.5614 2037
-195.346 -61.5614 2037
-191.597 -61.924 2049
-186.697 -61.924 2049
-183.66 -62.5587 2070
-178.883 -62.6191 2072
-174.6 -62.8609 2080
-169.626 -62.8609 2080
-165.523 -63.1933 2091
-160.676 -63.2538 2093
-156.266 -63.4956 2101
-151.242 -63.4956 2101
-146.427 -63.5862 2104
-142.269 -63.9791 2117
-137.531 -64.1302 2122
-132.456 -64.1302 2122
-127.922 -64.4022 2131
-122.942 -64.4626 2133
-118.007 -64.5533 2136
-112.899 -64.5533 2136
-107.943 -64.644 2139
-102.828 -64.644 2139
-97.7126 -64.644 2139
-92.5976 -64.644 2139
-87.4826 -64.644 2139
-82.1365 -64.4626 2133
-77.0359 -64.4626 2133
-71.7666 -64.3115 2128
-66.4899 -64.1302 2122
-61.3577 -64.0698 2120
-56.2881 -64.0698 2120
-51.1461 -63.9791 2117
-46.0837 -63.9791 2117
-40.9632 -63.8884 2114
-35.9079 -63.8884 2114
-30.8235 -63.828 2112
-25.7731 -63.828 2112
-20.6932 -63.7373 2109
-15.6277 -63.6467 2106
-10.5916 -63.6467 2106
-5.55555 -63.6467 2106
-0.520209 -63.7373 2109
4.52948 -63.828 2112
9.57992 -63.828 2112
14.6303 -63.828 2112
19.6808 -63.828 2112
24.7546 -63.8884 2114
29.8098 -63.8884 2114
34.8651 -63.8884 2114
39.9203 -63.8884 2114
45.1031 -64.0698 2120
50.1727 -64.0698 2120
55.2423 -64.0698 2120
60.3118 -64.0698 2120
65.3814 -64.0698 2120
70.451 -64.0698 2120
75.5205 -64.0698 2120
80.6661 -64.1302 2122
85.8617 -64.2209 2125
91.0716 -64.3115 2128
96.1603 -64.3115 2128
101.249 -64.3115 2128
106.338 -64.3115 2128
111.688 -64.4626 2133
116.789 -64.4626 2133
122.061 -64.5533 2136
127.347 -64.644 2139
132.648 -64.7346 2142
137.899 -64.7951 2144
143.026 -64.7951 2144
148.567 -64.9764 2150
153.923 -65.0671 2153
159.219 -65.1275 2155
164.373 -65.1275 2155
169.762 -65.2182 2158
175.166 -65.3088 2161
180.834 -65.4902 2167
186.016 -65.4902 2167
191.374 -65.5506 2169
197.105 -65.7319 2175
203.143 -66.0039 2184
208.366 -66.0039 2184
215.251 -66.5177 2201
221.917 -66.9408 2215
229.983 -67.7568 2242
235.344 -67.7568 2242
242.745 -68.331 2261
249.798 -68.7843 2276
255.914 -68.9657 2282
261.371 -68.9657 2282
267.997 -69.2679 2292
274.91 -69.6305 2304
282.732 -70.2047 2323
288.287 -70.2047 2323
294.348 -70.3256 2327
301.201 -70.6278 2337
310.203 -71.4136 2363
315.853 -71.4136 2363
321.912 -71.5043 2366
328.124 -71.6252 2370
333.791 -71.6252 2370
339.459 -71.6252 2370
345.126 -71.6252 2370
440.207 -87.0684 2881
447.873 -87.2195 2886
454.774 -87.2195 2886
461.675 -87.2195 2886
469.388 -87.3706 2891
476.302 -87.3706 2891
484.051 -87.5217 2896
490.976 -87.5217 2896
497.901 -87.5217 2896
504.826 -87.5217 2896
511.751 -87.5217 2896
518.677 -87.5217 2896
525.602 -87.5217 2896
531.608 -87.3706 2891
538.521 -87.3706 2891
544.491 -87.2195 2886
551.392 -87.2195 2886
558.294 -87.2195 2886
565.195 -87.2195 2886
570.114 -86.9173 2876
576.991 -86.9173 2876
582.854 -86.7662 2871
589.719 -86.7662 2871
596.584 -86.7662 2871
603.45 -86.7662 2871
610.315 -86.7662 2871
617.181 -86.7662 2871
624.046 -86.7662 2871
630.911 -86.7662 2871
637.777 -86.7662 2871
644.642 -86.7662 2871
651.508 -86.7662 2871
657.227 -86.6151 2866
664.08 -86.6151 2866
672.104 -86.7662 2871
678.97 -86.7662 2871
685.835 -86.7662 2871
692.7 -86.7662 2871
699.566 -86.7662 2871
706.431 -86.7662 2871
713.297 -86.7662 2871
720.162 -86.7662 2871
727.028 -86.7662 2871
733.893 -86.7662 2871
740.758 -86.7662 2871
747.624 -86.7662 2871
754.489 -86.7662 2871
762.681 -86.9173 2876
769.558 -86.9173 2876
776.435 -86.9173 2876
783.313 -86.9173 2876
790.19 -86.9173 2876
797.068 -86.9173 2876
802.547 -86.7662 2871
809.413 -86.7662 2871
814.857 -86.6151 2866
821.71 -86.6151 2866
828.563 -86.6151 2866
835.417 -86.6151 2866
842.27 -86.6151 2866
849.124 -86.6151 2866
855.977 -86.6151 2866
862.831 -86.6151 2866
869.684 -86.6151 2866
876.538 -86.6151 2866
883.391 -86.6151 2866
889.002 -86.4942 2862
898.663 -86.7662 2871
905.529 -86.7662 2871
913.983 -86.9173 2876
920.861 -86.9173 2876
930.964 -87.2195 2886
941.115 -87.5217 2896
952.95 -87.975 2911
959.911 -87.975 2911
972.187 -88.4586 2927
985.877 -89.063 2947
1005.39 -90.1812 2984
1012.53 -90.1812 2984
1067.5 -94.4122 3124
1105.94 -97.1322 3214
1113.63 -97.1322 3214
1130.03 -97.8877 3239
1203.47 -103.539 3426
1226.51 -104.808 3468
1234.81 -104.808 3468
1256.36 -105.927 3505
1270.16 -106.38 3520
1286.57 -107.045 3542
1295.04 -107.045 3542
1309.03 -107.498 3557
1320.49 -107.74 3565
1337.59 -108.435 3588
1346.17 -108.435 3588
1354.75 -108.435 3588
1363.33 -108.435 3588
1371.91 -108.435 3588
1371.64 -107.74 3565
1380.17 -107.74 3565
1379.74 -107.045 3542
1382.33 -106.592 3527
1390.76 -106.592 3527
1393.24 -106.138 3512
1392.86 -105.473 3490
1395.59 -105.05 3476
1403.9 -105.05 3476
1408.96 -104.808 3468
1414.39 -104.597 3461
1414.04 -103.962 3440
1422.26 -103.962 3440
1421.76 -103.328 3419
1418.22 -102.481 3391
1414.55 -101.635 3363
1422.6 -101.635 3363
1419.58 -100.849 3337
1419 -100.245 3317
1423.92 -100.033 3310
1431.84 -100.033 3310
1439.75 -100.033 3310
1447.67 -100.033 3310
1446.79 -99.429 3290
1452 -99.2477 3284
1459.86 -99.2477 3284
1461.9 -98.8548 3271
1467.02 -98.6735 3265
1474.83 -98.6735 3265
1482.64 -98.6735 3265
1490.45 -98.6735 3265
1495.04 -98.4619 3258
1502.83 -98.4619 3258
1513.87 -98.6735 3265
1527.74 -99.0664 3278
1535.57 -99.0664 3278
1543.41 -99.0664 3278
1569.71 -100.245 3317
1599.52 -101.635 3363
1607.56 -101.635 3363
1615.6 -101.635 3363
1623.64 -101.635 3363
1655.46 -103.116 3412
1663.62 -103.116 3412
1671.78 -103.116 3412
1683.38 -103.328 3419
1698.49 -103.751 3433
1706.7 -103.751 3433
1714.91 -103.751 3433
1723.12 -103.751 3433
1745.45 -104.597 3461
1753.72 -104.597 3461
1762 -104.597 3461
1770.27 -104.597 3461
1778.55 -104.597 3461
1786.83 -104.597 3461
1784.21 -103.962 3440
1738.77 -100.849 3337
1736.28 -100.245 3317
1744.21 -100.245 3317
1752.14 -100.245 3317
1760.08 -100.245 3317
1753.62 -99.429 3290
1761.48 -99.429 3290
1762.9 -99.0664 3278
1766.95 -98.8548 3271
1654.13 -91.3296 3022
1661.35 -91.3296 3022
1668.58 -91.3296 3022
1669.71 -90.9972 3011
1676.91 -90.9972 3011
1648.31 -89.063 2947
1649.74 -88.7608 2937
1642.1 -87.975 2911
1649.06 -87.975 2911
1636.11 -86.9173 2876
1629.28 -86.192 2852
1624.62 -85.5875 2832
1629.09 -85.4666 2828
1635.85 -85.4666 2828
1631.58 -84.8924 2809
1635.38 -84.7413 2804
1642.09 -84.7413 2804
1648.79 -84.7413 2804
1652.54 -84.5902 2799
1656.27 -84.4391 2794
1657.6 -84.1671 2785
1664.26 -84.1671 2785
1667.92 -84.016 2780
1669.14 -83.744 2771
1673.35 -83.6231 2767
1676.93 -83.472 2762
1683.54 -83.472 2762
1684.63 -83.2 2753
1688.15 -83.0489 2748
1683.62 -82.5049 2730
1690.15 -82.5049 2730
1696.67 -82.5049 2730
1700.71 -82.384 2726
1704.09 -82.2329 2721
1710.6 -82.2329 2721
1714.58 -82.1121 2717
1721.08 -82.1121 2717
1725.03 -81.9912 2713
1728.33 -81.8401 2708
1734.81 -81.8401 2708
1735.49 -81.5681 2699
1739.37 -81.4472 2695
1739.98 -81.1752 2686
1746.4 -81.1752 2686
1750.22 -81.0543 2682
1754.01 -80.9334 2678
1754.5 -80.6614 2669
1760.88 -80.6614 2669
1767.26 -80.6614 2669
1768.33 -80.4196 2661
1774.69 -80.4196 2661
1781.06 -80.4196 2661
1784.06 -80.2685 2656
1787.72 -80.1477 2652
1794.06 -80.1477 2652
1800.4 -80.1477 2652
1806.74 -80.1477 2652
1813.08 -80.1477 2652
1819.42 -80.1477 2652
1820.26 -79.9059 2644
1829.34 -80.0268 2648
1835.68 -80.0268 2648
1842.01 -80.0268 2648
1848.34 -80.0268 2648
1854.67 -80.0268 2648
1855.38 -79.785 2640
1861.7 -79.785 2640
1873.67 -80.0268 2648
1880 -80.0268 2648
1886.33 -80.0268 2648
1886.95 -79.785 2640
1886.81 -79.513 2631
1893.1 -79.513 2631
1899.39 -79.513 2631
1905.68 -79.513 2631
1911.97 -79.513 2631
1915.35 -79.3921 2627
1921.63 -79.3921 2627
1927.91 -79.3921 2627
1931.25 -79.2712 2623
1937.52 -79.2712 2623
1943.79 -79.2712 2623
1950.07 -79.2712 2623
1956.34 -79.2712 2623
1962.61 -79.2712 2623
1965.88 -79.1503 2619
1972.14 -79.1503 2619
1978.41 -79.1503 2619
1981.64 -79.0294 2615
1978.77 -78.6668 2603
1984.99 -78.6668 2603
1984.33 -78.3948 2594
-2041.02 -75.8539 2726
-2034.5 -75.8539 2726
-2030.96 -75.9652 2730
-2024.43 -75.9652 2730
-2017.9 -75.9652 2730
-2011.38 -75.9652 2730
-2004.85 -75.9652 2730
-1998.32 -75.9652 2730
-1979.39 -75.4921 2713
-1950.36 -74.6295 2682
-1943.94 -74.6295 2682
-1918.75 -73.9061 2656
-1906.64 -73.6835 2648
-1897.43 -73.5722 2644
-1891.11 -73.5722 2644
-1884.79 -73.5722 2644
-1890.54 -74.0452 2661
-1884.18 -74.0452 2661
-1877.82 -74.0452 2661
-2257.59 -89.6278 3221
-2275.74 -90.6574 3258
-2267.95 -90.6574 3258
-2260.15 -90.6574 3258
-2378.19 -95.7217 3440
-2409.23 -97.3078 3497
-2400.87 -97.3078 3497
-2392.51 -97.3078 3497
-2384.14 -97.3078 3497
-2375.78 -97.3078 3497
-2357.94 -96.9182 3483
-2349.61 -96.9182 3483
-2350.69 -97.3078 3497
-2342.33 -97.3078 3497
-2333.97 -97.3078 3497
-2325.61 -97.3078 3497
-2312.61 -97.113 3490
-2318.79 -97.7252 3512
-2310.39 -97.7252 3512
-2301.99 -97.7252 3512
-2293.59 -97.7252 3512
-2285.19 -97.7252 3512
-2276.79 -97.7252 3512
-2268.4 -97.7252 3512
-2260 -97.7252 3512
-2251.6 -97.7252 3512
-2238.73 -97.5304 3505
-2225.26 -97.3078 3497
-2226.4 -97.7252 3512
-2231.9 -98.3374 3534
-2223.45 -98.3374 3534
-2215 -98.3374 3534
-2206.55 -98.3374 3534
-2198.1 -98.3374 3534
-2185.31 -98.1426 3527
-2172.55 -97.9478 3520
-2154.91 -97.5304 3505
-2169.19 -98.56 3542
-2160.72 -98.56 3542
-2161.37 -98.9774 3557
-2157.7 -99.2 3565
-2149.18 -99.2 3565
-2140.65 -99.2 3565
-2132.13 -99.2 3565
-2123.6 -99.2 3565
-2119.23 -99.3948 3572
-2110.69 -99.3948 3572
-2111.56 -99.84 3588
-2107.09 -100.035 3595
-2103.16 -100.257 3603
-2094.54 -100.257 3603
-2085.93 -100.257 3603
-2077.31 -100.257 3603
-2068.7 -100.257 3603
-2046.93 -99.6174 3580
-2029.83 -99.2 3565
-2025.27 -99.3948 3572
-2016.73 -99.3948 3572
-2008.19 -99.3948 3572
-1999.65 -99.3948 3572
-1991.11 -99.3948 3572
-1982.56 -99.3948 3572
-1970.15 -99.2 3565
-1948.97 -98.56 3542
-1948.72 -98.9774 3557
-1940.21 -98.9774 3557
-1931.71 -98.9774 3557
-1923.2 -98.9774 3557
-1914.7 -98.9774 3557
-1906.19 -98.9774 3557
-1897.69 -98.9774 3557
-1876.96 -98.3374 3534
-1868.51 -98.3374 3534
-1860.06 -98.3374 3534
-1840.08 -97.7252 3512
-1831.69 -97.7252 3512
-1838.86 -98.56 3542
-1838.14 -98.9774 3557
-1829.64 -98.9774 3557
-1825.23 -99.2 3565
-1816.7 -99.2 3565
-1808.18 -99.2 3565
-1791.58 -98.7548 3549
-1779.57 -98.56 3542
-1771.1 -98.56 3542
-1762.63 -98.56 3542
-1754.16 -98.56 3542
-1745.69 -98.56 3542
-1733.3 -98.3374 3534
-1718.02 -97.9478 3520
-1709.6 -97.9478 3520
-1693.93 -97.5304 3505
-1692.76 -97.9478 3520
-1687.7 -98.1426 3527
-1679.26 -98.1426 3527
-1670.83 -98.1426 3527
-1665.69 -98.3374 3534
-1657.24 -98.3374 3534
-1652.52 -98.56 3542
-1644.05 -98.56 3542
-1635.58 -98.56 3542
-1620.22 -98.1426 3527
-1611.79 -98.1426 3527
-1603.35 -98.1426 3527
-1601.7 -98.56 3542
-1596.38 -98.7548 3549
-1595.05 -99.2 3565
-1586.53 -99.2 3565
-1578 -99.2 3565
-1569.48 -99.2 3565
-1560.95 -99.2 3565
-1552.43 -99.2 3565
-1546.94 -99.3948 3572
-1538.39 -99.3948 3572
-1529.85 -99.3948 3572
-1521.31 -99.3948 3572
-1506.42 -98.9774 3557
-1488.22 -98.3374 3534
-1479.77 -98.3374 3534
-1468.41 -98.1426 3527
-1457.08 -97.9478 3520
-1436.31 -97.113 3490
-1427.97 -97.113 3490
-1273.18 -87.0956 3130
-1265.7 -87.0956 3130
-1258.21 -87.0956 3130
-1236.74 -86.1217 3095
-1229.34 -86.1217 3095
-1210.89 -85.3426 3067
-1181.58 -83.7843 3011
-1157.61 -82.5878 2968
-1142.37 -82.0034 2947
-1135.32 -82.0034 2947
-1124.45 -81.7252 2937
-1115.52 -81.5861 2932
-1108.51 -81.5861 2932
-1101.5 -81.5861 2932
-1094.49 -81.5861 2932
-1091.18 -81.8643 2942
-1088.2 -82.1704 2953
-1081.14 -82.1704 2953
-1074.08 -82.1704 2953
-1067.02 -82.1704 2953
-1057.8 -82.0034 2947
-1050.76 -82.0034 2947
-1041.94 -81.8643 2942
-1033.14 -81.7252 2937
-1022.63 -81.4469 2927
-1015.63 -81.4469 2927
-1008.63 -81.4469 2927
-998.206 -81.1687 2917
-991.231 -81.1687 2917
-984.255 -81.1687 2917
-977.28 -81.1687 2917
-970.304 -81.1687 2917
-963.329 -81.1687 2917
-956.354 -81.1687 2917
-947.425 -81.0017 2911
-938.849 -80.8626 2906
-931.9 -80.8626 2906
-924.951 -80.8626 2906
-918.002 -80.8626 2906
-911.052 -80.8626 2906
-902.548 -80.7234 2901
-895.611 -80.7234 2901
-888.673 -80.7234 2901
-881.736 -80.7234 2901
-874.799 -80.7234 2901
-867.862 -80.7234 2901
-860.925 -80.7234 2901
-853.987 -80.7234 2901
-847.05 -80.7234 2901
-840.113 -80.7234 2901
-833.176 -80.7234 2901
-826.239 -80.7234 2901
-817.89 -80.5843 2896
-810.964 -80.5843 2896
-804.039 -80.5843 2896
-795.738 -80.4452 2891
-788.824 -80.4452 2891
-781.911 -80.4452 2891
-774.998 -80.4452 2891
-768.085 -80.4452 2891
-759.855 -80.3061 2886
-752.954 -80.3061 2886
-746.052 -80.3061 2886
-737.87 -80.1669 2881
-730.981 -80.1669 2881
-724.092 -80.1669 2881
-717.202 -80.1669 2881
-709.08 -80.0278 2876
-700.982 -79.8887 2871
-694.117 -79.8887 2871
-687.251 -79.8887 2871
-680.386 -79.8887 2871
-672.347 -79.7495 2866
-664.565 -79.6382 2862
-657.721 -79.6382 2862
-649.74 -79.4991 2857
-641.783 -79.36 2852
-634.963 -79.36 2852
-628.143 -79.36 2852
-623.502 -79.6382 2862
-616.658 -79.6382 2862
-610.666 -79.7495 2866
-605.919 -80.0278 2876
-602.167 -80.4452 2891
-595.253 -80.4452 2891
-590.375 -80.7234 2901
-591.684 -81.8643 2942
-584.648 -81.8643 2942
-596.658 -84.5635 3039
-618.676 -88.7652 3190
-621.774 -90.3234 3246
-614.012 -90.3234 3246
-607.371 -90.4904 3252
-600.7 -90.6574 3258
-594.183 -90.8521 3265
-586.376 -90.8521 3265
-579.631 -91.0191 3271
-577.403 -91.9095 3303
-569.505 -91.9095 3303
-561.606 -91.9095 3303
-554.881 -92.1043 3310
-546.966 -92.1043 3310
-539.051 -92.1043 3310
-531.136 -92.1043 3310
-523.221 -92.1043 3310
-516.395 -92.2991 3317
-508.463 -92.2991 3317
-500.531 -92.2991 3317
-491.56 -92.1043 3310
-483.644 -92.1043 3310
-475.729 -92.1043 3310
-467.814 -92.1043 3310
-459.899 -92.1043 3310
-449.253 -91.5478 3290
-441.385 -91.5478 3290
-432.727 -91.3808 3284
-424.874 -91.3808 3284
-417.783 -91.5478 3290
-409.916 -91.5478 3290
-402.048 -91.5478 3290
-393.462 -91.3808 3284
-384.082 -91.0191 3271
-375.57 -90.8521 3265
-367.763 -90.8521 3265
-224.021 -56.5426 2032
-219.378 -56.5982 2034
-214.514 -56.5982 2034
-209.65 -56.5982 2034
-204.786 -56.5982 2034
-199.725 -56.5426 2032
-194.866 -56.5426 2032
-191.597 -57.0156 2049
-186.697 -57.0156 2049
-183.394 -57.5165 2067
-178.883 -57.6556 2072
-174.432 -57.8226 2078
-169.463 -57.8226 2078
-165.285 -58.1008 2088
-160.676 -58.24 2093
-156.043 -58.3791 2098
-151.026 -58.3791 2098
-146.427 -58.5461 2104
-142.067 -58.8243 2114
-137.401 -58.9913 2120
-132.332 -58.9913 2120
-127.922 -59.2974 2131
-122.942 -59.353 2133
-118.007 -59.4365 2136
-112.899 -59.4365 2136
-107.943 -59.52 2139
-102.828 -59.52 2139
-97.7126 -59.52 2139
-92.5976 -59.52 2139
-87.4826 -59.52 2139
-82.1365 -59.353 2133
-77.0359 -59.353 2133
-71.7666 -59.2139 2128
-66.4899 -59.0469 2122
-61.3577 -58.9913 2120
-56.2881 -58.9913 2120
-51.1461 -58.9078 2117
-46.0184 -58.8243 2114
-40.9632 -58.8243 2114
-35.9079 -58.8243 2114
-30.8235 -58.7687 2112
-25.7731 -58.7687 2112
-20.6932 -58.6852 2109
-15.6277 -58.6017 2106
-10.5916 -58.6017 2106
-5.55555 -58.6017 2106
-0.520209 -58.6852 2109
4.52948 -58.7687 2112
9.57992 -58.7687 2112
14.6303 -58.7687 2112
19.6808 -58.7687 2112
24.7546 -58.8243 2114
29.8098 -58.8243 2114
34.8651 -58.8243 2114
39.9203 -58.8243 2114
45.1031 -58.9913 2120
50.1727 -58.9913 2120
55.2423 -58.9913 2120
60.3118 -58.9913 2120
65.3814 -58.9913 2120
70.451 -58.9913 2120
75.5205 -58.9913 2120
80.6661 -59.0469 2122
85.8617 -59.1304 2125
91.0716 -59.2139 2128
96.1603 -59.2139 2128
101.249 -59.2139 2128
106.338 -59.2139 2128
111.688 -59.353 2133
116.789 -59.353 2133
122.061 -59.4365 2136
127.347 -59.52 2139
132.648 -59.6035 2142
137.899 -59.6591 2144
143.026 -59.6591 2144
148.567 -59.8261 2150
153.923 -59.9095 2153
159.219 -59.9652 2155
164.373 -59.9652 2155
169.762 -60.0487 2158
175.166 -60.1322 2161
180.834 -60.2991 2167
186.016 -60.2991 2167
191.374 -60.3548 2169
197.105 -60.5217 2175
203.143 -60.7722 2184
208.366 -60.7722 2184
215.251 -61.2452 2201
221.917 -61.6348 2215
229.983 -62.3861 2242
235.344 -62.3861 2242
242.745 -62.9148 2261
249.798 -63.3322 2276
255.914 -63.4991 2282
261.371 -63.4991 2282
267.997 -63.7774 2292
274.91 -64.1113 2304
282.732 -64.64 2323
288.287 -64.64 2323
294.348 -64.7513 2327
301.201 -65.0295 2337
310.203 -65.753 2363
315.853 -65.753 2363
321.912 -65.8365 2366
328.124 -65.9478 2370
333.791 -65.9478 2370
339.459 -65.9478 2370
345.126 -65.9478 2370
440.207 -80.1669 2881
447.873 -80.3061 2886
454.774 -80.3061 2886
461.675 -80.3061 2886
469.388 -80.4452 2891
476.302 -80.4452 2891
484.051 -80.5843 2896
490.976 -80.5843 2896
497.901 -80.5843 2896
504.826 -80.5843 2896
511.751 -80.5843 2896
518.677 -80.5843 2896
525.602 -80.5843 2896
531.608 -80.4452 2891
538.521 -80.4452 2891
544.491 -80.3061 2886
551.392 -80.3061 2886
558.294 -80.3061 2886
565.195 -80.3061 2886
570.114 -80.0278 2876
576.991 -80.0278 2876
582.854 -79.8887 2871
589.719 -79.8887 2871
596.584 -79.8887 2871
603.45 -79.8887 2871
610.315 -79.8887 2871
617.181 -79.8887 2871
624.046 -79.8887 2871
630.911 -79.8887 2871
636.666 -79.7495 2866
643.52 -79.7495 2866
650.373 -79.7495 2866
657.227 -79.7495 2866
664.08 -79.7495 2866
672.104 -79.8887 2871
678.97 -79.8887 2871
685.835 -79.8887 2871
692.7 -79.8887 2871
699.566 -79.8887 2871
706.431 -79.8887 2871
713.297 -79.8887 2871
720.162 -79.8887 2871
727.028 -79.8887 2871
733.893 -79.8887 2871
740.758 -79.8887 2871
747.624 -79.8887 2871
754.489 -79.8887 2871
762.681 -80.0278 2876
769.558 -80.0278 2876
776.435 -80.0278 2876
783.313 -80.0278 2876
790.19 -80.0278 2876
797.068 -80.0278 2876
802.547 -79.8887 2871
809.413 -79.8887 2871
814.857 -79.7495 2866
821.71 -79.7495 2866
828.563 -79.7495 2866
835.417 -79.7495 2866
842.27 -79.7495 2866
849.124 -79.7495 2866
855.977 -79.7495 2866
862.831 -79.7495 2866
869.684 -79.7495 2866
876.538 -79.7495 2866
883.391 -79.7495 2866
889.002 -79.6382 2862
898.663 -79.8887 2871
905.529 -79.8887 2871
913.983 -80.0278 2876
920.861 -80.0278 2876
930.964 -80.3061 2886
941.115 -80.5843 2896
952.95 -81.0017 2911
959.911 -81.0017 2911
972.187 -81.4469 2927
985.877 -82.0034 2947
1005.39 -83.033 2984
1012.53 -83.033 2984
1067.5 -86.9287 3124
1099.75 -88.9321 3196
1107.39 -88.9321 3196
1125.85 -89.7948 3227
1186.26 -93.9687 3377
1211.66 -95.3321 3426
1219.85 -95.3321 3426
1243.1 -96.5008 3468
1259.33 -97.113 3490
1275.67 -97.7252 3512
1284.07 -97.7252 3512
1297.99 -98.1426 3527
1309.01 -98.3374 3534
1329.02 -99.2 3565
1337.54 -99.2 3565
1346.07 -99.2 3565
1354.59 -99.2 3565
1363.12 -99.2 3565
1362.8 -98.56 3542
1368.17 -98.3374 3534
1371.17 -97.9478 3520
1370.57 -97.3078 3497
1378.93 -97.3078 3497
1378.96 -96.7234 3476
1375.7 -95.9165 3447
1381.13 -95.7217 3440
1389.36 -95.7217 3440
1391.9 -95.3321 3426
1397.23 -95.1374 3419
1402.53 -94.9426 3412
1410.69 -94.9426 3412
1407.2 -94.1634 3384
1406.51 -93.5791 3363
1403.62 -92.8556 3337
1411.6 -92.8556 3337
1411.07 -92.2991 3317
1410.45 -91.7426 3297
1415.32 -91.5478 3290
1423.19 -91.5478 3290
1431.05 -91.5478 3290
1438.92 -91.5478 3290
1444.15 -91.3808 3284
1446.25 -91.0191 3271
1454.08 -91.0191 3271
1459.22 -90.8521 3265
1463.88 -90.6574 3258
1471.67 -90.6574 3258
1479.46 -90.6574 3258
1487.25 -90.6574 3258
1495.04 -90.6574 3258
1502.83 -90.6574 3258
1513.87 -90.8521 3265
1527.74 -91.2139 3278
1535.57 -91.2139 3278
1543.41 -91.2139 3278
1569.71 -92.2991 3317
1599.52 -93.5791 3363
1607.56 -93.5791 3363
1615.6 -93.5791 3363
1623.64 -93.5791 3363
1655.46 -94.9426 3412
1663.62 -94.9426 3412
1671.78 -94.9426 3412
1683.38 -95.1374 3419
1698.49 -95.5269 3433
1706.7 -95.5269 3433
1714.91 -95.5269 3433
1723.12 -95.5269 3433
1745.45 -96.3061 3461
1753.72 -96.3061 3461
1762 -96.3061 3461
1770.27 -96.3061 3461
1778.55 -96.3061 3461
1786.83 -96.3061 3461
1784.21 -95.7217 3440
1738.77 -92.8556 3337
1736.28 -92.2991 3317
1744.21 -92.2991 3317
1752.14 -92.2991 3317
1760.08 -92.2991 3317
1753.62 -91.5478 3290
1761.48 -91.5478 3290
1762.9 -91.2139 3278
1766.95 -91.0191 3271
1654.13 -84.0904 3022
1661.35 -84.0904 3022
1668.58 -84.0904 3022
1669.71 -83.7843 3011
1676.91 -83.7843 3011
1648.31 -82.0034 2947
1649.74 -81.7252 2937
1642.1 -81.0017 2911
1649.06 -81.0017 2911
1636.11 -80.0278 2876
1629.28 -79.36 2852
1624.62 -78.8035 2832
1629.09 -78.6921 2828
1635.85 -78.6921 2828
1631.58 -78.1635 2809
1635.38 -78.0243 2804
1642.09 -78.0243 2804
1648.79 -78.0243 2804
1652.54 -77.8852 2799
1656.27 -77.7461 2794
1657.6 -77.4956 2785
1664.26 -77.4956 2785
1667.92 -77.3565 2780
1669.14 -77.1061 2771
1673.35 -76.9948 2767
1676.93 -76.8556 2762
1683.54 -76.8556 2762
1684.63 -76.6052 2753
1688.15 -76.4661 2748
1683.62 -75.9652 2730
1690.15 -75.9652 2730
1696.67 -75.9652 2730
1700.71 -75.8539 2726
1704.09 -75.7148 2721
1710.6 -75.7148 2721
1714.58 -75.6035 2717
1721.08 -75.6035 2717
1725.03 -75.4921 2713
1728.33 -75.353 2708
1734.81 -75.353 2708
1735.49 -75.1026 2699
1739.37 -74.9913 2695
1739.98 -74.7408 2686
1746.4 -74.7408 2686
1750.22 -74.6295 2682
1754.01 -74.5182 2678
1754.5 -74.2678 2669
1760.88 -74.2678 2669
1767.26 -74.2678 2669
1768.33 -74.0452 2661
1774.69 -74.0452 2661
1781.06 -74.0452 2661
1784.06 -73.9061 2656
1787.72 -73.7948 2652
1794.06 -73.7948 2652
1800.4 -73.7948 2652
1806.74 -73.7948 2652
1813.08 -73.7948 2652
1819.42 -73.7948 2652
1820.26 -73.5722 2644
1829.34 -73.6835 2648
1835.68 -73.6835 2648
1842.01 -73.6835 2648
1848.34 -73.6835 2648
1854.67 -73.6835 2648
1855.38 -73.4608 2640
1861.7 -73.4608 2640
1873.67 -73.6835 2648
1880 -73.6835 2648
1886.33 -73.6835 2648
1886.95 -73.4608 2640
1886.81 -73.2104 2631
1893.1 -73.2104 2631
1899.39 -73.2104 2631
1905.68 -73.2104 2631
1911.97 -73.2104 2631
1915.35 -73.0991 2627
1921.63 -73.0991 2627
1927.91 -73.0991 2627
1931.25 -72.9878 2623
1937.52 -72.9878 2623
1943.79 -72.9878 2623
1950.07 -72.9878 2623
1956.34 -72.9878 2623
1962.61 -72.9878 2623
1965.88 -72.8765 2619
1972.14 -72.8765 2619
1978.41 -72.8765 2619
1981.64 -72.7652 2615
1978.77 -72.4313 2603
1984.99 -72.4313 2603
1984.33 -72.1808 2594
-2044.02 -69.4255 2730
-2037.49 -69.4255 2730
-2030.96 -69.4255 2730
-2024.43 -69.4255 2730
-2017.9 -69.4255 2730
-2011.38 -69.4255 2730
-2004.85 -69.4255 2730
-1998.32 -69.4255 2730
-1982.31 -69.0949 2717
-1953.27 -68.3065 2686
-1946.84 -68.3065 2686
-1925.25 -67.7725 2665
-1909.52 -67.4419 2652
-1906.05 -67.5436 2656
-1899.69 -67.5436 2656
-1893.34 -67.5436 2656
-1890.54 -67.6707 2661
-1884.18 -67.6707 2661
-1877.82 -67.6707 2661
-1844.73 -66.7044 2623
-2275.74 -82.8528 3258
-2267.95 -82.8528 3258
-2260.15 -82.8528 3258
-2378.19 -87.4812 3440
-2399.58 -88.5747 3483
-2391.26 -88.5747 3483
-2382.93 -88.5747 3483
-2374.6 -88.5747 3483
-2366.27 -88.5747 3483
-2357.94 -88.5747 3483
-2344.89 -88.3967 3476
-2345.99 -88.7527 3490
-2337.64 -88.7527 3490
-2329.3 -88.7527 3490
-2320.95 -88.7527 3490
-2312.61 -88.7527 3490
-2318.79 -89.3122 3512
-2310.39 -89.3122 3512
-2301.99 -89.3122 3512
-2293.59 -89.3122 3512
-2285.19 -89.3122 3512
-2276.79 -89.3122 3512
-2268.4 -89.3122 3512
-2255.49 -89.1341 3505
-2247.11 -89.1341 3505
-2233.62 -88.9307 3497
-2225.26 -88.9307 3497
-2226.4 -89.3122 3512
-2231.9 -89.8716 3534
-2223.45 -89.8716 3534
-2215 -89.8716 3534
-2206.55 -89.8716 3534
-2198.1 -89.8716 3534
-2185.31 -89.6936 3527
-2172.55 -89.5156 3520
-2154.91 -89.1341 3505
-2169.19 -90.0751 3542
-2160.72 -90.0751 3542
-2161.37 -90.4565 3557
-2157.7 -90.66 3565
-2153.4 -90.838 3572
-2144.86 -90.838 3572
-2136.31 -90.838 3572
-2132.54 -91.0414 3580
-2132.88 -91.4229 3595
-2124.28 -91.4229 3595
-2120.39 -91.6263 3603
-2116.46 -91.8298 3611
-2107.83 -91.8298 3611
-2099.19 -91.8298 3611
-2090.56 -91.8298 3611
-2081.92 -91.8298 3611
-2073.29 -91.8298 3611
-2055.51 -91.4229 3595
-2046.91 -91.4229 3595
-2038.31 -91.4229 3595
-2034.23 -91.6263 3603
-2025.62 -91.6263 3603
-2017 -91.6263 3603
-2008.39 -91.6263 3603
-1999.77 -91.6263 3603
-1982.86 -91.2449 3588
-1965.48 -90.838 3572
-1956.94 -90.838 3572
-1957.12 -91.2449 3588
-1948.54 -91.2449 3588
-1939.96 -91.2449 3588
-1922.77 -90.838 3572
-1914.23 -90.838 3572
-1905.69 -90.838 3572
-1893.43 -90.66 3565
-1884.9 -90.66 3565
-1876.38 -90.66 3565
-1859.47 -90.2531 3549
-1847.33 -90.0751 3542
-1846.65 -90.4565 3557
-1842.28 -90.66 3565
-1833.75 -90.66 3565
-1828.81 -90.838 3572
-1820.27 -90.838 3572
-1811.73 -90.838 3572
-1803.19 -90.838 3572
-1787.11 -90.4565 3557
-1774.6 -90.2531 3549
-1766.12 -90.2531 3549
-1757.63 -90.2531 3549
-1749.14 -90.2531 3549
-1740.66 -90.2531 3549
-1728.75 -90.0751 3542
-1720.28 -90.0751 3542
-1707.95 -89.8716 3534
-1699.5 -89.8716 3534
-1684.35 -89.5156 3520
-1675.93 -89.5156 3520
-1667.51 -89.5156 3520
-1662.39 -89.6936 3527
-1657.24 -89.8716 3534
-1648.79 -89.8716 3534
-1640.34 -89.8716 3534
-1631.89 -89.8716 3534
-1620.22 -89.6936 3527
-1611.79 -89.6936 3527
-1603.35 -89.6936 3527
-1601.7 -90.0751 3542
-1596.38 -90.2531 3549
-1591.47 -90.4565 3557
-1582.97 -90.4565 3557
-1574.46 -90.4565 3557
-1565.96 -90.4565 3557
-1557.45 -90.4565 3557
-1548.94 -90.4565 3557
-1546.94 -90.838 3572
-1538.39 -90.838 3572
-1529.85 -90.838 3572
-1521.31 -90.838 3572
-1503.03 -90.2531 3549
-1488.22 -89.8716 3534
-1479.77 -89.8716 3534
-1462.16 -89.3122 3512
-1450.87 -89.1341 3505
-1436.31 -88.7527 3490
-1427.97 -88.7527 3490
-1330.54 -83.1834 3271
-1312.61 -82.5476 3246
-1270.27 -80.3606 3160
-1250.73 -79.5977 3130
-1243.25 -79.5977 3130
-1217.6 -78.4279 3084
-1198.84 -77.6904 3055
-1176.72 -76.724 3017
-1169.5 -76.724 3017
-1149.58 -75.8848 2984
-1134.4 -75.3508 2963
-1123.51 -75.0965 2953
-1110.4 -74.6896 2937
-1103.38 -74.6896 2937
-1096.35 -74.6896 2937
-1091.18 -74.8167 2942
-1088.2 -75.0965 2953
-1081.14 -75.0965 2953
-1074.08 -75.0965 2953
-1067.02 -75.0965 2953
-1059.96 -75.0965 2953
-1052.89 -75.0965 2953
-1043.71 -74.9439 2947
-1033.14 -74.6896 2937
-1026.12 -74.6896 2937
-1019.1 -74.6896 2937
-1008.63 -74.4353 2927
-1001.63 -74.4353 2927
-991.231 -74.181 2917
-984.255 -74.181 2917
-977.28 -74.181 2917
-970.304 -74.181 2917
-963.329 -74.181 2917
-956.354 -74.181 2917
-947.425 -74.0284 2911
-940.464 -74.0284 2911
-931.9 -73.9012 2906
-924.951 -73.9012 2906
-918.002 -73.9012 2906
-911.052 -73.9012 2906
-904.103 -73.9012 2906
-897.154 -73.9012 2906
-888.673 -73.7741 2901
-883.256 -73.9012 2906
-876.307 -73.9012 2906
-869.358 -73.9012 2906
-862.409 -73.9012 2906
-853.987 -73.7741 2901
-847.05 -73.7741 2901
-840.113 -73.7741 2901
-833.176 -73.7741 2901
-826.239 -73.7741 2901
-817.89 -73.6469 2896
-810.964 -73.6469 2896
-804.039 -73.6469 2896
-797.114 -73.6469 2896
-790.189 -73.6469 2896
-781.911 -73.5198 2891
-774.998 -73.5198 2891
-768.085 -73.5198 2891
-761.171 -73.5198 2891
-752.954 -73.3926 2886
-746.052 -73.3926 2886
-739.151 -73.3926 2886
-732.25 -73.3926 2886
-725.348 -73.3926 2886
-718.447 -73.3926 2886
-710.313 -73.2655 2881
-702.203 -73.1383 2876
-695.326 -73.1383 2876
-688.448 -73.1383 2876
-681.571 -73.1383 2876
-673.52 -73.0112 2871
-665.494 -72.884 2866
-658.641 -72.884 2866
-650.877 -72.7823 2862
-644.033 -72.7823 2862
-636.076 -72.6551 2857
-630.346 -72.7823 2862
-624.373 -72.884 2866
-617.52 -72.884 2866
-611.732 -73.0112 2871
-608.026 -73.3926 2886
-604.249 -73.7741 2901
-597.312 -73.7741 2901
-595.666 -74.4353 2927
-601.337 -76.0374 2990
-594.187 -76.0374 2990
-598.817 -77.5632 3050
-618.676 -81.1235 3190
-621.774 -82.5476 3246
-614.012 -82.5476 3246
-607.371 -82.7002 3252
-601.991 -83.0308 3265
-595.275 -83.1834 3271
-587.453 -83.1834 3271
-580.872 -83.3614 3278
-577.403 -83.9972 3303
-570.712 -84.1752 3310
-562.797 -84.1752 3310
-554.881 -84.1752 3310
-546.966 -84.1752 3310
-539.051 -84.1752 3310
-531.136 -84.1752 3310
-526.382 -84.6838 3330
-518.419 -84.6838 3330
-510.456 -84.6838 3330
-502.493 -84.6838 3330
-495.569 -84.8618 3337
-487.59 -84.8618 3337
-479.61 -84.8618 3337
-471.63 -84.8618 3337
-463.65 -84.8618 3337
-451.984 -84.1752 3310
-444.068 -84.1752 3310
-435.231 -83.9972 3303
-427.332 -83.9972 3303
-419.434 -83.9972 3303
-411.535 -83.9972 3303
-403.637 -83.9972 3303
-394.181 -83.6666 3290
-385.609 -83.514 3284
-376.261 -83.1834 3271
-368.439 -83.1834 3271
-224.021 -51.6749 2032
-219.701 -51.8021 2037
-214.83 -51.8021 2037
-209.959 -51.8021 2037
-204.786 -51.7258 2034
-199.529 -51.6241 2030
-194.866 -51.6749 2032
-191.41 -52.0564 2047
-186.515 -52.0564 2047
-183.394 -52.565 2067
-178.883 -52.6921 2072
-174.432 -52.8447 2078
-169.463 -52.8447 2078
-165.048 -53.0227 2085
-160.523 -53.1753 2091
-155.894 -53.3025 2096
-150.882 -53.3025 2096
-146.427 -53.5059 2104
-142.067 -53.7602 2114
-137.401 -53.9128 2120
-132.332 -53.9128 2120
-127.922 -54.1925 2131
-122.942 -54.2434 2133
-118.007 -54.3197 2136
-112.899 -54.3197 2136
-107.943 -54.396 2139
-102.828 -54.396 2139
-97.7126 -54.396 2139
-92.5976 -54.396 2139
-87.4826 -54.396 2139
-82.1365 -54.2434 2133
-77.0359 -54.2434 2133
-71.7666 -54.1163 2128
-66.5839 -54.04 2125
-61.3577 -53.9128 2120
-56.2881 -53.9128 2120
-51.1461 -53.8365 2117
-46.0184 -53.7602 2114
-40.9632 -53.7602 2114
-35.9079 -53.7602 2114
-30.8235 -53.7094 2112
-25.7731 -53.7094 2112
-20.6932 -53.6331 2109
-15.6277 -53.5568 2106
-10.5916 -53.5568 2106
-5.55555 -53.5568 2106
-0.520209 -53.6331 2109
4.52948 -53.7094 2112
9.57992 -53.7094 2112
14.6303 -53.7094 2112
19.6808 -53.7094 2112
24.7546 -53.7602 2114
29.8098 -53.7602 2114
34.8651 -53.7602 2114
39.9203 -53.7602 2114
45.1031 -53.9128 2120
50.22 -53.9637 2122
55.2944 -53.9637 2122
60.3687 -53.9637 2122
65.4431 -53.9637 2122
70.5174 -53.9637 2122
75.5918 -53.9637 2122
80.6661 -53.9637 2122
85.8617 -54.04 2125
91.0716 -54.1163 2128
96.1603 -54.1163 2128
101.249 -54.1163 2128
106.488 -54.1925 2131
111.845 -54.3197 2136
116.953 -54.3197 2136
122.232 -54.396 2139
127.526 -54.4723 2142
132.648 -54.4723 2142
138.092 -54.5994 2147
143.226 -54.5994 2147
148.775 -54.752 2153
154.066 -54.8029 2155
159.441 -54.8792 2158
164.602 -54.8792 2158
169.998 -54.9555 2161
175.409 -55.0317 2164
181.001 -55.1589 2169
186.188 -55.1589 2169
191.639 -55.2352 2172
197.648 -55.4641 2181
203.608 -55.6675 2189
208.843 -55.6675 2189
215.837 -56.1253 2207
222.818 -56.5576 2224
230.291 -57.0916 2245
235.659 -57.0916 2245
242.745 -57.4985 2261
249.798 -57.88 2276
255.914 -58.0326 2282
261.371 -58.0326 2282
267.997 -58.2869 2292
274.91 -58.592 2304
282.367 -58.9989 2320
287.915 -58.9989 2320
294.348 -59.1769 2327
301.201 -59.4312 2337
308.89 -59.8381 2353
314.517 -59.8381 2353
321.912 -60.1687 2366
328.124 -60.2705 2370
333.791 -60.2705 2370
339.459 -60.2705 2370
345.126 -60.2705 2370
440.207 -73.2655 2881
447.873 -73.3926 2886
454.774 -73.3926 2886
461.675 -73.3926 2886
469.388 -73.5198 2891
476.302 -73.5198 2891
484.051 -73.6469 2896
490.976 -73.6469 2896
497.901 -73.6469 2896
505.698 -73.7741 2901
512.635 -73.7741 2901
519.572 -73.7741 2901
525.602 -73.6469 2896
531.608 -73.5198 2891
538.521 -73.5198 2891
545.434 -73.5198 2891
551.392 -73.3926 2886
558.294 -73.3926 2886
565.195 -73.3926 2886
571.105 -73.2655 2881
576.991 -73.1383 2876
583.869 -73.1383 2876
590.746 -73.1383 2876
597.623 -73.1383 2876
604.501 -73.1383 2876
610.315 -73.0112 2871
617.181 -73.0112 2871
624.046 -73.0112 2871
630.911 -73.0112 2871
637.777 -73.0112 2871
644.642 -73.0112 2871
651.508 -73.0112 2871
657.227 -72.884 2866
664.08 -72.884 2866
672.104 -73.0112 2871
678.97 -73.0112 2871
685.835 -73.0112 2871
692.7 -73.0112 2871
699.566 -73.0112 2871
706.431 -73.0112 2871
713.297 -73.0112 2871
720.162 -73.0112 2871
727.028 -73.0112 2871
733.893 -73.0112 2871
740.758 -73.0112 2871
747.624 -73.0112 2871
754.489 -73.0112 2871
762.681 -73.1383 2876
769.558 -73.1383 2876
776.435 -73.1383 2876
783.313 -73.1383 2876
790.19 -73.1383 2876
797.068 -73.1383 2876
802.547 -73.0112 2871
809.413 -73.0112 2871
816.278 -73.0112 2871
823.144 -73.0112 2871
830.009 -73.0112 2871
836.874 -73.0112 2871
843.74 -73.0112 2871
850.605 -73.0112 2871
857.471 -73.0112 2871
864.336 -73.0112 2871
871.202 -73.0112 2871
878.067 -73.0112 2871
884.932 -73.0112 2871
891.798 -73.0112 2871
900.228 -73.1383 2876
910.26 -73.3926 2886
917.161 -73.3926 2886
927.264 -73.6469 2896
939.028 -74.0284 2911
945.989 -74.0284 2911
959.825 -74.5624 2932
966.836 -74.5624 2932
975.508 -74.6896 2937
998.255 -75.8848 2984
1016.51 -76.724 3017
1023.72 -76.724 3017
1067.5 -79.4451 3124
1099.75 -81.2761 3196
1107.39 -81.2761 3196
1125.85 -82.0644 3227
1162.72 -84.1752 3310
1206.71 -86.7691 3412
1214.87 -86.7691 3412
1228.05 -87.1251 3426
1246.34 -87.8372 3454
1254.6 -87.8372 3454
1262.86 -87.8372 3454
1271.12 -87.8372 3454
1284.57 -88.1932 3468
1303.67 -88.9307 3497
1312.03 -88.9307 3497
1320.39 -88.9307 3497
1328.76 -88.9307 3497
1337.12 -88.9307 3497
1345.48 -88.9307 3497
1345.71 -88.3967 3476
1350.91 -88.1932 3468
1350.97 -87.6592 3447
1359.22 -87.6592 3447
1367.46 -87.6592 3447
1367.32 -87.1251 3426
1361.46 -86.2351 3391
1369.57 -86.2351 3391
1369.15 -85.701 3370
1377.2 -85.701 3370
1385.26 -85.701 3370
1393.32 -85.701 3370
1395.98 -85.3704 3357
1395.64 -84.8618 3337
1395.21 -84.3532 3317
1394.68 -83.8446 3297
1402.56 -83.8446 3297
1407.45 -83.6666 3290
1412.74 -83.514 3284
1420.59 -83.514 3284
1428.44 -83.514 3284
1436.3 -83.514 3284
1441.51 -83.3614 3278
1443.6 -83.0308 3265
1451.41 -83.0308 3265
1456.09 -82.8528 3258
1461.18 -82.7002 3252
1468.96 -82.7002 3252
1476.74 -82.7002 3252
1484.51 -82.7002 3252
1492.29 -82.7002 3252
1500.07 -82.7002 3252
1513.87 -83.0308 3265
1530.53 -83.514 3284
1538.39 -83.514 3284
1549.06 -83.6666 3290
1569.71 -84.3532 3317
1599.52 -85.523 3363
1607.56 -85.523 3363
1615.6 -85.523 3363
1623.64 -85.523 3363
1638.48 -85.879 3377
1646.55 -85.879 3377
1661.49 -86.2351 3391
1683.38 -86.9471 3419
1698.49 -87.3031 3433
1706.7 -87.3031 3433
1714.91 -87.3031 3433
1723.12 -87.3031 3433
1745.45 -88.0152 3461
1753.72 -88.0152 3461
1762 -88.0152 3461
1770.27 -88.0152 3461
1778.55 -88.0152 3461
1775.99 -87.4812 3440
1744.27 -85.523 3363
1738.77 -84.8618 3337
1725.81 -83.8446 3297
1744.21 -84.3532 3317
1752.14 -84.3532 3317
1760.08 -84.3532 3317
1753.62 -83.6666 3290
1761.48 -83.6666 3290
1762.9 -83.3614 3278
1766.95 -83.1834 3271
1747.65 -81.9119 3221
1755.35 -81.9119 3221
1690.8 -78.555 3089
1698.19 -78.555 3089
1686.8 -77.6904 3055
1669.71 -76.5714 3011
1676.91 -76.5714 3011
1648.31 -74.9439 2947
1652.55 -74.8167 2942
1656.76 -74.6896 2937
1663.79 -74.6896 2937
1644.64 -73.5198 2891
1632.13 -72.6551 2857
1630.36 -72.2737 2842
1631.39 -72.0194 2832
1638.17 -72.0194 2832
1633.9 -71.5362 2813
1638.3 -71.4345 2809
1642.09 -71.3073 2804
1648.79 -71.3073 2804
1655.5 -71.3073 2804
1659.24 -71.1802 2799
1660.57 -70.9513 2790
1667.25 -70.9513 2790
1670.92 -70.8241 2785
1672.16 -70.5953 2776
1675.77 -70.4681 2771
1679.97 -70.3664 2767
1686.59 -70.3664 2767
1690.14 -70.2392 2762
1691.22 -70.0104 2753
1689.17 -69.6543 2739
1695.72 -69.6543 2739
1696.67 -69.4255 2730
1703.2 -69.4255 2730
1707.22 -69.3237 2726
1713.74 -69.3237 2726
1717.11 -69.1966 2721
1723.61 -69.1966 2721
1727.58 -69.0949 2717
1728.33 -68.866 2708
1734.81 -68.866 2708
1738.71 -68.7643 2704
1741.95 -68.6371 2699
1743.22 -68.4337 2691
1749.66 -68.4337 2691
1752.83 -68.3065 2686
1756.63 -68.2048 2682
1757.13 -67.9759 2673
1763.52 -67.9759 2673
1769.91 -67.9759 2673
1770.99 -67.7725 2665
1777.36 -67.7725 2665
1783.73 -67.7725 2665
1790.11 -67.7725 2665
1793.78 -67.6707 2661
1800.15 -67.6707 2661
1803.11 -67.5436 2656
1809.47 -67.5436 2656
1815.82 -67.5436 2656
1819.42 -67.4419 2652
1823.01 -67.3401 2648
1829.34 -67.3401 2648
1835.68 -67.3401 2648
1842.01 -67.3401 2648
1848.34 -67.3401 2648
1854.67 -67.3401 2648
1858.19 -67.2384 2644
1864.52 -67.2384 2644
1873.67 -67.3401 2648
1880 -67.3401 2648
1886.33 -67.3401 2648
1886.95 -67.1367 2640
1886.81 -66.9078 2631
1893.1 -66.9078 2631
1899.39 -66.9078 2631
1905.68 -66.9078 2631
1911.97 -66.9078 2631
1918.26 -66.9078 2631
1924.56 -66.9078 2631
1930.85 -66.9078 2631
1934.19 -66.8061 2627
1940.48 -66.8061 2627
1946.76 -66.8061 2627
1953.04 -66.8061 2627
1959.32 -66.8061 2627
1965.6 -66.8061 2627
1968.88 -66.7044 2623
1975.16 -66.7044 2623
1981.43 -66.7044 2623
1984.67 -66.6027 2619
1984.85 -66.3992 2611
1991.09 -66.3992 2611
1991.22 -66.1958 2603
-2050.76 -63.093 2739
-2044.21 -63.093 2739
-2037.66 -63.093 2739
-2031.11 -63.093 2739
-2024.56 -63.093 2739
-2018.01 -63.093 2739
-2011.46 -63.093 2739
-2001.98 -63.0009 2735
-1991.79 -62.8857 2730
-1972.9 -62.4941 2713
-1966.41 -62.4941 2713
-1937.53 -61.78 2682
-1918.88 -61.3884 2665
-1912.5 -61.3884 2665
-1906.13 -61.3884 2665
-1899.76 -61.3884 2665
-1893.39 -61.3884 2665
-1887.01 -61.3884 2665
-1880.64 -61.3884 2665
-1865.12 -61.089 2652
-2275.74 -75.0482 3258
-2267.95 -75.0482 3258
-2260.15 -75.0482 3258
-2378.19 -79.2406 3440
-2399.58 -80.2311 3483
-2391.26 -80.2311 3483
-2382.93 -80.2311 3483
-2374.6 -80.2311 3483
-2366.27 -80.2311 3483
-2357.94 -80.2311 3483
-2344.89 -80.0699 3476
-2345.99 -80.3924 3490
-2337.64 -80.3924 3490
-2329.3 -80.3924 3490
-2320.95 -80.3924 3490
-2312.61 -80.3924 3490
-2318.79 -80.8991 3512
-2310.39 -80.8991 3512
-2301.99 -80.8991 3512
-2293.59 -80.8991 3512
-2285.19 -80.8991 3512
-2276.79 -80.8991 3512
-2268.4 -80.8991 3512
-2255.49 -80.7379 3505
-2247.11 -80.7379 3505
-2233.62 -80.5536 3497
-2225.26 -80.5536 3497
-2226.4 -80.8991 3512
-2231.9 -81.4059 3534
-2223.45 -81.4059 3534
-2215 -81.4059 3534
-2206.55 -81.4059 3534
-2198.1 -81.4059 3534
-2185.31 -81.2447 3527
-2172.55 -81.0834 3520
-2154.91 -80.7379 3505
-2169.19 -81.5902 3542
-2160.72 -81.5902 3542
-2166.23 -82.12 3565
-2161.94 -82.2812 3572
-2158.22 -82.4655 3580
-2149.66 -82.4655 3580
-2141.1 -82.4655 3580
-2141.47 -82.811 3595
-2137.62 -82.9953 3603
-2129.01 -82.9953 3603
-2129.81 -83.3639 3619
-2125.84 -83.5482 3627
-2121.84 -83.7324 3635
-2113.15 -83.7324 3635
-2104.45 -83.7324 3635
-2091.15 -83.5482 3627
-2082.48 -83.5482 3627
-2060.08 -82.9953 3603
-2051.46 -82.9953 3603
-2047.38 -83.1796 3611
-2043.27 -83.3639 3619
-2034.61 -83.3639 3619
-2025.96 -83.3639 3619
-2017.3 -83.3639 3619
-2008.65 -83.3639 3619
-1991.15 -82.9953 3603
-1974.28 -82.6498 3588
-1965.7 -82.6498 3588
-1965.31 -82.9953 3603
-1956.69 -82.9953 3603
-1948.07 -82.9953 3603
-1931.38 -82.6498 3588
-1922.8 -82.6498 3588
-1909.96 -82.4655 3580
-1897.15 -82.2812 3572
-1888.6 -82.2812 3572
-1880.06 -82.2812 3572
-1863.66 -81.9357 3557
-1855.16 -81.9357 3557
-1846.65 -81.9357 3557
-1845.9 -82.2812 3572
-1837.35 -82.2812 3572
-1828.81 -82.2812 3572
-1820.27 -82.2812 3572
-1811.73 -82.2812 3572
-1803.19 -82.2812 3572
-1791.13 -82.12 3565
-1778.6 -81.9357 3557
-1774.08 -82.12 3565
-1765.55 -82.12 3565
-1757.03 -82.12 3565
-1748.5 -82.12 3565
-1736.07 -81.9357 3557
-1727.57 -81.9357 3557
-1715.2 -81.7514 3549
-1703.34 -81.5902 3542
-1694.87 -81.5902 3542
-1686.4 -81.5902 3542
-1674.14 -81.4059 3534
-1665.69 -81.4059 3534
-1660.99 -81.5902 3542
-1655.79 -81.7514 3549
-1647.3 -81.7514 3549
-1638.82 -81.7514 3549
-1630.33 -81.7514 3549
-1621.84 -81.7514 3549
-1610.17 -81.5902 3542
-1601.7 -81.5902 3542
-1593.23 -81.5902 3542
-1587.89 -81.7514 3549
-1579.41 -81.7514 3549
-1570.92 -81.7514 3549
-1559.35 -81.5902 3542
-1550.88 -81.5902 3542
-1538.93 -81.4059 3534
-1536.97 -81.7514 3549
-1528.49 -81.7514 3549
-1520 -81.7514 3549
-1511.51 -81.7514 3549
-1496.67 -81.4059 3534
-1478.96 -80.8991 3512
-1470.56 -80.8991 3512
-1453 -80.3924 3490
-1435.55 -79.8856 3468
-1381.58 -77.3287 3357
-1343.68 -75.6471 3284
-1335.83 -75.6471 3284
-1315.03 -74.91 3252
-1282.33 -73.4818 3190
-1262.72 -72.7908 3160
-1255.16 -72.7908 3160
-1228.65 -71.6851 3112
-1210.22 -71.0401 3084
