-2333.39 66.6152 3766
-2308.34 66.1553 3740
-2299.4 66.1553 3740
-2285.55 66.0138 3732
-2171.29 66.6152 3766
-2186.97 67.3758 3809
-2177.86 67.3758 3809
-2168.76 67.3758 3809
-2159.65 67.3758 3809
-2190.63 68.6317 3880
-2181.35 68.6317 3880
-2187.18 69.1093 3907
-2187.87 69.4277 3925
-2178.49 69.4277 3925
-2169.1 69.4277 3925
-2125.05 68.3133 3862
-2110.89 68.1541 3853
-2101.67 68.1541 3853
-2059.33 67.0751 3792
-2027.01 66.3145 3749
-2004.59 65.8723 3724
-1999.97 66.0138 3732
-1991.05 66.0138 3732
-1995.4 66.456 3757
-2000.17 66.9159 3783
-2004.8 67.3758 3809
-1995.7 67.3758 3809
-1991.28 67.535 3818
-1982.15 67.535 3818
-1973.02 67.535 3818
-1959.26 67.3758 3809
-1941.45 67.0751 3792
-1927.79 66.9159 3783
-1918.75 66.9159 3783
-1909.7 66.9159 3783
-1896.13 66.7567 3774
-1874.61 66.3145 3749
-1865.64 66.3145 3749
-1856.68 66.3145 3749
-1823.07 65.4301 3699
-1818.15 65.5716 3707
-1817.58 65.8723 3724
-1808.68 65.8723 3724
-1799.77 65.8723 3724
-1782.69 65.5716 3707
-1773.83 65.5716 3707
-1761.15 65.4301 3699
-1764.15 65.8723 3724
-1755.25 65.8723 3724
-1753.84 66.1553 3740
-1744.9 66.1553 3740
-1740.13 66.3145 3749
-1734.86 66.456 3757
-1725.88 66.456 3757
-1716.89 66.456 3757
-1696.55 66.0138 3732
-1672.7 65.4301 3699
-1660.25 65.2886 3691
-1651.43 65.2886 3691
-1639.04 65.1471 3683
-1615.63 64.5634 3650
-1593.25 64.015 3619
-1584.6 64.015 3619
-1572.46 63.8735 3611
-1556.9 63.5905 3595
-1541.84 63.3252 3580
-1533.28 63.3252 3580
-1499.16 62.2638 3520
-1481.01 61.857 3497
-1466.75 61.6094 3483
-1458.42 61.6094 3483
-1443.84 61.344 3468
-1426.86 60.9726 3447
-1409.97 60.6011 3426
-1401.78 60.6011 3426
-1373.66 59.7344 3377
-1351.83 59.133 3343
-1325.35 58.3193 3297
-1289.49 57.0811 3227
-1281.77 57.0811 3227
-1261.82 56.5327 3196
-1244.76 56.1082 3172
-1227.81 55.6837 3148
-1220.28 55.6837 3148
-1203.51 55.2592 3124
-1191.45 55.0469 3112
-1175.25 54.6401 3089
-1167.87 54.6401 3089
-1154.09 54.3393 3072
-1128.08 53.4549 3022
-1119 53.3665 3017
-1109.58 53.2603 3011
-1102.38 53.2603 3011
-1095.18 53.2603 3011
-1087.97 53.2603 3011
-1078.98 53.1719 3006
-1071.79 53.1719 3006
-1062.48 53.0658 3000
-1055.3 53.0658 3000
-1048.13 53.0658 3000
-1040.96 53.0658 3000
-1030.34 52.8889 2990
-1019.42 52.6943 2979
-1008.56 52.4997 2968
-1001.46 52.4997 2968
-994.366 52.4997 2968
-987.269 52.4997 2968
-980.172 52.4997 2968
-975.041 52.6059 2974
-967.93 52.6059 2974
-960.818 52.6059 2974
-951.782 52.4997 2968
-944.685 52.4997 2968
-937.587 52.4997 2968
-928.922 52.4113 2963
-920.281 52.3228 2958
-913.208 52.3228 2958
-904.603 52.2344 2953
-897.541 52.2344 2953
-890.48 52.2344 2953
-883.418 52.2344 2953
-874.576 52.1283 2947
-867.529 52.1283 2947
-860.482 52.1283 2947
-853.435 52.1283 2947
-846.387 52.1283 2947
-837.916 52.0398 2942
-830.881 52.0398 2942
-822.446 51.9514 2937
-815.422 51.9514 2937
-808.399 51.9514 2937
-798.647 51.7745 2927
-790.296 51.6861 2922
-783.308 51.6861 2922
-774.992 51.5976 2917
-768.017 51.5976 2917
-761.042 51.5976 2917
-754.066 51.5976 2917
-745.554 51.4915 2911
-737.324 51.403 2906
-730.375 51.403 2906
-723.426 51.403 2906
-716.477 51.403 2906
-709.528 51.403 2906
-701.37 51.3146 2901
-694.433 51.3146 2901
-685.126 51.1377 2891
-677.039 51.0493 2886
-670.138 51.0493 2886
-664.386 51.1377 2891
-657.473 51.1377 2891
-651.684 51.2262 2896
-646.986 51.403 2906
-641.138 51.4915 2911
-634.177 51.4915 2911
-631.74 51.8629 2932
-625.794 51.9514 2937
-626.566 52.6059 2974
-619.455 52.6059 2974
-617.696 53.0658 3000
-625.175 54.3393 3072
-621.248 54.6401 3089
-613.861 54.6401 3089
-614.524 55.3653 3130
-607.039 55.3653 3130
-599.554 55.3653 3130
-350.453 38.6319 2184
-346.021 38.7203 2189
-341.721 38.8265 2195
-336.472 38.8265 2195
-331.675 38.8795 2198
-326.419 38.8795 2198
-321.163 38.8795 2198
-315.476 38.8265 2195
-308.672 38.6319 2184
-303.033 38.5788 2181
-297.408 38.5257 2178
-292.2 38.5257 2178
-286.991 38.5257 2178
-281.395 38.4727 2175
-276.194 38.4727 2175
-270.993 38.4727 2175
-265.792 38.4727 2175
-259.872 38.3666 2169
-166.741 38.4196 2172
-161.547 38.4196 2172
-156.569 38.4727 2175
-151.368 38.4727 2175
-146.167 38.4727 2175
-141.16 38.5257 2178
-135.952 38.5257 2178
-130.744 38.5257 2178
-125.535 38.5257 2178
-120.327 38.5257 2178
-114.802 38.4196 2172
-109.456 38.3666 2169
-104.27 38.3666 2169
-99.083 38.3666 2169
-93.8097 38.3312 2167
-88.505 38.2781 2164
-83.2147 38.225 2161
-78.0471 38.225 2161
-72.7783 38.172 2158
-67.5239 38.1189 2155
-62.3707 38.1189 2155
-57.2174 38.1189 2155
-52.0641 38.1189 2155
-46.8673 38.0835 2153
-41.7189 38.0835 2153
-36.5704 38.0835 2153
-31.3781 38.0305 2150
-26.2368 38.0305 2150
-21.0955 38.0305 2150
-15.9765 38.0835 2153
-10.828 38.0835 2153
-5.67954 38.0835 2153
-0.531062 38.0835 2153
4.61741 38.0835 2153
9.76589 38.0835 2153
14.8936 38.0305 2150
20.0349 38.0305 2150
25.1762 38.0305 2150
30.3175 38.0305 2150
35.4093 37.9774 2147
40.5434 37.9774 2147
45.6776 37.9774 2147
50.8117 37.9774 2147
55.9458 37.9774 2147
61.08 37.9774 2147
66.2141 37.9774 2147
71.3482 37.9774 2147
76.3755 37.9243 2144
81.4264 37.889 2142
86.5486 37.889 2142
91.6707 37.889 2142
96.6573 37.8359 2139
101.63 37.7828 2136
106.737 37.7828 2136
111.845 37.7828 2136
116.789 37.7298 2133
121.889 37.7298 2133
126.99 37.7298 2133
132.091 37.7298 2133
137.191 37.7298 2133
142.292 37.7298 2133
147.393 37.7298 2133
152.493 37.7298 2133
157.594 37.7298 2133
162.695 37.7298 2133
167.795 37.7298 2133
172.896 37.7298 2133
178.247 37.7828 2136
183.355 37.7828 2136
188.727 37.8359 2139
194.114 37.889 2142
199.422 37.9243 2144
204.549 37.9243 2144
209.676 37.9243 2144
215.104 37.9774 2147
220.546 38.0305 2150
225.687 38.0305 2150
231.15 38.0835 2153
236.518 38.1189 2155
242.344 38.225 2161
247.512 38.225 2161
253.03 38.2781 2164
258.563 38.3312 2167
263.745 38.3312 2167
268.927 38.3312 2167
274.362 38.3666 2169
279.549 38.3666 2169
284.736 38.3666 2169
289.655 38.3312 2167
294.837 38.3312 2167
299.603 38.2781 2164
304.778 38.2781 2164
309.953 38.2781 2164
315.128 38.2781 2164
318.674 38.0835 2153
323.823 38.0835 2153
328.971 38.0835 2153
333.654 38.0305 2150
338.796 38.0305 2150
548.709 52.7828 2984
555.845 52.7828 2984
562.98 52.7828 2984
569.161 52.6943 2979
574.156 52.4997 2968
581.254 52.4997 2968
586.369 52.3228 2958
591.235 52.1283 2947
597.268 52.0398 2942
604.303 52.0398 2942
609.26 51.8629 2932
615.22 51.7745 2927
621.157 51.6861 2922
628.144 51.6861 2922
632.741 51.4915 2911
638.603 51.403 2906
643.331 51.2262 2896
650.256 51.2262 2896
657.181 51.2262 2896
664.106 51.2262 2896
671.031 51.2262 2896
677.957 51.2262 2896
684.882 51.2262 2896
691.807 51.2262 2896
698.732 51.2262 2896
705.657 51.2262 2896
712.583 51.2262 2896
719.508 51.2262 2896
727.687 51.3146 2901
735.891 51.403 2906
742.84 51.403 2906
749.789 51.403 2906
756.738 51.403 2906
763.687 51.403 2906
770.636 51.403 2906
777.585 51.403 2906
784.535 51.403 2906
791.484 51.403 2906
798.433 51.403 2906
805.382 51.403 2906
812.331 51.403 2906
819.28 51.403 2906
826.229 51.403 2906
833.178 51.403 2906
840.128 51.403 2906
848.534 51.4915 2911
855.495 51.4915 2911
864.234 51.5976 2917
871.209 51.5976 2917
878.185 51.5976 2917
883.34 51.4915 2911
890.301 51.4915 2911
897.262 51.4915 2911
907.64 51.6861 2922
916.192 51.7745 2927
926.346 51.9514 2937
933.369 51.9514 2937
941.993 52.0398 2942
957.415 52.4997 2968
968.087 52.6943 2979
975.211 52.6943 2979
987.611 52.9773 2995
1005.73 53.5611 3028
1022.01 54.0386 3055
1029.31 54.0386 3055
1055.96 55.0469 3112
1073.65 55.5775 3142
1093.55 56.2143 3178
1101.15 56.2143 3178
1136.66 57.6294 3258
1151.48 57.9832 3278
1177.71 58.903 3330
1185.67 58.903 3330
1256.36 61.9985 3505
1270.16 62.2638 3520
1278.57 62.2638 3520
1286.99 62.2638 3520
1295.41 62.2638 3520
1303.83 62.2638 3520
1312.24 62.2638 3520
1320.66 62.2638 3520
1329.08 62.2638 3520
1334.46 62.1223 3512
1342.85 62.1223 3512
1345.48 61.857 3497
1351.13 61.7332 3490
1345.46 61.0964 3454
1342.74 60.6011 3426
1350.93 60.6011 3426
1348.02 60.1058 3398
1350.56 59.8582 3384
1350.22 59.4867 3363
1358.26 59.4867 3363
1350.05 58.7792 3323
1349.82 58.4254 3303
1352.38 58.1955 3290
1360.25 58.1955 3290
1368.11 58.1955 3290
1370.96 57.9832 3278
1375.86 57.8594 3271
1381.14 57.7532 3265
1388.95 57.7532 3265
1393.76 57.6294 3258
1401.55 57.6294 3258
1409.34 57.6294 3258
1417.13 57.6294 3258
1424.92 57.6294 3258
1438.43 57.8594 3271
1478.09 59.133 3343
1504.31 59.8582 3384
1512.4 59.8582 3384
1539.36 60.6011 3426
1560.21 61.0964 3454
1578.45 61.4855 3476
1586.77 61.4855 3476
1598.29 61.6094 3483
1609.85 61.7332 3490
1618.19 61.7332 3490
1626.54 61.7332 3490
1634.89 61.7332 3490
1632.87 61.344 3468
1641.17 61.344 3468
1639.47 60.9726 3447
1647.71 60.9726 3447
1655.96 60.9726 3447
1664.2 60.9726 3447
1672.44 60.9726 3447
1673.86 60.7249 3433
1678.64 60.6011 3426
1683.38 60.4773 3419
1691.56 60.4773 3419
1689.3 60.1058 3398
1673.44 59.2568 3350
1664.89 58.6731 3317
1672.82 58.6731 3317
1673.66 58.4254 3303
1671.89 58.0893 3284
1676.67 57.9832 3278
1684.51 57.9832 3278
1688.73 57.8594 3271
1696.56 57.8594 3271
1704.38 57.8594 3271
1715.86 57.9832 3278
1723.7 57.9832 3278
1731.54 57.9832 3278
1735.67 57.8594 3271
1743.49 57.8594 3271
1751.31 57.8594 3271
1755.91 57.7532 3265
1749.67 57.2933 3239
1747.65 56.9749 3221
1755.35 56.9749 3221
1749.37 56.5327 3196
1747.12 56.2143 3178
1741.46 55.7898 3154
1745.68 55.6837 3148
1753.21 55.6837 3148
1734.45 54.8523 3101
1719.39 54.1448 3061
1710.92 53.6495 3033
1718.17 53.6495 3033
1703.81 52.9773 2995
1674.98 51.8629 2932
1664.21 51.3146 2901
1659.62 50.9608 2881
1666.51 50.9608 2881
1670.5 50.8724 2876
1663.38 50.4479 2852
1661.41 50.1825 2837
1668.2 50.1825 2837
1672.03 50.0941 2832
1673.46 49.9349 2823
1677.24 49.8464 2818
1683.98 49.8464 2818
1687.72 49.758 2813
1692.03 49.6872 2809
1695.73 49.5988 2804
1702.43 49.5988 2804
1709.14 49.5988 2804
1709.72 49.4219 2794
1716.41 49.4219 2794
1717.54 49.2627 2785
1724.2 49.2627 2785
1722.15 49.0151 2771
1726.29 48.9443 2767
1729.77 48.8559 2762
1736.38 48.8559 2762
1739.83 48.7674 2757
1743.88 48.6967 2753
1747.29 48.6082 2748
1753.86 48.6082 2748
1757.87 48.5375 2744
1761.21 48.449 2739
1765.18 48.3783 2735
1771.72 48.3783 2735
1778.26 48.3783 2735
1781.54 48.2899 2730
1788.07 48.2899 2730
1794.6 48.2899 2730
1801.13 48.2899 2730
1799.05 48.0599 2717
1805.54 48.0599 2717
1806.04 47.9007 2708
1812.51 47.9007 2708
1818.99 47.9007 2708
1825.46 47.9007 2708
1838.03 48.0599 2717
1844.53 48.0599 2717
1851.02 48.0599 2717
1851.37 47.9007 2708
1857.84 47.9007 2708
1861.57 47.8299 2704
1868.03 47.8299 2704
1874.5 47.8299 2704
1877.49 47.7415 2699
1881.15 47.6707 2695
1887.59 47.6707 2695
1891.23 47.6 2691
1897.66 47.6 2691
1897.73 47.4408 2682
1904.14 47.4408 2682
1910.55 47.4408 2682
1916.97 47.4408 2682
1923.38 47.4408 2682
1923.32 47.2816 2673
1929.71 47.2816 2673
1933.21 47.2108 2669
1939.59 47.2108 2669
1945.97 47.2108 2669
1952.35 47.2108 2669
1955.8 47.1401 2665
1962.17 47.1401 2665
1968.54 47.1401 2665
1974.92 47.1401 2665
1981.29 47.1401 2665
1987.66 47.1401 2665
1994.04 47.1401 2665
2000.41 47.1401 2665
2016.57 47.37 2678
2022.97 47.37 2678
2042.26 47.6707 2695
2062.39 47.9891 2713
2088.7 48.449 2739
2095.25 48.449 2739
-2071.72 55.5727 2767
-2065.1 55.5727 2767
-2058.49 55.5727 2767
-2044.46 55.3719 2757
-2034.91 55.2915 2753
-2024.64 55.1911 2748
-2024.68 55.3719 2757
-2018.08 55.3719 2757
-2015.14 55.4723 2762
-2008.53 55.4723 2762
-2001.93 55.4723 2762
-1985.21 55.1911 2748
-1969.28 54.93 2735
-1959.15 54.8296 2730
-1952.62 54.8296 2730
-1924 54.207 2699
-1905.46 53.8656 2682
-1854.44 52.6003 2619
-1848.18 52.6003 2619
-1839.1 52.5199 2615
-2519.97 78.6493 3916
-2510.61 78.6493 3916
-2501.25 78.6493 3916
-2468.97 77.9263 3880
-2459.69 77.9263 3880
-2186.97 76.5003 3809
-2177.86 76.5003 3809
-2168.76 76.5003 3809
-2159.65 76.5003 3809
-2190.63 77.9263 3880
-2181.35 77.9263 3880
-2187.18 78.4686 3907
-2187.87 78.8301 3925
-2178.49 78.8301 3925
-2169.1 78.8301 3925
-2125.05 77.5648 3862
-2110.89 77.384 3853
-2101.67 77.384 3853
-2059.33 76.1589 3792
-2027.01 75.2953 3749
-2004.59 74.7932 3724
-1999.97 74.9539 3732
-1991.05 74.9539 3732
-1995.4 75.456 3757
-2000.17 75.9781 3783
-2004.8 76.5003 3809
-1995.7 76.5003 3809
-1991.28 76.6811 3818
-1982.15 76.6811 3818
-1973.02 76.6811 3818
-1959.26 76.5003 3809
-1941.45 76.1589 3792
-1927.79 75.9781 3783
-1918.75 75.9781 3783
-1909.7 75.9781 3783
-1896.13 75.7974 3774
-1874.61 75.2953 3749
-1865.64 75.2953 3749
-1856.68 75.2953 3749
-1823.07 74.2911 3699
-1818.15 74.4518 3707
-1817.58 74.7932 3724
-1808.68 74.7932 3724
-1799.77 74.7932 3724
-1782.69 74.4518 3707
-1773.83 74.4518 3707
-1761.15 74.2911 3699
-1764.15 74.7932 3724
-1755.25 74.7932 3724
-1753.84 75.1145 3740
-1744.9 75.1145 3740
-1740.13 75.2953 3749
-1734.86 75.456 3757
-1725.88 75.456 3757
-1716.89 75.456 3757
-1696.55 74.9539 3732
-1672.7 74.2911 3699
-1660.25 74.1304 3691
-1651.43 74.1304 3691
-1639.04 73.9697 3683
-1615.63 73.307 3650
-1593.25 72.6844 3619
-1584.6 72.6844 3619
-1572.46 72.5237 3611
-1556.9 72.2023 3595
-1541.84 71.9011 3580
-1533.28 71.9011 3580
-1499.16 70.696 3520
-1481.01 70.2341 3497
-1466.75 69.9529 3483
-1458.42 69.9529 3483
-1443.84 69.6517 3468
-1418.17 68.8081 3426
-1404.21 68.5269 3412
-1396.05 68.5269 3412
-1367.96 67.5428 3363
-1346.58 66.8801 3330
-1314.89 65.6951 3271
-1281.9 64.4298 3208
-1274.23 64.4298 3208
-1261.82 64.1888 3196
-1244.76 63.7068 3172
-1227.81 63.2247 3148
-1220.28 63.2247 3148
-1203.51 62.7427 3124
-1191.45 62.5017 3112
-1175.25 62.0398 3089
-1167.87 62.0398 3089
-1152.21 61.5979 3067
-1128.08 60.6941 3022
-1119 60.5937 3017
-1109.58 60.4732 3011
-1102.38 60.4732 3011
-1095.18 60.4732 3011
-1087.97 60.4732 3011
-1078.98 60.3728 3006
-1071.79 60.3728 3006
-1062.48 60.2523 3000
-1055.3 60.2523 3000
-1046.38 60.1519 2995
-1039.22 60.1519 2995
-1030.34 60.0515 2990
-1019.42 59.8305 2979
-1008.56 59.6096 2968
-1001.46 59.6096 2968
-994.366 59.6096 2968
-987.269 59.6096 2968
-980.172 59.6096 2968
-975.041 59.7301 2974
-967.93 59.7301 2974
-960.818 59.7301 2974
-951.782 59.6096 2968
-944.685 59.6096 2968
-937.587 59.6096 2968
-928.922 59.5092 2963
-920.281 59.4088 2958
-913.208 59.4088 2958
-904.603 59.3083 2953
-897.541 59.3083 2953
-890.48 59.3083 2953
-883.418 59.3083 2953
-874.576 59.1878 2947
-867.529 59.1878 2947
-860.482 59.1878 2947
-853.435 59.1878 2947
-846.387 59.1878 2947
-837.916 59.0874 2942
-830.881 59.0874 2942
-822.446 58.987 2937
-815.422 58.987 2937
-808.399 58.987 2937
-797.283 58.6857 2922
-790.296 58.6857 2922
-783.308 58.6857 2922
-774.992 58.5853 2917
-766.437 58.4648 2911
-758.172 58.3644 2906
-751.222 58.3644 2906
-744.273 58.3644 2906
-737.324 58.3644 2906
-730.375 58.3644 2906
-723.426 58.3644 2906
-715.244 58.264 2901
-708.307 58.264 2901
-701.37 58.264 2901
-694.433 58.264 2901
-682.756 57.8623 2881
-675.866 57.8623 2881
-670.138 57.9627 2886
-664.386 58.0631 2891
-657.473 58.0631 2891
-651.684 58.1636 2896
-646.986 58.3644 2906
-641.138 58.4648 2911
-634.177 58.4648 2911
-631.74 58.8866 2932
-625.794 58.987 2937
-626.566 59.7301 2974
-619.455 59.7301 2974
-617.696 60.2523 3000
-625.175 61.6984 3072
-621.248 62.0398 3089
-613.861 62.0398 3089
-612.168 62.6222 3118
-604.712 62.6222 3118
-597.256 62.6222 3118
-349.972 43.8034 2181
-345.547 43.9038 2186
-341.254 44.0243 2192
-336.012 44.0243 2192
-331.223 44.0846 2195
-325.974 44.0846 2195
-320.725 44.0846 2195
-315.476 44.0846 2195
-308.672 43.8637 2184
-303.033 43.8034 2181
-297.408 43.7432 2178
-292.2 43.7432 2178
-286.991 43.7432 2178
-281.395 43.6829 2175
-276.194 43.6829 2175
-270.993 43.6829 2175
-265.792 43.6829 2175
-259.872 43.5624 2169
-166.741 43.6227 2172
-161.547 43.6227 2172
-156.569 43.6829 2175
-151.368 43.6829 2175
-146.167 43.6829 2175
-141.16 43.7432 2178
-135.952 43.7432 2178
-130.744 43.7432 2178
-125.535 43.7432 2178
-120.327 43.7432 2178
-114.802 43.6227 2172
-109.456 43.5624 2169
-104.27 43.5624 2169
-99.083 43.5624 2169
-93.8097 43.5222 2167
-88.505 43.462 2164
-83.2147 43.4017 2161
-78.0471 43.4017 2161
-72.7783 43.3415 2158
-67.5239 43.2812 2155
-62.3707 43.2812 2155
-57.2174 43.2812 2155
-52.0641 43.2812 2155
-46.8673 43.2411 2153
-41.7189 43.2411 2153
-36.5704 43.2411 2153
-31.3781 43.1808 2150
-26.2368 43.1808 2150
-21.0955 43.1808 2150
-15.9765 43.2411 2153
-10.828 43.2411 2153
-5.67954 43.2411 2153
-0.531062 43.2411 2153
4.61741 43.2411 2153
9.76589 43.2411 2153
14.8936 43.1808 2150
20.0349 43.1808 2150
25.1762 43.1808 2150
30.3175 43.1808 2150
35.4093 43.1206 2147
40.5434 43.1206 2147
45.6776 43.1206 2147
50.8117 43.1206 2147
55.9458 43.1206 2147
61.08 43.1206 2147
66.2141 43.1206 2147
71.3482 43.1206 2147
76.3755 43.0603 2144
81.4264 43.0201 2142
86.5486 43.0201 2142
91.6707 43.0201 2142
96.6573 42.9599 2139
101.63 42.8996 2136
106.737 42.8996 2136
111.845 42.8996 2136
116.789 42.8394 2133
121.775 42.7992 2131
126.871 42.7992 2131
131.967 42.7992 2131
137.191 42.8394 2133
142.292 42.8394 2133
147.393 42.8394 2133
152.493 42.8394 2133
157.594 42.8394 2133
162.695 42.8394 2133
167.795 42.8394 2133
172.896 42.8394 2133
178.247 42.8996 2136
183.355 42.8996 2136
188.727 42.9599 2139
193.842 42.9599 2139
199.422 43.0603 2144
204.549 43.0603 2144
209.676 43.0603 2144
215.104 43.1206 2147
220.546 43.1808 2150
225.687 43.1808 2150
231.15 43.2411 2153
236.518 43.2812 2155
242.344 43.4017 2161
247.512 43.4017 2161
253.03 43.462 2164
258.563 43.5222 2167
263.745 43.5222 2167
268.927 43.5222 2167
274.362 43.5624 2169
279.549 43.5624 2169
284.736 43.5624 2169
289.655 43.5222 2167
294.837 43.5222 2167
299.603 43.462 2164
304.778 43.462 2164
309.953 43.462 2164
315.128 43.462 2164
318.674 43.2411 2153
323.823 43.2411 2153
328.971 43.2411 2153
333.654 43.1808 2150
338.796 43.1808 2150
548.709 59.931 2984
555.845 59.931 2984
562.98 59.931 2984
569.161 59.8305 2979
574.156 59.6096 2968
581.254 59.6096 2968
586.369 59.4088 2958
591.235 59.1878 2947
597.268 59.0874 2942
604.303 59.0874 2942
609.26 58.8866 2932
615.22 58.7862 2927
621.157 58.6857 2922
628.144 58.6857 2922
632.741 58.4648 2911
638.603 58.3644 2906
644.441 58.264 2901
651.378 58.264 2901
658.316 58.264 2901
665.253 58.264 2901
672.19 58.264 2901
679.127 58.264 2901
686.064 58.264 2901
693.001 58.264 2901
699.939 58.264 2901
706.876 58.264 2901
713.813 58.264 2901
720.75 58.264 2901
728.942 58.3644 2906
735.891 58.3644 2906
742.84 58.3644 2906
749.789 58.3644 2906
756.738 58.3644 2906
765.001 58.4648 2911
771.962 58.4648 2911
778.923 58.4648 2911
785.884 58.4648 2911
792.845 58.4648 2911
799.807 58.4648 2911
806.768 58.4648 2911
813.729 58.4648 2911
820.69 58.4648 2911
827.651 58.4648 2911
834.612 58.4648 2911
841.573 58.4648 2911
848.534 58.4648 2911
857.259 58.5853 2917
864.234 58.5853 2917
871.209 58.5853 2917
878.185 58.5853 2917
883.34 58.4648 2911
890.301 58.4648 2911
897.262 58.4648 2911
907.64 58.6857 2922
916.192 58.7862 2927
924.768 58.8866 2932
931.78 58.8866 2932
941.993 59.0874 2942
955.802 59.5092 2963
968.087 59.8305 2979
975.211 59.8305 2979
987.611 60.1519 2995
1005.73 60.8147 3028
1022.01 61.3569 3055
1029.31 61.3569 3055
1055.96 62.5017 3112
1073.65 63.1042 3142
1093.55 63.8273 3178
1101.15 63.8273 3178
1136.66 65.434 3258
1144.45 65.434 3258
1152.24 65.434 3258
1288.62 72.2023 3595
1297.22 72.2023 3595
1305.82 72.2023 3595
1314.41 72.2023 3595
1311.97 71.5998 3565
1326.05 71.9011 3580
1334.61 71.9011 3580
1343.17 71.9011 3580
1351.73 71.9011 3580
1357.25 71.7404 3572
1365.8 71.7404 3572
1362.8 71.1379 3542
1365.46 70.8366 3527
1359.48 70.0935 3490
1353.72 69.3705 3454
1361.98 69.3705 3454
1359.13 68.8081 3426
1367.32 68.8081 3426
1364.27 68.2458 3398
1372.4 68.2458 3398
1369.15 67.6834 3370
1358 66.7395 3323
1363.48 66.619 3317
1371.41 66.619 3317
1373.52 66.3378 3303
1373.47 65.9562 3284
1375.86 65.6951 3271
1383.68 65.6951 3271
1391.5 65.6951 3271
1393.76 65.434 3258
1401.55 65.434 3258
1409.34 65.434 3258
1420.18 65.5746 3265
1427.99 65.5746 3265
1438.43 65.6951 3271
1484.28 67.4223 3357
1522.98 68.8081 3426
1531.17 68.8081 3426
1558.24 69.6517 3468
1583.24 70.3948 3505
1594.8 70.5354 3512
1603.2 70.5354 3512
1618.48 70.8366 3527
1626.92 70.8366 3527
1635.35 70.8366 3527
1643.78 70.8366 3527
1652.22 70.8366 3527
1650.29 70.3948 3505
1658.68 70.3948 3505
1659.92 70.0935 3490
1668.27 70.0935 3490
1676.61 70.0935 3490
1684.96 70.0935 3490
1689.91 69.9529 3483
1690.92 69.6517 3468
1695.79 69.5111 3461
1690.28 68.9487 3433
1698.49 68.9487 3433
1699.74 68.6675 3419
1679.94 67.5428 3363
1671.42 66.8801 3330
1679.38 66.8801 3330
1680.76 66.619 3317
1671.89 65.9562 3284
1676.67 65.8357 3278
1684.51 65.8357 3278
1688.73 65.6951 3271
1696.56 65.6951 3271
1704.38 65.6951 3271
1715.86 65.8357 3278
1723.7 65.8357 3278
1731.54 65.8357 3278
1735.67 65.6951 3271
1743.49 65.6951 3271
1751.31 65.6951 3271
1755.91 65.5746 3265
1749.67 65.0524 3239
1747.65 64.6909 3221
1755.35 64.6909 3221
1749.37 64.1888 3196
1747.12 63.8273 3178
1741.46 63.3452 3154
1745.68 63.2247 3148
1753.21 63.2247 3148
1734.45 62.2808 3101
1719.39 61.4774 3061
1710.92 60.9151 3033
1718.17 60.9151 3033
1703.81 60.1519 2995
1674.98 58.8866 2932
1664.21 58.264 2901
1659.62 57.8623 2881
1666.51 57.8623 2881
1670.5 57.7619 2876
1666.29 57.3803 2857
1667.27 57.1794 2847
1674.08 57.1794 2847
1674.98 56.9786 2837
1676.43 56.7978 2828
1680.22 56.6974 2823
1686.97 56.6974 2823
1687.72 56.4966 2813
1694.44 56.4966 2813
1698.75 56.4162 2809
1702.43 56.3158 2804
1709.14 56.3158 2804
1712.78 56.2154 2799
1716.41 56.115 2794
1720.62 56.0346 2790
1727.29 56.0346 2790
1727.75 55.8338 2780
1728.78 55.653 2771
1729.77 55.4723 2762
1736.38 55.4723 2762
1742.98 55.4723 2762
1746.42 55.3719 2757
1750.47 55.2915 2753
1757.05 55.2915 2753
1760.43 55.1911 2748
1764.43 55.1108 2744
1770.99 55.1108 2744
1777.55 55.1108 2744
1784.12 55.1108 2744
1787.41 55.0103 2739
1793.96 55.0103 2739
1794.6 54.8296 2730
1801.13 54.8296 2730
1807.65 54.8296 2730
1808.2 54.6488 2721
1812.04 54.5685 2717
1818.54 54.5685 2717
1825.03 54.5685 2717
1831.53 54.5685 2717
1838.03 54.5685 2717
1844.53 54.5685 2717
1851.02 54.5685 2717
1857.52 54.5685 2717
1864.02 54.5685 2717
1864.32 54.3877 2708
1870.79 54.3877 2708
1877.27 54.3877 2708
1880.96 54.3074 2704
1883.94 54.207 2699
1890.39 54.207 2699
1896.85 54.207 2699
1897.66 54.0463 2691
1904.1 54.0463 2691
1910.53 54.0463 2691
1913.4 53.9459 2686
1919.83 53.9459 2686
1926.25 53.9459 2686
1929.79 53.8656 2682
1936.21 53.8656 2682
1936.1 53.6848 2673
1942.49 53.6848 2673
1948.89 53.6848 2673
1955.28 53.6848 2673
1958.73 53.6045 2669
1965.12 53.6045 2669
1971.5 53.6045 2669
1977.88 53.6045 2669
1984.26 53.6045 2669
1990.65 53.6045 2669
1997.03 53.6045 2669
2003.41 53.6045 2669
2016.57 53.7852 2678
2022.97 53.7852 2678
2042.26 54.1266 2695
2062.39 54.4882 2713
2088.7 55.0103 2739
2095.25 55.0103 2739
-2071.72 62.2011 2767
-2065.1 62.2011 2767
-2058.49 62.2011 2767
-2041.49 61.8864 2753
-2031.21 61.774 2748
-2024.64 61.774 2748
-2024.68 61.9763 2757
-2018.08 61.9763 2757
-2015.14 62.0887 2762
-2008.53 62.0887 2762
-2001.93 62.0887 2762
-1995.32 62.0887 2762
-1975.76 61.684 2744
-1965.61 61.5716 2739
-1959.06 61.5716 2739
-1943.24 61.2794 2726
-1917.54 60.6725 2699
-1911.09 60.6725 2699
-1904.63 60.6725 2699
-1898.18 60.6725 2699
-2190.63 87.2209 3880
-2181.35 87.2209 3880
-2212.94 88.8619 3953
-2203.48 88.8619 3953
-2194.03 88.8619 3953
-2184.58 88.8619 3953
-2149.81 87.8278 3907
-2110.89 86.6139 3853
-2101.67 86.6139 3853
-2059.33 85.2427 3792
-2027.01 84.276 3749
-2004.59 83.7141 3724
-1999.97 83.8939 3732
-1991.05 83.8939 3732
-1995.4 84.4559 3757
-2000.17 85.0404 3783
-2004.8 85.6248 3809
-1995.7 85.6248 3809
-1991.28 85.8271 3818
-1982.15 85.8271 3818
-1973.02 85.8271 3818
-1959.26 85.6248 3809
-1941.45 85.2427 3792
-1927.79 85.0404 3783
-1918.75 85.0404 3783
-1909.7 85.0404 3783
-1896.13 84.838 3774
-1878.61 84.4559 3757
-1869.62 84.4559 3757
-1856.68 84.276 3749
-1819.13 82.9722 3691
-1818.15 83.3319 3707
-1817.58 83.7141 3724
-1808.68 83.7141 3724
-1799.77 83.7141 3724
-1782.69 83.3319 3707
-1773.83 83.3319 3707
-1761.15 83.1521 3699
-1767.94 83.8939 3732
-1762.79 84.0737 3740
-1758.06 84.276 3749
-1749.1 84.276 3749
-1743.85 84.4559 3757
-1739.02 84.6582 3766
-1730.01 84.6582 3766
-1721.01 84.6582 3766
-1707.91 84.4559 3757
-1687.62 83.8939 3732
-1660.25 82.9722 3691
-1651.43 82.9722 3691
-1639.04 82.7924 3683
-1594.82 80.994 3603
-1589.73 81.1739 3611
-1581.09 81.1739 3611
-1572.46 81.1739 3611
-1556.9 80.8142 3595
-1545.28 80.6568 3588
-1536.7 80.6568 3588
-1499.16 79.1282 3520
-1481.01 78.6112 3497
-1466.75 78.2965 3483
-1458.42 78.2965 3483
-1443.84 77.9593 3468
-1418.17 77.0151 3426
-1404.21 76.7004 3412
-1396.05 76.7004 3412
-1357.39 75.0145 3337
-1341.32 74.5649 3317
-1312.48 73.3959 3265
-1281.9 72.1146 3208
-1274.23 72.1146 3208
-1261.82 71.8448 3196
-1244.76 71.3053 3172
-1232.49 71.0356 3160
-1224.94 71.0356 3160
-1205.82 70.3612 3130
-1196.04 70.2263 3124
-1175.25 69.4395 3089
-1167.87 69.4395 3089
-1152.21 68.945 3067
-1128.08 67.9334 3022
-1116.78 67.6861 3011
-1109.58 67.6861 3011
-1102.38 67.6861 3011
-1095.18 67.6861 3011
-1087.97 67.6861 3011
-1078.98 67.5737 3006
-1071.79 67.5737 3006
-1062.48 67.4388 3000
-1055.3 67.4388 3000
-1046.38 67.3264 2995
-1039.22 67.3264 2995
-1030.34 67.214 2990
-1019.42 66.9668 2979
-1008.56 66.7195 2968
-1001.46 66.7195 2968
-994.366 66.7195 2968
-987.269 66.7195 2968
-980.172 66.7195 2968
-975.041 66.8544 2974
-967.93 66.8544 2974
-960.818 66.8544 2974
-951.782 66.7195 2968
-944.685 66.7195 2968
-937.587 66.7195 2968
-928.922 66.6071 2963
-921.837 66.6071 2963
-914.751 66.6071 2963
-906.134 66.4947 2958
-899.061 66.4947 2958
-890.48 66.3823 2953
-883.418 66.3823 2953
-876.357 66.3823 2953
-869.295 66.3823 2953
-860.482 66.2474 2947
-853.435 66.2474 2947
-846.387 66.2474 2947
-837.916 66.135 2942
-830.881 66.135 2942
-822.446 66.0226 2937
-815.422 66.0226 2937
-807.023 65.9102 2932
-797.283 65.6854 2922
-790.296 65.6854 2922
-783.308 65.6854 2922
-774.992 65.573 2917
-766.437 65.4381 2911
-758.172 65.3257 2906
-751.222 65.3257 2906
-744.273 65.3257 2906
-737.324 65.3257 2906
-730.375 65.3257 2906
-723.426 65.3257 2906
-715.244 65.2133 2901
-708.307 65.2133 2901
-700.161 65.1009 2896
-693.236 65.1009 2896
-682.756 64.7637 2881
-674.693 64.6514 2876
-670.138 64.8761 2886
-664.386 64.9885 2891
-657.473 64.9885 2891
-651.684 65.1009 2896
-646.986 65.3257 2906
-641.138 65.4381 2911
-634.177 65.4381 2911
-631.74 65.9102 2932
-625.794 66.0226 2937
-626.566 66.8544 2974
-619.455 66.8544 2974
-617.696 67.4388 3000
-620.698 68.5628 3050
-619.035 69.1922 3078
-611.675 69.1922 3078
-604.315 69.1922 3078
-361.229 49.1404 2186
-356.002 49.1404 2186
-350.774 49.1404 2186
-345.547 49.1404 2186
-341.254 49.2753 2192
-336.012 49.2753 2192
-330.77 49.2753 2192
-325.528 49.2753 2192
-320.287 49.2753 2192
-315.045 49.2753 2192
-308.248 49.028 2181
-303.033 49.028 2181
-297.408 48.9606 2178
-292.2 48.9606 2178
-286.991 48.9606 2178
-281.007 48.8257 2172
-275.813 48.8257 2172
-270.619 48.8257 2172
-265.425 48.8257 2172
-259.872 48.7583 2169
-166.511 48.7583 2169
-161.324 48.7583 2169
-156.137 48.7583 2169
-151.159 48.8257 2172
-146.167 48.8931 2175
-140.966 48.8931 2175
-135.765 48.8931 2175
-130.564 48.8931 2175
-125.19 48.8257 2172
-119.996 48.8257 2172
-114.643 48.7583 2169
-109.456 48.7583 2169
-104.27 48.7583 2169
-99.083 48.7583 2169
-93.8097 48.7133 2167
-88.505 48.6459 2164
-83.3303 48.6459 2164
-78.1555 48.6459 2164
-72.7783 48.511 2158
-67.5239 48.4436 2155
-62.3707 48.4436 2155
-57.2174 48.4436 2155
-52.0158 48.3986 2153
-46.8673 48.3986 2153
-41.7189 48.3986 2153
-36.5704 48.3986 2153
-31.3781 48.3312 2150
-26.2368 48.3312 2150
-21.0955 48.3312 2150
-15.9765 48.3986 2153
-10.828 48.3986 2153
-5.67954 48.3986 2153
-0.531062 48.3986 2153
4.61741 48.3986 2153
9.76589 48.3986 2153
14.8936 48.3312 2150
20.0349 48.3312 2150
25.1762 48.3312 2150
30.3175 48.3312 2150
35.4588 48.3312 2150
40.6001 48.3312 2150
45.7414 48.3312 2150
50.8827 48.3312 2150
56.024 48.3312 2150
61.08 48.2637 2147
66.2141 48.2637 2147
71.3482 48.2637 2147
76.3755 48.1963 2144
81.5024 48.1963 2144
86.5486 48.1513 2142
91.6707 48.1513 2142
96.6573 48.0839 2139
101.772 48.0839 2139
106.737 48.0164 2136
111.845 48.0164 2136
116.789 47.949 2133
121.889 47.949 2133
126.99 47.949 2133
132.091 47.949 2133
137.191 47.949 2133
142.292 47.949 2133
147.393 47.949 2133
152.493 47.949 2133
157.594 47.949 2133
162.695 47.949 2133
167.795 47.949 2133
173.139 48.0164 2136
178.497 48.0839 2139
183.612 48.0839 2139
188.727 48.0839 2139
194.114 48.1513 2142
199.422 48.1963 2144
204.549 48.1963 2144
209.676 48.1963 2144
215.104 48.2637 2147
220.546 48.3312 2150
225.687 48.3312 2150
231.365 48.4436 2155
236.848 48.511 2158
242.344 48.5784 2161
247.512 48.5784 2161
253.03 48.6459 2164
258.563 48.7133 2167
263.745 48.7133 2167
268.927 48.7133 2167
274.109 48.7133 2167
279.291 48.7133 2167
284.473 48.7133 2167
289.655 48.7133 2167
294.837 48.7133 2167
300.019 48.7133 2167
305.201 48.7133 2167
310.383 48.7133 2167
315.128 48.6459 2164
318.97 48.4436 2155
323.823 48.3986 2153
328.971 48.3986 2153
333.654 48.3312 2150
338.796 48.3312 2150
548.709 67.0791 2984
555.845 67.0791 2984
562.98 67.0791 2984
569.161 66.9668 2979
574.156 66.7195 2968
581.254 66.7195 2968
586.369 66.4947 2958
591.235 66.2474 2947
597.268 66.135 2942
604.303 66.135 2942
609.26 65.9102 2932
615.22 65.7978 2927
621.157 65.6854 2922
628.144 65.6854 2922
632.741 65.4381 2911
638.603 65.3257 2906
644.441 65.2133 2901
651.378 65.2133 2901
658.316 65.2133 2901
665.253 65.2133 2901
672.19 65.2133 2901
679.127 65.2133 2901
686.064 65.2133 2901
693.001 65.2133 2901
699.939 65.2133 2901
706.876 65.2133 2901
713.813 65.2133 2901
720.75 65.2133 2901
728.942 65.3257 2906
735.891 65.3257 2906
742.84 65.3257 2906
749.789 65.3257 2906
756.738 65.3257 2906
765.001 65.4381 2911
771.962 65.4381 2911
778.923 65.4381 2911
785.884 65.4381 2911
792.845 65.4381 2911
799.807 65.4381 2911
806.768 65.4381 2911
813.729 65.4381 2911
820.69 65.4381 2911
827.651 65.4381 2911
834.612 65.4381 2911
841.573 65.4381 2911
848.534 65.4381 2911
857.259 65.573 2917
864.234 65.573 2917
871.209 65.573 2917
878.185 65.573 2917
883.34 65.4381 2911
890.301 65.4381 2911
897.262 65.4381 2911
907.64 65.6854 2922
916.192 65.7978 2927
924.768 65.9102 2932
931.78 65.9102 2932
940.392 66.0226 2937
955.802 66.6071 2963
964.513 66.7195 2968
971.61 66.7195 2968
982.335 66.9668 2979
1005.73 68.0683 3028
1022.01 68.6752 3055
1029.31 68.6752 3055
1055.96 69.9565 3112
1071.6 70.496 3136
1093.55 71.4402 3178
1101.15 71.4402 3178
1136.66 73.2386 3258
1144.45 73.2386 3258
1152.24 73.2386 3258
1288.62 80.8142 3595
1297.22 80.8142 3595
1305.82 80.8142 3595
1314.41 80.8142 3595
1311.97 80.1398 3565
1326.05 80.477 3580
1334.61 80.477 3580
1343.17 80.477 3580
1351.73 80.477 3580
1357.25 80.2972 3572
1365.8 80.2972 3572
1362.8 79.6228 3542
1365.46 79.2856 3527
1359.48 78.4538 3490
1353.72 77.6446 3454
1361.98 77.6446 3454
1359.13 77.0151 3426
1367.32 77.0151 3426
1364.27 76.3857 3398
1372.4 76.3857 3398
1369.15 75.7563 3370
1358 74.6997 3323
1363.48 74.5649 3317
1371.41 74.5649 3317
1373.52 74.2501 3303
1373.47 73.823 3284
1375.86 73.5308 3271
1383.68 73.5308 3271
1391.5 73.5308 3271
1393.76 73.2386 3258
1401.55 73.2386 3258
1409.34 73.2386 3258
1420.18 73.3959 3265
1427.99 73.3959 3265
1438.43 73.5308 3271
1484.28 75.464 3357
1522.98 77.0151 3426
1531.17 77.0151 3426
1558.24 77.9593 3468
1583.24 78.791 3505
1594.8 78.9484 3512
1603.2 78.9484 3512
1618.48 79.2856 3527
1626.92 79.2856 3527
1635.35 79.2856 3527
1643.78 79.2856 3527
1652.22 79.2856 3527
1650.29 78.791 3505
1658.68 78.791 3505
1659.92 78.4538 3490
1668.27 78.4538 3490
1676.61 78.4538 3490
1684.96 78.4538 3490
1689.91 78.2965 3483
1690.92 77.9593 3468
1695.79 77.8019 3461
1690.28 77.1725 3433
1698.49 77.1725 3433
1699.74 76.8578 3419
1679.94 75.5989 3363
1671.42 74.8571 3330
1679.38 74.8571 3330
1680.76 74.5649 3317
1671.89 73.823 3284
1670.02 73.3959 3265
1677.83 73.3959 3265
1688.73 73.5308 3271
1696.56 73.5308 3271
1704.38 73.5308 3271
1712.2 73.5308 3271
1720.02 73.5308 3271
1727.84 73.5308 3271
1735.67 73.5308 3271
1740.29 73.3959 3265
1748.1 73.3959 3265
1741.92 72.8114 3239
1743.19 72.5417 3227
1737.34 71.9797 3202
1745 71.9797 3202
1742.8 71.5751 3184
1743.82 71.3053 3172
1738.15 70.7658 3148
1735.7 70.3612 3130
1743.18 70.3612 3130
1734.45 69.7093 3101
1716.02 68.6752 3055
1704.71 67.9334 3022
1711.94 67.9334 3022
1694.7 66.9668 2979
1674.98 65.9102 2932
1664.21 65.2133 2901
1659.62 64.7637 2881
1666.51 64.7637 2881
1670.5 64.6514 2876
1666.29 64.2242 2857
1667.27 63.9994 2847
1674.08 63.9994 2847
1674.98 63.7746 2837
1676.43 63.5723 2828
1680.22 63.4599 2823
1686.97 63.4599 2823
1687.72 63.2351 2813
1694.44 63.2351 2813
1698.75 63.1452 2809
1702.43 63.0328 2804
1709.14 63.0328 2804
1712.78 62.9204 2799
1716.41 62.808 2794
1720.62 62.7181 2790
1727.29 62.7181 2790
1727.75 62.4933 2780
1728.78 62.291 2771
1729.77 62.0887 2762
1736.38 62.0887 2762
1742.98 62.0887 2762
1746.42 61.9763 2757
1750.47 61.8864 2753
1757.05 61.8864 2753
1760.43 61.774 2748
1764.43 61.684 2744
1770.99 61.684 2744
1777.55 61.684 2744
1784.12 61.684 2744
1787.41 61.5716 2739
1793.96 61.5716 2739
1794.6 61.3693 2730
1801.13 61.3693 2730
1807.65 61.3693 2730
1808.2 61.167 2721
1812.04 61.0771 2717
1818.54 61.0771 2717
1825.03 61.0771 2717
1831.53 61.0771 2717
1838.03 61.0771 2717
1844.53 61.0771 2717
1851.02 61.0771 2717
1857.52 61.0771 2717
1864.02 61.0771 2717
1864.32 60.8748 2708
1870.79 60.8748 2708
1877.27 60.8748 2708
1880.96 60.7849 2704
1883.94 60.6725 2699
1890.39 60.6725 2699
1896.85 60.6725 2699
1897.66 60.4926 2691
1904.1 60.4926 2691
1910.53 60.4926 2691
1913.4 60.3802 2686
1919.83 60.3802 2686
1926.25 60.3802 2686
1929.79 60.2903 2682
1936.21 60.2903 2682
1936.1 60.088 2673
1942.49 60.088 2673
1948.89 60.088 2673
1955.28 60.088 2673
1958.73 59.9981 2669
1965.12 59.9981 2669
1971.5 59.9981 2669
1977.88 59.9981 2669
1984.26 59.9981 2669
1990.65 59.9981 2669
1997.03 59.9981 2669
2003.41 59.9981 2669
2016.57 60.2004 2678
2022.97 60.2004 2678
2042.26 60.5825 2695
2062.39 60.9872 2713
2088.7 61.5716 2739
2095.25 61.5716 2739
-2074.72 68.9289 2771
-2068.09 68.9289 2771
-2061.46 68.9289 2771
-2051.87 68.8294 2767
-2034.91 68.4812 2753
-2028.32 68.4812 2753
-2024.68 68.5807 2757
-2018.08 68.5807 2757
-2015.14 68.7051 2762
-2008.53 68.7051 2762
-2001.93 68.7051 2762
-1995.32 68.7051 2762
-1978.64 68.3568 2748
-1972.07 68.3568 2748
-1965.5 68.3568 2748
-1952.51 68.1329 2739
-1945.96 68.1329 2739
-1959.24 68.8294 2767
-1952.62 68.8294 2767
-1946 68.8294 2767
-2212.94 98.3313 3953
-2203.48 98.3313 3953
-2194.03 98.3313 3953
-2184.58 98.3313 3953
-2149.81 97.1871 3907
-2110.89 95.8438 3853
-2101.67 95.8438 3853
-2045.21 93.6797 3766
-2022.15 93.0329 3740
-2000.29 92.4359 3716
-1999.97 92.8339 3732
-1991.05 92.8339 3732
-1986.37 93.0329 3740
-1991.18 93.6797 3766
-2004.8 94.7493 3809
-1995.7 94.7493 3809
-1991.28 94.9732 3818
-1982.15 94.9732 3818
-1973.02 94.9732 3818
-1959.26 94.7493 3809
-1941.45 94.3264 3792
-1927.79 94.1026 3783
-1918.75 94.1026 3783
-1909.7 94.1026 3783
-1896.13 93.8787 3774
-1878.61 93.4558 3757
-1869.62 93.4558 3757
-1856.68 93.2568 3749
-1767.94 92.8339 3732
-1762.79 93.0329 3740
-1758.06 93.2568 3749
-1749.1 93.2568 3749
-1743.85 93.4558 3757
-1739.02 93.6797 3766
-1730.01 93.6797 3766
-1721.01 93.6797 3766
-1707.91 93.4558 3757
-1687.62 92.8339 3732
-1574.09 89.426 3595
-1565.49 89.426 3595
-1556.9 89.426 3595
-1545.28 89.2519 3588
-1536.7 89.2519 3588
-1499.16 87.5604 3520
-1484.39 87.1873 3505
-1466.75 86.64 3483
-1458.42 86.64 3483
-1440.93 86.0928 3461
-1415.27 85.048 3419
-1395.57 84.3515 3391
-1387.46 84.3515 3391
-1359.83 83.1575 3343
-1341.32 82.5108 3317
-1312.48 81.2173 3265
-1281.9 79.7994 3208
-1274.23 79.7994 3208
-1259.45 79.3516 3190
-1244.76 78.9039 3172
-1232.49 78.6054 3160
-1224.94 78.6054 3160
-1205.82 77.8591 3130
-1196.04 77.7099 3124
-1175.25 76.8392 3089
-1167.87 76.8392 3089
-1152.21 76.292 3067
-1126.22 75.0482 3017
-1114.92 74.7746 3006
-1105.52 74.6254 3000
-1098.35 74.6254 3000
-1089.36 74.501 2995
-1082.19 74.501 2995
-1073.24 74.3766 2990
-1066.09 74.3766 2990
-1058.94 74.3766 2990
-1051.79 74.3766 2990
-1044.64 74.3766 2990
-1037.49 74.3766 2990
-1028.27 74.2273 2984
-1019.42 74.103 2979
-1008.56 73.8293 2968
-1001.46 73.8293 2968
-992.691 73.705 2963
-985.606 73.705 2963
-978.52 73.705 2963
-975.041 73.9786 2974
-967.93 73.9786 2974
-960.818 73.9786 2974
-951.782 73.8293 2968
-944.685 73.8293 2968
-937.587 73.8293 2968
-928.922 73.705 2963
-921.837 73.705 2963
-914.751 73.705 2963
-906.134 73.5806 2958
-899.061 73.5806 2958
-891.987 73.5806 2958
-884.914 73.5806 2958
-876.357 73.4562 2953
-869.295 73.4562 2953
-862.234 73.4562 2953
-855.172 73.4562 2953
-846.387 73.307 2947
-837.916 73.1826 2942
-830.881 73.1826 2942
-822.446 73.0582 2937
-815.422 73.0582 2937
-807.023 72.9338 2932
-797.283 72.6851 2922
-788.943 72.5607 2917
-781.968 72.5607 2917
-773.398 72.4115 2911
-765.121 72.2871 2906
-756.867 72.1627 2901
-749.93 72.1627 2901
-742.993 72.1627 2901
-736.056 72.1627 2901
-729.118 72.1627 2901
-722.181 72.1627 2901
-714.011 72.0383 2896
-707.086 72.0383 2896
-698.952 71.914 2891
-692.039 71.914 2891
-682.756 71.6652 2881
-677.039 71.7896 2886
-670.138 71.7896 2886
-665.535 72.0383 2896
-658.61 72.0383 2896
-652.81 72.1627 2901
-646.986 72.2871 2906
-642.459 72.5607 2917
-635.484 72.5607 2917
-630.663 72.8095 2927
-627.925 73.307 2947
-626.566 73.9786 2974
-619.455 73.9786 2974
-613.372 74.103 2979
-610.522 74.6254 3000
-603.348 74.6254 3000
-596.174 74.6254 3000
-367.965 54.6009 2195
-362.716 54.6009 2195
-357.467 54.6009 2195
-352.218 54.6009 2195
-346.97 54.6009 2195
-341.721 54.6009 2195
-336.472 54.6009 2195
-331.223 54.6009 2195
-325.528 54.5263 2192
-320.287 54.5263 2192
-314.614 54.4516 2189
-308.248 54.2526 2181
-302.616 54.178 2178
-297.408 54.178 2178
-292.2 54.178 2178
-286.991 54.178 2178
-281.007 54.0288 2172
-275.432 53.9541 2169
-270.245 53.9541 2169
-265.059 53.9541 2169
-259.872 53.9541 2169
-253.041 53.6059 2155
-247.888 53.6059 2155
-165.666 53.6805 2158
-160.952 53.8298 2164
-155.777 53.8298 2164
-150.811 53.9044 2167
-145.965 54.0288 2172
-140.771 54.0288 2172
-135.577 54.0288 2172
-130.384 54.0288 2172
-125.19 54.0288 2172
-119.996 54.0288 2172
-114.643 53.9541 2169
-109.456 53.9541 2169
-104.174 53.9044 2167
-98.9916 53.9044 2167
-93.6798 53.8298 2164
-88.505 53.8298 2164
-83.3303 53.8298 2164
-78.1555 53.8298 2164
-72.7783 53.6805 2158
-67.5239 53.6059 2155
-62.3707 53.6059 2155
-57.2174 53.6059 2155
-52.0158 53.5561 2153
-46.8673 53.5561 2153
-41.7189 53.5561 2153
-36.5704 53.5561 2153
-31.3781 53.4815 2150
-26.2368 53.4815 2150
-21.0955 53.4815 2150
-15.9542 53.4815 2150
-10.828 53.5561 2153
-5.67954 53.5561 2153
-0.531062 53.5561 2153
4.61741 53.5561 2153
9.76589 53.5561 2153
14.9144 53.5561 2153
20.0349 53.4815 2150
25.1762 53.4815 2150
30.3175 53.4815 2150
35.4588 53.4815 2150
40.6001 53.4815 2150
45.7414 53.4815 2150
50.8827 53.4815 2150
56.024 53.4815 2150
61.08 53.4069 2147
66.2141 53.4069 2147
71.3482 53.4069 2147
76.3755 53.3322 2144
81.5024 53.3322 2144
86.5486 53.2825 2142
91.6707 53.2825 2142
96.7929 53.2825 2142
101.772 53.2079 2139
106.737 53.1332 2136
111.845 53.1332 2136
116.953 53.1332 2136
121.889 53.0586 2133
126.99 53.0586 2133
132.091 53.0586 2133
137.191 53.0586 2133
142.292 53.0586 2133
147.393 53.0586 2133
152.493 53.0586 2133
157.594 53.0586 2133
162.695 53.0586 2133
167.795 53.0586 2133
173.139 53.1332 2136
178.497 53.2079 2139
183.612 53.2079 2139
188.992 53.2825 2142
194.114 53.2825 2142
199.422 53.3322 2144
204.549 53.3322 2144
209.676 53.3322 2144
215.104 53.4069 2147
220.853 53.5561 2153
226.002 53.5561 2153
231.687 53.6805 2158
237.177 53.7551 2161
242.681 53.8298 2164
247.856 53.8298 2164
253.03 53.8298 2164
258.563 53.9044 2167
263.745 53.9044 2167
268.927 53.9044 2167
274.109 53.9044 2167
279.291 53.9044 2167
284.473 53.9044 2167
289.655 53.9044 2167
294.837 53.9044 2167
300.019 53.9044 2167
305.201 53.9044 2167
310.383 53.9044 2167
314.691 53.7551 2161
319.414 53.6805 2158
324.124 53.6059 2155
329.277 53.6059 2155
334.12 53.5561 2153
547.789 74.103 2979
554.913 74.103 2979
562.037 74.103 2979
569.161 74.103 2979
574.156 73.8293 2968
581.254 73.8293 2968
586.369 73.5806 2958
591.235 73.307 2947
597.268 73.1826 2942
604.303 73.1826 2942
609.26 72.9338 2932
615.22 72.8095 2927
620.094 72.5607 2917
627.069 72.5607 2917
632.741 72.4115 2911
638.603 72.2871 2906
644.441 72.1627 2901
651.378 72.1627 2901
658.316 72.1627 2901
665.253 72.1627 2901
672.19 72.1627 2901
680.298 72.2871 2906
687.247 72.2871 2906
694.196 72.2871 2906
701.145 72.2871 2906
708.094 72.2871 2906
715.043 72.2871 2906
721.992 72.2871 2906
730.196 72.4115 2911
737.157 72.4115 2911
744.118 72.4115 2911
751.079 72.4115 2911
758.04 72.4115 2911
765.001 72.4115 2911
771.962 72.4115 2911
778.923 72.4115 2911
785.884 72.4115 2911
792.845 72.4115 2911
799.807 72.4115 2911
806.768 72.4115 2911
813.729 72.4115 2911
820.69 72.4115 2911
827.651 72.4115 2911
834.612 72.4115 2911
841.573 72.4115 2911
848.534 72.4115 2911
857.259 72.5607 2917
864.234 72.5607 2917
871.209 72.5607 2917
878.185 72.5607 2917
885.16 72.5607 2917
892.136 72.5607 2917
897.262 72.4115 2911
907.64 72.6851 2922
916.192 72.8095 2927
924.768 72.9338 2932
931.78 72.9338 2932
940.392 73.0582 2937
955.802 73.705 2963
962.888 73.705 2963
969.973 73.705 2963
982.335 74.103 2979
1005.73 75.3219 3028
1022.01 75.9935 3055
1029.31 75.9935 3055
1052.23 77.1377 3101
1063.4 77.4114 3112
1085.29 78.4561 3154
1092.84 78.4561 3154
1100.38 78.4561 3154
1288.62 89.426 3595
1311.65 90.4211 3635
1320.35 90.4211 3635
1329.04 90.4211 3635
1334.79 90.222 3627
1343.46 90.222 3627
1352.13 90.222 3627
1360.81 90.222 3627
1366.46 90.023 3619
1365.99 89.426 3595
1374.59 89.426 3595
1380.49 89.2519 3588
1371.27 88.1077 3542
1373.89 87.7345 3527
1367.83 86.8142 3490
1376.17 86.8142 3490
1381.74 86.64 3483
1387.27 86.4659 3476
1381.13 85.5704 3440
1389.36 85.5704 3440
1386.21 84.8739 3412
1382.93 84.1774 3384
1371.7 83.0083 3337
1379.68 83.0083 3337
1379.34 82.5108 3317
1387.27 82.5108 3317
1383.85 81.8391 3290
1389.18 81.6899 3284
1397.03 81.6899 3284
1399.32 81.3665 3271
1404.56 81.2173 3265
1412.37 81.2173 3265
1422.79 81.3665 3271
1430.61 81.3665 3271
1444.15 81.6899 3284
1499.31 84.3515 3391
1541.65 86.2669 3468
1549.94 86.2669 3468
1574.86 87.1873 3505
1596.34 87.9087 3534
1615.24 88.4808 3557
1623.74 88.4808 3557
1639.13 88.8539 3572
1647.67 88.8539 3572
1663.63 89.2519 3588
1672.21 89.2519 3588
1680.79 89.2519 3588
1678.54 88.6798 3565
1687.07 88.6798 3565
1695.59 88.6798 3565
1704.12 88.6798 3565
1712.64 88.6798 3565
1721.17 88.6798 3565
1718.54 88.1077 3542
1719.69 87.7345 3527
1710 86.8142 3490
1711.45 86.4659 3476
1719.76 86.4659 3476
1706.7 85.3963 3433
1700.92 84.6998 3405
1684.97 83.5058 3357
1693 83.5058 3357
1680.76 82.5108 3317
1671.89 81.6899 3284
1666.44 81.0431 3258
1668.07 80.7446 3246
1675.83 80.7446 3246
1679.96 80.5705 3239
1687.7 80.5705 3239
1695.45 80.5705 3239
1703.2 80.5705 3239
1710.94 80.5705 3239
1718.69 80.5705 3239
1726.43 80.5705 3239
1734.18 80.5705 3239
1735.47 80.272 3227
1732.92 79.7994 3208
1730.83 79.3516 3190
1738.46 79.3516 3190
1736.23 78.9039 3172
1733.92 78.4561 3154
1734.84 78.1576 3142
1732.37 77.7099 3124
1739.84 77.7099 3124
1724.94 76.7149 3084
1709.84 75.7199 3044
1695.69 74.7746 3006
1702.88 74.7746 3006
1685.6 73.705 2963
1666.41 72.5607 2917
1664.21 72.1627 2901
1659.62 71.6652 2881
1666.51 71.6652 2881
1670.5 71.5408 2876
1666.29 71.0682 2857
1667.27 70.8195 2847
1674.08 70.8195 2847
1674.98 70.5707 2837
1676.43 70.3468 2828
1680.22 70.2225 2823
1686.97 70.2225 2823
1687.72 69.9737 2813
1694.44 69.9737 2813
1701.17 69.9737 2813
1705.47 69.8742 2809
1712.19 69.8742 2809
1715.84 69.7498 2804
1719.48 69.6255 2799
1723.09 69.5011 2794
1729.77 69.5011 2794
1727.75 69.1528 2780
1731.9 69.0533 2776
1735.41 68.9289 2771
1742.03 68.9289 2771
1746.14 68.8294 2767
1749.59 68.7051 2762
1753.01 68.5807 2757
1759.6 68.5807 2757
1766.2 68.5807 2757
1767 68.3568 2748
1773.57 68.3568 2748
1777.55 68.2573 2744
1784.12 68.2573 2744
1790.68 68.2573 2744
1797.24 68.2573 2744
1800.51 68.1329 2739
1807.06 68.1329 2739
1807.65 67.9091 2730
1814.18 67.9091 2730
1814.71 67.6852 2721
1821.21 67.6852 2721
1827.72 67.6852 2721
1834.23 67.6852 2721
1840.73 67.6852 2721
1847.24 67.6852 2721
1853.75 67.6852 2721
1860.26 67.6852 2721
1866.76 67.6852 2721
1873.27 67.6852 2721
1879.78 67.6852 2721
1886.28 67.6852 2721
1892.79 67.6852 2721
1893.71 67.4862 2713
1900.2 67.4862 2713
1906.69 67.4862 2713
1909.65 67.3618 2708
1906.93 67.0384 2695
1913.37 67.0384 2695
1919.81 67.0384 2695
1926.26 67.0384 2695
1929.84 66.9389 2691
1936.27 66.9389 2691
1942.71 66.9389 2691
1949.14 66.9389 2691
1955.58 66.9389 2691
1955.45 66.7151 2682
1961.86 66.7151 2682
1965.34 66.6156 2678
1968.06 66.4912 2673
1974.45 66.4912 2673
1980.85 66.4912 2673
1984.26 66.3917 2669
1990.65 66.3917 2669
1997.03 66.3917 2669
2003.41 66.3917 2669
2016.57 66.6156 2678
2022.97 66.6156 2678
2039.23 66.9389 2691
2062.39 67.4862 2713
2078.79 67.8096 2726
2085.31 67.8096 2726
-2074.72 75.5669 2771
-2068.09 75.5669 2771
-2061.46 75.5669 2771
-2054.84 75.5669 2771
-2045.25 75.4578 2767
-2038.64 75.4578 2767
-2032.02 75.4578 2767
-2021.74 75.3215 2762
-2018.79 75.4578 2767
-2012.17 75.4578 2767
-2005.55 75.4578 2767
-1998.94 75.4578 2767
-1985.12 75.1851 2757
-1978.53 75.1851 2757
-1971.93 75.1851 2757
-1958.93 74.9397 2748
-1952.35 74.9397 2748
-1959.24 75.4578 2767
-1952.62 75.4578 2767
-1946 75.4578 2767
-2212.94 107.801 3953
-2203.48 107.801 3953
-2194.03 107.801 3953
-2184.58 107.801 3953
-2149.81 106.546 3907
-2110.89 105.074 3853
-2101.67 105.074 3853
-2045.21 102.701 3766
-2022.15 101.992 3740
-2000.29 101.338 3716
-1999.97 101.774 3732
-1991.05 101.774 3732
-1986.37 101.992 3740
-1991.18 102.701 3766
-2004.8 103.874 3809
-1995.7 103.874 3809
-1991.28 104.119 3818
-1982.15 104.119 3818
-1973.02 104.119 3818
-1959.26 103.874 3809
-1941.45 103.41 3792
-1927.79 103.165 3783
-1918.75 103.165 3783
-1909.7 103.165 3783
-1896.13 102.919 3774
-1878.61 102.456 3757
-1869.62 102.456 3757
-1856.68 102.238 3749
-1767.94 101.774 3732
-1762.79 101.992 3740
-1758.06 102.238 3749
-1749.1 102.238 3749
-1743.85 102.456 3757
-1739.02 102.701 3766
-1730.01 102.701 3766
-1721.01 102.701 3766
-1707.91 102.456 3757
-1687.62 101.774 3732
-1574.09 98.0379 3595
-1565.49 98.0379 3595
-1556.9 98.0379 3595
-1545.28 97.847 3588
-1536.7 97.847 3588
-1511.51 96.7834 3549
-1490.75 95.9926 3520
-1472.64 95.3654 3497
-1464.28 95.3654 3497
-1443.84 94.5745 3468
-1415.27 93.2383 3419
-1395.57 92.4747 3391
-1387.46 92.4747 3391
-1362.67 91.3566 3350
-1351.83 91.1657 3343
-1312.48 89.0386 3265
-1281.9 87.4842 3208
-1274.23 87.4842 3208
-1259.45 86.9933 3190
-1244.76 86.5024 3172
-1232.49 86.1752 3160
-1224.94 86.1752 3160
-1205.82 85.3571 3130
-1196.04 85.1934 3124
-1175.25 84.239 3089
-1167.87 84.239 3089
-1152.21 83.639 3067
-1126.22 82.2755 3017
-1114.92 81.9755 3006
-1105.52 81.8119 3000
-1098.35 81.8119 3000
-1089.36 81.6755 2995
-1082.19 81.6755 2995
-1073.24 81.5392 2990
-1066.09 81.5392 2990
-1058.94 81.5392 2990
-1051.79 81.5392 2990
-1044.64 81.5392 2990
-1037.49 81.5392 2990
-1028.27 81.3755 2984
-1019.42 81.2392 2979
-1008.56 80.9392 2968
-1001.46 80.9392 2968
-992.691 80.8029 2963
-985.606 80.8029 2963
-978.52 80.8029 2963
-975.041 81.1028 2974
-967.93 81.1028 2974
-960.818 81.1028 2974
-951.782 80.9392 2968
-944.685 80.9392 2968
-937.587 80.9392 2968
-928.922 80.8029 2963
-921.837 80.8029 2963
-914.751 80.8029 2963
-906.134 80.6665 2958
-899.061 80.6665 2958
-891.987 80.6665 2958
-884.914 80.6665 2958
-876.357 80.5302 2953
-869.295 80.5302 2953
-862.234 80.5302 2953
-855.172 80.5302 2953
-846.387 80.3665 2947
-837.916 80.2302 2942
-830.881 80.2302 2942
-822.446 80.0938 2937
-815.422 80.0938 2937
-807.023 79.9575 2932
-797.283 79.6848 2922
