235.982 -340.224 2198
242.225 -341.617 2207
249.41 -344.249 2224
254.728 -344.249 2224
261.098 -345.642 2233
267.87 -347.499 2245
273.969 -348.428 2251
279.352 -348.428 2251
285.114 -348.892 2254
291.793 -350.44 2264
297.207 -350.44 2264
302.621 -350.44 2264
308.034 -350.44 2264
498.831 -557.701 3603
508.574 -558.94 3611
519.501 -561.416 3627
528.174 -561.416 3627
540.252 -564.976 3650
548.98 -564.976 3650
557.708 -564.976 3650
566.436 -564.976 3650
576.425 -566.215 3658
585.173 -566.215 3658
596.68 -568.846 3675
605.468 -568.846 3675
614.256 -568.846 3675
623.044 -568.846 3675
631.832 -568.846 3675
640.62 -568.846 3675
650.822 -570.084 3683
659.629 -570.084 3683
668.436 -570.084 3683
677.244 -570.084 3683
686.051 -570.084 3683
694.858 -570.084 3683
705.194 -571.323 3691
715.567 -572.561 3699
724.413 -572.561 3699
738.214 -576.431 3724
747.119 -576.431 3724
756.025 -576.431 3724
764.93 -576.431 3724
777.16 -578.907 3740
787.995 -580.3 3749
796.96 -580.3 3749
805.925 -580.3 3749
814.89 -580.3 3749
814.625 -573.799 3707
823.49 -573.799 3707
830.558 -572.561 3699
839.403 -572.561 3699
846.414 -571.323 3691
855.241 -571.323 3691
864.067 -571.323 3691
872.893 -571.323 3691
881.72 -571.323 3691
892.476 -572.561 3699
901.321 -572.561 3699
910.167 -572.561 3699
917.025 -571.323 3691
923.844 -570.084 3683
932.651 -570.084 3683
939.414 -568.846 3675
946.138 -567.608 3667
954.906 -567.608 3667
963.675 -567.608 3667
965.815 -563.738 3642
972.651 -562.655 3635
983.233 -563.738 3642
991.942 -563.738 3642
1000.65 -563.738 3642
1009.36 -563.738 3642
1013.88 -561.416 3627
1022.55 -561.416 3627
1031.22 -561.416 3627
1039.9 -561.416 3627
1048.57 -561.416 3627
1057.24 -561.416 3627
1065.92 -561.416 3627
1074.59 -561.416 3627
1083.26 -561.416 3627
1084.71 -557.701 3603
1095.75 -558.94 3611
1104.39 -558.94 3611
1113.02 -558.94 3611
1121.66 -558.94 3611
1130.29 -558.94 3611
1138.93 -558.94 3611
1150.11 -560.178 3619
1158.76 -560.178 3619
1167.41 -560.178 3619
1176.07 -560.178 3619
1184.72 -560.178 3619
1193.38 -560.178 3619
1202.03 -560.178 3619
1210.68 -560.178 3619
1219.34 -560.178 3619
1222.56 -557.701 3603
1233.91 -558.94 3611
1242.55 -558.94 3611
1251.18 -558.94 3611
1257.03 -557.701 3603
1265.64 -557.701 3603
1274.26 -557.701 3603
1282.88 -557.701 3603
1291.49 -557.701 3603
1300.11 -557.701 3603
1308.72 -557.701 3603
1317.34 -557.701 3603
1325.95 -557.701 3603
1334.57 -557.701 3603
1343.19 -557.701 3603
1351.8 -557.701 3603
1357.4 -556.463 3595
1365.99 -556.463 3595
1377.65 -557.701 3603
1386.27 -557.701 3603
1394.88 -557.701 3603
1400.38 -556.463 3595
1408.98 -556.463 3595
1414.81 -555.38 3588
1420.22 -554.141 3580
1422.79 -551.819 3565
1428.11 -550.581 3557
1439.84 -551.819 3565
1448.37 -551.819 3565
1459.76 -552.903 3572
1471.59 -554.141 3580
1480.15 -554.141 3580
1488.71 -554.141 3580
1497.27 -554.141 3580
1502.46 -552.903 3572
1511.01 -552.903 3572
1516.57 -551.819 3565
1521.67 -550.581 3557
1510.82 -543.616 3512
1519.22 -543.616 3512
1515 -539.127 3483
1513.71 -535.721 3461
-2756.6 -591.283 3880
-2747.32 -591.283 3880
-2750.74 -594.026 3898
-2773.77 -601.036 3944
-2797.29 -608.199 3991
-2787.74 -608.199 3991
-2798.39 -612.618 4020
-2788.77 -612.618 4020
-2779.16 -612.618 4020
-2769.55 -612.618 4020
-2759.93 -612.618 4020
-2724.32 -606.827 3982
-2714.8 -606.827 3982
-2705.28 -606.827 3982
-2695.76 -606.827 3982
-2660.6 -601.036 3944
-2651.17 -601.036 3944
-2629.01 -598.141 3925
-2613.62 -596.769 3916
-2660.78 -609.723 4001
-2676.39 -615.513 4039
-2666.73 -615.513 4039
-2657.08 -615.513 4039
-1467.12 -566.291 3716
-1458.23 -566.291 3716
-1449.35 -566.291 3716
-1433.87 -563.7 3699
-1428.11 -564.919 3707
-1419.24 -564.919 3707
-1410.38 -564.919 3707
-1401.51 -564.919 3707
-1386.64 -562.481 3691
-1362.51 -556.233 3650
-1363.05 -560.043 3675
-1354.26 -560.043 3675
-1348.41 -561.262 3683
-1339.6 -561.262 3683
-1330.79 -561.262 3683
-1321.98 -561.262 3683
-1313.18 -561.262 3683
-1307.2 -562.481 3691
-1304 -564.919 3707
-1298.28 -566.291 3716
-1289.4 -566.291 3716
-1280.51 -566.291 3716
-1274.36 -567.51 3724
-1268.18 -568.729 3732
-1259.25 -568.729 3732
-1261.72 -573.91 3766
-1252.71 -573.91 3766
-1243.71 -573.91 3766
-1226.18 -569.948 3740
-1214.63 -568.729 3732
-1222.18 -576.501 3783
-1216.02 -577.872 3792
-1206.96 -577.872 3792
-1197.89 -577.872 3792
-1188.82 -577.872 3792
-1179.75 -577.872 3792
-305.342 -485.218 3184
-297.728 -485.218 3184
-290.114 -485.218 3184
-284.097 -487.961 3202
-276.44 -487.961 3202
-268.783 -487.961 3202
-261.126 -487.961 3202
-253.469 -487.961 3202
-245.812 -487.961 3202
-238.155 -487.961 3202
-230.066 -487.047 3196
-222.006 -486.132 3190
-214.378 -486.132 3190
-207.916 -488.875 3208
-200.245 -488.875 3208
-192.574 -488.875 3208
-184.902 -488.875 3208
-116.515 -321.396 2109
-111.472 -321.396 2109
-106.429 -321.396 2109
-101.145 -320.634 2104
-96.1137 -320.634 2104
-90.8227 -319.72 2098
-85.6012 -318.958 2093
-80.4037 -318.196 2088
-75.4106 -318.196 2088
-70.0804 -316.672 2078
-64.6099 -314.233 2062
-59.4764 -313.167 2055
-54.3499 -311.948 2047
-49.4549 -311.948 2047
-44.451 -311.186 2042
-39.4711 -310.424 2037
-34.6 -310.424 2037
-29.729 -310.424 2037
-24.8579 -310.424 2037
-19.9868 -310.424 2037
-15.1157 -310.424 2037
-10.2949 -311.948 2047
-5.39991 -311.948 2047
-0.506889 -313.167 2055
4.42225 -314.233 2062
9.36673 -314.691 2065
14.3048 -314.691 2065
19.308 -315.757 2072
24.3565 -316.976 2080
29.3727 -317.434 2083
34.3538 -317.434 2083
39.486 -318.653 2091
44.5287 -318.958 2093
49.652 -319.72 2098
54.669 -319.72 2098
59.7713 -320.177 2101
64.8879 -320.634 2104
69.9857 -320.939 2106
75.0218 -320.939 2106
80.1719 -321.396 2109
85.2152 -321.396 2109
90.2584 -321.396 2109
95.3017 -321.396 2109
100.345 -321.396 2109
105.388 -321.396 2109
110.17 -320.634 2104
115.201 -320.634 2104
120.232 -320.634 2104
125.383 -320.939 2106
130.419 -320.939 2106
135.648 -321.396 2109
140.691 -321.396 2109
146.08 -322.158 2114
151.349 -322.615 2117
156.634 -323.072 2120
161.703 -323.072 2120
167.166 -323.834 2125
172.734 -324.749 2131
178.247 -325.51 2136
183.355 -325.51 2136
189.168 -326.73 2144
195.111 -328.101 2153
201.004 -329.32 2161
206.171 -329.32 2161
211.926 -330.235 2167
217.108 -330.235 2167
224.239 -333.13 2186
229.466 -333.13 2186
235.982 -334.959 2198
242.225 -336.33 2207
249.41 -338.921 2224
254.728 -338.921 2224
261.098 -340.293 2233
267.512 -341.664 2242
273.969 -343.036 2251
279.352 -343.036 2251
285.114 -343.493 2254
290.891 -343.95 2257
296.288 -343.95 2257
301.685 -343.95 2257
509.701 -551.509 3619
519.501 -552.728 3627
528.174 -552.728 3627
540.252 -556.233 3650
548.98 -556.233 3650
557.708 -556.233 3650
566.436 -556.233 3650
575.165 -556.233 3650
583.893 -556.233 3650
596.68 -560.043 3675
605.468 -560.043 3675
614.256 -560.043 3675
623.044 -560.043 3675
631.832 -560.043 3675
640.62 -560.043 3675
649.408 -560.043 3675
659.629 -561.262 3683
668.436 -561.262 3683
677.244 -561.262 3683
686.051 -561.262 3683
691.839 -558.823 3667
702.137 -560.043 3675
712.472 -561.262 3683
721.279 -561.262 3683
733.258 -563.7 3699
742.104 -563.7 3699
750.949 -563.7 3699
759.795 -563.7 3699
772.173 -566.291 3716
782.74 -567.51 3724
791.645 -567.51 3724
800.551 -567.51 3724
809.456 -567.51 3724
814.625 -564.919 3707
823.49 -564.919 3707
828.762 -562.481 3691
837.588 -562.481 3691
846.414 -562.481 3691
855.241 -562.481 3691
864.067 -562.481 3691
871.001 -561.262 3683
879.808 -561.262 3683
890.546 -562.481 3691
899.372 -562.481 3691
908.198 -562.481 3691
915.037 -561.262 3683
921.838 -560.043 3675
930.626 -560.043 3675
937.369 -558.823 3667
946.138 -558.823 3667
952.563 -557.452 3658
961.31 -557.452 3658
965.815 -555.014 3642
972.651 -553.947 3635
981.343 -553.947 3635
990.035 -553.947 3635
998.728 -553.947 3635
1007.42 -553.947 3635
1011.64 -551.509 3619
1020.29 -551.509 3619
1028.95 -551.509 3619
1037.6 -551.509 3619
1046.26 -551.509 3619
1057.24 -552.728 3627
1065.92 -552.728 3627
1074.59 -552.728 3627
1080.87 -551.509 3619
1084.71 -549.07 3603
1095.75 -550.289 3611
1104.39 -550.289 3611
1113.02 -550.289 3611
1121.66 -550.289 3611
1130.29 -550.289 3611
1138.93 -550.289 3611
1147.56 -550.289 3611
1156.2 -550.289 3611
1167.41 -551.509 3619
1176.07 -551.509 3619
1184.72 -551.509 3619
1193.38 -551.509 3619
1202.03 -551.509 3619
1210.68 -551.509 3619
1216.64 -550.289 3611
1222.56 -549.07 3603
1231.18 -549.07 3603
1239.8 -549.07 3603
1248.41 -549.07 3603
1257.03 -549.07 3603
1265.64 -549.07 3603
1274.26 -549.07 3603
1282.88 -549.07 3603
1291.49 -549.07 3603
1300.11 -549.07 3603
1308.72 -549.07 3603
1317.34 -549.07 3603
1325.95 -549.07 3603
1334.57 -549.07 3603
1343.19 -549.07 3603
1351.8 -549.07 3603
1357.4 -547.851 3595
1365.99 -547.851 3595
1374.59 -547.851 3595
1383.19 -547.851 3595
1391.78 -547.851 3595
1397.65 -546.784 3588
1406.23 -546.784 3588
1411.66 -545.565 3580
1417.05 -544.346 3572
1422.79 -543.279 3565
1428.11 -542.06 3557
1439.84 -543.279 3565
1448.37 -543.279 3565
1456.89 -543.279 3565
1468.3 -544.346 3572
1476.84 -544.346 3572
1485.38 -544.346 3572
1490.99 -543.279 3565
1499.52 -543.279 3565
1508.04 -543.279 3565
1513.17 -542.06 3557
1518.25 -540.841 3549
1523.73 -539.774 3542
1532.2 -539.774 3542
1527.62 -535.203 3512
-2756.6 -581.988 3880
-2747.32 -581.988 3880
-2750.74 -584.688 3898
-2773.77 -591.588 3944
-2797.29 -598.638 3991
-2787.74 -598.638 3991
-2798.39 -602.988 4020
-2795.71 -604.488 4030
-2786.07 -604.488 4030
-2776.44 -604.488 4030
-2759.93 -602.988 4020
-2743.48 -601.488 4010
-2733.89 -601.488 4010
-2711.39 -598.638 3991
-2695.76 -597.288 3982
-2660.6 -591.588 3944
-2651.17 -591.588 3944
-2629.01 -588.738 3925
-2613.62 -587.388 3916
-2660.78 -600.138 4001
-2676.39 -605.838 4039
-2666.73 -605.838 4039
-2657.08 -605.838 4039
-1467.12 -557.389 3716
-1458.23 -557.389 3716
-1449.35 -557.389 3716
-1433.87 -554.839 3699
-1428.11 -556.039 3707
-1419.24 -556.039 3707
-1410.38 -556.039 3707
-1401.51 -556.039 3707
-1386.64 -553.639 3691
-1365.49 -548.689 3658
-1363.05 -551.239 3675
-1354.26 -551.239 3675
-1348.41 -552.439 3683
-1339.6 -552.439 3683
-1330.79 -552.439 3683
-1324.86 -553.639 3691
-1316.03 -553.639 3691
-1310.04 -554.839 3699
-1304 -556.039 3707
-1298.28 -557.389 3716
-1289.4 -557.389 3716
-1286.03 -559.789 3732
-1277.1 -559.789 3732
-1279.73 -564.889 3766
-1270.73 -564.889 3766
-1261.72 -564.889 3766
-1252.71 -564.889 3766
-1243.71 -564.889 3766
-1229.13 -562.339 3749
-1217.23 -560.989 3740
-1227.68 -569.989 3800
-1241.36 -580.638 3871
-1232.1 -580.638 3871
-1228.53 -583.338 3889
-1219.23 -583.338 3889
-1209.93 -583.338 3889
-315.315 -481.19 3208
-307.643 -481.19 3208
-299.972 -481.19 3208
-290.661 -478.491 3190
-284.097 -480.29 3202
-276.44 -480.29 3202
-268.783 -480.29 3202
-261.126 -480.29 3202
-253.469 -480.29 3202
-245.812 -480.29 3202
-238.155 -480.29 3202
-230.066 -479.391 3196
-222.006 -478.491 3190
-214.378 -478.491 3190
-207.916 -481.19 3208
-200.245 -481.19 3208
-192.574 -481.19 3208
-184.902 -481.19 3208
-116.515 -316.344 2109
-111.472 -316.344 2109
-106.429 -316.344 2109
-101.145 -315.594 2104
-96.1137 -315.594 2104
-90.8227 -314.694 2098
-85.6012 -313.944 2093
-80.4037 -313.194 2088
-75.4106 -313.194 2088
-70.0804 -311.694 2078
-64.6099 -309.294 2062
-59.4764 -308.244 2055
-54.3499 -307.044 2047
-49.4549 -307.044 2047
-44.451 -306.294 2042
-39.4711 -305.544 2037
-34.6 -305.544 2037
-29.729 -305.544 2037
-24.8579 -305.544 2037
-19.9868 -305.544 2037
-15.1157 -305.544 2037
-10.2949 -307.044 2047
-5.39991 -307.044 2047
-0.506889 -308.244 2055
4.42225 -309.294 2062
9.36673 -309.744 2065
14.3048 -309.744 2065
19.308 -310.794 2072
24.3565 -311.994 2080
29.3727 -312.444 2083
34.3538 -312.444 2083
39.486 -313.644 2091
44.5287 -313.944 2093
49.652 -314.694 2098
54.669 -314.694 2098
59.7713 -315.144 2101
64.8879 -315.594 2104
69.9857 -315.894 2106
75.0218 -315.894 2106
80.1719 -316.344 2109
85.2152 -316.344 2109
90.2584 -316.344 2109
95.3017 -316.344 2109
100.345 -316.344 2109
105.388 -316.344 2109
110.17 -315.594 2104
115.201 -315.594 2104
120.232 -315.594 2104
125.383 -315.894 2106
130.419 -315.894 2106
135.648 -316.344 2109
140.691 -316.344 2109
146.08 -317.094 2114
151.564 -317.994 2120
156.634 -317.994 2120
161.703 -317.994 2120
167.402 -319.194 2128
172.896 -319.944 2133
178.247 -320.394 2136
183.355 -320.394 2136
189.168 -321.594 2144
195.111 -322.944 2153
201.004 -324.144 2161
206.171 -324.144 2161
211.926 -325.044 2167
217.108 -325.044 2167
224.239 -327.893 2186
229.466 -327.893 2186
235.982 -329.693 2198
242.225 -331.043 2207
249.41 -333.593 2224
254.728 -333.593 2224
261.098 -334.943 2233
267.512 -336.293 2242
273.969 -337.643 2251
279.352 -337.643 2251
285.114 -338.093 2254
290.891 -338.543 2257
474.034 -541.639 3611
482.669 -541.639 3611
491.304 -541.639 3611
501.047 -542.839 3619
510.827 -544.039 3627
520.647 -545.239 3635
529.339 -545.239 3635
540.252 -547.489 3650
548.98 -547.489 3650
557.708 -547.489 3650
566.436 -547.489 3650
575.165 -547.489 3650
583.893 -547.489 3650
596.68 -551.239 3675
605.468 -551.239 3675
614.256 -551.239 3675
623.044 -551.239 3675
631.832 -551.239 3675
640.62 -551.239 3675
649.408 -551.239 3675
659.629 -552.439 3683
668.436 -552.439 3683
677.244 -552.439 3683
686.051 -552.439 3683
691.839 -550.039 3667
702.137 -551.239 3675
712.472 -552.439 3683
721.279 -552.439 3683
733.258 -554.839 3699
742.104 -554.839 3699
750.949 -554.839 3699
759.795 -554.839 3699
772.173 -557.389 3716
782.74 -558.589 3724
791.645 -558.589 3724
800.551 -558.589 3724
809.456 -558.589 3724
814.625 -556.039 3707
823.49 -556.039 3707
830.558 -554.839 3699
839.403 -554.839 3699
846.414 -553.639 3691
855.241 -553.639 3691
864.067 -553.639 3691
871.001 -552.439 3683
879.808 -552.439 3683
890.546 -553.639 3691
899.372 -553.639 3691
908.198 -553.639 3691
915.037 -552.439 3683
921.838 -551.239 3675
930.626 -551.239 3675
937.369 -550.039 3667
946.138 -550.039 3667
952.563 -548.689 3658
961.31 -548.689 3658
965.815 -546.289 3642
972.651 -545.239 3635
981.343 -545.239 3635
990.035 -545.239 3635
998.728 -545.239 3635
1007.42 -545.239 3635
1011.64 -542.839 3619
1020.29 -542.839 3619
1028.95 -542.839 3619
1037.6 -542.839 3619
1046.26 -542.839 3619
1057.24 -544.039 3627
1065.92 -544.039 3627
1074.59 -544.039 3627
1080.87 -542.839 3619
1084.71 -540.439 3603
1095.75 -541.639 3611
1104.39 -541.639 3611
1113.02 -541.639 3611
1121.66 -541.639 3611
1130.29 -541.639 3611
1138.93 -541.639 3611
1147.56 -541.639 3611
1156.2 -541.639 3611
1167.41 -542.839 3619
1176.07 -542.839 3619
1184.72 -542.839 3619
1193.38 -542.839 3619
1202.03 -542.839 3619
1210.68 -542.839 3619
1216.64 -541.639 3611
1222.56 -540.439 3603
1231.18 -540.439 3603
1239.8 -540.439 3603
1248.41 -540.439 3603
1257.03 -540.439 3603
1265.64 -540.439 3603
1274.26 -540.439 3603
1282.88 -540.439 3603
1291.49 -540.439 3603
1300.11 -540.439 3603
1308.72 -540.439 3603
1317.34 -540.439 3603
1325.95 -540.439 3603
1334.57 -540.439 3603
1343.19 -540.439 3603
1351.8 -540.439 3603
1357.4 -539.239 3595
1369.03 -540.439 3603
1377.65 -540.439 3603
1386.27 -540.439 3603
1394.88 -540.439 3603
1397.65 -538.189 3588
1406.23 -538.189 3588
1411.66 -536.989 3580
1420.22 -536.989 3580
1425.59 -535.789 3572
1431.32 -534.739 3565
1442.67 -535.789 3572
1451.21 -535.789 3572
1459.76 -535.789 3572
1471.59 -536.989 3580
1480.15 -536.989 3580
1488.71 -536.989 3580
1497.27 -536.989 3580
1505.83 -536.989 3580
1514.39 -536.989 3580
1516.57 -534.739 3565
1525.09 -534.739 3565
1526.74 -532.339 3549
1535.22 -532.339 3549
1543.71 -532.339 3549
-2744.39 -574.022 3889
-2741.42 -575.351 3898
-2790.98 -587.749 3982
-2781.46 -587.749 3982
-2798.39 -593.358 4020
-2795.71 -594.834 4030
-2786.07 -594.834 4030
-2776.44 -594.834 4030
-2759.93 -593.358 4020
-2743.48 -591.882 4010
-2733.89 -591.882 4010
-2711.39 -589.078 3991
-2682.89 -584.945 3963
-2660.6 -582.14 3944
-2651.17 -582.14 3944
-2622.98 -578.008 3916
-2595.6 -574.022 3889
-2660.78 -590.554 4001
-2676.39 -596.163 4039
-2666.73 -596.163 4039
-2657.08 -596.163 4039
-1442.14 -542.436 3675
-1436.48 -543.616 3683
-1427.67 -543.616 3683
-1425.03 -545.978 3699
-1416.18 -545.978 3699
-1407.34 -545.978 3699
-1398.49 -545.978 3699
-1386.64 -544.797 3691
-1365.49 -539.926 3658
-1360.09 -541.255 3667
-1351.32 -541.255 3667
-1348.41 -543.616 3683
-1339.6 -543.616 3683
-1330.79 -543.616 3683
-1324.86 -544.797 3691
-1316.03 -544.797 3691
-1310.04 -545.978 3699
-1304 -547.159 3707
-1298.28 -548.487 3716
-1289.4 -548.487 3716
-1286.03 -550.849 3732
-1277.1 -550.849 3732
-1279.73 -555.867 3766
-1270.73 -555.867 3766
-1261.72 -555.867 3766
-1252.71 -555.867 3766
-1243.71 -555.867 3766
-1229.13 -553.358 3749
-1217.23 -552.03 3740
-1227.68 -560.886 3800
-1241.36 -571.365 3871
-1232.1 -571.365 3871
-1228.53 -574.022 3889
-1219.23 -574.022 3889
-1209.93 -574.022 3889
-315.315 -473.506 3208
-307.643 -473.506 3208
-299.972 -473.506 3208
-290.661 -470.849 3190
-282.5 -469.963 3184
-274.886 -469.963 3184
-268.279 -471.734 3196
-260.637 -471.734 3196
-252.994 -471.734 3196
-244.43 -469.963 3184
-236.817 -469.963 3184
-229.203 -469.963 3184
-221.171 -469.078 3178
-213.572 -469.078 3178
-206.75 -470.849 3190
-199.496 -471.734 3196
-191.853 -471.734 3196
-184.211 -471.734 3196
-116.239 -310.554 2104
-111.208 -310.554 2104
-106.176 -310.554 2104
-100.857 -309.668 2098
-95.8396 -309.668 2098
-90.7361 -309.373 2096
-85.3967 -308.192 2088
-80.0956 -307.011 2080
-75.1217 -307.011 2080
-69.9792 -306.273 2075
-64.6099 -304.354 2062
-59.3896 -302.878 2052
-54.2702 -301.698 2044
-49.3824 -301.698 2044
-44.3422 -300.664 2037
-39.413 -300.221 2034
-34.5491 -300.221 2034
-29.6852 -300.221 2034
-24.8213 -300.221 2034
-19.9574 -300.221 2034
-15.1157 -300.664 2037
-10.2949 -302.14 2047
-5.39991 -302.14 2047
-0.506889 -303.321 2055
4.42225 -304.354 2062
9.36673 -304.797 2065
14.3048 -304.797 2065
19.308 -305.83 2072
24.3565 -307.011 2080
29.3727 -307.454 2083
34.3538 -307.454 2083
39.486 -308.635 2091
44.5287 -308.93 2093
49.652 -309.668 2098
54.669 -309.668 2098
59.7713 -310.111 2101
64.8879 -310.554 2104
69.9857 -310.849 2106
75.0218 -310.849 2106
80.1719 -311.292 2109
85.2152 -311.292 2109
90.2584 -311.292 2109
95.3017 -311.292 2109
100.345 -311.292 2109
105.238 -310.849 2106
110.17 -310.554 2104
115.201 -310.554 2104
120.232 -310.554 2104
125.383 -310.849 2106
130.419 -310.849 2106
135.648 -311.292 2109
140.691 -311.292 2109
146.08 -312.03 2114
151.564 -312.915 2120
156.634 -312.915 2120
161.703 -312.915 2120
167.402 -314.096 2128
172.896 -314.834 2133
178.247 -315.277 2136
183.355 -315.277 2136
188.992 -316.162 2142
194.839 -317.343 2150
201.004 -318.967 2161
206.171 -318.967 2161
211.926 -319.852 2167
217.108 -319.852 2167
224.239 -322.657 2186
229.466 -322.657 2186
235.982 -324.428 2198
242.225 -325.757 2207
249.41 -328.266 2224
254.728 -328.266 2224
260.397 -328.709 2227
267.154 -330.48 2239
272.873 -330.923 2242
278.235 -330.923 2242
284.734 -332.251 2251
290.504 -332.694 2254
474.034 -532.989 3611
482.669 -532.989 3611
491.304 -532.989 3611
501.047 -534.17 3619
510.827 -535.351 3627
520.647 -536.531 3635
529.339 -536.531 3635
540.252 -538.746 3650
548.98 -538.746 3650
557.708 -538.746 3650
566.436 -538.746 3650
575.165 -538.746 3650
583.893 -538.746 3650
595.381 -541.255 3667
604.15 -541.255 3667
614.256 -542.436 3675
623.044 -542.436 3675
631.832 -542.436 3675
640.62 -542.436 3675
649.408 -542.436 3675
658.196 -542.436 3675
666.984 -542.436 3675
674.301 -541.255 3667
683.07 -541.255 3667
691.839 -541.255 3667
700.608 -541.255 3667
709.377 -541.255 3667
718.146 -541.255 3667
728.501 -542.436 3675
738.894 -543.616 3683
747.701 -543.616 3683
756.508 -543.616 3683
772.173 -548.487 3716
782.74 -549.668 3724
791.645 -549.668 3724
800.551 -549.668 3724
809.456 -549.668 3724
814.625 -547.159 3707
823.49 -547.159 3707
830.558 -545.978 3699
839.403 -545.978 3699
846.414 -544.797 3691
855.241 -544.797 3691
862.194 -543.616 3683
871.001 -543.616 3683
879.808 -543.616 3683
888.616 -543.616 3683
897.423 -543.616 3683
906.23 -543.616 3683
915.037 -543.616 3683
919.831 -541.255 3667
928.6 -541.255 3667
935.068 -539.926 3658
943.815 -539.926 3658
950.48 -538.746 3650
959.208 -538.746 3650
963.958 -536.531 3635
972.651 -536.531 3635
981.343 -536.531 3635
990.035 -536.531 3635
998.728 -536.531 3635
1005.2 -535.351 3627
1011.64 -534.17 3619
1020.29 -534.17 3619
1026.67 -532.989 3611
1035.31 -532.989 3611
1046.26 -534.17 3619
1054.91 -534.17 3619
1063.56 -534.17 3619
1072.22 -534.17 3619
1080.87 -534.17 3619
1084.71 -531.808 3603
1095.75 -532.989 3611
1104.39 -532.989 3611
1113.02 -532.989 3611
1121.66 -532.989 3611
1130.29 -532.989 3611
1138.93 -532.989 3611
1147.56 -532.989 3611
1156.2 -532.989 3611
1164.83 -532.989 3611
1173.47 -532.989 3611
1182.1 -532.989 3611
1190.74 -532.989 3611
1199.37 -532.989 3611
1208.01 -532.989 3611
1213.95 -531.808 3603
1222.56 -531.808 3603
1231.18 -531.808 3603
1239.8 -531.808 3603
1248.41 -531.808 3603
1257.03 -531.808 3603
1265.64 -531.808 3603
1274.26 -531.808 3603
1282.88 -531.808 3603
1291.49 -531.808 3603
1300.11 -531.808 3603
1308.72 -531.808 3603
1317.34 -531.808 3603
1325.95 -531.808 3603
1334.57 -531.808 3603
1343.19 -531.808 3603
1351.8 -531.808 3603
1357.4 -530.627 3595
1369.03 -531.808 3603
1377.65 -531.808 3603
1386.27 -531.808 3603
1394.88 -531.808 3603
1397.65 -529.594 3588
1406.23 -529.594 3588
1411.66 -528.413 3580
1420.22 -528.413 3580
1425.59 -527.233 3572
1431.32 -526.199 3565
1442.67 -527.233 3572
1451.21 -527.233 3572
1459.76 -527.233 3572
1471.59 -528.413 3580
1480.15 -528.413 3580
1488.71 -528.413 3580
1497.27 -528.413 3580
1505.83 -528.413 3580
1514.39 -528.413 3580
1516.57 -526.199 3565
1525.09 -526.199 3565
1526.74 -523.838 3549
1535.22 -523.838 3549
1543.71 -523.838 3549
-2741.42 -566.013 3898
-2790.98 -578.21 3982
-2781.46 -578.21 3982
-2798.39 -583.728 4020
-2795.71 -585.18 4030
-2786.07 -585.18 4030
-2776.44 -585.18 4030
-2759.93 -583.728 4020
-2743.48 -582.276 4010
-2733.89 -582.276 4010
-2711.39 -579.517 3991
-2682.89 -575.451 3963
-2647.78 -569.934 3925
-2638.4 -569.934 3925
-2616.95 -567.32 3907
-2595.6 -564.706 3889
-2635.51 -575.451 3963
-2676.39 -586.487 4039
-2666.73 -586.487 4039
-2657.08 -586.487 4039
-1457.25 -535.955 3691
-1448.42 -535.955 3691
-1439.6 -535.955 3691
-1427.67 -534.794 3683
-1421.94 -535.955 3691
-1413.12 -535.955 3691
-1404.29 -535.955 3691
-1395.47 -535.955 3691
-1383.63 -534.794 3683
-1365.49 -531.164 3658
-1360.09 -532.47 3667
-1351.32 -532.47 3667
-1348.41 -534.794 3683
-1339.6 -534.794 3683
-1330.79 -534.794 3683
-1324.86 -535.955 3691
-1316.03 -535.955 3691
-1310.04 -537.117 3699
-1304 -538.279 3707
-1303.87 -541.909 3732
-1294.95 -541.909 3732
-1286.03 -541.909 3732
-1279.84 -543.07 3740
-1282.45 -548.008 3774
-1273.42 -548.008 3774
-1264.4 -548.008 3774
-1255.38 -548.008 3774
-1246.35 -548.008 3774
-1229.13 -544.377 3749
-1217.23 -543.07 3740
-1238.98 -556.865 3835
-1250.02 -566.013 3898
-1240.69 -566.013 3898
-1245.9 -572.693 3944
-1236.47 -572.693 3944
-1227.04 -572.693 3944
-315.315 -465.821 3208
-307.643 -465.821 3208
-299.972 -465.821 3208
-291.754 -464.95 3202
-283.032 -463.207 3190
-275.404 -463.207 3190
-267.776 -463.207 3190
-260.148 -463.207 3190
-252.519 -463.207 3190
-244.891 -463.207 3190
-237.263 -463.207 3190
-229.635 -463.207 3190
-221.171 -461.465 3178
-213.572 -461.465 3178
-206.361 -462.336 3184
-198.747 -462.336 3184
-191.133 -462.336 3184
-183.519 -462.336 3184
-115.907 -304.642 2098
-110.89 -304.642 2098
-105.874 -304.642 2098
-100.616 -303.916 2093
-95.6112 -303.916 2093
-90.2599 -302.755 2085
-85.0695 -302.029 2080
-79.9031 -301.302 2075
-74.9411 -301.302 2075
-69.5408 -299.415 2062
-64.3905 -298.398 2055
-59.1581 -296.801 2044
-54.0047 -295.349 2034
-49.1408 -295.349 2034
-44.2334 -295.059 2032
-39.3742 -295.059 2032
-34.5151 -295.059 2032
-29.6852 -295.349 2034
-24.8213 -295.349 2034
-19.9574 -295.349 2034
-15.1305 -296.075 2039
-10.2798 -296.801 2044
-5.392 -296.801 2044
-0.507383 -298.689 2057
4.42225 -299.415 2062
9.3758 -300.141 2067
14.3186 -300.141 2067
19.3639 -301.738 2078
24.3916 -302.464 2083
29.4009 -302.755 2085
34.3868 -302.755 2085
39.5237 -303.916 2093
44.5925 -304.352 2096
49.723 -305.078 2101
54.7472 -305.078 2101
59.8566 -305.513 2104
64.8879 -305.513 2104
69.9857 -305.804 2106
75.0218 -305.804 2106
80.1719 -306.239 2109
85.2152 -306.239 2109
90.2584 -306.239 2109
95.3017 -306.239 2109
100.202 -305.804 2106
105.238 -305.804 2106
110.17 -305.513 2104
115.201 -305.513 2104
120.232 -305.513 2104
125.264 -305.513 2104
130.419 -305.804 2106
135.648 -306.239 2109
140.691 -306.239 2109
146.08 -306.966 2114
151.564 -307.837 2120
156.634 -307.837 2120
161.703 -307.837 2120
167.402 -308.998 2128
172.896 -309.724 2133
178.247 -310.16 2136
183.355 -310.16 2136
188.992 -311.031 2142
194.839 -312.193 2150
201.004 -313.79 2161
206.171 -313.79 2161
211.632 -314.226 2164
217.108 -314.661 2167
224.033 -317.13 2184
229.256 -317.13 2184
235.66 -318.727 2195
241.567 -319.598 2201
248.4 -321.631 2215
253.697 -321.631 2215
260.046 -322.938 2224
265.722 -323.374 2227
271.413 -323.809 2230
276.745 -323.809 2230
283.596 -325.552 2242
464.368 -523.177 3603
474.034 -524.339 3611
482.669 -524.339 3611
491.304 -524.339 3611
501.047 -525.501 3619
510.827 -526.662 3627
520.647 -527.824 3635
529.339 -527.824 3635
539.067 -528.84 3642
548.98 -530.002 3650
557.708 -530.002 3650
566.436 -530.002 3650
575.165 -530.002 3650
583.893 -530.002 3650
593.92 -531.164 3658
602.667 -531.164 3658
612.919 -532.47 3667
621.688 -532.47 3667
630.457 -532.47 3667
639.226 -532.47 3667
649.408 -533.632 3675
658.196 -533.632 3675
666.984 -533.632 3675
674.301 -532.47 3667
683.07 -532.47 3667
691.839 -532.47 3667
700.608 -532.47 3667
710.925 -533.632 3675
719.713 -533.632 3675
733.258 -537.117 3699
745.514 -539.586 3716
754.4 -539.586 3716
763.286 -539.586 3716
773.835 -540.747 3724
782.74 -540.747 3724
791.645 -540.747 3724
800.551 -540.747 3724
809.456 -540.747 3724
816.603 -539.586 3716
825.489 -539.586 3716
834.375 -539.586 3716
841.219 -538.279 3707
850.083 -538.279 3707
858.948 -538.279 3707
864.067 -535.955 3691
871.001 -534.794 3683
879.808 -534.794 3683
888.616 -534.794 3683
897.423 -534.794 3683
906.23 -534.794 3683
913.05 -533.632 3675
917.573 -531.164 3658
926.321 -531.164 3658
935.068 -531.164 3658
941.751 -530.002 3650
948.396 -528.84 3642
957.106 -528.84 3642
963.958 -527.824 3635
970.51 -526.662 3627
979.183 -526.662 3627
987.857 -526.662 3627
996.53 -526.662 3627
1002.99 -525.501 3619
1009.4 -524.339 3611
1018.04 -524.339 3611
1026.67 -524.339 3611
1035.31 -524.339 3611
1043.94 -524.339 3611
1054.91 -525.501 3619
1063.56 -525.501 3619
1072.22 -525.501 3619
1080.87 -525.501 3619
1087.12 -524.339 3611
1095.75 -524.339 3611
1104.39 -524.339 3611
1113.02 -524.339 3611
1121.66 -524.339 3611
1130.29 -524.339 3611
1138.93 -524.339 3611
1147.56 -524.339 3611
1156.2 -524.339 3611
1164.83 -524.339 3611
1173.47 -524.339 3611
1182.1 -524.339 3611
1190.74 -524.339 3611
1199.37 -524.339 3611
1205.33 -523.177 3603
1213.95 -523.177 3603
1222.56 -523.177 3603
1231.18 -523.177 3603
1239.8 -523.177 3603
1248.41 -523.177 3603
1257.03 -523.177 3603
1265.64 -523.177 3603
1274.26 -523.177 3603
1282.88 -523.177 3603
1291.49 -523.177 3603
1300.11 -523.177 3603
1308.72 -523.177 3603
1317.34 -523.177 3603
1325.95 -523.177 3603
1334.57 -523.177 3603
1343.19 -523.177 3603
1351.8 -523.177 3603
1357.4 -522.016 3595
1369.03 -523.177 3603
1377.65 -523.177 3603
1386.27 -523.177 3603
1394.88 -523.177 3603
1397.65 -520.999 3588
1406.23 -520.999 3588
1411.66 -519.838 3580
1420.22 -519.838 3580
1425.59 -518.676 3572
1434.13 -518.676 3572
1442.67 -518.676 3572
1451.21 -518.676 3572
1459.76 -518.676 3572
1471.59 -519.838 3580
1480.15 -519.838 3580
1488.71 -519.838 3580
1497.27 -519.838 3580
1505.83 -519.838 3580
1514.39 -519.838 3580
1522.95 -519.838 3580
1528.09 -518.676 3572
1536.63 -518.676 3572
1545.17 -518.676 3572
1553.71 -518.676 3572
1559.19 -517.659 3565
-2735.09 -555.39 3889
-2764.34 -563.245 3944
-2754.91 -563.245 3944
-2778.2 -569.957 3991
-2788.77 -574.098 4020
-2779.16 -574.098 4020
-2769.55 -574.098 4020
-2753.07 -572.67 4010
-2743.48 -572.67 4010
-2733.89 -572.67 4010
-2705.28 -568.671 3982
-2682.89 -565.958 3963
-2647.78 -560.531 3925
-2638.4 -560.531 3925
-1457.25 -527.114 3691
-1448.42 -527.114 3691
-1439.6 -527.114 3691
-1421.47 -523.686 3667
-1418.86 -525.971 3683
-1410.06 -525.971 3683
-1401.25 -525.971 3683
-1392.44 -525.971 3683
-1380.63 -524.829 3675
-1365.49 -522.401 3658
-1360.09 -523.686 3667
-1351.32 -523.686 3667
-1345.48 -524.829 3675
-1339.6 -525.971 3683
-1330.79 -525.971 3683
-1324.86 -527.114 3691
-1316.03 -527.114 3691
-1310.04 -528.256 3699
-1307.17 -530.684 3716
-1303.87 -532.969 3732
-1294.95 -532.969 3732
-1288.78 -534.111 3740
-1282.92 -535.397 3749
-1288.57 -541.537 3792
-1279.5 -541.537 3792
-1270.43 -541.537 3792
-1261.36 -541.537 3792
-1252.29 -541.537 3792
-1229.13 -535.397 3749
-1217.23 -534.111 3740
-1238.98 -547.678 3835
-1264.77 -563.245 3944
-1255.34 -563.245 3944
-1251.91 -565.958 3963
-1242.43 -565.958 3963
-1232.95 -565.958 3963
-333.234 -461.706 3233
-325.503 -461.706 3233
-317.772 -461.706 3233
-310.041 -461.706 3233
-302.31 -461.706 3233
-293.485 -459.993 3221
-284.097 -457.279 3202
-275.922 -456.422 3196
-268.279 -456.422 3196
-260.637 -456.422 3196
-252.994 -456.422 3196
-245.352 -456.422 3196
-237.709 -456.422 3196
-230.066 -456.422 3196
-222.006 -455.565 3190
-214.378 -455.565 3190
-206.361 -454.709 3184
-198.747 -454.709 3184
-191.133 -454.709 3184
-183.519 -454.709 3184
-115.079 -297.474 2083
-110.098 -297.474 2083
-105.117 -297.474 2083
-100.135 -297.474 2083
-95.1544 -297.474 2083
-89.6971 -295.903 2072
-84.5378 -295.189 2067
-79.4025 -294.475 2062
-74.4716 -294.475 2062
-69.3047 -293.476 2055
-64.0459 -291.905 2044
-58.8686 -290.477 2034
-53.8985 -289.905 2030
-49.0442 -289.905 2030
-44.081 -289.191 2025
-39.2774 -289.477 2027
-34.4811 -289.905 2030
-29.656 -290.191 2032
-24.7969 -290.191 2032
-19.9868 -290.905 2037
-15.1528 -291.619 2042
-10.3201 -293.047 2052
-5.4131 -293.047 2052
-0.508616 -294.475 2062
4.43297 -295.189 2067
9.39848 -295.903 2072
14.3533 -295.903 2072
19.3826 -297.046 2080
24.415 -297.76 2085
29.4432 -298.188 2088
34.4363 -298.188 2088
39.5804 -299.331 2096
44.6351 -299.616 2098
49.723 -300.045 2101
54.7472 -300.045 2101
59.8566 -300.473 2104
64.8879 -300.473 2104
69.9857 -300.759 2106
75.0218 -300.759 2106
80.1719 -301.187 2109
85.2152 -301.187 2109
90.2584 -301.187 2109
95.3017 -301.187 2109
100.202 -300.759 2106
105.238 -300.759 2106
110.17 -300.473 2104
115.201 -300.473 2104
120.232 -300.473 2104
125.264 -300.473 2104
130.295 -300.473 2104
135.648 -301.187 2109
140.691 -301.187 2109
145.942 -301.616 2112
151.349 -302.33 2117
156.634 -302.758 2120
161.703 -302.758 2120
167.402 -303.901 2128
172.896 -304.615 2133
178.247 -305.043 2136
183.355 -305.043 2136
188.992 -305.9 2142
194.839 -307.043 2150
200.725 -308.185 2158
205.885 -308.185 2158
211.632 -309.042 2164
217.108 -309.47 2167
224.033 -311.898 2184
229.256 -311.898 2184
235.66 -313.469 2195
241.896 -314.754 2204
248.4 -316.325 2215
253.697 -316.325 2215
260.046 -317.611 2224
265.722 -318.039 2227
271.413 -318.467 2230
276.745 -318.467 2230
282.078 -318.467 2230
464.368 -514.546 3603
474.034 -515.689 3611
482.669 -515.689 3611
491.304 -515.689 3611
501.047 -516.831 3619
510.827 -517.974 3627
520.647 -519.116 3635
529.339 -519.116 3635
538.031 -519.116 3635
548.98 -521.258 3650
557.708 -521.258 3650
566.436 -521.258 3650
575.165 -521.258 3650
583.893 -521.258 3650
593.92 -522.401 3658
602.667 -522.401 3658
611.415 -522.401 3658
621.688 -523.686 3667
630.457 -523.686 3667
639.226 -523.686 3667
647.995 -523.686 3667
656.764 -523.686 3667
665.533 -523.686 3667
674.301 -523.686 3667
683.07 -523.686 3667
691.839 -523.686 3667
702.137 -524.829 3675
714.02 -527.114 3691
722.846 -527.114 3691
734.844 -529.399 3707
745.514 -530.684 3716
756.025 -531.826 3724
764.93 -531.826 3724
773.835 -531.826 3724
787.995 -535.397 3749
796.96 -535.397 3749
805.925 -535.397 3749
814.89 -535.397 3749
820.119 -532.969 3732
829.043 -532.969 3732
837.968 -532.969 3732
846.892 -532.969 3732
850.083 -529.399 3707
858.948 -529.399 3707
865.94 -528.256 3699
872.893 -527.114 3691
879.808 -525.971 3683
888.616 -525.971 3683
895.474 -524.829 3675
904.262 -524.829 3675
913.05 -524.829 3675
917.573 -522.401 3658
926.321 -522.401 3658
930.978 -520.116 3642
939.687 -520.116 3642
946.574 -519.116 3635
955.266 -519.116 3635
961.837 -517.974 3627
970.51 -517.974 3627
979.183 -517.974 3627
987.857 -517.974 3627
996.53 -517.974 3627
1002.99 -516.831 3619
1009.4 -515.689 3611
1018.04 -515.689 3611
1026.67 -515.689 3611
1035.31 -515.689 3611
1043.94 -515.689 3611
1054.91 -516.831 3619
1063.56 -516.831 3619
1072.22 -516.831 3619
1080.87 -516.831 3619
1087.12 -515.689 3611
1095.75 -515.689 3611
1104.39 -515.689 3611
1113.02 -515.689 3611
1121.66 -515.689 3611
1130.29 -515.689 3611
1138.93 -515.689 3611
1145.02 -514.546 3603
1153.64 -514.546 3603
1164.83 -515.689 3611
1173.47 -515.689 3611
1182.1 -515.689 3611
1188.1 -514.546 3603
1196.72 -514.546 3603
1205.33 -514.546 3603
1213.95 -514.546 3603
1222.56 -514.546 3603
1231.18 -514.546 3603
1239.8 -514.546 3603
1248.41 -514.546 3603
1257.03 -514.546 3603
1265.64 -514.546 3603
1274.26 -514.546 3603
1282.88 -514.546 3603
1291.49 -514.546 3603
1300.11 -514.546 3603
1308.72 -514.546 3603
1317.34 -514.546 3603
1325.95 -514.546 3603
1334.57 -514.546 3603
1343.19 -514.546 3603
1351.8 -514.546 3603
1357.4 -513.404 3595
1365.99 -513.404 3595
1374.59 -513.404 3595
1383.19 -513.404 3595
1391.78 -513.404 3595
1397.65 -512.404 3588
1406.23 -512.404 3588
1411.66 -511.262 3580
1420.22 -511.262 3580
1425.59 -510.119 3572
1434.13 -510.119 3572
1442.67 -510.119 3572
1451.21 -510.119 3572
1459.76 -510.119 3572
1471.59 -511.262 3580
1480.15 -511.262 3580
1488.71 -511.262 3580
1497.27 -511.262 3580
1505.83 -511.262 3580
1514.39 -511.262 3580
1522.95 -511.262 3580
1531.51 -511.262 3580
1540.07 -511.262 3580
1548.63 -511.262 3580
1553.71 -510.119 3572
1559.19 -509.119 3565
1560.68 -506.834 3549
-2735.09 -546.074 3889
-2764.34 -553.797 3944
-2754.91 -553.797 3944
-2778.2 -560.396 3991
-2788.77 -564.468 4020
-2779.16 -564.468 4020
-2769.55 -564.468 4020
-2753.07 -563.064 4010
-2743.48 -563.064 4010
-2733.89 -563.064 4010
-2705.28 -559.133 3982
-2682.89 -556.465 3963
-2647.78 -551.129 3925
-2638.4 -551.129 3925
-1457.25 -518.272 3691
-1448.42 -518.272 3691
-1439.6 -518.272 3691
-1421.47 -514.902 3667
-1418.86 -517.148 3683
-1413.12 -518.272 3691
-1404.29 -518.272 3691
-1395.47 -518.272 3691
-1383.63 -517.148 3683
-1365.49 -513.638 3658
-1360.09 -514.902 3667
-1351.32 -514.902 3667
-1345.48 -516.025 3675
-1339.6 -517.148 3683
-1330.79 -517.148 3683
-1324.86 -518.272 3691
-1316.03 -518.272 3691
-1321.72 -524.029 3732
-1312.8 -524.029 3732
-1309.81 -526.416 3749
-1300.85 -526.416 3749
-1291.88 -526.416 3749
-1291.47 -529.926 3774
-1288.57 -532.454 3792
-1279.5 -532.454 3792
-1273.11 -533.577 3800
-1264.02 -533.577 3800
-1254.94 -533.577 3800
-1240.28 -531.19 3783
-1231.23 -531.19 3783
-1241.89 -539.755 3844
-1273.75 -557.728 3972
-1264.25 -557.728 3972
-1254.75 -557.728 3972
-1257.16 -563.064 4010
-1247.58 -563.064 4010
-1237.99 -563.064 4010
-335.811 -457.472 3258
-328.02 -457.472 3258
-320.229 -457.472 3258
-311.287 -455.787 3246
-303.525 -455.787 3246
-294.579 -453.962 3233
-285.783 -452.277 3221
-278.08 -452.277 3221
-270.378 -452.277 3221
-261.616 -450.451 3208
-253.944 -450.451 3208
-246.273 -450.451 3208
-238.602 -450.451 3208
-230.93 -450.451 3208
-222.841 -449.609 3202
-214.781 -448.766 3196
-207.139 -448.766 3196
-199.496 -448.766 3196
-191.493 -447.924 3190
-183.865 -447.924 3190
-115.079 -292.484 2083
-110.098 -292.484 2083
-105.117 -292.484 2083
-100.135 -292.484 2083
-95.1544 -292.484 2083
-89.6971 -290.94 2072
-84.5378 -290.238 2067
-79.4025 -289.536 2062
-74.4716 -289.536 2062
-69.3047 -288.553 2055
-64.0459 -287.008 2044
-58.8686 -285.604 2034
-53.8985 -285.042 2030
-49.0442 -285.042 2030
-44.081 -284.34 2025
-39.2774 -284.621 2027
-34.4811 -285.042 2030
-29.656 -285.323 2032
-24.7969 -285.323 2032
-20.0358 -286.727 2042
-15.1676 -287.008 2044
-10.3201 -288.132 2052
-5.4131 -288.132 2052
-0.508616 -289.536 2062
4.43297 -290.238 2067
9.39848 -290.94 2072
14.3533 -290.94 2072
19.4105 -292.484 2083
24.415 -292.765 2085
29.4855 -293.608 2091
34.4857 -293.608 2091
39.5804 -294.31 2096
44.6989 -295.012 2101
49.794 -295.433 2104
54.8253 -295.433 2104
59.8566 -295.433 2104
64.9496 -295.714 2106
69.9857 -295.714 2106
75.0218 -295.714 2106
80.1719 -296.135 2109
85.2152 -296.135 2109
90.2584 -296.135 2109
95.3017 -296.135 2109
100.202 -295.714 2106
105.238 -295.714 2106
110.17 -295.433 2104
115.201 -295.433 2104
120.232 -295.433 2104
125.264 -295.433 2104
130.295 -295.433 2104
135.648 -296.135 2109
140.691 -296.135 2109
145.942 -296.556 2112
151.349 -297.259 2117
156.634 -297.68 2120
161.703 -297.68 2120
167.402 -298.803 2128
172.896 -299.505 2133
178.247 -299.926 2136
183.355 -299.926 2136
188.992 -300.769 2142
194.839 -301.892 2150
200.725 -303.016 2158
205.885 -303.016 2158
211.632 -303.858 2164
217.108 -304.279 2167
224.033 -306.666 2184
229.256 -306.666 2184
235.66 -308.211 2195
241.896 -309.475 2204
248.4 -311.019 2215
253.697 -311.019 2215
260.046 -312.283 2224
265.722 -312.704 2227
272.143 -313.968 2236
277.49 -313.968 2236
282.837 -313.968 2236
464.368 -505.915 3603
474.034 -507.039 3611
482.669 -507.039 3611
491.304 -507.039 3611
501.047 -508.162 3619
510.827 -509.285 3627
520.647 -510.409 3635
529.339 -510.409 3635
538.031 -510.409 3635
548.98 -512.515 3650
557.708 -512.515 3650
566.436 -512.515 3650
575.165 -512.515 3650
583.893 -512.515 3650
593.92 -513.638 3658
602.667 -513.638 3658
611.415 -513.638 3658
621.688 -514.902 3667
630.457 -514.902 3667
639.226 -514.902 3667
647.995 -514.902 3667
656.764 -514.902 3667
665.533 -514.902 3667
674.301 -514.902 3667
683.07 -514.902 3667
691.839 -514.902 3667
702.137 -516.025 3675
714.02 -518.272 3691
722.846 -518.272 3691
734.844 -520.518 3707
747.119 -522.905 3724
756.025 -522.905 3724
764.93 -522.905 3724
773.835 -522.905 3724
787.995 -526.416 3749
796.96 -526.416 3749
805.925 -526.416 3749
814.89 -526.416 3749
821.877 -525.152 3740
830.821 -525.152 3740
837.968 -524.029 3732
846.892 -524.029 3732
853.982 -522.905 3724
862.887 -522.905 3724
867.813 -520.518 3707
874.785 -519.395 3699
879.808 -517.148 3683
888.616 -517.148 3683
895.474 -516.025 3675
904.262 -516.025 3675
913.05 -516.025 3675
917.573 -513.638 3658
926.321 -513.638 3658
930.978 -511.391 3642
939.687 -511.391 3642
946.574 -510.409 3635
955.266 -510.409 3635
961.837 -509.285 3627
970.51 -509.285 3627
979.183 -509.285 3627
987.857 -509.285 3627
996.53 -509.285 3627
1002.99 -508.162 3619
1009.4 -507.039 3611
1018.04 -507.039 3611
1026.67 -507.039 3611
1035.31 -507.039 3611
1043.94 -507.039 3611
1054.91 -508.162 3619
1063.56 -508.162 3619
1072.22 -508.162 3619
1080.87 -508.162 3619
1087.12 -507.039 3611
1095.75 -507.039 3611
1104.39 -507.039 3611
1113.02 -507.039 3611
1121.66 -507.039 3611
1130.29 -507.039 3611
1138.93 -507.039 3611
1145.02 -505.915 3603
1153.64 -505.915 3603
1164.83 -507.039 3611
1173.47 -507.039 3611
1182.1 -507.039 3611
1188.1 -505.915 3603
1196.72 -505.915 3603
1205.33 -505.915 3603
1213.95 -505.915 3603
1222.56 -505.915 3603
1231.18 -505.915 3603
1239.8 -505.915 3603
1248.41 -505.915 3603
1257.03 -505.915 3603
1265.64 -505.915 3603
1274.26 -505.915 3603
1282.88 -505.915 3603
1291.49 -505.915 3603
1302.99 -507.039 3611
1311.63 -507.039 3611
1320.26 -507.039 3611
1328.9 -507.039 3611
1337.53 -507.039 3611
1346.17 -507.039 3611
1351.8 -505.915 3603
1357.4 -504.792 3595
1365.99 -504.792 3595
1374.59 -504.792 3595
1383.19 -504.792 3595
1391.78 -504.792 3595
1397.65 -503.809 3588
1406.23 -503.809 3588
1411.66 -502.686 3580
1420.22 -502.686 3580
1425.59 -501.562 3572
1434.13 -501.562 3572
1442.67 -501.562 3572
1451.21 -501.562 3572
1459.76 -501.562 3572
1471.59 -502.686 3580
1480.15 -502.686 3580
1488.71 -502.686 3580
1497.27 -502.686 3580
1505.83 -502.686 3580
1514.39 -502.686 3580
1522.95 -502.686 3580
1531.51 -502.686 3580
1540.07 -502.686 3580
1548.63 -502.686 3580
1553.71 -501.562 3572
1559.19 -500.579 3565
1560.68 -498.333 3549
-2764.34 -544.349 3944
-2754.91 -544.349 3944
-2778.2 -550.836 3991
-2781.84 -553.458 4010
-2772.25 -553.458 4010
-2762.66 -553.458 4010
-2746.89 -552.216 4001
-2737.32 -552.216 4001
-2727.75 -552.216 4001
-2692.37 -546.971 3963
-2670.03 -544.349 3944
-1457.25 -509.43 3691
-1448.42 -509.43 3691
-1439.6 -509.43 3691
-1421.47 -506.117 3667
-1415.78 -507.222 3675
-1413.12 -509.43 3691
-1404.29 -509.43 3691
-1395.47 -509.43 3691
-1383.63 -508.326 3683
-1365.49 -504.875 3658
-1356.75 -504.875 3658
-1348 -504.875 3658
-1345.48 -507.222 3675
-1339.6 -508.326 3683
-1330.79 -508.326 3683
-1324.86 -509.43 3691
-1316.03 -509.43 3691
-1321.72 -515.089 3732
-1312.8 -515.089 3732
-1309.81 -517.435 3749
-1300.85 -517.435 3749
-1291.88 -517.435 3749
-1291.47 -520.886 3774
-1288.57 -523.37 3792
-1279.5 -523.37 3792
-1273.11 -524.474 3800
-1264.02 -524.474 3800
-1254.94 -524.474 3800
-1240.28 -522.128 3783
-1231.23 -522.128 3783
-1241.89 -530.547 3844
-1273.75 -548.213 3972
-1264.25 -548.213 3972
-1254.75 -548.213 3972
-1257.16 -553.458 4010
-1247.58 -553.458 4010
-1237.99 -553.458 4010
-335.811 -449.667 3258
-328.02 -449.667 3258
-320.229 -449.667 3258
-311.287 -448.011 3246
-303.525 -448.011 3246
-294.579 -446.217 3233
-285.783 -444.561 3221
-278.08 -444.561 3221
-270.378 -444.561 3221
-261.616 -442.767 3208
-253.944 -442.767 3208
-246.273 -442.767 3208
-238.602 -442.767 3208
-230.93 -442.767 3208
-222.841 -441.938 3202
-214.781 -441.11 3196
-207.139 -441.11 3196
-199.496 -441.11 3196
-191.493 -440.282 3190
-183.865 -440.282 3190
-114.471 -285.976 2072
-109.516 -285.976 2072
-104.561 -285.976 2072
-99.6067 -285.976 2072
-94.6519 -285.976 2072
-89.4807 -285.286 2067
-84.2516 -284.32 2060
-79.1329 -283.63 2055
-74.2188 -283.63 2055
-68.9337 -282.112 2044
-63.7325 -280.732 2034
-58.7529 -280.18 2030
-53.6861 -279.075 2022
-48.8509 -279.075 2022
-44.0157 -279.075 2022
-39.2386 -279.489 2025
-34.4811 -280.18 2030
-29.656 -280.456 2032
-24.7969 -280.456 2032
-20.0358 -281.836 2042
-15.1676 -282.112 2044
-10.3201 -283.216 2052
-5.4131 -283.216 2052
-0.508616 -284.596 2062
4.43297 -285.286 2067
9.39848 -285.976 2072
14.3533 -285.976 2072
19.4105 -287.495 2083
24.415 -287.771 2085
29.4855 -288.599 2091
34.4857 -288.599 2091
39.5804 -289.289 2096
44.6989 -289.979 2101
49.794 -290.393 2104
54.8253 -290.393 2104
59.8566 -290.393 2104
64.9496 -290.669 2106
69.9857 -290.669 2106
75.0218 -290.669 2106
80.0579 -290.669 2106
85.094 -290.669 2106
90.1301 -290.669 2106
95.1661 -290.669 2106
100.202 -290.669 2106
105.138 -290.393 2104
110.17 -290.393 2104
115.201 -290.393 2104
120.232 -290.393 2104
125.264 -290.393 2104
130.295 -290.393 2104
135.455 -290.669 2106
140.491 -290.669 2106
145.942 -291.497 2112
151.135 -291.773 2114
156.634 -292.601 2120
161.703 -292.601 2120
167.166 -293.291 2125
172.734 -294.12 2131
177.997 -294.396 2133
183.097 -294.396 2133
188.727 -295.224 2139
194.567 -296.328 2147
200.725 -297.846 2158
205.885 -297.846 2158
211.339 -298.26 2161
217.108 -299.088 2167
224.033 -301.435 2184
229.256 -301.435 2184
235.337 -302.539 2192
241.896 -304.195 2204
247.84 -305.023 2210
253.124 -305.023 2210
259.695 -306.541 2221
265.364 -306.955 2224
272.143 -308.612 2236
277.49 -308.612 2236
282.837 -308.612 2236
464.368 -497.284 3603
474.034 -498.388 3611
482.669 -498.388 3611
491.304 -498.388 3611
501.047 -499.493 3619
509.701 -499.493 3619
520.647 -501.701 3635
529.339 -501.701 3635
538.031 -501.701 3635
547.777 -502.667 3642
556.486 -502.667 3642
565.195 -502.667 3642
573.904 -502.667 3642
582.613 -502.667 3642
592.621 -503.771 3650
601.349 -503.771 3650
611.415 -504.875 3658
620.162 -504.875 3658
630.457 -506.117 3667
639.226 -506.117 3667
647.995 -506.117 3667
656.764 -506.117 3667
665.533 -506.117 3667
674.301 -506.117 3667
683.07 -506.117 3667
691.839 -506.117 3667
702.137 -507.222 3675
714.02 -509.43 3691
722.846 -509.43 3691
734.844 -511.638 3707
747.119 -513.985 3724
756.025 -513.985 3724
764.93 -513.985 3724
773.835 -513.985 3724
787.995 -517.435 3749
796.96 -517.435 3749
805.925 -517.435 3749
814.89 -517.435 3749
821.877 -516.193 3740
830.821 -516.193 3740
837.968 -515.089 3732
846.892 -515.089 3732
853.982 -513.985 3724
862.887 -513.985 3724
867.813 -511.638 3707
874.785 -510.534 3699
879.808 -508.326 3683
888.616 -508.326 3683
895.474 -507.222 3675
904.262 -507.222 3675
911.062 -506.117 3667
913.56 -502.667 3642
922.269 -502.667 3642
930.978 -502.667 3642
937.881 -501.701 3635
944.49 -500.597 3627
953.164 -500.597 3627
961.837 -500.597 3627
970.51 -500.597 3627
979.183 -500.597 3627
987.857 -500.597 3627
994.332 -499.493 3619
1000.77 -498.388 3611
1009.4 -498.388 3611
1018.04 -498.388 3611
1026.67 -498.388 3611
1035.31 -498.388 3611
1043.94 -498.388 3611
1054.91 -499.493 3619
1063.56 -499.493 3619
1072.22 -499.493 3619
1078.48 -498.388 3611
1087.12 -498.388 3611
1095.75 -498.388 3611
1104.39 -498.388 3611
1113.02 -498.388 3611
1121.66 -498.388 3611
1130.29 -498.388 3611
1136.41 -497.284 3603
1145.02 -497.284 3603
1153.64 -497.284 3603
1162.25 -497.284 3603
1170.87 -497.284 3603
1179.48 -497.284 3603
1188.1 -497.284 3603
1196.72 -497.284 3603
1205.33 -497.284 3603
1213.95 -497.284 3603
1222.56 -497.284 3603
1231.18 -497.284 3603
1239.8 -497.284 3603
1248.41 -497.284 3603
1257.03 -497.284 3603
1265.64 -497.284 3603
1274.26 -497.284 3603
1282.88 -497.284 3603
1291.49 -497.284 3603
1302.99 -498.388 3611
1311.63 -498.388 3611
1320.26 -498.388 3611
1328.9 -498.388 3611
1337.53 -498.388 3611
1346.17 -498.388 3611
1351.8 -497.284 3603
1357.4 -496.18 3595
1365.99 -496.18 3595
1374.59 -496.18 3595
1383.19 -496.18 3595
1391.78 -496.18 3595
1397.65 -495.214 3588
1406.23 -495.214 3588
1411.66 -494.11 3580
1420.22 -494.11 3580
1425.59 -493.006 3572
1434.13 -493.006 3572
1442.67 -493.006 3572
1451.21 -493.006 3572
1459.76 -493.006 3572
1471.59 -494.11 3580
1480.15 -494.11 3580
1488.71 -494.11 3580
1497.27 -494.11 3580
1505.83 -494.11 3580
1514.39 -494.11 3580
1522.95 -494.11 3580
1531.51 -494.11 3580
1540.07 -494.11 3580
1548.63 -494.11 3580
1553.71 -493.006 3572
1559.19 -492.039 3565
1560.68 -489.831 3549
-2711.32 -537.478 3963
-2701.85 -537.478 3963
-2692.37 -537.478 3963
-1454.09 -499.503 3683
-1445.28 -499.503 3683
-1436.48 -499.503 3683
-1421.47 -497.333 3667
-1421.94 -500.588 3691
-1416.18 -501.673 3699
-1407.34 -501.673 3699
-1398.49 -501.673 3699
-1389.64 -501.673 3699
-1371.84 -498.418 3675
-1363.05 -498.418 3675
-1354.26 -498.418 3675
-1357.19 -502.758 3707
-1354.51 -505.064 3724
-1348.5 -506.149 3732
-1339.57 -506.149 3732
-1330.65 -506.149 3732
-1330.58 -509.539 3757
-1321.59 -509.539 3757
-1312.61 -509.539 3757
-1303.62 -509.539 3757
-1303.6 -513.065 3783
-1300.37 -515.371 3800
-1294.34 -516.592 3809
-1285.23 -516.592 3809
-1284.84 -520.118 3835
-1275.67 -520.118 3835
-1266.5 -520.118 3835
-1248.8 -516.592 3809
-1236.76 -515.371 3800
-1250.61 -525 3871
-1273.75 -538.698 3972
-1264.25 -538.698 3972
-1263.91 -542.632 4001
-1257.16 -543.852 4010
-1247.58 -543.852 4010
-1237.99 -543.852 4010
-350.457 -450.678 3323
-342.511 -450.678 3323
-334.564 -450.678 3323
-325.34 -448.915 3310
-314.356 -444.575 3278
-306.518 -444.575 3278
-296.857 -441.863 3258
-288.001 -440.235 3246
-278.598 -437.659 3227
-270.882 -437.659 3227
-262.676 -436.845 3221
-254.973 -436.845 3221
-246.734 -435.895 3214
-239.048 -435.895 3214
-231.362 -435.895 3214
-223.677 -435.895 3214
-215.991 -435.895 3214
-207.916 -435.082 3208
-200.245 -435.082 3208
-192.214 -434.268 3202
-184.211 -433.454 3196
-114.471 -281.013 2072
-109.516 -281.013 2072
-104.561 -281.013 2072
-99.2702 -280.064 2065
-94.3321 -280.064 2065
-89.2642 -279.657 2062
-84.1289 -278.979 2057
-78.9019 -277.894 2049
-73.7493 -276.944 2042
-68.8663 -276.944 2042
-63.6072 -275.317 2030
