1521.99 -262.123 3461
1530.26 -262.123 3461
1538.54 -262.123 3461
1468.41 -200.55 2648
1493.68 -203.125 2682
1500.09 -203.125 2682
1506.51 -203.125 2682
1510.66 -202.822 2678
1517.07 -202.822 2678
1533.14 -204.109 2695
1539.59 -204.109 2695
1546.03 -204.109 2695
1552.47 -204.109 2695
1558.92 -204.109 2695
1565.36 -204.109 2695
1571.81 -204.109 2695
1580.6 -204.412 2699
1589.99 -204.791 2704
1598.82 -205.094 2708
1605.29 -205.094 2708
1611.77 -205.094 2708
1618.24 -205.094 2708
1624.72 -205.094 2708
1625.77 -204.412 2699
1629.81 -204.109 2695
1628.36 -203.125 2682
1634.77 -203.125 2682
1638.74 -202.822 2678
1642.07 -202.443 2673
1648.46 -202.443 2673
1657.95 -202.822 2678
1664.36 -202.822 2678
1670.76 -202.822 2678
1677.16 -202.822 2678
1683.57 -202.822 2678
1684.29 -202.14 2669
1690.67 -202.14 2669
1694.51 -201.837 2665
1695.14 -201.155 2656
1701.49 -201.155 2656
1707.84 -201.155 2656
1706.45 -200.247 2644
1710.18 -199.944 2640
1716.5 -199.944 2640
1722.81 -199.944 2640
1725.85 -199.565 2635
1732.15 -199.565 2635
1738.45 -199.565 2635
1744.75 -199.565 2635
1751.05 -199.565 2635
1749.35 -198.656 2623
1752.94 -198.353 2619
1759.21 -198.353 2619
1762.77 -198.05 2615
1763.61 -197.444 2607
1769.85 -197.444 2607
1776.08 -197.444 2607
1776.85 -196.839 2599
1779.63 -196.46 2594
1783.08 -196.157 2590
1789.28 -196.157 2590
1795.47 -196.157 2590
1807.92 -196.839 2599
1814.14 -196.839 2599
1820.35 -196.839 2599
1823.05 -196.46 2594
1829.26 -196.46 2594
1832.63 -196.157 2590
1835.98 -195.854 2586
1842.17 -195.854 2586
1848.35 -195.854 2586
1851.67 -195.551 2582
1857.84 -195.551 2582
1864.02 -195.551 2582
1870.19 -195.551 2582
1876.36 -195.551 2582
1882.54 -195.551 2582
1888.71 -195.551 2582
1889.02 -194.945 2574
1895.17 -194.945 2574
1901.33 -194.945 2574
1907.48 -194.945 2574
1913.64 -194.945 2574
1919.79 -194.945 2574
1923.7 -194.718 2571
1926.85 -194.415 2567
1932.99 -194.415 2567
1936.1 -194.112 2563
1942.23 -194.112 2563
1954.44 -194.718 2571
1960.59 -194.718 2571
1966.74 -194.718 2571
-2005.08 -196.407 2678
-2011.37 -197.653 2695
-2018.31 -198.973 2713
-2011.83 -198.973 2713
-2005.34 -198.973 2713
-1998.85 -198.973 2713
-1992.36 -198.973 2713
-1982.22 -198.607 2708
-1966.26 -197.653 2695
-2388.06 -245.691 3350
-2380.05 -245.691 3350
-2372.04 -245.691 3350
-2364.03 -245.691 3350
-2332.81 -243.271 3317
-2319.97 -242.758 3310
-2312.06 -242.758 3310
-2295.09 -241.804 3297
-2310.1 -244.225 3330
-2302.14 -244.225 3330
-2299 -244.738 3337
-2291.02 -244.738 3337
-2287.14 -245.178 3343
-2279.15 -245.178 3343
-2271.16 -245.178 3343
-2259.1 -244.738 3337
-2268.66 -246.645 3363
-2284.15 -249.212 3398
-2280.71 -249.725 3405
-2272.57 -249.725 3405
-2269.08 -250.239 3412
-2274.83 -251.779 3433
-2275.87 -252.806 3447
-2267.63 -252.806 3447
-2263.97 -253.319 3454
-2283.79 -256.473 3497
-2294.95 -258.673 3527
-2286.52 -258.673 3527
-2287.77 -259.773 3542
-2279.3 -259.773 3542
-2275.32 -260.286 3549
-2266.83 -260.286 3549
-2268.53 -261.46 3565
-2289.16 -264.833 3611
-2285.58 -265.42 3619
-2276.93 -265.42 3619
-2278.3 -266.594 3635
-2269.61 -266.594 3635
-2270.25 -267.694 3650
-2261.52 -267.694 3650
-2252.79 -267.694 3650
-2254.51 -268.941 3667
-2245.75 -268.941 3667
-2236.98 -268.941 3667
-2222.74 -268.28 3658
-2213.99 -268.28 3658
-2205.24 -268.28 3658
-2182.69 -266.594 3635
-2150.07 -263.66 3595
-2132.54 -262.56 3580
-2142.37 -264.833 3611
-2133.73 -264.833 3611
-2134.52 -266.007 3627
-2130.53 -266.594 3635
-2121.84 -266.594 3635
-2113.15 -266.594 3635
-2104.45 -266.594 3635
-2091.15 -266.007 3627
-2082.48 -266.007 3627
-2133.53 -281.922 3844
-2124.34 -281.922 3844
-2134.96 -284.562 3880
-2125.68 -284.562 3880
-2116.4 -284.562 3880
-2097.35 -283.242 3862
-2088.11 -283.242 3862
-2055.19 -280.015 3818
-2046.06 -280.015 3818
-1986.78 -273.121 3724
-1937.5 -273.708 3732
-1928.58 -273.708 3732
-1919.65 -273.708 3732
-1906.63 -273.121 3724
-1889.07 -271.874 3707
-1880.2 -271.874 3707
-1855.18 -269.527 3675
-1837.85 -268.28 3658
-1825.11 -267.694 3650
-1816.38 -267.694 3650
-1796.26 -266.007 3627
-1775.76 -264.247 3603
-1782.84 -266.594 3635
-1789.76 -268.941 3667
-1780.99 -268.941 3667
-1783.82 -270.701 3691
-1782.69 -271.874 3707
-1789.62 -274.294 3740
-1780.67 -274.294 3740
-1775.99 -274.954 3749
-1775.04 -276.201 3766
-1774.01 -277.448 3783
-1764.96 -277.448 3783
-1755.92 -277.448 3783
-1723.32 -273.708 3732
-1702.91 -271.874 3707
-1694.05 -271.874 3707
-1685.18 -271.874 3707
-1676.32 -271.874 3707
-1675.1 -273.121 3724
-1666.19 -273.121 3724
-1657.29 -273.121 3724
-1648.38 -273.121 3724
-1639.48 -273.121 3724
-1630.57 -273.121 3724
-1607.3 -270.701 3691
-1598.47 -270.701 3691
-1149.3 -213.495 2911
-1142.34 -213.495 2911
-1135.37 -213.495 2911
-1122.6 -212.395 2896
-1117.6 -212.762 2901
-1110.66 -212.762 2901
-1109.81 -213.935 2917
-1102.84 -213.935 2917
-1095.86 -213.935 2917
-1088.89 -213.935 2917
-1081.91 -213.935 2917
-1074.94 -213.935 2917
-1067.96 -213.935 2917
-1058.8 -213.495 2911
-1050.03 -213.128 2906
-1037.7 -212.028 2891
-1030.79 -212.028 2891
-1016.79 -210.561 2871
-1008.17 -210.195 2866
-991.182 -208.068 2837
-984.398 -208.068 2837
-977.614 -208.068 2837
-974.252 -208.801 2847
-969.143 -209.168 2852
-967.047 -210.195 2866
-960.193 -210.195 2866
-953.34 -210.195 2866
-941.863 -209.168 2852
-935.043 -209.168 2852
-928.223 -209.168 2852
-924.634 -209.901 2862
-917.79 -209.901 2862
-910.946 -209.901 2862
-900.943 -209.168 2852
-892.555 -208.801 2847
-887.303 -209.168 2852
-882.027 -209.535 2857
-875.195 -209.535 2857
-868.363 -209.535 2857
-865.753 -210.561 2871
-860.383 -210.928 2876
-853.505 -210.928 2876
-846.628 -210.928 2876
-841.211 -211.295 2881
-834.321 -211.295 2881
-827.432 -211.295 2881
-820.543 -211.295 2881
-813.653 -211.295 2881
-805.364 -210.928 2876
-798.486 -210.928 2876
-791.609 -210.928 2876
-784.732 -210.928 2876
-777.854 -210.928 2876
-772.317 -211.295 2881
-765.428 -211.295 2881
-759.855 -211.661 2886
-754.258 -212.028 2891
-747.345 -212.028 2891
-740.432 -212.028 2891
-733.518 -212.028 2891
-726.605 -212.028 2891
-719.692 -212.028 2891
-711.546 -211.661 2886
-704.645 -211.661 2886
-697.743 -211.661 2886
-690.842 -211.661 2886
-683.941 -211.661 2886
-675.866 -211.295 2881
-668.977 -211.295 2881
-664.386 -212.028 2891
-657.473 -212.028 2891
-656.41 -213.935 2917
-660.789 -217.675 2968
-664.484 -221.269 3017
-657.269 -221.269 3017
-658.242 -224.056 3055
-657.116 -226.183 3084
-664.489 -231.317 3154
-656.947 -231.317 3154
-654.346 -233.077 3178
-655.497 -236.231 3221
-647.795 -236.231 3221
-640.093 -236.231 3221
-644.759 -240.851 3284
-639.427 -241.804 3297
-643.036 -246.205 3357
-635.009 -246.205 3357
-630.717 -247.672 3377
-623.932 -248.185 3384
-615.84 -248.185 3384
-607.747 -248.185 3384
-599.655 -248.185 3384
-590.339 -247.672 3377
-582.264 -247.672 3377
-572.998 -247.158 3370
-566.113 -247.672 3377
-559.194 -248.185 3384
-552.242 -248.698 3391
-544.133 -248.698 3391
-536.024 -248.698 3391
-527.916 -248.698 3391
-519.807 -248.698 3391
-508.529 -247.158 3370
-499.431 -246.645 3363
-491.389 -246.645 3363
-484.353 -247.158 3370
-476.294 -247.158 3370
-468.235 -247.158 3370
-459.221 -246.645 3363
-451.179 -246.645 3363
-442.346 -246.205 3357
-432.507 -245.178 3343
-424.513 -245.178 3343
-416.519 -245.178 3343
-408.525 -245.178 3343
-400.531 -245.178 3343
-241.886 -151.082 2060
-237.19 -151.229 2062
-232.597 -151.449 2065
-227.659 -151.449 2065
-223.26 -151.815 2070
-219.365 -152.549 2080
-214.907 -152.915 2085
-209.921 -152.915 2085
-205.23 -153.135 2088
-200.716 -153.502 2093
-195.992 -153.722 2096
-190.98 -153.722 2096
-185.967 -153.722 2096
-180.955 -153.722 2096
-175.943 -153.722 2096
-170.931 -153.722 2096
-166.077 -153.869 2098
-161.521 -154.309 2104
-156.638 -154.456 2106
-151.602 -154.456 2106
-146.775 -154.676 2109
-141.731 -154.676 2109
-136.883 -154.896 2112
-131.832 -154.896 2112
-126.782 -154.896 2112
-121.847 -155.042 2114
-116.957 -155.262 2117
-111.895 -155.262 2117
-106.984 -155.482 2120
-102.155 -155.849 2125
-97.073 -155.849 2125
-91.9915 -155.849 2125
-86.91 -155.849 2125
-81.8285 -155.849 2125
-76.7469 -155.849 2125
-71.5642 -155.629 2122
-66.4899 -155.629 2122
-61.3577 -155.482 2120
-56.2881 -155.482 2120
-51.2185 -155.482 2120
-46.0837 -155.262 2117
-41.0213 -155.262 2117
-35.9589 -155.262 2117
-30.8527 -155.042 2114
-25.7731 -154.896 2112
-20.7227 -154.896 2112
-15.6722 -154.896 2112
-10.6218 -154.896 2112
-5.57138 -154.896 2112
-0.520949 -154.896 2112
4.52948 -154.896 2112
9.57992 -154.896 2112
14.6096 -154.676 2109
19.6249 -154.456 2106
24.661 -154.456 2106
29.697 -154.456 2106
34.7331 -154.456 2106
39.7692 -154.456 2106
44.8053 -154.456 2106
49.8414 -154.456 2106
54.8775 -154.456 2106
59.9989 -154.676 2109
65.0421 -154.676 2109
70.1851 -154.896 2112
75.2355 -154.896 2112
80.362 -155.042 2114
85.4172 -155.042 2114
90.6008 -155.262 2117
95.6632 -155.262 2117
100.726 -155.262 2117
105.938 -155.482 2120
111.112 -155.629 2122
116.679 -156.289 2131
121.775 -156.289 2131
126.99 -156.436 2133
132.462 -156.876 2139
137.577 -156.876 2139
142.692 -156.876 2139
148.015 -157.096 2142
153.28 -157.243 2144
158.407 -157.243 2144
163.534 -157.243 2144
168.897 -157.463 2147
174.517 -157.903 2153
179.666 -157.903 2153
184.814 -157.903 2153
190.404 -158.269 2158
196.108 -158.709 2164
202.306 -159.516 2175
207.507 -159.516 2175
213.295 -159.956 2181
219.913 -160.983 2195
226.393 -161.863 2207
231.67 -161.863 2207
239.739 -163.77 2233
246.396 -164.65 2245
253.895 -166.043 2264
259.309 -166.043 2264
265.425 -166.483 2270
270.853 -166.483 2270
278.959 -168.097 2292
284.44 -168.097 2292
291.439 -168.977 2304
296.948 -168.977 2304
302.458 -168.977 2304
385.995 -208.068 2837
392.78 -208.068 2837
400.972 -208.801 2847
408.496 -209.168 2852
416.044 -209.535 2857
424.208 -210.195 2866
431.062 -210.195 2866
438.679 -210.561 2871
445.545 -210.561 2871
452.41 -210.561 2871
459.276 -210.561 2871
466.141 -210.561 2871
473.007 -210.561 2871
479.872 -210.561 2871
486.737 -210.561 2871
492.743 -210.195 2866
498.899 -209.901 2862
505.743 -209.901 2862
512.587 -209.901 2862
518.524 -209.535 2857
525.356 -209.535 2857
532.188 -209.535 2857
538.076 -209.168 2852
544.896 -209.168 2852
551.716 -209.168 2852
558.536 -209.168 2852
565.356 -209.168 2852
571.173 -208.801 2847
576.966 -208.434 2842
583.762 -208.434 2842
590.558 -208.434 2842
597.354 -208.434 2842
604.15 -208.434 2842
610.946 -208.434 2842
617.743 -208.434 2842
624.539 -208.434 2842
631.335 -208.434 2842
638.131 -208.434 2842
644.927 -208.434 2842
650.576 -208.068 2837
657.361 -208.068 2837
662.974 -207.701 2832
669.746 -207.701 2832
676.518 -207.701 2832
683.291 -207.701 2832
690.063 -207.701 2832
696.835 -207.701 2832
703.607 -207.701 2832
710.379 -207.701 2832
716.139 -207.408 2828
722.901 -207.408 2828
729.664 -207.408 2828
736.426 -207.408 2828
743.189 -207.408 2828
749.952 -207.408 2828
756.714 -207.408 2828
763.477 -207.408 2828
770.239 -207.408 2828
777.002 -207.408 2828
783.765 -207.408 2828
790.527 -207.408 2828
797.29 -207.408 2828
802.631 -207.041 2823
809.382 -207.041 2823
816.132 -207.041 2823
822.883 -207.041 2823
829.633 -207.041 2823
836.384 -207.041 2823
843.135 -207.041 2823
849.885 -207.041 2823
858.153 -207.408 2828
864.916 -207.408 2828
871.679 -207.408 2828
876.888 -207.041 2823
883.639 -207.041 2823
890.389 -207.041 2823
893.962 -206.308 2813
900.689 -206.308 2813
907.415 -206.308 2813
914.142 -206.308 2813
924.143 -207.041 2823
930.893 -207.041 2823
937.644 -207.041 2823
944.394 -207.041 2823
951.145 -207.041 2823
956.199 -206.674 2818
1284.94 -270.114 3683
1296.56 -270.701 3691
1305.38 -270.701 3691
1314.21 -270.701 3691
1323.03 -270.701 3691
1331.86 -270.701 3691
1340.69 -270.701 3691
1337.45 -268.28 3658
1346.2 -268.28 3658
1354.94 -268.28 3658
1363.69 -268.28 3658
1366.43 -267.107 3642
1372.5 -266.594 3635
1381.19 -266.594 3635
1389.89 -266.594 3635
1398.58 -266.594 3635
1404.17 -266.007 3627
1406.61 -264.833 3611
1415.25 -264.833 3611
1420.73 -264.247 3603
1429.34 -264.247 3603
1434.77 -263.66 3595
1440.55 -263.147 3588
1449.13 -263.147 3588
1457.71 -263.147 3588
1463.02 -262.56 3580
1468.3 -261.973 3572
1476.84 -261.973 3572
1485.38 -261.973 3572
1484.3 -260.286 3549
1483.54 -258.673 3527
1491.97 -258.673 3527
1463.39 -252.292 3440
1436.11 -246.205 3357
1441.13 -245.691 3350
1437.46 -243.711 3323
1445.41 -243.711 3323
1441.98 -241.804 3297
1455.58 -242.758 3310
1463.5 -242.758 3310
1471.41 -242.758 3310
1457.95 -194.5 2652
1464.29 -194.5 2652
1477.84 -195.453 2665
1495.91 -196.993 2686
1502.33 -196.993 2686
1508.75 -196.993 2686
1515.17 -196.993 2686
1526.7 -197.653 2695
1540.54 -198.607 2708
1547.01 -198.607 2708
1553.49 -198.607 2708
1554.78 -197.947 2699
1566.44 -198.607 2708
1572.91 -198.607 2708
1579.39 -198.607 2708
1585.87 -198.607 2708
1592.34 -198.607 2708
1601.77 -198.973 2713
1608.26 -198.973 2713
1614.74 -198.973 2713
1621.23 -198.973 2713
1627.72 -198.973 2713
1628.79 -198.313 2704
1632.23 -197.947 2699
1636.25 -197.653 2695
1642.7 -197.653 2695
1641.19 -196.7 2682
1645.14 -196.407 2678
1651.55 -196.407 2678
1657.95 -196.407 2678
1664.36 -196.407 2678
1670.76 -196.407 2678
1677.16 -196.407 2678
1683.57 -196.407 2678
1684.29 -195.746 2669
1690.67 -195.746 2669
1694.51 -195.453 2665
1695.14 -194.793 2656
1701.49 -194.793 2656
1707.84 -194.793 2656
1709.03 -194.206 2648
1710.18 -193.62 2640
1716.5 -193.62 2640
1719.55 -193.253 2635
1725.85 -193.253 2635
1729.52 -192.96 2631
1735.81 -192.96 2631
1742.1 -192.96 2631
1748.39 -192.96 2631
1749.35 -192.373 2623
1752.94 -192.079 2619
1759.21 -192.079 2619
1765.47 -192.079 2619
1766.32 -191.493 2611
1769.85 -191.199 2607
1776.08 -191.199 2607
1782.32 -191.199 2607
1785.81 -190.906 2603
1789.28 -190.613 2599
1798.26 -190.906 2603
1804.48 -190.906 2603
1810.71 -190.906 2603
1816.93 -190.906 2603
1823.15 -190.906 2603
1829.38 -190.906 2603
1832.78 -190.613 2599
1839 -190.613 2599
1838.82 -189.953 2590
1845.02 -189.953 2590
1848.35 -189.659 2586
1854.54 -189.659 2586
1860.72 -189.659 2586
1866.9 -189.659 2586
1870.19 -189.366 2582
1876.36 -189.366 2582
1882.54 -189.366 2582
1888.71 -189.366 2582
1889.02 -188.779 2574
1895.17 -188.779 2574
1901.33 -188.779 2574
1907.48 -188.779 2574
1913.64 -188.779 2574
1917.55 -188.559 2571
1920.71 -188.266 2567
1923.85 -187.972 2563
1929.97 -187.972 2563
1933.08 -187.679 2559
1939.2 -187.679 2559
1948.36 -187.972 2563
1957.54 -188.266 2567
1963.68 -188.266 2567
-2005.08 -189.991 2678
-2011.37 -191.197 2695
-2018.31 -192.474 2713
-2011.83 -192.474 2713
-2005.34 -192.474 2713
-1998.85 -192.474 2713
-1992.36 -192.474 2713
-1982.22 -192.12 2708
-1966.26 -191.197 2695
-2388.06 -237.667 3350
-2380.05 -237.667 3350
-2372.04 -237.667 3350
-2364.03 -237.667 3350
-2332.81 -235.325 3317
-2319.97 -234.829 3310
-2312.06 -234.829 3310
-2299.27 -234.332 3303
-2310.1 -236.248 3330
-2306.98 -236.744 3337
-2312.78 -238.163 3357
-2304.75 -238.163 3357
-2296.72 -238.163 3357
-2288.7 -238.163 3357
-2280.67 -238.163 3357
-2272.64 -238.163 3357
-2278.1 -239.582 3377
-2284.15 -241.072 3398
-2280.71 -241.569 3405
-2272.57 -241.569 3405
-2269.08 -242.065 3412
-2274.83 -243.555 3433
-2275.87 -244.548 3447
-2267.63 -244.548 3447
-2268.56 -245.541 3461
-2293.59 -249.16 3512
-2299.51 -250.72 3534
-2291.06 -250.72 3534
-2287.77 -251.288 3542
-2279.3 -251.288 3542
-2275.32 -251.785 3549
-2266.83 -251.785 3549
-2278.07 -253.984 3580
-2289.16 -256.183 3611
-2285.58 -256.751 3619
-2276.93 -256.751 3619
-2278.3 -257.886 3635
-2269.61 -257.886 3635
-2270.25 -258.95 3650
-2261.52 -258.95 3650
-2252.79 -258.95 3650
-2254.51 -260.156 3667
-2245.75 -260.156 3667
-2236.98 -260.156 3667
-2222.74 -259.518 3658
-2213.99 -259.518 3658
-2205.24 -259.518 3658
-2182.69 -257.886 3635
-2150.07 -255.048 3595
-2137.3 -254.552 3588
-2151.86 -257.318 3627
-2143.19 -257.318 3627
-2139.22 -257.886 3635
-2139.32 -258.95 3650
-2130.59 -258.95 3650
-2121.87 -258.95 3650
-2104.45 -257.886 3635
-2091.15 -257.318 3627
-2082.48 -257.318 3627
-2135.86 -268.386 3783
-2126.81 -268.386 3783
-2141.84 -271.436 3826
-2137.71 -272.075 3835
-2133.53 -272.714 3844
-2124.34 -272.714 3844
-2134.96 -275.268 3880
-2125.68 -275.268 3880
-2116.4 -275.268 3880
-2097.35 -273.991 3862
-2088.11 -273.991 3862
-2055.19 -270.869 3818
-2046.06 -270.869 3818
-1991.05 -264.768 3732
-1982.12 -264.768 3732
-1977.43 -265.335 3740
-1968.49 -265.335 3740
-1959.54 -265.335 3740
-1946.43 -264.768 3732
-1946.33 -265.974 3749
-1937.36 -265.974 3749
-1928.4 -265.974 3749
-1910.73 -264.768 3732
-1893.65 -263.633 3716
-1884.77 -263.633 3716
-1855.18 -260.724 3675
-1842.38 -260.156 3667
-1829.11 -259.518 3658
-1820.36 -259.518 3658
-1800.22 -257.886 3635
-1783.64 -256.751 3619
-1786.27 -258.383 3642
-1789.76 -260.156 3667
-1780.99 -260.156 3667
-1783.82 -261.859 3691
-1782.69 -262.994 3707
-1789.62 -265.335 3740
-1780.67 -265.335 3740
-1775.99 -265.974 3749
-1775.04 -267.18 3766
-1774.01 -268.386 3783
-1764.96 -268.386 3783
-1755.92 -268.386 3783
-1723.32 -264.768 3732
-1702.91 -262.994 3707
-1694.05 -262.994 3707
-1685.18 -262.994 3707
-1676.32 -262.994 3707
-1675.1 -264.2 3724
-1666.19 -264.2 3724
-1657.29 -264.2 3724
-1648.38 -264.2 3724
-1639.48 -264.2 3724
-1630.57 -264.2 3724
-1607.3 -261.859 3691
-1598.47 -261.859 3691
-1181.28 -210.991 2974
-1174.17 -210.991 2974
-1167.06 -210.991 2974
-1145.52 -208.366 2937
-1122.6 -205.457 2896
-1117.6 -205.812 2901
-1110.66 -205.812 2901
-1109.81 -206.947 2917
-1102.84 -206.947 2917
-1095.86 -206.947 2917
-1088.89 -206.947 2917
-1081.91 -206.947 2917
-1074.94 -206.947 2917
-1067.96 -206.947 2917
-1058.8 -206.522 2911
-1050.03 -206.167 2906
-1037.7 -205.103 2891
-1030.79 -205.103 2891
-1016.79 -203.684 2871
-1008.17 -203.329 2866
-994.676 -201.981 2847
-987.868 -201.981 2847
-981.06 -201.981 2847
-974.252 -201.981 2847
-969.143 -202.336 2852
-967.047 -203.329 2866
-960.193 -203.329 2866
-953.34 -203.329 2866
-941.863 -202.336 2852
-935.043 -202.336 2852
-928.223 -202.336 2852
-924.634 -203.045 2862
-917.79 -203.045 2862
-910.946 -203.045 2862
-900.943 -202.336 2852
-892.555 -201.981 2847
-887.303 -202.336 2852
-882.027 -202.691 2857
-875.195 -202.691 2857
-868.363 -202.691 2857
-865.753 -203.684 2871
-860.383 -204.038 2876
-853.505 -204.038 2876
-846.628 -204.038 2876
-841.211 -204.393 2881
-834.321 -204.393 2881
-827.432 -204.393 2881
-820.543 -204.393 2881
-813.653 -204.393 2881
-805.364 -204.038 2876
-798.486 -204.038 2876
-791.609 -204.038 2876
-784.732 -204.038 2876
-777.854 -204.038 2876
-772.317 -204.393 2881
-765.428 -204.393 2881
-759.855 -204.748 2886
-754.258 -205.103 2891
-747.345 -205.103 2891
-740.432 -205.103 2891
-733.518 -205.103 2891
-726.605 -205.103 2891
-719.692 -205.103 2891
-711.546 -204.748 2886
-704.645 -204.748 2886
-697.743 -204.748 2886
-690.842 -204.748 2886
-683.941 -204.748 2886
-675.866 -204.393 2881
-668.977 -204.393 2881
-664.386 -205.103 2891
-657.473 -205.103 2891
-656.41 -206.947 2917
-660.789 -210.565 2968
-664.484 -214.042 3017
-657.269 -214.042 3017
-658.242 -216.738 3055
-657.116 -218.795 3084
-664.489 -223.761 3154
-656.947 -223.761 3154
-654.346 -225.464 3178
-655.497 -228.515 3221
-647.795 -228.515 3221
-640.093 -228.515 3221
-645.937 -233.41 3290
-645.828 -236.248 3330
-643.036 -238.163 3357
-635.009 -238.163 3357
-632.024 -240.079 3384
-626.513 -241.072 3398
-620.935 -242.065 3412
-612.776 -242.065 3412
-604.617 -242.065 3412
-594.01 -241.072 3398
-585.885 -241.072 3398
-574.189 -239.582 3377
-568.46 -240.575 3391
-561.508 -241.072 3398
-554.522 -241.569 3405
-546.38 -241.569 3405
-538.237 -241.569 3405
-529.005 -241.072 3398
-520.88 -241.072 3398
-510.641 -240.079 3384
-500.47 -239.085 3370
-492.411 -239.085 3370
-484.353 -239.085 3370
-476.294 -239.085 3370
-468.235 -239.085 3370
-459.221 -238.589 3363
-451.179 -238.589 3363
-442.346 -238.163 3357
-432.507 -237.17 3343
-424.513 -237.17 3343
-416.519 -237.17 3343
-408.525 -237.17 3343
-400.531 -237.17 3343
-241.886 -146.147 2060
-237.19 -146.289 2062
-232.597 -146.502 2065
-227.659 -146.502 2065
-223.26 -146.857 2070
-219.365 -147.566 2080
-214.907 -147.921 2085
-209.921 -147.921 2085
-205.23 -148.134 2088
-200.716 -148.488 2093
-195.992 -148.701 2096
-190.98 -148.701 2096
-185.967 -148.701 2096
-181.128 -148.843 2098
-176.111 -148.843 2098
-171.094 -148.843 2098
-166.314 -149.056 2101
-161.521 -149.269 2104
-156.861 -149.624 2109
-151.818 -149.624 2109
-146.775 -149.624 2109
-141.933 -149.836 2112
-136.883 -149.836 2112
-131.832 -149.836 2112
-126.902 -149.978 2114
-122.02 -150.191 2117
-117.123 -150.404 2120
-112.053 -150.404 2120
-107.085 -150.546 2122
-102.155 -150.759 2125
-97.073 -150.759 2125
-91.9915 -150.759 2125
-86.91 -150.759 2125
-81.8285 -150.759 2125
-76.7469 -150.759 2125
-71.5642 -150.546 2122
-66.4899 -150.546 2122
-61.3577 -150.404 2120
-56.2881 -150.404 2120
-51.2185 -150.404 2120
-46.0837 -150.191 2117
-41.0213 -150.191 2117
-35.9589 -150.191 2117
-30.8527 -149.978 2114
-25.7731 -149.836 2112
-20.7227 -149.836 2112
-15.6722 -149.836 2112
-10.6218 -149.836 2112
-5.57138 -149.836 2112
-0.520949 -149.836 2112
4.52948 -149.836 2112
9.57992 -149.836 2112
14.6096 -149.624 2109
19.6249 -149.411 2106
24.661 -149.411 2106
29.697 -149.411 2106
34.7331 -149.411 2106
39.7692 -149.411 2106
44.8053 -149.411 2106
49.8414 -149.411 2106
54.8775 -149.411 2106
59.9989 -149.624 2109
65.0421 -149.624 2109
70.1851 -149.836 2112
75.2355 -149.836 2112
80.362 -149.978 2114
85.4172 -149.978 2114
90.6008 -150.191 2117
95.6632 -150.191 2117
100.726 -150.191 2117
105.938 -150.404 2120
111.112 -150.546 2122
116.679 -151.184 2131
121.775 -151.184 2131
126.99 -151.326 2133
132.462 -151.752 2139
137.577 -151.752 2139
142.692 -151.752 2139
148.015 -151.965 2142
153.28 -152.107 2144
158.407 -152.107 2144
163.534 -152.107 2144
168.897 -152.319 2147
174.517 -152.745 2153
179.666 -152.745 2153
184.814 -152.745 2153
190.404 -153.1 2158
196.108 -153.525 2164
202.306 -154.306 2175
207.507 -154.306 2175
213.295 -154.732 2181
219.913 -155.725 2195
226.393 -156.576 2207
231.67 -156.576 2207
239.739 -158.421 2233
246.396 -159.272 2245
253.895 -160.62 2264
259.309 -160.62 2264
265.425 -161.046 2270
270.853 -161.046 2270
278.959 -162.606 2292
284.44 -162.606 2292
291.439 -163.458 2304
296.948 -163.458 2304
302.458 -163.458 2304
388.036 -202.336 2852
394.856 -202.336 2852
401.676 -202.336 2852
409.212 -202.691 2857
417.355 -203.329 2866
424.949 -203.684 2871
431.814 -203.684 2871
438.679 -203.684 2871
446.321 -204.038 2876
453.198 -204.038 2876
460.076 -204.038 2876
466.141 -203.684 2871
473.007 -203.684 2871
479.872 -203.684 2871
486.737 -203.684 2871
492.743 -203.329 2866
498.899 -203.045 2862
505.743 -203.045 2862
512.587 -203.045 2862
519.431 -203.045 2862
526.275 -203.045 2862
533.119 -203.045 2862
539.02 -202.691 2857
544.896 -202.336 2852
551.716 -202.336 2852
558.536 -202.336 2852
565.356 -202.336 2852
571.173 -201.981 2847
576.966 -201.626 2842
583.762 -201.626 2842
590.558 -201.626 2842
597.354 -201.626 2842
604.15 -201.626 2842
610.946 -201.626 2842
617.743 -201.626 2842
624.539 -201.626 2842
631.335 -201.626 2842
638.131 -201.626 2842
644.927 -201.626 2842
650.576 -201.272 2837
657.361 -201.272 2837
662.974 -200.917 2832
669.746 -200.917 2832
676.518 -200.917 2832
683.291 -200.917 2832
690.063 -200.917 2832
696.835 -200.917 2832
703.607 -200.917 2832
710.379 -200.917 2832
717.151 -200.917 2832
723.924 -200.917 2832
730.696 -200.917 2832
736.426 -200.633 2828
743.189 -200.633 2828
749.952 -200.633 2828
757.785 -200.917 2832
764.557 -200.917 2832
771.329 -200.917 2832
778.101 -200.917 2832
784.873 -200.917 2832
791.645 -200.917 2832
798.418 -200.917 2832
804.052 -200.633 2828
810.815 -200.633 2828
817.578 -200.633 2828
824.34 -200.633 2828
831.103 -200.633 2828
837.865 -200.633 2828
844.628 -200.633 2828
851.391 -200.633 2828
858.153 -200.633 2828
864.916 -200.633 2828
871.679 -200.633 2828
878.441 -200.633 2828
885.204 -200.633 2828
891.966 -200.633 2828
895.551 -199.924 2818
900.689 -199.569 2813
907.415 -199.569 2813
914.142 -199.569 2813
924.143 -200.278 2823
930.893 -200.278 2823
937.644 -200.278 2823
944.394 -200.278 2823
951.145 -200.278 2823
956.199 -199.924 2818
961.229 -199.569 2813
1290.52 -262.426 3699
1308.15 -264.2 3724
1317.05 -264.2 3724
1325.96 -264.2 3724
1334.86 -264.2 3724
1334.75 -262.426 3699
1343.59 -262.426 3699
1349.51 -261.859 3691
1355.4 -261.291 3683
1354.94 -259.518 3658
1363.69 -259.518 3658
1372.44 -259.518 3658
1378.16 -258.95 3650
1386.89 -258.95 3650
1395.62 -258.95 3650
1404.35 -258.95 3650
1409.98 -258.383 3642
1412.85 -257.318 3627
1421.52 -257.318 3627
1423.88 -256.183 3611
1432.52 -256.183 3611
1437.96 -255.616 3603
1443.36 -255.048 3595
1451.96 -255.048 3595
1457.71 -254.552 3588
1463.02 -253.984 3580
1468.3 -253.416 3572
1476.84 -253.416 3572
1485.38 -253.416 3572
1484.3 -251.785 3549
1483.54 -250.224 3527
1491.97 -250.224 3527
1463.39 -244.052 3440
1436.11 -238.163 3357
1441.13 -237.667 3350
1437.46 -235.751 3323
1445.41 -235.751 3323
1450.73 -235.325 3317
1467.46 -236.744 3337
1478.09 -237.17 3343
1486.08 -237.17 3343
1494.08 -237.17 3343
1487.24 -234.829 3310
1492 -234.332 3303
1499.9 -234.332 3303
1505.05 -233.906 3297
1458.72 -189.069 2665
1465.09 -189.069 2665
1471.46 -189.069 2665
1482.27 -189.637 2673
1500.92 -191.197 2695
1509.6 -191.481 2699
1516.05 -191.481 2699
1522.51 -191.481 2699
1534.06 -192.12 2708
1543.38 -192.474 2713
1549.87 -192.474 2713
1556.36 -192.474 2713
1559.96 -192.12 2708
1569.33 -192.474 2713
1575.82 -192.474 2713
1582.31 -192.474 2713
1588.79 -192.474 2713
1595.28 -192.474 2713
1606.49 -193.042 2721
1613 -193.042 2721
1619.51 -193.042 2721
1626.01 -193.042 2721
1632.52 -193.042 2721
1631.2 -192.12 2708
1635.25 -191.836 2704
1636.25 -191.197 2695
1642.7 -191.197 2695
1643.64 -190.559 2686
1647.6 -190.275 2682
1651.55 -189.991 2678
1657.95 -189.991 2678
1664.36 -189.991 2678
1670.76 -189.991 2678
1677.16 -189.991 2678
1683.57 -189.991 2678
1684.29 -189.353 2669
1690.67 -189.353 2669
1694.51 -189.069 2665
1695.14 -188.431 2656
1701.49 -188.431 2656
1707.84 -188.431 2656
1709.03 -187.863 2648
1710.18 -187.295 2640
1716.5 -187.295 2640
1719.55 -186.941 2635
1725.85 -186.941 2635
1729.52 -186.657 2631
1735.81 -186.657 2631
1742.1 -186.657 2631
1748.39 -186.657 2631
1749.35 -186.089 2623
1752.94 -185.806 2619
1759.21 -185.806 2619
1765.47 -185.806 2619
1769.03 -185.522 2615
1772.56 -185.238 2611
1778.81 -185.238 2611
1782.32 -184.954 2607
1785.81 -184.67 2603
1792.03 -184.67 2603
1798.26 -184.67 2603
1804.48 -184.67 2603
1810.71 -184.67 2603
1816.93 -184.67 2603
1823.15 -184.67 2603
1829.38 -184.67 2603
1832.78 -184.387 2599
1839 -184.387 2599
1841.66 -184.032 2594
1847.87 -184.032 2594
1851.21 -183.748 2590
1854.54 -183.464 2586
1860.72 -183.464 2586
1866.9 -183.464 2586
1870.19 -183.181 2582
1876.36 -183.181 2582
1882.54 -183.181 2582
1888.71 -183.181 2582
1889.02 -182.613 2574
1895.17 -182.613 2574
1901.33 -182.613 2574
1907.48 -182.613 2574
1913.64 -182.613 2574
1917.55 -182.4 2571
1920.71 -182.116 2567
1923.85 -181.833 2563
1929.97 -181.833 2563
1933.08 -181.549 2559
1939.2 -181.549 2559
1948.36 -181.833 2563
1957.54 -182.116 2567
1963.68 -182.116 2567
-1998.35 -182.959 2669
-2004.65 -184.125 2686
-2018.31 -185.975 2713
-2011.83 -185.975 2713
-2005.34 -185.975 2713
-1998.85 -185.975 2713
-1992.36 -185.975 2713
-1982.22 -185.633 2708
-1963.34 -184.467 2691
-2375.08 -229.162 3343
-2367.09 -229.162 3343
-2359.09 -229.162 3343
-2327.89 -226.9 3310
-2310.86 -226.008 3297
-2307.17 -226.42 3303
-2299.27 -226.42 3303
-2310.1 -228.271 3330
-2306.98 -228.75 3337
-2312.78 -230.121 3357
-2304.75 -230.121 3357
-2296.72 -230.121 3357
-2288.7 -230.121 3357
-2280.67 -230.121 3357
-2272.64 -230.121 3357
-2278.1 -231.492 3377
-2279.44 -232.452 3391
-2271.33 -232.452 3391
-2263.22 -232.452 3391
-2264.42 -233.412 3405
-2265.56 -234.372 3419
-2271.25 -235.811 3440
-2263.02 -235.811 3440
-2268.56 -237.251 3461
-2293.59 -240.747 3512
-2299.51 -242.255 3534
-2291.06 -242.255 3534
-2287.77 -242.803 3542
-2279.3 -242.803 3542
-2275.32 -243.283 3549
-2266.83 -243.283 3549
-2278.07 -245.408 3580
-2289.16 -247.533 3611
-2285.58 -248.081 3619
-2276.93 -248.081 3619
-2278.3 -249.178 3635
-2269.61 -249.178 3635
-2270.25 -250.207 3650
-2261.52 -250.207 3650
-2252.79 -250.207 3650
-2254.51 -251.372 3667
-2245.75 -251.372 3667
-2236.98 -251.372 3667
-2222.74 -250.755 3658
-2213.99 -250.755 3658
-2205.24 -250.755 3658
-2182.69 -249.178 3635
-2145.88 -245.956 3588
-2137.3 -245.956 3588
-2151.86 -248.63 3627
-2143.19 -248.63 3627
-2139.22 -249.178 3635
-2139.32 -250.207 3650
-2130.59 -250.207 3650
-2121.87 -250.207 3650
-2104.45 -249.178 3635
-2091.15 -248.63 3627
-2082.48 -248.63 3627
-2135.86 -259.324 3783
-2126.81 -259.324 3783
-2141.84 -262.271 3826
-2137.71 -262.888 3835
-2133.53 -263.505 3844
-2124.34 -263.505 3844
-2134.96 -265.973 3880
-2125.68 -265.973 3880
-2116.4 -265.973 3880
-2097.35 -264.739 3862
-2088.11 -264.739 3862
-2055.19 -261.723 3818
-2046.06 -261.723 3818
-1991.05 -255.828 3732
-1982.12 -255.828 3732
-1977.43 -256.376 3740
-1968.49 -256.376 3740
-1959.54 -256.376 3740
-1946.43 -255.828 3732
-1946.33 -256.993 3749
-1937.36 -256.993 3749
-1928.4 -256.993 3749
-1910.73 -255.828 3732
-1893.65 -254.731 3716
-1884.77 -254.731 3716
-1855.18 -251.92 3675
-1842.38 -251.372 3667
-1829.11 -250.755 3658
-1820.36 -250.755 3658
-1800.22 -249.178 3635
-1783.64 -248.081 3619
-1786.27 -249.658 3642
-1789.76 -251.372 3667
-1780.99 -251.372 3667
-1783.82 -253.017 3691
-1782.69 -254.114 3707
-1789.62 -256.376 3740
-1780.67 -256.376 3740
-1775.99 -256.993 3749
-1767.03 -256.993 3749
-1758.06 -256.993 3749
-1749.1 -256.993 3749
-1740.13 -256.993 3749
-1711.77 -254.114 3707
-1702.91 -254.114 3707
-1694.05 -254.114 3707
-1685.18 -254.114 3707
-1676.32 -254.114 3707
-1675.1 -255.279 3724
-1666.19 -255.279 3724
-1657.29 -255.279 3724
-1648.38 -255.279 3724
-1639.48 -255.279 3724
-1630.57 -255.279 3724
-1607.3 -253.017 3691
-1598.47 -253.017 3691
-1181.28 -203.867 2974
-1174.17 -203.867 2974
-1167.06 -203.867 2974
-1145.52 -201.331 2937
-1122.6 -198.52 2896
-1117.6 -198.863 2901
-1110.66 -198.863 2901
-1109.81 -199.96 2917
-1102.84 -199.96 2917
-1095.86 -199.96 2917
-1088.89 -199.96 2917
-1081.91 -199.96 2917
-1074.94 -199.96 2917
-1067.96 -199.96 2917
-1058.8 -199.548 2911
-1044.61 -198.177 2891
-1034.11 -197.492 2881
-1027.22 -197.492 2881
-1015.02 -196.464 2866
-1005 -195.847 2857
-994.676 -195.161 2847
-987.868 -195.161 2847
-981.06 -195.161 2847
-974.252 -195.161 2847
-967.444 -195.161 2847
-960.636 -195.161 2847
-953.828 -195.161 2847
-947.02 -195.161 2847
-940.212 -195.161 2847
-933.404 -195.161 2847
-926.596 -195.161 2847
-919.788 -195.161 2847
-912.98 -195.161 2847
-906.172 -195.161 2847
-899.364 -195.161 2847
-890.988 -194.818 2842
-885.747 -195.161 2847
-880.483 -195.504 2852
-875.195 -195.847 2857
-868.363 -195.847 2857
-864.245 -196.464 2866
-860.383 -197.149 2876
-853.505 -197.149 2876
-846.628 -197.149 2876
-839.751 -197.149 2876
-834.321 -197.492 2881
-827.432 -197.492 2881
-820.543 -197.492 2881
-813.653 -197.492 2881
-805.364 -197.149 2876
-798.486 -197.149 2876
-791.609 -197.149 2876
-784.732 -197.149 2876
-777.854 -197.149 2876
-770.977 -197.149 2876
-764.099 -197.149 2876
-758.539 -197.492 2881
-752.954 -197.835 2886
-747.345 -198.177 2891
-740.432 -198.177 2891
-733.518 -198.177 2891
-725.348 -197.835 2886
-718.447 -197.835 2886
-711.546 -197.835 2886
-704.645 -197.835 2886
-697.743 -197.835 2886
-690.842 -197.835 2886
-682.756 -197.492 2881
-675.866 -197.492 2881
-666.655 -196.806 2871
-660.939 -197.149 2876
-654.061 -197.149 2876
-650.559 -198.177 2891
-651.661 -200.645 2927
-653.692 -203.456 2968
-646.594 -203.456 2968
-651.132 -207.157 3022
-652.215 -209.831 3061
-664.489 -216.206 3154
-656.947 -216.206 3154
-654.346 -217.851 3178
-655.497 -220.799 3221
-647.795 -220.799 3221
-640.093 -220.799 3221
-645.937 -225.529 3290
-645.828 -228.271 3330
-643.036 -230.121 3357
-635.009 -230.121 3357
-632.024 -231.972 3384
-626.513 -232.932 3398
-620.935 -233.892 3412
-612.776 -233.892 3412
-604.617 -233.892 3412
-594.01 -232.932 3398
-585.885 -232.932 3398
-574.189 -231.492 3377
-568.46 -232.452 3391
-561.508 -232.932 3398
-554.522 -233.412 3405
-546.38 -233.412 3405
-538.237 -233.412 3405
-529.005 -232.932 3398
-520.88 -232.932 3398
-510.641 -231.972 3384
-500.47 -231.013 3370
-492.411 -231.013 3370
-484.353 -231.013 3370
-476.294 -231.013 3370
-467.263 -230.533 3363
-457.446 -229.642 3350
-449.435 -229.642 3350
-440.502 -229.162 3343
-430.826 -228.271 3330
-422.862 -228.271 3330
-415.772 -228.75 3337
-407.792 -228.75 3337
-399.812 -228.75 3337
-241.886 -141.212 2060
-237.19 -141.35 2062
-232.597 -141.555 2065
-227.659 -141.555 2065
-223.26 -141.898 2070
-219.365 -142.583 2080
-214.907 -142.926 2085
-209.921 -142.926 2085
-205.23 -143.132 2088
-200.716 -143.475 2093
-195.992 -143.68 2096
-190.98 -143.68 2096
-185.967 -143.68 2096
-181.128 -143.817 2098
-176.111 -143.817 2098
-171.094 -143.817 2098
-166.314 -144.023 2101
-161.521 -144.229 2104
-156.861 -144.571 2109
-151.818 -144.571 2109
-146.775 -144.571 2109
-141.933 -144.777 2112
-136.883 -144.777 2112
-131.832 -144.777 2112
-126.902 -144.914 2114
-122.02 -145.12 2117
-117.123 -145.325 2120
-112.053 -145.325 2120
-107.085 -145.463 2122
-102.155 -145.668 2125
-97.073 -145.668 2125
-91.9915 -145.668 2125
-86.91 -145.668 2125
-81.8285 -145.668 2125
-76.7469 -145.668 2125
-71.5642 -145.463 2122
-66.4899 -145.463 2122
-61.3577 -145.325 2120
-56.2881 -145.325 2120
-51.2185 -145.325 2120
-46.0837 -145.12 2117
-41.0213 -145.12 2117
-35.9589 -145.12 2117
-30.8527 -144.914 2114
-25.7731 -144.777 2112
-20.7227 -144.777 2112
-15.6722 -144.777 2112
-10.6218 -144.777 2112
-5.57138 -144.777 2112
-0.520949 -144.777 2112
4.52305 -144.571 2109
9.56631 -144.571 2109
14.6096 -144.571 2109
19.6249 -144.366 2106
24.661 -144.366 2106
29.697 -144.366 2106
34.7331 -144.366 2106
39.7692 -144.366 2106
44.8053 -144.366 2106
49.8414 -144.366 2106
54.8775 -144.366 2106
59.9989 -144.571 2109
65.0421 -144.571 2109
70.0854 -144.571 2109
75.1287 -144.571 2109
80.286 -144.777 2112
85.4172 -144.914 2114
90.4724 -144.914 2114
95.5276 -144.914 2114
100.726 -145.12 2117
105.938 -145.325 2120
111.112 -145.463 2122
116.515 -145.874 2128
121.604 -145.874 2128
126.871 -146.079 2131
132.277 -146.422 2136
137.577 -146.628 2139
142.692 -146.628 2139
148.015 -146.834 2142
153.137 -146.834 2142
158.407 -146.971 2144
163.534 -146.971 2144
168.897 -147.176 2147
174.517 -147.588 2153
179.666 -147.588 2153
184.814 -147.588 2153
190.139 -147.725 2155
195.836 -148.136 2161
202.027 -148.89 2172
207.221 -148.89 2172
213.295 -149.507 2181
219.612 -150.261 2192
226.085 -151.084 2204
231.355 -151.084 2204
237.592 -151.701 2213
245.408 -153.277 2236
252.101 -154.1 2248
257.477 -154.1 2248
264.372 -154.991 2261
270.853 -155.608 2270
276.281 -155.608 2270
281.71 -155.608 2270
289.921 -157.116 2292
295.401 -157.116 2292
300.882 -157.116 2292
388.036 -195.504 2852
394.856 -195.504 2852
401.676 -195.504 2852
409.212 -195.847 2857
417.355 -196.464 2866
424.949 -196.806 2871
431.814 -196.806 2871
438.679 -196.806 2871
446.321 -197.149 2876
453.198 -197.149 2876
460.076 -197.149 2876
466.141 -196.806 2871
473.007 -196.806 2871
479.872 -196.806 2871
485.89 -196.464 2866
492.743 -196.464 2866
498.899 -196.189 2862
505.743 -196.189 2862
512.587 -196.189 2862
519.431 -196.189 2862
526.275 -196.189 2862
533.119 -196.189 2862
539.02 -195.847 2857
544.896 -195.504 2852
551.716 -195.504 2852
558.536 -195.504 2852
565.356 -195.504 2852
571.173 -195.161 2847
576.966 -194.818 2842
583.762 -194.818 2842
590.558 -194.818 2842
597.354 -194.818 2842
604.15 -194.818 2842
610.946 -194.818 2842
617.743 -194.818 2842
624.539 -194.818 2842
631.335 -194.818 2842
637.008 -194.476 2837
643.792 -194.476 2837
650.576 -194.476 2837
656.202 -194.133 2832
662.974 -194.133 2832
669.746 -194.133 2832
676.518 -194.133 2832
683.291 -194.133 2832
690.063 -194.133 2832
696.835 -194.133 2832
703.607 -194.133 2832
710.379 -194.133 2832
717.151 -194.133 2832
723.924 -194.133 2832
730.696 -194.133 2832
736.426 -193.859 2828
743.189 -193.859 2828
749.952 -193.859 2828
757.785 -194.133 2832
764.557 -194.133 2832
771.329 -194.133 2832
778.101 -194.133 2832
784.873 -194.133 2832
791.645 -194.133 2832
798.418 -194.133 2832
804.052 -193.859 2828
810.815 -193.859 2828
817.578 -193.859 2828
824.34 -193.859 2828
831.103 -193.859 2828
837.865 -193.859 2828
844.628 -193.859 2828
851.391 -193.859 2828
858.153 -193.859 2828
864.916 -193.859 2828
871.679 -193.859 2828
878.441 -193.859 2828
885.204 -193.859 2828
891.966 -193.859 2828
895.551 -193.173 2818
900.689 -192.83 2813
907.415 -192.83 2813
914.142 -192.83 2813
922.506 -193.173 2818
929.244 -193.173 2818
935.983 -193.173 2818
942.722 -193.173 2818
949.461 -193.173 2818
954.503 -192.83 2813
961.229 -192.83 2813
1290.52 -253.565 3699
1308.15 -255.279 3724
1317.05 -255.279 3724
1325.96 -255.279 3724
1334.86 -255.279 3724
1334.75 -253.565 3699
1343.59 -253.565 3699
1349.51 -253.017 3691
1355.4 -252.469 3683
1354.94 -250.755 3658
1363.69 -250.755 3658
1372.44 -250.755 3658
1378.16 -250.207 3650
1386.89 -250.207 3650
1395.62 -250.207 3650
1404.35 -250.207 3650
1409.98 -249.658 3642
1412.85 -248.63 3627
1421.52 -248.63 3627
1423.88 -247.533 3611
1432.52 -247.533 3611
1437.96 -246.985 3603
1443.36 -246.436 3595
1451.96 -246.436 3595
1457.71 -245.956 3588
1463.02 -245.408 3580
1465.42 -244.38 3565
1473.94 -244.38 3565
1482.47 -244.38 3565
1481.38 -242.803 3542
1474.28 -240.267 3505
1482.66 -240.267 3505
1454.46 -234.372 3419
1421.57 -227.791 3323
1429.51 -227.791 3323
1434.87 -227.379 3317
1442.8 -227.379 3317
1450.73 -227.379 3317
1467.46 -228.75 3337
1478.09 -229.162 3343
1486.08 -229.162 3343
1494.08 -229.162 3343
1487.24 -226.9 3310
1492 -226.42 3303
1499.9 -226.42 3303
1505.05 -226.008 3297
1458.72 -182.685 2665
1465.09 -182.685 2665
1471.46 -182.685 2665
1482.27 -183.233 2673
1500.92 -184.742 2695
1509.6 -185.016 2699
1516.05 -185.016 2699
1522.51 -185.016 2699
1534.06 -185.633 2708
1543.38 -185.975 2713
1549.87 -185.975 2713
1556.36 -185.975 2713
1559.96 -185.633 2708
1569.33 -185.975 2713
1575.82 -185.975 2713
1582.31 -185.975 2713
1588.79 -185.975 2713
1595.28 -185.975 2713
1606.49 -186.524 2721
1613 -186.524 2721
1619.51 -186.524 2721
1626.01 -186.524 2721
1632.52 -186.524 2721
1631.2 -185.633 2708
1635.25 -185.358 2704
1636.25 -184.742 2695
1642.7 -184.742 2695
1643.64 -184.125 2686
1647.6 -183.85 2682
1651.55 -183.576 2678
1657.95 -183.576 2678
1664.36 -183.576 2678
1670.76 -183.576 2678
1677.16 -183.576 2678
1683.57 -183.576 2678
1684.29 -182.959 2669
1690.67 -182.959 2669
1694.51 -182.685 2665
1695.14 -182.068 2656
1701.49 -182.068 2656
1705.27 -181.794 2652
1709.03 -181.52 2648
1710.18 -180.971 2640
1716.5 -180.971 2640
1719.55 -180.629 2635
1725.85 -180.629 2635
1726.89 -180.08 2627
1733.17 -180.08 2627
1739.45 -180.08 2627
1745.73 -180.08 2627
1746.68 -179.532 2619
1752.94 -179.532 2619
1759.21 -179.532 2619
1765.47 -179.532 2619
1769.03 -179.258 2615
1772.56 -178.983 2611
1778.81 -178.983 2611
1782.32 -178.709 2607
1785.81 -178.435 2603
1792.03 -178.435 2603
1798.26 -178.435 2603
1804.48 -178.435 2603
1810.71 -178.435 2603
1816.93 -178.435 2603
1823.15 -178.435 2603
1829.38 -178.435 2603
1832.78 -178.161 2599
1839 -178.161 2599
1841.66 -177.818 2594
1847.87 -177.818 2594
1851.21 -177.544 2590
1854.54 -177.27 2586
1860.72 -177.27 2586
1866.9 -177.27 2586
1870.19 -176.995 2582
1876.36 -176.995 2582
1879.62 -176.721 2578
1885.79 -176.721 2578
1889.02 -176.447 2574
1892.96 -176.241 2571
1899.11 -176.241 2571
1905.26 -176.241 2571
1908.43 -175.967 2567
1914.57 -175.967 2567
1917.72 -175.693 2563
1920.84 -175.419 2559
1926.96 -175.419 2559
1930.06 -175.145 2555
1939.2 -175.419 2559
1945.32 -175.419 2559
1951.44 -175.419 2559
1957.56 -175.419 2559
-1988.61 -175.706 2656
-1991.96 -176.566 2669
-1995.25 -177.426 2682
-1988.84 -177.426 2682
-1992.03 -178.286 2695
-1988.54 -178.55 2699
-1982.08 -178.55 2699
-1975.63 -178.55 2699
-1956.77 -177.426 2682
-1950.36 -177.426 2682
-1943.94 -177.426 2682
-2325.31 -217.25 3284
-2317.46 -217.25 3284
-2313.82 -217.647 3290
-2305.96 -217.647 3290
-2307.17 -218.507 3303
-2299.27 -218.507 3303
-2314.96 -220.757 3337
-2311.13 -221.154 3343
-2312.78 -222.08 3357
-2304.75 -222.08 3357
-2296.72 -222.08 3357
-2297.56 -222.94 3370
-2289.5 -222.94 3370
-2281.44 -222.94 3370
-2282.83 -223.866 3384
-2288.85 -225.255 3405
-2280.71 -225.255 3405
-2272.57 -225.255 3405
-2264.42 -225.255 3405
-2265.56 -226.181 3419
-2271.25 -227.571 3440
-2263.02 -227.571 3440
-2268.56 -228.96 3461
-2293.59 -232.334 3512
-2299.51 -233.789 3534
-2291.06 -233.789 3534
-2282.61 -233.789 3534
-2279.3 -234.318 3542
-2275.32 -234.781 3549
-2266.83 -234.781 3549
-2278.07 -236.832 3580
-2289.16 -238.883 3611
-2285.58 -239.412 3619
-2276.93 -239.412 3619
-2273.29 -239.941 3627
-2269.61 -240.471 3635
-2265.27 -240.934 3642
-2256.56 -240.934 3642
-2252.79 -241.463 3650
-2248.98 -241.992 3658
-2240.23 -241.992 3658
-2231.49 -241.992 3658
-2217.88 -241.463 3650
-2204.31 -240.934 3642
-2195.6 -240.934 3642
-2182.69 -240.471 3635
-2169.21 -239.941 3627
-2160.54 -239.941 3627
-2165.51 -241.463 3650
-2156.78 -241.463 3650
-2148.05 -241.463 3650
-2139.32 -241.463 3650
-2130.59 -241.463 3650
-2121.87 -241.463 3650
-2113.14 -241.463 3650
-2104.41 -241.463 3650
-2095.68 -241.463 3650
-2135.86 -250.261 3783
-2126.81 -250.261 3783
-2141.84 -253.106 3826
-2137.71 -253.701 3835
-2133.53 -254.297 3844
-2124.34 -254.297 3844
-2125.05 -255.488 3862
-2115.82 -255.488 3862
-2106.58 -255.488 3862
-2097.35 -255.488 3862
-2088.11 -255.488 3862
-2045.5 -251.386 3800
-2036.41 -251.386 3800
-1991.05 -246.888 3732
-1986.37 -247.417 3740
-1977.43 -247.417 3740
-1968.49 -247.417 3740
-1959.54 -247.417 3740
-1946.43 -246.888 3732
-1946.33 -248.012 3749
-1937.36 -248.012 3749
-1928.4 -248.012 3749
-1914.83 -247.417 3740
-1893.65 -245.829 3716
-1884.77 -245.829 3716
-1859.22 -243.646 3683
-1846.39 -243.117 3675
-1829.11 -241.992 3658
-1820.36 -241.992 3658
-1800.22 -240.471 3635
-1783.64 -239.412 3619
-1790.19 -241.463 3650
-1789.76 -242.588 3667
-1780.99 -242.588 3667
-1783.82 -244.175 3691
-1782.69 -245.234 3707
-1773.83 -245.234 3707
-1764.96 -245.234 3707
-1771.73 -247.417 3740
-1762.79 -247.417 3740
-1753.84 -247.417 3740
-1744.9 -247.417 3740
-1720.64 -245.234 3707
-1708.08 -244.704 3699
-1680.4 -241.992 3658
-1686.73 -244.175 3691
-1677.91 -244.175 3691
-1676.32 -245.234 3707
-1667.45 -245.234 3707
-1666.19 -246.358 3724
-1657.29 -246.358 3724
-1648.38 -246.358 3724
-1631.99 -245.234 3707
-1623.13 -245.234 3707
-1607.3 -244.175 3691
-1591.54 -243.117 3675
-1181.28 -196.743 2974
-1174.17 -196.743 2974
-1167.06 -196.743 2974
-1145.52 -194.295 2937
-1122.6 -191.583 2896
-1117.6 -191.913 2901
-1110.66 -191.913 2901
-1109.81 -192.972 2917
-1102.84 -192.972 2917
-1095.86 -192.972 2917
-1088.89 -192.972 2917
-1081.91 -192.972 2917
-1074.94 -192.972 2917
-1067.96 -192.972 2917
-1058.8 -192.575 2911
-1042.81 -190.921 2886
-1030.52 -189.929 2871
-1023.66 -189.929 2871
-1013.6 -189.333 2862
-1005 -189.003 2857
-996.423 -188.672 2852
-989.603 -188.672 2852
-982.783 -188.672 2852
-974.252 -188.341 2847
-967.444 -188.341 2847
-962.323 -188.672 2852
-955.503 -188.672 2852
-952.009 -189.333 2862
-945.165 -189.333 2862
-938.322 -189.333 2862
-928.223 -188.672 2852
-919.788 -188.341 2847
-912.98 -188.341 2847
-906.172 -188.341 2847
-900.943 -188.672 2852
-894.123 -188.672 2852
-887.303 -188.672 2852
-883.57 -189.333 2862
-876.726 -189.333 2862
-869.882 -189.333 2862
-864.245 -189.598 2866
-860.383 -190.26 2876
-853.505 -190.26 2876
-846.628 -190.26 2876
-839.751 -190.26 2876
-834.321 -190.59 2881
-827.432 -190.59 2881
-820.543 -190.59 2881
-813.653 -190.59 2881
-805.364 -190.26 2876
-798.486 -190.26 2876
-791.609 -190.26 2876
-784.732 -190.26 2876
-777.854 -190.26 2876
-770.977 -190.26 2876
-764.099 -190.26 2876
-757.222 -190.26 2876
-750.345 -190.26 2876
-744.76 -190.59 2881
-737.87 -190.59 2881
-730.981 -190.59 2881
-722.835 -190.26 2876
-715.958 -190.26 2876
-709.08 -190.26 2876
-702.203 -190.26 2876
-695.326 -190.26 2876
-688.448 -190.26 2876
-681.571 -190.26 2876
-673.52 -189.929 2871
-665.494 -189.598 2866
-658.641 -189.598 2866
-651.787 -189.598 2866
-647.184 -190.26 2876
-643.646 -191.252 2891
-644.662 -193.633 2927
-637.662 -193.633 2927
-633.895 -194.626 2942
-643.906 -199.918 3022
-659.433 -207.063 3130
-651.948 -207.063 3130
-653.111 -209.841 3172
-654.073 -212.62 3214
-647.795 -213.083 3221
-640.093 -213.083 3221
-647.312 -218.11 3297
-649.706 -221.617 3350
-649.549 -224.329 3391
-641.44 -224.329 3391
-637.253 -225.718 3412
-630.385 -226.181 3419
-622.209 -226.181 3419
-614.033 -226.181 3419
-605.857 -226.181 3419
-596.458 -225.718 3412
-588.299 -225.718 3412
-578.949 -225.255 3405
-570.807 -225.255 3405
-563.821 -225.718 3412
-557.942 -226.644 3426
-549.75 -226.644 3426
-541.557 -226.644 3426
-531.185 -225.718 3412
-523.026 -225.718 3412
-514.867 -225.718 3412
-502.549 -223.866 3384
-494.457 -223.866 3384
-486.365 -223.866 3384
-478.273 -223.866 3384
-468.235 -222.94 3370
-457.446 -221.617 3350
-449.435 -221.617 3350
-440.502 -221.154 3343
-429.92 -219.83 3323
-421.974 -219.83 3323
-412.408 -218.97 3310
-404.492 -218.97 3310
-246.213 -135.947 2055
-241.534 -136.079 2057
-237.19 -136.41 2062
-232.597 -136.608 2065
-227.659 -136.608 2065
-223.26 -136.939 2070
-219.365 -137.601 2080
-214.7 -137.799 2083
-209.719 -137.799 2083
-205.23 -138.13 2088
-200.524 -138.328 2091
-195.992 -138.659 2096
-190.98 -138.659 2096
-186.411 -138.99 2101
-181.387 -138.99 2101
-176.363 -138.99 2101
-171.339 -138.99 2101
-166.552 -139.188 2104
-161.674 -139.321 2106
-156.861 -139.519 2109
-151.818 -139.519 2109
-146.983 -139.718 2112
-141.933 -139.718 2112
-137.012 -139.85 2114
-131.957 -139.85 2114
-127.082 -140.048 2117
-122.192 -140.247 2120
-117.233 -140.379 2122
-112.159 -140.379 2122
-107.236 -140.578 2125
-102.155 -140.578 2125
-97.073 -140.578 2125
-91.9915 -140.578 2125
-86.91 -140.578 2125
-81.8285 -140.578 2125
-76.7469 -140.578 2125
-71.5642 -140.379 2122
-66.4899 -140.379 2122
-61.3577 -140.247 2120
-56.2881 -140.247 2120
-51.2185 -140.247 2120
-46.0837 -140.048 2117
-40.9632 -139.85 2114
-35.9079 -139.85 2114
-30.8235 -139.718 2112
-25.7731 -139.718 2112
-20.7227 -139.718 2112
-15.6722 -139.718 2112
-10.6218 -139.718 2112
-5.56347 -139.519 2109
-0.520209 -139.519 2109
4.51662 -139.321 2106
9.5527 -139.321 2106
14.5888 -139.321 2106
19.6062 -139.188 2104
24.6375 -139.188 2104
29.6688 -139.188 2104
34.7001 -139.188 2104
39.7314 -139.188 2104
44.7627 -139.188 2104
49.794 -139.188 2104
54.8253 -139.188 2104
59.9135 -139.321 2106
64.9496 -139.321 2106
70.0854 -139.519 2109
75.1287 -139.519 2109
80.1719 -139.519 2109
85.3364 -139.718 2112
90.3868 -139.718 2112
95.4373 -139.718 2112
100.583 -139.85 2114
105.788 -140.048 2117
111.007 -140.247 2120
116.515 -140.776 2128
121.604 -140.776 2128
126.871 -140.975 2131
132.277 -141.305 2136
137.384 -141.305 2136
142.492 -141.305 2136
147.807 -141.504 2139
153.137 -141.702 2142
158.407 -141.835 2144
163.534 -141.835 2144
168.897 -142.033 2147
174.517 -142.43 2153
179.666 -142.43 2153
184.814 -142.43 2153
190.139 -142.562 2155
195.836 -142.959 2161
201.748 -143.488 2169
206.934 -143.488 2169
213.001 -144.084 2178
219.312 -144.812 2189
225.469 -145.407 2198
230.726 -145.407 2198
237.592 -146.399 2213
244.421 -147.325 2227
251.428 -148.318 2242
256.789 -148.318 2242
262.151 -148.318 2242
269.779 -149.575 2261
275.186 -149.575 2261
280.593 -149.575 2261
285.999 -149.575 2261
388.717 -189.003 2857
395.549 -189.003 2857
402.381 -189.003 2857
409.212 -189.003 2857
417.355 -189.598 2866
425.689 -190.26 2876
432.566 -190.26 2876
439.443 -190.26 2876
447.097 -190.59 2881
453.986 -190.59 2881
460.875 -190.59 2881
466.953 -190.26 2876
473.007 -189.929 2871
479.872 -189.929 2871
485.89 -189.598 2866
492.743 -189.598 2866
499.597 -189.598 2866
506.45 -189.598 2866
