351.838 1144.03 2167
356.526 1142.44 2164
362.537 1145.08 2169
367.723 1145.08 2169
374.457 1149.84 2178
379.666 1149.84 2178
384.874 1149.84 2178
390.082 1149.84 2178
395.29 1149.84 2178
400.499 1149.84 2178
405.707 1149.84 2178
409.783 1146.67 2172
414.977 1146.67 2172
419.204 1144.03 2167
422.623 1139.28 2158
427.189 1137.69 2155
432.342 1137.69 2155
435.871 1133.47 2147
440.389 1131.89 2144
446.14 1133.47 2147
451.274 1133.47 2147
457.683 1136.64 2153
462.832 1136.64 2153
467.98 1136.64 2153
473.129 1136.64 2153
478.277 1136.64 2153
483.426 1136.64 2153
488.574 1136.64 2153
493.035 1135.05 2150
498.176 1135.05 2150
503.317 1135.05 2150
509.641 1137.69 2155
515.511 1139.28 2158
521.395 1140.86 2161
526.563 1140.86 2161
532.469 1142.44 2164
538.389 1144.03 2167
544.825 1146.67 2172
550.019 1146.67 2172
555.213 1146.67 2172
560.407 1146.67 2172
565.6 1146.67 2172
570.794 1146.67 2172
575.988 1146.67 2172
579.844 1144.03 2167
584.216 1142.44 2164
589.391 1142.44 2164
594.566 1142.44 2164
599.741 1142.44 2164
604.915 1142.44 2164
610.09 1142.44 2164
612.706 1137.69 2155
617.859 1137.69 2155
623.013 1137.69 2155
628.166 1137.69 2155
633.319 1137.69 2155
641.139 1142.44 2164
646.314 1142.44 2164
652.392 1144.03 2167
657.574 1144.03 2167
662.756 1144.03 2167
667.013 1142.44 2164
672.188 1142.44 2164
676.423 1140.86 2161
681.591 1140.86 2161
687.712 1142.44 2164
692.887 1142.44 2164
699.674 1145.08 2169
704.861 1145.08 2169
710.048 1145.08 2169
715.235 1145.08 2169
720.421 1145.08 2169
725.608 1145.08 2169
730.795 1145.08 2169
735.303 1144.03 2167
740.485 1144.03 2167
744.635 1142.44 2164
749.809 1142.44 2164
754.984 1142.44 2164
760.159 1142.44 2164
765.334 1142.44 2164
769.44 1140.86 2161
773.533 1139.28 2158
778.693 1139.28 2158
783.853 1139.28 2158
789.014 1139.28 2158
794.174 1139.28 2158
799.335 1139.28 2158
804.495 1139.28 2158
809.656 1139.28 2158
813.683 1137.69 2155
818.077 1136.64 2153
823.225 1136.64 2153
828.373 1136.64 2153
834.296 1137.69 2155
839.45 1137.69 2155
845.779 1139.28 2158
850.939 1139.28 2158
856.099 1139.28 2158
862.457 1140.86 2161
870.837 1145.08 2169
876.023 1145.08 2169
882.429 1146.67 2172
888.849 1148.25 2175
895.283 1149.84 2178
900.491 1149.84 2178
911.521 1157.23 2192
916.763 1157.23 2192
922.005 1157.23 2192
929.785 1160.39 2198
935.041 1160.39 2198
940.297 1160.39 2198
945.553 1160.39 2198
950.809 1160.39 2198
952.15 1155.64 2189
956.073 1154.06 2186
961.3 1154.06 2186
966.528 1154.06 2186
971.755 1154.06 2186
976.089 1153 2184
979.963 1151.42 2181
985.179 1151.42 2181
989.032 1149.84 2178
994.24 1149.84 2178
995.318 1145.08 2169
1000.51 1145.08 2169
1003.37 1142.44 2164
1007.15 1140.86 2161
1009.51 1137.69 2155
1013.72 1136.64 2153
1018.87 1136.64 2153
1024.02 1136.64 2153
1026.3 1133.47 2147
1031.43 1133.47 2147
1036.56 1133.47 2147
1036.36 1127.66 2136
1041.47 1127.66 2136
1046.58 1127.66 2136
1051.68 1127.66 2136
1056.79 1127.66 2136
1061.9 1127.66 2136
1067.01 1127.66 2136
1072.12 1127.66 2136
1077.22 1127.66 2136
1082.33 1127.66 2136
1090.49 1130.83 2142
1101.24 1136.64 2153
1108.96 1139.28 2158
1114.12 1139.28 2158
1120.84 1140.86 2161
1130.17 1145.08 2169
1135.36 1145.08 2169
1140.55 1145.08 2169
1144.68 1144.03 2167
1149.86 1144.03 2167
1155.04 1144.03 2167
1158.62 1142.44 2164
1163.79 1142.44 2164
1167.35 1140.86 2161
1172.51 1140.86 2161
1177.68 1140.86 2161
1181.21 1139.28 2158
1183.62 1136.64 2153
1188.77 1136.64 2153
1190.59 1133.47 2147
1191.27 1129.25 2139
1193.03 1126.08 2133
1197 1125.02 2131
1202.1 1125.02 2131
1207.19 1125.02 2131
1210.58 1123.44 2128
1213.96 1121.86 2125
1219.04 1121.86 2125
1222.39 1120.27 2122
1227.47 1120.27 2122
1231.38 1119.22 2120
1236.45 1119.22 2120
1241.52 1119.22 2120
1244.83 1117.63 2117
1249.89 1117.63 2117
1254.95 1117.63 2117
1260.01 1117.63 2117
1265.07 1117.63 2117
1270.14 1117.63 2117
1277.01 1119.22 2120
1286.91 1123.44 2128
1292 1123.44 2128
1300.14 1126.08 2133
1315.64 1135.05 2150
1327.54 1140.86 2161
1332.71 1140.86 2161
1348.4 1149.84 2178
1357.34 1153 2184
1362.56 1153 2184
1367.78 1153 2184
1373.01 1153 2184
1367.5 1144.03 2167
1377.75 1148.25 2175
1382.95 1148.25 2175
1388.15 1148.25 2175
1393.35 1148.25 2175
1398.56 1148.25 2175
1403.76 1148.25 2175
1408.96 1148.25 2175
1414.16 1148.25 2175
1419.36 1148.25 2175
1424.56 1148.25 2175
1427.79 1146.67 2172
1429.68 1144.03 2167
1426.92 1137.69 2155
1432.07 1137.69 2155
1431.89 1133.47 2147
1431.67 1129.25 2139
1436.79 1129.25 2139
1441.9 1129.25 2139
1447.02 1129.25 2139
1452.13 1129.25 2139
1453.16 1126.08 2133
1456.89 1125.02 2131
1461.99 1125.02 2131
1467.08 1125.02 2131
1462.51 1117.63 2117
1465.49 1116.05 2114
1472.63 1117.63 2117
1477.7 1117.63 2117
1482.76 1117.63 2117
1489.93 1119.22 2120
1495 1119.22 2120
1500.07 1119.22 2120
1506.56 1120.27 2122
1511.63 1120.27 2122
1520.99 1123.44 2128
1526.08 1123.44 2128
1531.17 1123.44 2128
1534.09 1121.86 2125
1539.18 1121.86 2125
1546.44 1123.44 2128
1551.53 1123.44 2128
1556.62 1123.44 2128
1567.57 1127.66 2136
1578.57 1131.89 2144
1583.7 1131.89 2144
1595.5 1136.64 2153
1600.64 1136.64 2153
1605.79 1136.64 2153
1610.94 1136.64 2153
1611.59 1133.47 2147
1612.96 1130.83 2142
1618.08 1130.83 2142
1618.65 1127.66 2136
1617.68 1123.44 2128
1620.48 1121.86 2125
1623.27 1120.27 2122
-1555.85 1102.02 2078
-1550.88 1102.02 2078
-1549.63 1104.67 2083
-1544.65 1104.67 2083
-1541.15 1105.73 2085
-1536.16 1105.73 2085
-1535.58 1108.91 2091
-1532.05 1109.98 2093
-1529.23 1111.57 2096
-1524.22 1111.57 2096
-1522.83 1114.22 2101
-1519.97 1115.81 2104
-1514.94 1115.81 2104
-1509.91 1115.81 2104
-1502.73 1114.22 2101
-1497.71 1114.22 2101
-1492.68 1114.22 2101
-1487.66 1114.22 2101
-1484.75 1115.81 2104
-1479.72 1115.81 2104
-1474.69 1115.81 2104
-1467.56 1114.22 2101
-1453.49 1107.32 2088
-1445.03 1104.67 2083
-1445.58 1108.91 2091
-1440.58 1108.91 2091
-1436.95 1109.98 2093
-1437.42 1114.22 2101
-1434.44 1115.81 2104
-1429.41 1115.81 2104
-1424.38 1115.81 2104
-1417.32 1114.22 2101
-1414.31 1115.81 2104
-1409.28 1115.81 2104
-1405.59 1116.87 2106
-1400.55 1116.87 2106
-1395.51 1116.87 2106
-1390.48 1116.87 2106
-1384.13 1115.81 2104
-1379.1 1115.81 2104
-1374.06 1115.81 2104
-1369.03 1115.81 2104
-1364 1115.81 2104
-1360.26 1116.87 2106
-1357.16 1118.46 2109
-1352.11 1118.46 2109
-1347.07 1118.46 2109
-1340.12 1116.87 2106
-1335.08 1116.87 2106
-1318.68 1107.32 2088
-1313.68 1107.32 2088
-1308.69 1107.32 2088
-1303.7 1107.32 2088
-1298.71 1107.32 2088
-1288.76 1103.08 2080
-1282.55 1102.02 2078
-1278.81 1103.08 2080
-1278.73 1107.32 2088
-1273.74 1107.32 2088
-1274.82 1112.63 2098
-1273.44 1115.81 2104
-1269.61 1116.87 2106
-1264.58 1116.87 2106
-1259.54 1116.87 2106
-1253.31 1115.81 2104
-1248.28 1115.81 2104
-1243.25 1115.81 2104
-1234.69 1112.63 2098
-1226.74 1109.98 2093
-1223.49 1111.57 2096
-1218.47 1111.57 2096
-1213.46 1111.57 2096
-1208.45 1111.57 2096
-1204.59 1112.63 2098
-1199.57 1112.63 2098
-1196.26 1114.22 2101
-1194.07 1116.87 2106
-1189.04 1116.87 2106
-1184 1116.87 2106
-1178.96 1116.87 2106
-1173.93 1116.87 2106
-1168.89 1116.87 2106
-1158.33 1111.57 2096
-1144.51 1103.08 2080
-1135.16 1098.84 2072
-1133.47 1102.02 2078
-1128.5 1102.02 2078
-1130.56 1108.91 2091
-1125.56 1108.91 2091
-1123.24 1111.57 2096
-1118.23 1111.57 2096
-1113.22 1111.57 2096
-1109.26 1112.63 2098
-1107.41 1115.81 2104
-1102.37 1115.81 2104
-1099.95 1118.46 2109
-1097.5 1121.11 2114
-1095.55 1124.29 2120
-1090.48 1124.29 2120
-1086.43 1125.35 2122
-1081.36 1125.35 2122
-1076.28 1125.35 2122
-1071.21 1125.35 2122
-1071.66 1131.19 2133
-1066.56 1131.19 2133
-1064.45 1134.37 2139
-1059.33 1134.37 2139
-1054.22 1134.37 2139
-1049.1 1134.37 2139
-1043.99 1134.37 2139
-1038.87 1134.37 2139
-1033.76 1134.37 2139
-1032.49 1138.61 2147
-1027.36 1138.61 2147
-1022.22 1138.61 2147
-1017.09 1138.61 2147
-1011.95 1138.61 2147
-1006.82 1138.61 2147
-1001.68 1138.61 2147
-999.335 1141.8 2153
-997.881 1146.04 2161
-992.713 1146.04 2161
-987.546 1146.04 2161
-982.378 1146.04 2161
-977.211 1146.04 2161
-972.043 1146.04 2161
-964.191 1142.86 2155
-958.148 1141.8 2153
-951.671 1140.2 2150
-946.53 1140.2 2150
-940.075 1138.61 2147
-934.941 1138.61 2147
-927.641 1135.96 2142
-922.519 1135.96 2142
-917.397 1135.96 2142
-910.997 1134.37 2139
-905.882 1134.37 2139
-900.767 1134.37 2139
-895.652 1134.37 2139
-890.537 1134.37 2139
-884.18 1132.78 2136
-879.073 1132.78 2136
-873.965 1132.78 2136
-865.603 1128.54 2128
-858.088 1125.35 2122
-853.013 1125.35 2122
-847.939 1125.35 2122
-842.07 1124.29 2120
-837.001 1124.29 2120
-832.716 1125.35 2122
-827.642 1125.35 2122
-822.567 1125.35 2122
-818.649 1126.95 2125
-814.716 1128.54 2128
-809.627 1128.54 2128
-804.538 1128.54 2128
-800.577 1130.13 2131
-795.481 1130.13 2131
-790.385 1130.13 2131
-785.289 1130.13 2131
-780.193 1130.13 2131
-772.915 1126.95 2125
-767.834 1126.95 2125
-762.752 1126.95 2125
-756.601 1125.35 2122
-750.818 1124.29 2120
-745.749 1124.29 2120
-740.679 1124.29 2120
-735.609 1124.29 2120
-732.263 1126.95 2125
-727.181 1126.95 2125
-722.1 1126.95 2125
-717.018 1126.95 2125
-711.937 1126.95 2125
-706.855 1126.95 2125
-702.765 1128.54 2128
-697.676 1128.54 2128
-693.564 1130.13 2131
-688.468 1130.13 2131
-684.013 1131.19 2133
-678.913 1131.19 2133
-674.76 1132.78 2136
-669.652 1132.78 2136
-664.544 1132.78 2136
-659.436 1132.78 2136
-655.247 1134.37 2139
-651.044 1135.96 2142
-645.922 1135.96 2142
-640.8 1135.96 2142
-637.161 1138.61 2147
-632.027 1138.61 2147
-626.893 1138.61 2147
-621.759 1138.61 2147
-616.625 1138.61 2147
-610.636 1137.02 2144
-605.509 1137.02 2144
-600.382 1137.02 2144
-595.255 1137.02 2144
-590.129 1137.02 2144
-585.002 1137.02 2144
-578.522 1134.37 2139
-573.407 1134.37 2139
-566.167 1130.13 2131
-561.071 1130.13 2131
-555.975 1130.13 2131
-552.947 1134.37 2139
-548.601 1135.96 2142
-543.986 1137.02 2144
-538.859 1137.02 2144
-533.732 1137.02 2144
-528.605 1137.02 2144
-523.478 1137.02 2144
-517.868 1135.96 2142
-512.027 1134.37 2139
-505.49 1131.19 2133
-500.39 1131.19 2133
-495.289 1131.19 2133
-490.188 1131.19 2133
-484.633 1130.13 2131
-478.862 1128.54 2128
-474.441 1130.13 2131
-469.345 1130.13 2131
-464.685 1131.19 2133
-459.585 1131.19 2133
-455.762 1134.37 2139
-450.647 1134.37 2139
-445.532 1134.37 2139
-440.417 1134.37 2139
-435.302 1134.37 2139
-429.584 1132.78 2136
-422.886 1128.54 2128
-417.798 1128.54 2128
-413.679 1131.19 2133
-408.578 1131.19 2133
-404.045 1132.78 2136
-399.497 1134.37 2139
-395.304 1137.02 2144
-390.177 1137.02 2144
-385.05 1137.02 2144
-379.037 1134.37 2139
-373.922 1134.37 2139
-368.807 1134.37 2139
-363.692 1134.37 2139
-358.577 1134.37 2139
-353.462 1134.37 2139
-347.859 1132.78 2136
-342.27 1131.19 2133
-336.853 1130.13 2131
-331.757 1130.13 2131
-326.661 1130.13 2131
-321.565 1130.13 2131
-316.469 1130.13 2131
-311.374 1130.13 2131
-306.278 1130.13 2131
-300.758 1128.54 2128
-295.252 1126.95 2125
-290.171 1126.95 2125
-285.089 1126.95 2125
-280.008 1126.95 2125
-274.926 1126.95 2125
-269.845 1126.95 2125
-264.763 1126.95 2125
-259.682 1126.95 2125
-254.6 1126.95 2125
-249.871 1128.54 2128
-244.782 1128.54 2128
-239.693 1128.54 2128
-234.605 1128.54 2128
-229.516 1128.54 2128
-224.744 1130.13 2131
-219.648 1130.13 2131
-214.552 1130.13 2131
-209.161 1128.54 2128
-204.073 1128.54 2128
-198.703 1126.95 2125
-193.622 1126.95 2125
-188.54 1126.95 2125
-183.718 1128.54 2128
-178.629 1128.54 2128
-173.785 1130.13 2131
-168.848 1131.19 2133
-164.208 1134.37 2139
-159.093 1134.37 2139
-154.193 1135.96 2142
-149.071 1135.96 2142
-144.285 1138.61 2147
-139.345 1140.2 2150
-134.204 1140.2 2150
-129.363 1142.86 2155
-124.21 1142.86 2155
-119.056 1142.86 2155
-113.903 1142.86 2155
-108.75 1142.86 2155
-103.741 1144.45 2158
-98.5805 1144.45 2158
-93.4201 1144.45 2158
-88.2596 1144.45 2158
-83.0992 1144.45 2158
-77.9388 1144.45 2158
-72.6772 1142.86 2155
-67.5239 1142.86 2155
-62.2259 1140.2 2150
-57.0846 1140.2 2150
-51.6776 1134.37 2139
-46.5626 1134.37 2139
-41.4476 1134.37 2139
-36.3326 1134.37 2139
-31.2176 1134.37 2139
-26.0294 1131.19 2133
-20.8797 1128.54 2128
-15.791 1128.54 2128
-10.6872 1126.95 2125
-5.58457 1122.7 2117
-0.520949 1120.05 2112
4.51662 1116.87 2106
9.5527 1116.87 2106
14.5541 1114.22 2101
19.5317 1111.57 2096
24.5087 1109.98 2093
29.5842 1112.63 2098
34.6012 1112.63 2098
39.6181 1112.63 2098
44.7627 1115.81 2104
49.794 1115.81 2104
54.8253 1115.81 2104
59.9135 1116.87 2106
64.9496 1116.87 2106
69.9857 1116.87 2106
75.0218 1116.87 2106
80.286 1120.05 2112
85.5384 1122.7 2117
90.6008 1122.7 2117
95.6632 1122.7 2117
100.726 1122.7 2117
105.788 1122.7 2117
111.007 1124.29 2120
116.077 1124.29 2120
121.261 1125.35 2122
126.692 1128.54 2128
132.091 1131.19 2133
137.191 1131.19 2133
142.292 1131.19 2133
147.393 1131.19 2133
152.493 1131.19 2133
157.594 1131.19 2133
162.695 1131.19 2133
167.795 1131.19 2133
172.896 1131.19 2133
178.497 1134.37 2139
183.612 1134.37 2139
188.727 1134.37 2139
194.114 1135.96 2142
199.236 1135.96 2142
204.359 1135.96 2142
209.676 1137.02 2144
215.404 1140.2 2150
221.366 1144.45 2158
226.527 1144.45 2158
231.687 1144.45 2158
236.848 1144.45 2158
242.008 1144.45 2158
247.168 1144.45 2158
251.744 1141.8 2153
256.535 1140.2 2150
261.676 1140.2 2150
266.445 1138.61 2147
271.2 1137.02 2144
275.682 1134.37 2139
280.797 1134.37 2139
286.313 1135.96 2142
291.435 1135.96 2142
296.834 1137.02 2144
302.806 1140.2 2150
308.664 1142.86 2155
313.817 1142.86 2155
319.859 1146.04 2161
325.477 1147.63 2164
330.652 1147.63 2164
335.827 1147.63 2164
341.002 1147.63 2164
345.697 1146.04 2161
350.864 1146.04 2161
355.538 1144.45 2158
361.199 1146.04 2161
367.723 1150.28 2169
372.91 1150.28 2169
378.097 1150.28 2169
383.814 1151.87 2172
389.008 1151.87 2172
394.201 1151.87 2172
399.395 1151.87 2172
404.589 1151.87 2172
408.84 1149.22 2167
414.022 1149.22 2167
417.463 1144.45 2158
422.036 1142.86 2155
425.603 1138.61 2147
430.737 1138.61 2147
435.262 1137.02 2144
439.362 1134.37 2139
444.477 1134.37 2139
450.223 1135.96 2142
455.77 1137.02 2144
460.897 1137.02 2144
466.676 1138.61 2147
471.81 1138.61 2147
476.944 1138.61 2147
482.078 1138.61 2147
487.213 1138.61 2147
491.659 1137.02 2144
496.786 1137.02 2144
501.913 1137.02 2144
507.04 1137.02 2144
512.883 1138.61 2147
518.017 1138.61 2147
523.151 1138.61 2147
529.024 1140.2 2150
535.407 1142.86 2155
541.313 1144.45 2158
546.474 1144.45 2158
551.634 1144.45 2158
556.794 1144.45 2158
561.174 1142.86 2155
566.327 1142.86 2155
570.95 1141.8 2153
576.098 1141.8 2153
580.437 1140.2 2150
585.578 1140.2 2150
589.895 1138.61 2147
595.029 1138.61 2147
600.163 1138.61 2147
605.297 1138.61 2147
609.01 1135.96 2142
614.706 1137.02 2144
619.833 1137.02 2144
624.96 1137.02 2144
630.086 1137.02 2144
638.472 1142.86 2155
644.522 1144.45 2158
650.585 1146.04 2161
655.753 1146.04 2161
660.921 1146.04 2161
665.163 1144.45 2158
670.324 1144.45 2158
674.545 1142.86 2155
679.699 1142.86 2155
684.852 1142.86 2155
690.005 1142.86 2155
695.158 1142.86 2155
700.312 1142.86 2155
704.81 1141.8 2153
710.618 1142.86 2155
715.771 1142.86 2155
720.925 1142.86 2155
726.078 1142.86 2155
731.231 1142.86 2155
736.384 1142.86 2155
741.538 1142.86 2155
746.691 1142.86 2155
751.146 1141.8 2153
756.295 1141.8 2153
761.443 1141.8 2153
764.455 1138.61 2147
769.59 1138.61 2147
774.724 1138.61 2147
778.768 1137.02 2144
783.895 1137.02 2144
789.022 1137.02 2144
794.149 1137.02 2144
799.276 1137.02 2144
803.653 1135.96 2142
808.775 1135.96 2142
813.897 1135.96 2142
819.019 1135.96 2142
824.141 1135.96 2142
830.038 1137.02 2144
835.165 1137.02 2144
843.819 1141.8 2153
848.967 1141.8 2153
854.116 1141.8 2153
859.264 1141.8 2153
865.216 1142.86 2155
870.369 1142.86 2155
875.522 1142.86 2155
880.676 1142.86 2155
887.062 1144.45 2158
892.222 1144.45 2158
897.383 1144.45 2158
902.543 1144.45 2158
907.704 1144.45 2158
916.671 1149.22 2167
921.853 1149.22 2167
927.035 1149.22 2167
932.217 1149.22 2167
937.399 1149.22 2167
939.971 1146.04 2161
945.139 1146.04 2161
950.306 1146.04 2161
955.474 1146.04 2161
960.642 1146.04 2161
965.809 1146.04 2161
969.629 1144.45 2158
974.789 1144.45 2158
979.95 1144.45 2158
985.11 1144.45 2158
988.894 1142.86 2155
994.047 1142.86 2155
998.273 1141.8 2153
1002.02 1140.2 2150
1007.16 1140.2 2150
1010.89 1138.61 2147
1016.03 1138.61 2147
1021.16 1138.61 2147
1021.04 1132.78 2136
1023.74 1130.13 2131
1028.84 1130.13 2131
1033.94 1130.13 2131
1041.47 1132.78 2136
1046.58 1132.78 2136
1051.68 1132.78 2136
1055.31 1131.19 2133
1056.43 1126.95 2125
1061.51 1126.95 2125
1069.61 1130.13 2131
1077.22 1132.78 2136
1082.33 1132.78 2136
1090.49 1135.96 2142
1101.24 1141.8 2153
1108.96 1144.45 2158
1114.12 1144.45 2158
1120.84 1146.04 2161
1130.17 1150.28 2169
1135.36 1150.28 2169
1140.55 1150.28 2169
1144.68 1149.22 2167
1149.86 1149.22 2167
1155.04 1149.22 2167
1158.62 1147.63 2164
1163.79 1147.63 2164
1167.35 1146.04 2161
1172.51 1146.04 2161
1177.68 1146.04 2161
1181.21 1144.45 2158
1183.62 1141.8 2153
1188.77 1141.8 2153
1190.59 1138.61 2147
1191.27 1134.37 2139
1193.03 1131.19 2133
1197 1130.13 2131
1202.1 1130.13 2131
1207.19 1130.13 2131
1210.58 1128.54 2128
1213.96 1126.95 2125
1219.04 1126.95 2125
1222.39 1125.35 2122
1227.47 1125.35 2122
1231.38 1124.29 2120
1236.45 1124.29 2120
1241.52 1124.29 2120
1244.83 1122.7 2117
1249.89 1122.7 2117
1254.95 1122.7 2117
1260.01 1122.7 2117
1265.07 1122.7 2117
1270.14 1122.7 2117
1277.01 1124.29 2120
1286.91 1128.54 2128
1292 1128.54 2128
1300.14 1131.19 2133
1315.64 1140.2 2150
1327.54 1146.04 2161
1332.71 1146.04 2161
1348.4 1155.05 2178
1357.34 1158.24 2184
1362.56 1158.24 2184
1367.78 1158.24 2184
1373.01 1158.24 2184
1367.5 1149.22 2167
1377.75 1153.46 2175
1382.95 1153.46 2175
1388.15 1153.46 2175
1393.35 1153.46 2175
1398.56 1153.46 2175
1403.76 1153.46 2175
1408.96 1153.46 2175
1414.16 1153.46 2175
1419.36 1153.46 2175
1424.56 1153.46 2175
1427.79 1151.87 2172
1429.68 1149.22 2167
1426.92 1142.86 2155
1432.07 1142.86 2155
1431.89 1138.61 2147
1431.67 1134.37 2139
1436.79 1134.37 2139
1441.9 1134.37 2139
1447.02 1134.37 2139
1452.13 1134.37 2139
1453.16 1131.19 2133
1456.89 1130.13 2131
1461.99 1130.13 2131
1467.08 1130.13 2131
1462.51 1122.7 2117
1465.49 1121.11 2114
1472.63 1122.7 2117
1477.7 1122.7 2117
1482.76 1122.7 2117
1489.93 1124.29 2120
1495 1124.29 2120
1500.07 1124.29 2120
1506.56 1125.35 2122
1511.63 1125.35 2122
1520.99 1128.54 2128
1526.08 1128.54 2128
1531.17 1128.54 2128
1534.09 1126.95 2125
1539.18 1126.95 2125
1544.26 1126.95 2125
1543.51 1122.7 2117
1552.23 1125.35 2122
1559.5 1126.95 2125
1570.47 1131.19 2133
1575.57 1131.19 2133
1587.34 1135.96 2142
1592.47 1135.96 2142
1597.59 1135.96 2142
1602.71 1135.96 2142
1607.83 1135.96 2142
1606.18 1131.19 2133
1611.28 1131.19 2133
1614.86 1130.13 2131
1617.68 1128.54 2128
1618.19 1125.35 2122
1617.15 1121.11 2114
-1542.37 1097.41 2060
-1537.45 1097.41 2060
-1539.96 1102.74 2070
-1536.49 1103.8 2072
-1531.54 1103.8 2072
-1526.58 1103.8 2072
-1523.83 1105.4 2075
-1524.73 1109.66 2083
-1523.39 1112.33 2088
-1518.4 1112.33 2088
-1513.41 1112.33 2088
-1515.64 1117.65 2098
-1510.62 1117.65 2098
-1505.6 1117.65 2098
-1500.59 1117.65 2098
-1497.71 1119.25 2101
-1492.68 1119.25 2101
-1487.66 1119.25 2101
-1482.64 1119.25 2101
-1477.61 1119.25 2101
-1472.59 1119.25 2101
-1464.07 1116.59 2096
-1453.49 1112.33 2088
-1442.95 1108.06 2080
-1441.43 1110.73 2085
-1436.44 1110.73 2085
-1436.95 1114.99 2093
-1434 1116.59 2096
-1430.35 1117.65 2098
-1425.33 1117.65 2098
-1420.32 1117.65 2098
-1415.3 1117.65 2098
-1414.31 1120.85 2104
-1409.28 1120.85 2104
-1405.59 1121.91 2106
-1400.55 1121.91 2106
-1395.51 1121.91 2106
-1390.48 1121.91 2106
-1384.13 1120.85 2104
-1379.1 1120.85 2104
-1374.06 1120.85 2104
-1367.08 1119.25 2101
-1362.06 1119.25 2101
-1358.97 1120.85 2104
-1355.23 1121.91 2106
-1350.19 1121.91 2106
-1345.15 1121.91 2106
-1336.94 1119.25 2101
-1331.91 1119.25 2101
-1316.78 1110.73 2085
-1311.8 1110.73 2085
-1306.81 1110.73 2085
-1301.83 1110.73 2085
-1290.62 1105.4 2075
-1285.66 1105.4 2075
-1275.76 1101.14 2067
-1270.82 1101.14 2067
-1270.77 1105.4 2075
-1265.81 1105.4 2075
-1268.75 1112.33 2088
-1263.75 1112.33 2088
-1263.58 1116.59 2096
-1258.57 1116.59 2096
-1253.56 1116.59 2096
-1243.78 1112.33 2088
-1238.79 1112.33 2088
-1233.8 1112.33 2088
-1224.09 1108.06 2080
-1217.95 1107 2078
-1217.07 1110.73 2085
-1212.08 1110.73 2085
-1207.09 1110.73 2085
-1202.11 1110.73 2085
-1197.12 1110.73 2085
-1192.14 1110.73 2085
-1186.01 1109.66 2083
-1183.87 1112.33 2088
-1180.57 1113.92 2091
-1175.57 1113.92 2091
-1170.57 1113.92 2091
-1165.57 1113.92 2091
-1160.57 1113.92 2091
-1149.49 1108.06 2080
-1140.11 1103.8 2072
-1134.06 1102.74 2070
-1131.84 1105.4 2075
-1126.88 1105.4 2075
-1123.54 1107 2078
-1119.64 1108.06 2080
-1120.56 1113.92 2091
-1115.56 1113.92 2091
-1110.56 1113.92 2091
-1106.62 1114.99 2093
-1101.62 1114.99 2093
-1096.61 1114.99 2093
-1099.95 1123.51 2109
-1096.46 1125.11 2112
-1092.45 1126.18 2114
-1087.39 1126.18 2114
-1082.34 1126.18 2114
-1078.81 1127.77 2117
-1075.27 1129.37 2120
-1070.2 1129.37 2120
-1066.14 1130.44 2122
-1062.56 1132.04 2125
-1061.46 1136.3 2133
-1056.36 1136.3 2133
-1051.26 1136.3 2133
-1045.18 1135.23 2131
-1040.08 1135.23 2131
-1033.53 1133.63 2128
-1029.89 1135.23 2131
-1024.79 1135.23 2131
-1022.09 1137.9 2136
-1016.98 1137.9 2136
-1011.88 1137.9 2136
-1006.77 1137.9 2136
-1001.66 1137.9 2136
-996.552 1137.9 2136
-994.23 1141.09 2142
-992.802 1145.35 2150
-989.038 1146.95 2153
-983.89 1146.95 2153
-978.741 1146.95 2153
-972.236 1145.35 2150
-967.095 1145.35 2150
-961.954 1145.35 2150
-953.252 1141.09 2142
-948.13 1141.09 2142
-943.008 1141.09 2142
-937.886 1141.09 2142
-932.763 1141.09 2142
-926.342 1139.49 2139
-919.935 1137.9 2136
-914.827 1137.9 2136
-909.719 1137.9 2136
-904.612 1137.9 2136
-898.24 1136.3 2133
-893.14 1136.3 2133
-888.039 1136.3 2133
-880.869 1133.63 2128
-875.78 1133.63 2128
-870.691 1133.63 2128
-863.162 1130.44 2122
-852.831 1123.51 2109
-847.788 1123.51 2109
-842.744 1123.51 2109
-837.701 1123.51 2109
-832.658 1123.51 2109
-827.615 1123.51 2109
-823.741 1125.11 2112
-818.691 1125.11 2112
-813.641 1125.11 2112
-809.356 1126.18 2114
-804.301 1126.18 2114
-799.245 1126.18 2114
-794.19 1126.18 2114
-789.135 1126.18 2114
-784.08 1126.18 2114
-779.025 1126.18 2114
-775.068 1127.77 2117
-770.005 1127.77 2117
-764.943 1127.77 2117
-759.88 1127.77 2117
-754.818 1127.77 2117
-749.756 1127.77 2117
-744.693 1127.77 2117
-739.631 1127.77 2117
-732.834 1125.11 2112
-727.783 1125.11 2112
-724.444 1127.77 2117
-719.381 1127.77 2117
-715.331 1129.37 2120
-710.262 1129.37 2120
-705.857 1130.44 2122
-700.783 1130.44 2122
-695.709 1130.44 2122
-690.634 1130.44 2122
-685.56 1130.44 2122
-680.486 1130.44 2122
-675.411 1130.44 2122
-671.285 1132.04 2125
-666.203 1132.04 2125
-661.122 1132.04 2125
-656.04 1132.04 2125
-650.959 1132.04 2125
-646.789 1133.63 2128
-642.605 1135.23 2131
-637.509 1135.23 2131
-633.007 1136.3 2133
-628.789 1137.9 2136
-623.681 1137.9 2136
-618.573 1137.9 2136
-612.604 1136.3 2133
-606.934 1135.23 2131
-601.838 1135.23 2131
-596.742 1135.23 2131
-591.646 1135.23 2131
-586.55 1135.23 2131
-581.454 1135.23 2131
-575.547 1133.63 2128
-570.458 1133.63 2128
-564.573 1132.04 2125
-559.491 1132.04 2125
-554.41 1132.04 2125
-550.104 1133.63 2128
-545.783 1135.23 2131
-542.717 1139.49 2139
-537.602 1139.49 2139
-532.487 1139.49 2139
-527.372 1139.49 2139
-522.257 1139.49 2139
-517.142 1139.49 2139
-510.591 1136.3 2133
-504.306 1133.63 2128
-499.217 1133.63 2128
-494.128 1133.63 2128
-488.35 1132.04 2125
-483.268 1132.04 2125
-477.512 1130.44 2122
-473.105 1132.04 2125
-468.024 1132.04 2125
-463.596 1133.63 2128
-458.507 1133.63 2128
-454.058 1135.23 2131
-448.962 1135.23 2131
-443.866 1135.23 2131
-438.77 1135.23 2131
-433.674 1135.23 2131
-428.578 1135.23 2131
-422.886 1133.63 2128
-417.798 1133.63 2128
-413.679 1136.3 2133
-408.578 1136.3 2133
-404.045 1137.9 2136
-399.497 1139.49 2139
-395.304 1142.16 2144
-390.177 1142.16 2144
-385.05 1142.16 2144
-379.037 1139.49 2139
-373.922 1139.49 2139
-368.807 1139.49 2139
-363.692 1139.49 2139
-358.577 1139.49 2139
-353.462 1139.49 2139
-347.859 1137.9 2136
-342.27 1136.3 2133
-336.853 1135.23 2131
-331.757 1135.23 2131
-326.661 1135.23 2131
-321.565 1135.23 2131
-316.469 1135.23 2131
-311.374 1135.23 2131
-306.278 1135.23 2131
-300.758 1133.63 2128
-295.252 1132.04 2125
-290.171 1132.04 2125
-285.089 1132.04 2125
-280.008 1132.04 2125
-274.926 1132.04 2125
-269.845 1132.04 2125
-264.763 1132.04 2125
-259.682 1132.04 2125
-254.6 1132.04 2125
-249.871 1133.63 2128
-244.782 1133.63 2128
-239.693 1133.63 2128
-234.605 1133.63 2128
-229.516 1133.63 2128
-224.744 1135.23 2131
-219.648 1135.23 2131
-214.552 1135.23 2131
-209.161 1133.63 2128
-204.073 1133.63 2128
-198.703 1132.04 2125
-193.622 1132.04 2125
-188.54 1132.04 2125
-183.718 1133.63 2128
-178.629 1133.63 2128
-173.785 1135.23 2131
-168.848 1136.3 2133
-164.208 1139.49 2139
-159.093 1139.49 2139
-154.193 1141.09 2142
-149.071 1141.09 2142
-144.285 1143.76 2147
-139.345 1145.35 2150
-134.204 1145.35 2150
-129.363 1148.02 2155
-124.21 1148.02 2155
-119.056 1148.02 2155
-113.903 1148.02 2155
-108.75 1148.02 2155
-103.741 1149.62 2158
-98.5805 1149.62 2158
-93.4201 1149.62 2158
-88.2596 1149.62 2158
-83.0992 1149.62 2158
-77.9388 1149.62 2158
-72.6772 1148.02 2155
-67.5239 1148.02 2155
-62.2259 1145.35 2150
-57.0846 1145.35 2150
-51.6776 1139.49 2139
-46.5626 1139.49 2139
-41.4476 1139.49 2139
-36.3326 1139.49 2139
-31.2176 1139.49 2139
-26.0294 1136.3 2133
-20.8797 1133.63 2128
-15.791 1133.63 2128
-10.6872 1132.04 2125
-5.58457 1127.77 2117
-0.520949 1125.11 2112
4.51662 1121.91 2106
9.5527 1121.91 2106
14.5541 1119.25 2101
19.5503 1117.65 2098
24.5673 1117.65 2098
29.5842 1117.65 2098
34.6012 1117.65 2098
39.6181 1117.65 2098
44.6989 1119.25 2101
49.794 1120.85 2104
54.8253 1120.85 2104
59.8566 1120.85 2104
64.7954 1119.25 2101
69.8196 1119.25 2101
74.8437 1119.25 2101
79.8678 1119.25 2101
85.0132 1120.85 2104
90.0445 1120.85 2104
95.0758 1120.85 2104
100.488 1125.11 2112
105.538 1125.11 2112
110.85 1127.77 2117
115.913 1127.77 2117
120.975 1127.77 2117
126.514 1132.04 2125
131.595 1132.04 2125
136.677 1132.04 2125
142.159 1135.23 2131
147.255 1135.23 2131
152.35 1135.23 2131
157.446 1135.23 2131
162.542 1135.23 2131
167.638 1135.23 2131
172.896 1136.3 2133
177.997 1136.3 2133
183.097 1136.3 2133
188.198 1136.3 2133
193.57 1137.9 2136
198.957 1139.49 2139
204.072 1139.49 2139
209.481 1141.09 2142
214.803 1142.16 2144
220.546 1145.35 2150
225.687 1145.35 2150
230.828 1145.35 2150
235.97 1145.35 2150
241.111 1145.35 2150
246.252 1145.35 2150
251.043 1143.76 2147
255.819 1142.16 2144
260.946 1142.16 2144
265.825 1141.09 2142
270.567 1139.49 2139
275.296 1137.9 2136
280.403 1137.9 2136
285.912 1139.49 2139
291.027 1139.49 2139
296.142 1139.49 2139
301.961 1142.16 2144
307.518 1143.76 2147
312.652 1143.76 2147
318.674 1146.95 2153
324.575 1149.62 2158
330.194 1151.21 2161
335.361 1151.21 2161
340.529 1151.21 2161
345.217 1149.62 2158
350.377 1149.62 2158
355.043 1148.02 2155
360.698 1149.62 2158
365.858 1149.62 2158
371.535 1151.21 2161
376.702 1151.21 2161
383.283 1155.48 2169
388.47 1155.48 2169
393.657 1155.48 2169
398.844 1155.48 2169
403.099 1152.81 2164
407.142 1149.62 2158
412.302 1149.62 2158
415.915 1145.35 2150
420.469 1143.76 2147
424.612 1141.09 2142
429.132 1139.49 2139
434.247 1139.49 2139
438.746 1137.9 2136
443.854 1137.9 2136
448.962 1137.9 2136
455.345 1141.09 2142
460.467 1141.09 2142
465.589 1141.09 2142
470.711 1141.09 2142
475.834 1141.09 2142
479.609 1137.9 2136
484.716 1137.9 2136
489.824 1137.9 2136
494.932 1137.9 2136
499.338 1136.3 2133
504.438 1136.3 2133
509.061 1135.23 2131
514.157 1135.23 2131
519.253 1135.23 2131
524.841 1136.3 2133
531.432 1139.49 2139
537.3 1141.09 2142
542.422 1141.09 2142
547.544 1141.09 2142
552.666 1141.09 2142
557.788 1141.09 2142
562.91 1141.09 2142
568.033 1141.09 2142
573.155 1141.09 2142
577.467 1139.49 2139
583.399 1141.09 2142
588.521 1141.09 2142
593.643 1141.09 2142
598.766 1141.09 2142
603.888 1141.09 2142
607.304 1137.9 2136
612.412 1137.9 2136
618.387 1139.49 2139
623.502 1139.49 2139
628.617 1139.49 2139
634.621 1141.09 2142
642.132 1145.35 2150
647.274 1145.35 2150
652.415 1145.35 2150
657.556 1145.35 2150
662.698 1145.35 2150
667.839 1145.35 2150
672.041 1143.76 2147
677.175 1143.76 2147
683.263 1145.35 2150
688.404 1145.35 2150
693.545 1145.35 2150
698.687 1145.35 2150
702.846 1143.76 2147
707.98 1143.76 2147
713.114 1143.76 2147
718.248 1143.76 2147
723.382 1143.76 2147
728.517 1143.76 2147
733.651 1143.76 2147
738.785 1143.76 2147
743.919 1143.76 2147
748.006 1142.16 2144
753.133 1142.16 2144
758.26 1142.16 2144
762.675 1141.09 2142
766.722 1139.49 2139
771.837 1139.49 2139
775.862 1137.9 2136
780.97 1137.9 2136
786.078 1137.9 2136
791.186 1137.9 2136
796.294 1137.9 2136
800.276 1136.3 2133
805.376 1136.3 2133
810.477 1136.3 2133
816.725 1137.9 2136
821.833 1137.9 2136
826.941 1137.9 2136
832.048 1137.9 2136
839.508 1141.09 2142
844.63 1141.09 2142
849.752 1141.09 2142
854.874 1141.09 2142
860.799 1142.16 2144
865.926 1142.16 2144
872.272 1143.76 2147
877.406 1143.76 2147
885.007 1146.95 2153
890.155 1146.95 2153
895.304 1146.95 2153
900.452 1146.95 2153
904.339 1145.35 2150
911.595 1148.02 2155
916.748 1148.02 2155
921.902 1148.02 2155
927.055 1148.02 2155
932.208 1148.02 2155
935.187 1145.35 2150
940.328 1145.35 2150
945.469 1145.35 2150
950.61 1145.35 2150
955.752 1145.35 2150
960.893 1145.35 2150
966.034 1145.35 2150
971.176 1145.35 2150
976.317 1145.35 2150
981.458 1145.35 2150
985.223 1143.76 2147
990.357 1143.76 2147
993.173 1141.09 2142
996.897 1139.49 2139
1000.61 1137.9 2136
1005.71 1137.9 2136
1010.82 1137.9 2136
1014.5 1136.3 2133
1019.6 1136.3 2133
1020.86 1132.04 2125
1025.94 1132.04 2125
1028.6 1129.37 2120
1033.67 1129.37 2120
1038.74 1129.37 2120
1043.81 1129.37 2120
1047.39 1127.77 2117
1052.45 1127.77 2117
1057.52 1127.77 2117
1064.09 1129.37 2120
1073.19 1133.63 2128
1078.28 1133.63 2128
1087.44 1137.9 2136
1095.62 1141.09 2142
1106.39 1146.95 2153
1111.54 1146.95 2153
1117.73 1148.02 2155
1126.01 1151.21 2161
1131.17 1151.21 2161
1136.34 1151.21 2161
1141.51 1151.21 2161
1146.68 1151.21 2161
1151.84 1151.21 2161
1155.4 1149.62 2158
1160.56 1149.62 2158
1164.1 1148.02 2155
1169.26 1148.02 2155
1171.69 1145.35 2150
1176.83 1145.35 2150
1181.97 1145.35 2150
1187.11 1145.35 2150
1187.82 1141.09 2142
1187.93 1136.3 2133
1190.23 1133.63 2128
1190.82 1129.37 2120
1195.89 1129.37 2120
1200.96 1129.37 2120
1206.03 1129.37 2120
1211.1 1129.37 2120
1216.17 1129.37 2120
1217.79 1126.18 2114
1222.84 1126.18 2114
1226.73 1125.11 2112
1231.78 1125.11 2112
1236.83 1125.11 2112
1238.36 1121.91 2106
1245.16 1123.51 2109
1250.21 1123.51 2109
1255.25 1123.51 2109
1260.29 1123.51 2109
1265.34 1123.51 2109
1270.38 1123.51 2109
1280.26 1127.77 2117
1285.32 1127.77 2117
1297.09 1133.63 2128
1308.91 1139.49 2139
1320.78 1145.35 2150
1325.93 1145.35 2150
1339.73 1152.81 2164
1346.77 1154.41 2167
1351.96 1154.41 2167
1357.14 1154.41 2167
1362.32 1154.41 2167
1367.5 1154.41 2167
1372.68 1154.41 2167
1375.96 1152.81 2164
1384.32 1155.48 2169
1393.35 1158.67 2175
1398.56 1158.67 2175
1403.76 1158.67 2175
1408.96 1158.67 2175
1412.21 1157.07 2172
1415.44 1155.48 2169
1420.63 1155.48 2169
1425.82 1155.48 2169
1421.77 1148.02 2155
1425.6 1146.95 2153
1430.75 1146.95 2153
1426.56 1139.49 2139
1422.3 1132.04 2125
1425.37 1130.44 2122
1430.44 1130.44 2122
1435.52 1130.44 2122
1440.59 1130.44 2122
1445.66 1130.44 2122
1447.32 1127.77 2117
1452.38 1127.77 2117
1455.38 1126.18 2114
1456.98 1123.51 2109
1454.4 1117.65 2098
1459.42 1117.65 2098
1463.04 1116.59 2096
1469.45 1117.65 2098
1474.47 1117.65 2098
1479.48 1117.65 2098
1484.5 1117.65 2098
1491.65 1119.25 2101
1498.81 1120.85 2104
1510.99 1126.18 2114
1516.04 1126.18 2114
1521.1 1126.18 2114
1528.32 1127.77 2117
1533.38 1127.77 2117
1538.44 1127.77 2117
1543.51 1127.77 2117
1552.23 1130.44 2122
1559.5 1132.04 2125
1570.47 1136.3 2133
1575.57 1136.3 2133
1587.34 1141.09 2142
1592.47 1141.09 2142
1597.59 1141.09 2142
1602.71 1141.09 2142
1607.83 1141.09 2142
1606.18 1136.3 2133
1611.28 1136.3 2133
1614.86 1135.23 2131
1617.68 1133.63 2128
1618.19 1130.44 2122
1619.44 1127.77 2117
-1542.37 1102.34 2060
-1537.45 1102.34 2060
-1539.96 1107.7 2070
-1536.49 1108.77 2072
-1531.54 1108.77 2072
-1526.58 1108.77 2072
-1523.83 1110.37 2075
-1524.73 1114.65 2083
-1523.39 1117.33 2088
-1518.4 1117.33 2088
-1513.41 1117.33 2088
-1515.64 1122.68 2098
-1510.62 1122.68 2098
-1505.6 1122.68 2098
-1500.59 1122.68 2098
-1497.71 1124.28 2101
-1492.68 1124.28 2101
-1487.66 1124.28 2101
-1482.64 1124.28 2101
-1477.61 1124.28 2101
-1472.59 1124.28 2101
-1464.07 1121.61 2096
-1453.49 1117.33 2088
-1442.95 1113.05 2080
-1441.43 1115.72 2085
-1436.44 1115.72 2085
-1436.95 1120 2093
-1434 1121.61 2096
-1428.99 1121.61 2096
-1423.97 1121.61 2096
-1416.93 1120 2093
-1411.93 1120 2093
-1408.94 1121.61 2096
-1403.92 1121.61 2096
-1404.25 1125.89 2104
-1399.22 1125.89 2104
-1394.19 1125.89 2104
-1389.16 1125.89 2104
-1380.18 1122.68 2098
-1375.16 1122.68 2098
-1370.15 1122.68 2098
-1365.13 1122.68 2098
-1356.87 1120 2093
-1351.87 1120 2093
-1346.86 1120 2093
-1341.86 1120 2093
-1336.85 1120 2093
-1328.66 1117.33 2088
-1323.67 1117.33 2088
-1312.36 1111.98 2078
-1303.62 1108.77 2072
-1298.66 1108.77 2072
-1290.59 1106.09 2067
-1285.64 1106.09 2067
-1277.6 1103.41 2062
-1268.35 1099.67 2055
-1258.52 1095.39 2047
-1258.52 1099.67 2055
-1253.61 1099.67 2055
-1252.95 1103.41 2062
-1248.02 1103.41 2062
-1244.9 1105.02 2065
-1239.96 1105.02 2065
-1235.02 1105.02 2065
-1228.29 1103.41 2062
-1223.36 1103.41 2062
-1218.43 1103.41 2062
-1212.32 1102.34 2060
-1214.43 1108.77 2072
-1209.48 1108.77 2072
-1204.52 1108.77 2072
-1199.57 1108.77 2072
-1194.61 1108.77 2072
-1189.66 1108.77 2072
-1184.7 1108.77 2072
-1179.75 1108.77 2072
-1174.79 1108.77 2072
-1174.36 1113.05 2080
-1169.38 1113.05 2080
-1164.41 1113.05 2080
-1159.43 1113.05 2080
-1154.46 1113.05 2080
-1148.38 1111.98 2078
-1139.01 1107.7 2070
-1134.06 1107.7 2070
-1131.84 1110.37 2075
-1126.88 1110.37 2075
-1121.91 1110.37 2075
-1118.57 1111.98 2078
-1113.6 1111.98 2078
-1108.63 1111.98 2078
-1103.66 1111.98 2078
-1098.69 1111.98 2078
-1093.72 1111.98 2078
-1088.75 1111.98 2078
-1093.17 1121.61 2096
-1089.2 1122.68 2098
-1085.73 1124.28 2101
-1080.71 1124.28 2101
-1075.68 1124.28 2101
-1070.66 1124.28 2101
-1065.63 1124.28 2101
-1060.61 1124.28 2101
-1058.1 1126.96 2106
-1056.06 1130.17 2112
-1054.99 1134.45 2120
-1049.92 1134.45 2120
-1044.85 1134.45 2120
-1038.31 1132.85 2117
-1033.25 1132.85 2117
-1028.19 1132.85 2117
-1026.99 1137.13 2125
-1021.91 1137.13 2125
-1018.26 1138.73 2128
-1013.17 1138.73 2128
-1008.09 1138.73 2128
-1003 1138.73 2128
-999.316 1140.34 2131
-994.22 1140.34 2131
-989.124 1140.34 2131
-989.107 1146.22 2142
-986.282 1148.9 2147
-981.148 1148.9 2147
-976.014 1148.9 2147
-969.523 1147.29 2144
-964.396 1147.29 2144
-957.032 1144.62 2139
-950.582 1143.01 2136
-943.261 1140.34 2131
-938.165 1140.34 2131
-933.069 1140.34 2131
-927.973 1140.34 2131
-921.578 1138.73 2128
-916.49 1138.73 2128
-911.401 1138.73 2128
-905.035 1137.13 2125
-899.953 1137.13 2125
-894.872 1137.13 2125
-889.79 1137.13 2125
-883.459 1135.52 2122
-877.557 1134.45 2120
-870.018 1131.24 2114
-864.963 1131.24 2114
-856.654 1126.96 2106
-846.361 1120 2093
-841.356 1120 2093
-838.349 1122.68 2098
-833.332 1122.68 2098
-828.315 1122.68 2098
-824.475 1124.28 2101
-821.401 1126.96 2106
-816.365 1126.96 2106
-811.329 1126.96 2106
-807.442 1128.56 2109
-802.398 1128.56 2109
-797.355 1128.56 2109
-792.312 1128.56 2109
-787.268 1128.56 2109
-783.338 1130.17 2112
-778.287 1130.17 2112
-773.237 1130.17 2112
-768.187 1130.17 2112
-763.859 1131.24 2114
-758.804 1131.24 2114
-753.748 1131.24 2114
-747.985 1130.17 2112
-742.934 1130.17 2112
-737.884 1130.17 2112
-730.752 1126.96 2106
-725.716 1126.96 2106
-720.68 1126.96 2106
-717.682 1130.17 2112
-712.632 1130.17 2112
-707.581 1130.17 2112
-700.535 1126.96 2106
-695.499 1126.96 2106
-690.463 1126.96 2106
-685.427 1126.96 2106
-681.36 1128.56 2109
-676.317 1128.56 2109
-671.274 1128.56 2109
-667.178 1130.17 2112
-662.128 1130.17 2112
-657.077 1130.17 2112
-652.027 1130.17 2112
-646.976 1130.17 2112
-642.534 1131.24 2114
-639.288 1134.45 2120
-634.218 1134.45 2120
-629.149 1134.45 2120
-624.079 1134.45 2120
-619.01 1134.45 2120
-613.94 1134.45 2120
-608.87 1134.45 2120
-603.801 1134.45 2120
-598.731 1134.45 2120
-592.822 1132.85 2117
-586.926 1131.24 2114
-581.321 1130.17 2112
-576.27 1130.17 2112
-571.22 1130.17 2112
-566.169 1130.17 2112
-560.322 1128.56 2109
-555.279 1128.56 2109
-550.235 1128.56 2109
-546.485 1131.24 2114
-542.198 1132.85 2117
-539.926 1138.73 2128
-534.838 1138.73 2128
-529.749 1138.73 2128
-524.66 1138.73 2128
-519.572 1138.73 2128
-513.758 1137.13 2125
-507.958 1135.52 2122
-502.41 1134.45 2120
-497.34 1134.45 2120
-492.27 1134.45 2120
-487.201 1134.45 2120
-482.131 1134.45 2120
-477.062 1134.45 2120
-471.992 1134.45 2120
-466.923 1134.45 2120
-462.289 1135.52 2122
-457.861 1137.13 2125
-453.419 1138.73 2128
-448.33 1138.73 2128
-443.241 1138.73 2128
-438.152 1138.73 2128
-433.064 1138.73 2128
-426.768 1135.52 2122
-421.694 1135.52 2122
-416.62 1135.52 2122
-412.127 1137.13 2125
-407.046 1137.13 2125
-402.532 1138.73 2128
-398.377 1141.41 2133
-393.276 1141.41 2133
-388.175 1141.41 2133
-383.075 1141.41 2133
-377.974 1141.41 2133
-372.874 1141.41 2133
-367.773 1141.41 2133
-362.672 1141.41 2133
-357.572 1141.41 2133
-352.471 1141.41 2133
-347.37 1141.41 2133
-341.949 1140.34 2131
-336.379 1138.73 2128
-331.29 1138.73 2128
-326.201 1138.73 2128
-321.113 1138.73 2128
-316.024 1138.73 2128
-310.935 1138.73 2128
-305.846 1138.73 2128
-300.334 1137.13 2125
-294.835 1135.52 2122
-289.488 1134.45 2120
-284.418 1134.45 2120
-279.349 1134.45 2120
-273.891 1132.85 2117
-268.448 1131.24 2114
-263.766 1132.85 2117
-258.704 1132.85 2117
-253.642 1132.85 2117
-248.579 1132.85 2117
-243.517 1132.85 2117
-238.117 1131.24 2114
-233.061 1131.24 2114
-228.33 1132.85 2117
-223.267 1132.85 2117
-218.205 1132.85 2117
-213.143 1132.85 2117
-208.08 1132.85 2117
-203.018 1132.85 2117
-197.955 1132.85 2117
-192.893 1132.85 2117
-187.831 1132.85 2117
-183.2 1135.52 2122
-178.126 1135.52 2122
-173.296 1137.13 2125
-168.689 1140.34 2131
-163.747 1141.41 2133
-158.646 1141.41 2133
-153.978 1144.62 2139
-149.071 1146.22 2142
-143.949 1146.22 2142
-138.827 1146.22 2142
-133.705 1146.22 2142
-129.063 1150.5 2150
-123.922 1150.5 2150
-118.78 1150.5 2150
-113.639 1150.5 2150
-108.498 1150.5 2150
-103.597 1153.18 2155
-98.4435 1153.18 2155
-93.2902 1153.18 2155
-88.0551 1152.11 2153
-82.7911 1150.5 2150
-77.6498 1150.5 2150
-72.5085 1150.5 2150
-67.3672 1150.5 2150
-61.9076 1144.62 2139
-56.7926 1144.62 2139
-51.5326 1141.41 2133
-46.432 1141.41 2133
-41.2926 1140.34 2131
-36.1967 1140.34 2131
-31.1008 1140.34 2131
-25.9684 1138.73 2128
-20.8502 1137.13 2125
-15.7687 1137.13 2125
-10.647 1132.85 2117
-5.57666 1131.24 2114
-0.520209 1128.56 2109
4.51662 1126.96 2106
9.5527 1126.96 2106
14.5749 1125.89 2104
19.5783 1124.28 2101
24.6024 1124.28 2101
29.6265 1124.28 2101
34.5682 1121.61 2096
39.5804 1121.61 2096
44.6989 1124.28 2101
49.794 1125.89 2104
54.8253 1125.89 2104
59.8566 1125.89 2104
64.7954 1124.28 2101
69.8196 1124.28 2101
74.8437 1124.28 2101
79.9818 1125.89 2104
85.094 1126.96 2106
90.1301 1126.96 2106
95.1661 1126.96 2106
100.488 1130.17 2112
105.538 1130.17 2112
110.85 1132.85 2117
115.913 1132.85 2117
120.975 1132.85 2117
126.514 1137.13 2125
131.595 1137.13 2125
136.677 1137.13 2125
142.159 1140.34 2131
147.255 1140.34 2131
152.35 1140.34 2131
157.446 1140.34 2131
162.542 1140.34 2131
167.638 1140.34 2131
172.896 1141.41 2133
177.997 1141.41 2133
183.097 1141.41 2133
188.198 1141.41 2133
193.57 1143.01 2136
198.957 1144.62 2139
204.072 1144.62 2139
209.481 1146.22 2142
214.803 1147.29 2144
220.546 1150.5 2150
225.687 1150.5 2150
230.828 1150.5 2150
235.97 1150.5 2150
241.111 1150.5 2150
246.252 1150.5 2150
251.043 1148.9 2147
255.819 1147.29 2144
260.946 1147.29 2144
265.825 1146.22 2142
270.567 1144.62 2139
275.296 1143.01 2136
280.403 1143.01 2136
285.912 1144.62 2139
291.027 1144.62 2139
296.142 1144.62 2139
301.961 1147.29 2144
307.518 1148.9 2147
312.652 1148.9 2147
318.674 1152.11 2153
324.575 1154.79 2158
330.194 1156.39 2161
335.361 1156.39 2161
340.529 1156.39 2161
345.217 1154.79 2158
350.377 1154.79 2158
355.043 1153.18 2155
360.698 1154.79 2158
365.858 1154.79 2158
371.535 1156.39 2161
376.702 1156.39 2161
383.283 1160.67 2169
388.47 1160.67 2169
393.657 1160.67 2169
398.844 1160.67 2169
403.099 1158 2164
407.142 1154.79 2158
412.302 1154.79 2158
415.915 1150.5 2150
420.469 1148.9 2147
424.612 1146.22 2142
429.132 1144.62 2139
434.247 1144.62 2139
438.746 1143.01 2136
443.854 1143.01 2136
448.962 1143.01 2136
455.345 1146.22 2142
460.467 1146.22 2142
465.589 1146.22 2142
470.711 1146.22 2142
475.834 1146.22 2142
479.609 1143.01 2136
484.716 1143.01 2136
489.824 1143.01 2136
494.932 1143.01 2136
499.338 1141.41 2133
504.438 1141.41 2133
509.061 1140.34 2131
514.157 1140.34 2131
519.253 1140.34 2131
524.349 1140.34 2131
527.954 1137.13 2125
535.042 1141.41 2133
540.143 1141.41 2133
545.243 1141.41 2133
550.344 1141.41 2133
555.445 1141.41 2133
560.545 1141.41 2133
565.116 1140.34 2131
570.211 1140.34 2131
574.497 1138.73 2128
580.948 1141.41 2133
586.049 1141.41 2133
591.981 1143.01 2136
597.088 1143.01 2136
602.196 1143.01 2136
605.883 1140.34 2131
610.978 1140.34 2131
616.074 1140.34 2131
621.17 1140.34 2131
626.266 1140.34 2131
631.362 1140.34 2131
637.951 1143.01 2136
643.059 1143.01 2136
648.167 1143.01 2136
653.275 1143.01 2136
658.382 1143.01 2136
662.558 1141.41 2133
667.659 1141.41 2133
672.76 1141.41 2133
677.225 1140.34 2131
682.321 1140.34 2131
687.416 1140.34 2131
692.512 1140.34 2131
697.608 1140.34 2131
702.704 1140.34 2131
707.8 1140.34 2131
712.896 1140.34 2131
717.992 1140.34 2131
722.07 1138.73 2128
727.158 1138.73 2128
732.247 1138.73 2128
737.336 1138.73 2128
742.424 1138.73 2128
748.567 1140.34 2131
753.663 1140.34 2131
758.759 1140.34 2131
761.704 1137.13 2125
764.981 1134.45 2120
770.051 1134.45 2120
775.12 1134.45 2120
780.19 1134.45 2120
786 1135.52 2122
791.074 1135.52 2122
796.149 1135.52 2122
801.223 1135.52 2122
806.297 1135.52 2122
813.666 1138.73 2128
818.755 1138.73 2128
823.843 1138.73 2128
830.101 1140.34 2131
835.197 1140.34 2131
840.292 1140.34 2131
846.182 1141.41 2133
851.282 1141.41 2133
858.792 1144.62 2139
863.907 1144.62 2139
869.022 1144.62 2139
876.18 1147.29 2144
882.54 1148.9 2147
887.674 1148.9 2147
892.809 1148.9 2147
897.943 1148.9 2147
901.815 1147.29 2144
908.211 1148.9 2147
913.345 1148.9 2147
919.763 1150.5 2150
924.904 1150.5 2150
930.045 1150.5 2150
933.882 1148.9 2147
939.016 1148.9 2147
942.831 1147.29 2144
947.958 1147.29 2144
953.085 1147.29 2144
958.212 1147.29 2144
963.339 1147.29 2144
968.465 1147.29 2144
973.592 1147.29 2144
978.719 1147.29 2144
982.929 1146.22 2142
988.051 1146.22 2142
991.782 1144.62 2139
995.499 1143.01 2136
999.201 1141.41 2133
1004.3 1141.41 2133
1009.4 1141.41 2133
1013.55 1140.34 2131
1015.78 1137.13 2125
1017.02 1132.85 2117
1022.08 1132.85 2117
1023.26 1128.56 2109
1028.3 1128.56 2109
1033.35 1128.56 2109
1038.39 1128.56 2109
1040.96 1125.89 2104
1043.01 1122.68 2098
1049.52 1124.28 2101
1058.56 1128.56 2109
1065.12 1130.17 2112
1070.17 1130.17 2112
1081.84 1137.13 2125
1088.46 1138.73 2128
1100.74 1146.22 2142
1105.86 1146.22 2142
1112.02 1147.29 2144
1120.27 1150.5 2150
1125.41 1150.5 2150
1130.56 1150.5 2150
1137.28 1152.11 2153
1142.43 1152.11 2153
1147.58 1152.11 2153
1152.73 1152.11 2153
1157.88 1152.11 2153
1161.4 1150.5 2150
1166.55 1150.5 2150
1171.69 1150.5 2150
1172.45 1146.22 2142
1177.57 1146.22 2142
1182.69 1146.22 2142
1184.49 1143.01 2136
1185.14 1138.73 2128
1184.08 1132.85 2117
1187.45 1131.24 2114
1192.51 1131.24 2114
1197.56 1131.24 2114
1202.62 1131.24 2114
1207.67 1131.24 2114
1212.73 1131.24 2114
1216.63 1130.17 2112
1219.95 1128.56 2109
1223.25 1126.96 2106
1228.29 1126.96 2106
1230.39 1124.28 2101
1232.48 1121.61 2096
1237.49 1121.61 2096
1242.5 1121.61 2096
1247.51 1121.61 2096
1252.53 1121.61 2096
1257.54 1121.61 2096
1268.57 1126.96 2106
1275.42 1128.56 2109
1280.47 1128.56 2109
1292.22 1134.45 2120
1304.02 1140.34 2131
1314.03 1144.62 2139
1319.14 1144.62 2139
1331.07 1150.5 2150
1338.07 1152.11 2153
1343.22 1152.11 2153
1348.37 1152.11 2153
1353.52 1152.11 2153
1358.67 1152.11 2153
1368.88 1156.39 2161
1374.05 1156.39 2161
1379.22 1156.39 2161
1389.51 1160.67 2169
1394.7 1160.67 2169
1399.88 1160.67 2169
1403.78 1159.6 2167
1408.96 1159.6 2167
1414.14 1159.6 2167
1419.32 1159.6 2167
1416.61 1153.18 2155
1420.45 1152.11 2153
1419.64 1147.29 2144
1424.76 1147.29 2144
1417.22 1137.13 2125
1414.94 1131.24 2114
1419.99 1131.24 2114
1425.05 1131.24 2114
1430.1 1131.24 2114
1435.16 1131.24 2114
1440.21 1131.24 2114
1445.27 1131.24 2114
1450.33 1131.24 2114
1449.87 1126.96 2106
1449.38 1122.68 2098
1453.01 1121.61 2096
1458.02 1121.61 2096
1460.94 1120 2093
1465.95 1120 2093
1470.95 1120 2093
1475.96 1120 2093
1480.96 1120 2093
1485.97 1120 2093
1494.53 1122.68 2098
1503.84 1125.89 2104
1510.31 1126.96 2106
1515.34 1126.96 2106
1522.54 1128.56 2109
1527.59 1128.56 2109
1536.26 1131.24 2114
1541.32 1131.24 2114
1548.57 1132.85 2117
1555.83 1134.45 2120
1564.58 1137.13 2125
1569.67 1137.13 2125
1580.68 1141.41 2133
1588.01 1143.01 2136
1593.11 1143.01 2136
1598.22 1143.01 2136
1601.08 1141.41 2133
1602.41 1138.73 2128
1607.5 1138.73 2128
1612.59 1138.73 2128
1613.12 1135.52 2122
1616.67 1134.45 2120
1619.44 1132.85 2117
-1530.39 1098.68 2044
-1525.51 1098.68 2044
-1532.52 1107.28 2060
-1527.59 1107.28 2060
-1526.36 1109.97 2065
-1521.43 1109.97 2065
-1520.16 1112.65 2070
-1515.21 1112.65 2070
-1517.56 1118.03 2080
-1512.58 1118.03 2080
-1509.78 1119.64 2083
-1504.8 1119.64 2083
-1505.58 1123.94 2091
-1500.58 1123.94 2091
-1495.58 1123.94 2091
-1494.14 1126.63 2096
-1489.13 1126.63 2096
-1484.12 1126.63 2096
-1479.11 1126.63 2096
-1474.1 1126.63 2096
-1469.08 1126.63 2096
-1458.48 1122.33 2088
-1446.53 1116.95 2078
-1439.48 1115.34 2075
-1436.59 1116.95 2078
-1431.62 1116.95 2078
-1431.46 1120.72 2085
-1430.58 1123.94 2091
-1426.94 1125.02 2093
-1421.94 1125.02 2093
-1416.93 1125.02 2093
-1411.93 1125.02 2093
-1408.94 1126.63 2096
-1403.92 1126.63 2096
-1404.25 1130.93 2104
-1399.22 1130.93 2104
-1394.19 1130.93 2104
-1389.16 1130.93 2104
-1380.18 1127.7 2098
-1375.16 1127.7 2098
-1370.15 1127.7 2098
-1365.13 1127.7 2098
-1356.87 1125.02 2093
-1351.87 1125.02 2093
-1346.86 1125.02 2093
-1341.86 1125.02 2093
-1336.85 1125.02 2093
-1328.66 1122.33 2088
-1323.67 1122.33 2088
-1312.36 1116.95 2078
-1303.62 1113.73 2072
-1298.66 1113.73 2072
-1290.59 1111.04 2067
-1285.64 1111.04 2067
-1277.6 1108.35 2062
-1268.35 1104.59 2055
-1258.52 1100.29 2047
-1258.52 1104.59 2055
-1253.61 1104.59 2055
-1252.95 1108.35 2062
-1248.02 1108.35 2062
-1244.9 1109.97 2065
-1239.96 1109.97 2065
-1235.02 1109.97 2065
-1228.29 1108.35 2062
-1223.36 1108.35 2062
-1218.43 1108.35 2062
-1212.32 1107.28 2060
-1214.43 1113.73 2072
-1209.48 1113.73 2072
-1204.52 1113.73 2072
-1199.57 1113.73 2072
-1194.61 1113.73 2072
-1189.66 1113.73 2072
-1184.7 1113.73 2072
-1179.75 1113.73 2072
-1174.79 1113.73 2072
-1174.36 1118.03 2080
-1169.38 1118.03 2080
-1164.41 1118.03 2080
-1159.43 1118.03 2080
-1154.46 1118.03 2080
-1148.38 1116.95 2078
-1139.01 1112.65 2070
-1134.06 1112.65 2070
-1131.84 1115.34 2075
-1126.88 1115.34 2075
-1121.91 1115.34 2075
-1118.57 1116.95 2078
-1113.6 1116.95 2078
-1108.63 1116.95 2078
-1103.66 1116.95 2078
-1098.69 1116.95 2078
-1093.72 1116.95 2078
-1088.75 1116.95 2078
-1093.17 1126.63 2096
-1089.2 1127.7 2098
-1085.73 1129.32 2101
-1080.71 1129.32 2101
-1075.68 1129.32 2101
-1070.66 1129.32 2101
-1065.63 1129.32 2101
-1060.61 1129.32 2101
-1058.1 1132 2106
