129.28 -132.97 2010
134.087 -132.97 2010
139.239 -133.301 2015
144.915 -134.095 2027
150.28 -134.558 2034
155.143 -134.558 2034
161.03 -135.418 2047
167.141 -136.41 2062
172.906 -137.072 2072
177.861 -137.072 2072
183.522 -137.601 2080
189.492 -138.328 2091
196.446 -139.718 2112
201.496 -139.718 2112
207.036 -140.048 2117
213.2 -140.776 2128
219.725 -141.702 2142
224.847 -141.702 2142
231.687 -142.761 2158
237.177 -142.959 2161
242.681 -143.158 2164
247.856 -143.158 2164
253.03 -143.158 2164
258.205 -143.158 2164
263.38 -143.158 2164
384.41 -201.043 3039
391.678 -201.043 3039
398.945 -201.043 3039
402.469 -199.19 3011
409.669 -199.19 3011
408.009 -194.956 2947
409.986 -192.575 2911
415.515 -191.913 2901
422.452 -191.913 2901
428.649 -191.583 2896
434.07 -190.921 2886
440.207 -190.59 2881
446.321 -190.26 2876
453.198 -190.26 2876
460.076 -190.26 2876
466.141 -189.929 2871
472.183 -189.598 2866
479.036 -189.598 2866
485.89 -189.598 2866
492.056 -189.333 2862
498.028 -189.003 2857
504.86 -189.003 2857
511.692 -189.003 2857
518.524 -189.003 2857
525.356 -189.003 2857
532.188 -189.003 2857
539.02 -189.003 2857
544.896 -188.672 2852
551.716 -188.672 2852
558.536 -188.672 2852
565.356 -188.672 2852
571.173 -188.341 2847
577.981 -188.341 2847
584.789 -188.341 2847
591.597 -188.341 2847
598.405 -188.341 2847
605.213 -188.341 2847
612.021 -188.341 2847
618.829 -188.341 2847
625.637 -188.341 2847
631.335 -188.01 2842
638.131 -188.01 2842
644.927 -188.01 2842
650.576 -187.68 2837
657.361 -187.68 2837
664.145 -187.68 2837
670.929 -187.68 2837
677.713 -187.68 2837
684.497 -187.68 2837
691.281 -187.68 2837
698.065 -187.68 2837
704.849 -187.68 2837
711.634 -187.68 2837
718.418 -187.68 2837
725.202 -187.68 2837
731.986 -187.68 2837
737.468 -187.349 2832
744.24 -187.349 2832
751.012 -187.349 2832
757.785 -187.349 2832
764.557 -187.349 2832
771.329 -187.349 2832
778.101 -187.349 2832
784.873 -187.349 2832
791.645 -187.349 2832
798.418 -187.349 2832
804.052 -187.084 2828
810.815 -187.084 2828
817.578 -187.084 2828
824.34 -187.084 2828
831.103 -187.084 2828
837.865 -187.084 2828
844.628 -187.084 2828
851.391 -187.084 2828
858.153 -187.084 2828
864.916 -187.084 2828
871.679 -187.084 2828
878.441 -187.084 2828
885.204 -187.084 2828
891.966 -187.084 2828
897.14 -186.753 2823
900.689 -186.092 2813
909.028 -186.423 2818
915.767 -186.423 2818
922.506 -186.423 2818
929.244 -186.423 2818
935.983 -186.423 2818
942.722 -186.423 2818
949.461 -186.423 2818
956.199 -186.423 2818
962.938 -186.423 2818
969.677 -186.423 2818
976.415 -186.423 2818
1299.72 -243.117 3675
1308.51 -243.117 3675
1317.3 -243.117 3675
1323.2 -242.588 3667
1331.97 -242.588 3667
1340.74 -242.588 3667
1346.2 -241.992 3658
1349.02 -240.934 3642
1357.73 -240.934 3642
1363.81 -240.471 3635
1372.5 -240.471 3635
1383.85 -240.934 3642
1392.56 -240.934 3642
1401.27 -240.934 3642
1401.08 -239.412 3619
1406.61 -238.883 3611
1415.25 -238.883 3611
1420.73 -238.354 3603
1429.34 -238.354 3603
1434.77 -237.824 3595
1440.55 -237.361 3588
1449.13 -237.361 3588
1454.46 -236.832 3580
1456.89 -235.84 3565
1458.84 -234.781 3549
1467.33 -234.781 3549
1466.67 -233.326 3527
1468.83 -232.334 3512
1449.89 -228.034 3447
1458.13 -228.034 3447
1428.09 -222.08 3357
1421.57 -219.83 3323
1410.16 -216.854 3278
1412.37 -215.994 3265
1420.18 -215.994 3265
1424.92 -215.53 3258
1424.36 -214.274 3239
1426.8 -213.48 3227
1434.52 -213.48 3227
1417.65 -209.841 3172
1419.85 -209.047 3160
1427.4 -209.047 3160
1456.76 -212.223 3208
1470.36 -213.083 3221
1478.06 -213.083 3221
1485.77 -213.083 3221
1673.3 -236.303 3572
1730.34 -243.117 3675
1746.7 -244.175 3691
1755.52 -244.175 3691
1772 -245.234 3707
1780.86 -245.234 3707
1805.66 -247.417 3740
1814.6 -247.417 3740
1827.93 -248.012 3749
1845.23 -249.137 3766
1919.23 -257.869 3898
1928.55 -257.869 3898
1946.82 -259.06 3916
1956.18 -259.06 3916
1965.55 -259.06 3916
1965.83 -257.869 3898
1975.15 -257.869 3898
1984.48 -257.869 3898
1993.8 -257.869 3898
1513.88 -180.601 2730
1520.41 -180.601 2730
1526.94 -180.601 2730
1533.47 -180.601 2730
1534.92 -180.006 2721
1541.43 -180.006 2721
1553.05 -180.601 2730
1559.58 -180.601 2730
1566.11 -180.601 2730
1572.64 -180.601 2730
1579.16 -180.601 2730
1583.37 -180.336 2726
1589.89 -180.336 2726
1593.48 -180.006 2721
1599.99 -180.006 2721
1609.44 -180.336 2726
1615.96 -180.336 2726
1622.48 -180.336 2726
1629 -180.336 2726
1635.52 -180.336 2726
1642.04 -180.336 2726
1645.53 -180.006 2721
1647.18 -179.476 2713
1653.67 -179.476 2713
1657.1 -179.146 2708
1655.59 -178.286 2695
1659.57 -178.021 2691
1666 -178.021 2691
1666.84 -177.426 2682
1667.64 -176.83 2673
1674.03 -176.83 2673
1680.42 -176.83 2673
1679.24 -176.036 2661
1685.61 -176.036 2661
1686.25 -175.441 2652
1687.48 -174.912 2644
1693.81 -174.912 2644
1694.34 -174.316 2635
1695.48 -173.787 2627
1699.17 -173.523 2623
1705.44 -173.523 2623
1711.71 -173.523 2623
1715.37 -173.258 2619
1721.63 -173.258 2619
1727.89 -173.258 2619
1731.51 -172.993 2615
1737.76 -172.993 2615
1744.01 -172.993 2615
1747.59 -172.729 2611
1753.83 -172.729 2611
1760.08 -172.729 2611
1763.61 -172.464 2607
1767.13 -172.199 2603
1773.36 -172.199 2603
1779.58 -172.199 2603
1783.06 -171.935 2599
1785.84 -171.604 2594
1795.49 -171.935 2599
1801.71 -171.935 2599
1810.71 -172.199 2603
1816.93 -172.199 2603
1823.15 -172.199 2603
1826.57 -171.935 2599
1829.26 -171.604 2594
1832.63 -171.339 2590
1835.98 -171.075 2586
1842.17 -171.075 2586
1845.49 -170.81 2582
1848.8 -170.546 2578
1852.08 -170.281 2574
1858.24 -170.281 2574
1864.4 -170.281 2574
1870.55 -170.281 2574
1874.52 -170.083 2571
1880.67 -170.083 2571
1883.88 -169.818 2567
1887.07 -169.553 2563
1893.2 -169.553 2563
1899.33 -169.553 2563
1902.48 -169.289 2559
1908.6 -169.289 2559
1911.73 -169.024 2555
1914.84 -168.759 2551
1920.94 -168.759 2551
1924.02 -168.495 2547
1933.14 -168.759 2551
1942.28 -169.024 2555
1948.39 -169.024 2555
1954.5 -169.024 2555
-2011.07 -171.256 2686
-2004.65 -171.256 2686
-2004.92 -171.83 2695
-1998.48 -171.83 2695
-1992.03 -171.83 2695
-1982.64 -171.575 2691
-1976.21 -171.575 2691
-1950.74 -169.917 2665
-1941.45 -169.662 2661
-1922.72 -168.578 2644
-1916.4 -168.578 2644
-1910.08 -168.578 2644
-1916 -169.662 2661
-1909.63 -169.662 2661
-1903.27 -169.662 2661
-2224.76 -200.33 3142
-2217.25 -200.33 3142
-2243.49 -203.39 3190
-2248.48 -204.538 3208
-2254.08 -205.749 3227
-2246.37 -205.749 3227
-2287.21 -210.212 3297
-2293.15 -211.488 3317
-2303.13 -213.145 3343
-2295.14 -213.145 3343
-2315.2 -215.759 3384
-2311.88 -216.206 3391
-2303.77 -216.206 3391
-2295.66 -216.206 3391
-2292.27 -216.652 3398
-2293.56 -217.545 3412
-2285.4 -217.545 3412
-2277.24 -217.545 3412
-2259.77 -216.652 3398
-2251.64 -216.652 3398
-2271.25 -219.33 3440
-2263.02 -219.33 3440
-2254.8 -219.33 3440
-2264.86 -221.115 3468
-2294.95 -224.877 3527
-2286.52 -224.877 3527
-2278.08 -224.877 3527
-2269.65 -224.877 3527
-2265.7 -225.323 3534
-2257.25 -225.323 3534
-2283.16 -228.766 3588
-2279.02 -229.213 3595
-2270.42 -229.213 3595
-2261.83 -229.213 3595
-2243.83 -228.256 3580
-2230.27 -227.746 3572
-2221.73 -227.746 3572
-2117.17 -231.253 3627
-2108.5 -231.253 3627
-2099.82 -231.253 3627
-2091.15 -231.253 3627
-2082.48 -231.253 3627
-2170.3 -245.088 3844
-2161.11 -245.088 3844
-2151.92 -245.088 3844
-2152.76 -246.236 3862
-2158.51 -247.958 3889
-2149.21 -247.958 3889
-2154.76 -249.679 3916
-2145.4 -249.679 3916
-2136.04 -249.679 3916
-2126.67 -249.679 3916
-2117.31 -249.679 3916
-2098.25 -248.531 3898
-2088.93 -248.531 3898
-2013.46 -240.625 3774
-1912.53 -233.803 3667
-1912.06 -234.823 3683
-1903.26 -234.823 3683
-1894.45 -234.823 3683
-1877.45 -233.803 3667
-1855.94 -232.209 3642
-1847.23 -232.209 3642
-1818.84 -229.723 3603
-1806.2 -229.213 3595
-1782.6 -227.3 3565
-1770.1 -226.79 3557
-1761.59 -226.79 3557
-1745.69 -225.833 3542
-1744.58 -226.79 3557
-1743.39 -227.746 3572
-1734.85 -227.746 3572
-1726.31 -227.746 3572
-1728.83 -229.213 3595
-1720.23 -229.213 3595
-1715.45 -229.723 3603
-1706.83 -229.723 3603
-1709.53 -231.253 3627
-1707.89 -232.209 3642
-1699.18 -232.209 3642
-1690.47 -232.209 3642
-1681.76 -232.209 3642
-1666.16 -231.253 3627
-1668 -232.719 3650
-1659.27 -232.719 3650
-1672.7 -235.843 3699
-1667.45 -236.354 3707
-1658.59 -236.354 3707
-1649.72 -236.354 3707
-1648.38 -237.437 3724
-1639.48 -237.437 3724
-1630.57 -237.437 3724
-1610.78 -235.843 3699
-1207.57 -192.679 3022
-1200.35 -192.679 3022
-1193.12 -192.679 3022
-1162.74 -188.917 2963
-1147.47 -187.578 2942
-1122.6 -184.645 2896
-1121.45 -185.602 2911
-1114.49 -185.602 2911
-1109.81 -185.984 2917
-1106.62 -186.622 2927
-1101.5 -186.941 2932
-1094.49 -186.941 2932
-1089.33 -187.259 2937
-1082.31 -187.259 2937
-1075.28 -187.259 2937
-1066.44 -186.941 2932
-1054.01 -185.984 2917
-1044.88 -185.602 2911
-1037.92 -185.602 2911
-1025.65 -184.645 2896
-1016.96 -184.326 2891
-1006.55 -183.689 2881
-999.666 -183.689 2881
-992.776 -183.689 2881
-984.176 -183.37 2876
-973.9 -182.732 2866
-967.047 -182.732 2866
-960.193 -182.732 2866
-953.34 -182.732 2866
-946.486 -182.732 2866
-939.633 -182.732 2866
-931.478 -182.477 2862
-924.634 -182.477 2862
-916.186 -182.159 2857
-909.354 -182.159 2857
-902.523 -182.159 2857
-894.123 -181.84 2852
-887.303 -181.84 2852
-880.483 -181.84 2852
-875.195 -182.159 2857
-868.363 -182.159 2857
-861.531 -182.159 2857
-856.195 -182.477 2862
-850.538 -182.732 2866
-843.684 -182.732 2866
-836.831 -182.732 2866
-831.425 -183.051 2871
-824.56 -183.051 2871
-817.694 -183.051 2871
-810.829 -183.051 2871
-803.964 -183.051 2871
-797.098 -183.051 2871
-790.233 -183.051 2871
-782.003 -182.732 2866
-775.15 -182.732 2866
-768.296 -182.732 2866
-761.443 -182.732 2866
-754.589 -182.732 2866
-747.736 -182.732 2866
-740.882 -182.732 2866
-733.004 -182.477 2862
-726.16 -182.477 2862
-718.06 -182.159 2857
-711.228 -182.159 2857
-701.93 -181.521 2847
-696.343 -181.84 2852
-689.523 -181.84 2852
-682.703 -181.84 2852
-675.883 -181.84 2852
-667.89 -181.521 2847
-659.921 -181.202 2842
-653.125 -181.202 2842
-646.329 -181.202 2842
-642.908 -182.159 2857
-638.08 -182.732 2866
-644.662 -186.622 2927
-637.662 -186.622 2927
-637.342 -188.598 2958
-650.937 -194.783 3055
-663.225 -200.712 3148
-655.697 -200.712 3148
-655.582 -203.008 3184
-660.585 -206.961 3246
-656.644 -208.172 3265
-648.837 -208.172 3265
-656.343 -213.145 3343
-654.943 -215.313 3377
-648.208 -215.759 3384
-640.116 -215.759 3384
-632.024 -215.759 3384
-625.222 -216.206 3391
-617.114 -216.206 3391
-609.005 -216.206 3391
-600.896 -216.206 3391
-591.563 -215.759 3384
-583.471 -215.759 3384
-572.998 -214.867 3370
-564.94 -214.867 3370
-558.038 -215.313 3377
-553.382 -216.652 3398
-545.257 -216.652 3398
-537.131 -216.652 3398
-525.736 -215.313 3377
-517.661 -215.313 3377
-508.529 -214.867 3370
-499.431 -214.421 3363
-490.512 -214.038 3357
-482.484 -214.038 3357
-472.478 -213.145 3343
-466.429 -214.038 3357
-458.401 -214.038 3357
-450.374 -214.038 3357
-442.346 -214.038 3357
-434.319 -214.038 3357
-425.402 -213.592 3350
-417.391 -213.592 3350
-409.38 -213.592 3350
-401.37 -213.592 3350
-393.359 -213.592 3350
-385.348 -213.592 3350
-377.337 -213.592 3350
-367.121 -212.317 3330
-358.403 -211.87 3323
-349.824 -211.488 3317
-341.892 -211.488 3317
-333.96 -211.488 3317
-326.028 -211.488 3317
-318.096 -211.488 3317
-310.164 -211.488 3317
-300.41 -210.212 3297
-291.905 -209.766 3290
-284.037 -209.766 3290
-276.17 -209.766 3290
-267.813 -209.384 3284
-258.931 -208.555 3271
-251.109 -208.555 3271
-243.287 -208.555 3271
-235.465 -208.555 3271
-227.643 -208.555 3271
-146.368 -138.866 2178
-141.16 -138.866 2178
-135.952 -138.866 2178
-130.744 -138.866 2178
-125.535 -138.866 2178
-120.327 -138.866 2178
-114.643 -138.293 2169
-109.053 -137.783 2161
-103.597 -137.4 2155
-98.4435 -137.4 2155
-93.0738 -137.081 2150
-87.8098 -136.89 2147
-82.5601 -136.699 2144
-77.4332 -136.699 2144
-72.3062 -136.699 2144
-67.1166 -136.571 2142
-61.8208 -136.189 2136
-56.7129 -136.189 2136
-51.4843 -135.87 2131
-46.2578 -135.487 2125
-41.1182 -135.296 2122
-36.0438 -135.296 2122
-30.9695 -135.296 2122
-25.7975 -134.786 2114
-20.7227 -134.658 2112
-15.65 -134.467 2109
-10.6067 -134.467 2109
-5.55555 -134.276 2106
-0.519469 -134.276 2106
4.51233 -134.148 2104
9.54363 -134.148 2104
14.5749 -134.148 2104
19.5783 -133.957 2101
24.5439 -133.638 2096
29.556 -133.638 2096
34.5187 -133.447 2093
39.5237 -133.447 2093
44.3585 -132.937 2085
49.3444 -132.937 2085
54.2781 -132.809 2083
59.0316 -132.299 2075
63.9011 -132.108 2072
68.8558 -132.108 2072
73.4544 -131.47 2062
78.1192 -131.024 2055
82.71 -130.514 2047
87.0487 -129.685 2034
91.9126 -129.685 2034
96.3483 -129.111 2025
100.791 -128.601 2017
105.352 -128.283 2012
110.164 -128.283 2012
114.575 -127.836 2005
119.37 -127.836 2005
124.164 -127.836 2005
129.152 -128.027 2008
133.953 -128.027 2008
139.239 -128.474 2015
144.415 -128.793 2020
149.984 -129.43 2030
154.838 -129.43 2030
160.243 -129.876 2037
165.925 -130.514 2047
172.072 -131.47 2062
177.003 -131.47 2062
182.816 -132.108 2072
188.496 -132.618 2080
195.144 -133.766 2098
200.161 -133.766 2098
206.742 -134.786 2114
212.9 -135.487 2125
219.725 -136.571 2142
224.847 -136.571 2142
231.687 -137.591 2158
237.177 -137.783 2161
243.017 -138.165 2167
248.199 -138.165 2167
253.615 -138.293 2169
258.802 -138.293 2169
263.989 -138.293 2169
378.845 -190.957 2995
386.007 -190.957 2995
393.169 -190.957 2995
400.331 -190.957 2995
407.493 -190.957 2995
408.009 -187.897 2947
409.986 -185.602 2911
416.231 -185.283 2906
423.18 -185.283 2906
428.649 -184.645 2896
434.07 -184.008 2886
440.207 -183.689 2881
447.097 -183.689 2881
453.986 -183.689 2881
460.875 -183.689 2881
466.953 -183.37 2876
473.007 -183.051 2871
479.872 -183.051 2871
485.89 -182.732 2866
492.743 -182.732 2866
498.899 -182.477 2862
505.743 -182.477 2862
512.587 -182.477 2862
519.431 -182.477 2862
526.275 -182.477 2862
533.119 -182.477 2862
539.02 -182.159 2857
545.852 -182.159 2857
552.683 -182.159 2857
559.515 -182.159 2857
565.356 -181.84 2852
572.176 -181.84 2852
578.996 -181.84 2852
585.816 -181.84 2852
592.636 -181.84 2852
599.456 -181.84 2852
606.276 -181.84 2852
613.096 -181.84 2852
619.916 -181.84 2852
626.736 -181.84 2852
633.556 -181.84 2852
639.253 -181.521 2847
646.062 -181.521 2847
652.87 -181.521 2847
659.678 -181.521 2847
666.486 -181.521 2847
673.294 -181.521 2847
680.102 -181.521 2847
685.703 -181.202 2842
692.5 -181.202 2842
699.296 -181.202 2842
706.092 -181.202 2842
712.888 -181.202 2842
719.684 -181.202 2842
726.48 -181.202 2842
733.276 -181.202 2842
740.072 -181.202 2842
745.554 -180.883 2837
752.338 -180.883 2837
759.122 -180.883 2837
765.907 -180.883 2837
772.691 -180.883 2837
779.475 -180.883 2837
786.259 -180.883 2837
791.645 -180.565 2832
798.418 -180.565 2832
805.19 -180.565 2832
811.962 -180.565 2832
818.734 -180.565 2832
825.506 -180.565 2832
832.278 -180.565 2832
839.051 -180.565 2832
844.628 -180.31 2828
852.595 -180.565 2832
859.367 -180.565 2832
866.139 -180.565 2832
872.911 -180.565 2832
879.684 -180.565 2832
885.204 -180.31 2828
891.966 -180.31 2828
897.14 -179.991 2823
902.29 -179.672 2818
909.028 -179.672 2818
915.767 -179.672 2818
922.506 -179.672 2818
929.244 -179.672 2818
935.983 -179.672 2818
942.722 -179.672 2818
949.461 -179.672 2818
956.199 -179.672 2818
962.938 -179.672 2818
969.677 -179.672 2818
976.415 -179.672 2818
1302.55 -234.823 3683
1311.36 -234.823 3683
1320.17 -234.823 3683
1326.09 -234.313 3675
1334.88 -234.313 3675
1343.66 -234.313 3675
1349.51 -233.803 3667
1358.28 -233.803 3667
1367.05 -233.803 3667
1369.44 -232.719 3650
1378.16 -232.719 3650
1383.85 -232.209 3642
1392.56 -232.209 3642
1401.27 -232.209 3642
1409.98 -232.209 3642
1406.61 -230.233 3611
1415.25 -230.233 3611
1423.88 -230.233 3611
1429.34 -229.723 3603
1434.77 -229.213 3595
1437.34 -228.256 3580
1445.9 -228.256 3580
1451.21 -227.746 3572
1453.63 -226.79 3557
1455.97 -225.833 3542
1464.44 -225.833 3542
1463.76 -224.431 3520
1462.56 -222.964 3497
1449.89 -219.776 3447
1458.13 -219.776 3447
1422.13 -213.145 3343
1407.45 -209.766 3290
1412.74 -209.384 3284
1412.37 -208.172 3265
1420.18 -208.172 3265
1422.3 -207.343 3252
1424.36 -206.514 3239
1426.8 -205.749 3227
1434.52 -205.749 3227
1428.38 -203.773 3196
1422.54 -201.86 3166
1438.24 -203.008 3184
1451.31 -203.773 3196
1464.43 -204.538 3208
1472.1 -204.538 3208
1479.77 -204.538 3208
1721.55 -234.313 3675
1737.87 -235.333 3691
1746.7 -235.333 3691
1755.52 -235.333 3691
1772 -236.354 3707
1792.87 -237.948 3732
1810 -239.031 3749
1818.97 -239.031 3749
1831.83 -239.541 3757
1853.56 -241.199 3783
1883.78 -243.941 3826
1892.93 -243.941 3826
1928.92 -247.384 3880
1938.2 -247.384 3880
1947.48 -247.384 3880
1934.06 -244.515 3835
1966.03 -247.384 3880
1975.31 -247.384 3880
1984.59 -247.384 3880
1513.88 -174.061 2730
1520.41 -174.061 2730
1526.94 -174.061 2730
1533.47 -174.061 2730
1540 -174.061 2730
1544.26 -173.806 2726
1553.05 -174.061 2730
1559.58 -174.061 2730
1566.11 -174.061 2730
1572.64 -174.061 2730
1579.16 -174.061 2730
1583.37 -173.806 2726
1589.89 -173.806 2726
1596.41 -173.806 2726
1602.93 -173.806 2726
1611.81 -174.061 2730
1618.33 -174.061 2730
1624.86 -174.061 2730
1631.39 -174.061 2730
1637.92 -174.061 2730
1642.04 -173.806 2726
1648.56 -173.806 2726
1649.61 -173.232 2717
1656.11 -173.232 2717
1660.16 -172.977 2713
1661.12 -172.404 2704
1659.57 -171.575 2691
1666 -171.575 2691
1672.44 -171.575 2691
1670.76 -170.746 2678
1674.03 -170.427 2673
1680.42 -170.427 2673
1686.82 -170.427 2673
1688.14 -169.917 2665
1688.79 -169.343 2656
1690.04 -168.833 2648
1696.37 -168.833 2648
1697.56 -168.323 2640
1698.06 -167.749 2631
1701.76 -167.494 2627
1708.04 -167.494 2627
1714.33 -167.494 2627
1717.99 -167.239 2623
1721.63 -166.984 2619
1727.89 -166.984 2619
1734.16 -166.984 2619
1737.76 -166.729 2615
1744.01 -166.729 2615
1750.27 -166.729 2615
1756.52 -166.729 2615
1762.77 -166.729 2615
1763.61 -166.219 2607
1769.85 -166.219 2607
1776.08 -166.219 2607
1779.58 -165.964 2603
1783.06 -165.709 2599
1789.28 -165.709 2599
1798.26 -165.964 2603
1804.48 -165.964 2603
1810.71 -165.964 2603
1816.93 -165.964 2603
1823.15 -165.964 2603
1826.57 -165.709 2599
1829.26 -165.39 2594
1832.63 -165.135 2590
1835.98 -164.88 2586
1842.17 -164.88 2586
1845.49 -164.625 2582
1848.8 -164.37 2578
1854.96 -164.37 2578
1861.13 -164.37 2578
1864.4 -164.115 2574
1870.55 -164.115 2574
1876.71 -164.115 2574
1882.86 -164.115 2574
1883.88 -163.669 2567
1890.02 -163.669 2567
1893.2 -163.414 2563
1899.33 -163.414 2563
1905.46 -163.414 2563
1908.6 -163.159 2559
1914.72 -163.159 2559
1917.84 -162.904 2555
1926.96 -163.159 2559
1933.08 -163.159 2559
1939.2 -163.159 2559
1948.36 -163.414 2563
1954.49 -163.414 2563
1960.62 -163.414 2563
-2011.07 -164.822 2686
-2004.65 -164.822 2686
-2004.92 -165.374 2695
-1998.48 -165.374 2695
-1992.03 -165.374 2695
-1982.64 -165.128 2691
-1976.21 -165.128 2691
-1950.74 -163.533 2665
-1941.45 -163.287 2661
-1922.72 -162.244 2644
-1916.4 -162.244 2644
-1910.08 -162.244 2644
-1916 -163.287 2661
-1909.63 -163.287 2661
-1903.27 -163.287 2661
-2224.76 -192.803 3142
-2217.25 -192.803 3142
-2247.71 -196.117 3196
-2248.48 -196.853 3208
-2254.08 -198.019 3227
-2246.37 -198.019 3227
-2301.08 -203.542 3317
-2302.14 -204.339 3330
-2303.13 -205.137 3343
-2295.14 -205.137 3343
-2319.98 -208.083 3391
-2316.65 -208.512 3398
-2308.52 -208.512 3398
-2300.4 -208.512 3398
-2296.99 -208.942 3405
-2298.26 -209.801 3419
-2290.09 -209.801 3419
-2281.91 -209.801 3419
-2269.08 -209.371 3412
-2251.64 -208.512 3398
-2271.25 -211.089 3440
-2263.02 -211.089 3440
-2254.8 -211.089 3440
-2264.86 -212.808 3468
-2294.95 -216.428 3527
-2286.52 -216.428 3527
-2278.08 -216.428 3527
-2269.65 -216.428 3527
-2265.7 -216.858 3534
-2257.25 -216.858 3534
-2283.16 -220.171 3588
-2279.02 -220.601 3595
-2270.42 -220.601 3595
-2261.83 -220.601 3595
-2243.83 -219.68 3580
-2230.27 -219.189 3572
-2221.73 -219.189 3572
-2117.17 -222.564 3627
-2108.5 -222.564 3627
-2099.82 -222.564 3627
-2091.15 -222.564 3627
-2082.48 -222.564 3627
-2060.08 -221.092 3603
-2051.46 -221.092 3603
-2120.53 -229.498 3740
-2170.3 -235.88 3844
-2161.11 -235.88 3844
-2151.92 -235.88 3844
-2152.76 -236.985 3862
-2158.51 -238.641 3889
-2149.21 -238.641 3889
-2154.76 -240.298 3916
-2145.4 -240.298 3916
-2136.04 -240.298 3916
-2126.67 -240.298 3916
-2117.31 -240.298 3916
-2098.25 -239.194 3898
-2088.93 -239.194 3898
-2013.46 -231.585 3774
-1991.15 -230.051 3749
-1982.19 -230.051 3749
-1973.22 -230.051 3749
-1921.3 -225.019 3667
-1912.53 -225.019 3667
-1912.06 -226.001 3683
-1903.26 -226.001 3683
-1894.45 -226.001 3683
-1877.45 -225.019 3667
-1855.94 -223.485 3642
-1847.23 -223.485 3642
-1818.84 -221.092 3603
-1810.22 -221.092 3603
-1786.1 -219.189 3572
-1770.1 -218.269 3557
-1761.59 -218.269 3557
-1753.09 -218.269 3557
-1744.58 -218.269 3557
-1743.39 -219.189 3572
-1734.85 -219.189 3572
-1726.31 -219.189 3572
-1728.83 -220.601 3595
-1720.23 -220.601 3595
-1715.45 -221.092 3603
-1706.83 -221.092 3603
-1709.53 -222.564 3627
-1707.89 -223.485 3642
-1699.18 -223.485 3642
-1690.47 -223.485 3642
-1681.76 -223.485 3642
-1666.16 -222.564 3627
-1668 -223.976 3650
-1659.27 -223.976 3650
-1672.7 -226.982 3699
-1667.45 -227.473 3707
-1658.59 -227.473 3707
-1649.72 -227.473 3707
-1648.38 -228.517 3724
-1639.48 -228.517 3724
-1630.57 -228.517 3724
-1610.78 -226.982 3699
-1207.57 -185.44 3022
-1200.35 -185.44 3022
-1193.12 -185.44 3022
-1162.74 -181.819 2963
-1147.47 -180.531 2942
-1122.6 -177.708 2896
-1123.76 -178.996 2917
-1116.79 -178.996 2917
-1109.81 -178.996 2917
-1106.62 -179.61 2927
-1101.5 -179.917 2932
-1094.49 -179.917 2932
-1089.33 -180.224 2937
-1082.31 -180.224 2937
-1075.28 -180.224 2937
-1066.44 -179.917 2932
-1054.01 -178.996 2917
-1044.88 -178.628 2911
-1037.92 -178.628 2911
-1025.65 -177.708 2896
-1018.72 -177.708 2896
-1008.3 -177.094 2886
-1001.4 -177.094 2886
-992.776 -176.787 2881
-985.887 -176.787 2881
-975.599 -176.174 2871
-968.734 -176.174 2871
-961.869 -176.174 2871
-955.003 -176.174 2871
-948.138 -176.174 2871
-941.272 -176.174 2871
-931.478 -175.621 2862
-924.634 -175.621 2862
-916.186 -175.315 2857
-909.354 -175.315 2857
-902.523 -175.315 2857
-894.123 -175.008 2852
-887.303 -175.008 2852
-880.483 -175.008 2852
-875.195 -175.315 2857
-868.363 -175.315 2857
-861.531 -175.315 2857
-856.195 -175.621 2862
-850.538 -175.867 2866
-843.684 -175.867 2866
-836.831 -175.867 2866
-831.425 -176.174 2871
-824.56 -176.174 2871
-817.694 -176.174 2871
-810.829 -176.174 2871
-803.964 -176.174 2871
-797.098 -176.174 2871
-790.233 -176.174 2871
-783.367 -176.174 2871
-776.502 -176.174 2871
-769.636 -176.174 2871
-762.771 -176.174 2871
-754.589 -175.867 2866
-747.736 -175.867 2866
-740.882 -175.867 2866
-733.004 -175.621 2862
-726.16 -175.621 2862
-718.06 -175.315 2857
-711.228 -175.315 2857
-704.396 -175.315 2857
-696.343 -175.008 2852
-689.523 -175.008 2852
-682.703 -175.008 2852
-675.883 -175.008 2852
-669.063 -175.008 2852
-661.082 -174.701 2847
-654.274 -174.701 2847
-647.466 -174.701 2847
-642.908 -175.315 2857
-638.08 -175.867 2866
-644.662 -179.61 2927
-637.662 -179.61 2927
-637.342 -181.512 2958
-650.937 -187.465 3055
-663.225 -193.171 3148
-655.697 -193.171 3148
-655.582 -195.38 3184
-660.585 -199.185 3246
-656.644 -200.351 3265
-648.837 -200.351 3265
-656.343 -205.137 3343
-656.3 -207.653 3384
-650.89 -208.512 3398
-642.764 -208.512 3398
-634.639 -208.512 3398
-626.513 -208.512 3398
-618.387 -208.512 3398
-610.262 -208.512 3398
-602.136 -208.512 3398
-591.563 -207.653 3384
-583.471 -207.653 3384
-572.998 -206.794 3370
-564.94 -206.794 3370
-560.351 -208.083 3391
-553.382 -208.512 3398
-545.257 -208.512 3398
-537.131 -208.512 3398
-529.005 -208.512 3398
-520.88 -208.512 3398
-508.529 -206.794 3370
-500.47 -206.794 3370
-491.389 -206.364 3363
-483.347 -206.364 3363
-474.457 -205.996 3357
-466.429 -205.996 3357
-458.401 -205.996 3357
-450.374 -205.996 3357
-442.346 -205.996 3357
-434.319 -205.996 3357
-425.402 -205.567 3350
-417.391 -205.567 3350
-409.38 -205.567 3350
-401.37 -205.567 3350
-393.359 -205.567 3350
-385.348 -205.567 3350
-377.337 -205.567 3350
-367.121 -204.339 3330
-358.403 -203.91 3323
-349.824 -203.542 3317
-341.892 -203.542 3317
-333.96 -203.542 3317
-326.028 -203.542 3317
-318.096 -203.542 3317
-310.164 -203.542 3317
-300.41 -202.314 3297
-291.905 -201.885 3290
-284.037 -201.885 3290
-276.17 -201.885 3290
-267.813 -201.517 3284
-258.931 -200.719 3271
-251.109 -200.719 3271
-243.287 -200.719 3271
-235.465 -200.719 3271
-227.643 -200.719 3271
-146.368 -133.649 2178
-141.16 -133.649 2178
-135.952 -133.649 2178
-130.744 -133.649 2178
-125.535 -133.649 2178
-120.327 -133.649 2178
-114.643 -133.097 2169
-109.053 -132.606 2161
-103.597 -132.238 2155
-98.4435 -132.238 2155
-93.0738 -131.931 2150
-87.8098 -131.747 2147
-82.5601 -131.563 2144
-77.4332 -131.563 2144
-72.3062 -131.563 2144
-67.1166 -131.44 2142
-61.8208 -131.072 2136
-56.7129 -131.072 2136
-51.4843 -130.765 2131
-46.2578 -130.397 2125
-41.1182 -130.213 2122
-36.0438 -130.213 2122
-30.9695 -130.213 2122
-25.7975 -129.722 2114
-20.7227 -129.599 2112
-15.65 -129.415 2109
-10.6067 -129.415 2109
-5.55555 -129.231 2106
-0.519469 -129.231 2106
4.51233 -129.108 2104
9.54363 -129.108 2104
14.5749 -129.108 2104
19.5783 -128.924 2101
24.5439 -128.617 2096
29.556 -128.617 2096
34.5187 -128.433 2093
39.5237 -128.433 2093
44.3585 -127.942 2085
49.3444 -127.942 2085
54.2781 -127.82 2083
59.117 -127.513 2078
63.9011 -127.145 2072
68.8558 -127.145 2072
73.5613 -126.715 2065
78.1952 -126.224 2057
83.0333 -126.101 2055
87.1771 -124.997 2037
92.0482 -124.997 2037
96.3483 -124.26 2025
100.941 -123.954 2020
105.352 -123.463 2012
110.164 -123.463 2012
114.746 -123.217 2008
119.37 -123.033 2005
124.164 -123.033 2005
129.152 -123.217 2008
133.953 -123.217 2008
139.239 -123.647 2015
144.415 -123.954 2020
149.984 -124.567 2030
154.838 -124.567 2030
160.243 -124.997 2037
165.925 -125.61 2047
172.072 -126.531 2062
177.003 -126.531 2062
182.816 -127.145 2072
188.496 -127.635 2080
195.144 -128.74 2098
200.161 -128.74 2098
206.742 -129.722 2114
212.9 -130.397 2125
219.725 -131.44 2142
224.847 -131.44 2142
231.687 -132.422 2158
237.177 -132.606 2161
243.017 -132.974 2167
248.199 -132.974 2167
253.615 -133.097 2169
258.802 -133.097 2169
263.989 -133.097 2169
380.236 -184.458 3006
387.424 -184.458 3006
394.613 -184.458 3006
400.331 -183.783 2995
407.493 -183.783 2995
408.009 -180.837 2947
411.535 -179.303 2922
416.231 -178.321 2906
423.18 -178.321 2906
429.389 -178.015 2901
434.822 -177.401 2891
440.971 -177.094 2886
447.873 -177.094 2886
454.774 -177.094 2886
460.875 -176.787 2881
467.765 -176.787 2881
473.007 -176.174 2871
479.872 -176.174 2871
485.89 -175.867 2866
492.743 -175.867 2866
499.597 -175.867 2866
506.45 -175.867 2866
512.587 -175.621 2862
519.431 -175.621 2862
526.275 -175.621 2862
533.119 -175.621 2862
539.963 -175.621 2862
546.807 -175.621 2862
553.651 -175.621 2862
560.495 -175.621 2862
567.339 -175.621 2862
573.179 -175.315 2857
580.011 -175.315 2857
586.843 -175.315 2857
593.675 -175.315 2857
600.507 -175.315 2857
607.339 -175.315 2857
614.171 -175.315 2857
621.003 -175.315 2857
627.835 -175.315 2857
633.556 -175.008 2852
640.376 -175.008 2852
647.196 -175.008 2852
654.016 -175.008 2852
660.836 -175.008 2852
667.656 -175.008 2852
674.476 -175.008 2852
680.102 -174.701 2847
686.91 -174.701 2847
693.718 -174.701 2847
700.526 -174.701 2847
707.334 -174.701 2847
714.142 -174.701 2847
719.684 -174.394 2842
726.48 -174.394 2842
733.276 -174.394 2842
740.072 -174.394 2842
746.868 -174.394 2842
753.664 -174.394 2842
760.46 -174.394 2842
765.907 -174.087 2837
774.052 -174.394 2842
780.849 -174.394 2842
787.645 -174.394 2842
793.043 -174.087 2837
799.827 -174.087 2837
806.611 -174.087 2837
813.395 -174.087 2837
820.18 -174.087 2837
825.506 -173.781 2832
832.278 -173.781 2832
839.051 -173.781 2832
845.823 -173.781 2832
852.595 -173.781 2832
859.367 -173.781 2832
866.139 -173.781 2832
872.911 -173.781 2832
879.684 -173.781 2832
885.204 -173.535 2828
891.966 -173.535 2828
897.14 -173.228 2823
902.29 -172.922 2818
909.028 -172.922 2818
917.392 -173.228 2823
924.143 -173.228 2823
930.893 -173.228 2823
935.983 -172.922 2818
942.722 -172.922 2818
949.461 -172.922 2818
956.199 -172.922 2818
962.938 -172.922 2818
969.677 -172.922 2818
976.415 -172.922 2818
1293.75 -226.001 3683
1302.55 -226.001 3683
1311.36 -226.001 3683
1320.17 -226.001 3683
1328.97 -226.001 3683
1337.78 -226.001 3683
1346.59 -226.001 3683
1352.45 -225.51 3675
1358.28 -225.019 3667
1367.05 -225.019 3667
1369.44 -223.976 3650
1378.16 -223.976 3650
1386.89 -223.976 3650
1395.62 -223.976 3650
1401.27 -223.485 3642
1409.98 -223.485 3642
1406.61 -221.583 3611
1415.25 -221.583 3611
1423.88 -221.583 3611
1432.52 -221.583 3611
1434.77 -220.601 3595
1437.34 -219.68 3580
1445.9 -219.68 3580
1451.21 -219.189 3572
1453.63 -218.269 3557
1455.97 -217.348 3542
1464.44 -217.348 3542
1463.76 -215.998 3520
1462.56 -214.587 3497
1449.89 -211.519 3447
1458.13 -211.519 3447
1422.13 -205.137 3343
1419 -203.542 3317
1415.32 -201.885 3290
1420.59 -201.517 3284
1428.44 -201.517 3284
1436.3 -201.517 3284
1432.72 -199.921 3258
1437.85 -199.553 3252
1445.63 -199.553 3252
1442.23 -198.019 3227
1436.02 -196.117 3196
1443.66 -196.117 3196
1451.31 -196.117 3196
1470.36 -197.651 3221
1478.06 -197.651 3221
1488.53 -198.019 3227
1525.46 -201.885 3290
1533.33 -201.885 3290
1721.55 -225.51 3675
1737.87 -226.492 3691
1746.7 -226.492 3691
1755.52 -226.492 3691
1772 -227.473 3707
1792.87 -229.007 3732
1810 -230.051 3749
1818.97 -230.051 3749
1831.83 -230.542 3757
1853.56 -232.137 3783
1883.78 -234.776 3826
1892.93 -234.776 3826
1928.92 -238.089 3880
1938.2 -238.089 3880
1947.48 -238.089 3880
1934.06 -235.328 3835
1966.03 -238.089 3880
1975.31 -238.089 3880
1984.59 -238.089 3880
1513.88 -167.522 2730
1528.21 -168.381 2744
1534.77 -168.381 2744
1541.33 -168.381 2744
1547.89 -168.381 2744
1546.52 -167.522 2730
1553.05 -167.522 2730
1559.58 -167.522 2730
1568.98 -167.828 2735
1575.52 -167.828 2735
1582.06 -167.828 2735
1585.69 -167.522 2730
1592.22 -167.522 2730
1598.75 -167.522 2730
1605.28 -167.522 2730
1611.81 -167.522 2730
1618.33 -167.522 2730
1624.86 -167.522 2730
1631.39 -167.522 2730
1637.92 -167.522 2730
1644.45 -167.522 2730
1650.98 -167.522 2730
1655.08 -167.276 2726
1661.59 -167.276 2726
1665.05 -166.969 2721
1663.57 -166.172 2708
1664.5 -165.619 2699
1670.95 -165.619 2699
1672.44 -165.128 2691
1678.87 -165.128 2691
1677.16 -164.331 2678
1683.57 -164.331 2678
1689.97 -164.331 2678
1693.21 -164.024 2673
1691.97 -163.287 2661
1692.59 -162.735 2652
1698.93 -162.735 2652
1700.13 -162.244 2644
1700.64 -161.692 2635
1704.35 -161.447 2631
1710.64 -161.447 2631
1716.94 -161.447 2631
1720.61 -161.201 2627
1724.26 -160.956 2623
1730.53 -160.956 2623
1734.16 -160.71 2619
1737.76 -160.465 2615
1744.01 -160.465 2615
1750.27 -160.465 2615
1756.52 -160.465 2615
1762.77 -160.465 2615
1766.32 -160.219 2611
1769.85 -159.974 2607
1776.08 -159.974 2607
1779.58 -159.728 2603
1785.81 -159.728 2603
1789.28 -159.483 2599
1798.26 -159.728 2603
1804.48 -159.728 2603
1810.71 -159.728 2603
1816.93 -159.728 2603
1823.15 -159.728 2603
1826.57 -159.483 2599
1829.26 -159.176 2594
1835.46 -159.176 2594
1838.82 -158.931 2590
1845.02 -158.931 2590
1848.35 -158.685 2586
1851.67 -158.44 2582
1854.96 -158.194 2578
1861.13 -158.194 2578
1867.29 -158.194 2578
1873.46 -158.194 2578
1879.62 -158.194 2578
1885.79 -158.194 2578
1886.81 -157.765 2571
1890.02 -157.519 2567
1896.16 -157.519 2567
1902.29 -157.519 2567
1905.46 -157.274 2563
1908.6 -157.028 2559
1914.72 -157.028 2559
1920.84 -157.028 2559
1926.96 -157.028 2559
1933.08 -157.028 2559
1942.23 -157.274 2563
1948.36 -157.274 2563
1954.49 -157.274 2563
1960.62 -157.274 2563
-2011.07 -158.387 2686
-2004.65 -158.387 2686
-2004.92 -158.918 2695
-1998.48 -158.918 2695
-1992.03 -158.918 2695
-1982.64 -158.682 2691
-1976.21 -158.682 2691
-1950.74 -157.149 2665
-1941.45 -156.913 2661
-1922.72 -155.911 2644
-1916.4 -155.911 2644
-1910.08 -155.911 2644
-1916 -156.913 2661
-1909.63 -156.913 2661
-1903.27 -156.913 2661
-2224.76 -185.276 3142
-2217.25 -185.276 3142
-2247.71 -188.461 3196
-2248.48 -189.168 3208
-2254.08 -190.289 3227
-2246.37 -190.289 3227
-2301.08 -195.596 3317
-2302.14 -196.362 3330
-2303.13 -197.129 3343
-2295.14 -197.129 3343
-2319.98 -199.959 3391
-2316.65 -200.372 3398
-2308.52 -200.372 3398
-2300.4 -200.372 3398
-2296.99 -200.785 3405
-2298.26 -201.611 3419
-2290.09 -201.611 3419
-2281.91 -201.611 3419
-2269.08 -201.198 3412
-2251.64 -200.372 3398
-2271.25 -202.849 3440
-2263.02 -202.849 3440
-2254.8 -202.849 3440
-2264.86 -204.5 3468
-2294.95 -207.979 3527
-2286.52 -207.979 3527
-2278.08 -207.979 3527
-2269.65 -207.979 3527
-2265.7 -208.392 3534
-2257.25 -208.392 3534
-2283.16 -211.576 3588
-2274.58 -211.576 3588
-2266 -211.576 3588
-2257.42 -211.576 3588
-2238.82 -210.633 3572
-2225.9 -210.22 3565
-2217.38 -210.22 3565
-2117.17 -213.876 3627
-2108.5 -213.876 3627
-2099.82 -213.876 3627
-2091.15 -213.876 3627
-2082.48 -213.876 3627
-2060.08 -212.461 3603
-2051.46 -212.461 3603
-2120.53 -220.539 3740
-2111.58 -220.539 3740
-2102.64 -220.539 3740
-2151.92 -226.672 3844
-2142.72 -226.672 3844
-2133.53 -226.672 3844
-2124.34 -226.672 3844
-2115.15 -226.672 3844
-2101.02 -226.141 3835
-2091.85 -226.141 3835
-2082.68 -226.141 3835
-2073.51 -226.141 3835
-2064.34 -226.141 3835
-2055.17 -226.141 3835
-2013.46 -222.544 3774
-1991.15 -221.07 3749
-1982.19 -221.07 3749
-1973.22 -221.07 3749
-1921.3 -216.235 3667
-1912.53 -216.235 3667
-1907.91 -216.706 3675
-1899.12 -216.706 3675
-1890.33 -216.706 3675
-1877.45 -216.235 3667
-1855.94 -214.76 3642
-1847.23 -214.76 3642
-1818.84 -212.461 3603
-1810.22 -212.461 3603
-1786.1 -210.633 3572
-1770.1 -209.748 3557
-1761.59 -209.748 3557
-1753.09 -209.748 3557
-1744.58 -209.748 3557
-1743.39 -210.633 3572
-1734.85 -210.633 3572
-1726.31 -210.633 3572
-1725.46 -211.576 3588
-1716.88 -211.576 3588
-1711.64 -211.989 3595
-1703.04 -211.989 3595
-1698.21 -212.461 3603
-1700.85 -213.876 3627
-1692.18 -213.876 3627
-1683.51 -213.876 3627
-1674.83 -213.876 3627
-1666.16 -213.876 3627
-1668 -215.232 3650
-1659.27 -215.232 3650
-1665.46 -217.178 3683
-1660.25 -217.65 3691
-1651.43 -217.65 3691
-1642.6 -217.65 3691
-1633.78 -217.65 3691
-1624.95 -217.65 3691
-1616.12 -217.65 3691
-1207.57 -178.2 3022
-1200.35 -178.2 3022
-1193.12 -178.2 3022
-1162.74 -174.721 2963
-1147.47 -173.483 2942
-1122.6 -170.77 2896
-1123.76 -172.009 2917
-1116.79 -172.009 2917
-1109.81 -172.009 2917
-1106.62 -172.598 2927
-1099.62 -172.598 2927
-1092.62 -172.598 2927
-1089.33 -173.188 2937
-1082.31 -173.188 2937
-1075.28 -173.188 2937
-1064.62 -172.598 2927
-1054.01 -172.009 2917
-1044.88 -171.655 2911
-1037.92 -171.655 2911
-1025.65 -170.77 2896
-1018.72 -170.77 2896
-1008.3 -170.181 2886
-1001.4 -170.181 2886
-992.776 -169.886 2881
-985.887 -169.886 2881
-975.599 -169.296 2871
-968.734 -169.296 2871
-961.869 -169.296 2871
-955.003 -169.296 2871
-948.138 -169.296 2871
-941.272 -169.296 2871
-931.478 -168.766 2862
-924.634 -168.766 2862
-916.186 -168.471 2857
-909.354 -168.471 2857
-900.943 -168.176 2852
-894.123 -168.176 2852
-887.303 -168.176 2852
-880.483 -168.176 2852
-875.195 -168.471 2857
-868.363 -168.471 2857
-861.531 -168.471 2857
-854.699 -168.471 2857
-850.538 -169.001 2866
-843.684 -169.001 2866
-836.831 -169.001 2866
-829.977 -169.001 2866
-823.124 -169.001 2866
-816.27 -169.001 2866
-810.829 -169.296 2871
-803.964 -169.296 2871
-797.098 -169.296 2871
-790.233 -169.296 2871
-783.367 -169.296 2871
-776.502 -169.296 2871
-769.636 -169.296 2871
-762.771 -169.296 2871
-754.589 -169.001 2866
-747.736 -169.001 2866
-740.882 -169.001 2866
-733.004 -168.766 2862
-726.16 -168.766 2862
-718.06 -168.471 2857
-711.228 -168.471 2857
-704.396 -168.471 2857
-696.343 -168.176 2852
-689.523 -168.176 2852
-682.703 -168.176 2852
-675.883 -168.176 2852
-669.063 -168.176 2852
-661.082 -167.881 2847
-654.274 -167.881 2847
-647.466 -167.881 2847
-640.658 -167.881 2847
-636.076 -168.471 2857
-642.459 -172.009 2917
-635.484 -172.009 2917
-630.663 -172.598 2927
-648.593 -179.498 3044
-661.961 -185.276 3142
-654.447 -185.276 3142
-654.346 -187.399 3178
-660.585 -191.409 3246
-656.644 -192.53 3265
-648.837 -192.53 3265
-656.343 -197.129 3343
-656.3 -199.547 3384
-650.89 -200.372 3398
-642.764 -200.372 3398
-634.639 -200.372 3398
-626.513 -200.372 3398
-618.387 -200.372 3398
-610.262 -200.372 3398
-602.136 -200.372 3398
-591.563 -199.547 3384
-583.471 -199.547 3384
-572.998 -198.721 3370
-564.94 -198.721 3370
-560.351 -199.959 3391
-553.382 -200.372 3398
-545.257 -200.372 3398
-537.131 -200.372 3398
-529.005 -200.372 3398
-520.88 -200.372 3398
-508.529 -198.721 3370
-500.47 -198.721 3370
-491.389 -198.308 3363
-483.347 -198.308 3363
-474.457 -197.955 3357
-466.429 -197.955 3357
-458.401 -197.955 3357
-450.374 -197.955 3357
-442.346 -197.955 3357
-434.319 -197.955 3357
-425.402 -197.542 3350
-417.391 -197.542 3350
-409.38 -197.542 3350
-401.37 -197.542 3350
-393.359 -197.542 3350
-385.348 -197.542 3350
-377.337 -197.542 3350
-367.121 -196.362 3330
-358.403 -195.95 3323
-349.824 -195.596 3317
-341.892 -195.596 3317
-333.96 -195.596 3317
-326.028 -195.596 3317
-318.096 -195.596 3317
-310.164 -195.596 3317
-300.41 -194.416 3297
-291.905 -194.004 3290
-284.037 -194.004 3290
-276.17 -194.004 3290
-267.813 -193.65 3284
-258.931 -192.883 3271
-251.109 -192.883 3271
-243.287 -192.883 3271
-235.465 -192.883 3271
-227.643 -192.883 3271
-146.368 -128.432 2178
-141.16 -128.432 2178
-135.952 -128.432 2178
-130.744 -128.432 2178
-125.535 -128.432 2178
-120.327 -128.432 2178
-114.379 -127.606 2164
-108.901 -127.252 2158
-103.356 -126.781 2150
-98.2151 -126.781 2150
-92.9439 -126.604 2147
-87.8098 -126.604 2147
-82.5601 -126.427 2144
-77.4332 -126.427 2144
-72.2387 -126.309 2142
-67.1166 -126.309 2142
-61.7339 -125.778 2133
-56.6333 -125.778 2133
-51.4118 -125.483 2128
-46.2578 -125.306 2125
-41.1182 -125.129 2122
-36.0438 -125.129 2122
-30.8965 -124.835 2117
-25.7975 -124.658 2114
-20.7227 -124.54 2112
-15.65 -124.363 2109
-10.6067 -124.363 2109
-5.55555 -124.186 2106
-0.519469 -124.186 2106
4.51233 -124.068 2104
9.54363 -124.068 2104
14.5541 -123.891 2101
19.5503 -123.714 2098
24.5439 -123.596 2096
29.556 -123.596 2096
34.5187 -123.419 2093
39.5237 -123.419 2093
44.3585 -122.948 2085
49.3444 -122.948 2085
54.2781 -122.83 2083
59.117 -122.535 2078
63.9011 -122.181 2072
68.8558 -122.181 2072
73.5613 -121.768 2065
78.1952 -121.297 2057
83.0333 -121.179 2055
87.1771 -120.117 2037
92.0482 -120.117 2037
96.3483 -119.41 2025
100.941 -119.115 2020
105.352 -118.643 2012
110.164 -118.643 2012
114.746 -118.407 2008
119.37 -118.23 2005
124.04 -118.112 2003
128.959 -118.23 2005
133.753 -118.23 2005
138.755 -118.407 2008
144.415 -119.115 2020
149.393 -119.233 2022
154.228 -119.233 2022
160.007 -119.94 2034
165.52 -120.412 2042
171.237 -121.002 2052
176.144 -121.002 2052
181.933 -121.591 2062
187.771 -122.181 2072
193.748 -122.83 2083
198.73 -122.83 2083
205.96 -124.186 2106
212.399 -125.012 2120
218.802 -125.778 2133
223.902 -125.778 2133
231.15 -126.957 2153
237.177 -127.429 2161
243.017 -127.783 2167
248.199 -127.783 2167
253.615 -127.901 2169
258.802 -127.901 2169
263.989 -127.901 2169
380.236 -177.257 3006
387.424 -177.257 3006
394.613 -177.257 3006
400.331 -176.608 2995
407.493 -176.608 2995
408.009 -173.778 2947
411.535 -172.304 2922
416.231 -171.36 2906
423.18 -171.36 2906
429.389 -171.065 2901
434.822 -170.476 2891
440.971 -170.181 2886
447.873 -170.181 2886
454.774 -170.181 2886
460.875 -169.886 2881
467.765 -169.886 2881
473.007 -169.296 2871
479.872 -169.296 2871
485.89 -169.001 2866
492.743 -169.001 2866
499.597 -169.001 2866
506.45 -169.001 2866
512.587 -168.766 2862
519.431 -168.766 2862
526.275 -168.766 2862
533.119 -168.766 2862
539.963 -168.766 2862
546.807 -168.766 2862
553.651 -168.766 2862
560.495 -168.766 2862
567.339 -168.766 2862
573.179 -168.471 2857
580.011 -168.471 2857
586.843 -168.471 2857
593.675 -168.471 2857
600.507 -168.471 2857
607.339 -168.471 2857
614.171 -168.471 2857
621.003 -168.471 2857
627.835 -168.471 2857
633.556 -168.176 2852
640.376 -168.176 2852
647.196 -168.176 2852
654.016 -168.176 2852
660.836 -168.176 2852
667.656 -168.176 2852
674.476 -168.176 2852
680.102 -167.881 2847
686.91 -167.881 2847
693.718 -167.881 2847
700.526 -167.881 2847
707.334 -167.881 2847
714.142 -167.881 2847
719.684 -167.586 2842
726.48 -167.586 2842
733.276 -167.586 2842
740.072 -167.586 2842
746.868 -167.586 2842
753.664 -167.586 2842
760.46 -167.586 2842
765.907 -167.291 2837
774.052 -167.586 2842
780.849 -167.586 2842
787.645 -167.586 2842
793.043 -167.291 2837
799.827 -167.291 2837
806.611 -167.291 2837
813.395 -167.291 2837
820.18 -167.291 2837
825.506 -166.997 2832
832.278 -166.997 2832
839.051 -166.997 2832
845.823 -166.997 2832
852.595 -166.997 2832
859.367 -166.997 2832
866.139 -166.997 2832
872.911 -166.997 2832
879.684 -166.997 2832
885.204 -166.761 2828
891.966 -166.761 2828
897.14 -166.466 2823
902.29 -166.171 2818
909.028 -166.171 2818
917.392 -166.466 2823
924.143 -166.466 2823
930.893 -166.466 2823
935.983 -166.171 2818
942.722 -166.171 2818
949.461 -166.171 2818
956.199 -166.171 2818
962.938 -166.171 2818
969.677 -166.171 2818
976.415 -166.171 2818
1293.75 -217.178 3683
1302.55 -217.178 3683
1311.36 -217.178 3683
1320.17 -217.178 3683
1328.97 -217.178 3683
1337.78 -217.178 3683
1346.59 -217.178 3683
1352.45 -216.706 3675
1358.28 -216.235 3667
1367.05 -216.235 3667
1369.44 -215.232 3650
1378.16 -215.232 3650
1386.89 -215.232 3650
1395.62 -215.232 3650
1401.27 -214.76 3642
1409.98 -214.76 3642
1406.61 -212.932 3611
1415.25 -212.932 3611
1423.88 -212.932 3611
1432.52 -212.932 3611
1434.77 -211.989 3595
1437.34 -211.104 3580
1445.9 -211.104 3580
1448.37 -210.22 3565
1453.63 -209.748 3557
1449.8 -207.979 3527
1458.23 -207.979 3527
1460.43 -207.095 3512
1462.56 -206.21 3497
1444 -202.436 3433
1452.21 -202.436 3433
1419.58 -196.775 3337
1419 -195.596 3317
1415.32 -194.004 3290
1420.59 -193.65 3284
1428.44 -193.65 3284
1436.3 -193.65 3284
1432.72 -192.117 3258
1437.85 -191.763 3252
1445.63 -191.763 3252
1442.23 -190.289 3227
1436.02 -188.461 3196
1443.66 -188.461 3196
1451.31 -188.461 3196
1470.36 -189.935 3221
1478.06 -189.935 3221
1488.53 -190.289 3227
1525.46 -194.004 3290
1533.33 -194.004 3290
1721.55 -216.706 3675
1737.87 -217.65 3691
1746.7 -217.65 3691
1755.52 -217.65 3691
1772 -218.593 3707
1792.87 -220.067 3732
1810 -221.07 3749
1818.97 -221.07 3749
1831.83 -221.542 3757
1853.56 -223.075 3783
1862.6 -223.075 3783
1871.65 -223.075 3783
1902.07 -225.61 3826
1911.22 -225.61 3826
1924.89 -226.141 3835
1934.06 -226.141 3835
1943.23 -226.141 3835
1952.4 -226.141 3835
1513.88 -160.982 2730
1528.21 -161.807 2744
1534.77 -161.807 2744
1541.33 -161.807 2744
1547.89 -161.807 2744
1546.52 -160.982 2730
1553.05 -160.982 2730
1559.58 -160.982 2730
1568.98 -161.277 2735
1575.52 -161.277 2735
1582.06 -161.277 2735
1585.69 -160.982 2730
1592.22 -160.982 2730
1598.75 -160.982 2730
1605.28 -160.982 2730
1611.81 -160.982 2730
1618.33 -160.982 2730
1624.86 -160.982 2730
1631.39 -160.982 2730
1637.92 -160.982 2730
1644.45 -160.982 2730
1650.98 -160.982 2730
1655.08 -160.746 2726
1661.59 -160.746 2726
1665.05 -160.451 2721
1663.57 -159.685 2708
1664.5 -159.154 2699
1670.95 -159.154 2699
1672.44 -158.682 2691
1678.87 -158.682 2691
1677.16 -157.915 2678
1683.57 -157.915 2678
1689.97 -157.915 2678
1693.21 -157.621 2673
1691.97 -156.913 2661
1692.59 -156.382 2652
1698.93 -156.382 2652
1700.13 -155.911 2644
1700.64 -155.38 2635
1704.35 -155.144 2631
1710.64 -155.144 2631
1716.94 -155.144 2631
1720.61 -154.908 2627
1724.26 -154.672 2623
1730.53 -154.672 2623
1734.16 -154.436 2619
1737.76 -154.201 2615
1744.01 -154.201 2615
1750.27 -154.201 2615
1756.52 -154.201 2615
1762.77 -154.201 2615
1766.32 -153.965 2611
1769.85 -153.729 2607
1776.08 -153.729 2607
1779.58 -153.493 2603
1785.81 -153.493 2603
1789.28 -153.257 2599
1798.26 -153.493 2603
1804.48 -153.493 2603
1810.71 -153.493 2603
1816.93 -153.493 2603
1823.15 -153.493 2603
1826.57 -153.257 2599
1829.26 -152.962 2594
1835.46 -152.962 2594
1838.82 -152.726 2590
1845.02 -152.726 2590
1848.35 -152.49 2586
1851.67 -152.255 2582
1854.96 -152.019 2578
1861.13 -152.019 2578
1867.29 -152.019 2578
1873.46 -152.019 2578
1879.62 -152.019 2578
1885.79 -152.019 2578
1886.81 -151.606 2571
1890.02 -151.37 2567
1896.16 -151.37 2567
1902.29 -151.37 2567
1905.46 -151.134 2563
1908.6 -150.898 2559
1914.72 -150.898 2559
1920.84 -150.898 2559
1926.96 -150.898 2559
1933.08 -150.898 2559
1942.23 -151.134 2563
1948.36 -151.134 2563
1954.49 -151.134 2563
1960.62 -151.134 2563
-2011.07 -151.953 2686
-2011.37 -152.462 2695
-2004.92 -152.462 2695
-1998.48 -152.462 2695
-1992.03 -152.462 2695
-1982.64 -152.236 2691
-1976.21 -152.236 2691
-1950.74 -150.765 2665
-1937.8 -150.256 2656
-1928.54 -150.029 2652
-1922.2 -150.029 2652
-1897.8 -148.615 2627
-1891.52 -148.615 2627
-1885.23 -148.615 2627
-1878.95 -148.615 2627
-2247.71 -180.805 3196
-2248.48 -181.484 3208
-2254.08 -182.558 3227
-2246.37 -182.558 3227
-2301.08 -187.65 3317
-2306.98 -188.781 3337
-2312.78 -189.913 3357
-2304.75 -189.913 3357
-2319.98 -191.836 3391
-2316.65 -192.232 3398
-2308.52 -192.232 3398
-2300.4 -192.232 3398
-2296.99 -192.628 3405
-2298.26 -193.42 3419
-2290.09 -193.42 3419
-2281.91 -193.42 3419
-2269.08 -193.024 3412
-2251.64 -192.232 3398
-2257.38 -193.42 3419
-2249.21 -193.42 3419
-2254.8 -194.608 3440
-2264.86 -196.192 3468
-2270.88 -197.437 3490
-2262.53 -197.437 3490
-2278.08 -199.53 3527
-2269.65 -199.53 3527
-2261.22 -199.53 3527
-2252.78 -199.53 3527
-2253.89 -200.379 3542
-2269.51 -202.528 3580
-2260.95 -202.528 3580
-2252.39 -202.528 3580
-2234.43 -201.68 3565
-2225.9 -201.68 3565
-2217.38 -201.68 3565
-2117.17 -205.187 3627
-2108.5 -205.187 3627
-2099.82 -205.187 3627
-2086.54 -204.735 3619
-2077.88 -204.735 3619
-2069.23 -204.735 3619
-2065.13 -205.187 3627
-2120.53 -211.58 3740
-2111.58 -211.58 3740
-2102.64 -211.58 3740
-2098.73 -212.089 3749
-2094.23 -212.542 3757
-2085.24 -212.542 3757
-2076.26 -212.542 3757
-2067.28 -212.542 3757
-2072.54 -214.013 3783
-2082.58 -215.993 3818
-2073.45 -215.993 3818
-2064.32 -215.993 3818
-2055.19 -215.993 3818
-2046.06 -215.993 3818
-2018.26 -214.013 3783
-1991.15 -212.089 3749
-1982.19 -212.089 3749
-1973.22 -212.089 3749
-1942.25 -209.713 3707
-1925.04 -208.808 3691
-1912.06 -208.355 3683
-1903.26 -208.355 3683
-1894.45 -208.355 3683
-1881.55 -207.903 3675
-1855.94 -206.036 3642
-1847.23 -206.036 3642
-1830.95 -205.187 3627
-1810.22 -203.83 3603
-1801.6 -203.83 3603
-1792.99 -203.83 3603
-1765.55 -201.68 3565
-1753.09 -201.227 3557
-1751.94 -202.076 3572
-1747.3 -202.528 3580
-1738.74 -202.528 3580
-1730.18 -202.528 3580
-1725.46 -202.981 3588
-1720.23 -203.377 3595
-1711.64 -203.377 3595
-1703.04 -203.377 3595
-1701.98 -204.282 3611
-1697.1 -204.735 3619
-1688.45 -204.735 3619
-1679.79 -204.735 3619
-1671.14 -204.735 3619
-1662.48 -204.735 3619
-1661.14 -205.64 3635
-1652.45 -205.64 3635
-1650.54 -206.488 3650
-1656.66 -208.355 3683
-1647.85 -208.355 3683
-1639.04 -208.355 3683
-1630.23 -208.355 3683
-1621.43 -208.355 3683
-1612.62 -208.355 3683
-1194.79 -169.151 2990
-1187.64 -169.151 2990
-1180.49 -169.151 2990
-1169.02 -168.529 2979
-1147.47 -166.435 2942
-1124.54 -164.116 2901
-1123.76 -165.021 2917
-1116.79 -165.021 2917
-1109.81 -165.021 2917
-1106.62 -165.587 2927
-1099.62 -165.587 2927
-1092.62 -165.587 2927
-1087.47 -165.87 2932
-1080.46 -165.87 2932
-1073.45 -165.87 2932
-1062.8 -165.304 2922
-1054.01 -165.021 2917
-1044.88 -164.682 2911
-1037.92 -164.682 2911
-1027.42 -164.116 2901
-1018.72 -163.833 2896
-1008.3 -163.267 2886
-1001.4 -163.267 2886
-992.776 -162.984 2881
-985.887 -162.984 2881
-975.599 -162.419 2871
-968.734 -162.419 2871
-961.869 -162.419 2871
-955.003 -162.419 2871
-948.138 -162.419 2871
-941.272 -162.419 2871
-931.478 -161.91 2862
-924.634 -161.91 2862
-916.186 -161.627 2857
