491.751 1138.84 2167
496.933 1138.84 2167
502.115 1138.84 2167
507.297 1138.84 2167
512.479 1138.84 2167
517.661 1138.84 2167
522.843 1138.84 2167
527.294 1137.26 2164
531.73 1135.68 2161
537.643 1137.26 2164
543.571 1138.84 2167
548.753 1138.84 2167
553.935 1138.84 2167
559.117 1138.84 2167
564.298 1138.84 2167
569.48 1138.84 2167
574.662 1138.84 2167
579.844 1138.84 2167
585.026 1138.84 2167
590.208 1138.84 2167
595.39 1138.84 2167
599.741 1137.26 2164
604.915 1137.26 2164
610.09 1137.26 2164
611.285 1129.9 2150
616.426 1129.9 2150
620.7 1128.33 2147
627.583 1131.48 2153
632.731 1131.48 2153
637.88 1131.48 2153
643.028 1131.48 2153
648.177 1131.48 2153
653.325 1131.48 2153
658.474 1131.48 2153
662.698 1129.9 2150
667.839 1129.9 2150
672.98 1129.9 2150
677.175 1128.33 2147
682.309 1128.33 2147
689.365 1131.48 2153
695.158 1132.53 2155
700.312 1132.53 2155
705.465 1132.53 2155
709.959 1131.48 2153
715.107 1131.48 2153
720.255 1131.48 2153
728.099 1135.68 2161
733.267 1135.68 2161
738.435 1135.68 2161
743.602 1135.68 2161
747.73 1134.11 2158
751.146 1131.48 2153
756.295 1131.48 2153
761.443 1131.48 2153
765.524 1129.9 2150
770.665 1129.9 2150
779.775 1135.68 2161
788.939 1141.47 2172
794.133 1141.47 2172
799.326 1141.47 2172
804.52 1141.47 2172
809.714 1141.47 2172
813.032 1138.84 2167
817.081 1137.26 2164
822.256 1137.26 2164
829.343 1139.89 2169
834.53 1139.89 2169
839.716 1139.89 2169
844.903 1139.89 2169
852.441 1143.04 2175
857.642 1143.04 2175
864.034 1144.62 2178
870.439 1146.2 2181
875.655 1146.2 2181
880.87 1146.2 2181
887.304 1147.77 2184
892.527 1147.77 2184
897.75 1147.77 2184
901.732 1146.2 2181
905.7 1144.62 2178
906.307 1138.84 2167
912.331 1139.89 2169
917.517 1139.89 2169
922.704 1139.89 2169
927.891 1139.89 2169
930.927 1137.26 2164
936.101 1137.26 2164
939.971 1135.68 2161
946.451 1137.26 2164
952.945 1138.84 2167
958.127 1138.84 2167
963.309 1138.84 2167
965.809 1135.68 2161
969.629 1134.11 2158
974.789 1134.11 2158
979.95 1134.11 2158
986.48 1135.68 2161
991.647 1135.68 2161
996.815 1135.68 2161
1001.98 1135.68 2161
1007.15 1135.68 2161
1013.72 1137.26 2164
1018.9 1137.26 2164
1024.07 1137.26 2164
1029.25 1137.26 2164
1032.99 1135.68 2161
1036.71 1134.11 2158
1041.88 1134.11 2158
1047.04 1134.11 2158
1052.2 1134.11 2158
1057.36 1134.11 2158
1062.52 1134.11 2158
1067.68 1134.11 2158
1075.82 1137.26 2164
1083.49 1139.89 2169
1090.19 1141.47 2172
1095.38 1141.47 2172
1102.09 1143.04 2175
1107.29 1143.04 2175
1115.56 1146.2 2181
1123.35 1148.82 2186
1128.58 1148.82 2186
1136.92 1151.98 2192
1142.16 1151.98 2192
1147.4 1151.98 2192
1149.49 1148.82 2186
1153.66 1147.77 2184
1155.7 1144.62 2178
1160.9 1144.62 2178
1166.11 1144.62 2178
1171.32 1144.62 2178
1170.59 1138.84 2167
1175.77 1138.84 2167
1177.68 1135.68 2161
1178.47 1131.48 2153
1180.32 1128.33 2147
1185.45 1128.33 2147
1190.59 1128.33 2147
1194.05 1126.75 2144
1199.18 1126.75 2144
1205.99 1128.33 2147
1211.12 1128.33 2147
1216.26 1128.33 2147
1221.39 1128.33 2147
1226.53 1128.33 2147
1231.66 1128.33 2147
1233.91 1125.7 2142
1237.3 1124.12 2139
1244.16 1125.7 2142
1249.28 1125.7 2142
1254.4 1125.7 2142
1259.53 1125.7 2142
1267.6 1128.33 2147
1274.51 1129.9 2150
1282.63 1132.53 2155
1287.78 1132.53 2155
1301.34 1139.89 2169
1311.94 1144.62 2178
1317.15 1144.62 2178
1322.36 1144.62 2178
1327.57 1144.62 2178
1329.11 1141.47 2172
1334.3 1141.47 2172
1339.49 1141.47 2172
1339.73 1137.26 2164
1343.04 1135.68 2161
1353.2 1139.89 2169
1358.39 1139.89 2169
1365.46 1141.47 2172
1370.66 1141.47 2172
1375.85 1141.47 2172
1379.14 1139.89 2169
1383.05 1138.84 2167
1391.43 1141.47 2172
1396.63 1141.47 2172
1401.82 1141.47 2172
1405.07 1139.89 2169
1410.26 1139.89 2169
1417.4 1141.47 2172
1422.6 1141.47 2172
1427.79 1141.47 2172
1434.96 1143.04 2175
1440.16 1143.04 2175
1449.35 1146.2 2181
1454.57 1146.2 2181
1459.78 1146.2 2181
1462.98 1144.62 2178
1468.19 1144.62 2178
1469.34 1141.47 2172
1472.5 1139.89 2169
1477.68 1139.89 2169
1484.92 1141.47 2172
1496.29 1146.2 2181
1501.51 1146.2 2181
1506.72 1146.2 2181
1511.94 1146.2 2181
1517.15 1146.2 2181
1522.37 1146.2 2181
1527.58 1146.2 2181
1530.69 1144.62 2178
1535.9 1144.62 2178
1541.11 1144.62 2178
1546.32 1144.62 2178
1551.52 1144.62 2178
1556.73 1144.62 2178
1554.05 1138.84 2167
1547 1129.9 2150
1552.14 1129.9 2150
1559.46 1131.48 2153
1564.61 1131.48 2153
1569.75 1131.48 2153
1574.9 1131.48 2153
1580.05 1131.48 2153
1599.19 1141.47 2172
1604.38 1141.47 2172
1609.58 1141.47 2172
1621.46 1146.2 2181
1628.91 1147.77 2184
1634.14 1147.77 2184
1639.36 1147.77 2184
1642.32 1146.2 2181
1647.54 1146.2 2181
1642.14 1138.84 2167
1638.2 1132.53 2155
1622.77 1118.34 2128
1627.86 1118.34 2128
-1549.86 1092.82 2070
-1544.91 1092.82 2070
-1539.96 1092.82 2070
-1535.01 1092.82 2070
-1530.06 1092.82 2070
-1525.11 1092.82 2070
-1531.18 1100.74 2085
-1530.58 1103.91 2091
-1527.04 1104.96 2093
-1522.04 1104.96 2093
-1517.03 1104.96 2093
-1515.64 1107.6 2098
-1518.54 1113.41 2109
-1513.5 1113.41 2109
-1510.6 1114.99 2112
-1505.55 1114.99 2112
-1506.18 1119.22 2120
-1501.11 1119.22 2120
-1496.04 1119.22 2120
-1486.75 1116.05 2114
-1481.7 1116.05 2114
-1476.64 1116.05 2114
-1473.68 1117.63 2117
-1470.7 1119.22 2120
-1480.84 1130.83 2142
-1475.71 1130.83 2142
-1471.96 1131.89 2144
-1470.94 1135.05 2150
-1469.21 1137.69 2155
-1464.06 1137.69 2155
-1460.93 1139.28 2158
-1455.77 1139.28 2158
-1450.61 1139.28 2158
-1445.45 1139.28 2158
-1438.29 1137.69 2155
-1429.81 1135.05 2150
-1424.67 1135.05 2150
-1419.53 1135.05 2150
-1407.15 1129.25 2139
-1398.1 1126.08 2133
-1393 1126.08 2133
-1382.7 1121.86 2125
-1375.67 1120.27 2122
-1367.37 1117.63 2117
-1362.3 1117.63 2117
-1357.24 1117.63 2117
-1352.18 1117.63 2117
-1340.12 1111.82 2106
-1335.08 1111.82 2106
-1330.05 1111.82 2106
-1321.86 1109.19 2101
-1316.84 1109.19 2101
-1311.82 1109.19 2101
-1304.93 1107.6 2098
-1298.67 1106.55 2096
-1291.81 1104.96 2093
-1286.8 1104.96 2093
-1278.73 1102.32 2088
-1270.69 1099.68 2083
-1270.57 1103.91 2091
-1268.6 1106.55 2096
-1269.61 1111.82 2106
-1264.58 1111.82 2106
-1261.33 1113.41 2109
-1258.08 1114.99 2112
-1258.96 1120.27 2122
-1253.89 1120.27 2122
-1248.81 1120.27 2122
-1243.74 1120.27 2122
-1240.41 1121.86 2125
-1235.33 1121.86 2125
-1233.73 1125.02 2131
-1228.63 1125.02 2131
-1223.53 1125.02 2131
-1218.44 1125.02 2131
-1213.34 1125.02 2131
-1211.08 1127.66 2136
-1209.36 1130.83 2142
-1204.24 1130.83 2142
-1199.12 1130.83 2142
-1193.99 1130.83 2142
-1188.87 1130.83 2142
-1182.09 1129.25 2139
-1173.68 1126.08 2133
-1164.19 1121.86 2125
-1159.11 1121.86 2125
-1154.03 1121.86 2125
-1148.95 1121.86 2125
-1143.87 1121.86 2125
-1138.78 1121.86 2125
-1133.7 1121.86 2125
-1128.62 1121.86 2125
-1121.95 1120.27 2122
-1116.88 1120.27 2122
-1111.81 1120.27 2122
-1108.3 1121.86 2125
-1104.77 1123.44 2128
-1099.68 1123.44 2128
-1094.59 1123.44 2128
-1089.51 1123.44 2128
-1084.42 1123.44 2128
-1079.33 1123.44 2128
-1074.24 1123.44 2128
-1070.66 1125.02 2131
-1066.56 1126.08 2133
-1061.46 1126.08 2133
-1056.36 1126.08 2133
-1051.26 1126.08 2133
-1046.16 1126.08 2133
-1041.06 1126.08 2133
-1035.96 1126.08 2133
-1030.86 1126.08 2133
-1025.76 1126.08 2133
-1020.66 1126.08 2133
-1014.6 1125.02 2131
-1017.09 1133.47 2147
-1013.37 1135.05 2150
-1008.23 1135.05 2150
-1003.08 1135.05 2150
-995.158 1131.89 2144
-984.028 1125.02 2131
-981.229 1127.66 2136
-976.121 1127.66 2136
-971.013 1127.66 2136
-965.906 1127.66 2136
-963.497 1130.83 2142
-958.374 1130.83 2142
-954.142 1131.89 2144
-949.015 1131.89 2144
-945.209 1133.47 2147
-940.075 1133.47 2147
-934.941 1133.47 2147
-929.807 1133.47 2147
-927.257 1136.64 2153
-922.965 1137.69 2155
-917.812 1137.69 2155
-912.658 1137.69 2155
-906.663 1136.64 2153
-901.514 1136.64 2153
-896.366 1136.64 2153
-894.529 1140.86 2161
-890.596 1142.44 2164
-885.421 1142.44 2164
-880.246 1142.44 2164
-875.072 1142.44 2164
-867.485 1139.28 2158
-862.324 1139.28 2158
-855.972 1137.69 2155
-850.03 1136.64 2153
-841.349 1131.89 2144
-836.222 1131.89 2144
-830.32 1130.83 2142
-824.042 1129.25 2139
-820.076 1130.83 2142
-814.954 1130.83 2142
-809.831 1130.83 2142
-805.461 1131.89 2144
-800.334 1131.89 2144
-796.319 1133.47 2147
-791.185 1133.47 2147
-786.051 1133.47 2147
-780.917 1133.47 2147
-775.783 1133.47 2147
-770.649 1133.47 2147
-763.732 1130.83 2142
-756.485 1127.66 2136
-751.377 1127.66 2136
-746.269 1127.66 2136
-742.202 1129.25 2139
-737.087 1129.25 2139
-732.999 1130.83 2142
-727.877 1130.83 2142
-725.454 1135.05 2150
-720.313 1135.05 2150
-716.834 1137.69 2155
-711.681 1137.69 2155
-707.511 1139.28 2158
-702.351 1139.28 2158
-697.191 1139.28 2158
-692.03 1139.28 2158
-683.369 1133.47 2147
-675.707 1129.25 2139
-668.711 1126.08 2133
-663.611 1126.08 2133
-656.966 1123.44 2128
-650.959 1121.86 2125
-646.789 1123.44 2128
-641.7 1123.44 2128
-636.612 1123.44 2128
-632.413 1125.02 2131
-627.317 1125.02 2131
-622.221 1125.02 2131
-617.126 1125.02 2131
-611.168 1123.44 2128
-606.079 1123.44 2128
-600.991 1123.44 2128
-595.902 1123.44 2128
-589.98 1121.86 2125
-582.697 1117.63 2117
-577.634 1117.63 2117
-572.572 1117.63 2117
-568.85 1120.27 2122
-564.573 1121.86 2125
-560.281 1123.44 2128
-555.192 1123.44 2128
-551.396 1126.08 2133
-546.296 1126.08 2133
-542.717 1129.25 2139
-537.602 1129.25 2139
-532.487 1129.25 2139
-527.372 1129.25 2139
-522.257 1129.25 2139
-515.692 1126.08 2133
-510.591 1126.08 2133
-505.49 1126.08 2133
-502.501 1130.83 2142
-497.379 1130.83 2142
-492.257 1130.83 2142
-487.135 1130.83 2142
-481.337 1129.25 2139
-476.222 1129.25 2139
-471.107 1129.25 2139
-465.992 1129.25 2139
-460.877 1129.25 2139
-455.762 1129.25 2139
-450.015 1127.66 2136
-444.283 1126.08 2133
-439.182 1126.08 2133
-434.081 1126.08 2133
-428.578 1125.02 2131
-423.483 1125.02 2131
-418.387 1125.02 2131
-414.261 1127.66 2136
-409.153 1127.66 2136
-404.612 1129.25 2139
-399.497 1129.25 2139
-394.382 1129.25 2139
-389.267 1129.25 2139
-384.152 1129.25 2139
-378.506 1127.66 2136
-373.398 1127.66 2136
-368.29 1127.66 2136
-363.692 1129.25 2139
-358.577 1129.25 2139
-353.462 1129.25 2139
-348.347 1129.25 2139
-343.232 1129.25 2139
-338.117 1129.25 2139
-333.002 1129.25 2139
-327.887 1129.25 2139
-322.772 1129.25 2139
-317.657 1129.25 2139
-312.542 1129.25 2139
-307.427 1129.25 2139
-301.464 1126.08 2133
-296.364 1126.08 2133
-291.263 1126.08 2133
-286.163 1126.08 2133
-281.062 1126.08 2133
-275.702 1125.02 2131
-270.607 1125.02 2131
-266.134 1127.66 2136
-261.026 1127.66 2136
-255.918 1127.66 2136
-250.81 1127.66 2136
-245.702 1127.66 2136
-240.595 1127.66 2136
-235.487 1127.66 2136
-230.379 1127.66 2136
-225.271 1127.66 2136
-220.163 1127.66 2136
-215.055 1127.66 2136
-209.948 1127.66 2136
-204.84 1127.66 2136
-199.732 1127.66 2136
-194.898 1129.25 2139
-189.783 1129.25 2139
-184.668 1129.25 2139
-179.301 1127.66 2136
-173.948 1126.08 2133
-168.689 1125.02 2131
-163.593 1125.02 2131
-158.274 1123.44 2128
-153.186 1123.44 2128
-147.888 1121.86 2125
-142.807 1121.86 2125
-137.725 1121.86 2125
-132.644 1121.86 2125
-127.922 1125.02 2131
-122.826 1125.02 2131
-118.007 1127.66 2136
-112.899 1127.66 2136
-107.943 1129.25 2139
-102.972 1130.83 2142
-97.8496 1130.83 2142
-92.7274 1130.83 2142
-87.4826 1129.25 2139
-82.3676 1129.25 2139
-77.3609 1130.83 2142
-72.2387 1130.83 2142
-67.1166 1130.83 2142
-61.9944 1130.83 2142
-56.9253 1131.89 2144
-51.7984 1131.89 2144
-46.802 1135.05 2150
-41.7576 1137.69 2155
-36.6044 1137.69 2155
-31.4511 1137.69 2155
-26.2978 1137.69 2155
-21.125 1136.64 2153
-15.9765 1136.64 2153
-10.8129 1135.05 2150
-5.67162 1135.05 2150
-0.528842 1131.89 2144
4.59811 1131.89 2144
9.68878 1127.66 2136
14.7966 1127.66 2136
19.9044 1127.66 2136
25.0122 1127.66 2136
30.1624 1129.25 2139
35.2774 1129.25 2139
40.449 1130.83 2142
45.6137 1131.89 2144
50.8117 1133.47 2147
55.9458 1133.47 2147
61.2506 1136.64 2153
66.3991 1136.64 2153
71.5476 1136.64 2153
76.5892 1135.05 2150
81.7305 1135.05 2150
86.993 1136.64 2153
92.3555 1139.28 2158
97.5159 1139.28 2158
102.819 1140.86 2161
107.987 1140.86 2161
113.154 1140.86 2161
118.322 1140.86 2161
123.49 1140.86 2161
128.657 1140.86 2161
133.825 1140.86 2161
138.992 1140.86 2161
143.76 1137.69 2155
148.913 1137.69 2155
154.066 1137.69 2155
159.072 1136.64 2153
163.763 1133.47 2147
169.133 1135.05 2150
174.517 1136.64 2153
179.666 1136.64 2153
184.814 1136.64 2153
189.963 1136.64 2153
195.564 1139.28 2158
200.725 1139.28 2158
205.885 1139.28 2158
211.045 1139.28 2158
215.905 1137.69 2155
221.059 1137.69 2155
226.212 1137.69 2155
231.687 1139.28 2158
236.848 1139.28 2158
242.008 1139.28 2158
246.825 1137.69 2155
251.978 1137.69 2155
257.131 1137.69 2155
262.65 1139.28 2158
267.81 1139.28 2158
273.35 1140.86 2161
278.904 1142.44 2164
284.079 1142.44 2164
289.254 1142.44 2164
294.429 1142.44 2164
300.019 1144.03 2167
305.201 1144.03 2167
310.383 1144.03 2167
315.565 1144.03 2167
321.043 1145.08 2169
326.681 1146.67 2172
331.875 1146.67 2172
337.068 1146.67 2172
342.262 1146.67 2172
347.936 1148.25 2175
353.137 1148.25 2175
358.338 1148.25 2175
363.539 1148.25 2175
368.74 1148.25 2175
373.942 1148.25 2175
379.143 1148.25 2175
384.874 1149.84 2178
390.082 1149.84 2178
395.29 1149.84 2178
399.947 1148.25 2175
404.589 1146.67 2172
409.217 1145.08 2169
414.404 1145.08 2169
419.204 1144.03 2167
423.211 1140.86 2161
427.189 1137.69 2155
432.342 1137.69 2155
437.089 1136.64 2153
442.238 1136.64 2153
447.386 1136.64 2153
451.904 1135.05 2150
457.046 1135.05 2150
462.187 1135.05 2150
468.415 1137.69 2155
474.887 1140.86 2161
480.721 1142.44 2164
485.896 1142.44 2164
491.07 1142.44 2164
496.245 1142.44 2164
501.42 1142.44 2164
506.595 1142.44 2164
511.769 1142.44 2164
516.228 1140.86 2161
521.395 1140.86 2161
526.563 1140.86 2161
531.73 1140.86 2161
536.153 1139.28 2158
542.066 1140.86 2161
547.233 1140.86 2161
553.168 1142.44 2164
558.342 1142.44 2164
563.517 1142.44 2164
567.904 1140.86 2161
573.071 1140.86 2161
578.239 1140.86 2161
583.406 1140.86 2161
588.574 1140.86 2161
592.093 1137.69 2155
596.692 1136.64 2153
601.002 1135.05 2150
606.143 1135.05 2150
611.285 1135.05 2150
616.426 1135.05 2150
620.7 1133.47 2147
627.583 1136.64 2153
632.731 1136.64 2153
637.88 1136.64 2153
643.028 1136.64 2153
648.177 1136.64 2153
653.325 1136.64 2153
658.474 1136.64 2153
662.698 1135.05 2150
667.839 1135.05 2150
672.98 1135.05 2150
677.175 1133.47 2147
682.309 1133.47 2147
689.365 1136.64 2153
695.158 1137.69 2155
700.312 1137.69 2155
705.465 1137.69 2155
709.959 1136.64 2153
715.107 1136.64 2153
720.255 1136.64 2153
728.099 1140.86 2161
733.267 1140.86 2161
738.435 1140.86 2161
743.602 1140.86 2161
747.73 1139.28 2158
751.146 1136.64 2153
756.295 1136.64 2153
761.443 1136.64 2153
765.524 1135.05 2150
770.665 1135.05 2150
779.775 1140.86 2161
788.939 1146.67 2172
794.133 1146.67 2172
799.326 1146.67 2172
804.52 1146.67 2172
809.714 1146.67 2172
813.032 1144.03 2167
817.081 1142.44 2164
822.256 1142.44 2164
829.343 1145.08 2169
834.53 1145.08 2169
839.716 1145.08 2169
844.903 1145.08 2169
852.441 1148.25 2175
857.642 1148.25 2175
864.034 1149.84 2178
870.439 1151.42 2181
875.655 1151.42 2181
880.87 1151.42 2181
887.304 1153 2184
892.527 1153 2184
897.75 1153 2184
901.732 1151.42 2181
905.7 1149.84 2178
906.307 1144.03 2167
912.331 1145.08 2169
917.517 1145.08 2169
922.704 1145.08 2169
927.891 1145.08 2169
930.927 1142.44 2164
936.101 1142.44 2164
939.971 1140.86 2161
946.451 1142.44 2164
952.945 1144.03 2167
958.127 1144.03 2167
963.309 1144.03 2167
965.809 1140.86 2161
969.629 1139.28 2158
974.789 1139.28 2158
979.95 1139.28 2158
986.48 1140.86 2161
991.647 1140.86 2161
996.815 1140.86 2161
1001.98 1140.86 2161
1007.15 1140.86 2161
1013.72 1142.44 2164
1018.9 1142.44 2164
1024.07 1142.44 2164
1029.25 1142.44 2164
1032.99 1140.86 2161
1036.71 1139.28 2158
1041.88 1139.28 2158
1047.04 1139.28 2158
1052.2 1139.28 2158
1057.36 1139.28 2158
1062.52 1139.28 2158
1067.68 1139.28 2158
1075.82 1142.44 2164
1083.49 1145.08 2169
1088.68 1145.08 2169
1093.87 1145.08 2169
1098.04 1144.03 2167
1103.22 1144.03 2167
1108.4 1144.03 2167
1117.7 1148.25 2175
1122.9 1148.25 2175
1131.21 1151.42 2181
1136.43 1151.42 2181
1141.64 1151.42 2181
1145.28 1149.84 2178
1143.09 1142.44 2164
1148.27 1142.44 2164
1153.44 1142.44 2164
1158.62 1142.44 2164
1162.18 1140.86 2161
1161.4 1135.05 2150
1166.55 1135.05 2150
1167.33 1130.83 2142
1170.81 1129.25 2139
1174.27 1127.66 2136
1179.38 1127.66 2136
1184.49 1127.66 2136
1189.6 1127.66 2136
1196.38 1129.25 2139
1201.5 1129.25 2139
1206.61 1129.25 2139
1211.73 1129.25 2139
1216.84 1129.25 2139
1221.96 1129.25 2139
1227.07 1129.25 2139
1227.58 1125.02 2131
1233.83 1126.08 2133
1238.93 1126.08 2133
1244.03 1126.08 2133
1249.13 1126.08 2133
1257.76 1129.25 2139
1264.65 1130.83 2142
1270.96 1131.89 2144
1279.65 1135.05 2150
1284.8 1135.05 2150
1292.94 1137.69 2155
1305.32 1144.03 2167
1310.5 1144.03 2167
1315.68 1144.03 2167
1320.86 1144.03 2167
1326.05 1144.03 2167
1331.23 1144.03 2167
1330.86 1139.28 2158
1334.16 1137.69 2155
1336.21 1135.05 2150
1344.47 1137.69 2155
1349.62 1137.69 2155
1356.66 1139.28 2158
1361.82 1139.28 2158
1366.98 1139.28 2158
1372.14 1139.28 2158
1377.3 1139.28 2158
1386.31 1142.44 2164
1391.48 1142.44 2164
1396.66 1142.44 2164
1401.83 1142.44 2164
1407.01 1142.44 2164
1410.22 1140.86 2161
1415.39 1140.86 2161
1420.56 1140.86 2161
1425.73 1140.86 2161
1436.19 1145.08 2169
1441.38 1145.08 2169
1446.56 1145.08 2169
1451.75 1145.08 2169
1456.94 1145.08 2169
1462.12 1145.08 2169
1463.93 1142.44 2164
1465.03 1139.28 2158
1470.19 1139.28 2158
1475.35 1139.28 2158
1482.57 1140.86 2161
1487.74 1140.86 2161
1492.91 1140.86 2161
1498.07 1140.86 2161
1503.24 1140.86 2161
1504.22 1137.69 2155
1509.37 1137.69 2155
1518.74 1140.86 2161
1523.91 1140.86 2161
1529.08 1140.86 2161
1534.25 1140.86 2161
1537.28 1139.28 2158
1542.44 1139.28 2158
1537.56 1131.89 2144
1539.09 1129.25 2139
1547.81 1131.89 2144
1552.94 1131.89 2144
1558.07 1131.89 2144
1563.19 1131.89 2144
1568.32 1131.89 2144
1569.78 1129.25 2139
1585.2 1136.64 2153
1590.35 1136.64 2153
1595.5 1136.64 2153
1614.77 1146.67 2172
1626.68 1151.42 2181
1631.89 1151.42 2181
1637.11 1151.42 2181
1642.32 1151.42 2181
1647.54 1151.42 2181
1635.32 1139.28 2158
1632.12 1133.47 2147
1618.19 1120.27 2122
1623.27 1120.27 2122
-1549.86 1097.78 2070
-1544.91 1097.78 2070
-1539.96 1097.78 2070
-1535.01 1097.78 2070
-1530.06 1097.78 2070
-1525.11 1097.78 2070
-1531.18 1105.73 2085
-1530.58 1108.91 2091
-1527.04 1109.98 2093
-1522.04 1109.98 2093
-1517.03 1109.98 2093
-1515.64 1112.63 2098
-1518.54 1118.46 2109
-1513.5 1118.46 2109
-1510.6 1120.05 2112
-1505.55 1120.05 2112
-1506.18 1124.29 2120
-1501.11 1124.29 2120
-1496.04 1124.29 2120
-1486.75 1121.11 2114
-1481.7 1121.11 2114
-1476.64 1121.11 2114
-1473.68 1122.7 2117
-1470.7 1124.29 2120
-1478.76 1134.37 2139
-1473.65 1134.37 2139
-1470.59 1135.96 2142
-1466.84 1137.02 2144
-1463.76 1138.61 2147
-1458.62 1138.61 2147
-1453.49 1138.61 2147
-1446.33 1137.02 2144
-1441.2 1137.02 2144
-1436.08 1137.02 2144
-1430.95 1137.02 2144
-1425.82 1137.02 2144
-1420.7 1137.02 2144
-1412.27 1134.37 2139
-1401.89 1130.13 2131
-1394.83 1128.54 2128
-1389.74 1128.54 2128
-1374.24 1120.05 2112
-1367.24 1118.46 2109
-1358.97 1115.81 2104
-1353.94 1115.81 2104
-1343.78 1111.57 2096
-1336.85 1109.98 2093
-1331.85 1109.98 2093
-1326.84 1109.98 2093
-1321.84 1109.98 2093
-1310.54 1104.67 2083
-1305.56 1104.67 2083
-1300.58 1104.67 2083
-1293.73 1103.08 2080
-1288.76 1103.08 2080
-1283.78 1103.08 2080
-1275.73 1100.43 2075
-1270.77 1100.43 2075
-1265.81 1100.43 2075
-1263.89 1103.08 2080
-1261.94 1105.73 2085
-1261.78 1109.98 2093
-1256.77 1109.98 2093
-1251.77 1109.98 2093
-1253.31 1115.81 2104
-1251.25 1118.46 2109
-1246.2 1118.46 2109
-1241.16 1118.46 2109
-1237.88 1120.05 2112
-1233.99 1121.11 2114
-1228.94 1121.11 2114
-1227.36 1124.29 2120
-1222.29 1124.29 2120
-1217.22 1124.29 2120
-1210.43 1122.7 2117
-1205.37 1122.7 2117
-1200.31 1122.7 2117
-1198.07 1125.35 2122
-1192.99 1125.35 2122
-1187.92 1125.35 2122
-1182.85 1125.35 2122
-1177.77 1125.35 2122
-1172.7 1125.35 2122
-1167.62 1125.35 2122
-1158.17 1121.11 2114
-1153.11 1121.11 2114
-1148.06 1121.11 2114
-1144.62 1122.7 2117
-1139.56 1122.7 2117
-1134.5 1122.7 2117
-1129.43 1122.7 2117
-1124.37 1122.7 2117
-1119.31 1122.7 2117
-1114.25 1122.7 2117
-1109.19 1122.7 2117
-1106.73 1125.35 2122
-1101.66 1125.35 2122
-1098.13 1126.95 2125
-1093.05 1126.95 2125
-1087.97 1126.95 2125
-1082.89 1126.95 2125
-1077.81 1126.95 2125
-1072.72 1126.95 2125
-1069.15 1128.54 2128
-1065.56 1130.13 2131
-1060.47 1130.13 2131
-1055.37 1130.13 2131
-1050.27 1130.13 2131
-1045.18 1130.13 2131
-1040.08 1130.13 2131
-1034.99 1130.13 2131
-1028.44 1128.54 2128
-1023.35 1128.54 2128
-1019.7 1130.13 2131
-1014.6 1130.13 2131
-1017.09 1138.61 2147
-1013.37 1140.2 2150
-1008.23 1140.2 2150
-1003.08 1140.2 2150
-995.158 1137.02 2144
-982.643 1128.54 2128
-977.554 1128.54 2128
-972.465 1128.54 2128
-968.74 1130.13 2131
-964.549 1131.19 2133
-960.798 1132.78 2136
-955.69 1132.78 2136
-950.582 1132.78 2136
-948.13 1135.96 2142
-943.888 1137.02 2144
-938.761 1137.02 2144
-933.634 1137.02 2144
-929.807 1138.61 2147
-927.257 1141.8 2153
-922.965 1142.86 2155
-917.812 1142.86 2155
-912.658 1142.86 2155
-906.663 1141.8 2153
-901.514 1141.8 2153
-896.366 1141.8 2153
-894.529 1146.04 2161
-890.596 1147.63 2164
-885.421 1147.63 2164
-880.246 1147.63 2164
-875.072 1147.63 2164
-867.485 1144.45 2158
-862.324 1144.45 2158
-855.972 1142.86 2155
-850.03 1141.8 2153
-841.349 1137.02 2144
-836.222 1137.02 2144
-830.32 1135.96 2142
-824.042 1134.37 2139
-820.076 1135.96 2142
-814.954 1135.96 2142
-809.831 1135.96 2142
-805.461 1137.02 2144
-800.334 1137.02 2144
-796.319 1138.61 2147
-791.185 1138.61 2147
-786.051 1138.61 2147
-780.917 1138.61 2147
-775.783 1138.61 2147
-770.649 1138.61 2147
-763.732 1135.96 2142
-756.485 1132.78 2136
-751.377 1132.78 2136
-746.269 1132.78 2136
-742.202 1134.37 2139
-737.087 1134.37 2139
-732.999 1135.96 2142
-727.877 1135.96 2142
-725.454 1140.2 2150
-720.313 1140.2 2150
-716.834 1142.86 2155
-711.681 1142.86 2155
-707.511 1144.45 2158
-702.351 1144.45 2158
-697.191 1144.45 2158
-692.03 1144.45 2158
-683.369 1138.61 2147
-675.707 1134.37 2139
-668.711 1131.19 2133
-663.611 1131.19 2133
-656.966 1128.54 2128
-650.959 1126.95 2125
-646.789 1128.54 2128
-641.7 1128.54 2128
-636.612 1128.54 2128
-632.413 1130.13 2131
-627.317 1130.13 2131
-622.221 1130.13 2131
-617.126 1130.13 2131
-611.168 1128.54 2128
-606.079 1128.54 2128
-600.991 1128.54 2128
-595.902 1128.54 2128
-589.98 1126.95 2125
-582.697 1122.7 2117
-577.634 1122.7 2117
-572.572 1122.7 2117
-568.85 1125.35 2122
-564.573 1126.95 2125
-560.281 1128.54 2128
-555.192 1128.54 2128
-551.396 1131.19 2133
-546.296 1131.19 2133
-542.717 1134.37 2139
-537.602 1134.37 2139
-532.487 1134.37 2139
-527.372 1134.37 2139
-522.257 1134.37 2139
-515.692 1131.19 2133
-510.591 1131.19 2133
-505.49 1131.19 2133
-502.501 1135.96 2142
-497.379 1135.96 2142
-492.257 1135.96 2142
-487.135 1135.96 2142
-481.337 1134.37 2139
-476.222 1134.37 2139
-471.107 1134.37 2139
-465.992 1134.37 2139
-460.877 1134.37 2139
-455.762 1134.37 2139
-450.015 1132.78 2136
-444.283 1131.19 2133
-439.182 1131.19 2133
-434.081 1131.19 2133
-428.578 1130.13 2131
-422.29 1126.95 2125
-417.209 1126.95 2125
-413.291 1130.13 2131
-408.195 1130.13 2131
-403.477 1131.19 2133
-398.377 1131.19 2133
-393.276 1131.19 2133
-388.175 1131.19 2133
-383.075 1131.19 2133
-377.974 1131.19 2133
-373.398 1132.78 2136
-368.29 1132.78 2136
-363.182 1132.78 2136
-358.074 1132.78 2136
-352.967 1132.78 2136
-347.37 1131.19 2133
-342.27 1131.19 2133
-337.169 1131.19 2133
-332.068 1131.19 2133
-326.968 1131.19 2133
-321.867 1131.19 2133
-316.766 1131.19 2133
-311.666 1131.19 2133
-306.565 1131.19 2133
-301.464 1131.19 2133
-296.364 1131.19 2133
-290.58 1128.54 2128
-285.492 1128.54 2128
-280.403 1128.54 2128
-275.314 1128.54 2128
-270.607 1130.13 2131
-265.511 1130.13 2131
-260.415 1130.13 2131
-255.319 1130.13 2131
-250.458 1131.19 2133
-245.357 1131.19 2133
-240.257 1131.19 2133
-235.156 1131.19 2133
-230.055 1131.19 2133
-224.955 1131.19 2133
-219.854 1131.19 2133
-214.753 1131.19 2133
-209.653 1131.19 2133
-204.84 1132.78 2136
-199.732 1132.78 2136
-194.624 1132.78 2136
-189.516 1132.78 2136
-184.409 1132.78 2136
-179.049 1131.19 2133
-173.785 1130.13 2131
-168.452 1128.54 2128
-163.363 1128.54 2128
-158.274 1128.54 2128
-152.97 1126.95 2125
-147.679 1125.35 2122
-142.605 1125.35 2122
-137.531 1125.35 2122
-132.456 1125.35 2122
-127.562 1126.95 2125
-122.481 1126.95 2125
-117.565 1128.54 2128
-112.476 1128.54 2128
-107.64 1131.19 2133
-102.683 1132.78 2136
-97.5755 1132.78 2136
-92.4677 1132.78 2136
-87.3599 1132.78 2136
-82.252 1132.78 2136
-77.2526 1134.37 2139
-72.1376 1134.37 2139
-67.0226 1134.37 2139
-61.9076 1134.37 2139
-56.7926 1134.37 2139
-51.6776 1134.37 2139
-46.6714 1137.02 2144
-41.6607 1140.2 2150
-36.5194 1140.2 2150
-31.3781 1140.2 2150
-26.2368 1140.2 2150
-21.017 1135.96 2142
-15.8949 1135.96 2142
-10.7425 1132.78 2136
-5.63469 1132.78 2136
-0.524896 1128.54 2128
4.5638 1128.54 2128
9.63888 1126.95 2125
14.6858 1124.29 2120
19.774 1125.35 2122
24.8483 1125.35 2122
29.965 1126.95 2125
35.0465 1126.95 2125
40.2791 1131.19 2133
45.5712 1135.96 2142
50.7407 1137.02 2144
55.8676 1137.02 2144
60.9946 1137.02 2144
66.1216 1137.02 2144
71.2485 1137.02 2144
76.3042 1135.96 2142
81.4264 1135.96 2142
86.7506 1138.61 2147
92.0131 1140.2 2150
97.1544 1140.2 2150
102.676 1144.45 2158
107.837 1144.45 2158
112.997 1144.45 2158
117.884 1141.8 2153
123.032 1141.8 2153
128.3 1142.86 2155
133.453 1142.86 2155
138.606 1142.86 2155
143.626 1141.8 2153
148.775 1141.8 2153
153.923 1141.8 2153
158.628 1138.61 2147
163.381 1135.96 2142
168.661 1137.02 2144
174.031 1138.61 2147
179.165 1138.61 2147
184.299 1138.61 2147
189.433 1138.61 2147
194.839 1140.2 2150
200.446 1142.86 2155
205.599 1142.86 2155
210.752 1142.86 2155
215.905 1142.86 2155
221.059 1142.86 2155
225.687 1140.2 2150
230.506 1138.61 2147
235.64 1138.61 2147
240.774 1138.61 2147
245.909 1138.61 2147
251.043 1138.61 2147
256.535 1140.2 2150
261.676 1140.2 2150
266.817 1140.2 2150
272.338 1141.8 2153
278.131 1144.45 2158
283.291 1144.45 2158
288.452 1144.45 2158
293.612 1144.45 2158
298.773 1144.45 2158
304.356 1146.04 2161
309.523 1146.04 2161
314.691 1146.04 2161
320.747 1149.22 2167
325.929 1149.22 2167
331.416 1150.28 2169
336.603 1150.28 2169
341.79 1150.28 2169
346.976 1150.28 2169
352.163 1150.28 2169
357.35 1150.28 2169
362.537 1150.28 2169
366.876 1147.63 2164
372.566 1149.22 2167
377.748 1149.22 2167
382.93 1149.22 2167
388.112 1149.22 2167
393.294 1149.22 2167
398.476 1149.22 2167
402.54 1146.04 2161
407.708 1146.04 2161
412.875 1146.04 2161
417.463 1144.45 2158
422.623 1144.45 2158
425.603 1138.61 2147
430.737 1138.61 2147
434.856 1135.96 2142
439.362 1134.37 2139
444.477 1134.37 2139
449.592 1134.37 2139
455.345 1135.96 2142
460.467 1135.96 2142
466.676 1138.61 2147
472.469 1140.2 2150
478.277 1141.8 2153
483.426 1141.8 2153
488.574 1141.8 2153
493.723 1141.8 2153
498.871 1141.8 2153
504.02 1141.8 2153
509.168 1141.8 2153
514.316 1141.8 2153
519.465 1141.8 2153
524.613 1141.8 2153
529.762 1141.8 2153
534.91 1141.8 2153
541.313 1144.45 2158
546.474 1144.45 2158
551.634 1144.45 2158
556.794 1144.45 2158
560.653 1141.8 2153
566.327 1142.86 2155
571.48 1142.86 2155
576.633 1142.86 2155
581.787 1142.86 2155
586.94 1142.86 2155
591.544 1141.8 2153
595.861 1140.2 2150
600.163 1138.61 2147
605.297 1138.61 2147
610.432 1138.61 2147
614.706 1137.02 2144
619.254 1135.96 2142
625.834 1138.61 2147
630.968 1138.61 2147
636.102 1138.61 2147
641.236 1138.61 2147
646.37 1138.61 2147
651.505 1138.61 2147
656.639 1138.61 2147
661.773 1138.61 2147
666.907 1138.61 2147
672.041 1138.61 2147
677.175 1138.61 2147
682.309 1138.61 2147
687.444 1138.61 2147
692.578 1138.61 2147
697.712 1138.61 2147
702.846 1138.61 2147
707.98 1138.61 2147
713.114 1138.61 2147
717.245 1137.02 2144
724.393 1140.2 2150
729.534 1140.2 2150
734.676 1140.2 2150
739.817 1140.2 2150
744.958 1140.2 2150
749.053 1138.61 2147
754.187 1138.61 2147
759.321 1138.61 2147
762.675 1135.96 2142
767.797 1135.96 2142
775.806 1140.2 2150
783.853 1144.45 2158
789.014 1144.45 2158
794.174 1144.45 2158
799.335 1144.45 2158
804.495 1144.45 2158
809.656 1144.45 2158
814.816 1144.45 2158
819.976 1144.45 2158
826.284 1146.04 2161
831.452 1146.04 2161
836.619 1146.04 2161
841.787 1146.04 2161
848.13 1147.63 2164
853.305 1147.63 2164
858.48 1147.63 2164
863.654 1147.63 2164
868.829 1147.63 2164
874.004 1147.63 2164
880.398 1149.22 2167
885.58 1149.22 2167
890.762 1149.22 2167
895.943 1149.22 2167
898.63 1146.04 2161
901.289 1142.86 2155
904.339 1140.2 2150
909.48 1140.2 2150
914.621 1140.2 2150
919.763 1140.2 2150
924.904 1140.2 2150
930.045 1140.2 2150
935.187 1140.2 2150
941.64 1141.8 2153
947.668 1142.86 2155
952.821 1142.86 2155
957.974 1142.86 2155
963.128 1142.86 2155
967.382 1141.8 2153
972.531 1141.8 2153
977.679 1141.8 2153
983.741 1142.86 2155
988.894 1142.86 2155
994.047 1142.86 2155
999.201 1142.86 2155
1004.35 1142.86 2155
1010.91 1144.45 2158
1016.07 1144.45 2158
1021.23 1144.45 2158
1026.39 1144.45 2158
1026.3 1138.61 2147
1031.43 1138.61 2147
1039.46 1141.8 2153
1044.61 1141.8 2153
1050.73 1142.86 2155
1055.89 1142.86 2155
1061.04 1142.86 2155
1065.2 1141.8 2153
1071.35 1142.86 2155
1079.5 1146.04 2161
1086.17 1147.63 2164
1091.34 1147.63 2164
1098.04 1149.22 2167
1103.22 1149.22 2167
1108.4 1149.22 2167
1117.7 1153.46 2175
1122.9 1153.46 2175
1131.21 1156.64 2181
1136.43 1156.64 2181
1141.64 1156.64 2181
1145.28 1155.05 2178
1143.09 1147.63 2164
1148.27 1147.63 2164
1153.44 1147.63 2164
1158.62 1147.63 2164
1162.18 1146.04 2161
1161.4 1140.2 2150
1166.55 1140.2 2150
1167.33 1135.96 2142
1170.81 1134.37 2139
1174.27 1132.78 2136
1179.38 1132.78 2136
1184.49 1132.78 2136
1189.6 1132.78 2136
1196.38 1134.37 2139
1201.5 1134.37 2139
1206.61 1134.37 2139
1211.73 1134.37 2139
1216.84 1134.37 2139
1221.96 1134.37 2139
1227.07 1134.37 2139
1227.58 1130.13 2131
1233.83 1131.19 2133
1238.93 1131.19 2133
1244.03 1131.19 2133
1249.13 1131.19 2133
1257.76 1134.37 2139
1264.65 1135.96 2142
1270.96 1137.02 2144
1279.65 1140.2 2150
1284.8 1140.2 2150
1292.94 1142.86 2155
1305.32 1149.22 2167
1310.5 1149.22 2167
1315.68 1149.22 2167
1320.86 1149.22 2167
1326.05 1149.22 2167
1331.23 1149.22 2167
1330.86 1144.45 2158
1334.16 1142.86 2155
1336.21 1140.2 2150
1344.47 1142.86 2155
1349.62 1142.86 2155
1356.66 1144.45 2158
1361.82 1144.45 2158
1366.98 1144.45 2158
1372.14 1144.45 2158
1377.3 1144.45 2158
1386.31 1147.63 2164
1391.48 1147.63 2164
1396.66 1147.63 2164
1401.83 1147.63 2164
1407.01 1147.63 2164
1410.22 1146.04 2161
1415.39 1146.04 2161
1420.56 1146.04 2161
1425.73 1146.04 2161
1436.19 1150.28 2169
1441.38 1150.28 2169
1446.56 1150.28 2169
1451.75 1150.28 2169
1456.94 1150.28 2169
1462.12 1150.28 2169
1463.93 1147.63 2164
1465.03 1144.45 2158
1470.19 1144.45 2158
1475.35 1144.45 2158
1482.57 1146.04 2161
1487.74 1146.04 2161
1492.91 1146.04 2161
1498.07 1146.04 2161
1503.24 1146.04 2161
1504.22 1142.86 2155
1509.37 1142.86 2155
1518.74 1146.04 2161
1523.91 1146.04 2161
1529.08 1146.04 2161
1534.25 1146.04 2161
1537.28 1144.45 2158
1542.44 1144.45 2158
1537.56 1137.02 2144
1539.09 1134.37 2139
1544.2 1134.37 2139
1549.32 1134.37 2139
1554.43 1134.37 2139
1559.55 1134.37 2139
1564.66 1134.37 2139
1565.37 1131.19 2133
1572.68 1132.78 2136
1577.79 1132.78 2136
1591.05 1138.61 2147
1611.05 1149.22 2167
1616.24 1149.22 2167
1621.42 1149.22 2167
1626.6 1149.22 2167
1631.78 1149.22 2167
1636.96 1149.22 2167
1633.05 1142.86 2155
1632.12 1138.61 2147
1616.67 1124.29 2120
1621.74 1124.29 2120
-1538.63 1094.75 2055
-1533.71 1094.75 2055
-1537.73 1101.14 2067
-1532.79 1101.14 2067
-1527.84 1101.14 2067
-1519.22 1098.47 2062
-1529.71 1109.66 2083
-1526.19 1110.73 2085
-1525.58 1113.92 2091
-1520.58 1113.92 2091
-1515.58 1113.92 2091
-1512.03 1114.99 2093
-1512.78 1119.25 2101
-1507.76 1119.25 2101
-1508.45 1123.51 2109
-1505.55 1125.11 2112
-1500.5 1125.11 2112
-1495.45 1125.11 2112
-1490.4 1125.11 2112
-1483.24 1123.51 2109
-1478.19 1123.51 2109
-1473.15 1123.51 2109
-1471.59 1126.18 2114
-1468.61 1127.77 2117
-1465.63 1129.37 2120
-1460.56 1129.37 2120
-1468.53 1139.49 2139
-1465.47 1141.09 2142
-1460.35 1141.09 2142
-1455.22 1141.09 2142
-1450.1 1141.09 2142
-1440.93 1137.9 2136
-1435.83 1137.9 2136
-1430.72 1137.9 2136
-1425.61 1137.9 2136
-1420.5 1137.9 2136
-1415.39 1137.9 2136
-1406.98 1135.23 2131
-1392.68 1127.77 2117
-1384.34 1125.11 2112
-1379.29 1125.11 2112
-1370.33 1121.91 2106
-1364 1120.85 2104
-1353.8 1116.59 2096
-1348.79 1116.59 2096
-1341.86 1114.99 2093
-1336.85 1114.99 2093
-1331.85 1114.99 2093
-1326.84 1114.99 2093
-1318.68 1112.33 2088
-1310.54 1109.66 2083
-1305.56 1109.66 2083
-1300.58 1109.66 2083
-1293.73 1108.06 2080
-1288.76 1108.06 2080
-1282.55 1107 2078
-1273.89 1103.8 2072
-1268.93 1103.8 2072
-1263.98 1103.8 2072
-1260.85 1105.4 2075
-1257.7 1107 2078
-1255.75 1109.66 2083
-1250.77 1109.66 2083
-1246.98 1110.73 2085
-1245.57 1113.92 2091
-1243.54 1116.59 2096
-1238.52 1116.59 2096
-1233.51 1116.59 2096
-1229.67 1117.65 2098
-1224.65 1117.65 2098
-1219.64 1117.65 2098
-1218.09 1120.85 2104
-1213.06 1120.85 2104
-1208.03 1120.85 2104
-1203 1120.85 2104
-1197.97 1120.85 2104
-1192.94 1120.85 2104
-1192.42 1125.11 2112
-1187.37 1125.11 2112
-1182.32 1125.11 2112
-1177.27 1125.11 2112
-1172.22 1125.11 2112
-1167.17 1125.11 2112
-1157.72 1120.85 2104
-1153.78 1121.91 2106
-1150.38 1123.51 2109
-1145.34 1123.51 2109
-1141.92 1125.11 2112
-1136.87 1125.11 2112
-1131.82 1125.11 2112
-1125.17 1123.51 2109
-1120.12 1123.51 2109
-1115.08 1123.51 2109
-1110.04 1123.51 2109
-1104.99 1123.51 2109
-1102.56 1126.18 2114
-1099.06 1127.77 2117
-1096.58 1130.44 2122
-1091.51 1130.44 2122
-1086.43 1130.44 2122
-1082.89 1132.04 2125
-1077.81 1132.04 2125
-1072.72 1132.04 2125
-1067.64 1132.04 2125
-1064.06 1133.63 2128
-1058.97 1133.63 2128
-1053.88 1133.63 2128
-1048.8 1133.63 2128
-1042.24 1132.04 2125
-1037.15 1132.04 2125
-1032.07 1132.04 2125
-1025.54 1130.44 2122
-1020.47 1130.44 2122
-1018.26 1133.63 2128
-1013.17 1133.63 2128
-1011.88 1137.9 2136
-1010.54 1142.16 2144
-1005.41 1142.16 2144
-1000.28 1142.16 2144
-991.445 1137.9 2136
-979.872 1130.44 2122
-977.554 1133.63 2128
-972.465 1133.63 2128
-967.377 1133.63 2128
-963.644 1135.23 2131
-958.549 1135.23 2131
-953.453 1135.23 2131
-950.582 1137.9 2136
-945.474 1137.9 2136
-943.008 1141.09 2142
-937.886 1141.09 2142
-932.763 1141.09 2142
-929.807 1143.76 2147
-924.673 1143.76 2147
-922.108 1146.95 2153
-916.96 1146.95 2153
-911.811 1146.95 2153
-905.399 1145.35 2150
-900.258 1145.35 2150
-895.117 1145.35 2150
-891.217 1146.95 2153
-886.892 1148.02 2155
-881.739 1148.02 2155
-876.585 1148.02 2155
-871.432 1148.02 2155
-865.475 1146.95 2153
-860.326 1146.95 2153
-853.986 1145.35 2150
-846.476 1142.16 2144
-839.387 1139.49 2139
-834.272 1139.49 2139
-826.831 1136.3 2133
-820.96 1135.23 2131
-815.864 1135.23 2131
-810.768 1135.23 2131
-805.673 1135.23 2131
-801.328 1136.3 2133
-796.227 1136.3 2133
-793.352 1139.49 2139
-788.237 1139.49 2139
-783.122 1139.49 2139
-778.007 1139.49 2139
-772.892 1139.49 2139
-767.777 1139.49 2139
-761.593 1137.9 2136
-755.422 1136.3 2133
-750.322 1136.3 2133
-744.522 1135.23 2131
-739.426 1135.23 2131
-735.02 1136.3 2133
-730.946 1137.9 2136
-725.838 1137.9 2136
-721.742 1139.49 2139
-718.302 1142.16 2144
-714.173 1143.76 2147
-709.039 1143.76 2147
-703.905 1143.76 2147
-698.771 1143.76 2147
-693.637 1143.76 2147
-688.503 1143.76 2147
-680.822 1139.49 2139
-673.812 1136.3 2133
-667.144 1133.63 2128
-662.055 1133.63 2128
-654.497 1129.37 2120
-646.976 1125.11 2112
-642.534 1126.18 2114
-638.383 1127.77 2117
-633.321 1127.77 2117
-628.258 1127.77 2117
-623.196 1127.77 2117
-618.134 1127.77 2117
-612.202 1126.18 2114
-606.573 1125.11 2112
-600.668 1123.51 2109
-595.625 1123.51 2109
-590.581 1123.51 2109
-584.705 1121.91 2106
-579.119 1120.85 2104
-574.087 1120.85 2104
-569.056 1120.85 2104
-565.365 1123.51 2109
-562.447 1127.77 2117
-557.385 1127.77 2117
-552.323 1127.77 2117
-548.553 1130.44 2122
-544.247 1132.04 2125
-539.926 1133.63 2128
-534.838 1133.63 2128
-529.749 1133.63 2128
-524.66 1133.63 2128
-519.572 1133.63 2128
-513.758 1132.04 2125
-508.676 1132.04 2125
-505.016 1135.23 2131
-500.39 1136.3 2133
-495.289 1136.3 2133
-490.188 1136.3 2133
-485.088 1136.3 2133
-479.987 1136.3 2133
-474.887 1136.3 2133
-469.786 1136.3 2133
-464.685 1136.3 2133
-459.585 1136.3 2133
-454.484 1136.3 2133
-449.383 1136.3 2133
-443.866 1135.23 2131
-438.152 1133.63 2128
-433.064 1133.63 2128
-427.372 1132.04 2125
-422.29 1132.04 2125
-417.209 1132.04 2125
-413.291 1135.23 2131
-408.195 1135.23 2131
-403.477 1136.3 2133
-398.377 1136.3 2133
-393.276 1136.3 2133
-388.175 1136.3 2133
-383.075 1136.3 2133
-377.974 1136.3 2133
-373.398 1137.9 2136
-368.29 1137.9 2136
-363.182 1137.9 2136
-358.074 1137.9 2136
-352.967 1137.9 2136
-347.37 1136.3 2133
-342.27 1136.3 2133
-337.169 1136.3 2133
-332.068 1136.3 2133
-326.968 1136.3 2133
-321.867 1136.3 2133
-316.766 1136.3 2133
-311.666 1136.3 2133
-306.565 1136.3 2133
-301.464 1136.3 2133
-296.364 1136.3 2133
-290.58 1133.63 2128
-285.492 1133.63 2128
-280.403 1133.63 2128
-275.314 1133.63 2128
-270.607 1135.23 2131
-265.511 1135.23 2131
-260.415 1135.23 2131
-255.319 1135.23 2131
-250.458 1136.3 2133
-245.357 1136.3 2133
-240.257 1136.3 2133
-235.156 1136.3 2133
-230.055 1136.3 2133
-224.955 1136.3 2133
-219.854 1136.3 2133
-214.753 1136.3 2133
-209.653 1136.3 2133
-204.84 1137.9 2136
-199.732 1137.9 2136
-194.624 1137.9 2136
-189.516 1137.9 2136
-184.409 1137.9 2136
-179.049 1136.3 2133
-173.785 1135.23 2131
-168.452 1133.63 2128
-163.363 1133.63 2128
-158.274 1133.63 2128
-152.97 1132.04 2125
-147.679 1130.44 2122
-142.605 1130.44 2122
-137.531 1130.44 2122
-132.456 1130.44 2122
-127.562 1132.04 2125
-122.481 1132.04 2125
-117.565 1133.63 2128
-112.476 1133.63 2128
-107.64 1136.3 2133
-102.683 1137.9 2136
-97.5755 1137.9 2136
-92.4677 1137.9 2136
-87.3599 1137.9 2136
-82.252 1137.9 2136
-77.2526 1139.49 2139
-72.1376 1139.49 2139
-67.0226 1139.49 2139
-61.9076 1139.49 2139
-56.7926 1139.49 2139
-51.6776 1139.49 2139
-46.6714 1142.16 2144
-41.6607 1145.35 2150
-36.5194 1145.35 2150
-31.3781 1145.35 2150
-26.2368 1145.35 2150
-21.017 1141.09 2142
-15.8949 1141.09 2142
-10.7425 1137.9 2136
-5.63469 1137.9 2136
-0.524896 1133.63 2128
4.5638 1133.63 2128
9.63888 1132.04 2125
14.6858 1129.37 2120
19.774 1130.44 2122
24.8483 1130.44 2122
29.965 1132.04 2125
35.0465 1132.04 2125
40.2791 1136.3 2133
45.3797 1136.3 2133
50.4804 1136.3 2133
55.581 1136.3 2133
60.6817 1136.3 2133
65.7206 1135.23 2131
70.8165 1135.23 2131
75.9124 1135.23 2131
81.0082 1135.23 2131
86.1041 1135.23 2131
91.2 1135.23 2131
96.2958 1135.23 2131
101.487 1136.3 2133
106.887 1139.49 2139
112.159 1141.09 2142
117.282 1141.09 2142
122.518 1142.16 2144
127.645 1142.16 2144
132.772 1142.16 2144
137.899 1142.16 2144
142.292 1136.3 2133
147.047 1133.63 2128
152.136 1133.63 2128
157.225 1133.63 2128
161.856 1130.44 2122
167.795 1136.3 2133
172.896 1136.3 2133
178.247 1137.9 2136
183.355 1137.9 2136
189.168 1142.16 2144
194.567 1143.76 2147
199.701 1143.76 2147
204.836 1143.76 2147
209.97 1143.76 2147
215.104 1143.76 2147
220.238 1143.76 2147
225.057 1142.16 2144
229.969 1141.09 2142
235.092 1141.09 2142
240.214 1141.09 2142
245.336 1141.09 2142
250.692 1142.16 2144
256.177 1143.76 2147
261.311 1143.76 2147
266.445 1143.76 2147
271.959 1145.35 2150
277.1 1145.35 2150
282.241 1145.35 2150
287.383 1145.35 2150
292.524 1145.35 2150
297.665 1145.35 2150
302.806 1145.35 2150
308.377 1146.95 2153
313.526 1146.95 2153
319.414 1149.62 2158
324.575 1149.62 2158
330.194 1151.21 2161
335.361 1151.21 2161
340.529 1151.21 2161
345.697 1151.21 2161
350.864 1151.21 2161
356.032 1151.21 2161
361.199 1151.21 2161
365.858 1149.62 2158
371.019 1149.62 2158
376.179 1149.62 2158
381.87 1151.21 2161
387.037 1151.21 2161
392.205 1151.21 2161
397.373 1151.21 2161
401.423 1148.02 2155
406.576 1148.02 2155
411.729 1148.02 2155
415.915 1145.35 2150
420.469 1143.76 2147
424.017 1139.49 2139
428.53 1137.9 2136
433.638 1137.9 2136
438.746 1137.9 2136
443.854 1137.9 2136
448.962 1137.9 2136
454.069 1137.9 2136
459.177 1137.9 2136
464.937 1139.49 2139
470.711 1141.09 2142
475.834 1141.09 2142
480.956 1141.09 2142
485.397 1139.49 2139
490.512 1139.49 2139
495.627 1139.49 2139
500.742 1139.49 2139
505.857 1139.49 2139
510.972 1139.49 2139
516.087 1139.49 2139
521.202 1139.49 2139
526.317 1139.49 2139
532.177 1141.09 2142
538.554 1143.76 2147
543.688 1143.76 2147
548.822 1143.76 2147
553.956 1143.76 2147
557.788 1141.09 2142
563.436 1142.16 2144
568.563 1142.16 2144
573.69 1142.16 2144
578.817 1142.16 2144
583.944 1142.16 2144
589.071 1142.16 2144
594.198 1142.16 2144
598.766 1141.09 2142
603.888 1141.09 2142
609.01 1141.09 2142
614.132 1141.09 2142
619.254 1141.09 2142
624.377 1141.09 2142
629.499 1141.09 2142
636.102 1143.76 2147
641.236 1143.76 2147
646.37 1143.76 2147
651.505 1143.76 2147
656.639 1143.76 2147
660.232 1141.09 2142
665.354 1141.09 2142
670.476 1141.09 2142
675.598 1141.09 2142
680.72 1141.09 2142
685.843 1141.09 2142
690.965 1141.09 2142
696.087 1141.09 2142
701.209 1141.09 2142
706.331 1141.09 2142
711.453 1141.09 2142
715.572 1139.49 2139
719.676 1137.9 2136
725.802 1139.49 2139
730.917 1139.49 2139
736.032 1139.49 2139
741.147 1139.49 2139
745.215 1137.9 2136
750.323 1137.9 2136
754.37 1136.3 2133
759.471 1136.3 2133
764.571 1136.3 2133
771.837 1139.49 2139
778.768 1142.16 2144
783.895 1142.16 2144
789.022 1142.16 2144
794.149 1142.16 2144
799.276 1142.16 2144
803.653 1141.09 2142
809.53 1142.16 2144
815.797 1143.76 2147
820.931 1143.76 2147
826.065 1143.76 2147
831.199 1143.76 2147
837.502 1145.35 2150
843.819 1146.95 2153
848.967 1146.95 2153
854.909 1148.02 2155
861.26 1149.62 2158
866.42 1149.62 2158
871.581 1149.62 2158
876.741 1149.62 2158
881.902 1149.62 2158
887.062 1149.62 2158
892.222 1149.62 2158
894.056 1145.35 2150
896.688 1142.16 2144
900.974 1141.09 2142
906.096 1141.09 2142
911.218 1141.09 2142
916.34 1141.09 2142
921.462 1141.09 2142
926.585 1141.09 2142
931.707 1141.09 2142
939.016 1143.76 2147
944.15 1143.76 2147
949.284 1143.76 2147
954.418 1143.76 2147
958.212 1142.16 2144
963.339 1142.16 2144
968.465 1142.16 2144
973.592 1142.16 2144
980.089 1143.76 2147
986.6 1145.35 2150
991.741 1145.35 2150
996.882 1145.35 2150
1002.02 1145.35 2150
1007.16 1145.35 2150
1012.31 1145.35 2150
1017.45 1145.35 2150
1021.16 1143.76 2147
1026.3 1143.76 2147
1029.99 1142.16 2144
1035.12 1142.16 2144
1040.24 1142.16 2144
1045.37 1142.16 2144
1050.5 1142.16 2144
1057.1 1143.76 2147
1062.23 1143.76 2147
1070.35 1146.95 2153
1078 1149.62 2158
1084.66 1151.21 2161
1089.83 1151.21 2161
1095 1151.21 2161
1100.17 1151.21 2161
1105.33 1151.21 2161
1110.5 1151.21 2161
1115.67 1151.21 2161
1120.84 1151.21 2161
1126.01 1151.21 2161
1131.17 1151.21 2161
1134.76 1149.62 2158
1137.28 1146.95 2153
1142.43 1146.95 2153
1147.58 1146.95 2153
1151.12 1145.35 2150
1156.26 1145.35 2150
1157.08 1141.09 2142
1162.2 1141.09 2142
1159.7 1133.63 2128
1163.14 1132.04 2125
1168.23 1132.04 2125
1171.65 1130.44 2122
1176.72 1130.44 2122
1181.8 1130.44 2122
1186.87 1130.44 2122
1193.63 1132.04 2125
1198.71 1132.04 2125
1203.8 1132.04 2125
1210.58 1133.63 2128
1215.67 1133.63 2128
1220.76 1133.63 2128
1225.85 1133.63 2128
1230.94 1133.63 2128
1237.77 1135.23 2131
1242.87 1135.23 2131
1247.96 1135.23 2131
1253.06 1135.23 2131
1258.15 1135.23 2131
1269.77 1141.09 2142
1276.08 1142.16 2144
1281.21 1142.16 2144
1288.14 1143.76 2147
1298.09 1148.02 2155
1303.24 1148.02 2155
1308.4 1148.02 2155
1313.55 1148.02 2155
1318.7 1148.02 2155
1323.86 1148.02 2155
1327.78 1146.95 2153
1331.07 1145.35 2150
1334.34 1143.76 2147
1341.35 1145.35 2150
1346.49 1145.35 2150
1353.52 1146.95 2153
1358.67 1146.95 2153
1363.81 1146.95 2153
1367.06 1145.35 2150
1374.11 1146.95 2153
1380.54 1148.02 2155
1387.62 1149.62 2158
1392.78 1149.62 2158
1397.94 1149.62 2158
1403.11 1149.62 2158
1408.27 1149.62 2158
1413.43 1149.62 2158
1418.59 1149.62 2158
1421.77 1148.02 2155
1426.92 1148.02 2155
1432.07 1148.02 2155
1437.23 1148.02 2155
1442.38 1148.02 2155
1446.19 1146.95 2153
1451.34 1146.95 2153
1456.49 1146.95 2153
1459.6 1145.35 2150
1464.74 1145.35 2150
1469.88 1145.35 2150
1478.45 1148.02 2155
1483.61 1148.02 2155
1488.76 1148.02 2155
1493.91 1148.02 2155
1499.07 1148.02 2155
1498.64 1143.76 2147
1503.77 1143.76 2147
1508.9 1143.76 2147
1516.15 1145.35 2150
1521.29 1145.35 2150
1526.44 1145.35 2150
1531.58 1145.35 2150
1536.72 1145.35 2150
1533.97 1139.49 2139
1539.09 1139.49 2139
1544.2 1139.49 2139
1549.32 1139.49 2139
1554.43 1139.49 2139
1559.55 1139.49 2139
1564.66 1139.49 2139
1565.37 1136.3 2133
1572.68 1137.9 2136
1577.79 1137.9 2136
1591.05 1143.76 2147
1611.05 1154.41 2167
1616.24 1154.41 2167
1621.42 1154.41 2167
1626.6 1154.41 2167
1631.78 1154.41 2167
1636.96 1154.41 2167
1633.05 1148.02 2155
1632.12 1143.76 2147
1616.67 1129.37 2120
1621.74 1129.37 2120
-1538.63 1099.67 2055
-1533.71 1099.67 2055
-1537.73 1106.09 2067
-1532.79 1106.09 2067
-1527.84 1106.09 2067
-1519.22 1103.41 2062
-1529.71 1114.65 2083
-1526.19 1115.72 2085
-1525.58 1118.93 2091
-1520.58 1118.93 2091
-1515.58 1118.93 2091
-1512.03 1120 2093
-1512.78 1124.28 2101
-1507.76 1124.28 2101
-1508.45 1128.56 2109
-1505.55 1130.17 2112
-1500.5 1130.17 2112
-1495.45 1130.17 2112
-1490.4 1130.17 2112
-1483.24 1128.56 2109
-1478.19 1128.56 2109
-1473.15 1128.56 2109
-1471.59 1131.24 2114
-1468.61 1132.85 2117
-1465.63 1134.45 2120
-1460.56 1134.45 2120
-1468.53 1144.62 2139
-1465.47 1146.22 2142
-1460.35 1146.22 2142
-1455.22 1146.22 2142
-1436.56 1135.52 2122
-1424.74 1130.17 2112
-1425.07 1134.45 2120
-1420 1134.45 2120
-1414.93 1134.45 2120
-1409.86 1134.45 2120
-1404.79 1134.45 2120
-1397.74 1132.85 2117
-1384.13 1125.89 2104
-1379.1 1125.89 2104
-1374.06 1125.89 2104
-1367.08 1124.28 2101
-1358.82 1121.61 2096
-1351.87 1120 2093
-1346.86 1120 2093
-1341.86 1120 2093
-1336.85 1120 2093
-1331.85 1120 2093
-1326.84 1120 2093
-1315.52 1114.65 2083
-1310.54 1114.65 2083
-1303.68 1113.05 2080
-1298.7 1113.05 2080
-1293.73 1113.05 2080
-1288.76 1113.05 2080
-1280.7 1110.37 2075
-1273.89 1108.77 2072
-1268.93 1108.77 2072
-1263.98 1108.77 2072
-1260.85 1110.37 2075
-1257.7 1111.98 2078
-1255.75 1114.65 2083
-1250.77 1114.65 2083
-1246.98 1115.72 2085
-1245.57 1118.93 2091
-1243.54 1121.61 2096
-1238.52 1121.61 2096
-1233.51 1121.61 2096
-1229.67 1122.68 2098
-1224.65 1122.68 2098
-1219.64 1122.68 2098
-1214.62 1122.68 2098
-1209.6 1122.68 2098
-1204.59 1122.68 2098
-1199.57 1122.68 2098
-1194.55 1122.68 2098
-1188.4 1121.61 2096
-1183.39 1121.61 2096
-1178.38 1121.61 2096
-1177.84 1125.89 2104
-1172.81 1125.89 2104
-1167.78 1125.89 2104
-1161.09 1124.28 2101
-1154.42 1122.68 2098
-1149.4 1122.68 2098
-1144.38 1122.68 2098
-1139.37 1122.68 2098
-1138.67 1126.96 2106
-1133.64 1126.96 2106
-1128.6 1126.96 2106
-1123.57 1126.96 2106
-1115.87 1124.28 2101
-1110.85 1124.28 2101
-1105.83 1124.28 2101
-1100.8 1124.28 2101
-1098.39 1126.96 2106
-1096.46 1130.17 2112
-1091.41 1130.17 2112
-1086.36 1130.17 2112
-1081.31 1130.17 2112
-1076.26 1130.17 2112
-1071.21 1130.17 2112
-1066.16 1130.17 2112
-1062.12 1131.24 2114
-1058.56 1132.85 2117
-1053.5 1132.85 2117
-1048.44 1132.85 2117
-1041.9 1131.24 2114
-1036.84 1131.24 2114
-1031.79 1131.24 2114
-1026.73 1131.24 2114
-1021.67 1131.24 2114
-1018.06 1132.85 2117
-1015.39 1135.52 2122
-1010.32 1135.52 2122
-1009.51 1140.34 2131
-1005.35 1141.41 2133
-1000.25 1141.41 2133
-995.153 1141.41 2133
-986.339 1137.13 2125
-978.948 1134.45 2120
-974.798 1135.52 2122
-969.723 1135.52 2122
-966.013 1137.13 2125
-960.931 1137.13 2125
-958.549 1140.34 2131
-953.453 1140.34 2131
-948.357 1140.34 2131
-944.146 1141.41 2133
-940.366 1143.01 2136
-936.572 1144.62 2139
