1062.32 1073.97 2744
1068.89 1073.97 2744
1075.45 1073.97 2744
1082.01 1073.97 2744
1088.57 1073.97 2744
1091.54 1070.45 2735
1096.07 1068.49 2730
1100.99 1066.92 2726
1107.51 1066.92 2726
1111.98 1064.97 2721
1109.44 1056.36 2699
1100.19 1041.48 2661
1099.48 1034.83 2644
1105.8 1034.83 2644
1112.13 1034.83 2644
1112.95 1029.74 2631
1117.54 1028.18 2627
1123.82 1028.18 2627
1124.94 1023.48 2615
1138.12 1029.74 2631
1146.15 1031.31 2635
1158.13 1036.4 2648
1164.47 1036.4 2648
1170.8 1036.4 2648
1177.13 1036.4 2648
1183.46 1036.4 2648
1188 1034.83 2644
1192.51 1033.26 2640
1200.64 1034.83 2644
1208.79 1036.4 2648
1221.09 1041.48 2661
1227.45 1041.48 2661
1249.58 1054.79 2695
1268.14 1064.97 2721
1281.21 1070.45 2735
1287.75 1070.45 2735
1304.7 1079.06 2757
1313.67 1081.01 2762
1326.97 1086.49 2776
1333.6 1086.49 2776
1342.17 1088.06 2780
1348.82 1088.06 2780
1355.47 1088.06 2780
1362.12 1088.06 2780
1368.77 1088.06 2780
1375.41 1088.06 2780
1389.02 1093.54 2794
1395.7 1093.54 2794
1402.38 1093.54 2794
1409.07 1093.54 2794
1415.75 1093.54 2794
1422.43 1093.54 2794
1429.11 1093.54 2794
1433.73 1091.97 2790
1440.41 1091.97 2790
1447.08 1091.97 2790
1443.85 1084.54 2771
1450.48 1084.54 2771
1459.73 1086.49 2776
1468.48 1088.06 2780
1475.13 1088.06 2780
1481.78 1088.06 2780
1486.28 1086.49 2776
1492.92 1086.49 2776
1499.56 1086.49 2776
1503.49 1084.54 2771
1505.21 1081.01 2762
1511.81 1081.01 2762
1500.83 1068.49 2730
1497.97 1061.84 2713
1492.26 1053.22 2691
1508.16 1059.88 2708
1519.67 1063.4 2717
1526.16 1063.4 2717
1532.66 1063.4 2717
1546.52 1068.49 2730
1561.02 1073.97 2744
1567.58 1073.97 2744
1579.3 1077.49 2753
1585.89 1077.49 2753
1592.47 1077.49 2753
1590.92 1072.01 2739
1589.89 1066.92 2726
1635.58 1075.53 2748
1650.51 1081.01 2762
1665.52 1086.49 2776
1672.16 1086.49 2776
1678.79 1086.49 2776
1685.43 1086.49 2776
1692.07 1086.49 2776
1698.71 1086.49 2776
1705.35 1086.49 2776
1714.45 1088.06 2780
1721.1 1088.06 2780
1727.75 1088.06 2780
1721.08 1063.4 2717
1735.84 1068.49 2730
1745.56 1070.45 2735
1752.1 1070.45 2735
1758.64 1070.45 2735
1791.64 1086.49 2776
1798.28 1086.49 2776
1804.92 1086.49 2776
-1782.93 971.858 2468
-1803.67 986.428 2505
-1797.68 986.428 2505
-1791.69 986.428 2505
-1775.01 980.521 2490
-1769.05 980.521 2490
-1770.89 984.852 2501
-1764.91 984.852 2501
-1758.93 984.852 2501
-1750.14 983.277 2497
-1742.08 982.096 2494
-1733.33 980.521 2490
-1727.37 980.521 2490
-1594.92 998.241 2535
-1593.87 1001.39 2543
-1587.79 1001.39 2543
-1586.68 1004.54 2551
-1602.27 1018.32 2586
-1606.58 1025.02 2603
-1600.35 1025.02 2603
-1594.13 1025.02 2603
-1587.91 1025.02 2603
-1581.68 1025.02 2603
-1575.46 1025.02 2603
-1563.81 1021.47 2594
-1555.2 1019.9 2590
-1549.01 1019.9 2590
-1542.81 1019.9 2590
-1320.25 1025.02 2603
-1314.02 1025.02 2603
-1307.8 1025.02 2603
-1240.08 1036.04 2631
-1233.79 1036.04 2631
-1243.36 1049.43 2665
-1236.98 1049.43 2665
-1230.61 1049.43 2665
-1102.17 980.521 2490
-1096.21 980.521 2490
-1101.64 990.759 2516
-1095.63 990.759 2516
-1089.61 990.759 2516
-1077.13 984.852 2501
-1069.44 983.277 2497
-1063.47 983.277 2497
-1057.5 983.277 2497
-1051.53 983.277 2497
-932.891 1023.44 2599
-926.676 1023.44 2599
-920.461 1023.44 2599
-914.246 1023.44 2599
-908.031 1023.44 2599
-904.591 1026.59 2607
-901.114 1029.74 2615
-894.861 1029.74 2615
-895.404 1037.62 2635
-890.79 1039.59 2640
-889.837 1045.89 2656
-883.486 1045.89 2656
-880.107 1049.43 2665
-873.734 1049.43 2665
-868.663 1051.01 2669
-862.281 1051.01 2669
-855.898 1051.01 2669
-845.378 1045.89 2656
-839.027 1045.89 2656
-827.659 1039.59 2640
-821.346 1039.59 2640
-815.033 1039.59 2640
-808.72 1039.59 2640
-802.407 1039.59 2640
-796.094 1039.59 2640
-789.781 1039.59 2640
-783.468 1039.59 2640
-772.151 1032.89 2623
-764.71 1031.32 2619
-757.289 1029.74 2615
-751.036 1029.74 2615
-744.783 1029.74 2615
-737.4 1028.17 2611
-731.156 1028.17 2611
-724.912 1028.17 2611
-718.669 1028.17 2611
-710.242 1025.02 2603
-706.181 1028.17 2611
-701.01 1029.74 2615
-694.757 1029.74 2615
-690.61 1032.89 2623
-685.381 1034.47 2627
-680.133 1036.04 2631
-676.146 1039.59 2640
-669.833 1039.59 2640
-666.536 1044.31 2652
-660.195 1044.31 2652
-660.263 1054.55 2678
-653.859 1054.55 2678
-647.455 1054.55 2678
-641.052 1054.55 2678
-634.648 1054.55 2678
-628.244 1054.55 2678
-620.679 1052.58 2673
-613.368 1051.01 2669
-606.985 1051.01 2669
-600.603 1051.01 2669
-596.224 1054.55 2678
-589.82 1054.55 2678
-585.159 1057.7 2686
-578.736 1057.7 2686
-572.313 1057.7 2686
-562.308 1051.01 2669
-555.926 1051.01 2669
-547.896 1047.86 2661
-545.807 1056.13 2682
-542.008 1061.25 2695
-537.352 1064.79 2704
-530.886 1064.79 2704
-524.42 1064.79 2704
-515.464 1059.67 2691
-509.785 1061.25 2695
-503.341 1061.25 2695
-496.896 1061.25 2695
-490.451 1061.25 2695
-484.007 1061.25 2695
-476.854 1059.67 2691
-469.544 1057.7 2686
-462.432 1056.13 2682
-456.018 1056.13 2682
-446.755 1049.43 2665
-444.679 1059.67 2691
-438.895 1061.25 2695
-435.981 1069.91 2717
-429.483 1069.91 2717
-423.609 1071.48 2721
-417.102 1071.48 2721
-410.596 1071.48 2721
-404.089 1071.48 2721
-396.413 1068.33 2713
-388.632 1064.79 2704
-380.329 1059.67 2691
-373.894 1059.67 2691
-367.459 1059.67 2691
-361.56 1061.25 2695
-355.116 1061.25 2695
-348.671 1061.25 2695
-342.227 1061.25 2695
-335.782 1061.25 2695
-328.849 1059.67 2691
-323.372 1062.82 2699
-316.918 1062.82 2699
-312.074 1068.33 2713
-307.051 1073.45 2726
-300.532 1073.45 2726
-294.014 1073.45 2726
-286.968 1071.48 2721
-280.461 1071.48 2721
-273.954 1071.48 2721
-267.054 1069.91 2717
-260.557 1069.91 2717
-254.06 1069.91 2717
-247.563 1069.91 2717
-240.711 1068.33 2713
-233.446 1064.79 2704
-226.98 1064.79 2704
-220.514 1064.79 2704
-213.335 1061.25 2695
-206.2 1057.7 2686
-199.479 1056.13 2682
-192.418 1052.58 2673
-186.026 1052.58 2673
-179.634 1052.58 2673
-173.242 1052.58 2673
-166.101 1047.86 2661
-159.738 1047.86 2661
-150.723 1029.74 2615
-144.028 1026.59 2607
-136.684 1018.32 2586
-130.5 1018.32 2586
-120.422 986.428 2505
-112.742 971.858 2468
-102.727 934.448 2373
-96.2349 926.573 2353
-90.6082 926.573 2353
-83.7896 913.578 2320
-77.1626 900.977 2288
-71.2213 895.07 2273
-65.7858 895.07 2273
-60.1115 891.526 2264
-54.5284 888.769 2257
-49.0659 887.588 2254
-43.6178 886.407 2251
-38.235 886.407 2251
-32.8522 886.407 2251
-27.4694 886.407 2251
-22.0571 885.225 2248
-16.726 887.588 2254
-11.336 887.588 2254
-5.94597 887.588 2254
-0.558442 891.526 2264
4.8619 892.707 2267
10.283 892.707 2267
15.7041 892.707 2267
21.1811 895.07 2273
26.6516 896.251 2276
32.0942 896.251 2276
37.5863 897.433 2279
43.1494 899.795 2285
48.6774 900.977 2288
54.1487 900.977 2288
59.62 900.977 2288
65.2904 903.733 2295
70.7784 903.733 2295
76.2665 903.733 2295
81.7545 903.733 2295
87.3566 904.914 2298
92.8518 904.914 2298
98.347 904.914 2298
103.842 904.914 2298
109.337 904.914 2298
114.833 904.914 2298
120.485 906.096 2301
125.987 906.096 2301
131.49 906.096 2301
137.349 908.458 2307
143.3 911.215 2314
148.833 911.215 2314
154.767 913.578 2320
161.904 922.635 2343
167.507 922.635 2343
173.11 922.635 2343
178.712 922.635 2343
183.057 916.334 2327
188.621 916.334 2327
232.137 1036.04 2631
238.429 1036.04 2631
250.673 1061.25 2695
257.976 1064.79 2704
264.442 1064.79 2704
270.909 1064.79 2704
278.708 1069.91 2717
287.515 1078.57 2739
295.997 1085.66 2757
302.59 1085.66 2757
311.313 1093.14 2776
318.982 1096.69 2785
325.642 1096.69 2785
332.302 1096.69 2785
338.962 1096.69 2785
345.622 1096.69 2785
352.281 1096.69 2785
358.941 1096.69 2785
364.419 1093.14 2776
371.058 1093.14 2776
377.696 1093.14 2776
383.088 1089.6 2767
390.972 1093.14 2776
397.611 1093.14 2776
404.249 1093.14 2776
410.887 1093.14 2776
417.525 1093.14 2776
422.789 1089.6 2767
428.629 1087.63 2762
435.234 1087.63 2762
440.399 1084.09 2753
446.171 1082.12 2748
450.6 1077 2735
457.14 1077 2735
462.155 1073.45 2726
467.814 1071.48 2721
474.321 1071.48 2721
480.827 1071.48 2721
486.618 1069.91 2717
492.389 1068.33 2713
498.876 1068.33 2713
505.364 1068.33 2713
511.852 1068.33 2713
518.339 1068.33 2713
523.86 1066.37 2708
527.789 1061.25 2695
535.027 1062.82 2699
541.481 1062.82 2699
550.777 1068.33 2713
557.265 1068.33 2713
563.752 1068.33 2713
569.189 1066.37 2708
572.051 1059.67 2691
576.551 1056.13 2682
582.965 1056.13 2682
586.521 1051.01 2669
588.239 1042.74 2648
594.571 1042.74 2648
600.903 1042.74 2648
605.401 1039.59 2640
611.714 1039.59 2640
615.92 1036.04 2631
625.286 1041.16 2644
632.564 1042.74 2648
638.896 1042.74 2648
646.203 1044.31 2652
654.759 1047.86 2661
662.116 1049.43 2665
668.489 1049.43 2665
676.888 1052.58 2673
685.58 1056.13 2682
694.316 1059.67 2691
700.751 1059.67 2691
710.602 1064.79 2704
721.576 1071.48 2721
734.238 1080.54 2744
740.799 1080.54 2744
748.451 1082.12 2748
755.022 1082.12 2748
764.087 1085.66 2757
770.68 1085.66 2757
778.683 1087.63 2762
786.709 1089.6 2767
793.326 1089.6 2767
799.943 1089.6 2767
806.559 1089.6 2767
814.352 1091.17 2771
820.978 1091.17 2771
827.604 1091.17 2771
828.811 1084.09 2753
833.877 1082.12 2748
840.449 1082.12 2748
843.013 1077 2735
848 1075.03 2730
851.711 1071.48 2721
852.856 1064.79 2704
859.322 1064.79 2704
865.788 1064.79 2704
875.158 1068.33 2713
882.945 1069.91 2717
893.698 1075.03 2730
900.226 1075.03 2730
908.415 1077 2735
914.955 1077 2735
921.496 1077 2735
920.571 1068.33 2713
927.058 1068.33 2713
944.213 1080.54 2744
950.775 1080.54 2744
957.337 1080.54 2744
962.142 1078.57 2739
973.643 1084.09 2753
989.84 1094.72 2780
996.488 1094.72 2780
1004.94 1096.69 2785
1011.6 1096.69 2785
1018.26 1096.69 2785
1024.92 1096.69 2785
1029.73 1094.72 2780
1034.88 1093.14 2776
1036.27 1087.63 2762
1042.87 1087.63 2762
1046.06 1084.09 2753
1049.2 1080.54 2744
1050.38 1075.03 2730
1056.9 1075.03 2730
1061.87 1073.45 2726
1068.39 1073.45 2726
1074.91 1073.45 2726
1081.43 1073.45 2726
1087.95 1073.45 2726
1090.85 1069.91 2717
1093.72 1066.37 2708
1100.19 1066.37 2708
1102.99 1062.82 2699
1098.76 1052.58 2673
1091.5 1039.59 2640
1097.82 1039.59 2640
1104.13 1039.59 2640
1108.34 1037.62 2635
1111.26 1034.47 2627
1112.43 1029.74 2615
1118.69 1029.74 2615
1124.94 1029.74 2615
1132.92 1031.32 2619
1146.15 1037.62 2635
1156.38 1041.16 2644
1162.71 1041.16 2644
1169.03 1041.16 2644
1173.57 1039.59 2640
1179.89 1039.59 2640
1186.2 1039.59 2640
1188.45 1036.04 2631
1194.74 1036.04 2631
1206.97 1041.16 2644
1218.79 1045.89 2656
1225.15 1045.89 2656
1249.58 1061.25 2695
1266.28 1069.91 2717
1281.21 1077 2735
1287.75 1077 2735
1298.55 1080.54 2744
1313.67 1087.63 2762
1322.66 1089.6 2767
1329.28 1089.6 2767
1340.24 1093.14 2776
1348.82 1094.72 2780
1355.47 1094.72 2780
1362.12 1094.72 2780
1368.77 1094.72 2780
1375.41 1094.72 2780
1384.55 1096.69 2785
1391.21 1096.69 2785
1400.38 1098.66 2790
1407.05 1098.66 2790
1413.72 1098.66 2790
1420.39 1098.66 2790
1424.51 1096.69 2785
1431.17 1096.69 2785
1437.83 1096.69 2785
1444.49 1096.69 2785
1443.85 1091.17 2771
1445.77 1087.63 2762
1455 1089.6 2767
1466.37 1093.14 2776
1473.01 1093.14 2776
1479.65 1093.14 2776
1478.79 1087.63 2762
1485.39 1087.63 2762
1492 1087.63 2762
1491.01 1082.12 2748
1487.77 1075.03 2730
1494.3 1075.03 2730
1491.48 1068.33 2713
1485.82 1059.67 2691
1480.06 1051.01 2669
1488.67 1052.58 2673
1512.4 1064.79 2704
1518.86 1064.79 2704
1525.33 1064.79 2704
1534.06 1066.37 2708
1553.05 1075.03 2730
1559.58 1075.03 2730
1571.27 1078.57 2739
1577.82 1078.57 2739
1584.37 1078.57 2739
1583.37 1073.45 2726
1589.89 1073.45 2726
1650.51 1087.63 2762
1665.52 1093.14 2776
1672.16 1093.14 2776
1678.79 1093.14 2776
1685.43 1093.14 2776
1692.07 1093.14 2776
1698.71 1093.14 2776
1705.35 1093.14 2776
1714.45 1094.72 2780
1721.1 1094.72 2780
1727.75 1094.72 2780
1721.08 1069.91 2717
1735.84 1075.03 2730
1745.56 1077 2735
1752.1 1077 2735
1758.64 1077 2735
1791.64 1093.14 2776
1798.28 1093.14 2776
1804.92 1093.14 2776
-1841.28 1003.13 2532
-1835.22 1003.13 2532
-1829.17 1003.13 2532
-1811.59 996.786 2516
-1805.58 996.786 2516
-1799.56 996.786 2516
-1780 989.259 2497
-1774.03 989.259 2497
-1776.55 994.013 2509
-1772.67 995.202 2512
-1766.66 995.202 2512
-1760.66 995.202 2512
-1742.08 988.07 2494
-1736.11 988.07 2494
-1730.15 988.07 2494
-1718.65 984.901 2486
-1593.87 1007.48 2543
-1587.79 1007.48 2543
-1599.12 1018.58 2571
-1602.27 1024.52 2586
-1606.58 1031.25 2603
-1600.35 1031.25 2603
-1594.13 1031.25 2603
-1587.91 1031.25 2603
-1581.68 1031.25 2603
-1575.46 1031.25 2603
-1569.23 1031.25 2603
-1555.2 1026.1 2590
-1549.01 1026.1 2590
-1542.81 1026.1 2590
-1536.62 1026.1 2590
-1334.3 1022.93 2582
-1328.12 1022.93 2582
-1330.65 1029.67 2599
-1324.44 1029.67 2599
-1320.25 1031.25 2603
-1314.02 1031.25 2603
-1307.8 1031.25 2603
-1295.08 1026.1 2590
-1288.88 1026.1 2590
-1246.37 1042.35 2631
-1241.96 1043.93 2635
-1235.66 1043.93 2635
-1267.62 1076.42 2717
-1265.3 1079.98 2726
-1258.78 1079.98 2726
-1252.26 1079.98 2726
-1245.74 1079.98 2726
-1239.22 1079.98 2726
-1102.17 986.486 2490
-1096.21 986.486 2490
-1095.08 990.844 2501
-1089.09 990.844 2501
-1083.11 990.844 2501
-1065.94 980.543 2475
-1063.44 983.712 2483
-1057.51 983.712 2483
-1051.57 983.712 2483
-1045.63 983.712 2483
-1039.69 983.712 2483
-945.321 1029.67 2599
-939.106 1029.67 2599
-932.891 1029.67 2599
-926.676 1029.67 2599
-920.461 1029.67 2599
-914.246 1029.67 2599
-906.284 1027.69 2594
-900.081 1027.69 2594
-901.114 1036.01 2615
-894.861 1036.01 2615
-895.404 1043.93 2635
-890.79 1045.91 2640
-889.837 1052.25 2656
-883.486 1052.25 2656
-878.786 1054.23 2661
-873.734 1055.82 2665
-867.361 1055.82 2665
-860.988 1055.82 2665
-854.616 1055.82 2665
-840.286 1045.91 2640
-833.972 1045.91 2640
-827.659 1045.91 2640
-821.346 1045.91 2640
-811.02 1040.76 2627
-804.738 1040.76 2627
-798.456 1040.76 2627
-792.174 1040.76 2627
-784.695 1039.18 2623
-778.423 1039.18 2623
-769.796 1036.01 2615
-763.542 1036.01 2615
-756.131 1034.42 2611
-749.887 1034.42 2611
-743.643 1034.42 2611
-735.14 1031.25 2603
-728.916 1031.25 2603
-722.691 1031.25 2603
-716.467 1031.25 2603
-709.151 1029.67 2599
-702.936 1029.67 2599
-698.865 1032.84 2607
-692.631 1032.84 2607
-687.45 1034.42 2611
-682.25 1036.01 2615
-678.065 1039.18 2623
-672.817 1040.76 2627
-666.535 1040.76 2627
-661.258 1042.35 2631
-657.207 1045.91 2640
-653.853 1050.67 2652
-647.511 1050.67 2652
-642.137 1052.25 2656
-635.785 1052.25 2656
-629.434 1052.25 2656
-623.083 1052.25 2656
-615.802 1050.67 2652
-608.542 1049.08 2648
-602.209 1049.08 2648
-595.877 1049.08 2648
-591.326 1052.25 2656
-584.975 1052.25 2656
-578.624 1052.25 2656
-571.41 1050.67 2652
-565.069 1050.67 2652
-557.041 1047.5 2644
-552.385 1050.67 2652
-546.043 1050.67 2652
-541.533 1054.23 2661
-539.393 1062.55 2682
-532.98 1062.55 2682
-526.566 1062.55 2682
-520.153 1062.55 2682
-513.74 1062.55 2682
-507.326 1062.55 2682
-500.913 1062.55 2682
-494.499 1062.55 2682
-488.086 1062.55 2682
-481.672 1062.55 2682
-472.955 1057.4 2669
-466.573 1057.4 2669
-460.19 1057.4 2669
-453.808 1057.4 2669
-446.755 1055.82 2665
-441.043 1057.4 2669
-438.895 1067.7 2695
-433.895 1071.27 2704
-427.428 1071.27 2704
-422.986 1076.42 2717
-416.489 1076.42 2717
-409.992 1076.42 2717
-403.495 1076.42 2717
-396.413 1074.83 2713
-385.47 1062.55 2682
-379.622 1064.14 2686
-373.199 1064.14 2686
-366.776 1064.14 2686
-361.024 1066.12 2691
-354.589 1066.12 2691
-348.154 1066.12 2691
-341.719 1066.12 2691
-335.284 1066.12 2691
-327.749 1062.55 2682
-321.815 1064.14 2686
-315.392 1064.14 2686
-310.464 1069.29 2699
-305.023 1072.85 2708
-298.548 1072.85 2708
-292.072 1072.85 2708
-285.596 1072.85 2708
-279.121 1072.85 2708
-272.645 1072.85 2708
-266.17 1072.85 2708
-259.694 1072.85 2708
-253.218 1072.85 2708
-246.743 1072.85 2708
-239.912 1071.27 2704
-232.669 1067.7 2695
-225.889 1066.12 2691
-219.454 1066.12 2691
-212.623 1064.14 2686
-205.893 1062.55 2682
-198.81 1058.99 2673
-192.418 1058.99 2673
-186.026 1058.99 2673
-179.634 1058.99 2673
-173.242 1058.99 2673
-166.101 1054.23 2661
-159.738 1054.23 2661
-150.493 1034.42 2611
-144.028 1032.84 2607
-136.684 1024.52 2586
-130.5 1024.52 2586
-114.221 941.321 2376
-108.539 941.321 2376
-101.862 932.209 2353
-95.5805 925.87 2337
-89.9921 925.87 2337
-83.6813 917.947 2317
-77.0614 905.269 2285
-71.1273 899.326 2270
-65.699 899.326 2270
-60.0318 895.761 2261
-54.5284 894.176 2257
-49.0006 891.799 2251
-43.6178 891.799 2251
-38.235 891.799 2251
-32.8084 890.61 2248
-27.4327 890.61 2248
-22.0571 890.61 2248
-16.726 892.987 2254
-11.336 892.987 2254
-5.94597 892.987 2254
-0.558442 896.949 2264
4.85547 896.949 2264
10.2694 896.949 2264
15.7041 898.138 2267
21.1811 900.515 2273
26.6516 901.703 2276
32.0942 901.703 2276
37.5863 902.892 2279
43.1494 905.269 2285
48.6774 906.458 2288
54.1487 906.458 2288
59.62 906.458 2288
65.2904 909.231 2295
70.7784 909.231 2295
76.2665 909.231 2295
81.7545 909.231 2295
87.3566 910.419 2298
92.8518 910.419 2298
98.347 910.419 2298
103.842 910.419 2298
109.337 910.419 2298
114.833 910.419 2298
120.485 911.608 2301
125.987 911.608 2301
131.49 911.608 2301
137.349 913.985 2307
143.3 916.758 2314
148.833 916.758 2314
154.767 919.135 2320
161.904 928.247 2343
167.507 928.247 2343
173.11 928.247 2343
178.712 928.247 2343
183.057 921.909 2327
191.539 936.171 2363
197.19 936.171 2363
202.841 936.171 2363
232.137 1042.35 2631
238.429 1042.35 2631
250.673 1067.7 2695
257.976 1071.27 2704
264.442 1071.27 2704
270.909 1071.27 2704
278.708 1076.42 2717
287.515 1085.13 2739
295.997 1092.27 2757
302.59 1092.27 2757
311.313 1099.79 2776
318.982 1103.36 2785
325.642 1103.36 2785
332.302 1103.36 2785
338.962 1103.36 2785
345.622 1103.36 2785
352.281 1103.36 2785
358.941 1103.36 2785
364.419 1099.79 2776
371.058 1099.79 2776
377.696 1099.79 2776
383.088 1096.23 2767
390.972 1099.79 2776
397.611 1099.79 2776
404.249 1099.79 2776
410.887 1099.79 2776
417.525 1099.79 2776
422.789 1096.23 2767
428.629 1094.25 2762
435.234 1094.25 2762
440.399 1090.68 2753
446.171 1088.7 2748
450.6 1083.55 2735
457.14 1083.55 2735
462.155 1079.98 2726
467.814 1078 2721
474.321 1078 2721
480.827 1078 2721
486.618 1076.42 2717
492.389 1074.83 2713
498.876 1074.83 2713
505.364 1074.83 2713
511.852 1074.83 2713
518.339 1074.83 2713
523.86 1072.85 2708
527.789 1067.7 2695
535.027 1069.29 2699
541.481 1069.29 2699
550.777 1074.83 2713
557.265 1074.83 2713
563.752 1074.83 2713
569.189 1072.85 2708
572.051 1066.12 2691
576.551 1062.55 2682
582.965 1062.55 2682
586.521 1057.4 2669
588.239 1049.08 2648
594.571 1049.08 2648
600.903 1049.08 2648
605.401 1045.91 2640
611.714 1045.91 2640
615.92 1042.35 2631
625.286 1047.5 2644
632.564 1049.08 2648
638.896 1049.08 2648
646.203 1050.67 2652
654.759 1054.23 2661
662.116 1055.82 2665
668.489 1055.82 2665
676.888 1058.99 2673
685.58 1062.55 2682
694.316 1066.12 2691
700.751 1066.12 2691
710.602 1071.27 2704
721.576 1078 2721
734.238 1087.12 2744
740.799 1087.12 2744
748.451 1088.7 2748
755.022 1088.7 2748
764.087 1092.27 2757
770.68 1092.27 2757
778.683 1094.25 2762
786.709 1096.23 2767
793.326 1096.23 2767
799.943 1096.23 2767
806.559 1096.23 2767
813.176 1096.23 2767
819.793 1096.23 2767
808.788 1072.85 2708
808.641 1064.14 2686
815.064 1064.14 2686
816.287 1057.4 2669
822.67 1057.4 2669
827.81 1055.82 2665
834.182 1055.82 2665
835.193 1049.08 2648
841.526 1049.08 2648
847.858 1049.08 2648
854.19 1049.08 2648
859.222 1047.5 2644
869.473 1052.25 2656
875.824 1052.25 2656
882.176 1052.25 2656
890.2 1054.23 2661
911.051 1071.27 2704
917.517 1071.27 2704
925.35 1072.85 2708
939.396 1081.57 2730
945.924 1081.57 2730
952.452 1081.57 2730
962.142 1085.13 2739
968.692 1085.13 2739
980.226 1090.68 2753
986.81 1090.68 2753
993.393 1090.68 2753
1001.43 1092.27 2757
1008.02 1092.27 2757
1014.61 1092.27 2757
1021.21 1092.27 2757
1027.8 1092.27 2757
1031.02 1088.7 2748
1037.59 1088.7 2748
1042.64 1087.12 2744
1045.76 1083.55 2735
1046.91 1078 2721
1053.42 1078 2721
1056.81 1074.83 2713
1063.3 1074.83 2713
1069.79 1074.83 2713
1076.27 1074.83 2713
1079.17 1071.27 2704
1085.64 1071.27 2704
1092.1 1071.27 2704
1098.57 1071.27 2704
1102.99 1069.29 2699
1090.12 1050.67 2652
1091.5 1045.91 2640
1097.82 1045.91 2640
1104.13 1045.91 2640
1110.44 1045.91 2640
1111.26 1040.76 2627
1114.14 1037.59 2619
1120.4 1037.59 2619
1126.66 1037.59 2619
1132.92 1037.59 2619
1142.67 1040.76 2627
1156.38 1047.5 2644
1162.71 1047.5 2644
1169.03 1047.5 2644
1173.57 1045.91 2640
1179.89 1045.91 2640
1186.2 1045.91 2640
1188.45 1042.35 2631
1194.74 1042.35 2631
1205.14 1045.91 2640
1218.79 1052.25 2656
1225.15 1052.25 2656
1249.58 1067.7 2695
1266.28 1076.42 2717
1281.21 1083.55 2735
1287.75 1083.55 2735
1298.55 1087.12 2744
1311.29 1092.27 2757
1322.66 1096.23 2767
1329.28 1096.23 2767
1340.24 1099.79 2776
1348.82 1101.38 2780
1355.47 1101.38 2780
1362.12 1101.38 2780
1368.77 1101.38 2780
1373.43 1099.79 2776
1380.07 1099.79 2776
1386.71 1099.79 2776
1397.87 1103.36 2785
1404.53 1103.36 2785
1411.19 1103.36 2785
1415.3 1101.38 2780
1421.95 1101.38 2780
1428.6 1101.38 2780
1430.6 1097.81 2771
1437.22 1097.81 2771
1436.56 1092.27 2757
1438.44 1088.7 2748
1445.01 1088.7 2748
1458.97 1094.25 2762
1465.58 1094.25 2762
1472.18 1094.25 2762
1471.29 1088.7 2748
1477.86 1088.7 2748
1484.44 1088.7 2748
1488.84 1087.12 2744
1485.59 1079.98 2726
1492.11 1079.98 2726
1486.53 1071.27 2704
1488.03 1067.7 2695
1485.05 1060.97 2678
1505.93 1071.27 2704
1512.4 1071.27 2704
1518.86 1071.27 2704
1525.33 1071.27 2704
1539.16 1076.42 2717
1561.02 1087.12 2744
1567.58 1087.12 2744
1574.14 1087.12 2744
1580.7 1087.12 2744
1587.26 1087.12 2744
1593.82 1087.12 2744
1579.39 1072.85 2708
1647.53 1092.27 2757
1660.12 1096.23 2767
1666.73 1096.23 2767
1675.77 1097.81 2771
1682.4 1097.81 2771
1689.02 1097.81 2771
1695.65 1097.81 2771
1705.35 1099.79 2776
1711.99 1099.79 2776
1718.62 1099.79 2776
1725.26 1099.79 2776
1706.38 1071.27 2704
1721.08 1076.42 2717
1730.12 1078 2721
1742.37 1081.57 2730
1752.1 1083.55 2735
1758.64 1083.55 2735
1791.64 1099.79 2776
1798.28 1099.79 2776
1804.92 1099.79 2776
1796.55 1090.68 2753
1803.13 1090.68 2753
1794.6 1081.57 2730
1801.13 1081.57 2730
-1852.44 1011.98 2539
-1846.37 1011.98 2539
-1840.3 1011.98 2539
-1829.17 1009.19 2532
-1811.59 1002.81 2516
-1805.58 1002.81 2516
-1799.56 1002.81 2516
-1785.7 998.429 2505
-1779.71 998.429 2505
-1776.55 1000.02 2509
-1772.67 1001.22 2512
-1766.66 1001.22 2512
-1760.66 1001.22 2512
-1742.08 994.045 2494
-1736.11 994.045 2494
-1730.15 994.045 2494
-1718.65 990.856 2486
-1593.87 1013.57 2543
-1587.79 1013.57 2543
-1599.12 1024.73 2571
-1602.27 1030.71 2586
-1606.58 1037.49 2603
-1600.35 1037.49 2603
-1594.13 1037.49 2603
-1587.91 1037.49 2603
-1581.68 1037.49 2603
-1575.46 1037.49 2603
-1569.23 1037.49 2603
-1555.2 1032.31 2590
-1549.01 1032.31 2590
-1542.81 1032.31 2590
-1536.62 1032.31 2590
-1334.3 1029.12 2582
-1328.12 1029.12 2582
-1330.65 1035.9 2599
-1324.44 1035.9 2599
-1318.22 1035.9 2599
-1312.01 1035.9 2599
-1305.79 1035.9 2599
-1295.08 1032.31 2590
-1288.88 1032.31 2590
-1289.13 1037.49 2603
-1286.84 1040.68 2611
-1280.6 1040.68 2611
-1274.36 1040.68 2611
-1246.37 1048.65 2631
-1241.96 1050.24 2635
-1235.66 1050.24 2635
-1267.62 1082.93 2717
-1265.3 1086.51 2726
-1258.78 1086.51 2726
-1252.26 1086.51 2726
-1245.74 1086.51 2726
-1239.22 1086.51 2726
-1108.12 992.451 2490
-1102.17 992.451 2490
-1096.21 992.451 2490
-1090.26 992.451 2490
-1084.3 992.451 2490
-1078.35 992.451 2490
-1064.21 984.878 2471
-1060.02 986.472 2475
-1054.1 986.472 2475
-1051.57 989.66 2483
-1045.63 989.66 2483
-1039.69 989.66 2483
-1007.94 964.949 2421
-955.929 1040.68 2611
-949.685 1040.68 2611
-943.442 1040.68 2611
-934.326 1037.49 2603
-928.102 1037.49 2603
-921.877 1037.49 2603
-914.246 1035.9 2599
-906.284 1033.9 2594
-900.081 1033.9 2594
-899.736 1040.68 2611
-893.492 1040.68 2611
-894.045 1048.65 2631
-889.103 1050.24 2635
-884.477 1052.24 2640
-878.164 1052.24 2640
-877.135 1058.61 2656
-873.734 1062.2 2665
-867.361 1062.2 2665
-860.988 1062.2 2665
-854.616 1062.2 2665
-840.286 1052.24 2640
-833.972 1052.24 2640
-827.659 1052.24 2640
-819.791 1050.24 2635
-811.02 1047.06 2627
-804.738 1047.06 2627
-798.456 1047.06 2627
-790.968 1045.46 2623
-782.302 1042.27 2615
-776.049 1042.27 2615
-767.441 1039.08 2607
-761.207 1039.08 2607
-753.814 1037.49 2603
-747.589 1037.49 2603
-741.365 1037.49 2603
-732.599 1033.9 2594
-726.396 1033.9 2594
-720.193 1033.9 2594
-713.989 1033.9 2594
-705.604 1030.71 2586
-700.502 1032.31 2590
-695.38 1033.9 2594
-690.506 1035.9 2599
-684.291 1035.9 2599
-679.119 1037.49 2603
-673.929 1039.08 2607
-668.719 1040.68 2611
-662.475 1040.68 2611
-659.248 1045.46 2623
-653.971 1047.06 2627
-648.675 1048.65 2631
-642.384 1048.65 2631
-636.092 1048.65 2631
-628.843 1047.06 2627
-622.561 1047.06 2627
-616.279 1047.06 2627
-609.997 1047.06 2627
-605.554 1050.24 2635
-599.253 1050.24 2635
-592.952 1050.24 2635
-587.764 1052.24 2640
-581.451 1052.24 2640
-575.138 1052.24 2640
-568.825 1052.24 2640
-562.512 1052.24 2640
-556.199 1052.24 2640
-549.886 1052.24 2640
-543.573 1052.24 2640
-539.702 1057.02 2652
-535.17 1060.61 2661
-528.807 1060.61 2661
-522.443 1060.61 2661
-516.08 1060.61 2661
-509.717 1060.61 2661
-503.354 1060.61 2661
-496.99 1060.61 2661
-491.365 1062.2 2665
-484.992 1062.2 2665
-478.619 1062.2 2665
-472.246 1062.2 2665
-465.174 1060.61 2661
-459.501 1062.2 2665
-453.128 1062.2 2665
-446.755 1062.2 2665
-441.043 1063.8 2669
-436.126 1067.38 2678
-433.092 1075.75 2699
-426.638 1075.75 2699
-421.585 1079.34 2708
-416.489 1082.93 2717
-409.992 1082.93 2717
-403.495 1082.93 2717
-391.884 1068.98 2682
-384.895 1067.38 2678
-379.622 1070.57 2686
-373.199 1070.57 2686
-366.776 1070.57 2686
-359.28 1067.38 2678
-352.876 1067.38 2678
-346.472 1067.38 2678
-340.068 1067.38 2678
-333.664 1067.38 2678
-326.649 1065.39 2673
-320.257 1065.39 2673
-312.926 1062.2 2665
-306.553 1062.2 2665
-304.01 1075.75 2699
-297.556 1075.75 2699
-291.101 1075.75 2699
-284.647 1075.75 2699
-278.193 1075.75 2699
-271.739 1075.75 2699
-264.499 1072.56 2691
-258.064 1072.56 2691
-252.003 1074.16 2695
-245.558 1074.16 2695
-239.114 1074.16 2695
-231.547 1068.98 2682
-225.133 1068.98 2682
-218.72 1068.98 2682
-211.99 1067.38 2678
-205.202 1065.39 2673
-198.512 1063.8 2669
-192.13 1063.8 2669
-185.748 1063.8 2669
-178.828 1060.61 2661
-172.464 1060.61 2661
-165.539 1057.02 2652
-159.198 1057.02 2652
-150.493 1040.68 2611
-143.586 1035.9 2599
-112.346 931.469 2337
-106.757 931.469 2337
-101.169 931.469 2337
-95.4169 929.874 2333
-89.838 929.874 2333
-83.4646 921.106 2311
-76.8591 908.351 2279
-71.0333 903.568 2267
-65.6122 903.568 2267
-60.0318 901.177 2261
-54.4559 898.387 2254
-49.0006 897.191 2251
-43.5597 895.995 2248
-38.184 895.995 2248
-32.7646 894.8 2245
-27.3961 894.8 2245
-22.0277 894.8 2245
-16.6814 895.995 2248
-11.3058 895.995 2248
-5.94597 898.387 2254
-0.557702 901.177 2261
4.85547 902.373 2264
10.2694 902.373 2264
15.7041 903.568 2267
21.1252 903.568 2267
26.5814 904.764 2270
32.0096 904.764 2270
37.4874 905.96 2273
42.9794 907.156 2276
48.5497 909.547 2282
54.0067 909.547 2282
59.4636 909.547 2282
65.0913 911.938 2288
70.5626 911.938 2288
76.0339 911.938 2288
81.5052 911.938 2288
86.9765 911.938 2288
92.4478 911.938 2288
97.9191 911.938 2288
103.39 911.938 2288
108.862 911.938 2288
114.333 911.938 2288
119.804 911.938 2288
125.276 911.938 2288
130.747 911.938 2288
136.635 914.728 2295
142.309 915.924 2298
147.804 915.924 2298
153.9 919.511 2307
160.315 924.693 2320
165.862 924.693 2320
171.41 924.693 2320
177.492 927.483 2327
183.057 927.483 2327
191.539 941.832 2363
197.19 941.832 2363
202.841 941.832 2363
232.137 1048.65 2631
238.429 1048.65 2631
249.464 1068.98 2682
255.877 1068.98 2682
262.291 1068.98 2682
268.704 1068.98 2682
276.451 1074.16 2695
284.261 1079.34 2708
294.064 1091.7 2739
300.614 1091.7 2739
308.173 1095.28 2748
315.317 1097.28 2753
321.901 1097.28 2753
328.484 1097.28 2753
335.067 1097.28 2753
341.65 1097.28 2753
348.234 1097.28 2753
354.172 1095.28 2748
360.219 1093.69 2744
366.78 1093.69 2744
373.342 1093.69 2744
381.704 1098.87 2757
388.296 1098.87 2757
394.889 1098.87 2757
401.482 1098.87 2757
408.075 1098.87 2757
414.668 1098.87 2757
419.274 1093.69 2744
425.06 1091.7 2739
431.61 1091.7 2739
436.72 1088.11 2730
442.599 1086.51 2726
447.635 1082.93 2717
454.132 1082.93 2717
459.103 1079.34 2708
464.891 1077.75 2704
470.486 1075.75 2699
476.94 1075.75 2699
483.394 1075.75 2699
489.122 1074.16 2695
495.566 1074.16 2695
502.011 1074.16 2695
508.456 1074.16 2695
513.181 1070.57 2686
518.83 1068.98 2682
522.697 1063.8 2669
529.08 1063.8 2669
535.462 1063.8 2669
545.296 1070.57 2686
551.719 1070.57 2686
558.142 1070.57 2686
564.565 1070.57 2686
565.674 1060.61 2661
569.242 1055.43 2648
575.574 1055.43 2648
581.907 1055.43 2648
585.351 1050.24 2635
591.652 1050.24 2635
597.953 1050.24 2635
603.337 1048.65 2631
609.628 1048.65 2631
613.111 1043.87 2619
619.373 1043.87 2619
628.503 1048.65 2631
634.794 1048.65 2631
645.228 1055.43 2648
652.545 1057.02 2652
658.886 1057.02 2652
665.228 1057.02 2652
672.583 1058.61 2656
680.212 1060.61 2661
689.672 1065.39 2673
696.064 1065.39 2673
703.77 1067.38 2678
717.068 1077.75 2704
723.534 1077.75 2704
730 1077.75 2704
742.458 1086.51 2726
748.977 1086.51 2726
755.496 1086.51 2726
760.617 1084.52 2721
767.124 1084.52 2721
773.63 1084.52 2721
780.137 1084.52 2721
786.644 1084.52 2721
791.985 1082.93 2717
795.837 1079.34 2708
802.312 1079.34 2708
808.788 1079.34 2708
808.641 1070.57 2686
815.064 1070.57 2686
816.287 1063.8 2669
822.67 1063.8 2669
827.81 1062.2 2665
834.182 1062.2 2665
835.193 1055.43 2648
841.526 1055.43 2648
847.858 1055.43 2648
854.19 1055.43 2648
859.222 1053.83 2644
869.473 1058.61 2656
875.824 1058.61 2656
882.176 1058.61 2656
890.2 1060.61 2661
911.051 1077.75 2704
917.517 1077.75 2704
925.35 1079.34 2708
939.396 1088.11 2730
945.924 1088.11 2730
952.452 1088.11 2730
962.142 1091.7 2739
968.692 1091.7 2739
980.226 1097.28 2753
986.81 1097.28 2753
993.393 1097.28 2753
1001.43 1098.87 2757
1008.02 1098.87 2757
1014.61 1098.87 2757
1021.21 1098.87 2757
1027.8 1098.87 2757
1031.02 1095.28 2748
1037.59 1095.28 2748
1042.64 1093.69 2744
1045.76 1090.1 2735
1046.91 1084.52 2721
1053.42 1084.52 2721
1056.81 1081.33 2713
1063.3 1081.33 2713
1069.79 1081.33 2713
1076.27 1081.33 2713
1079.17 1077.75 2704
1085.64 1077.75 2704
1092.1 1077.75 2704
1098.57 1077.75 2704
1102.99 1075.75 2699
1090.12 1057.02 2652
1091.5 1052.24 2640
1097.82 1052.24 2640
1104.13 1052.24 2640
1110.44 1052.24 2640
1114.64 1050.24 2635
1114.14 1043.87 2619
1120.4 1043.87 2619
1126.66 1043.87 2619
1132.92 1043.87 2619
1142.67 1047.06 2627
1156.38 1053.83 2644
1162.71 1053.83 2644
1169.03 1053.83 2644
1173.57 1052.24 2640
1179.89 1052.24 2640
1186.2 1052.24 2640
1188.45 1048.65 2631
1194.74 1048.65 2631
1205.14 1052.24 2640
1218.79 1058.61 2656
1225.15 1058.61 2656
1249.58 1074.16 2695
1266.28 1082.93 2717
1281.21 1090.1 2735
1287.75 1090.1 2735
1298.55 1093.69 2744
1311.29 1098.87 2757
1322.66 1102.86 2767
1329.28 1102.86 2767
1340.24 1106.44 2776
1348.82 1108.04 2780
1355.47 1108.04 2780
1362.12 1108.04 2780
1368.77 1108.04 2780
1373.43 1106.44 2776
1380.07 1106.44 2776
1386.71 1106.44 2776
1397.87 1110.03 2785
1404.53 1110.03 2785
1411.19 1110.03 2785
1415.3 1108.04 2780
1421.95 1108.04 2780
1428.6 1108.04 2780
1430.6 1104.45 2771
1437.22 1104.45 2771
1436.56 1098.87 2757
1438.44 1095.28 2748
1445.01 1095.28 2748
1458.97 1100.86 2762
1465.58 1100.86 2762
1472.18 1100.86 2762
1476.11 1098.87 2757
1482.71 1098.87 2757
1489.3 1098.87 2757
1488.84 1093.69 2744
1485.59 1086.51 2726
1492.11 1086.51 2726
1493.68 1082.93 2717
1500.18 1082.93 2717
1506.67 1082.93 2717
1515.4 1084.52 2721
1521.91 1084.52 2721
1528.41 1084.52 2721
1534.92 1084.52 2721
1541.43 1084.52 2721
1566.14 1097.28 2753
1572.72 1097.28 2753
1579.3 1097.28 2753
1585.89 1097.28 2753
1592.47 1097.28 2753
1599.05 1097.28 2753
1584.64 1082.93 2717
1619.51 1084.52 2721
1647.53 1098.87 2757
1654.12 1098.87 2757
1660.71 1098.87 2757
1667.3 1098.87 2757
1671.47 1097.28 2753
1678.05 1097.28 2753
1684.63 1097.28 2753
1691.22 1097.28 2753
1697.8 1097.28 2753
1704.38 1097.28 2753
1710.97 1097.28 2753
1706.38 1077.75 2704
1712.85 1077.75 2704
1719.31 1077.75 2704
1734.07 1082.93 2717
1748.9 1088.11 2730
1755.43 1088.11 2730
1776.8 1097.28 2753
1783.38 1097.28 2753
1789.97 1097.28 2753
1796.55 1097.28 2753
1803.13 1097.28 2753
1794.6 1088.11 2730
1801.13 1088.11 2730
1775.87 1068.98 2682
-1852.44 1018.06 2539
-1846.37 1018.06 2539
-1840.3 1018.06 2539
-1829.17 1015.26 2532
-1811.59 1008.84 2516
-1805.58 1008.84 2516
-1799.56 1008.84 2516
-1785.7 1004.43 2505
-1779.71 1004.43 2505
-1776.55 1006.03 2509
-1772.67 1007.24 2512
-1766.66 1007.24 2512
-1760.66 1007.24 2512
-1742.08 1000.02 2494
-1736.11 1000.02 2494
-1730.15 1000.02 2494
-1718.65 996.811 2486
-1593.87 1019.67 2543
-1587.79 1019.67 2543
-1599.12 1030.89 2571
-1599.79 1035.3 2582
-1601.02 1040.12 2594
-1594.82 1040.12 2594
-1594.13 1043.72 2603
-1587.91 1043.72 2603
-1581.68 1043.72 2603
-1575.46 1043.72 2603
-1569.23 1043.72 2603
-1555.2 1038.51 2590
-1549.01 1038.51 2590
-1542.81 1038.51 2590
-1536.62 1038.51 2590
-1334.3 1035.3 2582
-1328.12 1035.3 2582
-1330.65 1042.12 2599
-1324.44 1042.12 2599
-1318.22 1042.12 2599
-1312.01 1042.12 2599
-1305.79 1042.12 2599
-1299.58 1042.12 2599
-1290.87 1040.12 2594
-1289.13 1043.72 2603
-1296.7 1054.95 2631
-1290.41 1054.95 2631
-1300.71 1068.59 2665
-1302.6 1075.4 2682
-1296.18 1075.4 2682
-1289.77 1075.4 2682
-1248.26 1056.56 2635
-1244.32 1058.56 2640
-1238.01 1058.56 2640
-1267.62 1089.44 2717
-1265.3 1093.04 2726
-1258.78 1093.04 2726
-1252.26 1093.04 2726
-1245.74 1093.04 2726
-1239.22 1093.04 2726
-1134.58 1006.03 2509
-1128.58 1006.03 2509
-1123.92 1007.24 2512
-1117.91 1007.24 2512
-1111.91 1007.24 2512
-1105.9 1007.24 2512
-1090.26 998.415 2490
-1084.3 998.415 2490
-1078.35 998.415 2490
-1064.21 990.797 2471
-1060.02 992.401 2475
-1054.1 992.401 2475
-1051.57 995.609 2483
-1045.63 995.609 2483
-1039.69 995.609 2483
-1012.52 975.159 2432
-962.111 1040.12 2594
-955.908 1040.12 2594
-955.929 1046.93 2611
-949.685 1046.93 2611
-943.442 1046.93 2611
-934.326 1043.72 2603
-928.102 1043.72 2603
-921.877 1043.72 2603
-914.246 1042.12 2599
-906.284 1040.12 2594
-900.081 1040.12 2594
-899.736 1046.93 2611
-893.492 1046.93 2611
-894.045 1054.95 2631
-889.103 1056.56 2635
-884.477 1058.56 2640
-878.164 1058.56 2640
-877.135 1064.98 2656
-873.734 1068.59 2665
-867.361 1068.59 2665
-860.988 1068.59 2665
-854.616 1068.59 2665
-840.286 1058.56 2640
-833.972 1058.56 2640
-821.076 1050.14 2619
-814.813 1050.14 2619
-808.55 1050.14 2619
-802.287 1050.14 2619
-793.593 1046.93 2611
-786.143 1045.33 2607
-777.516 1042.12 2599
-771.301 1042.12 2599
-763.614 1040.12 2594
-757.411 1040.12 2594
-751.208 1040.12 2594
-745.005 1040.12 2594
-737.662 1038.51 2590
-731.469 1038.51 2590
-724.155 1036.91 2586
-717.971 1036.91 2586
-710.687 1035.3 2582
-704.512 1035.3 2582
-699.42 1036.91 2586
-694.308 1038.51 2590
-689.177 1040.12 2594
-682.974 1040.12 2594
-678.076 1042.12 2599
-672.895 1043.72 2603
-667.695 1045.33 2607
-661.461 1045.33 2607
-656.232 1046.93 2611
-650.984 1048.54 2615
-646.703 1051.74 2623
-640.431 1051.74 2623
-634.158 1051.74 2623
-626.928 1050.14 2619
-620.665 1050.14 2619
-613.464 1048.54 2615
-609.069 1051.74 2623
-603.716 1053.35 2627
-597.434 1053.35 2627
-591.152 1053.35 2627
-585.76 1054.95 2631
-579.469 1054.95 2631
-573.177 1054.95 2631
-566.886 1054.95 2631
-560.594 1054.95 2631
-555.145 1056.56 2635
-548.844 1056.56 2635
-542.543 1056.56 2635
-538.888 1061.77 2648
-533.36 1063.37 2652
-527.018 1063.37 2652
-520.676 1063.37 2652
-514.335 1063.37 2652
-507.993 1063.37 2652
-502.408 1064.98 2656
-496.057 1064.98 2656
-490.627 1066.98 2661
-484.264 1066.98 2661
-477.901 1066.98 2661
-471.537 1066.98 2661
-465.174 1066.98 2661
-458.811 1066.98 2661
-452.448 1066.98 2661
-446.084 1066.98 2661
-440.382 1068.59 2665
-434.661 1070.19 2669
-428.92 1071.79 2673
-422.528 1071.79 2673
-416.136 1071.79 2673
-409.744 1071.79 2673
-402.749 1070.19 2669
-396.366 1070.19 2669
-389.4 1068.59 2665
-381.158 1063.37 2652
-374.251 1061.77 2648
-367.919 1061.77 2648
-361.587 1061.77 2648
-355.255 1061.77 2648
-348.395 1060.16 2644
-342.073 1060.16 2644
-335.242 1058.56 2640
-327.31 1053.35 2627
-321.028 1053.35 2627
-315.704 1056.56 2635
-309.403 1056.56 2635
-304.137 1060.16 2644
-298.716 1063.37 2652
-292.815 1064.98 2656
-286.464 1064.98 2656
-280.64 1066.98 2661
-274.689 1068.59 2665
-269.625 1073.8 2678
-263.221 1073.8 2678
-256.817 1073.8 2678
-249.945 1071.79 2673
-243.554 1071.79 2673
-237.162 1071.79 2673
-230.079 1068.59 2665
-222.951 1064.98 2656
-216.599 1064.98 2656
-209.931 1063.37 2652
-203.59 1063.37 2652
-197.248 1063.37 2652
-190.906 1063.37 2652
-184.564 1063.37 2652
-178.223 1063.37 2652
-171.881 1063.37 2652
-165.04 1060.16 2644
-158.717 1060.16 2644
-150.262 1045.33 2607
-143.586 1042.12 2599
-93.2084 913.811 2279
-87.7586 913.811 2279
-82.3088 913.811 2279
-76.6567 911.405 2273
-70.9393 907.796 2264
-65.5254 907.796 2264
-59.9256 904.989 2257
-54.3835 902.583 2251
-48.9353 901.381 2248
-43.4434 898.975 2242
-38.0821 898.975 2242
-32.7208 898.975 2242
-27.3595 898.975 2242
-21.9982 898.975 2242
-16.6369 898.975 2242
-11.2756 898.975 2242
-5.93806 902.583 2251
-0.555975 903.786 2254
4.84046 904.989 2257
10.2376 904.989 2257
15.6625 906.593 2261
21.0692 906.593 2261
26.5111 907.796 2264
31.925 907.796 2264
37.3389 907.796 2264
42.8661 910.202 2270
48.4221 912.608 2276
53.8647 912.608 2276
59.3854 913.811 2279
64.9206 915.014 2282
70.3775 915.014 2282
75.8345 915.014 2282
81.2914 915.014 2282
86.8624 916.216 2285
92.3265 916.216 2285
97.7907 916.216 2285
103.255 916.216 2285
108.719 916.216 2285
114.183 916.216 2285
119.647 916.216 2285
125.111 916.216 2285
130.575 916.216 2285
136.218 917.419 2288
141.937 919.023 2292
147.418 919.023 2292
153.299 921.429 2298
159.416 925.038 2307
165.433 927.845 2314
170.967 927.845 2314
176.958 930.25 2320
183.057 933.057 2327
191.539 947.492 2363
197.19 947.492 2363
202.841 947.492 2363
229.314 1042.12 2599
235.529 1042.12 2599
244.72 1054.95 2631
251.012 1054.95 2631
257.694 1056.56 2635
263.996 1056.56 2635
271.22 1060.16 2644
280.587 1071.79 2673
290.307 1084.22 2704
296.773 1084.22 2704
304.697 1089.44 2717
311.652 1091.04 2721
318.744 1093.04 2726
325.262 1093.04 2726
332.268 1094.65 2730
338.796 1094.65 2730
345.324 1094.65 2730
351.853 1094.65 2730
358.381 1094.65 2730
364.909 1094.65 2730
372.118 1096.65 2735
379.904 1100.26 2744
386.466 1100.26 2744
393.027 1100.26 2744
399.589 1100.26 2744
406.151 1100.26 2744
412.713 1100.26 2744
417.899 1096.65 2735
423.663 1094.65 2730
430.192 1094.65 2730
435.28 1091.04 2721
440.488 1087.83 2713
445.493 1084.22 2704
451.959 1084.22 2704
456.221 1079.01 2691
461.109 1075.4 2682
465.953 1071.79 2673
472.345 1071.79 2673
478.021 1070.19 2669
484.403 1070.19 2669
490.05 1068.59 2665
496.423 1068.59 2665
502.796 1068.59 2665
507.449 1064.98 2656
512.253 1061.77 2648
517.801 1060.16 2644
525.71 1063.37 2652
532.052 1063.37 2652
539.205 1064.98 2656
545.557 1064.98 2656
551.908 1064.98 2656
558.259 1064.98 2656
563.76 1063.37 2652
566.448 1056.56 2635
572.749 1056.56 2635
578.171 1054.95 2631
584.462 1054.95 2631
590.754 1054.95 2631
597.045 1054.95 2631
602.42 1053.35 2627
608.701 1053.35 2627
612.174 1048.54 2615
618.427 1048.54 2615
625.636 1050.14 2619
631.899 1050.14 2619
641.086 1054.95 2631
647.377 1054.95 2631
653.669 1054.95 2631
658.957 1053.35 2627
665.239 1053.35 2627
672.544 1054.95 2631
684.253 1063.37 2652
690.595 1063.37 2652
699.302 1066.98 2661
710.173 1073.8 2678
723.534 1084.22 2704
730 1084.22 2704
738.918 1087.83 2713
745.405 1087.83 2713
751.893 1087.83 2713
756.983 1085.83 2708
763.459 1085.83 2708
769.934 1085.83 2708
776.41 1085.83 2708
782.886 1085.83 2708
785.572 1080.61 2695
789.371 1077.01 2686
795.794 1077.01 2686
802.217 1077.01 2686
803.523 1070.19 2669
809.905 1070.19 2669
812.311 1064.98 2656
818.663 1064.98 2656
825.014 1064.98 2656
827.609 1060.16 2644
832.67 1058.56 2640
838.983 1058.56 2640
845.296 1058.56 2640
846.125 1051.74 2623
852.398 1051.74 2623
865.545 1060.16 2644
871.867 1060.16 2644
879.519 1061.77 2648
888.527 1064.98 2656
894.878 1064.98 2656
901.23 1064.98 2656
909.289 1066.98 2661
931.825 1085.83 2708
938.301 1085.83 2708
944.777 1085.83 2708
946.686 1080.61 2695
960.911 1089.44 2717
975.242 1098.26 2739
981.791 1098.26 2739
988.341 1098.26 2739
994.891 1098.26 2739
1001.44 1098.26 2739
1009.83 1100.26 2744
1016.39 1100.26 2744
1022.95 1100.26 2744
1029.52 1100.26 2744
1036.08 1100.26 2744
1037.32 1094.65 2730
1040.41 1091.04 2721
1041.91 1085.83 2708
1048.39 1085.83 2708
1049.8 1080.61 2695
1056.24 1080.61 2695
1062.69 1080.61 2695
1069.13 1080.61 2695
1075.58 1080.61 2695
1073.19 1071.79 2673
1079.58 1071.79 2673
1085.97 1071.79 2673
1092.36 1071.79 2673
1090.12 1063.37 2652
1091.5 1058.56 2640
1097.82 1058.56 2640
1104.13 1058.56 2640
1110.44 1058.56 2640
1114.64 1056.56 2635
1114.14 1050.14 2619
1120.4 1050.14 2619
1126.66 1050.14 2619
1132.92 1050.14 2619
1139.19 1050.14 2619
1148.95 1053.35 2627
1155.23 1053.35 2627
1161.51 1053.35 2627
1164.24 1050.14 2619
1170.5 1050.14 2619
1176.76 1050.14 2619
1183.03 1050.14 2619
1191.11 1051.74 2623
1205.14 1058.56 2640
1216.96 1063.37 2652
1223.3 1063.37 2652
1241.7 1073.8 2678
1257.89 1082.22 2699
1274.65 1091.04 2721
1281.16 1091.04 2721
1294.29 1096.65 2735
1302.73 1098.26 2739
1317.88 1105.47 2757
1324.48 1105.47 2757
1335.9 1109.48 2767
1344.46 1111.09 2771
1351.08 1111.09 2771
1357.71 1111.09 2771
1364.33 1111.09 2771
1368.98 1109.48 2767
1375.6 1109.48 2767
1379.72 1107.48 2762
1386.32 1107.48 2762
1392.93 1107.48 2762
1399.53 1107.48 2762
1408.68 1109.48 2767
1415.3 1109.48 2767
1421.92 1109.48 2767
1425.95 1107.48 2762
1432.56 1107.48 2762
1429.78 1100.26 2744
1438.44 1101.87 2748
1445.01 1101.87 2748
1461.62 1109.48 2767
1468.23 1109.48 2767
1474.85 1109.48 2767
1478.79 1107.48 2762
1485.39 1107.48 2762
1492 1107.48 2762
1488.84 1100.26 2744
1485.59 1093.04 2726
1492.11 1093.04 2726
1493.68 1089.44 2717
1500.18 1089.44 2717
1506.67 1089.44 2717
1515.4 1091.04 2721
1521.91 1091.04 2721
1528.41 1091.04 2721
1534.92 1091.04 2721
1541.43 1091.04 2721
1566.14 1103.87 2753
1572.72 1103.87 2753
1579.3 1103.87 2753
1585.89 1103.87 2753
1592.47 1103.87 2753
1599.05 1103.87 2753
1584.64 1089.44 2717
1568.3 1073.8 2678
1574.7 1073.8 2678
1575.79 1070.19 2669
1577.43 1066.98 2661
1619.51 1091.04 2721
1647.53 1105.47 2757
1654.12 1105.47 2757
1660.71 1105.47 2757
1667.3 1105.47 2757
1671.47 1103.87 2753
1678.05 1103.87 2753
1684.63 1103.87 2753
1691.22 1103.87 2753
1697.8 1103.87 2753
1704.38 1103.87 2753
1710.97 1103.87 2753
1641.45 1046.93 2611
1706.38 1084.22 2704
1712.85 1084.22 2704
1719.31 1084.22 2704
1734.07 1089.44 2717
1748.9 1094.65 2730
1755.43 1094.65 2730
1776.8 1103.87 2753
1783.38 1103.87 2753
1789.97 1103.87 2753
1796.55 1103.87 2753
1803.13 1103.87 2753
1794.6 1094.65 2730
1801.13 1094.65 2730
1775.87 1075.4 2682
1759.69 1061.77 2648
-1859.44 1021.32 2532
-1853.39 1021.32 2532
-1852.44 1024.15 2539
-1846.37 1024.15 2539
-1840.3 1024.15 2539
-1829.17 1021.32 2532
-1820.23 1019.71 2528
-1802.71 1013.25 2512
-1796.7 1013.25 2512
-1785.7 1010.43 2505
-1779.71 1010.43 2505
-1776.55 1012.04 2509
-1772.67 1013.25 2512
-1766.66 1013.25 2512
-1760.66 1013.25 2512
-1742.08 1005.99 2494
-1733.33 1004.38 2490
-1727.37 1004.38 2490
-1718.65 1002.77 2486
-1593.87 1025.76 2543
-1587.79 1025.76 2543
-1594.15 1033.83 2563
-1592.98 1037.05 2571
-1598.56 1044.72 2590
-1592.36 1044.72 2590
-1586.17 1044.72 2590
-1579.97 1044.72 2590
-1573.78 1044.72 2590
-1567.59 1044.72 2590
-1545.12 1033.83 2563
-1534.18 1030.6 2555
-1528.08 1030.6 2555
-1521.97 1030.6 2555
-1515.86 1030.6 2555
-1330.16 1038.26 2574
-1324.01 1038.26 2574
-1330.65 1048.35 2599
-1324.44 1048.35 2599
-1318.22 1048.35 2599
-1312.01 1048.35 2599
-1305.79 1048.35 2599
-1299.58 1048.35 2599
-1290.87 1046.33 2594
-1289.13 1049.96 2603
-1296.7 1061.25 2631
-1290.41 1061.25 2631
-1300.71 1074.97 2665
-1302.6 1081.83 2682
-1296.18 1081.83 2682
-1289.77 1081.83 2682
-1248.26 1062.87 2635
-1244.32 1064.89 2640
-1238.01 1064.89 2640
-1267.62 1095.94 2717
-1265.3 1099.57 2726
-1258.78 1099.57 2726
-1252.26 1099.57 2726
-1245.74 1099.57 2726
-1239.22 1099.57 2726
-1134.58 1012.04 2509
-1128.58 1012.04 2509
-1123.92 1013.25 2512
-1117.91 1013.25 2512
-1111.91 1013.25 2512
-1105.9 1013.25 2512
-1088.51 1002.77 2486
-1077.77 998.33 2475
-1071.85 998.33 2475
-1062.92 995.506 2468
-1055.31 993.893 2464
-1049.41 993.893 2464
-1045.22 995.506 2468
-1039.31 995.506 2468
-1033.41 995.506 2468
-1012.52 980.985 2432
-962.111 1046.33 2594
-955.908 1046.33 2594
-955.929 1053.19 2611
-949.685 1053.19 2611
-943.442 1053.19 2611
-934.326 1049.96 2603
-928.102 1049.96 2603
-921.877 1049.96 2603
-912.487 1046.33 2594
-904.886 1044.72 2590
-900.081 1046.33 2594
-899.736 1053.19 2611
-893.492 1053.19 2611
-888.608 1054.8 2615
-887.753 1061.25 2631
-882.802 1062.87 2635
-876.501 1062.87 2635
-871.851 1064.89 2640
-870.783 1071.34 2656
-864.432 1071.34 2656
-858.081 1071.34 2656
-851.729 1071.34 2656
-840.286 1064.89 2640
-833.972 1064.89 2640
-821.076 1056.41 2619
-814.813 1056.41 2619
-808.55 1056.41 2619
-802.287 1056.41 2619
-793.593 1053.19 2611
-786.143 1051.57 2607
-777.516 1048.35 2599
-771.301 1048.35 2599
-763.614 1046.33 2594
-757.411 1046.33 2594
-751.208 1046.33 2594
-745.005 1046.33 2594
-737.662 1044.72 2590
-731.469 1044.72 2590
-724.155 1043.1 2586
-717.971 1043.1 2586
-710.687 1041.49 2582
-704.512 1041.49 2582
-699.42 1043.1 2586
-694.308 1044.72 2590
-689.177 1046.33 2594
-682.974 1046.33 2594
-678.076 1048.35 2599
-672.895 1049.96 2603
-667.695 1051.57 2607
-661.461 1051.57 2607
-656.232 1053.19 2611
-650.984 1054.8 2615
-646.703 1058.03 2623
-640.431 1058.03 2623
-634.158 1058.03 2623
-626.928 1056.41 2619
-620.665 1056.41 2619
-613.464 1054.8 2615
-609.069 1058.03 2623
-603.716 1059.64 2627
-597.434 1059.64 2627
-591.152 1059.64 2627
-585.76 1061.25 2631
-579.469 1061.25 2631
-573.177 1061.25 2631
-566.886 1061.25 2631
-560.594 1061.25 2631
-555.145 1062.87 2635
-548.844 1062.87 2635
-542.543 1062.87 2635
-538.888 1068.11 2648
-533.36 1069.73 2652
-527.018 1069.73 2652
-520.676 1069.73 2652
-514.335 1069.73 2652
-507.993 1069.73 2652
-502.408 1071.34 2656
-496.057 1071.34 2656
-490.627 1073.36 2661
-484.264 1073.36 2661
-477.901 1073.36 2661
-471.537 1073.36 2661
-465.174 1073.36 2661
-458.811 1073.36 2661
-452.448 1073.36 2661
-446.084 1073.36 2661
-440.382 1074.97 2665
-434.661 1076.58 2669
-428.92 1078.2 2673
-422.528 1078.2 2673
-416.136 1078.2 2673
-409.744 1078.2 2673
-402.749 1076.58 2669
-396.366 1076.58 2669
-389.4 1074.97 2665
-381.158 1069.73 2652
-374.251 1068.11 2648
-367.919 1068.11 2648
-361.587 1068.11 2648
-355.255 1068.11 2648
-348.395 1066.5 2644
-342.073 1066.5 2644
-335.242 1064.89 2640
-327.31 1059.64 2627
-321.028 1059.64 2627
-315.704 1062.87 2635
-309.403 1062.87 2635
-304.137 1066.5 2644
-298.716 1069.73 2652
-292.815 1071.34 2656
-286.464 1071.34 2656
-280.64 1073.36 2661
-274.689 1074.97 2665
-269.625 1080.21 2678
-263.221 1080.21 2678
-256.817 1080.21 2678
-249.945 1078.2 2673
-243.554 1078.2 2673
-237.162 1078.2 2673
-230.079 1074.97 2665
-222.951 1071.34 2656
-216.599 1071.34 2656
-209.931 1069.73 2652
-203.59 1069.73 2652
-197.545 1071.34 2656
-191.194 1071.34 2656
-184.843 1071.34 2656
-178.492 1071.34 2656
-172.14 1071.34 2656
-165.04 1066.5 2644
-158.717 1066.5 2644
-150.262 1051.57 2607
-143.586 1048.35 2599
-93.2084 919.27 2279
-87.7586 919.27 2279
-82.3088 919.27 2279
-76.6567 916.85 2273
-70.9393 913.22 2264
-65.5254 913.22 2264
-59.9256 910.396 2257
-54.311 906.766 2248
-48.8047 904.345 2242
-43.3853 903.135 2239
-38.0312 903.135 2239
-32.6333 901.925 2236
-27.2863 901.925 2236
-21.9099 900.715 2233
-16.5924 901.925 2236
-11.2454 901.925 2236
-5.91432 904.345 2242
-0.553755 905.556 2245
4.82759 907.976 2251
