92.2741 -330.752 2042
97.1571 -330.752 2042
101.54 -329.132 2032
105.876 -327.513 2022
110.711 -327.513 2022
115.546 -327.513 2022
120.382 -327.513 2022
125.217 -327.513 2022
130.374 -328.322 2027
135.221 -328.322 2027
140.413 -329.132 2032
146.131 -331.076 2044
151.609 -332.372 2052
156.516 -332.372 2052
162.839 -335.287 2070
168.195 -336.097 2075
173.991 -337.717 2085
178.977 -337.717 2085
184.492 -338.689 2091
189.946 -339.499 2096
195.702 -340.794 2104
200.733 -340.794 2104
206.253 -341.604 2109
211.597 -342.09 2112
217.673 -343.71 2122
222.748 -343.71 2122
228.466 -344.682 2128
233.884 -345.168 2131
239.204 -345.492 2133
244.305 -345.492 2133
249.406 -345.492 2133
254.268 -345.168 2131
259.364 -345.168 2131
463.337 -582.299 3595
474.034 -584.89 3611
482.669 -584.89 3611
491.304 -584.89 3611
498.831 -583.594 3603
507.447 -583.594 3603
516.063 -583.594 3603
523.514 -582.299 3595
533.295 -583.594 3603
543.114 -584.89 3611
551.749 -584.89 3611
560.384 -584.89 3611
567.758 -583.594 3603
575.094 -582.299 3595
587.588 -586.186 3619
596.242 -586.186 3619
606.233 -587.482 3627
616.263 -588.778 3635
624.955 -588.778 3635
633.648 -588.778 3635
642.34 -588.778 3635
655.152 -592.503 3658
663.899 -592.503 3658
674.301 -593.961 3667
683.07 -593.961 3667
693.349 -595.257 3675
705.194 -597.848 3691
721.951 -604.489 3732
730.876 -604.489 3732
741.386 -605.785 3740
752.135 -607.243 3749
768.002 -612.75 3783
777.049 -612.75 3783
787.965 -614.208 3792
802.498 -618.419 3818
811.628 -618.419 3818
820.758 -618.419 3818
829.888 -618.419 3818
839.018 -618.419 3818
848.148 -618.419 3818
857.278 -618.419 3818
866.408 -618.419 3818
875.538 -618.419 3818
884.668 -618.419 3818
891.691 -616.961 3809
900.799 -616.961 3809
907.758 -615.503 3800
916.845 -615.503 3800
921.789 -612.75 3783
926.653 -609.996 3766
933.422 -608.538 3757
934.129 -603.193 3724
943.034 -603.193 3724
947.594 -600.44 3707
954.394 -599.144 3699
961.156 -597.848 3691
969.983 -597.848 3691
974.566 -595.257 3675
981.213 -593.961 3667
989.982 -593.961 3667
998.751 -593.961 3667
1005.05 -592.503 3658
1011.58 -591.207 3650
1018.07 -589.911 3642
1026.78 -589.911 3642
1033.5 -588.778 3635
1039.9 -587.482 3627
1046.26 -586.186 3619
1059.57 -588.778 3635
1068.27 -588.778 3635
1076.96 -588.778 3635
1085.65 -588.778 3635
1094.34 -588.778 3635
1103.04 -588.778 3635
1111.73 -588.778 3635
1120.42 -588.778 3635
1129.11 -588.778 3635
1137.81 -588.778 3635
1146.5 -588.778 3635
1157.42 -589.911 3642
1168.69 -591.207 3650
1177.41 -591.207 3650
1186.14 -591.207 3650
1200.44 -593.961 3667
1209.2 -593.961 3667
1217.97 -593.961 3667
1226.74 -593.961 3667
1235.51 -593.961 3667
1238.51 -591.207 3650
1247.24 -591.207 3650
1255.97 -591.207 3650
1264.7 -591.207 3650
1273.43 -591.207 3650
1279.34 -589.911 3642
1288.05 -589.911 3642
1294.27 -588.778 3635
1302.96 -588.778 3635
1311.65 -588.778 3635
1320.35 -588.778 3635
1329.04 -588.778 3635
1337.73 -588.778 3635
1346.42 -588.778 3635
1355.12 -588.778 3635
1360.81 -587.482 3627
1369.48 -587.482 3627
1378.15 -587.482 3627
1386.83 -587.482 3627
1395.5 -587.482 3627
1401.08 -586.186 3619
1409.73 -586.186 3619
1418.38 -586.186 3619
1427.04 -586.186 3619
1432.52 -584.89 3611
1437.96 -583.594 3603
1443.36 -582.299 3595
1458.42 -584.89 3611
1467.06 -584.89 3611
1475.69 -584.89 3611
1487.62 -586.186 3619
1496.27 -586.186 3619
1504.93 -586.186 3619
1510.23 -584.89 3611
1515.5 -583.594 3603
1524.12 -583.594 3603
1519.55 -578.573 3572
1521.67 -576.144 3557
1491.89 -561.728 3468
1500.18 -561.728 3468
-2835.5 -626.348 3925
-2826.11 -626.348 3925
-2816.73 -626.348 3925
-2775.16 -619.167 3880
-2733.8 -611.986 3835
-2762.99 -620.603 3889
-2753.69 -620.603 3889
-2744.39 -620.603 3889
-2735.09 -620.603 3889
-2732.1 -622.039 3898
-2722.78 -622.039 3898
-2719.72 -623.475 3907
-2710.38 -623.475 3907
-2701.04 -623.475 3907
-2673.09 -619.167 3880
-2621.25 -609.273 3818
-2582.02 -602.251 3774
-2572.99 -602.251 3774
-2563.97 -602.251 3774
-2549.53 -600.975 3766
-2540.52 -600.975 3766
-2536.89 -602.251 3774
-2527.87 -602.251 3774
-2548.21 -609.273 3818
-2539.08 -609.273 3818
-2529.95 -609.273 3818
-2520.82 -609.273 3818
-2522.87 -611.986 3835
-2513.7 -611.986 3835
-2504.53 -611.986 3835
-1549.9 -600.975 3766
-1540.89 -600.975 3766
-1531.89 -600.975 3766
-1512.37 -596.826 3740
-1507.04 -598.262 3749
-1501.28 -599.539 3757
-1492.29 -599.539 3757
-1483.31 -599.539 3757
-1474.32 -599.539 3757
-1465.34 -599.539 3757
-1433.87 -590.283 3699
-1428.11 -591.56 3707
-1419.24 -591.56 3707
-1410.38 -591.56 3707
-1401.51 -591.56 3707
-1389.64 -590.283 3699
-1362.51 -582.464 3650
-1353.78 -582.464 3650
-1348 -583.74 3658
-1339.25 -583.74 3658
-1330.51 -583.74 3658
-1321.76 -583.74 3658
-1313.01 -583.74 3658
-1304.26 -583.74 3658
-1304.37 -587.73 3683
-1298.38 -589.006 3691
-1289.55 -589.006 3691
-1280.72 -589.006 3691
-1271.9 -589.006 3691
-1260.33 -587.73 3683
-1251.53 -587.73 3683
-1242.72 -587.73 3683
-1228.55 -585.176 3667
-1219.78 -585.176 3667
-1211.01 -585.176 3667
-1191.75 -580.07 3635
-1183.06 -580.07 3635
-1174.37 -580.07 3635
-1165.68 -580.07 3635
-304.191 -506.185 3172
-296.606 -506.185 3172
-289.021 -506.185 3172
-281.968 -507.142 3178
-274.886 -508.1 3184
-268.783 -510.972 3202
-261.126 -510.972 3202
-253.469 -510.972 3202
-246.734 -512.887 3214
-239.568 -514.004 3221
-231.866 -514.004 3221
-224.164 -514.004 3221
-216.865 -514.962 3227
-209.148 -514.962 3227
-201.431 -514.962 3227
-193.354 -514.004 3221
-185.248 -512.887 3214
-177.231 -511.93 3208
-169.56 -511.93 3208
-161.889 -511.93 3208
-153.929 -510.972 3202
-145.45 -508.1 3184
-137.836 -508.1 3184
-87.1554 -340.063 2131
-82.0595 -340.063 2131
-76.9636 -340.063 2131
-71.7666 -339.584 2128
-66.6779 -339.584 2128
-61.5892 -339.584 2128
-56.5005 -339.584 2128
-51.4118 -339.584 2128
-46.3231 -339.584 2128
-41.2344 -339.584 2128
-36.1457 -339.584 2128
-31.0571 -339.584 2128
-25.9318 -339.105 2125
-20.8208 -338.627 2122
-15.7316 -338.308 2120
-10.662 -338.308 2120
-5.58457 -337.829 2117
-0.521442 -337.35 2114
4.52948 -337.031 2112
9.57992 -337.031 2112
14.6303 -337.031 2112
19.6528 -336.552 2109
24.661 -336.074 2106
29.697 -336.074 2106
34.7001 -335.754 2104
39.6181 -334.797 2098
44.5925 -334.478 2096
49.6047 -334.478 2096
54.5387 -333.999 2093
59.4015 -333.201 2088
63.9936 -331.127 2075
68.9555 -331.127 2075
73.8106 -330.648 2072
78.1952 -328.254 2057
82.7908 -326.978 2049
87.3911 -325.86 2042
92.2741 -325.86 2042
97.1571 -325.86 2042
101.54 -324.265 2032
105.876 -322.669 2022
110.711 -322.669 2022
115.546 -322.669 2022
120.382 -322.669 2022
125.217 -322.669 2022
130.567 -323.945 2030
135.421 -323.945 2030
140.413 -324.265 2032
146.131 -326.18 2044
151.609 -327.456 2052
156.516 -327.456 2052
162.839 -330.329 2070
168.195 -331.127 2075
173.991 -332.722 2085
178.977 -332.722 2085
184.933 -334.478 2096
189.946 -334.478 2096
195.888 -336.074 2106
200.924 -336.074 2106
206.547 -337.031 2112
211.597 -337.031 2112
217.673 -338.627 2122
222.748 -338.627 2122
228.788 -340.063 2131
234.104 -340.382 2133
239.541 -340.861 2136
244.649 -340.861 2136
250.107 -341.34 2139
255.222 -341.34 2139
260.337 -341.34 2139
463.337 -573.687 3595
474.034 -576.24 3611
482.669 -576.24 3611
491.304 -576.24 3611
498.831 -574.963 3603
507.447 -574.963 3603
516.063 -574.963 3603
523.514 -573.687 3595
533.295 -574.963 3603
543.114 -576.24 3611
551.749 -576.24 3611
560.384 -576.24 3611
567.758 -574.963 3603
575.094 -573.687 3595
587.588 -577.517 3619
596.242 -577.517 3619
606.233 -578.793 3627
616.263 -580.07 3635
624.955 -580.07 3635
633.648 -580.07 3635
642.34 -580.07 3635
655.152 -583.74 3658
665.533 -585.176 3667
674.301 -585.176 3667
683.07 -585.176 3667
693.349 -586.453 3675
705.194 -589.006 3691
721.951 -595.549 3732
730.876 -595.549 3732
741.386 -596.826 3740
752.135 -598.262 3749
768.002 -603.688 3783
777.049 -603.688 3783
787.965 -605.124 3792
802.498 -609.273 3818
811.628 -609.273 3818
820.758 -609.273 3818
829.888 -609.273 3818
839.018 -609.273 3818
848.148 -609.273 3818
857.278 -609.273 3818
866.408 -609.273 3818
875.538 -609.273 3818
884.668 -609.273 3818
891.691 -607.837 3809
900.799 -607.837 3809
907.758 -606.4 3800
916.845 -606.4 3800
921.789 -603.688 3783
926.653 -600.975 3766
933.422 -599.539 3757
934.129 -594.272 3724
943.034 -594.272 3724
947.594 -591.56 3707
954.394 -590.283 3699
961.156 -589.006 3691
969.983 -589.006 3691
974.566 -586.453 3675
981.213 -585.176 3667
989.982 -585.176 3667
998.751 -585.176 3667
1005.05 -583.74 3658
1011.58 -582.464 3650
1018.07 -581.187 3642
1026.78 -581.187 3642
1033.5 -580.07 3635
1039.9 -578.793 3627
1048.57 -578.793 3627
1059.57 -580.07 3635
1068.27 -580.07 3635
1076.96 -580.07 3635
1085.65 -580.07 3635
1094.34 -580.07 3635
1105.16 -581.187 3642
1113.87 -581.187 3642
1122.58 -581.187 3642
1131.29 -581.187 3642
1140 -581.187 3642
1146.5 -580.07 3635
1157.42 -581.187 3642
1168.69 -582.464 3650
1177.41 -582.464 3650
1186.14 -582.464 3650
1200.44 -585.176 3667
1209.2 -585.176 3667
1217.97 -585.176 3667
1226.74 -585.176 3667
1235.51 -585.176 3667
1238.51 -582.464 3650
1247.24 -582.464 3650
1255.97 -582.464 3650
1264.7 -582.464 3650
1273.43 -582.464 3650
1279.34 -581.187 3642
1288.05 -581.187 3642
1294.27 -580.07 3635
1302.96 -580.07 3635
1311.65 -580.07 3635
1320.35 -580.07 3635
1329.04 -580.07 3635
1337.73 -580.07 3635
1346.42 -580.07 3635
1355.12 -580.07 3635
1360.81 -578.793 3627
1369.48 -578.793 3627
1378.15 -578.793 3627
1386.83 -578.793 3627
1395.5 -578.793 3627
1401.08 -577.517 3619
1409.73 -577.517 3619
1418.38 -577.517 3619
1427.04 -577.517 3619
1432.52 -576.24 3611
1437.96 -574.963 3603
1443.36 -573.687 3595
1458.42 -576.24 3611
1467.06 -576.24 3611
1475.69 -576.24 3611
1487.62 -577.517 3619
1496.27 -577.517 3619
1504.93 -577.517 3619
1510.23 -576.24 3611
1515.5 -574.963 3603
1524.12 -574.963 3603
1522.95 -571.293 3580
1525.09 -568.899 3565
1498.34 -555.814 3483
1506.67 -555.814 3483
-2802.99 -609.872 3880
-2793.71 -609.872 3880
-2784.43 -609.872 3880
-2768.72 -608.458 3871
-2733.8 -602.799 3835
-2762.99 -611.287 3889
-2753.69 -611.287 3889
-2744.39 -611.287 3889
-2735.09 -611.287 3889
-2732.1 -612.701 3898
-2722.78 -612.701 3898
-2713.46 -612.701 3898
-2704.14 -612.701 3898
-2694.82 -612.701 3898
-2630.38 -600.127 3818
-2591.04 -593.211 3774
-2570.39 -590.539 3757
-2561.4 -590.539 3757
-2552.42 -590.539 3757
-2543.43 -590.539 3757
-2534.45 -590.539 3757
-2525.47 -590.539 3757
-2505.1 -587.867 3740
-2518.84 -593.211 3774
-2539.08 -600.127 3818
-2529.95 -600.127 3818
-2520.82 -600.127 3818
-2511.69 -600.127 3818
-2496.66 -598.712 3809
-2487.55 -598.712 3809
-1539.2 -587.867 3740
-1530.26 -587.867 3740
-1521.31 -587.867 3740
-1512.37 -587.867 3740
-1507.04 -589.281 3749
-1501.28 -590.539 3757
-1492.29 -590.539 3757
-1483.31 -590.539 3757
-1474.32 -590.539 3757
-1465.34 -590.539 3757
-1433.87 -581.422 3699
-1428.11 -582.679 3707
-1419.24 -582.679 3707
-1410.38 -582.679 3707
-1401.51 -582.679 3707
-1389.64 -581.422 3699
-1362.51 -573.72 3650
-1353.78 -573.72 3650
-1348 -574.977 3658
-1339.25 -574.977 3658
-1330.51 -574.977 3658
-1321.76 -574.977 3658
-1313.01 -574.977 3658
-1304.26 -574.977 3658
-1304.37 -578.907 3683
-1295.56 -578.907 3683
-1289.55 -580.164 3691
-1280.72 -580.164 3691
-1271.9 -580.164 3691
-1254.86 -576.392 3667
-1246.09 -576.392 3667
-1237.32 -576.392 3667
-1222.86 -573.72 3650
-1211.47 -572.463 3642
-1202.76 -572.463 3642
-1189.13 -570.105 3627
-1167.76 -563.975 3588
-304.191 -498.586 3172
-296.606 -498.586 3172
-289.021 -498.586 3172
-281.968 -499.529 3178
-274.886 -500.472 3184
-267.272 -500.472 3184
-259.658 -500.472 3184
-252.994 -502.359 3196
-246.734 -505.188 3214
-239.568 -506.288 3221
-231.866 -506.288 3221
-224.164 -506.288 3221
-216.865 -507.231 3227
-209.148 -507.231 3227
-201.431 -507.231 3227
-193.354 -506.288 3221
-185.248 -505.188 3214
-177.231 -504.245 3208
-169.56 -504.245 3208
-161.889 -504.245 3208
-153.929 -503.302 3202
-145.45 -500.472 3184
-137.836 -500.472 3184
-81.8285 -334.015 2125
-76.7469 -334.015 2125
-71.6654 -334.015 2125
-66.5839 -334.015 2125
-61.5892 -334.487 2128
-56.5005 -334.487 2128
-51.4118 -334.487 2128
-46.3231 -334.487 2128
-41.2344 -334.487 2128
-36.1457 -334.487 2128
-31.0133 -334.015 2125
-25.8951 -333.544 2122
-20.8012 -333.229 2120
-15.7316 -333.229 2120
-10.662 -333.229 2120
-5.57666 -332.286 2114
-0.520949 -331.972 2112
4.52948 -331.972 2112
9.57992 -331.972 2112
14.6096 -331.5 2109
19.6249 -331.029 2106
24.661 -331.029 2106
29.697 -331.029 2106
34.6507 -330.243 2101
39.6181 -329.771 2098
44.5925 -329.457 2096
49.6047 -329.457 2096
54.5387 -328.985 2093
59.4015 -328.199 2088
63.9936 -326.156 2075
68.9555 -326.156 2075
73.8106 -325.684 2072
78.1952 -323.327 2057
82.7908 -322.069 2049
87.3911 -320.969 2042
92.2741 -320.969 2042
97.0144 -320.497 2039
101.54 -319.397 2032
105.876 -317.825 2022
110.711 -317.825 2022
115.546 -317.825 2022
120.382 -317.825 2022
125.217 -317.825 2022
130.567 -319.083 2030
135.421 -319.083 2030
140.413 -319.397 2032
146.131 -321.283 2044
151.609 -322.541 2052
156.516 -322.541 2052
162.839 -325.37 2070
168.195 -326.156 2075
173.991 -327.728 2085
178.977 -327.728 2085
184.933 -329.457 2096
189.946 -329.457 2096
195.888 -331.029 2106
200.924 -331.029 2106
206.547 -331.972 2112
211.597 -331.972 2112
217.673 -333.544 2122
222.748 -333.544 2122
228.788 -334.958 2131
234.104 -335.273 2133
239.541 -335.744 2136
244.649 -335.744 2136
250.107 -336.216 2139
255.222 -336.216 2139
260.337 -336.216 2139
463.337 -565.075 3595
472.984 -566.332 3603
481.6 -566.332 3603
490.216 -566.332 3603
498.831 -566.332 3603
506.321 -565.075 3595
514.917 -565.075 3595
523.514 -565.075 3595
532.111 -565.075 3595
541.911 -566.332 3603
550.527 -566.332 3603
559.143 -566.332 3603
566.498 -565.075 3595
575.094 -565.075 3595
587.588 -568.847 3619
596.242 -568.847 3619
606.233 -570.105 3627
616.263 -571.362 3635
624.955 -571.362 3635
633.648 -571.362 3635
642.34 -571.362 3635
655.152 -574.977 3658
665.533 -576.392 3667
674.301 -576.392 3667
683.07 -576.392 3667
693.349 -577.65 3675
705.194 -580.164 3691
720.404 -585.352 3724
729.309 -585.352 3724
741.386 -587.867 3740
752.135 -589.281 3749
766.175 -593.211 3774
775.2 -593.211 3774
787.965 -596.04 3792
800.606 -598.712 3809
809.715 -598.712 3809
818.823 -598.712 3809
827.932 -598.712 3809
837.04 -598.712 3809
846.148 -598.712 3809
855.257 -598.712 3809
864.365 -598.712 3809
873.474 -598.712 3809
882.582 -598.712 3809
889.584 -597.297 3800
898.671 -597.297 3800
905.847 -596.04 3792
914.915 -596.04 3792
919.596 -593.211 3774
924.438 -590.539 3757
929.199 -587.867 3740
932.122 -584.094 3716
941.008 -584.094 3716
945.549 -581.422 3699
952.33 -580.164 3691
959.073 -578.907 3683
967.88 -578.907 3683
972.444 -576.392 3667
978.805 -574.977 3658
985.393 -573.72 3650
994.121 -573.72 3650
1002.85 -573.72 3650
1009.36 -572.463 3642
1016.11 -571.362 3635
1024.81 -571.362 3635
1033.5 -571.362 3635
1039.9 -570.105 3627
1048.57 -570.105 3627
1059.57 -571.362 3635
1068.27 -571.362 3635
1076.96 -571.362 3635
1085.65 -571.362 3635
1094.34 -571.362 3635
1105.16 -572.463 3642
1113.87 -572.463 3642
1122.58 -572.463 3642
1131.29 -572.463 3642
1140 -572.463 3642
1146.5 -571.362 3635
1157.42 -572.463 3642
1166.12 -572.463 3642
1174.83 -572.463 3642
1183.54 -572.463 3642
1197.49 -574.977 3658
1209.2 -576.392 3667
1217.97 -576.392 3667
1226.74 -576.392 3667
1232.48 -574.977 3658
1238.51 -573.72 3650
1247.24 -573.72 3650
1255.97 -573.72 3650
1264.7 -573.72 3650
1273.43 -573.72 3650
1279.34 -572.463 3642
1288.05 -572.463 3642
1294.27 -571.362 3635
1302.96 -571.362 3635
1311.65 -571.362 3635
1320.35 -571.362 3635
1329.04 -571.362 3635
1337.73 -571.362 3635
1346.42 -571.362 3635
1355.12 -571.362 3635
1360.81 -570.105 3627
1369.48 -570.105 3627
1378.15 -570.105 3627
1386.83 -570.105 3627
1395.5 -570.105 3627
1401.08 -568.847 3619
1409.73 -568.847 3619
1418.38 -568.847 3619
1427.04 -568.847 3619
1432.52 -567.59 3611
1437.96 -566.332 3603
1440.55 -563.975 3588
1458.42 -567.59 3611
1467.06 -567.59 3611
1475.69 -567.59 3611
1484.33 -567.59 3611
1492.96 -567.59 3611
1501.6 -567.59 3611
1510.23 -567.59 3611
1512.14 -565.075 3595
1520.74 -565.075 3595
1522.95 -562.717 3580
1525.09 -560.359 3565
1498.34 -547.47 3483
1506.67 -547.47 3483
-2796.49 -599.185 3871
-2787.23 -599.185 3871
-2777.98 -599.185 3871
-2762.28 -597.791 3862
-2733.8 -593.612 3835
-2724.63 -593.612 3835
-2715.46 -593.612 3835
-2725.34 -597.791 3862
-2716.1 -597.791 3862
-2706.87 -597.791 3862
-2697.63 -597.791 3862
-2688.4 -597.791 3862
-2648.64 -590.981 3818
-2639.51 -590.981 3818
-2630.38 -590.981 3818
-2579.37 -581.539 3757
-2547.81 -576.431 3724
-2538.9 -576.431 3724
-2530 -576.431 3724
-2531.93 -578.907 3740
-2522.98 -578.907 3740
-2514.04 -578.907 3740
-2505.1 -578.907 3740
-2490.81 -577.669 3732
-2481.89 -577.669 3732
-2518.02 -588.195 3800
-2508.94 -588.195 3800
-2499.85 -588.195 3800
-2451.43 -578.907 3740
-2442.49 -578.907 3740
-1535.91 -577.669 3732
-1526.98 -577.669 3732
-1518.06 -577.669 3732
-1509.13 -577.669 3732
-1507.04 -580.3 3749
-1501.28 -581.539 3757
-1492.29 -581.539 3757
-1483.31 -581.539 3757
-1474.32 -581.539 3757
-1465.34 -581.539 3757
-1433.87 -572.561 3699
-1428.11 -573.799 3707
-1422.69 -575.192 3716
-1413.8 -575.192 3716
-1404.92 -575.192 3716
-1389.64 -572.561 3699
-1362.51 -564.976 3650
-1353.78 -564.976 3650
-1348 -566.215 3658
-1342.55 -567.608 3667
-1333.78 -567.608 3667
-1325.01 -567.608 3667
-1316.24 -567.608 3667
-1307.47 -567.608 3667
-1292.68 -564.976 3650
-1295.56 -570.084 3683
-1286.76 -570.084 3683
-1277.95 -570.084 3683
-1266.38 -568.846 3675
-1251.78 -566.215 3658
-1243.03 -566.215 3658
-1231.58 -564.976 3650
-1222.86 -564.976 3650
-1211.47 -563.738 3642
-1202.76 -563.738 3642
-1181.26 -557.701 3603
-1167.76 -555.38 3588
-312.956 -492.845 3184
-305.342 -492.845 3184
-297.728 -492.845 3184
-289.021 -490.988 3172
-281.435 -490.988 3172
-274.368 -491.916 3178
-267.272 -492.845 3184
-259.658 -492.845 3184
-252.519 -493.774 3190
-245.352 -494.703 3196
-238.602 -496.56 3208
-231.866 -498.572 3221
-224.164 -498.572 3221
-216.461 -498.572 3221
-208.759 -498.572 3221
-201.057 -498.572 3221
-192.934 -497.489 3214
-184.557 -495.631 3202
-176.9 -495.631 3202
-169.243 -495.631 3202
-161.586 -495.631 3202
-153.64 -494.703 3196
-145.45 -492.845 3184
-137.836 -492.845 3184
-81.8285 -328.925 2125
-76.7469 -328.925 2125
-71.6654 -328.925 2125
-66.5839 -328.925 2125
-61.5892 -329.389 2128
-56.5005 -329.389 2128
-51.4118 -329.389 2128
-46.3231 -329.389 2128
-41.2344 -329.389 2128
-36.1457 -329.389 2128
-31.0133 -328.925 2125
-25.8951 -328.46 2122
-20.8012 -328.151 2120
-15.7316 -328.151 2120
-10.662 -328.151 2120
-5.57666 -327.222 2114
-0.520949 -326.912 2112
4.52948 -326.912 2112
9.57992 -326.912 2112
14.6096 -326.448 2109
19.6528 -326.448 2109
24.661 -325.984 2106
29.697 -325.984 2106
34.7001 -325.674 2104
39.6181 -324.745 2098
44.6351 -324.745 2098
49.652 -324.745 2098
54.6169 -324.436 2096
59.4015 -323.197 2088
64.0861 -321.65 2078
69.0552 -321.65 2078
73.8106 -320.721 2072
78.1952 -318.399 2057
82.71 -316.851 2047
87.3911 -316.077 2042
92.2741 -316.077 2042
96.9192 -315.303 2037
101.54 -314.529 2032
105.876 -312.981 2022
110.711 -312.981 2022
115.546 -312.981 2022
120.382 -312.981 2022
125.217 -312.981 2022
130.567 -314.22 2030
135.421 -314.22 2030
140.413 -314.529 2032
146.131 -316.387 2044
151.609 -317.625 2052
156.516 -317.625 2052
162.839 -320.411 2070
168.195 -321.185 2075
173.991 -322.733 2085
178.977 -322.733 2085
184.933 -324.436 2096
189.946 -324.436 2096
195.888 -325.984 2106
200.924 -325.984 2106
206.547 -326.912 2112
211.597 -326.912 2112
217.981 -328.925 2125
223.063 -328.925 2125
229.003 -330.163 2133
234.433 -330.627 2136
240.214 -331.556 2142
245.336 -331.556 2142
250.458 -331.556 2142
255.222 -331.092 2139
260.337 -331.092 2139
464.368 -557.701 3603
474.034 -558.94 3611
482.669 -558.94 3611
491.304 -558.94 3611
499.939 -558.94 3611
507.447 -557.701 3603
516.063 -557.701 3603
523.514 -556.463 3595
532.111 -556.463 3595
541.911 -557.701 3603
550.527 -557.701 3603
559.143 -557.701 3603
566.498 -556.463 3595
575.094 -556.463 3595
588.887 -561.416 3627
597.56 -561.416 3627
606.233 -561.416 3627
616.263 -562.655 3635
624.955 -562.655 3635
633.648 -562.655 3635
642.34 -562.655 3635
655.152 -566.215 3658
665.533 -567.608 3667
674.301 -567.608 3667
683.07 -567.608 3667
693.349 -568.846 3675
705.194 -571.323 3691
715.567 -572.561 3699
724.413 -572.561 3699
738.214 -576.431 3724
750.329 -578.907 3740
761.1 -580.3 3749
770.065 -580.3 3749
787.965 -586.956 3792
798.714 -588.195 3800
809.715 -589.588 3809
818.823 -589.588 3809
827.932 -589.588 3809
835.062 -588.195 3800
844.149 -588.195 3800
853.236 -588.195 3800
862.323 -588.195 3800
869.576 -586.956 3792
878.643 -586.956 3792
885.604 -585.563 3783
894.651 -585.563 3783
901.547 -584.17 3774
910.572 -584.17 3774
915.454 -581.539 3757
920.255 -578.907 3740
925.224 -576.431 3724
927.858 -572.561 3699
936.703 -572.561 3699
943.504 -571.323 3691
952.33 -571.323 3691
959.073 -570.084 3683
967.88 -570.084 3683
970.058 -566.215 3658
976.664 -564.976 3650
985.393 -564.976 3650
994.121 -564.976 3650
1002.85 -564.976 3650
1009.36 -563.738 3642
1016.11 -562.655 3635
1024.81 -562.655 3635
1033.5 -562.655 3635
1039.9 -561.416 3627
1048.57 -561.416 3627
1059.57 -562.655 3635
1068.27 -562.655 3635
1076.96 -562.655 3635
1085.65 -562.655 3635
1094.34 -562.655 3635
1105.16 -563.738 3642
1113.87 -563.738 3642
1122.58 -563.738 3642
1131.29 -563.738 3642
1140 -563.738 3642
1146.5 -562.655 3635
1157.42 -563.738 3642
1166.12 -563.738 3642
1174.83 -563.738 3642
1183.54 -563.738 3642
1194.87 -564.976 3650
1206.24 -566.215 3658
1214.98 -566.215 3658
1223.73 -566.215 3658
1232.48 -566.215 3658
1235.8 -563.738 3642
1244.51 -563.738 3642
1253.22 -563.738 3642
1261.92 -563.738 3642
1270.63 -563.738 3642
1276.88 -562.655 3635
1285.58 -562.655 3635
1294.27 -562.655 3635
1300.09 -561.416 3627
1308.77 -561.416 3627
1320.35 -562.655 3635
1329.04 -562.655 3635
1337.73 -562.655 3635
1346.42 -562.655 3635
1355.12 -562.655 3635
1360.81 -561.416 3627
1369.48 -561.416 3627
1378.15 -561.416 3627
1386.83 -561.416 3627
1392.42 -560.178 3619
1401.08 -560.178 3619
1409.73 -560.178 3619
1418.38 -560.178 3619
1423.88 -558.94 3611
1429.34 -557.701 3603
1434.77 -556.463 3595
1440.55 -555.38 3588
1455.19 -557.701 3603
1463.81 -557.701 3603
1475.69 -558.94 3611
1484.33 -558.94 3611
1492.96 -558.94 3611
1501.6 -558.94 3611
1506.89 -557.701 3603
1512.14 -556.463 3595
1520.74 -556.463 3595
1522.95 -554.141 3580
1525.09 -551.819 3565
1504.37 -541.294 3497
1512.73 -541.294 3497
-2776.98 -585.797 3844
-2767.79 -585.797 3844
-2758.6 -585.797 3844
-2742.97 -584.425 3835
-2721.68 -581.835 3818
-2712.55 -581.835 3818
-2697.05 -580.463 3809
-2687.94 -580.463 3809
-2678.83 -580.463 3809
-2669.72 -580.463 3809
-2654.33 -579.092 3800
-2645.24 -579.092 3800
-2636.15 -579.092 3800
-2627.07 -579.092 3800
-2600.07 -575.129 3774
-2551.22 -566.291 3716
-2530.71 -563.7 3699
-2521.86 -563.7 3699
-2502.14 -561.262 3683
-2482.51 -558.823 3667
-2473.74 -558.823 3667
-2464.97 -558.823 3667
-2456.2 -558.823 3667
-2480.13 -566.291 3716
-2481.89 -568.729 3732
-2478.26 -569.948 3740
-2469.32 -569.948 3740
-2460.38 -569.948 3740
-2451.43 -569.948 3740
-2442.49 -569.948 3740
-1523.71 -567.51 3724
-1514.8 -567.51 3724
-1505.9 -567.51 3724
-1500.21 -568.729 3732
-1504.87 -573.91 3766
-1495.87 -573.91 3766
-1486.86 -573.91 3766
-1477.86 -573.91 3766
-1468.85 -573.91 3766
-1433.87 -563.7 3699
-1437.74 -568.729 3732
-1428.82 -568.729 3732
-1419.89 -568.729 3732
-1410.97 -568.729 3732
-1392.65 -564.919 3707
-1368.85 -558.823 3667
-1360.09 -558.823 3667
-1348 -557.452 3658
-1342.55 -558.823 3667
-1333.78 -558.823 3667
-1325.01 -558.823 3667
-1316.24 -558.823 3667
-1307.47 -558.823 3667
-1292.68 -556.233 3650
-1292.75 -560.043 3675
-1283.96 -560.043 3675
-1275.17 -560.043 3675
-1266.38 -560.043 3675
-1251.78 -557.452 3658
-1243.03 -557.452 3658
-1231.58 -556.233 3650
-1222.86 -556.233 3650
-1211.47 -555.014 3642
-1202.76 -555.014 3642
-1181.26 -549.07 3603
-1167.76 -546.784 3588
-312.956 -485.218 3184
-305.342 -485.218 3184
-297.728 -485.218 3184
-288.474 -482.475 3166
-280.903 -482.475 3166
-273.85 -483.389 3172
-267.272 -485.218 3184
-259.658 -485.218 3184
-252.044 -485.218 3184
-245.352 -487.047 3196
-237.709 -487.047 3196
-230.93 -488.875 3208
-223.259 -488.875 3208
-215.588 -488.875 3208
-207.916 -488.875 3208
-200.245 -488.875 3208
-192.214 -487.961 3202
-184.211 -487.047 3196
-176.568 -487.047 3196
-168.926 -487.047 3196
-161.283 -487.047 3196
-153.352 -486.132 3190
-145.45 -485.218 3184
-137.836 -485.218 3184
-81.7129 -323.377 2122
-76.7469 -323.834 2125
-71.6654 -323.834 2125
-66.5839 -323.834 2125
-61.5892 -324.291 2128
-56.5005 -324.291 2128
-51.4118 -324.291 2128
-46.3231 -324.291 2128
-41.2344 -324.291 2128
-36.1457 -324.291 2128
-31.0133 -323.834 2125
-25.8951 -323.377 2122
-20.8208 -323.377 2122
-15.7316 -323.072 2120
-10.662 -323.072 2120
-5.57666 -322.158 2114
-0.521442 -322.158 2114
4.52948 -321.853 2112
9.57992 -321.853 2112
14.6096 -321.396 2109
19.6528 -321.396 2109
24.661 -320.939 2106
29.697 -320.939 2106
34.7001 -320.634 2104
39.6748 -320.177 2101
44.6351 -319.72 2098
49.652 -319.72 2098
54.6169 -319.415 2096
59.4015 -318.196 2088
64.0861 -316.672 2078
69.0552 -316.672 2078
73.8106 -315.757 2072
78.1952 -313.471 2057
82.71 -311.948 2047
87.3911 -311.186 2042
92.2741 -311.186 2042
96.9192 -310.424 2037
101.54 -309.662 2032
105.876 -308.138 2022
110.711 -308.138 2022
115.432 -307.833 2020
120.263 -307.833 2020
125.217 -308.138 2022
130.374 -308.9 2027
135.221 -308.9 2027
140.413 -309.662 2032
146.131 -311.49 2044
151.609 -312.709 2052
156.516 -312.709 2052
162.603 -314.995 2067
168.195 -316.215 2075
173.991 -317.738 2085
178.977 -317.738 2085
184.669 -318.958 2093
189.946 -319.415 2096
195.888 -320.939 2106
200.924 -320.939 2106
206.547 -321.853 2112
211.798 -322.158 2114
217.981 -323.834 2125
223.063 -323.834 2125
229.003 -325.053 2133
234.762 -325.968 2139
240.214 -326.425 2142
245.336 -326.425 2142
250.458 -326.425 2142
255.222 -325.968 2139
260.337 -325.968 2139
446.143 -547.851 3595
454.74 -547.851 3595
465.399 -550.289 3611
474.034 -550.289 3611
482.669 -550.289 3611
491.304 -550.289 3611
499.939 -550.289 3611
507.447 -549.07 3603
516.063 -549.07 3603
524.679 -549.07 3603
533.295 -549.07 3603
541.911 -549.07 3603
550.527 -549.07 3603
559.143 -549.07 3603
567.758 -549.07 3603
576.374 -549.07 3603
588.887 -552.728 3627
597.56 -552.728 3627
606.233 -552.728 3627
614.907 -552.728 3627
624.955 -553.947 3635
633.648 -553.947 3635
642.34 -553.947 3635
653.719 -556.233 3650
663.899 -557.452 3658
672.646 -557.452 3658
681.394 -557.452 3658
690.141 -557.452 3658
702.137 -560.043 3675
712.472 -561.262 3683
721.279 -561.262 3683
733.258 -563.7 3699
747.119 -567.51 3724
757.649 -568.729 3732
766.573 -568.729 3732
782.562 -573.91 3766
791.568 -573.91 3766
802.274 -575.129 3774
811.299 -575.129 3774
820.324 -575.129 3774
827.591 -573.91 3766
836.596 -573.91 3766
845.602 -573.91 3766
854.608 -573.91 3766
861.549 -572.539 3757
870.534 -572.539 3757
877.645 -571.32 3749
886.61 -571.32 3749
893.425 -569.948 3740
902.368 -569.948 3740
911.312 -569.948 3740
916.318 -567.51 3724
923.236 -566.291 3716
927.858 -563.7 3699
936.703 -563.7 3699
941.459 -561.262 3683
950.266 -561.262 3683
954.906 -558.823 3667
963.675 -558.823 3667
970.058 -557.452 3658
976.664 -556.233 3650
985.393 -556.233 3650
994.121 -556.233 3650
1000.65 -555.014 3642
1009.36 -555.014 3642
1013.88 -552.728 3627
1022.55 -552.728 3627
1031.22 -552.728 3627
1039.9 -552.728 3627
1048.57 -552.728 3627
1059.57 -553.947 3635
1068.27 -553.947 3635
1076.96 -553.947 3635
1085.65 -553.947 3635
1094.34 -553.947 3635
1105.16 -555.014 3642
1113.87 -555.014 3642
1122.58 -555.014 3642
1131.29 -555.014 3642
1140 -555.014 3642
1146.5 -553.947 3635
1157.42 -555.014 3642
1166.12 -555.014 3642
1174.83 -555.014 3642
1183.54 -555.014 3642
1192.25 -555.014 3642
1203.6 -556.233 3650
1212.33 -556.233 3650
1221.06 -556.233 3650
1227.09 -555.014 3642
1233.42 -553.947 3635
1244.51 -555.014 3642
1253.22 -555.014 3642
1261.92 -555.014 3642
1268.19 -553.947 3635
1276.88 -553.947 3635
1285.58 -553.947 3635
1291.42 -552.728 3627
1300.09 -552.728 3627
1308.77 -552.728 3627
1317.44 -552.728 3627
1326.11 -552.728 3627
1334.79 -552.728 3627
1343.46 -552.728 3627
1352.13 -552.728 3627
1360.81 -552.728 3627
1366.46 -551.509 3619
1375.11 -551.509 3619
1383.77 -551.509 3619
1392.42 -551.509 3619
1401.08 -551.509 3619
1406.61 -550.289 3611
1415.25 -550.289 3611
1423.88 -550.289 3611
1429.34 -549.07 3603
1434.77 -547.851 3595
1440.55 -546.784 3588
1455.19 -549.07 3603
1463.81 -549.07 3603
1472.42 -549.07 3603
1481.04 -549.07 3603
1489.66 -549.07 3603
1498.27 -549.07 3603
1503.54 -547.851 3595
1512.14 -547.851 3595
1520.74 -547.851 3595
1526.35 -546.784 3588
1531.51 -545.565 3580
1523.73 -539.774 3542
1532.2 -539.774 3542
1521.09 -532.917 3497
-2776.98 -576.589 3844
-2767.79 -576.589 3844
-2758.6 -576.589 3844
-2742.97 -575.239 3835
-2721.68 -572.689 3818
-2712.55 -572.689 3818
-2697.05 -571.339 3809
-2687.94 -571.339 3809
-2678.83 -571.339 3809
-2669.72 -571.339 3809
-2654.33 -569.989 3800
-2645.24 -569.989 3800
-2636.15 -569.989 3800
-2627.07 -569.989 3800
-2600.07 -566.089 3774
-2551.22 -557.389 3716
-2530.71 -554.839 3699
-2521.86 -554.839 3699
-2502.14 -552.439 3683
-2482.51 -550.039 3667
-2473.74 -550.039 3667
-2464.97 -550.039 3667
-2456.2 -550.039 3667
-2480.13 -557.389 3716
-2481.89 -559.789 3732
-2478.26 -560.989 3740
-2469.32 -560.989 3740
-2460.38 -560.989 3740
-2451.43 -560.989 3740
-2442.49 -560.989 3740
-1512.45 -551.239 3675
-1523.71 -558.589 3724
-1514.8 -558.589 3724
-1505.9 -558.589 3724
-1500.21 -559.789 3732
-1504.87 -564.889 3766
-1495.87 -564.889 3766
-1486.86 -564.889 3766
-1477.86 -564.889 3766
-1468.85 -564.889 3766
-1433.87 -554.839 3699
-1437.74 -559.789 3732
-1428.82 -559.789 3732
-1419.89 -559.789 3732
-1410.97 -559.789 3732
-1392.65 -556.039 3707
-1368.85 -550.039 3667
-1360.09 -550.039 3667
-1348 -548.689 3658
-1342.55 -550.039 3667
-1333.78 -550.039 3667
-1325.01 -550.039 3667
-1316.24 -550.039 3667
-1307.47 -550.039 3667
-1295.52 -548.689 3658
-1292.75 -551.239 3675
-1283.96 -551.239 3675
-1275.17 -551.239 3675
-1266.38 -551.239 3675
-1257.6 -551.239 3675
-1248.81 -551.239 3675
-1237.32 -550.039 3667
-1225.54 -548.689 3658
-1216.79 -548.689 3658
-1208.04 -548.689 3658
-1183.89 -541.639 3611
-1172.65 -540.439 3603
-312.956 -477.591 3184
-305.342 -477.591 3184
-297.728 -477.591 3184
-288.474 -474.891 3166
-280.903 -474.891 3166
-273.85 -475.791 3172
-267.272 -477.591 3184
-259.658 -477.591 3184
-252.044 -477.591 3184
-245.352 -479.391 3196
-237.709 -479.391 3196
-230.93 -481.19 3208
-223.259 -481.19 3208
-215.588 -481.19 3208
-207.916 -481.19 3208
-200.245 -481.19 3208
-192.214 -480.29 3202
-184.211 -479.391 3196
-176.568 -479.391 3196
-168.926 -479.391 3196
-161.283 -479.391 3196
-153.352 -478.491 3190
-145.724 -478.491 3190
-138.095 -478.491 3190
-129.976 -476.691 3178
-81.7129 -318.294 2122
-76.7469 -318.744 2125
-71.6654 -318.744 2125
-66.5839 -318.744 2125
-61.5892 -319.194 2128
-56.5005 -319.194 2128
-51.4118 -319.194 2128
-46.3231 -319.194 2128
-41.2344 -319.194 2128
-36.1457 -319.194 2128
-31.0133 -318.744 2125
-25.8951 -318.294 2122
-20.8208 -318.294 2122
-15.7316 -317.994 2120
-10.662 -317.994 2120
-5.57666 -317.094 2114
-0.521442 -317.094 2114
4.52948 -316.794 2112
9.57992 -316.794 2112
14.6096 -316.344 2109
19.6528 -316.344 2109
24.661 -315.894 2106
29.697 -315.894 2106
34.7001 -315.594 2104
39.6748 -315.144 2101
44.6351 -314.694 2098
49.652 -314.694 2098
54.6169 -314.394 2096
59.4015 -313.194 2088
64.0861 -311.694 2078
69.0552 -311.694 2078
73.8106 -310.794 2072
78.1952 -308.544 2057
82.71 -307.044 2047
87.3911 -306.294 2042
92.2741 -306.294 2042
96.9192 -305.544 2037
101.54 -304.794 2032
105.876 -303.294 2022
110.711 -303.294 2022
115.432 -302.994 2020
120.263 -302.994 2020
125.217 -303.294 2022
130.374 -304.044 2027
135.221 -304.044 2027
140.413 -304.794 2032
146.131 -306.594 2044
151.609 -307.794 2052
156.516 -307.794 2052
162.603 -310.044 2067
168.195 -311.244 2075
173.991 -312.744 2085
178.977 -312.744 2085
184.669 -313.944 2093
190.127 -314.694 2098
195.888 -315.894 2106
200.924 -315.894 2106
206.547 -316.794 2112
211.798 -317.094 2114
217.981 -318.744 2125
223.063 -318.744 2125
229.003 -319.944 2133
234.762 -320.844 2139
240.214 -321.294 2142
245.336 -321.294 2142
250.458 -321.294 2142
255.222 -320.844 2139
260.337 -320.844 2139
448.129 -541.639 3611
456.764 -541.639 3611
465.399 -541.639 3611
474.034 -541.639 3611
482.669 -541.639 3611
491.304 -541.639 3611
499.939 -541.639 3611
507.447 -540.439 3603
516.063 -540.439 3603
524.679 -540.439 3603
533.295 -540.439 3603
541.911 -540.439 3603
550.527 -540.439 3603
559.143 -540.439 3603
567.758 -540.439 3603
576.374 -540.439 3603
588.887 -544.039 3627
597.56 -544.039 3627
606.233 -544.039 3627
614.907 -544.039 3627
624.955 -545.239 3635
634.868 -546.289 3642
643.577 -546.289 3642
653.719 -547.489 3650
663.899 -548.689 3658
672.646 -548.689 3658
681.394 -548.689 3658
690.141 -548.689 3658
702.137 -551.239 3675
712.472 -552.439 3683
721.279 -552.439 3683
733.258 -554.839 3699
747.119 -558.589 3724
757.649 -559.789 3732
766.573 -559.789 3732
782.562 -564.889 3766
791.568 -564.889 3766
802.274 -566.089 3774
811.299 -566.089 3774
820.324 -566.089 3774
827.591 -564.889 3766
836.596 -564.889 3766
845.602 -564.889 3766
854.608 -564.889 3766
861.549 -563.539 3757
870.534 -563.539 3757
877.645 -562.339 3749
886.61 -562.339 3749
893.425 -560.989 3740
902.368 -560.989 3740
911.312 -560.989 3740
916.318 -558.589 3724
923.236 -557.389 3716
927.858 -554.839 3699
936.703 -554.839 3699
941.459 -552.439 3683
950.266 -552.439 3683
954.906 -550.039 3667
963.675 -550.039 3667
970.058 -548.689 3658
976.664 -547.489 3650
985.393 -547.489 3650
994.121 -547.489 3650
1000.65 -546.289 3642
1009.36 -546.289 3642
1013.88 -544.039 3627
1022.55 -544.039 3627
1031.22 -544.039 3627
1039.9 -544.039 3627
1048.57 -544.039 3627
1059.57 -545.239 3635
1068.27 -545.239 3635
1076.96 -545.239 3635
1085.65 -545.239 3635
1094.34 -545.239 3635
1105.16 -546.289 3642
1113.87 -546.289 3642
1122.58 -546.289 3642
1131.29 -546.289 3642
1140 -546.289 3642
1146.5 -545.239 3635
1157.42 -546.289 3642
1166.12 -546.289 3642
1174.83 -546.289 3642
1183.54 -546.289 3642
1192.25 -546.289 3642
1203.6 -547.489 3650
1212.33 -547.489 3650
1221.06 -547.489 3650
1227.09 -546.289 3642
1233.42 -545.239 3635
1244.51 -546.289 3642
1253.22 -546.289 3642
1261.92 -546.289 3642
1268.19 -545.239 3635
1276.88 -545.239 3635
1285.58 -545.239 3635
1291.42 -544.039 3627
1300.09 -544.039 3627
1308.77 -544.039 3627
1317.44 -544.039 3627
1326.11 -544.039 3627
1334.79 -544.039 3627
1343.46 -544.039 3627
1352.13 -544.039 3627
1360.81 -544.039 3627
1366.46 -542.839 3619
1375.11 -542.839 3619
1383.77 -542.839 3619
1392.42 -542.839 3619
1401.08 -542.839 3619
1406.61 -541.639 3611
1415.25 -541.639 3611
1423.88 -541.639 3611
1429.34 -540.439 3603
1434.77 -539.239 3595
1440.55 -538.189 3588
1455.19 -540.439 3603
1463.81 -540.439 3603
1472.42 -540.439 3603
1481.04 -540.439 3603
1489.66 -540.439 3603
1498.27 -540.439 3603
1506.89 -540.439 3603
1515.5 -540.439 3603
1524.12 -540.439 3603
1529.33 -539.239 3595
1537.93 -539.239 3595
1530.18 -533.539 3557
1538.68 -533.539 3557
1537.19 -530.089 3534
1539.51 -527.99 3520
-2758.2 -563.543 3818
-2749.07 -563.543 3818
-2739.94 -563.543 3818
-2724.37 -562.214 3809
-2708.85 -560.886 3800
-2706.16 -562.214 3809
-2697.05 -562.214 3809
-2687.94 -562.214 3809
-2678.83 -562.214 3809
-2669.72 -562.214 3809
-2648.74 -559.705 3792
-2639.67 -559.705 3792
-2624.36 -558.377 3783
-2615.31 -558.377 3783
-2560.11 -548.487 3716
-2539.55 -545.978 3699
-2525.23 -544.797 3691
-2516.41 -544.797 3691
-2491.27 -541.255 3667
-2471 -538.746 3650
-2462.27 -538.746 3650
-2453.54 -538.746 3650
-2439.45 -537.565 3642
-2436.08 -538.746 3650
-2443.98 -542.436 3675
-2472.96 -550.849 3732
-2464.04 -550.849 3732
-2460.38 -552.03 3740
-2451.43 -552.03 3740
-2442.49 -552.03 3740
-1512.45 -542.436 3675
-1523.71 -549.668 3724
-1514.8 -549.668 3724
-1505.9 -549.668 3724
-1500.21 -550.849 3732
-1504.87 -555.867 3766
-1495.87 -555.867 3766
-1486.86 -555.867 3766
-1477.86 -555.867 3766
-1468.85 -555.867 3766
-1433.87 -545.978 3699
-1437.74 -550.849 3732
-1428.82 -550.849 3732
-1419.89 -550.849 3732
-1410.97 -550.849 3732
-1392.65 -547.159 3707
-1368.85 -541.255 3667
-1360.09 -541.255 3667
-1348 -539.926 3658
-1339.25 -539.926 3658
-1330.51 -539.926 3658
-1321.76 -539.926 3658
-1313.01 -539.926 3658
-1301.41 -538.746 3650
-1295.52 -539.926 3658
-1289.93 -541.255 3667
-1283.96 -542.436 3675
-1275.17 -542.436 3675
-1266.38 -542.436 3675
-1257.6 -542.436 3675
-1248.81 -542.436 3675
-1237.32 -541.255 3667
-1225.54 -539.926 3658
-1216.79 -539.926 3658
-1208.04 -539.926 3658
-1183.89 -532.989 3611
-1172.65 -531.808 3603
-312.956 -469.963 3184
-305.342 -469.963 3184
-297.728 -469.963 3184
-288.474 -467.306 3166
-280.903 -467.306 3166
-273.85 -468.192 3172
-266.769 -469.078 3178
-259.169 -469.078 3178
-251.569 -469.078 3178
-244.891 -470.849 3190
-237.263 -470.849 3190
-230.498 -472.62 3202
-222.841 -472.62 3202
-215.184 -472.62 3202
-207.528 -472.62 3202
-199.871 -472.62 3202
-191.493 -470.849 3190
-184.211 -471.734 3196
-176.568 -471.734 3196
-168.926 -471.734 3196
-161.283 -471.734 3196
-153.352 -470.849 3190
-145.724 -470.849 3190
-138.095 -470.849 3190
-129.976 -469.078 3178
-81.7129 -313.21 2122
-76.7469 -313.653 2125
-71.6654 -313.653 2125
-66.5839 -313.653 2125
-61.5892 -314.096 2128
-56.5005 -314.096 2128
-51.4118 -314.096 2128
-46.3231 -314.096 2128
-41.2344 -314.096 2128
-36.1457 -314.096 2128
-31.0133 -313.653 2125
-25.8951 -313.21 2122
-20.8208 -313.21 2122
-15.7316 -312.915 2120
-10.662 -312.915 2120
-5.57666 -312.03 2114
-0.521442 -312.03 2114
4.52948 -311.734 2112
9.57992 -311.734 2112
14.6096 -311.292 2109
19.6528 -311.292 2109
24.661 -310.849 2106
29.697 -310.849 2106
34.7001 -310.554 2104
39.6748 -310.111 2101
44.6351 -309.668 2098
49.652 -309.668 2098
54.6169 -309.373 2096
59.4015 -308.192 2088
64.0861 -306.716 2078
69.0552 -306.716 2078
73.8106 -305.83 2072
78.1952 -303.616 2057
82.5888 -301.698 2044
87.3911 -301.402 2042
92.2741 -301.402 2042
96.6813 -299.926 2032
101.441 -299.631 2030
105.771 -298.155 2020
110.602 -298.155 2020
115.261 -297.712 2017
120.084 -297.712 2017
125.093 -298.155 2020
130.374 -299.188 2027
135.221 -299.188 2027
140.275 -299.631 2030
145.988 -301.402 2042
151.388 -302.436 2049
156.288 -302.436 2049
162.603 -305.092 2067
168.195 -306.273 2075
173.991 -307.749 2085
178.977 -307.749 2085
184.669 -308.93 2093
190.127 -309.668 2098
195.888 -310.849 2106
200.924 -310.849 2106
206.547 -311.734 2112
211.798 -312.03 2114
217.981 -313.653 2125
223.063 -313.653 2125
229.003 -314.834 2133
234.762 -315.72 2139
239.877 -315.72 2139
244.992 -315.72 2139
250.107 -315.72 2139
448.129 -532.989 3611
456.764 -532.989 3611
465.399 -532.989 3611
474.034 -532.989 3611
482.669 -532.989 3611
491.304 -532.989 3611
499.939 -532.989 3611
507.447 -531.808 3603
516.063 -531.808 3603
524.679 -531.808 3603
533.295 -531.808 3603
541.911 -531.808 3603
550.527 -531.808 3603
559.143 -531.808 3603
567.758 -531.808 3603
576.374 -531.808 3603
588.887 -535.351 3627
597.56 -535.351 3627
606.233 -535.351 3627
614.907 -535.351 3627
624.955 -536.531 3635
634.868 -537.565 3642
643.577 -537.565 3642
653.719 -538.746 3650
663.899 -539.926 3658
672.646 -539.926 3658
681.394 -539.926 3658
690.141 -539.926 3658
702.137 -542.436 3675
710.925 -542.436 3675
719.713 -542.436 3675
731.672 -544.797 3691
742.104 -545.978 3699
756.025 -549.668 3724
764.93 -549.668 3724
777.16 -552.03 3740
787.995 -553.358 3749
796.96 -553.358 3749
805.925 -553.358 3749
814.89 -553.358 3749
827.591 -555.867 3766
836.596 -555.867 3766
845.602 -555.867 3766
854.608 -555.867 3766
861.549 -554.539 3757
870.534 -554.539 3757
875.538 -552.03 3740
884.481 -552.03 3740
891.514 -550.849 3732
900.438 -550.849 3732
907.413 -549.668 3724
914.35 -548.487 3716
921 -547.159 3707
925.851 -544.797 3691
934.677 -544.797 3691
941.459 -543.616 3683
948.202 -542.436 3675
954.906 -541.255 3667
963.675 -541.255 3667
967.936 -538.746 3650
976.664 -538.746 3650
983.233 -537.565 3642
991.942 -537.565 3642
1000.65 -537.565 3642
1009.36 -537.565 3642
1013.88 -535.351 3627
1022.55 -535.351 3627
1031.22 -535.351 3627
1039.9 -535.351 3627
1048.57 -535.351 3627
1059.57 -536.531 3635
1068.27 -536.531 3635
1076.96 -536.531 3635
1085.65 -536.531 3635
1094.34 -536.531 3635
1103.04 -536.531 3635
1111.73 -536.531 3635
1120.42 -536.531 3635
1129.11 -536.531 3635
1137.81 -536.531 3635
1146.5 -536.531 3635
1155.19 -536.531 3635
1163.88 -536.531 3635
1172.58 -536.531 3635
1181.27 -536.531 3635
1192.25 -537.565 3642
1200.96 -537.565 3642
1209.67 -537.565 3642
1218.38 -537.565 3642
1224.73 -536.531 3635
1233.42 -536.531 3635
1242.11 -536.531 3635
1250.81 -536.531 3635
1259.5 -536.531 3635
1268.19 -536.531 3635
1274.07 -535.351 3627
1282.75 -535.351 3627
1291.42 -535.351 3627
1300.09 -535.351 3627
1308.77 -535.351 3627
1317.44 -535.351 3627
1326.11 -535.351 3627
1334.79 -535.351 3627
1343.46 -535.351 3627
1352.13 -535.351 3627
1360.81 -535.351 3627
1366.46 -534.17 3619
1375.11 -534.17 3619
1383.77 -534.17 3619
1392.42 -534.17 3619
1401.08 -534.17 3619
1406.61 -532.989 3611
1415.25 -532.989 3611
1420.73 -531.808 3603
1429.34 -531.808 3603
1434.77 -530.627 3595
1440.55 -529.594 3588
1451.96 -530.627 3595
1460.56 -530.627 3595
1469.15 -530.627 3595
1477.75 -530.627 3595
1486.35 -530.627 3595
1494.95 -530.627 3595
1506.89 -531.808 3603
1515.5 -531.808 3603
1524.12 -531.808 3603
1529.33 -530.627 3595
1537.93 -530.627 3595
1530.18 -525.019 3557
1538.68 -525.019 3557
1537.19 -521.624 3534
1539.51 -519.557 3520
-2773.13 -555.558 3826
-2763.98 -555.558 3826
-2754.83 -555.558 3826
-2739.94 -554.397 3818
-2712.21 -550.621 3792
-2703.15 -550.621 3792
-2699.76 -551.783 3800
-2690.68 -551.783 3800
-2681.59 -551.783 3800
-2666.87 -550.621 3792
-2657.81 -550.621 3792
-2636.17 -548.008 3774
-2627.14 -548.008 3774
-2618.12 -548.008 3774
-2609.09 -548.008 3774
-2553.91 -538.279 3707
-2539.55 -537.117 3699
-2519.76 -534.794 3683
-2510.95 -534.794 3683
-2479.73 -530.002 3650
-2465.58 -528.84 3642
-2452.15 -527.824 3635
-2443.46 -527.824 3635
-2429.41 -526.662 3627
-2420.73 -526.662 3627
-2412.06 -526.662 3627
-2435.19 -533.632 3675
-2426.41 -533.632 3675
-2417.62 -533.632 3675
-2408.83 -533.632 3675
-2400.04 -533.632 3675
-1512.45 -533.632 3675
-1506.93 -534.794 3683
-1498.13 -534.794 3683
-1505.9 -540.747 3724
-1500.21 -541.909 3732
-1498.08 -544.377 3749
-1489.11 -544.377 3749
-1480.15 -544.377 3749
-1467.65 -543.07 3740
-1458.71 -543.07 3740
-1430.77 -535.955 3691
-1434.66 -540.747 3724
-1425.75 -540.747 3724
-1416.85 -540.747 3724
-1407.94 -540.747 3724
-1392.65 -538.279 3707
-1368.85 -532.47 3667
-1360.09 -532.47 3667
-1348 -531.164 3658
-1339.25 -531.164 3658
-1330.51 -531.164 3658
-1321.76 -531.164 3658
-1313.01 -531.164 3658
-1301.41 -530.002 3650
-1295.52 -531.164 3658
-1289.93 -532.47 3667
-1283.96 -533.632 3675
-1275.17 -533.632 3675
-1266.38 -533.632 3675
-1257.6 -533.632 3675
-1248.81 -533.632 3675
-1237.32 -532.47 3667
-1225.54 -531.164 3658
-1216.79 -531.164 3658
-1208.04 -531.164 3658
-1183.89 -524.339 3611
-1172.65 -523.177 3603
-313.545 -463.207 3190
-305.917 -463.207 3190
-298.289 -463.207 3190
-290.661 -463.207 3190
-281.435 -460.593 3172
-274.368 -461.465 3178
-267.272 -462.336 3184
-259.658 -462.336 3184
-252.044 -462.336 3184
-244.891 -463.207 3190
-237.263 -463.207 3190
-230.066 -464.078 3196
-222.424 -464.078 3196
-214.781 -464.078 3196
-206.75 -463.207 3190
-199.122 -463.207 3190
-191.493 -463.207 3190
-184.211 -464.078 3196
-176.568 -464.078 3196
-168.926 -464.078 3196
-161.283 -464.078 3196
-153.352 -463.207 3190
-145.724 -463.207 3190
-138.095 -463.207 3190
-129.976 -461.465 3178
-81.944 -308.998 2128
-76.8553 -308.998 2128
-71.7666 -308.998 2128
-66.6779 -308.998 2128
-61.676 -309.434 2131
-56.5802 -309.434 2131
-51.4843 -309.434 2131
-46.3231 -308.998 2128
-41.2344 -308.998 2128
-36.1457 -308.998 2128
-31.0133 -308.563 2125
-25.8951 -308.127 2122
-20.8208 -308.127 2122
-15.7316 -307.837 2120
-10.662 -307.837 2120
-5.57666 -306.966 2114
-0.521442 -306.966 2114
4.52948 -306.675 2112
9.57992 -306.675 2112
14.6096 -306.239 2109
19.6249 -305.804 2106
24.661 -305.804 2106
29.697 -305.804 2106
34.7331 -305.804 2106
39.7314 -305.513 2104
44.6989 -305.078 2101
49.723 -305.078 2101
54.669 -304.642 2098
59.3161 -302.755 2085
64.0861 -301.738 2078
69.0552 -301.738 2078
73.7394 -300.576 2070
78.1952 -298.689 2057
82.5888 -296.801 2044
87.3911 -296.511 2042
92.2741 -296.511 2042
96.6813 -295.059 2032
101.441 -294.768 2030
105.614 -292.881 2017
110.437 -292.881 2017
115.261 -292.881 2017
120.084 -292.881 2017
125.093 -293.316 2020
130.245 -294.042 2025
135.087 -294.042 2025
140.068 -294.333 2027
145.988 -296.511 2042
151.388 -297.527 2049
156.288 -297.527 2049
162.603 -300.141 2067
168.195 -301.302 2075
173.991 -302.755 2085
178.977 -302.755 2085
184.933 -304.352 2096
190.127 -304.642 2098
195.888 -305.804 2106
200.924 -305.804 2106
206.547 -306.675 2112
212.098 -307.401 2117
217.981 -308.563 2125
223.063 -308.563 2125
229.003 -309.724 2133
234.433 -310.16 2136
239.877 -310.596 2139
244.992 -310.596 2139
250.107 -310.596 2139
448.129 -524.339 3611
456.764 -524.339 3611
465.399 -524.339 3611
474.034 -524.339 3611
482.669 -524.339 3611
491.304 -524.339 3611
498.831 -523.177 3603
507.447 -523.177 3603
516.063 -523.177 3603
523.514 -522.016 3595
532.111 -522.016 3595
541.911 -523.177 3603
550.527 -523.177 3603
559.143 -523.177 3603
567.758 -523.177 3603
576.374 -523.177 3603
588.887 -526.662 3627
597.56 -526.662 3627
606.233 -526.662 3627
616.263 -527.824 3635
624.955 -527.824 3635
634.868 -528.84 3642
643.577 -528.84 3642
653.719 -530.002 3650
662.447 -530.002 3650
672.646 -531.164 3658
681.394 -531.164 3658
691.839 -532.47 3667
702.137 -533.632 3675
712.472 -534.794 3683
721.279 -534.794 3683
734.844 -538.279 3707
745.514 -539.586 3716
757.649 -541.909 3732
766.573 -541.909 3732
780.692 -545.539 3757
791.568 -546.846 3766
800.574 -546.846 3766
809.579 -546.846 3766
818.585 -546.846 3766
827.591 -546.846 3766
836.596 -546.846 3766
845.602 -546.846 3766
854.608 -546.846 3766
861.549 -545.539 3757
870.534 -545.539 3757
877.645 -544.377 3749
886.61 -544.377 3749
891.514 -541.909 3732
900.438 -541.909 3732
907.413 -540.747 3724
912.135 -538.279 3707
921 -538.279 3707
923.844 -534.794 3683
932.651 -534.794 3683
939.414 -533.632 3675
946.138 -532.47 3667
954.906 -532.47 3667
963.675 -532.47 3667
967.936 -530.002 3650
974.524 -528.84 3642
983.233 -528.84 3642
991.942 -528.84 3642
1000.65 -528.84 3642
1005.2 -526.662 3627
1013.88 -526.662 3627
1022.55 -526.662 3627
1031.22 -526.662 3627
1039.9 -526.662 3627
1048.57 -526.662 3627
1059.57 -527.824 3635
1068.27 -527.824 3635
1076.96 -527.824 3635
1085.65 -527.824 3635
1094.34 -527.824 3635
1103.04 -527.824 3635
1111.73 -527.824 3635
1120.42 -527.824 3635
1129.11 -527.824 3635
1137.81 -527.824 3635
1146.5 -527.824 3635
1152.65 -526.662 3627
1161.32 -526.662 3627
1169.99 -526.662 3627
1178.67 -526.662 3627
1187.34 -526.662 3627
1196.01 -526.662 3627
1204.69 -526.662 3627
1213.36 -526.662 3627
1222.03 -526.662 3627
1230.71 -526.662 3627
1239.38 -526.662 3627
1248.05 -526.662 3627
1256.73 -526.662 3627
1265.4 -526.662 3627
1271.26 -525.501 3619
1279.92 -525.501 3619
1288.57 -525.501 3619
1297.23 -525.501 3619
1308.77 -526.662 3627
1317.44 -526.662 3627
1326.11 -526.662 3627
1334.79 -526.662 3627
1343.46 -526.662 3627
1352.13 -526.662 3627
1357.81 -525.501 3619
1366.46 -525.501 3619
1375.11 -525.501 3619
1383.77 -525.501 3619
1392.42 -525.501 3619
1397.98 -524.339 3611
1406.61 -524.339 3611
1415.25 -524.339 3611
1420.73 -523.177 3603
1429.34 -523.177 3603
