-1220.5 1097.59 2298
-1215.01 1097.59 2298
-1204.25 1092.81 2288
-1198.78 1092.81 2288
-1191.74 1091.38 2285
-1186.28 1091.38 2285
-1180.82 1091.38 2285
-1170.72 1087.08 2276
-1165.28 1087.08 2276
-1171.05 1097.59 2298
-1165.55 1097.59 2298
-1161.57 1099.02 2301
-1159.08 1101.88 2307
-1153.57 1101.88 2307
-1148.05 1101.88 2307
-1136.59 1096.15 2295
-1129.62 1094.72 2292
-1124.14 1094.72 2292
-1109.39 1085.64 2273
-1093.27 1075.14 2251
-1086.44 1073.7 2248
-1081.06 1073.7 2248
-1081.9 1079.91 2261
-1076.5 1079.91 2261
-1072.51 1081.35 2264
-1067.1 1081.35 2264
-1061.68 1081.35 2264
-1056.27 1081.35 2264
-1047.61 1078 2257
-1045.44 1081.35 2264
-1040.03 1081.35 2264
-1034.62 1081.35 2264
-1029.2 1081.35 2264
-1023.79 1081.35 2264
-1018.37 1081.35 2264
-997.747 1065.11 2230
-979.509 1051.26 2201
-987.082 1065.11 2230
-984.391 1067.97 2236
-979.044 1067.97 2236
-975.003 1069.41 2239
-976.145 1076.57 2254
-970.755 1076.57 2254
-965.365 1076.57 2254
-959.975 1076.57 2254
-954.585 1076.57 2254
-949.195 1076.57 2254
-938.781 1070.84 2242
-937.167 1075.14 2251
-934.267 1078 2257
-928.87 1078 2257
-923.473 1078 2257
-920.923 1081.35 2264
-916.722 1082.78 2267
-911.301 1082.78 2267
-905.88 1082.78 2267
-902.842 1085.64 2273
-897.407 1085.64 2273
-893.149 1087.08 2276
-887.706 1087.08 2276
-884.589 1089.94 2282
-880.288 1091.38 2285
-875.973 1092.81 2288
-870.501 1092.81 2288
-867.677 1096.15 2295
-864.443 1099.02 2301
-860.06 1100.45 2304
-854.55 1100.45 2304
-849.041 1100.45 2304
-843.531 1100.45 2304
-838.022 1100.45 2304
-832.512 1100.45 2304
-827.003 1100.45 2304
-821.493 1100.45 2304
-815.984 1100.45 2304
-810.474 1100.45 2304
-803.916 1099.02 2301
-798.414 1099.02 2301
-794.979 1101.88 2307
-790.831 1103.79 2311
-785.305 1103.79 2311
-779.779 1103.79 2311
-774.252 1103.79 2311
-768.726 1103.79 2311
-763.2 1103.79 2311
-757.673 1103.79 2311
-752.147 1103.79 2311
-746.621 1103.79 2311
-739.812 1101.88 2307
-734.295 1101.88 2307
-728.778 1101.88 2307
-723.261 1101.88 2307
-717.745 1101.88 2307
-711.302 1100.45 2304
-706.711 1101.88 2307
-703.322 1105.23 2314
-697.789 1105.23 2314
-693.153 1106.66 2317
-689.393 1109.53 2323
-683.838 1109.53 2323
-678.283 1109.53 2323
-673.886 1111.44 2327
-669.183 1112.87 2330
-665.605 1116.21 2337
-660.017 1116.21 2337
-654.428 1116.21 2337
-648.84 1116.21 2337
-643.251 1116.21 2337
-637.663 1116.21 2337
-633.697 1119.08 2343
-628.898 1120.51 2346
-623.288 1120.51 2346
-617.678 1120.51 2346
-612.068 1120.51 2346
-605.683 1119.08 2343
-600.08 1119.08 2343
-592.955 1116.21 2337
-587.366 1116.21 2337
-581.778 1116.21 2337
-576.929 1117.65 2340
-571.333 1117.65 2340
-565.738 1117.65 2340
-560.142 1117.65 2340
-554.546 1117.65 2340
-548.951 1117.65 2340
-543.355 1117.65 2340
-537.76 1117.65 2340
-529.89 1112.87 2330
-524.318 1112.87 2330
-517.188 1109.53 2323
-511.633 1109.53 2323
-505.424 1108.09 2320
-499.876 1108.09 2320
-493.05 1105.23 2314
-487.517 1105.23 2314
-483.233 1108.09 2320
-478.303 1109.53 2323
-472.748 1109.53 2323
-467.193 1109.53 2323
-461.638 1109.53 2323
-456.083 1109.53 2323
-449.364 1106.66 2317
-442.674 1103.79 2311
-437.148 1103.79 2311
-431.622 1103.79 2311
-426.095 1103.79 2311
-420.569 1103.79 2311
-416.659 1108.09 2320
-412.883 1112.87 2330
-407.311 1112.87 2330
-401.74 1112.87 2330
-396.678 1114.3 2333
-391.77 1116.21 2337
-386.181 1116.21 2337
-380.593 1116.21 2337
-375.004 1116.21 2337
-369.416 1116.21 2337
-363.827 1116.21 2337
-357.166 1112.87 2330
-350.538 1109.53 2323
-345.577 1111.44 2327
-340.451 1112.87 2330
-334.879 1112.87 2330
-329.307 1112.87 2330
-323.735 1112.87 2330
-318.164 1112.87 2330
-312.592 1112.87 2330
-306.625 1111.44 2327
-300.543 1109.53 2323
-294.988 1109.53 2323
-289.059 1108.09 2320
-283.511 1108.09 2320
-277.963 1108.09 2320
-272.416 1108.09 2320
-266.868 1108.09 2320
-260.982 1106.66 2317
-255.772 1108.09 2320
-250.548 1109.53 2323
-244.993 1109.53 2323
-240.159 1112.87 2330
-234.588 1112.87 2330
-229.311 1114.3 2333
-223.732 1114.3 2333
-218.153 1114.3 2333
-212.939 1116.21 2337
-207.616 1117.65 2340
-202.021 1117.65 2340
-196.425 1117.65 2340
-191.074 1119.08 2343
-185.709 1120.51 2346
-180.099 1120.51 2346
-174.489 1120.51 2346
-168.663 1119.08 2343
-163.06 1119.08 2343
-157.457 1119.08 2343
-151.465 1116.21 2337
-145.627 1114.3 2333
62.6162 1051.26 2201
67.8795 1051.26 2201
73.1427 1051.26 2201
78.406 1051.26 2201
83.5552 1049.82 2198
88.8113 1049.82 2198
94.0674 1049.82 2198
98.4197 1040.27 2178
103.342 1037.4 2172
107.687 1029.28 2155
112.84 1029.28 2155
117.884 1028.33 2153
122.689 1025.46 2147
127.824 1025.46 2147
132.958 1025.46 2147
137.384 1020.21 2136
224.15 1094.72 2292
231.134 1101.88 2307
236.651 1101.88 2307
243.532 1108.09 2320
250.153 1112.87 2330
255.725 1112.87 2330
261.297 1112.87 2330
267.67 1116.21 2337
273.259 1116.21 2337
278.847 1116.21 2337
284.436 1116.21 2337
290.024 1116.21 2337
295.107 1114.3 2333
300.686 1114.3 2333
306.265 1114.3 2333
311.443 1112.87 2330
317.014 1112.87 2330
322.586 1112.87 2330
328.58 1114.3 2333
334.159 1114.3 2333
339.738 1114.3 2333
346.353 1117.65 2340
351.949 1117.65 2340
357.544 1117.65 2340
363.14 1117.65 2340
369.208 1119.08 2343
374.811 1119.08 2343
380.414 1119.08 2343
387.17 1122.42 2350
392.79 1122.42 2350
398.409 1122.42 2350
404.029 1122.42 2350
409.648 1122.42 2350
415.268 1122.42 2350
420.888 1122.42 2350
426.507 1122.42 2350
432.678 1123.85 2353
440.168 1128.63 2363
445.818 1128.63 2363
451.469 1128.63 2363
457.12 1128.63 2363
462.77 1128.63 2363
466.439 1123.85 2353
472.065 1123.85 2353
477.692 1123.85 2353
482.703 1122.42 2350
488.322 1122.42 2350
493.942 1122.42 2350
499.561 1122.42 2350
505.826 1123.85 2353
511.453 1123.85 2353
517.739 1125.29 2356
523.372 1125.29 2356
529.006 1125.29 2356
534.64 1125.29 2356
540.274 1125.29 2356
544.518 1122.42 2350
549.201 1120.51 2346
554.811 1120.51 2346
560.421 1120.51 2346
566.031 1120.51 2346
570.91 1119.08 2343
575.775 1117.65 2340
580.625 1116.21 2337
586.213 1116.21 2337
591.802 1116.21 2337
597.39 1116.21 2337
602.979 1116.21 2337
608.567 1116.21 2337
614.156 1116.21 2337
620.54 1117.65 2340
626.135 1117.65 2340
631.731 1117.65 2340
637.327 1117.65 2340
640.999 1114.3 2333
645.747 1112.87 2330
652.157 1114.3 2333
657.736 1114.3 2333
666.158 1119.08 2343
674.628 1123.85 2353
682.278 1127.2 2360
687.922 1127.2 2360
693.565 1127.2 2360
699.209 1127.2 2360
705.748 1128.63 2363
712.302 1130.06 2366
717.96 1130.06 2366
723.618 1130.06 2366
729.276 1130.06 2366
734.933 1130.06 2366
740.591 1130.06 2366
744.357 1127.2 2360
748.729 1125.29 2356
754.363 1125.29 2356
759.997 1125.29 2356
767.905 1128.63 2363
773.556 1128.63 2363
781.515 1131.97 2370
787.182 1131.97 2370
792.85 1131.97 2370
796.159 1128.63 2363
801.809 1128.63 2363
805.068 1125.29 2356
808.637 1122.42 2350
815.296 1123.85 2353
821.97 1125.29 2356
829.009 1127.2 2360
834.652 1127.2 2360
841.364 1128.63 2363
850.599 1133.41 2373
856.274 1133.41 2373
861.948 1133.41 2373
870.182 1136.75 2380
876.977 1138.18 2383
884.157 1140.09 2387
889.866 1140.09 2387
895.574 1140.09 2387
901.282 1140.09 2387
906.99 1140.09 2387
912.698 1140.09 2387
919.56 1141.53 2390
925.275 1141.53 2390
930.99 1141.53 2390
936.706 1141.53 2390
946.364 1146.3 2400
953.69 1148.21 2404
962.232 1151.56 2411
967.998 1151.56 2411
973.763 1151.56 2411
979.529 1151.56 2411
985.294 1151.56 2411
991.06 1151.56 2411
995.171 1149.65 2407
1005.5 1154.9 2418
1011.28 1154.9 2418
1017.07 1154.9 2418
1022.85 1154.9 2418
1029.91 1156.33 2421
1035.7 1156.33 2421
1041.48 1156.33 2421
1047.27 1156.33 2421
1051.76 1154.9 2418
1052.73 1149.65 2407
1058.49 1149.65 2407
1058.05 1142.96 2393
1063.77 1142.96 2393
1069.5 1142.96 2393
1075.22 1142.96 2393
1078.23 1140.09 2387
1080.76 1136.75 2380
1086.45 1136.75 2380
1092.14 1136.75 2380
1097.83 1136.75 2380
1101.67 1134.84 2376
1105.95 1133.41 2373
1110.22 1131.97 2370
1115.89 1131.97 2370
1116.83 1127.2 2360
1115.81 1120.51 2346
1118.55 1117.65 2340
1124.15 1117.65 2340
1126.36 1114.3 2333
1135.34 1117.65 2340
1142.4 1119.08 2343
1148 1119.08 2343
1153.6 1119.08 2343
1157.72 1117.65 2340
1163.32 1117.65 2340
1168.91 1117.65 2340
1174.51 1117.65 2340
1180.1 1117.65 2340
1185.7 1117.65 2340
1186.21 1112.87 2330
1191.78 1112.87 2330
1195.81 1111.44 2327
1197.76 1108.09 2320
1203.31 1108.09 2320
1210.42 1109.53 2323
1215.97 1109.53 2323
1221.53 1109.53 2323
1225.5 1108.09 2320
1232.64 1109.53 2323
1238.19 1109.53 2323
1243.75 1109.53 2323
1246.07 1106.66 2317
1251.62 1106.66 2317
1251.73 1101.88 2307
1257.25 1101.88 2307
1262.76 1101.88 2307
1273.78 1106.66 2317
1279.32 1106.66 2317
1284.86 1106.66 2317
1292.07 1108.09 2320
1301.53 1111.44 2327
1307.1 1111.44 2327
1312.66 1111.44 2327
1319.93 1112.87 2330
1325.5 1112.87 2330
1331.07 1112.87 2330
1336.64 1112.87 2330
1342.21 1112.87 2330
1346.05 1111.44 2327
1355.1 1114.3 2333
1360.68 1114.3 2333
1366.26 1114.3 2333
1374.19 1116.21 2337
1381.55 1117.65 2340
1393.07 1122.42 2350
1398.69 1122.42 2350
1404.31 1122.42 2350
1403.93 1117.65 2340
1409.53 1117.65 2340
1415.12 1117.65 2340
1418.9 1116.21 2337
1422.05 1114.3 2333
1427.63 1114.3 2333
1429.52 1111.44 2327
1428.92 1106.66 2317
1434.46 1106.66 2317
1441.86 1108.09 2320
1447.41 1108.09 2320
1452.96 1108.09 2320
1464.79 1112.87 2330
1470.36 1112.87 2330
1475.94 1112.87 2330
1481.51 1112.87 2330
1488.99 1114.3 2333
1500.98 1119.08 2343
1508.51 1120.51 2346
1514.12 1120.51 2346
1526.21 1125.29 2356
1552 1140.09 2387
1564.23 1144.87 2397
1569.96 1144.87 2397
1575.7 1144.87 2397
1570.21 1136.75 2380
1575.9 1136.75 2380
1550.36 1114.3 2333
1547.27 1108.09 2320
1552.82 1108.09 2320
1556.35 1106.66 2317
1561.89 1106.66 2317
1567.43 1106.66 2317
1572.97 1106.66 2317
1578.51 1106.66 2317
1584.05 1106.66 2317
1589.59 1106.66 2317
1595.14 1106.66 2317
1593.77 1101.88 2307
1599.28 1101.88 2307
1600.63 1099.02 2301
1606.13 1099.02 2301
1600.43 1091.38 2285
1605.89 1091.38 2285
1611.35 1091.38 2285
1614.7 1089.94 2282
1620.15 1089.94 2282
1639.14 1099.02 2301
1651.79 1103.79 2311
1657.32 1103.79 2311
1674.36 1111.44 2327
1687.14 1116.21 2337
1694.9 1117.65 2340
1700.5 1117.65 2340
1713.39 1122.42 2350
1719.01 1122.42 2350
1724.63 1122.42 2350
1727.3 1120.51 2346
1732.91 1120.51 2346
1741.48 1122.42 2350
1747.1 1122.42 2350
1752.72 1122.42 2350
1827.93 1166.84 2443
1833.77 1166.84 2443
1839.61 1166.84 2443
1839.41 1163.02 2435
1845.23 1163.02 2435
1851.06 1163.02 2435
1862.98 1166.84 2443
1868.82 1166.84 2443
-1535.21 1100.21 2292
-1529.73 1100.21 2292
-1524.25 1100.21 2292
-1518.77 1100.21 2292
-1513.28 1100.21 2292
-1503.2 1096.85 2285
-1497.73 1096.85 2285
-1492.27 1096.85 2285
-1484.85 1095.41 2282
-1475.51 1092.53 2276
-1470.06 1092.53 2276
-1464.62 1092.53 2276
-1451.49 1086.77 2264
-1444.16 1085.33 2261
-1430.48 1079.09 2248
-1425.1 1079.09 2248
-1419.73 1079.09 2248
-1414.35 1079.09 2248
-1408.97 1079.09 2248
-1403.6 1079.09 2248
-1394.49 1076.21 2242
-1385.41 1073.33 2236
-1374.51 1069.01 2227
-1376.56 1074.77 2239
-1371.21 1074.77 2239
-1365.85 1074.77 2239
-1365.97 1079.09 2248
-1370.28 1086.77 2264
-1364.86 1086.77 2264
-1366.66 1092.53 2276
-1364.8 1095.41 2282
-1365.3 1100.21 2292
-1359.82 1100.21 2292
-1357.88 1103.09 2298
-1352.39 1103.09 2298
-1348.65 1104.53 2301
-1343.15 1104.53 2301
-1337.65 1104.53 2301
-1333.88 1105.97 2304
-1328.37 1105.97 2304
-1322.86 1105.97 2304
-1313.92 1103.09 2298
-1308.43 1103.09 2298
-1302.93 1103.09 2298
-1294.05 1100.21 2292
-1286.32 1098.29 2288
-1280.85 1098.29 2288
-1279.28 1101.65 2295
-1273.79 1101.65 2295
-1271.62 1104.53 2301
-1267.77 1105.97 2304
-1263.9 1107.41 2307
-1258.38 1107.41 2307
-1258.3 1112.21 2317
-1252.76 1112.21 2317
-1247.22 1112.21 2317
-1240.07 1110.77 2314
-1232.94 1109.33 2311
-1220.5 1103.09 2298
-1215.01 1103.09 2298
-1204.25 1098.29 2288
-1198.78 1098.29 2288
-1191.74 1096.85 2285
-1186.28 1096.85 2285
-1180.82 1096.85 2285
-1170.72 1092.53 2276
-1165.28 1092.53 2276
-1171.05 1103.09 2298
-1165.55 1103.09 2298
-1161.57 1104.53 2301
-1159.08 1107.41 2307
-1153.57 1107.41 2307
-1148.05 1107.41 2307
-1136.59 1101.65 2295
-1129.62 1100.21 2292
-1124.14 1100.21 2292
-1109.39 1091.09 2273
-1093.27 1080.53 2251
-1086.44 1079.09 2248
-1081.06 1079.09 2248
-1081.9 1085.33 2261
-1076.5 1085.33 2261
-1072.51 1086.77 2264
-1067.1 1086.77 2264
-1061.68 1086.77 2264
-1056.27 1086.77 2264
-1047.61 1083.41 2257
-1045.44 1086.77 2264
-1040.03 1086.77 2264
-1034.62 1086.77 2264
-1029.2 1086.77 2264
-1023.79 1086.77 2264
-1018.37 1086.77 2264
-997.747 1070.45 2230
-979.509 1056.53 2201
-987.082 1070.45 2230
-984.391 1073.33 2236
-979.044 1073.33 2236
-975.003 1074.77 2239
-976.145 1081.97 2254
-970.755 1081.97 2254
-965.365 1081.97 2254
-959.975 1081.97 2254
-954.585 1081.97 2254
-949.195 1081.97 2254
-938.781 1076.21 2242
-937.167 1080.53 2251
-934.267 1083.41 2257
-928.87 1083.41 2257
-923.473 1083.41 2257
-920.923 1086.77 2264
-916.722 1088.21 2267
-911.301 1088.21 2267
-905.88 1088.21 2267
-902.842 1091.09 2273
-897.407 1091.09 2273
-893.149 1092.53 2276
-887.706 1092.53 2276
-884.589 1095.41 2282
-880.288 1096.85 2285
-875.973 1098.29 2288
-870.501 1098.29 2288
-867.677 1101.65 2295
-864.443 1104.53 2301
-860.06 1105.97 2304
-854.55 1105.97 2304
-849.041 1105.97 2304
-843.531 1105.97 2304
-838.022 1105.97 2304
-832.512 1105.97 2304
-827.003 1105.97 2304
-821.493 1105.97 2304
-815.984 1105.97 2304
-810.474 1105.97 2304
-803.916 1104.53 2301
-798.414 1104.53 2301
-794.979 1107.41 2307
-790.831 1109.33 2311
-785.305 1109.33 2311
-779.779 1109.33 2311
-774.252 1109.33 2311
-768.726 1109.33 2311
-763.2 1109.33 2311
-757.673 1109.33 2311
-752.147 1109.33 2311
-746.621 1109.33 2311
-739.812 1107.41 2307
-734.295 1107.41 2307
-728.778 1107.41 2307
-723.261 1107.41 2307
-717.745 1107.41 2307
-711.302 1105.97 2304
-706.711 1107.41 2307
-703.322 1110.77 2314
-697.789 1110.77 2314
-692.255 1110.77 2314
-684.644 1107.41 2307
-679.128 1107.41 2307
-673.611 1107.41 2307
-670.121 1110.77 2314
-666.311 1113.65 2320
-660.763 1113.65 2320
-655.215 1113.65 2320
-650.508 1115.09 2323
-644.953 1115.09 2323
-640.499 1117.01 2327
-634.934 1117.01 2327
-630.181 1118.45 2330
-626.486 1121.81 2337
-621.694 1123.25 2340
-616.099 1123.25 2340
-610.503 1123.25 2340
-602.322 1118.45 2330
-596.75 1118.45 2330
-590.418 1117.01 2327
-584.853 1117.01 2327
-579.288 1117.01 2327
-574.464 1118.45 2330
-568.892 1118.45 2330
-563.32 1118.45 2330
-560.142 1123.25 2340
-554.546 1123.25 2340
-548.951 1123.25 2340
-541.73 1119.89 2333
-535.461 1118.45 2330
-528.298 1115.09 2323
-522.743 1115.09 2323
-517.188 1115.09 2323
-510.972 1113.65 2320
-504.117 1110.77 2314
-498.584 1110.77 2314
-491.559 1107.41 2307
-486.042 1107.41 2307
-481.983 1110.77 2314
-476.45 1110.77 2314
-470.916 1110.77 2314
-465.383 1110.77 2314
-459.849 1110.77 2314
-454.316 1110.77 2314
-447.425 1107.41 2307
-441.908 1107.41 2307
-435.824 1105.97 2304
-430.314 1105.97 2304
-424.805 1105.97 2304
-418.749 1104.53 2301
-415.043 1109.33 2311
-411.111 1113.65 2320
-405.563 1113.65 2320
-401.74 1118.45 2330
-396.168 1118.45 2330
-391.099 1119.89 2333
-385.52 1119.89 2333
-379.941 1119.89 2333
-374.362 1119.89 2333
-367.203 1115.09 2323
-361.648 1115.09 2323
-355.633 1113.65 2320
-348.123 1107.41 2307
-343.201 1109.33 2311
-337.674 1109.33 2311
-332.148 1109.33 2311
-327.47 1112.21 2317
-321.929 1112.21 2317
-316.389 1112.21 2317
-310.848 1112.21 2317
-304.517 1109.33 2311
-298.473 1107.41 2307
-292.956 1107.41 2307
-287.066 1105.97 2304
-281.923 1107.41 2307
-276.406 1107.41 2307
-270.889 1107.41 2307
-265.372 1107.41 2307
-259.856 1107.41 2307
-254.339 1107.41 2307
-249.577 1110.77 2314
-244.044 1110.77 2314
-239.438 1115.09 2323
-233.883 1115.09 2323
-229.016 1118.45 2330
-223.444 1118.45 2330
-217.872 1118.45 2330
-212.301 1118.45 2330
-206.995 1119.89 2333
-201.416 1119.89 2333
-195.837 1119.89 2333
-190.585 1121.81 2337
-185.234 1123.25 2340
-179.868 1124.69 2343
-174.265 1124.69 2343
-168.663 1124.69 2343
-162.851 1123.25 2340
-157.255 1123.25 2340
-151.465 1121.81 2337
-145.627 1119.89 2333
62.7015 1057.97 2204
67.972 1057.97 2204
73.2424 1057.97 2204
78.406 1056.53 2201
83.6692 1056.53 2201
88.8113 1055.09 2198
94.0674 1055.09 2198
99.0523 1052.21 2192
103.485 1044.05 2175
108.386 1041.17 2169
113.573 1041.17 2169
118.158 1035.89 2158
123.032 1033.49 2153
128.181 1033.49 2153
133.329 1033.49 2153
138.285 1032.05 2150
223.759 1098.29 2288
230.232 1103.09 2298
235.727 1103.09 2298
242.587 1109.33 2311
249.402 1115.09 2323
254.957 1115.09 2323
260.512 1115.09 2323
266.869 1118.45 2330
272.44 1118.45 2330
278.37 1119.89 2333
283.949 1119.89 2333
289.528 1119.89 2333
294.727 1118.45 2330
299.912 1117.01 2327
305.477 1117.01 2327
311.042 1117.01 2327
316.606 1117.01 2327
322.171 1117.01 2327
328.158 1118.45 2330
333.729 1118.45 2330
339.301 1118.45 2330
345.317 1119.89 2333
351.497 1121.81 2337
357.086 1121.81 2337
362.674 1121.81 2337
368.736 1123.25 2340
374.331 1123.25 2340
379.927 1123.25 2340
386.511 1126.13 2346
392.121 1126.13 2346
397.731 1126.13 2346
403.341 1126.13 2346
408.951 1126.13 2346
414.031 1124.69 2343
419.634 1124.69 2343
425.237 1124.69 2343
432.127 1128.05 2350
438.305 1129.49 2353
443.932 1129.49 2353
449.559 1129.49 2353
455.185 1129.49 2353
460.812 1129.49 2353
466.439 1129.49 2353
472.065 1129.49 2353
476.271 1126.13 2346
481.881 1126.13 2346
487.491 1126.13 2346
493.101 1126.13 2346
498.711 1126.13 2346
504.321 1126.13 2346
509.931 1126.13 2346
515.541 1126.13 2346
521.151 1126.13 2346
526.087 1124.69 2343
531.009 1123.25 2340
536.605 1123.25 2340
540.579 1119.89 2333
546.158 1119.89 2333
551.027 1118.45 2330
556.599 1118.45 2330
562.171 1118.45 2330
566.037 1115.09 2323
570.854 1113.65 2320
576.401 1113.65 2320
581.949 1113.65 2320
587.497 1113.65 2320
593.045 1113.65 2320
597.819 1112.21 2317
603.359 1112.21 2317
608.9 1112.21 2317
615.236 1113.65 2320
620.784 1113.65 2320
626.332 1113.65 2320
631.88 1113.65 2320
635.779 1110.77 2314
640.481 1109.33 2311
648.523 1113.65 2320
654.071 1113.65 2320
663.315 1119.89 2333
670.041 1121.81 2337
678.231 1126.13 2346
683.841 1126.13 2346
689.451 1126.13 2346
695.061 1126.13 2346
703.658 1130.93 2356
709.292 1130.93 2356
714.925 1130.93 2356
720.559 1130.93 2356
726.193 1130.93 2356
731.827 1130.93 2356
735.583 1128.05 2350
741.203 1128.05 2350
744.598 1124.69 2343
751.161 1126.13 2346
756.771 1126.13 2346
764.656 1129.49 2353
771.265 1130.93 2356
778.217 1132.85 2360
783.861 1132.85 2360
789.504 1132.85 2360
793.8 1130.93 2356
799.434 1130.93 2356
803.018 1128.05 2350
807.261 1126.13 2346
812.871 1126.13 2346
819.876 1128.05 2350
827.604 1130.93 2356
833.238 1130.93 2356
838.871 1130.93 2356
845.939 1132.85 2360
856.274 1139.09 2373
861.948 1139.09 2373
867.623 1139.09 2373
875.873 1142.45 2380
881.565 1142.45 2380
887.256 1142.45 2380
892.947 1142.45 2380
898.639 1142.45 2380
906.99 1145.81 2387
912.698 1145.81 2387
919.56 1147.25 2390
925.275 1147.25 2390
930.99 1147.25 2390
936.706 1147.25 2390
945.181 1150.61 2397
953.69 1153.97 2404
962.232 1157.33 2411
967.998 1157.33 2411
973.763 1157.33 2411
979.529 1157.33 2411
985.294 1157.33 2411
991.06 1157.33 2411
992.277 1152.05 2400
1005.5 1160.69 2418
1011.28 1160.69 2418
1017.07 1160.69 2418
1022.85 1160.69 2418
1029.91 1162.13 2421
1035.7 1162.13 2421
1041.48 1162.13 2421
1047.27 1162.13 2421
1051.76 1160.69 2418
1052.73 1155.41 2407
1058.49 1155.41 2407
1058.05 1148.69 2393
1062.44 1147.25 2390
1068.16 1147.25 2390
1073.87 1147.25 2390
1073.26 1140.53 2376
1078.94 1140.53 2376
1083.26 1139.09 2373
1088.93 1139.09 2373
1094.61 1139.09 2373
1100.28 1139.09 2373
1102.69 1135.73 2366
1106.94 1134.29 2363
1112.6 1134.29 2363
1112.09 1128.05 2350
1115.81 1126.13 2346
1118.55 1123.25 2340
1124.15 1123.25 2340
1126.36 1119.89 2333
1135.34 1123.25 2340
1142.4 1124.69 2343
1148 1124.69 2343
1153.6 1124.69 2343
1157.72 1123.25 2340
1163.32 1123.25 2340
1168.91 1123.25 2340
1174.51 1123.25 2340
1180.1 1123.25 2340
1185.7 1123.25 2340
1186.21 1118.45 2330
1191.78 1118.45 2330
1195.81 1117.01 2327
1197.76 1113.65 2320
1204.86 1115.09 2323
1210.42 1115.09 2323
1215.97 1115.09 2323
1221.53 1115.09 2323
1227.08 1115.09 2323
1232.64 1115.09 2323
1238.19 1115.09 2323
1243.75 1115.09 2323
1249.3 1115.09 2323
1254.86 1115.09 2323
1251.73 1107.41 2307
1257.25 1107.41 2307
1262.76 1107.41 2307
1273.78 1112.21 2317
1279.32 1112.21 2317
1284.86 1112.21 2317
1292.07 1113.65 2320
1301.53 1117.01 2327
1307.1 1117.01 2327
1312.66 1117.01 2327
1319.93 1118.45 2330
1325.5 1118.45 2330
1331.07 1118.45 2330
1336.64 1118.45 2330
1342.21 1118.45 2330
1346.05 1117.01 2327
1355.1 1119.89 2333
1360.68 1119.89 2333
1366.26 1119.89 2333
1374.19 1121.81 2337
1381.55 1123.25 2340
1393.07 1128.05 2350
1398.69 1128.05 2350
1404.31 1128.05 2350
1403.93 1123.25 2340
1409.53 1123.25 2340
1415.12 1123.25 2340
1418.9 1121.81 2337
1422.05 1119.89 2333
1427.63 1119.89 2333
1429.52 1117.01 2327
1428.92 1112.21 2317
1434.46 1112.21 2317
1441.86 1113.65 2320
1447.41 1113.65 2320
1452.96 1113.65 2320
1464.79 1118.45 2330
1470.36 1118.45 2330
1475.94 1118.45 2330
1481.51 1118.45 2330
1488.99 1119.89 2333
1500.98 1124.69 2343
1508.51 1126.13 2346
1514.12 1126.13 2346
1526.21 1130.93 2356
1552 1145.81 2387
1564.23 1150.61 2397
1569.96 1150.61 2397
1575.7 1150.61 2397
1570.21 1142.45 2380
1575.9 1142.45 2380
1550.36 1119.89 2333
1547.27 1113.65 2320
1552.82 1113.65 2320
1556.35 1112.21 2317
1561.89 1112.21 2317
1567.43 1112.21 2317
1572.97 1112.21 2317
1578.51 1112.21 2317
1584.05 1112.21 2317
1589.59 1112.21 2317
1595.14 1112.21 2317
1593.77 1107.41 2307
1599.28 1107.41 2307
1600.63 1104.53 2301
1606.13 1104.53 2301
1600.43 1096.85 2285
1605.89 1096.85 2285
1611.35 1096.85 2285
1614.7 1095.41 2282
1620.15 1095.41 2282
1634.87 1101.65 2295
1646.79 1105.97 2304
1652.3 1105.97 2304
1671.48 1115.09 2323
1684.26 1119.89 2333
1692.73 1121.81 2337
1698.32 1121.81 2337
1710.47 1126.13 2346
1716.08 1126.13 2346
1721.69 1126.13 2346
1727.3 1126.13 2346
1732.91 1126.13 2346
1741.48 1128.05 2350
1747.1 1128.05 2350
1752.72 1128.05 2350
1827.93 1172.69 2443
1833.77 1172.69 2443
1839.61 1172.69 2443
1839.41 1168.85 2435
1845.23 1168.85 2435
1851.06 1168.85 2435
1862.98 1172.69 2443
1868.82 1172.69 2443
-1565.06 1119.21 2320
-1559.51 1119.21 2320
-1553.96 1119.21 2320
-1537.74 1111.49 2304
-1532.23 1111.49 2304
-1518.77 1105.7 2292
-1508.66 1102.32 2285
-1501.23 1100.88 2282
-1495.77 1100.88 2282
-1488.35 1099.43 2279
-1479 1096.53 2273
-1471.62 1095.09 2270
-1466.19 1095.09 2270
-1460.76 1095.09 2270
-1449.56 1090.75 2261
-1439.69 1087.37 2254
-1430.48 1084.47 2248
-1425.1 1084.47 2248
-1417.83 1083.03 2245
-1412.46 1083.03 2245
-1407.09 1083.03 2245
-1401.73 1083.03 2245
-1390.76 1078.69 2236
-1377.98 1072.9 2224
-1370.81 1071.45 2221
-1365.5 1071.45 2221
-1360.19 1071.45 2221
-1356.7 1072.9 2224
-1360.5 1080.13 2239
-1366.04 1088.82 2257
-1360.64 1088.82 2257
-1359.45 1092.19 2264
-1361.21 1097.98 2276
-1361.13 1102.32 2285
-1355.67 1102.32 2285
-1354.34 1105.7 2292
-1348.86 1105.7 2292
-1343.38 1105.7 2292
-1337.9 1105.7 2292
-1332.42 1105.7 2292
-1324.62 1103.77 2288
-1319.15 1103.77 2288
-1313.68 1103.77 2288
-1303.06 1099.43 2279
-1297.61 1099.43 2279
-1292.16 1099.43 2279
-1286.71 1099.43 2279
-1274.51 1093.64 2267
-1269.09 1093.64 2267
-1267.02 1096.53 2273
-1261.58 1096.53 2273
-1261.12 1100.88 2282
-1257.31 1102.32 2285
-1251.85 1102.32 2285
-1246.38 1102.32 2285
-1246.35 1107.15 2295
-1240.86 1107.15 2295
-1235.38 1107.15 2295
-1229.89 1107.15 2295
-1224.4 1107.15 2295
-1208.82 1097.98 2276
-1203.38 1097.98 2276
-1196.36 1096.53 2273
-1177.82 1084.47 2248
-1170.88 1083.03 2245
-1165.51 1083.03 2245
-1160.14 1083.03 2245
-1151.69 1080.13 2239
-1147.87 1081.58 2242
-1148.63 1087.37 2254
-1143.24 1087.37 2254
-1145.92 1095.09 2270
-1145.02 1099.43 2279
-1139.57 1099.43 2279
-1134.12 1099.43 2279
-1128.67 1099.43 2279
-1118.78 1095.09 2270
-1089.32 1071.45 2221
-1084.01 1071.45 2221
-1077.24 1070 2218
-1066.62 1064.69 2207
-1068.08 1071.45 2221
-1072.81 1081.58 2242
-1067.45 1081.58 2242
-1063.51 1083.03 2245
-1058.14 1083.03 2245
-1052.77 1083.03 2245
-1047.41 1083.03 2245
-1042.04 1083.03 2245
-1042.21 1088.82 2257
-1036.81 1088.82 2257
-1031.42 1088.82 2257
-1026.02 1088.82 2257
-1012.48 1080.13 2239
-1007.13 1080.13 2239
-983.43 1060.35 2198
-979.509 1061.8 2201
-979.557 1067.59 2213
-983.07 1077.24 2233
-977.731 1077.24 2233
-975.003 1080.13 2239
-970.949 1081.58 2242
-966.879 1083.03 2245
-961.511 1083.03 2245
-956.142 1083.03 2245
-948.233 1080.13 2239
-942.879 1080.13 2239
-937.525 1080.13 2239
-934.668 1083.03 2245
-930.542 1084.47 2248
-927.635 1087.37 2254
-922.245 1087.37 2254
-916.855 1087.37 2254
-912.679 1088.82 2257
-908.889 1090.75 2261
-903.483 1090.75 2261
-899.268 1092.19 2264
-893.854 1092.19 2264
-891.971 1096.53 2273
-886.536 1096.53 2273
-882.264 1097.98 2276
-879.132 1100.88 2282
-874.824 1102.32 2285
-869.36 1102.32 2285
-865.03 1103.77 2288
-862.188 1107.15 2295
-858.94 1110.04 2301
-853.438 1110.04 2301
-849.041 1111.49 2304
-843.531 1111.49 2304
-838.022 1111.49 2304
-832.512 1111.49 2304
-827.003 1111.49 2304
-821.493 1111.49 2304
-814.921 1110.04 2301
-809.419 1110.04 2301
-801.82 1107.15 2295
-797.373 1108.59 2298
-791.878 1108.59 2298
-787.409 1110.04 2301
-781.907 1110.04 2301
-776.404 1110.04 2301
-769.897 1108.59 2298
-764.402 1108.59 2298
-758.906 1108.59 2298
-752.428 1107.15 2295
-746.94 1107.15 2295
-741.452 1107.15 2295
-735.001 1105.7 2292
-728.247 1103.77 2288
-721.828 1102.32 2285
-716.364 1102.32 2285
-710.9 1102.32 2285
-706.362 1103.77 2288
-702.116 1105.7 2292
-699.371 1110.04 2301
-693.869 1110.04 2301
-689.264 1111.49 2304
-684.644 1112.94 2307
-679.128 1112.94 2307
-673.611 1112.94 2307
-670.121 1116.31 2314
-666.311 1119.21 2320
-660.763 1119.21 2320
-655.215 1119.21 2320
-650.508 1120.66 2323
-644.953 1120.66 2323
-640.499 1122.59 2327
-634.934 1122.59 2327
-630.181 1124.03 2330
-626.486 1127.41 2337
-621.694 1128.86 2340
-616.099 1128.86 2340
-610.503 1128.86 2340
-602.322 1124.03 2330
-596.75 1124.03 2330
-590.418 1122.59 2327
-584.853 1122.59 2327
-579.288 1122.59 2327
-574.464 1124.03 2330
-568.892 1124.03 2330
-563.32 1124.03 2330
-560.142 1128.86 2340
-554.546 1128.86 2340
-548.951 1128.86 2340
-541.73 1125.48 2333
-535.461 1124.03 2330
-528.298 1120.66 2323
-522.743 1120.66 2323
-517.188 1120.66 2323
-510.972 1119.21 2320
-504.117 1116.31 2314
-498.584 1116.31 2314
-491.559 1112.94 2307
-486.042 1112.94 2307
-481.983 1116.31 2314
-476.45 1116.31 2314
-470.916 1116.31 2314
-465.383 1116.31 2314
-459.849 1116.31 2314
-454.316 1116.31 2314
-447.425 1112.94 2307
-441.908 1112.94 2307
-435.824 1111.49 2304
-430.314 1111.49 2304
-424.805 1111.49 2304
-418.749 1110.04 2301
-415.043 1114.87 2311
-411.111 1119.21 2320
-405.563 1119.21 2320
-401.74 1124.03 2330
-396.168 1124.03 2330
-391.099 1125.48 2333
-385.52 1125.48 2333
-379.941 1125.48 2333
-374.362 1125.48 2333
-367.203 1120.66 2323
-361.648 1120.66 2323
-355.633 1119.21 2320
-348.123 1112.94 2307
-343.201 1114.87 2311
-337.674 1114.87 2311
-332.148 1114.87 2311
-327.47 1117.76 2317
-321.929 1117.76 2317
-316.389 1117.76 2317
-310.848 1117.76 2317
-304.517 1114.87 2311
-298.473 1112.94 2307
-292.956 1112.94 2307
-287.066 1111.49 2304
-281.923 1112.94 2307
-276.406 1112.94 2307
-270.889 1112.94 2307
-265.372 1112.94 2307
-259.856 1112.94 2307
-254.339 1112.94 2307
-249.577 1116.31 2314
-244.044 1116.31 2314
-239.438 1120.66 2323
-233.883 1120.66 2323
-229.016 1124.03 2330
-223.444 1124.03 2330
-217.872 1124.03 2330
-212.301 1124.03 2330
-206.995 1125.48 2333
-201.416 1125.48 2333
-195.837 1125.48 2333
-190.585 1127.41 2337
-185.234 1128.86 2340
-179.868 1130.3 2343
-174.265 1130.3 2343
-168.663 1130.3 2343
-162.851 1128.86 2340
-157.255 1128.86 2340
-151.465 1127.41 2337
-145.627 1125.48 2333
-136.266 1095.09 2270
-130.838 1095.09 2270
62.7015 1063.25 2204
67.972 1063.25 2204
73.2424 1063.25 2204
78.406 1061.8 2201
83.6692 1061.8 2201
88.8113 1060.35 2198
94.0674 1060.35 2198
99.0523 1057.46 2192
103.485 1049.26 2175
108.386 1046.36 2169
113.573 1046.36 2169
118.158 1041.06 2158
123.032 1038.64 2153
128.181 1038.64 2153
133.329 1038.64 2153
138.285 1037.2 2150
221.999 1095.09 2270
229.23 1103.77 2288
234.702 1103.77 2288
241.223 1108.59 2298
248.114 1114.87 2311
254.298 1117.76 2317
259.839 1117.76 2317
266.067 1120.66 2323
271.622 1120.66 2323
277.654 1122.59 2327
283.219 1122.59 2327
288.783 1122.59 2327
293.842 1120.66 2323
299.397 1120.66 2323
304.952 1120.66 2323
310.507 1120.66 2323
316.062 1120.66 2323
321.617 1120.66 2323
327.735 1122.59 2327
333.3 1122.59 2327
338.864 1122.59 2327
344.873 1124.03 2330
350.896 1125.48 2333
356.475 1125.48 2333
362.054 1125.48 2333
368.263 1127.41 2337
373.851 1127.41 2337
379.44 1127.41 2337
385.523 1128.86 2340
391.62 1130.3 2343
397.223 1130.3 2343
402.825 1130.3 2343
408.428 1130.3 2343
413.501 1128.86 2340
419.096 1128.86 2340
425.237 1130.3 2343
430.839 1130.3 2343
437.001 1131.75 2346
443.366 1133.68 2350
449.559 1135.13 2353
455.185 1135.13 2353
460.812 1135.13 2353
465.051 1131.75 2346
470.661 1131.75 2346
475.053 1128.86 2340
480.649 1128.86 2340
484.79 1125.48 2333
490.369 1125.48 2333
495.31 1124.03 2330
500.237 1122.59 2327
505.801 1122.59 2327
511.366 1122.59 2327
516.93 1122.59 2327
520.25 1117.76 2317
525.109 1116.31 2314
530.643 1116.31 2314
536.176 1116.31 2314
541.71 1116.31 2314
547.243 1116.31 2314
552.06 1114.87 2311
557.586 1114.87 2311
561.407 1111.49 2304
566.178 1110.04 2301
570.935 1108.59 2298
576.431 1108.59 2298
581.926 1108.59 2298
587.421 1108.59 2298
594.464 1111.49 2304
600.755 1112.94 2307
606.272 1112.94 2307
612.849 1114.87 2311
618.376 1114.87 2311
623.902 1114.87 2311
629.428 1114.87 2311
634.955 1114.87 2311
639.372 1112.94 2307
646.007 1114.87 2311
651.534 1114.87 2311
659.619 1119.21 2320
668.034 1124.03 2330
675.629 1127.41 2337
681.218 1127.41 2337
688.569 1130.3 2343
695.061 1131.75 2346
700.671 1131.75 2346
707.485 1133.68 2350
713.105 1133.68 2350
718.724 1133.68 2350
724.344 1133.68 2350
729.963 1133.68 2350
734.331 1131.75 2346
738.995 1130.3 2343
742.691 1127.41 2337
748.279 1127.41 2337
753.868 1127.41 2337
761.406 1130.3 2343
769.3 1133.68 2350
775.909 1135.13 2353
781.536 1135.13 2353
787.163 1135.13 2353
790.431 1131.75 2346
796.041 1131.75 2346
800.626 1130.3 2343
805.196 1128.86 2340
810.792 1128.86 2340
816.388 1128.86 2340
821.983 1128.86 2340
827.579 1128.86 2340
834.243 1130.3 2343
842.355 1133.68 2350
850.139 1136.58 2356
855.773 1136.58 2356
861.407 1136.58 2356
869.617 1139.95 2363
875.268 1139.95 2363
880.918 1139.95 2363
886.569 1139.95 2363
889.577 1136.58 2356
897.87 1139.95 2363
903.521 1139.95 2363
910.326 1141.4 2366
915.984 1141.4 2366
923.2 1143.33 2370
928.867 1143.33 2370
936.9 1146.22 2376
946.946 1151.53 2387
952.654 1151.53 2387
958.362 1151.53 2387
964.07 1151.53 2387
969.778 1151.53 2387
975.486 1151.53 2387
981.194 1151.53 2387
986.902 1151.53 2387
998.016 1157.8 2400
1006.68 1161.18 2407
1017.07 1166.48 2418
1022.85 1166.48 2418
1028.63 1166.48 2418
1034.41 1166.48 2418
1040.19 1166.48 2418
1045.98 1166.48 2418
1046.97 1161.18 2407
1052.73 1161.18 2407
1058.49 1161.18 2407
1056.73 1152.98 2390
1061.11 1151.53 2387
1063.69 1148.15 2380
1069.38 1148.15 2380
1070.55 1143.33 2370
1076.22 1143.33 2370
1081.89 1143.33 2370
1087.55 1143.33 2370
1093.22 1143.33 2370
1097.03 1141.4 2366
1101.29 1139.95 2363
1103.67 1136.58 2356
1109.3 1136.58 2356
1110.2 1131.75 2346
1112.96 1128.86 2340
1117.12 1127.41 2337
1122.71 1127.41 2337
1126.36 1125.48 2333
1131.94 1125.48 2333
1140.94 1128.86 2340
1146.53 1128.86 2340
1152.13 1128.86 2340
1154.26 1125.48 2333
1159.84 1125.48 2333
1167.41 1127.41 2337
1173 1127.41 2337
1178.59 1127.41 2337
1184.18 1127.41 2337
1186.21 1124.03 2330
1191.78 1124.03 2330
1195.81 1122.59 2327
1197.76 1119.21 2320
1204.86 1120.66 2323
1210.42 1120.66 2323
1215.97 1120.66 2323
1221.53 1120.66 2323
1227.08 1120.66 2323
1232.64 1120.66 2323
1238.19 1120.66 2323
1243.75 1120.66 2323
1249.3 1120.66 2323
1254.86 1120.66 2323
1251.73 1112.94 2307
1257.25 1112.94 2307
1262.76 1112.94 2307
1273.78 1117.76 2317
1279.32 1117.76 2317
1284.86 1117.76 2317
1292.07 1119.21 2320
1299.3 1120.66 2323
1304.85 1120.66 2323
1310.41 1120.66 2323
1315.96 1120.66 2323
1321.52 1120.66 2323
1329.36 1122.59 2327
1334.92 1122.59 2327
1340.49 1122.59 2327
1343.74 1120.66 2323
1349.29 1120.66 2323
1357.18 1122.59 2327
1362.74 1122.59 2327
1370.07 1124.03 2330
1377.42 1125.48 2333
1387.14 1128.86 2340
1392.74 1128.86 2340
1398.34 1128.86 2340
1402.13 1127.41 2337
1407.72 1127.41 2337
1413.31 1127.41 2337
1414.65 1124.03 2330
1418.39 1122.59 2327
1423.95 1122.59 2327
1423.38 1117.76 2317
1427.07 1116.31 2314
1434.46 1117.76 2317
1440 1117.76 2317
1445.54 1117.76 2317
1451.08 1117.76 2317
1458.51 1119.21 2320
1464.05 1119.21 2320
1474.04 1122.59 2327
1479.6 1122.59 2327
1485.16 1122.59 2327
1490.73 1122.59 2327
1506.58 1130.3 2343
1512.18 1130.3 2343
1519.73 1131.75 2346
1552 1151.53 2387
1564.23 1156.35 2397
1569.96 1156.35 2397
1575.7 1156.35 2397
1570.21 1148.15 2380
1575.9 1148.15 2380
1541.72 1119.21 2320
1545.27 1117.76 2317
1548.8 1116.31 2314
1554.34 1116.31 2314
1559.87 1116.31 2314
1565.4 1116.31 2314
1568.9 1114.87 2311
1574.43 1114.87 2311
1579.95 1114.87 2311
1582.73 1112.94 2307
1584.12 1110.04 2301
1589.62 1110.04 2301
1595.13 1110.04 2301
1596.45 1107.15 2295
1594.96 1102.32 2285
1596.22 1099.43 2279
1601.67 1099.43 2279
1605.01 1097.98 2276
1610.45 1097.98 2276
1615.89 1097.98 2276
1634.87 1107.15 2295
1646.79 1111.49 2304
1652.3 1111.49 2304
1671.48 1120.66 2323
1684.26 1125.48 2333
1692.73 1127.41 2337
1698.32 1127.41 2337
1710.47 1131.75 2346
1716.08 1131.75 2346
1721.69 1131.75 2346
1727.3 1131.75 2346
1732.91 1131.75 2346
1741.48 1133.68 2350
1747.1 1133.68 2350
1752.72 1133.68 2350
1827.93 1178.55 2443
1833.77 1178.55 2443
1839.61 1178.55 2443
1839.41 1174.69 2435
1845.23 1174.69 2435
1851.06 1174.69 2435
1862.98 1178.55 2443
1868.82 1178.55 2443
-1570.61 1124.77 2320
-1565.06 1124.77 2320
-1559.51 1124.77 2320
-1553.96 1124.77 2320
-1539.74 1118.46 2307
-1534.22 1118.46 2307
-1526.72 1117.01 2304
-1513.28 1111.19 2292
-1505.17 1109.25 2288
-1499.7 1109.25 2288
-1490.31 1106.34 2282
-1479 1101.98 2273
-1473.56 1101.98 2273
-1468.13 1101.98 2273
-1462.69 1101.98 2273
-1455.33 1100.53 2270
-1447.99 1099.07 2267
-1432.39 1091.31 2251
-1427 1091.31 2251
-1419.73 1089.86 2248
-1416.24 1091.31 2251
-1410.85 1091.31 2251
-1405.47 1091.31 2251
-1392.63 1085.5 2239
-1377.98 1078.22 2224
-1368.96 1075.31 2218
-1363.65 1075.31 2218
-1358.35 1075.31 2218
-1351.21 1073.86 2215
-1349.56 1076.77 2221
-1360.59 1089.86 2248
-1355.22 1089.86 2248
-1349.84 1089.86 2248
-1346.26 1091.31 2251
-1340.88 1091.31 2251
-1335.5 1091.31 2251
-1331.89 1092.77 2254
-1328.26 1094.22 2257
-1328.72 1099.07 2267
-1323.3 1099.07 2267
-1317.88 1099.07 2267
-1312.46 1099.07 2267
-1307.04 1099.07 2267
-1301.62 1099.07 2267
-1294.48 1097.62 2264
-1289.07 1097.62 2264
-1283.66 1097.62 2264
-1274.29 1094.22 2257
-1268.89 1094.22 2257
-1261.82 1092.77 2254
-1258.1 1094.22 2257
-1252.7 1094.22 2257
-1252.83 1099.07 2267
-1254.01 1104.89 2279
-1251.85 1107.8 2285
-1246.38 1107.8 2285
-1240.92 1107.8 2285
-1235.46 1107.8 2285
-1229.99 1107.8 2285
-1224.53 1107.8 2285
-1214.26 1103.43 2276
-1202.45 1097.62 2264
-1197.03 1097.62 2264
-1183.2 1089.86 2248
-1166.82 1079.68 2227
-1164.62 1082.59 2233
-1159.28 1082.59 2233
-1153.94 1082.59 2233
-1145.52 1079.68 2227
-1140.19 1079.68 2227
-1140.98 1085.5 2239
-1141.71 1091.31 2251
-1136.33 1091.31 2251
-1133.96 1094.22 2257
-1128.57 1094.22 2257
-1123.17 1094.22 2257
-1114.8 1091.31 2251
-1094.63 1076.77 2221
-1080.98 1068.53 2204
-1075.71 1068.53 2204
-1066.07 1064.16 2195
-1055.51 1058.83 2184
-1059.9 1068.53 2204
-1062.76 1076.77 2221
-1057.45 1076.77 2221
-1056.41 1081.13 2230
-1051.07 1081.13 2230
-1045.74 1081.13 2230
-1040.41 1081.13 2230
-1035.08 1081.13 2230
-1035.28 1086.95 2242
-1031.3 1088.4 2245
-1025.93 1088.4 2245
-1020.56 1088.4 2245
-995.299 1067.07 2201
-990.035 1067.07 2201
-983.43 1065.62 2198
-979.509 1067.07 2201
-979.557 1072.89 2213
-981.75 1081.13 2230
-976.417 1081.13 2230
-975.003 1085.5 2239
-970.949 1086.95 2242
-966.879 1088.4 2245
-961.511 1088.4 2245
-956.142 1088.4 2245
-948.233 1085.5 2239
-942.879 1085.5 2239
-937.525 1085.5 2239
-934.668 1088.4 2245
-930.542 1089.86 2248
-927.635 1092.77 2254
-922.245 1092.77 2254
-916.855 1092.77 2254
-912.679 1094.22 2257
-908.889 1096.16 2261
-903.483 1096.16 2261
-899.268 1097.62 2264
-893.854 1097.62 2264
-890.794 1100.53 2270
-885.366 1100.53 2270
-882.264 1103.43 2276
-879.132 1106.34 2282
-874.824 1107.8 2285
-869.36 1107.8 2285
-867.677 1112.65 2295
-862.188 1112.65 2295
-858.94 1115.55 2301
-853.438 1115.55 2301
-847.935 1115.55 2301
-842.433 1115.55 2301
-836.931 1115.55 2301
-831.428 1115.55 2301
-825.926 1115.55 2301
-820.423 1115.55 2301
-812.796 1112.65 2295
-807.308 1112.65 2295
-801.82 1112.65 2295
-795.291 1111.19 2292
-790.844 1112.65 2295
-786.383 1114.1 2298
-780.887 1114.1 2298
-775.392 1114.1 2298
-768.892 1112.65 2295
-763.404 1112.65 2295
-757.916 1112.65 2295
-751.444 1111.19 2292
-744.661 1109.25 2288
-739.19 1109.25 2288
-731.795 1106.34 2282
-725.383 1104.89 2279
-718.985 1103.43 2276
-713.543 1103.43 2276
-708.1 1103.43 2276
-702.658 1103.43 2276
-699.972 1107.8 2285
-696.635 1111.19 2292
-691.155 1111.19 2292
-686.571 1112.65 2295
-683.754 1117.01 2304
-678.244 1117.01 2304
-672.735 1117.01 2304
-669.253 1120.4 2311
-665.449 1123.31 2317
-659.909 1123.31 2317
-654.368 1123.31 2317
-648.827 1123.31 2317
-643.287 1123.31 2317
-637.746 1123.31 2317
-632.206 1123.31 2317
-629.37 1128.16 2327
-623.805 1128.16 2327
-618.24 1128.16 2327
-612.676 1128.16 2327
-607.111 1128.16 2327
-601.547 1128.16 2327
-595.982 1128.16 2327
-588.642 1124.77 2320
-583.094 1124.77 2320
-577.546 1124.77 2320
-571.998 1124.77 2320
-566.45 1124.77 2320
-560.902 1124.77 2320
-556.073 1126.22 2323
-552.177 1129.61 2330
-546.605 1129.61 2330
-541.033 1129.61 2330
-533.163 1124.77 2320
-527.615 1124.77 2320
-522.068 1124.77 2320
-515.852 1123.31 2317
-508.109 1118.46 2307
-501.938 1117.01 2304
-496.429 1117.01 2304
-490.919 1117.01 2304
-485.41 1117.01 2304
-479.9 1117.01 2304
-475.008 1118.46 2307
-469.492 1118.46 2307
-463.975 1118.46 2307
-458.458 1118.46 2307
-452.941 1118.46 2307
-446.843 1117.01 2304
-441.333 1117.01 2304
-435.256 1115.55 2301
-429.754 1115.55 2301
-423.698 1114.1 2298
-417.111 1111.19 2292
-413.247 1115.55 2301
-409.516 1120.4 2311
-403.99 1120.4 2311
-398.981 1121.86 2314
-393.448 1121.86 2314
-388.92 1124.77 2320
-383.372 1124.77 2320
-377.824 1124.77 2320
-372.276 1124.77 2320
-365.306 1120.4 2311
-359.78 1120.4 2311
-353.64 1118.46 2307
-345.86 1111.19 2292
-340.379 1111.19 2292
-334.898 1111.19 2292
-329.417 1111.19 2292
-324.36 1112.65 2295
-318.872 1112.65 2295
-313.384 1112.65 2295
-307.896 1112.65 2295
-302.408 1112.65 2295
-296.532 1111.19 2292
-291.051 1111.19 2292
-285.57 1111.19 2292
-280.456 1112.65 2295
-275.328 1114.1 2298
-270.185 1115.55 2301
-264.682 1115.55 2301
-259.18 1115.55 2301
-253.677 1115.55 2301
-248.822 1118.46 2307
-243.305 1118.46 2307
-238.51 1121.86 2314
-233.581 1124.77 2320
-228.328 1126.22 2323
-222.773 1126.22 2323
-217.218 1126.22 2323
-212.027 1128.16 2327
-206.463 1128.16 2327
-201.416 1131.07 2333
-195.837 1131.07 2333
-190.258 1131.07 2333
-184.679 1131.07 2333
-179.408 1133.01 2337
-173.819 1133.01 2337
-168.231 1133.01 2337
-162.642 1133.01 2337
-157.054 1133.01 2337
-150.817 1128.16 2327
-145.253 1128.16 2327
-136.266 1100.53 2270
-131.184 1103.43 2276
-125.741 1103.43 2276
-120.299 1103.43 2276
-114.856 1103.43 2276
-109.414 1103.43 2276
62.7015 1068.53 2204
67.972 1068.53 2204
73.2424 1068.53 2204
78.406 1067.07 2201
83.6692 1067.07 2201
88.8113 1065.62 2198
94.0674 1065.62 2198
99.0523 1062.71 2192
103.485 1054.47 2175
108.386 1051.56 2169
113.573 1051.56 2169
118.158 1046.23 2158
123.147 1044.77 2155
128.3 1044.77 2155
133.453 1044.77 2155
138.285 1042.35 2150
221.999 1100.53 2270
229.23 1109.25 2288
234.702 1109.25 2288
241.223 1114.1 2298
248.114 1120.4 2311
254.298 1123.31 2317
259.839 1123.31 2317
266.067 1126.22 2323
271.622 1126.22 2323
277.654 1128.16 2327
283.219 1128.16 2327
288.783 1128.16 2327
293.842 1126.22 2323
299.397 1126.22 2323
304.952 1126.22 2323
310.507 1126.22 2323
316.062 1126.22 2323
321.617 1126.22 2323
327.735 1128.16 2327
333.3 1128.16 2327
338.864 1128.16 2327
344.873 1129.61 2330
350.896 1131.07 2333
356.475 1131.07 2333
362.054 1131.07 2333
368.263 1133.01 2337
373.851 1133.01 2337
379.44 1133.01 2337
385.523 1134.46 2340
391.62 1135.92 2343
397.223 1135.92 2343
402.825 1135.92 2343
408.428 1135.92 2343
413.501 1134.46 2340
419.096 1134.46 2340
425.237 1135.92 2343
430.839 1135.92 2343
437.001 1137.37 2346
442.611 1137.37 2346
448.221 1137.37 2346
452.67 1134.46 2340
458.266 1134.46 2340
463.267 1133.01 2337
468.855 1133.01 2337
473.632 1131.07 2333
478.595 1129.61 2330
482.088 1124.77 2320
487.636 1124.77 2320
493.184 1124.77 2320
497.442 1121.86 2314
502.975 1121.86 2314
508.509 1121.86 2314
513.376 1120.4 2311
518.902 1120.4 2311
523.521 1118.46 2307
529.038 1118.46 2307
533.859 1117.01 2304
539.369 1117.01 2304
544.878 1117.01 2304
549.671 1115.55 2301
555.174 1115.55 2301
559.214 1112.65 2295
563.964 1111.19 2292
569.445 1111.19 2292
574.926 1111.19 2292
580.406 1111.19 2292
585.887 1111.19 2292
592.142 1112.65 2295
598.412 1114.1 2298
603.907 1114.1 2298
610.993 1117.01 2304
616.503 1117.01 2304
622.012 1117.01 2304
627.522 1117.01 2304
633.031 1117.01 2304
637.709 1115.55 2301
644.05 1117.01 2304
649.56 1117.01 2304
657.06 1120.4 2311
665.167 1124.77 2320
673.605 1129.61 2330
680.052 1131.07 2333
685.63 1131.07 2333
693.283 1134.46 2340
698.879 1134.46 2340
704.475 1134.46 2340
710.07 1134.46 2340
715.666 1134.46 2340
721.262 1134.46 2340
726.857 1134.46 2340
730.262 1131.07 2333
735.841 1131.07 2333
740.466 1129.61 2330
746.038 1129.61 2330
751.61 1129.61 2330
759.456 1133.01 2337
767.009 1135.92 2343
772.612 1135.92 2343
778.214 1135.92 2343
783.817 1135.92 2343
789.42 1135.92 2343
795.023 1135.92 2343
797.209 1131.07 2333
801.755 1129.61 2330
806.288 1128.16 2327
812.899 1129.61 2330
818.471 1129.61 2330
824.042 1129.61 2330
830.682 1131.07 2333
838.77 1134.46 2340
845.448 1135.92 2343
851.051 1135.92 2343
857.751 1137.37 2346
864.833 1139.31 2350
870.453 1139.31 2350
876.072 1139.31 2350
881.692 1139.31 2350
888.444 1140.76 2353
894.071 1140.76 2353
899.697 1140.76 2353
906.478 1142.22 2356
912.112 1142.22 2356
919.304 1144.16 2360
924.948 1144.16 2360
934.534 1149.01 2370
942.582 1151.92 2376
948.264 1151.92 2376
953.946 1151.92 2376
959.627 1151.92 2376
964.09 1150.46 2373
969.765 1150.46 2373
975.439 1150.46 2373
979.874 1149.01 2370
992.61 1157.25 2387
1003.76 1163.55 2400
1011.18 1165.49 2404
1016.93 1165.49 2404
1023.95 1166.94 2407
1029.71 1166.94 2407
1035.46 1166.94 2407
1041.22 1166.94 2407
1046.97 1166.94 2407
1045.29 1158.7 2390
1051.01 1158.7 2390
1052.3 1153.85 2380
1056.22 1151.92 2376
1061.9 1151.92 2376
1067.58 1151.92 2376
1067.39 1145.61 2363
1071.68 1144.16 2360
1078.69 1145.61 2363
1084.34 1145.61 2363
1089.99 1145.61 2363
1095.64 1145.61 2363
1099.9 1144.16 2360
1103.67 1142.22 2356
1109.3 1142.22 2356
1110.2 1137.37 2346
1112.96 1134.46 2340
1117.12 1133.01 2337
1122.71 1133.01 2337
1123.47 1128.16 2327
1131.94 1131.07 2333
1140.94 1134.46 2340
1146.53 1134.46 2340
1152.13 1134.46 2340
1154.26 1131.07 2333
1158.35 1129.61 2330
1165.42 1131.07 2333
1171 1131.07 2333
1176.57 1131.07 2333
1182.15 1131.07 2333
1186.21 1129.61 2330
1191.78 1129.61 2330
1195.81 1128.16 2327
1197.76 1124.77 2320
1204.86 1126.22 2323
1210.42 1126.22 2323
1215.97 1126.22 2323
1221.53 1126.22 2323
1227.08 1126.22 2323
1232.64 1126.22 2323
1238.19 1126.22 2323
1243.75 1126.22 2323
1249.3 1126.22 2323
1254.86 1126.22 2323
1251.73 1118.46 2307
1257.25 1118.46 2307
1262.76 1118.46 2307
1273.78 1123.31 2317
1279.32 1123.31 2317
1284.86 1123.31 2317
1292.07 1124.77 2320
1297.62 1124.77 2320
1303.17 1124.77 2320
1308.71 1124.77 2320
1314.26 1124.77 2320
1321.52 1126.22 2323
1327.07 1126.22 2323
1332.63 1126.22 2323
1338.18 1126.22 2323
1342 1124.77 2320
1347.55 1124.77 2320
1353.1 1124.77 2320
1358.64 1124.77 2320
1364.19 1124.77 2320
1373.87 1128.16 2327
1382.99 1131.07 2333
1388.57 1131.07 2333
1394.15 1131.07 2333
1397.93 1129.61 2330
1403.5 1129.61 2330
1404.84 1126.22 2323
1408.57 1124.77 2320
1412.29 1123.31 2317
1417.83 1123.31 2317
1421.53 1121.86 2314
1422.75 1118.46 2307
1428.27 1118.46 2307
1433.78 1118.46 2307
1437.43 1117.01 2304
1442.94 1117.01 2304
1450.33 1118.46 2307
1458.37 1120.4 2311
1463.9 1120.4 2311
1469.43 1120.4 2311
1474.95 1120.4 2311
1486.24 1124.77 2320
1491.79 1124.77 2320
1497.34 1124.77 2320
1502.89 1124.77 2320
1523.39 1135.92 2343
1553.14 1153.85 2380
1558.83 1153.85 2380
1564.52 1153.85 2380
1530.63 1124.77 2320
1536.17 1124.77 2320
1529.1 1115.55 2301
1534.6 1115.55 2301
1534.08 1111.19 2292
1539.56 1111.19 2292
1545.04 1111.19 2292
1550.52 1111.19 2292
1558.04 1112.65 2295
1563.53 1112.65 2295
1569.01 1112.65 2295
1574.5 1112.65 2295
1579.99 1112.65 2295
1583.41 1111.19 2292
1588.89 1111.19 2292
1587.41 1106.34 2282
1586.59 1101.98 2273
1592.02 1101.98 2273
1597.46 1101.98 2273
1600.78 1100.53 2270
1601.96 1097.62 2264
1602.4 1094.22 2257
1621.34 1103.43 2276
1644.65 1115.55 2301
1650.15 1115.55 2301
1669.32 1124.77 2320
1682.09 1129.61 2330
1692.73 1133.01 2337
1698.32 1133.01 2337
1706.1 1134.46 2340
1711.69 1134.46 2340
1717.29 1134.46 2340
1717.73 1131.07 2333
1723.31 1131.07 2333
1736.3 1135.92 2343
1741.9 1135.92 2343
1747.5 1135.92 2343
1786.03 1157.25 2387
1801.49 1163.55 2400
1810.25 1165.49 2404
1815.99 1165.49 2404
1821.74 1165.49 2404
1851.06 1180.52 2435
1856.88 1180.52 2435
1862.7 1180.52 2435
-1546.26 1108.89 2276
-1570.61 1130.32 2320
-1565.06 1130.32 2320
-1559.51 1130.32 2320
-1553.96 1130.32 2320
-1539.74 1123.99 2307
-1534.22 1123.99 2307
-1526.72 1122.53 2304
-1513.28 1116.68 2292
-1505.17 1114.73 2288
-1499.7 1114.73 2288
-1490.31 1111.81 2282
-1482.9 1110.35 2279
-1477.45 1110.35 2279
-1472 1110.35 2279
-1466.55 1110.35 2279
-1457.26 1107.42 2273
-1449.9 1105.96 2270
-1442.57 1104.5 2267
-1437.15 1104.5 2267
-1423.52 1098.17 2254
-1416.24 1096.71 2251
-1410.85 1096.71 2251
-1405.47 1096.71 2251
-1398.22 1095.24 2248
-1377.98 1083.55 2224
-1368.96 1080.63 2218
-1363.65 1080.63 2218
-1358.35 1080.63 2218
-1351.21 1079.17 2215
-1349.56 1082.09 2221
-1360.59 1095.24 2248
-1355.22 1095.24 2248
-1349.84 1095.24 2248
-1346.26 1096.71 2251
-1340.88 1096.71 2251
-1335.5 1096.71 2251
-1331.89 1098.17 2254
-1328.26 1099.63 2257
-1328.72 1104.5 2267
-1323.3 1104.5 2267
-1317.88 1104.5 2267
-1312.46 1104.5 2267
-1307.04 1104.5 2267
-1301.62 1104.5 2267
-1287.05 1096.71 2251
-1281.67 1096.71 2251
-1277.99 1098.17 2254
-1272.6 1098.17 2254
-1267.21 1098.17 2254
-1260.14 1096.71 2251
-1256.43 1098.17 2254
-1251.04 1098.17 2254
-1251.17 1103.04 2264
-1252.36 1108.89 2276
-1246.92 1108.89 2276
-1241.48 1108.89 2276
-1240.92 1113.27 2285
-1235.46 1113.27 2285
-1229.99 1113.27 2285
-1219.71 1108.89 2276
-1212.66 1107.42 2273
-1202.45 1103.04 2264
-1197.03 1103.04 2264
-1178.46 1090.86 2239
-1166.82 1085.01 2227
-1158.36 1082.09 2221
-1153.05 1082.09 2221
-1147.74 1082.09 2221
-1139.34 1079.17 2215
-1137.12 1082.09 2221
-1136.4 1086.47 2230
-1135.63 1090.86 2239
-1130.27 1090.86 2239
-1129.44 1095.24 2248
-1124.07 1095.24 2248
-1118.69 1095.24 2248
-1110.34 1092.32 2242
-1086.25 1073.81 2204
-1071.17 1064.06 2184
-1065.95 1064.06 2184
-1059.27 1062.6 2181
-1049.71 1058.22 2172
-1044.51 1058.22 2172
-1054.63 1073.81 2204
-1049.36 1073.81 2204
-1044.09 1073.81 2204
-1038.82 1073.81 2204
-1033.55 1073.81 2204
-1022.68 1067.96 2192
-1012.33 1062.6 2181
-1014.97 1070.88 2198
-1009.71 1070.88 2198
-1004.45 1070.88 2198
-999.198 1070.88 2198
-987.611 1064.06 2184
