1026.59 1132.41 2483
1035.44 1135.61 2490
1041.4 1135.61 2490
1047.35 1135.61 2490
1059.65 1142.45 2505
1068.62 1145.64 2512
1074.62 1145.64 2512
1080.63 1145.64 2512
1086.64 1145.64 2512
1086.12 1138.8 2497
1092.09 1138.8 2497
1098.06 1138.8 2497
1104.03 1138.8 2497
1110.01 1138.8 2497
1112.85 1135.61 2490
1118.8 1135.61 2490
1122.95 1133.78 2486
1125.72 1130.59 2479
1134.84 1133.78 2486
1140.78 1133.78 2486
1146.73 1133.78 2486
1151.28 1132.41 2483
1157.22 1132.41 2483
1163.16 1132.41 2483
1170.51 1133.78 2486
1176.45 1133.78 2486
1182.4 1133.78 2486
1192.17 1137.43 2494
1201.49 1140.62 2501
1207.47 1140.62 2501
1220.73 1147.46 2516
1234.55 1154.76 2532
1240.61 1154.76 2532
1246.66 1154.76 2532
1256.18 1157.95 2539
1266.23 1161.6 2547
1274.32 1163.43 2551
1280.42 1163.43 2551
1286.52 1163.43 2551
1292.62 1163.43 2551
1298.72 1163.43 2551
1302.77 1161.6 2547
1306.81 1159.78 2543
1314.95 1161.6 2547
1321.04 1161.6 2547
1327.13 1161.6 2547
1333 1156.13 2535
1339.07 1156.13 2535
1345.13 1156.13 2535
1338.93 1145.64 2512
1343.33 1144.27 2509
1335.35 1132.41 2483
1341.29 1132.41 2483
1336.92 1123.75 2464
1338.99 1120.56 2457
1344.87 1120.56 2457
1354.59 1123.75 2464
1360.48 1123.75 2464
1374.69 1130.59 2479
1382.85 1132.41 2483
1401.09 1142.45 2505
1407.08 1142.45 2505
1421.53 1149.29 2520
1427.56 1149.29 2520
1433.59 1149.29 2520
1439.61 1149.29 2520
1445.64 1149.29 2520
1451.66 1149.29 2520
1457.69 1149.29 2520
1463.72 1149.29 2520
1460.99 1142.45 2505
1464.64 1140.62 2501
1470.62 1140.62 2501
1476.6 1140.62 2501
1473.69 1133.78 2486
1468.92 1125.57 2468
1472.43 1123.75 2464
1478.33 1123.75 2464
1471.57 1114.17 2443
1470.76 1109.15 2432
1472.32 1105.96 2425
1478.12 1105.96 2425
1483.92 1105.96 2425
1476.82 1096.38 2404
1475.79 1091.37 2393
1488.32 1096.38 2404
1495.93 1097.75 2407
1501.69 1097.75 2407
1518.72 1105.96 2425
1530.8 1110.52 2435
1564.39 1130.59 2479
1570.32 1130.59 2479
1583.24 1135.61 2490
1591.75 1137.43 2494
1602.2 1140.62 2501
1608.18 1140.62 2501
1616.74 1142.45 2505
1622.73 1142.45 2505
1635.87 1147.46 2516
1652.33 1154.76 2532
1658.39 1154.76 2532
1666.41 1156.13 2535
1677.75 1159.78 2543
1683.83 1159.78 2543
1689.91 1159.78 2543
1701.33 1163.43 2551
1707.43 1163.43 2551
1713.53 1163.43 2551
1716.93 1161.6 2547
1723.03 1161.6 2547
1729.12 1161.6 2547
1735.21 1161.6 2547
1741.3 1161.6 2547
1731.61 1151.11 2524
1714.24 1135.61 2490
1720.19 1135.61 2490
1706.04 1122.38 2461
1686.88 1105.96 2425
1678.03 1096.38 2404
1683.77 1096.38 2404
1696.55 1100.95 2414
1702.32 1100.95 2414
1708.1 1100.95 2414
1713.87 1100.95 2414
1719.64 1100.95 2414
1718.27 1096.38 2404
1724.01 1096.38 2404
1714.65 1086.81 2383
1705.91 1077.69 2363
1711.56 1077.69 2363
1717.21 1077.69 2363
1717.76 1074.49 2356
1721.2 1073.12 2353
1726.83 1073.12 2353
1732.45 1073.12 2353
1743.25 1076.32 2360
1748.9 1076.32 2360
1759 1079.05 2366
1764.66 1079.05 2366
1770.32 1079.05 2366
1766.21 1073.12 2353
1771.84 1073.12 2353
1777.47 1073.12 2353
1777.79 1069.93 2346
1765.92 1059.44 2323
1754.69 1049.41 2301
1760.2 1049.41 2301
-1791.7 1097.1 2393
-1785.98 1097.1 2393
-1795.88 1106.73 2414
-1790.1 1106.73 2414
-1784.33 1106.73 2414
-1778.56 1106.73 2414
-1749.69 1106.73 2414
-1743.92 1106.73 2414
-1738.15 1106.73 2414
-1707.98 1091.14 2380
-1673.68 1072.8 2340
-1670.22 1074.18 2343
-1664.62 1074.18 2343
-1673.18 1083.35 2363
-1667.52 1083.35 2363
-1666.8 1086.56 2370
-1661.13 1086.56 2370
-1655.46 1086.56 2370
-1628.91 1072.8 2340
-1623.32 1072.8 2340
-1605.97 1065.01 2323
-1603.17 1066.84 2327
-1597.6 1066.84 2327
-1592.04 1066.84 2327
-1586.47 1066.84 2327
-1578.19 1065.01 2323
-1566.54 1060.88 2314
-1563.03 1062.26 2317
-1557.49 1062.26 2317
-1553.96 1063.63 2320
-1550.42 1065.01 2323
-1544.86 1065.01 2323
-1539.31 1065.01 2323
-1533.75 1065.01 2323
-1526.22 1063.63 2320
-1520.68 1063.63 2320
-1509.25 1059.51 2311
-1503.72 1059.51 2311
-1502.09 1062.26 2317
-1496.55 1062.26 2317
-1491.01 1062.26 2317
-1487.39 1063.63 2320
-1481.84 1063.63 2320
-1476.29 1063.63 2320
-1470.75 1063.63 2320
-1465.2 1063.63 2320
-1457.76 1062.26 2317
-1452.22 1062.26 2317
-1446.68 1062.26 2317
-1437.41 1059.51 2311
-1429.4 1057.67 2307
-1420.18 1054.92 2301
-1414.68 1054.92 2301
-1409.18 1054.92 2301
-1401.85 1053.55 2298
-1407.9 1062.26 2317
-1410.22 1068.22 2330
-1404.65 1068.22 2330
-1403.28 1071.43 2337
-1397.7 1071.43 2337
-1393.89 1072.8 2340
-1388.3 1072.8 2340
-1390.38 1078.76 2353
-1386.52 1080.14 2356
-1380.89 1080.14 2356
-1375.26 1080.14 2356
-1369.62 1080.14 2356
-1366.3 1081.97 2360
-1362.39 1083.35 2363
-1356.74 1083.35 2363
-1351.09 1083.35 2363
-1341.45 1080.14 2356
-1335.82 1080.14 2356
-1330.18 1080.14 2356
-1324.55 1080.14 2356
-1317.24 1078.76 2353
-1311.61 1078.76 2353
-1305.98 1078.76 2353
-1300.36 1078.76 2353
-1294.73 1078.76 2353
-1289.1 1078.76 2353
-1278.02 1074.18 2343
-1276.22 1077.39 2350
-1270.6 1077.39 2350
-1264.98 1077.39 2350
-1257.22 1075.55 2346
-1248.41 1072.8 2340
-1241.22 1071.43 2337
-1235.63 1071.43 2337
-1227.94 1069.59 2333
-1215.55 1063.63 2320
-1201.65 1056.3 2304
-1196.14 1056.3 2304
-1190.63 1056.3 2304
-1188.72 1059.51 2311
-1183.2 1059.51 2311
-1177.67 1059.51 2311
-1172.15 1059.51 2311
-1168.13 1060.88 2314
-1164.11 1062.26 2317
-1158.57 1062.26 2317
-1153.03 1062.26 2317
-1147.49 1062.26 2317
-1148.35 1068.22 2330
-1144.25 1069.59 2333
-1138.67 1069.59 2333
-1135.04 1071.43 2337
-1130.9 1072.8 2340
-1125.3 1072.8 2340
-1119.71 1072.8 2340
-1120.3 1078.76 2353
-1114.67 1078.76 2353
-1115.17 1084.72 2366
-1109.52 1084.72 2366
-1110.39 1091.14 2380
-1113.98 1100.31 2400
-1116.56 1108.56 2418
-1110.77 1108.56 2418
-1104.99 1108.56 2418
-1108.76 1118.19 2439
-1102.92 1118.19 2439
-1097.09 1118.19 2439
-1091.26 1118.19 2439
-1087.21 1120.02 2443
-1081.36 1120.02 2443
-1075.52 1120.02 2443
-1064.86 1114.98 2432
-1046.85 1102.14 2404
-1032.01 1092.52 2383
-1026.31 1092.52 2383
-1017.62 1089.31 2376
-1007.68 1084.72 2366
-1002.02 1084.72 2366
-996.36 1084.72 2366
-990.703 1084.72 2366
-982.547 1081.97 2360
-971.108 1075.55 2346
-965.498 1075.55 2346
-953.342 1068.22 2330
-946.55 1066.84 2327
-940.985 1066.84 2327
-935.42 1066.84 2327
-929.856 1066.84 2327
-924.291 1066.84 2327
-918.727 1066.84 2327
-915.517 1069.59 2333
-909.938 1069.59 2333
-904.359 1069.59 2333
-901.477 1072.8 2340
-899.71 1077.39 2350
-894.09 1077.39 2350
-888.471 1077.39 2350
-881.348 1075.55 2346
-875.738 1075.55 2346
-869.016 1074.18 2343
-861.202 1071.43 2337
-856.712 1072.8 2340
-851.116 1072.8 2340
-845.52 1072.8 2340
-841.001 1074.18 2343
-836.468 1075.55 2346
-833.337 1078.76 2353
-827.711 1078.76 2353
-824.53 1081.97 2360
-819.927 1083.35 2363
-814.276 1083.35 2363
-809.652 1084.72 2366
-803.995 1084.72 2366
-798.337 1084.72 2366
-791.674 1083.35 2363
-786.023 1083.35 2363
-778.061 1080.14 2356
-771.443 1078.76 2353
-765.817 1078.76 2353
-762.451 1081.97 2360
-756.808 1081.97 2360
-752.119 1083.35 2363
-747.416 1084.72 2366
-743.012 1086.56 2370
-737.345 1086.56 2370
-731.678 1086.56 2370
-726.01 1086.56 2370
-720.343 1086.56 2370
-714.676 1086.56 2370
-709.008 1086.56 2370
-703.341 1086.56 2370
-697.673 1086.56 2370
-692.006 1086.56 2370
-686.339 1086.56 2370
-680.671 1086.56 2370
-675.004 1086.56 2370
-668.207 1084.72 2366
-662.549 1084.72 2366
-656.891 1084.72 2366
-653.16 1087.93 2373
-647.485 1087.93 2373
-643.704 1091.14 2380
-638.817 1092.52 2383
-633.119 1092.52 2383
-627.42 1092.52 2383
-621.722 1092.52 2383
-616.023 1092.52 2383
-612.117 1095.72 2390
-606.402 1095.72 2390
-602.446 1098.93 2397
-598.457 1102.14 2404
-592.708 1102.14 2404
-586.96 1102.14 2404
-581.211 1102.14 2404
-574.505 1100.31 2400
-568.766 1100.31 2400
-562.323 1098.93 2397
-554.965 1095.72 2390
-549.25 1095.72 2390
-543.535 1095.72 2390
-537.82 1095.72 2390
-532.104 1095.72 2390
-525.729 1094.35 2387
-517.624 1089.31 2376
-513.451 1092.52 2383
-507.752 1092.52 2383
-504.16 1097.1 2393
-498.438 1097.1 2393
-492.716 1097.1 2393
-486.993 1097.1 2393
-481.271 1097.1 2393
-475.548 1097.1 2393
-469.826 1097.1 2393
-464.104 1097.1 2393
-455.125 1089.31 2376
-448.876 1087.93 2373
-443.201 1087.93 2373
-436.973 1086.56 2370
-430.578 1084.72 2366
-426.177 1087.93 2373
-422.275 1092.52 2383
-416.576 1092.52 2383
-411.568 1094.35 2387
-406.37 1095.72 2390
-402.331 1100.31 2400
-396.592 1100.31 2400
-390.853 1100.31 2400
-385.114 1100.31 2400
-379.374 1100.31 2400
-372.546 1097.1 2393
-366.823 1097.1 2393
-362.157 1100.31 2400
-359.091 1108.56 2418
-353.309 1108.56 2418
-347.958 1109.94 2421
-342.734 1111.77 2425
-338.88 1118.19 2439
-333.048 1118.19 2439
-327.215 1118.19 2439
-321.383 1118.19 2439
-315.033 1116.36 2435
-309.21 1116.36 2435
-302.515 1113.15 2428
-296.343 1111.77 2425
-288.387 1103.52 2407
-282.631 1103.52 2407
-276.07 1100.31 2400
-269.993 1098.93 2397
-263.489 1095.72 2390
-257.774 1095.72 2390
-252.059 1095.72 2390
-246.344 1095.72 2390
-240.629 1095.72 2390
-234.913 1095.72 2390
-227.568 1087.93 2373
-220.678 1081.97 2360
-213.485 1074.18 2343
-208.503 1077.39 2350
-202.884 1077.39 2350
-197.264 1077.39 2350
-191.645 1077.39 2350
-186.025 1077.39 2350
-97.0564 1027.87 2242
-91.6951 1027.87 2242
-86.3338 1027.87 2242
-80.9725 1027.87 2242
-75.6112 1027.87 2242
-70.0619 1025.12 2236
-64.715 1025.12 2236
-59.368 1025.12 2236
-54.0211 1025.12 2236
-48.8047 1027.87 2242
-43.4434 1027.87 2242
-38.184 1030.62 2248
-32.8084 1030.62 2248
-27.4694 1032 2251
-22.0865 1032 2251
-16.7037 1032 2251
-11.3058 1030.62 2248
-5.89849 1025.12 2236
-0.543642 1010.45 2204
4.72679 1010.45 2204
9.9564 1006.32 2195
15.1845 1004.95 2192
20.4263 1004.95 2192
25.668 1004.95 2192
30.7546 999.906 2181
35.9206 998.531 2178
40.9589 994.405 2169
46.2094 995.78 2172
51.5454 998.531 2178
56.7536 998.531 2178
61.9619 998.531 2178
67.1701 998.531 2178
72.4781 999.906 2181
77.6935 999.906 2181
82.9089 999.906 2181
88.0032 998.531 2178
93.2114 998.531 2178
98.1485 995.78 2172
102.819 990.737 2161
107.987 990.737 2161
113.154 990.737 2161
118.322 990.737 2161
123.49 990.737 2161
128.657 990.737 2161
134.01 992.112 2164
139.185 992.112 2164
144.36 992.112 2164
231.778 1086.56 2370
237.446 1086.56 2370
243.113 1086.56 2370
248.781 1086.56 2370
254.448 1086.56 2370
260.115 1086.56 2370
265.334 1084.72 2366
271.45 1086.56 2370
278.287 1091.14 2380
284.336 1092.52 2383
290.034 1092.52 2383
295.733 1092.52 2383
301.431 1092.52 2383
307.13 1092.52 2383
310.597 1084.72 2366
315.853 1083.35 2363
320.144 1078.76 2353
325.77 1078.76 2353
331.397 1078.76 2353
337.024 1078.76 2353
343.67 1081.97 2360
349.757 1083.35 2363
355.408 1083.35 2363
361.059 1083.35 2363
367.175 1084.72 2366
372.833 1084.72 2366
379.61 1087.93 2373
385.285 1087.93 2373
390.959 1087.93 2373
396.634 1087.93 2373
402.309 1087.93 2373
407.983 1087.93 2373
413.135 1086.56 2370
418.802 1086.56 2370
427.514 1094.35 2387
433.222 1094.35 2387
438.93 1094.35 2387
447.805 1102.14 2404
455.44 1106.73 2414
461.213 1106.73 2414
466.986 1106.73 2414
472.758 1106.73 2414
478.531 1106.73 2414
484.303 1106.73 2414
490.076 1106.73 2414
497.286 1109.94 2421
504.53 1113.15 2428
511.177 1114.98 2432
516.993 1114.98 2432
522.809 1114.98 2432
528.624 1114.98 2432
534.44 1114.98 2432
540.255 1114.98 2432
546.745 1116.36 2435
552.568 1116.36 2435
558.39 1116.36 2435
564.213 1116.36 2435
570.036 1116.36 2435
578.46 1121.4 2446
584.309 1121.4 2446
590.159 1121.4 2446
596.008 1121.4 2446
601.857 1121.4 2446
607.706 1121.4 2446
611.799 1118.19 2439
617.632 1118.19 2439
620.652 1113.15 2428
626.458 1113.15 2428
630.441 1109.94 2421
636.231 1109.94 2421
639.368 1105.35 2411
644.063 1103.52 2407
649.819 1103.52 2407
655.575 1103.52 2407
658.583 1098.93 2397
664.315 1098.93 2397
670.047 1098.93 2397
675.779 1098.93 2397
679.521 1095.72 2390
685.236 1095.72 2390
690.951 1095.72 2390
696.667 1095.72 2390
698.267 1089.31 2376
702.172 1086.56 2370
707.839 1086.56 2370
713.506 1086.56 2370
719.174 1086.56 2370
724.841 1086.56 2370
730.508 1086.56 2370
738.04 1089.31 2376
743.721 1089.31 2376
749.403 1089.31 2376
755.085 1089.31 2376
762.047 1091.14 2380
767.739 1091.14 2380
773.43 1091.14 2380
776.83 1087.93 2373
782.504 1087.93 2373
788.179 1087.93 2373
791.512 1084.72 2366
796.159 1083.35 2363
801.809 1083.35 2363
807.46 1083.35 2363
814.143 1084.72 2366
821.187 1086.56 2370
830.343 1091.14 2380
836.034 1091.14 2380
841.726 1091.14 2380
847.417 1091.14 2380
853.108 1091.14 2380
857.356 1089.31 2376
863.038 1089.31 2376
870.182 1091.14 2380
876.977 1092.52 2383
886.38 1097.1 2393
892.102 1097.1 2393
901.952 1102.14 2404
910.344 1105.35 2411
916.109 1105.35 2411
921.874 1105.35 2411
928.794 1106.73 2414
934.567 1106.73 2414
941.897 1108.56 2418
947.68 1108.56 2418
957.405 1113.15 2428
967.575 1118.19 2439
973.407 1118.19 2439
979.24 1118.19 2439
989.515 1123.23 2450
996.592 1124.61 2453
1009.81 1132.86 2471
1015.72 1132.86 2471
1026.59 1138.36 2483
1035.44 1141.57 2490
1041.4 1141.57 2490
1047.35 1141.57 2490
1059.65 1148.45 2505
1068.62 1151.66 2512
1074.62 1151.66 2512
1080.63 1151.66 2512
1086.64 1151.66 2512
1086.12 1144.78 2497
1092.09 1144.78 2497
1098.06 1144.78 2497
1104.03 1144.78 2497
1110.01 1144.78 2497
1112.85 1141.57 2490
1118.8 1141.57 2490
1122.95 1139.74 2486
1125.72 1136.53 2479
1134.84 1139.74 2486
1140.78 1139.74 2486
1146.73 1139.74 2486
1151.28 1138.36 2483
1157.22 1138.36 2483
1163.16 1138.36 2483
1170.51 1139.74 2486
1176.45 1139.74 2486
1182.4 1139.74 2486
1192.17 1143.4 2494
1201.49 1146.61 2501
1207.47 1146.61 2501
1220.73 1153.49 2516
1234.55 1160.83 2532
1240.61 1160.83 2532
1246.66 1160.83 2532
1256.18 1164.04 2539
1266.23 1167.7 2547
1274.32 1169.54 2551
1280.42 1169.54 2551
1286.52 1169.54 2551
1292.62 1169.54 2551
1298.72 1169.54 2551
1302.77 1167.7 2547
1306.81 1165.87 2543
1314.95 1167.7 2547
1321.04 1167.7 2547
1327.13 1167.7 2547
1313.33 1150.28 2509
1333 1162.2 2535
1339.07 1162.2 2535
1345.13 1162.2 2535
1338.93 1151.66 2512
1343.33 1150.28 2509
1335.35 1138.36 2483
1341.29 1138.36 2483
1336.92 1129.65 2464
1338.99 1126.44 2457
1344.87 1126.44 2457
1354.59 1129.65 2464
1360.48 1129.65 2464
1374.69 1136.53 2479
1380.62 1136.53 2479
1386.55 1136.53 2479
1398.66 1141.57 2490
1404.61 1141.57 2490
1410.57 1141.57 2490
1418.8 1143.4 2494
1426.47 1144.78 2497
1432.44 1144.78 2497
1438.42 1144.78 2497
1444.39 1144.78 2497
1450.36 1144.78 2497
1456.33 1144.78 2497
1455.86 1139.74 2486
1460.04 1138.36 2483
1465.98 1138.36 2483
1467.17 1134.69 2475
1468.92 1131.48 2468
1459.89 1120.02 2443
1465.73 1120.02 2443
1466.75 1116.36 2435
1468.34 1113.15 2428
1468.07 1108.56 2418
1465.32 1102.14 2404
1471.07 1102.14 2404
1474.36 1100.31 2400
1475.79 1097.1 2393
1485.84 1100.31 2400
1494.07 1102.14 2404
1499.82 1102.14 2404
1509.95 1105.35 2411
1528.92 1114.98 2432
1564.39 1136.53 2479
1570.32 1136.53 2479
1583.24 1141.57 2490
1591.75 1143.4 2494
1602.2 1146.61 2501
1608.18 1146.61 2501
1616.74 1148.45 2505
1622.73 1148.45 2505
1631.32 1150.28 2509
1644.5 1155.32 2520
1650.53 1155.32 2520
1664.44 1160.83 2532
1672.47 1162.2 2535
1678.54 1162.2 2535
1684.6 1162.2 2535
1693.33 1164.04 2539
1699.4 1164.04 2539
1705.47 1164.04 2539
1711.54 1164.04 2539
1717.61 1164.04 2539
1718.93 1160.83 2532
1724.99 1160.83 2532
1728.31 1158.99 2528
1708.28 1141.57 2490
1694.27 1128.28 2461
1700.16 1128.28 2461
1671.38 1105.35 2411
1660.45 1094.35 2387
1666.16 1094.35 2387
1673.97 1095.72 2390
1679.68 1095.72 2390
1685.4 1095.72 2390
1693.24 1097.1 2393
1698.96 1097.1 2393
1704.68 1097.1 2393
1710.4 1097.1 2393
1708.95 1092.52 2383
1714.65 1092.52 2383
1705.91 1083.35 2363
1711.56 1083.35 2363
1707.77 1077.39 2350
1710.47 1075.55 2346
1711.69 1072.8 2340
1724.63 1077.39 2350
1730.25 1077.39 2350
1735.87 1077.39 2350
1743.71 1078.76 2353
1749.33 1078.76 2353
1754.96 1078.76 2353
1760.59 1078.76 2353
1760.96 1075.55 2346
1766.57 1075.55 2346
1772.18 1075.55 2346
1773.24 1072.8 2340
1765.92 1065.01 2323
1754.69 1054.92 2301
1760.2 1054.92 2301
-1771.48 1090.39 2366
-1771.05 1093.62 2373
-1765.37 1093.62 2373
-1759.7 1093.62 2373
-1748.85 1090.39 2366
-1738.77 1087.62 2360
-1747.52 1111.13 2411
-1741.76 1111.13 2411
-1735.99 1111.13 2411
-1672.1 1073.8 2330
-1661.52 1070.57 2323
-1660.95 1073.8 2330
-1655.38 1073.8 2330
-1659.01 1079.79 2343
-1658.35 1083.02 2350
-1652.73 1083.02 2350
-1647.11 1083.02 2350
-1641.49 1083.02 2350
-1621.95 1073.8 2330
-1616.38 1073.8 2330
-1605.97 1070.57 2323
-1603.17 1072.42 2327
-1597.6 1072.42 2327
-1592.04 1072.42 2327
-1583.75 1070.57 2323
-1578.19 1070.57 2323
-1564.51 1065.04 2311
-1561.01 1066.42 2314
-1555.48 1066.42 2314
-1551.95 1067.81 2317
-1546.41 1067.81 2317
-1540.87 1067.81 2317
-1535.33 1067.81 2317
-1529.79 1067.81 2317
-1517.67 1063.2 2307
-1512.15 1063.2 2307
-1502.72 1060.43 2301
-1497.22 1060.43 2301
-1491.71 1060.43 2301
-1486.21 1060.43 2301
-1484.57 1063.2 2307
-1479.05 1063.2 2307
-1473.54 1063.2 2307
-1468.02 1063.2 2307
-1462.5 1063.2 2307
-1456.99 1063.2 2307
-1449.58 1061.82 2304
-1444.07 1061.82 2304
-1438.56 1061.82 2304
-1433.05 1061.82 2304
-1425.69 1060.43 2301
-1420.18 1060.43 2301
-1414.68 1060.43 2301
-1403.67 1056.29 2292
-1401.85 1059.05 2298
-1404.25 1065.04 2311
-1410.22 1073.8 2330
-1404.65 1073.8 2330
-1403.28 1077.02 2337
-1397.7 1077.02 2337
-1393.89 1078.41 2340
-1388.3 1078.41 2340
-1390.38 1084.4 2353
-1386.52 1085.78 2356
-1380.89 1085.78 2356
-1375.26 1085.78 2356
-1369.62 1085.78 2356
-1366.3 1087.62 2360
-1362.39 1089.01 2363
-1356.74 1089.01 2363
-1351.09 1089.01 2363
-1341.45 1085.78 2356
-1335.82 1085.78 2356
-1330.18 1085.78 2356
-1324.55 1085.78 2356
-1317.24 1084.4 2353
-1311.61 1084.4 2353
-1305.98 1084.4 2353
-1300.36 1084.4 2353
-1294.73 1084.4 2353
-1289.1 1084.4 2353
-1278.02 1079.79 2343
-1276.22 1083.02 2350
-1270.6 1083.02 2350
-1264.98 1083.02 2350
-1257.22 1081.17 2346
-1248.41 1078.41 2340
-1241.22 1077.02 2337
-1235.63 1077.02 2337
-1227.94 1075.18 2333
-1215.55 1069.19 2320
-1208.43 1067.81 2317
-1202.89 1067.81 2317
-1197.35 1067.81 2317
-1188.72 1065.04 2311
-1183.2 1065.04 2311
-1177.67 1065.04 2311
-1172.15 1065.04 2311
-1169.65 1067.81 2317
-1164.11 1067.81 2317
-1158.57 1067.81 2317
-1153.03 1067.81 2317
-1150.46 1070.57 2323
-1148.35 1073.8 2330
-1144.25 1075.18 2333
-1138.67 1075.18 2333
-1135.04 1077.02 2337
-1130.9 1078.41 2340
-1125.3 1078.41 2340
-1119.71 1078.41 2340
-1120.3 1084.4 2353
-1114.67 1084.4 2353
-1115.17 1090.39 2366
-1109.52 1090.39 2366
-1110.39 1096.84 2380
-1113.98 1106.06 2400
-1116.56 1114.35 2418
-1110.77 1114.35 2418
-1104.99 1114.35 2418
-1108.76 1124.03 2439
-1102.92 1124.03 2439
-1097.09 1124.03 2439
-1091.26 1124.03 2439
-1087.21 1125.88 2443
-1081.36 1125.88 2443
-1075.52 1125.88 2443
-1064.86 1120.81 2432
-1046.85 1107.9 2404
-1032.01 1098.22 2383
-1026.31 1098.22 2383
-1017.62 1095 2376
-1007.68 1090.39 2366
-1002.02 1090.39 2366
-996.36 1090.39 2366
-990.703 1090.39 2366
-982.547 1087.62 2360
-971.108 1081.17 2346
-965.498 1081.17 2346
-953.342 1073.8 2330
-946.55 1072.42 2327
-940.985 1072.42 2327
-935.42 1072.42 2327
-929.856 1072.42 2327
-924.291 1072.42 2327
-918.727 1072.42 2327
-915.517 1075.18 2333
-909.938 1075.18 2333
-904.359 1075.18 2333
-901.477 1078.41 2340
-899.71 1083.02 2350
-894.09 1083.02 2350
-888.471 1083.02 2350
-881.348 1081.17 2346
-875.738 1081.17 2346
-869.016 1079.79 2343
-861.202 1077.02 2337
-856.712 1078.41 2340
-851.116 1078.41 2340
-845.52 1078.41 2340
-841.001 1079.79 2343
-836.468 1081.17 2346
-833.337 1084.4 2353
-827.711 1084.4 2353
-824.53 1087.62 2360
-819.927 1089.01 2363
-814.276 1089.01 2363
-809.652 1090.39 2366
-803.995 1090.39 2366
-798.337 1090.39 2366
-791.674 1089.01 2363
-786.023 1089.01 2363
-778.061 1085.78 2356
-771.443 1084.4 2353
-765.817 1084.4 2353
-762.451 1087.62 2360
-756.808 1087.62 2360
-752.119 1089.01 2363
-747.416 1090.39 2366
-743.012 1092.23 2370
-737.345 1092.23 2370
-731.678 1092.23 2370
-726.01 1092.23 2370
-720.343 1092.23 2370
-714.676 1092.23 2370
-709.008 1092.23 2370
-703.341 1092.23 2370
-697.673 1092.23 2370
-692.006 1092.23 2370
-686.339 1092.23 2370
-680.671 1092.23 2370
-675.004 1092.23 2370
-668.207 1090.39 2366
-662.549 1090.39 2366
-656.891 1090.39 2366
-653.16 1093.62 2373
-647.485 1093.62 2373
-643.704 1096.84 2380
-638.817 1098.22 2383
-633.119 1098.22 2383
-627.42 1098.22 2383
-621.722 1098.22 2383
-616.023 1098.22 2383
-612.117 1101.45 2390
-606.402 1101.45 2390
-602.446 1104.68 2397
-598.457 1107.9 2404
-592.708 1107.9 2404
-586.96 1107.9 2404
-581.211 1107.9 2404
-574.505 1106.06 2400
-568.766 1106.06 2400
-560.681 1101.45 2390
-554.965 1101.45 2390
-549.25 1101.45 2390
-543.535 1101.45 2390
-537.82 1101.45 2390
-532.104 1101.45 2390
-522.645 1093.62 2373
-516.971 1093.62 2373
-511.942 1095 2376
-506.261 1095 2376
-500.579 1095 2376
-498.438 1102.83 2393
-492.716 1102.83 2393
-486.993 1102.83 2393
-481.271 1102.83 2393
-475.548 1102.83 2393
-469.826 1102.83 2393
-460.225 1093.62 2373
-454.55 1093.62 2373
-447.552 1090.39 2366
-441.894 1090.39 2366
-435.683 1089.01 2363
-430.032 1089.01 2363
-424.382 1089.01 2363
-418.731 1089.01 2363
-413.08 1089.01 2363
-407.947 1090.39 2366
-404.669 1096.84 2380
-398.978 1096.84 2380
-393.287 1096.84 2380
-387.596 1096.84 2380
-381.904 1096.84 2380
-376.213 1096.84 2380
-370.522 1096.84 2380
-364.83 1096.84 2380
-361.101 1102.83 2393
-355.378 1102.83 2393
-350.24 1104.68 2397
-344.508 1104.68 2397
-339.766 1107.9 2404
-334.017 1107.9 2404
-329.224 1111.13 2411
-323.459 1111.13 2411
-317.693 1111.13 2411
-311.928 1111.13 2411
-306.163 1111.13 2411
-299.899 1109.28 2407
-293.776 1107.9 2404
-287.548 1106.06 2400
-281.809 1106.06 2400
-275.265 1102.83 2393
-268.867 1100.07 2387
-262.718 1098.22 2383
-257.019 1098.22 2383
-251.004 1096.84 2380
-244.901 1095 2376
-238.615 1092.23 2370
-232.948 1092.23 2370
-225.65 1084.4 2353
-219.088 1079.79 2343
-212.574 1075.18 2333
-206.995 1075.18 2333
-201.762 1077.02 2337
-196.173 1077.02 2337
-190.585 1077.02 2337
-91.9405 1036.01 2248
-86.6804 1037.39 2251
-81.2976 1037.39 2251
-75.9148 1037.39 2251
-70.5319 1037.39 2251
-65.2359 1038.77 2254
-59.8459 1038.77 2254
-54.4559 1038.77 2254
-48.9353 1036.01 2248
-43.4434 1033.24 2242
-38.0821 1033.24 2242
-32.677 1031.86 2239
-27.3229 1031.86 2239
-21.9688 1031.86 2239
-16.6147 1031.86 2239
-11.2605 1031.86 2239
-5.85892 1023.57 2221
-0.539942 1008.82 2189
4.69462 1008.82 2189
9.9065 1006.51 2184
15.1291 1006.51 2184
20.3517 1006.51 2184
25.5743 1006.51 2184
30.7123 1003.75 2178
35.8216 1000.98 2172
40.9589 999.6 2169
46.1456 999.6 2169
51.3324 999.6 2169
56.5191 999.6 2169
61.7058 999.6 2169
66.9851 1000.98 2172
72.2787 1002.37 2175
77.4798 1002.37 2175
82.6809 1002.37 2175
87.7607 1000.98 2172
92.9546 1000.98 2172
97.9226 998.679 2167
102.819 995.914 2161
107.987 995.914 2161
113.154 995.914 2161
118.322 995.914 2161
123.49 995.914 2161
128.479 994.531 2158
133.639 994.531 2158
138.799 994.531 2158
232.756 1096.84 2380
238.748 1098.22 2383
244.447 1098.22 2383
250.145 1098.22 2383
255.844 1098.22 2383
261.542 1098.22 2383
266.119 1093.62 2373
272.137 1095 2376
278.637 1098.22 2383
284.813 1100.07 2387
290.521 1100.07 2387
296.229 1100.07 2387
301.431 1098.22 2383
307.13 1098.22 2383
312.828 1098.22 2383
315.853 1089.01 2363
321.096 1087.62 2360
325.77 1084.4 2353
331.397 1084.4 2353
337.024 1084.4 2353
343.67 1087.62 2360
349.757 1089.01 2363
355.408 1089.01 2363
361.059 1089.01 2363
366.709 1089.01 2363
372.36 1089.01 2363
378.491 1090.39 2366
384.148 1090.39 2366
389.806 1090.39 2366
396.133 1092.23 2370
401.8 1092.23 2370
407.467 1092.23 2370
413.135 1092.23 2370
418.095 1090.39 2366
423.753 1090.39 2366
429.411 1090.39 2366
436.908 1095 2376
444.638 1100.07 2387
450.346 1100.07 2387
456.054 1100.07 2387
463.697 1104.68 2397
469.429 1104.68 2397
476.549 1107.9 2404
482.297 1107.9 2404
488.046 1107.9 2404
494.411 1109.28 2407
500.998 1111.13 2411
508.865 1115.74 2421
514.655 1115.74 2421
520.444 1115.74 2421
525.581 1114.35 2418
531.363 1114.35 2418
537.145 1114.35 2418
543.601 1115.74 2421
549.391 1115.74 2421
556.097 1117.58 2425
561.896 1117.58 2425
567.695 1117.58 2425
573.494 1117.58 2425
581.682 1122.19 2435
587.505 1122.19 2435
594.302 1124.03 2439
600.134 1124.03 2439
605.967 1124.03 2439
610.796 1122.19 2435
614.846 1118.96 2428
618.863 1115.74 2421
624.652 1115.74 2421
628.619 1112.51 2414
633.603 1111.13 2411
637.512 1107.9 2404
642.19 1106.06 2400
647.929 1106.06 2400
650.945 1101.45 2390
656.66 1101.45 2390
662.375 1101.45 2390
668.091 1101.45 2390
672.96 1100.07 2387
678.668 1100.07 2387
683.229 1098.22 2383
688.928 1098.22 2383
693.752 1096.84 2380
695.329 1090.39 2366
700.986 1090.39 2366
706.644 1090.39 2366
711.399 1089.01 2363
717.05 1089.01 2363
721.783 1087.62 2360
729.276 1090.39 2366
734.933 1090.39 2366
740.591 1090.39 2366
747.511 1092.23 2370
753.178 1092.23 2370
758.845 1092.23 2370
764.513 1092.23 2370
770.18 1092.23 2370
774.538 1090.39 2366
780.196 1090.39 2366
784.857 1089.01 2363
788.166 1085.78 2356
793.8 1085.78 2356
799.434 1085.78 2356
805.068 1085.78 2356
810.702 1085.78 2356
819.801 1090.39 2366
827.901 1093.62 2373
834.629 1095 2376
840.311 1095 2376
845.993 1095 2376
850.599 1093.62 2373
856.274 1093.62 2373
860.858 1092.23 2370
866.526 1092.23 2370
873.297 1093.62 2373
881.565 1096.84 2380
887.256 1096.84 2380
895.574 1100.07 2387
905.057 1104.68 2397
910.789 1104.68 2397
916.521 1104.68 2397
924.947 1107.9 2404
930.695 1107.9 2404
937.613 1109.28 2407
943.368 1109.28 2407
950.702 1111.13 2411
963.211 1118.96 2428
969.017 1118.96 2428
974.823 1118.96 2428
982.245 1120.81 2432
990.904 1124.03 2439
1002.46 1130.48 2453
1008.32 1130.48 2453
1021.63 1138.78 2471
1032.53 1144.31 2483
1041.4 1147.54 2490
1047.35 1147.54 2490
1053.3 1147.54 2490
1060.96 1149.38 2494
1068.21 1150.76 2497
1074.18 1150.76 2497
1080.15 1150.76 2497
1080.03 1144.31 2483
1085.97 1144.31 2483
1091.91 1144.31 2483
1096.08 1142.47 2479
1102 1142.47 2479
1106.14 1140.62 2475
1112.06 1140.62 2475
1117.98 1140.62 2475
1115.73 1132.33 2457
1124.8 1135.55 2464
1130.69 1135.55 2464
1136.58 1135.55 2464
1139.23 1132.33 2457
1145.1 1132.33 2457
1152.85 1134.17 2461
1162.03 1137.4 2468
1167.93 1137.4 2468
1173.84 1137.4 2468
1185 1142.47 2479
1192.85 1144.31 2483
1198.78 1144.31 2483
1220.73 1159.52 2516
1232.6 1165.05 2528
1238.65 1165.05 2528
1244.69 1165.05 2528
1250.74 1165.05 2528
1262.25 1170.12 2539
1272.32 1173.8 2547
1278.41 1173.8 2547
1284.5 1173.8 2547
1290.59 1173.8 2547
1296.68 1173.8 2547
1298.68 1170.12 2539
1299.1 1165.05 2528
1301.01 1161.36 2520
1307.04 1161.36 2520
1310.98 1159.52 2516
1313.33 1156.29 2509
1320.91 1157.67 2512
1326.92 1157.67 2512
1332.92 1157.67 2512
1337.33 1156.29 2509
1329.41 1144.31 2483
1321.37 1132.33 2457
1327.24 1132.33 2457
1319.55 1120.81 2432
1319.37 1115.74 2421
1325.16 1115.74 2421
1343.05 1125.88 2443
1348.89 1125.88 2443
1356.39 1127.26 2446
1368.37 1132.33 2457
1386.55 1142.47 2479
1398.66 1147.54 2490
1404.61 1147.54 2490
1410.57 1147.54 2490
1418.8 1149.38 2494
1426.47 1150.76 2497
1432.44 1150.76 2497
1438.42 1150.76 2497
1444.39 1150.76 2497
1450.36 1150.76 2497
1456.33 1150.76 2497
1455.86 1145.69 2486
1460.04 1144.31 2483
1465.98 1144.31 2483
1467.17 1140.62 2475
1468.92 1137.4 2468
1459.89 1125.88 2443
1465.73 1125.88 2443
1466.75 1122.19 2435
1468.34 1118.96 2428
1468.07 1114.35 2418
1465.32 1107.9 2404
1471.07 1107.9 2404
1474.36 1106.06 2400
1475.79 1102.83 2393
1485.84 1106.06 2400
1494.07 1107.9 2404
1499.82 1107.9 2404
1509.95 1111.13 2411
1528.92 1120.81 2432
1564.39 1142.47 2479
1570.32 1142.47 2479
1583.24 1147.54 2490
1591.75 1149.38 2494
1602.2 1152.61 2501
1608.18 1152.61 2501
1616.74 1154.45 2505
1622.73 1154.45 2505
1631.32 1156.29 2509
1644.5 1161.36 2520
1650.53 1161.36 2520
1664.44 1166.89 2532
1672.47 1168.27 2535
1678.54 1168.27 2535
1684.6 1168.27 2535
1693.33 1170.12 2539
1699.4 1170.12 2539
1705.47 1170.12 2539
1711.54 1170.12 2539
1717.61 1170.12 2539
1718.93 1166.89 2532
1724.99 1166.89 2532
1728.31 1165.05 2528
1708.28 1147.54 2490
1694.27 1134.17 2461
1700.16 1134.17 2461
1671.38 1111.13 2411
1660.45 1100.07 2387
1666.16 1100.07 2387
1673.97 1101.45 2390
1679.68 1101.45 2390
1685.4 1101.45 2390
1693.24 1102.83 2393
1698.96 1102.83 2393
1704.68 1102.83 2393
1710.4 1102.83 2393
1708.95 1098.22 2383
1714.65 1098.22 2383
1705.91 1089.01 2363
1711.56 1089.01 2363
1707.77 1083.02 2350
1710.47 1081.17 2346
1711.69 1078.41 2340
1724.63 1083.02 2350
1730.25 1083.02 2350
1735.87 1083.02 2350
1743.71 1084.4 2353
1749.33 1084.4 2353
1754.96 1084.4 2353
1760.59 1084.4 2353
1760.96 1081.17 2346
1766.57 1081.17 2346
1772.18 1081.17 2346
1773.24 1078.41 2340
1765.92 1070.57 2323
1754.69 1060.43 2301
1760.2 1060.43 2301
-1744.53 1079.38 2330
-1746.42 1084.01 2340
-1740.82 1084.01 2340
-1735.23 1084.01 2340
-1717.07 1076.14 2323
-1711.51 1076.14 2323
-1681.56 1074.75 2320
-1676.01 1074.75 2320
-1670.47 1074.75 2320
-1658.46 1070.58 2311
-1652.93 1070.58 2311
-1653.82 1074.75 2320
-1648.28 1074.75 2320
-1659.01 1085.4 2343
-1653.41 1085.4 2343
-1647.81 1085.4 2343
-1642.21 1085.4 2343
-1634.51 1084.01 2340
-1621.95 1079.38 2330
-1616.38 1079.38 2330
-1605.97 1076.14 2323
-1600.41 1076.14 2323
-1594.86 1076.14 2323
-1589.3 1076.14 2323
-1579.66 1073.36 2317
-1572.08 1071.97 2314
-1559.77 1067.34 2304
-1558.99 1070.58 2311
-1553.46 1070.58 2311
-1549.94 1071.97 2314
-1544.41 1071.97 2314
-1538.88 1071.97 2314
-1533.34 1071.97 2314
-1525.83 1070.58 2311
-1515.7 1067.34 2304
-1510.19 1067.34 2304
-1502.72 1065.95 2301
-1488.76 1059.92 2288
-1485.88 1061.78 2292
-1480.4 1061.78 2292
-1474.92 1061.78 2292
-1469.44 1061.78 2292
-1463.96 1061.78 2292
-1458.48 1061.78 2292
-1452.99 1061.78 2292
-1447.51 1061.78 2292
-1442.03 1061.78 2292
-1440.31 1064.56 2298
-1436.69 1065.95 2301
-1431.19 1065.95 2301
-1425.69 1065.95 2301
-1420.18 1065.95 2301
-1414.68 1065.95 2301
-1405.5 1063.17 2295
-1403.68 1065.95 2301
-1404.25 1070.58 2311
-1410.22 1079.38 2330
-1404.65 1079.38 2330
-1403.28 1082.62 2337
-1397.7 1082.62 2337
-1393.89 1084.01 2340
-1388.3 1084.01 2340
-1388.61 1088.65 2350
-1386.52 1091.42 2356
-1380.89 1091.42 2356
-1375.26 1091.42 2356
-1371.95 1093.28 2360
-1366.3 1093.28 2360
-1362.39 1094.67 2363
-1356.74 1094.67 2363
-1351.09 1094.67 2363
-1341.45 1091.42 2356
-1335.82 1091.42 2356
-1328.49 1090.03 2353
-1322.86 1090.03 2353
-1317.24 1090.03 2353
-1311.61 1090.03 2353
-1302.1 1086.79 2346
-1293.17 1084.01 2340
-1287.58 1084.01 2340
-1283.62 1085.4 2343
-1278.02 1085.4 2343
-1276.22 1088.65 2350
-1270.6 1088.65 2350
-1264.98 1088.65 2350
-1259.36 1088.65 2350
-1251.61 1086.79 2346
-1242.81 1084.01 2340
-1237.22 1084.01 2340
-1231.62 1084.01 2340
-1222.36 1080.77 2333
-1210 1074.75 2320
-1204.45 1074.75 2320
-1197.35 1073.36 2317
-1188.72 1070.58 2311
-1183.2 1070.58 2311
-1177.67 1070.58 2311
-1172.15 1070.58 2311
-1169.65 1073.36 2317
-1164.11 1073.36 2317
-1158.57 1073.36 2317
-1153.03 1073.36 2317
-1150.46 1076.14 2323
-1148.35 1079.38 2330
-1144.25 1080.77 2333
-1138.67 1080.77 2333
-1133.09 1080.77 2333
-1129.45 1082.62 2337
-1123.86 1082.62 2337
-1118.27 1082.62 2337
-1112.68 1082.62 2337
-1111.36 1086.79 2346
-1107.63 1088.65 2350
-1102.01 1088.65 2350
-1102.46 1094.67 2363
-1102.84 1100.69 2376
-1099.01 1102.54 2380
-1093.32 1102.54 2380
-1096.77 1111.81 2400
-1091.03 1111.81 2400
-1085.29 1111.81 2400
-1079.55 1111.81 2400
-1075.6 1113.66 2404
-1069.85 1113.66 2404
-1064.1 1113.66 2404
-1058.35 1113.66 2404
-1052.6 1113.66 2404
-1036.4 1102.54 2380
-1020.32 1091.42 2356
-1014.68 1091.42 2356
-1009.05 1091.42 2356
-1005.12 1093.28 2360
-999.477 1093.28 2360
-993.834 1093.28 2360
-982.328 1086.79 2346
-976.718 1086.79 2346
-964.485 1079.38 2330
-958.913 1079.38 2330
-950.477 1076.14 2323
-941.262 1071.97 2314
-934.515 1070.58 2311
-928.989 1070.58 2311
-923.462 1070.58 2311
-916.347 1068.73 2307
-913.594 1071.97 2314
-909.238 1073.36 2317
-903.697 1073.36 2317
-899.32 1074.75 2320
-898.78 1080.77 2333
-894.732 1082.62 2337
-889.144 1082.62 2337
-883.556 1082.62 2337
-877.967 1082.62 2337
-872.379 1082.62 2337
-864.194 1079.38 2330
-858.622 1079.38 2330
-851.952 1077.99 2327
-847.479 1079.38 2330
-841.907 1079.38 2330
-837.412 1080.77 2333
-834.329 1084.01 2340
-830.858 1086.79 2346
-825.248 1086.79 2346
-822.084 1090.03 2353
-817.498 1091.42 2356
-811.864 1091.42 2356
-807.599 1093.28 2360
-801.956 1093.28 2360
-796.312 1093.28 2360
-789.329 1091.42 2356
-783.695 1091.42 2356
-777.07 1090.03 2353
-768.165 1085.4 2343
-763.538 1086.79 2346
-760.19 1090.03 2353
-754.563 1090.03 2353
-749.891 1091.42 2356
-745.521 1093.28 2360
-739.877 1093.28 2360
-734.234 1093.28 2360
-728.59 1093.28 2360
-722.947 1093.28 2360
-717.303 1093.28 2360
-710.454 1091.42 2356
-704.82 1091.42 2356
-699.186 1091.42 2356
-693.552 1091.42 2356
-687.918 1091.42 2356
-682.284 1091.42 2356
-676.65 1091.42 2356
-671.016 1091.42 2356
-665.383 1091.42 2356
-661.709 1094.67 2363
-656.058 1094.67 2363
-650.408 1094.67 2363
-644.757 1094.67 2363
-640.999 1097.91 2370
-638.013 1102.54 2380
-632.322 1102.54 2380
-626.63 1102.54 2380
-620.939 1102.54 2380
-614.214 1100.69 2376
-610.325 1103.93 2383
-604.626 1103.93 2383
-601.441 1108.56 2393
-596.714 1110.42 2397
-590.982 1110.42 2397
-585.25 1110.42 2397
-579.519 1110.42 2397
-573.787 1110.42 2397
-568.055 1110.42 2397
-560.681 1107.18 2390
-554.965 1107.18 2390
-549.25 1107.18 2390
-543.535 1107.18 2390
-537.82 1107.18 2390
-532.104 1107.18 2390
-522.645 1099.3 2373
-516.971 1099.3 2373
-511.942 1100.69 2376
-506.261 1100.69 2376
-500.579 1100.69 2376
-498.438 1108.56 2393
-492.716 1108.56 2393
-486.993 1108.56 2393
-481.271 1108.56 2393
-475.548 1108.56 2393
-469.826 1108.56 2393
-460.225 1099.3 2373
-454.55 1099.3 2373
-447.552 1096.06 2366
-441.894 1096.06 2366
-435.683 1094.67 2363
-430.032 1094.67 2363
-424.382 1094.67 2363
-418.731 1094.67 2363
-413.08 1094.67 2363
-407.947 1096.06 2366
-404.669 1102.54 2380
-398.978 1102.54 2380
-393.287 1102.54 2380
-387.596 1102.54 2380
-381.904 1102.54 2380
-376.213 1102.54 2380
-370.522 1102.54 2380
-364.83 1102.54 2380
-361.101 1108.56 2393
-355.378 1108.56 2393
-350.24 1110.42 2397
-344.508 1110.42 2397
-339.766 1113.66 2404
-334.017 1113.66 2404
-329.224 1116.9 2411
-323.459 1116.9 2411
-317.693 1116.9 2411
-311.928 1116.9 2411
-306.163 1116.9 2411
-299.899 1115.05 2407
-293.776 1113.66 2404
-287.548 1111.81 2400
-281.809 1111.81 2400
-275.265 1108.56 2393
-268.867 1105.79 2387
-262.718 1103.93 2383
-257.019 1103.93 2383
-251.004 1102.54 2380
-244.901 1100.69 2376
-238.615 1097.91 2370
-232.948 1097.91 2370
-225.65 1090.03 2353
-219.088 1085.4 2343
-212.574 1080.77 2333
-210.278 1097.91 2370
-204.611 1097.91 2370
-198.943 1097.91 2370
-190.585 1082.62 2337
-92.0632 1042.78 2251
-86.6804 1042.78 2251
-81.4059 1044.17 2254
-76.0159 1044.17 2254
-70.7199 1045.56 2257
-65.3228 1045.56 2257
-59.9256 1045.56 2257
-54.5284 1045.56 2257
-49.0659 1044.17 2254
-43.6178 1042.78 2251
-38.235 1042.78 2251
-32.7208 1038.61 2242
-27.3229 1037.22 2239
-22.0277 1040 2245
-16.6592 1040 2245
-11.2907 1040 2245
-5.89057 1034.44 2233
-0.542902 1019.62 2201
4.72036 1019.62 2201
9.92918 1014.06 2189
15.1291 1011.75 2184
20.3517 1011.75 2184
25.5743 1011.75 2184
30.7123 1008.97 2178
35.8216 1006.19 2172
40.9589 1004.8 2169
45.9754 1001.09 2161
51.143 1001.09 2161
56.3106 1001.09 2161
61.4782 1001.09 2161
66.7384 1002.48 2164
72.179 1006.19 2172
77.3729 1006.19 2172
82.5668 1006.19 2172
87.5587 1003.87 2167
92.7407 1003.87 2167
97.787 1002.48 2164
102.438 997.384 2153
107.687 998.311 2155
112.84 998.311 2155
117.993 998.311 2155
123.147 998.311 2155
128.3 998.311 2155
133.453 998.311 2155
138.606 998.311 2155
232.756 1102.54 2380
238.748 1103.93 2383
244.447 1103.93 2383
250.145 1103.93 2383
255.844 1103.93 2383
261.542 1103.93 2383
266.456 1100.69 2376
272.137 1100.69 2376
278.637 1103.93 2383
284.813 1105.79 2387
290.521 1105.79 2387
296.229 1105.79 2387
301.431 1103.93 2383
307.13 1103.93 2383
312.828 1103.93 2383
315.853 1094.67 2363
321.096 1093.28 2360
325.77 1090.03 2353
331.397 1090.03 2353
337.024 1090.03 2353
343.087 1091.42 2356
349.313 1093.28 2360
354.957 1093.28 2360
360.6 1093.28 2360
366.244 1093.28 2360
371.887 1093.28 2360
377.531 1093.28 2360
383.174 1093.28 2360
388.818 1093.28 2360
394.963 1094.67 2363
400.613 1094.67 2363
406.264 1094.67 2363
411.392 1093.28 2360
417.035 1093.28 2360
423.216 1094.67 2363
428.866 1094.67 2363
435.069 1096.06 2366
443.334 1102.54 2380
449.026 1102.54 2380
456.054 1105.79 2387
461.763 1105.79 2387
467.471 1105.79 2387
475.161 1110.42 2397
480.893 1110.42 2397
486.625 1110.42 2397
492.973 1111.81 2400
498.712 1111.81 2400
506.763 1116.9 2411
512.529 1116.9 2411
518.294 1116.9 2411
524.06 1116.9 2411
529.825 1116.9 2411
535.59 1116.9 2411
541.356 1116.9 2411
547.121 1116.9 2411
552.887 1116.9 2411
558.652 1116.9 2411
564.418 1116.9 2411
570.893 1118.29 2414
578.337 1121.54 2421
584.127 1121.54 2421
593.327 1128.02 2435
599.15 1128.02 2435
604.973 1128.02 2435
607.284 1121.54 2421
611.301 1118.29 2414
617.073 1118.29 2414
622.846 1118.29 2414
627.837 1116.9 2411
630.712 1111.81 2400
636.451 1111.81 2400
638.712 1105.79 2387
644.42 1105.79 2387
650.128 1105.79 2387
655.836 1105.79 2387
661.544 1105.79 2387
667.252 1105.79 2387
671.832 1103.93 2383
677.531 1103.93 2383
682.369 1102.54 2380
688.06 1102.54 2380
691.711 1099.3 2373
694.447 1094.67 2363
700.098 1094.67 2363
705.748 1094.67 2363
710.496 1093.28 2360
716.139 1093.28 2360
721.783 1093.28 2360
727.426 1093.28 2360
734.002 1094.67 2363
739.652 1094.67 2363
746.249 1096.06 2366
751.907 1096.06 2366
757.565 1096.06 2366
763.223 1096.06 2366
767.905 1094.67 2363
771.265 1091.42 2356
776.898 1091.42 2356
782.532 1091.42 2356
786.159 1088.65 2350
791.779 1088.65 2350
798.416 1090.03 2353
804.043 1090.03 2353
810.702 1091.42 2356
816.336 1091.42 2356
825.459 1096.06 2366
832.521 1097.91 2370
838.189 1097.91 2370
843.856 1097.91 2370
848.09 1096.06 2366
853.748 1096.06 2366
858.316 1094.67 2363
863.966 1094.67 2363
870.721 1096.06 2366
877.861 1097.91 2370
883.528 1097.91 2370
894.073 1103.93 2383
901.282 1105.79 2387
910.789 1110.42 2397
916.521 1110.42 2397
922.253 1110.42 2397
927.985 1110.42 2397
936.444 1113.66 2404
942.193 1113.66 2404
949.124 1115.05 2407
959.244 1120.15 2418
967.82 1123.39 2425
973.619 1123.39 2425
980.629 1124.78 2428
986.435 1124.78 2428
998.371 1131.73 2443
1004.21 1131.73 2443
1015.84 1138.21 2457
1027.54 1144.7 2471
1038.47 1150.26 2483
1044.41 1150.26 2483
1050.34 1150.26 2483
1056.28 1150.26 2483
1062.22 1150.26 2483
1068.16 1150.26 2483
1072.36 1148.4 2479
1073.51 1143.31 2468
1074.6 1138.21 2457
1080.47 1138.21 2457
1084.58 1136.36 2453
1090.45 1136.36 2453
1096.31 1136.36 2453
1102.18 1136.36 2453
1103.53 1131.73 2443
1107.55 1129.87 2439
1113.38 1129.87 2439
1121.05 1131.73 2443
1126.89 1131.73 2443
1132.74 1131.73 2443
1138.58 1131.73 2443
1144.42 1131.73 2443
1153.56 1134.97 2450
1159.42 1134.97 2450
1165.28 1134.97 2450
1177.83 1141.46 2464
1185.64 1143.31 2468
1191.54 1143.31 2468
1215.4 1160.45 2505
1226.75 1165.55 2516
1238.65 1171.1 2528
1244.69 1171.1 2528
1250.74 1171.1 2528
1256.78 1171.1 2528
1262.83 1171.1 2528
1284.5 1179.91 2547
1290.59 1179.91 2547
1296.68 1179.91 2547
1293.05 1171.1 2528
1294.99 1167.4 2520
1295.33 1162.3 2509
1301.33 1162.3 2509
1307.33 1162.3 2509
1313.33 1162.3 2509
1319.33 1162.3 2509
1325.33 1162.3 2509
1331.33 1162.3 2509
1311.75 1140.07 2461
1313.35 1136.36 2453
1307.92 1126.63 2432
1313.74 1126.63 2432
1304.36 1113.66 2404
1310.11 1113.66 2404
1315.86 1113.66 2404
1323.26 1115.05 2407
1342.82 1126.63 2432
1348.63 1126.63 2432
1360.57 1131.73 2443
1374.24 1138.21 2457
1390.23 1146.55 2475
1396.15 1146.55 2475
1406.6 1150.26 2483
1416.52 1153.5 2490
1422.47 1153.5 2490
1428.43 1153.5 2490
1434.38 1153.5 2490
1433.97 1148.4 2479
1439.9 1148.4 2479
1445.83 1148.4 2479
1449.42 1146.55 2475
1451.22 1143.31 2468
1457.12 1143.31 2468
1463.02 1143.31 2468
1458.21 1134.97 2450
1455.11 1128.02 2435
1460.93 1128.02 2435
1458.32 1121.54 2421
1464.11 1121.54 2421
1463.82 1116.9 2411
1462.89 1111.81 2400
1468.62 1111.81 2400
1470.06 1108.56 2393
1475.79 1108.56 2393
1485.84 1111.81 2400
1494.07 1113.66 2404
1499.82 1113.66 2404
1509.95 1116.9 2411
1528.92 1126.63 2432
1557.45 1143.31 2468
1563.35 1143.31 2468
1578.79 1150.26 2483
1591.75 1155.35 2494
1602.2 1158.6 2501
1608.18 1158.6 2501
1614.16 1158.6 2501
1620.14 1158.6 2501
1628.72 1160.45 2505
1639.28 1163.69 2512
1645.29 1163.69 2512
1656.55 1167.4 2520
1667.86 1171.1 2528
1673.9 1171.1 2528
1679.95 1171.1 2528
1685.99 1171.1 2528
1692.04 1171.1 2528
1700.77 1172.96 2532
1706.82 1172.96 2532
1712.88 1172.96 2532
1713.5 1169.25 2524
1719.54 1169.25 2524
1725.57 1169.25 2524
1708.28 1153.5 2490
1664.67 1120.15 2418
1644.2 1102.54 2380
1654.74 1105.79 2387
1660.45 1105.79 2387
1666.16 1105.79 2387
1657.16 1096.06 2366
1662.82 1096.06 2366
1668.47 1096.06 2366
1684.04 1102.54 2380
1689.73 1102.54 2380
1695.42 1102.54 2380
1701.11 1102.54 2380
1706.8 1102.54 2380
1712.49 1102.54 2380
1705.91 1094.67 2363
1711.56 1094.67 2363
1704.86 1086.79 2346
1708.28 1085.4 2343
1709.5 1082.62 2337
1719.49 1085.4 2343
1725.09 1085.4 2343
1732.91 1086.79 2346
1738.52 1086.79 2346
1744.13 1086.79 2346
1749.74 1086.79 2346
1753.11 1085.4 2343
1758.71 1085.4 2343
1764.31 1085.4 2343
1769.91 1085.4 2343
1770.97 1082.62 2337
1765.92 1076.14 2323
1754.69 1065.95 2301
1760.2 1065.95 2301
-1739.29 1081.7 2323
-1733.73 1081.7 2323
-1728.18 1081.7 2323
-1722.62 1081.7 2323
-1708.2 1076.11 2311
-1702.67 1076.11 2311
-1680.25 1065.4 2288
-1674.78 1065.4 2288
-1651.85 1061.21 2279
-1646.4 1061.21 2279
-1640.95 1061.21 2279
-1635.5 1061.21 2279
-1630.05 1061.21 2279
-1631.01 1065.4 2288
-1625.54 1065.4 2288
-1642.73 1080.31 2320
-1649.18 1088.22 2337
-1643.59 1088.22 2337
-1638 1088.22 2337
-1627.52 1084.96 2330
-1619.86 1083.56 2327
-1614.3 1083.56 2327
-1605.97 1081.7 2323
-1596.28 1078.91 2317
-1590.74 1078.91 2317
-1585.2 1078.91 2317
-1579.66 1078.91 2317
-1570.04 1076.11 2311
-1559.77 1072.85 2304
-1554.26 1072.85 2304
-1548.76 1072.85 2304
-1545.26 1074.25 2307
-1539.74 1074.25 2307
-1534.22 1074.25 2307
-1528.7 1074.25 2307
-1523.19 1074.25 2307
-1507.8 1067.27 2292
-1502.32 1067.27 2292
-1494.23 1065.4 2288
-1484.85 1062.61 2282
-1477.45 1061.21 2279
-1472 1061.21 2279
-1470.41 1064.01 2285
-1464.95 1064.01 2285
-1459.49 1064.01 2285
-1454.02 1064.01 2285
-1448.56 1064.01 2285
-1443.09 1064.01 2285
-1437.63 1064.01 2285
-1436.55 1067.27 2292
-1434.82 1070.06 2298
-1429.32 1070.06 2298
-1425.69 1071.46 2301
-1420.18 1071.46 2301
-1414.68 1071.46 2301
-1405.5 1068.66 2295
-1403.68 1071.46 2301
-1404.25 1076.11 2311
-1410.22 1084.96 2330
-1404.65 1084.96 2330
-1400.88 1086.36 2333
-1395.3 1086.36 2333
-1392.11 1088.22 2337
-1386.52 1088.22 2337
-1388.61 1094.27 2350
-1386.52 1097.07 2356
-1380.89 1097.07 2356
-1375.26 1097.07 2356
-1371.95 1098.93 2360
-1366.3 1098.93 2360
-1362.39 1100.33 2363
-1356.74 1100.33 2363
-1351.09 1100.33 2363
-1341.45 1097.07 2356
-1335.82 1097.07 2356
-1328.49 1095.67 2353
-1322.86 1095.67 2353
-1317.24 1095.67 2353
-1311.61 1095.67 2353
-1302.1 1092.41 2346
-1293.17 1089.62 2340
-1287.58 1089.62 2340
-1283.62 1091.02 2343
-1278.02 1091.02 2343
-1276.22 1094.27 2350
-1270.6 1094.27 2350
-1264.98 1094.27 2350
-1259.36 1094.27 2350
-1251.61 1092.41 2346
-1244.4 1091.02 2343
-1238.8 1091.02 2343
-1231.62 1089.62 2340
-1224.45 1088.22 2337
-1210 1080.31 2320
-1204.45 1080.31 2320
-1197.35 1078.91 2317
-1188.72 1076.11 2311
-1183.2 1076.11 2311
-1179.2 1077.51 2314
-1173.67 1077.51 2314
-1169.65 1078.91 2317
-1165.62 1080.31 2320
-1160.07 1080.31 2320
-1154.52 1080.31 2320
-1152.44 1083.56 2327
-1146.87 1083.56 2327
-1142.78 1084.96 2330
-1137.21 1084.96 2330
-1131.64 1084.96 2330
-1122.68 1081.7 2323
-1117.13 1081.7 2323
-1111.57 1081.7 2323
-1103.16 1078.91 2317
-1103.78 1084.96 2330
-1101.51 1088.22 2337
-1097.32 1089.62 2340
-1091.73 1089.62 2340
-1087.53 1091.02 2343
-1089.77 1098.93 2360
-1084.13 1098.93 2360
-1078.49 1098.93 2360
-1072.84 1098.93 2360
-1067.2 1098.93 2360
-1061.56 1098.93 2360
-1049.65 1092.41 2346
-1044.04 1092.41 2346
-1038.43 1092.41 2346
-1032.82 1092.41 2346
-1027.21 1092.41 2346
-1018.99 1089.62 2340
-1004.73 1080.31 2320
-999.18 1080.31 2320
-986.78 1072.85 2304
-979.993 1071.46 2301
-975.761 1072.85 2304
-970.251 1072.85 2304
-964.742 1072.85 2304
-959.232 1072.85 2304
-952.481 1071.46 2301
-946.978 1071.46 2301
-940.249 1070.06 2298
-934.753 1070.06 2298
-928.045 1068.66 2295
-922.557 1068.66 2295
-917.069 1068.66 2295
-911.581 1068.66 2295
-908.462 1071.46 2301
-902.959 1071.46 2301
-897.457 1071.46 2301
-898.157 1078.91 2317
-893.772 1080.31 2320
-890.904 1083.56 2327
-885.339 1083.56 2327
-879.775 1083.56 2327
-874.21 1083.56 2327
-868.646 1083.56 2327
-863.081 1083.56 2327
-856.043 1081.7 2323
-850.488 1081.7 2323
-844.933 1081.7 2323
-839.378 1081.7 2323
-835.258 1083.56 2327
-830.763 1084.96 2330
-827.671 1088.22 2337
-822.082 1088.22 2337
-819.638 1092.41 2346
-814.028 1092.41 2346
-810.83 1095.67 2353
-805.204 1095.67 2353
-799.577 1095.67 2353
-793.95 1095.67 2353
-788.323 1095.67 2353
-782.697 1095.67 2353
-773.768 1091.02 2343
-768.165 1091.02 2343
-761.586 1089.62 2340
-756.959 1091.02 2343
-751.356 1091.02 2343
-746.708 1092.41 2346
-742.362 1094.27 2350
-736.742 1094.27 2350
-731.123 1094.27 2350
-725.503 1094.27 2350
-719.884 1094.27 2350
-714.264 1094.27 2350
-707.438 1092.41 2346
-701.828 1092.41 2346
-696.218 1092.41 2346
-690.608 1092.41 2346
-684.998 1092.41 2346
-679.388 1092.41 2346
-673.778 1092.41 2346
-668.168 1092.41 2346
-662.558 1092.41 2346
-658.068 1094.27 2350
-652.449 1094.27 2350
-649.582 1098.93 2360
-643.938 1098.93 2360
-638.295 1098.93 2360
-632.651 1098.93 2360
-631.259 1106.38 2376
-625.577 1106.38 2376
-619.895 1106.38 2376
-614.214 1106.38 2376
-608.532 1106.38 2376
-602.85 1106.38 2376
-598.928 1109.64 2383
-595.719 1114.3 2393
-590.982 1116.16 2397
-585.25 1116.16 2397
-579.519 1116.16 2397
-572.111 1112.9 2390
-566.396 1112.9 2390
-559.977 1111.5 2387
-554.269 1111.5 2387
-548.561 1111.5 2387
-542.853 1111.5 2387
-537.145 1111.5 2387
-530.546 1109.64 2383
-521.984 1103.59 2370
-515.445 1101.72 2366
-509.788 1101.72 2366
-504.13 1101.72 2366
-499.315 1103.59 2370
-493.647 1103.59 2370
-487.98 1103.59 2370
-482.313 1103.59 2370
-475.841 1101.72 2366
-470.183 1101.72 2366
-464.525 1101.72 2366
-457.704 1098.93 2360
-449.378 1092.41 2346
-442.633 1089.62 2340
-437.038 1089.62 2340
-431.442 1089.62 2340
-425.847 1089.62 2340
-420.79 1091.02 2343
-415.187 1091.02 2343
-409.584 1091.02 2343
-404.498 1092.41 2346
-400.079 1095.67 2353
-394.452 1095.67 2353
-388.825 1095.67 2353
-383.198 1095.67 2353
-377.572 1095.67 2353
-372.419 1097.07 2356
-367.875 1100.33 2363
-362.224 1100.33 2363
-358.083 1104.98 2373
-352.408 1104.98 2373
-347.172 1106.38 2376
-341.49 1106.38 2376
-335.809 1106.38 2376
-331.655 1111.5 2387
-326.357 1112.9 2390
-320.642 1112.9 2390
-314.926 1112.9 2390
-309.211 1112.9 2390
-303.496 1112.9 2390
-297.407 1111.5 2387
-291.699 1111.5 2387
-285.152 1108.24 2380
-279.461 1108.24 2380
-273.309 1106.38 2376
-266.952 1103.59 2370
-260.513 1100.33 2363
-254.862 1100.33 2363
-248.895 1098.93 2360
-243.252 1098.93 2360
-236.601 1094.27 2350
-230.982 1094.27 2350
-224.403 1089.62 2340
-218.153 1086.36 2333
-212.027 1083.56 2327
-210.278 1103.59 2370
-204.611 1103.59 2370
-198.943 1103.59 2370
-190.585 1088.22 2337
-92.0632 1048.18 2251
-86.6804 1048.18 2251
-81.4059 1049.57 2254
-76.0159 1049.57 2254
-70.7199 1050.97 2257
-65.3228 1050.97 2257
-59.9256 1050.97 2257
-54.5284 1050.97 2257
-49.0659 1049.57 2254
-43.6178 1048.18 2251
-38.235 1048.18 2251
-32.7646 1045.38 2245
-27.3961 1045.38 2245
-22.0571 1046.78 2248
-16.6814 1046.78 2248
-11.3058 1046.78 2248
-5.93014 1046.78 2248
-0.543642 1026.29 2204
4.72679 1026.29 2204
9.9564 1022.1 2195
15.1845 1020.7 2192
20.3517 1016.98 2184
25.5743 1016.98 2184
30.6277 1011.39 2172
35.8216 1011.39 2172
40.8078 1006.27 2161
