-332.606 795.709 3557
-324.1 795.709 3557
-315.594 795.709 3557
-307.089 795.709 3557
-298.583 795.709 3557
-290.077 795.709 3557
-280.938 793.92 3549
-271.914 792.354 3542
-263.444 792.354 3542
-254.974 792.354 3542
-156.866 504.225 2254
-151.678 504.896 2257
-146.28 504.896 2257
-140.883 504.896 2257
-135.486 504.896 2257
-130.319 505.791 2261
-124.913 505.791 2261
-119.506 505.791 2261
-114.099 505.791 2261
-108.692 505.791 2261
-103.286 505.791 2261
-97.879 505.791 2261
-92.4722 505.791 2261
-87.0655 505.791 2261
-81.6587 505.791 2261
-76.1171 504.896 2257
-70.7199 504.896 2257
-65.3228 504.896 2257
-59.9256 504.896 2257
-54.4559 504.225 2254
-48.9353 502.883 2248
-43.3853 500.87 2239
-38.0312 500.87 2239
-32.677 500.87 2239
-27.1399 497.514 2224
-21.7922 496.843 2221
-16.4811 496.843 2221
-11.1298 495.053 2213
-5.82199 493.711 2207
-0.542162 491.698 2198
4.71392 491.698 2198
9.92918 489.684 2189
15.1083 487.895 2181
20.2958 487.224 2178
25.5041 487.224 2178
30.5572 484.763 2167
35.6897 484.092 2164
40.6945 482.079 2155
45.7414 480.96 2150
50.8827 480.96 2150
55.9458 480.289 2147
60.9377 479.17 2142
66.0599 479.17 2142
71.182 479.17 2142
76.1973 478.499 2139
81.0843 477.157 2133
86.1849 477.157 2133
91.2856 477.157 2133
96.2958 476.71 2131
101.392 476.71 2131
106.737 477.828 2136
111.845 477.828 2136
116.953 477.828 2136
122.061 477.828 2136
127.169 477.828 2136
132.277 477.828 2136
306.641 871.992 3898
316.692 874.005 3907
326.035 874.005 3907
335.378 874.005 3907
344.721 874.005 3907
354.064 874.005 3907
363.406 874.005 3907
371.032 869.978 3889
380.332 869.978 3889
388.73 867.965 3880
398.008 867.965 3880
559.937 846.266 3783
576.805 857.898 3835
590.101 863.938 3862
599.336 863.938 3862
609.99 865.952 3871
619.246 865.952 3871
628.503 865.952 3871
633.312 859.912 3844
639.495 855.885 3826
648.644 855.885 3826
657.793 855.885 3826
666.942 855.885 3826
676.092 855.885 3826
685.241 855.885 3826
694.39 855.885 3826
697.287 848.279 3792
721.07 865.952 3871
732.025 867.965 3880
741.303 867.965 3880
750.582 867.965 3880
759.86 867.965 3880
769.138 867.965 3880
778.416 867.965 3880
787.695 867.965 3880
796.973 867.965 3880
806.251 867.965 3880
811.746 863.938 3862
820.981 863.938 3862
830.217 863.938 3862
863.362 888.546 3972
872.86 888.546 3972
882.358 888.546 3972
887.59 884.295 3953
890.689 878.032 3925
893.883 871.992 3898
903.205 871.992 3898
910.419 869.978 3889
915.462 865.952 3871
920.419 861.925 3853
929.632 861.925 3853
909.362 834.857 3732
912.135 829.265 3707
917.025 825.685 3691
921.838 822.106 3675
930.626 822.106 3675
933.023 816.514 3650
939.687 814.724 3642
948.396 814.724 3642
957.106 814.724 3642
965.815 814.724 3642
972.651 813.158 3635
979.183 811.368 3627
987.857 811.368 3627
992.134 807.789 3611
998.552 806 3603
1000.74 800.854 3580
1009.3 800.854 3580
1013.6 797.499 3565
1019.83 795.709 3557
1026.02 793.92 3549
1034.51 793.92 3549
1040.94 792.354 3542
1047.04 790.564 3534
1053.4 788.998 3527
1059.72 787.432 3520
1068.14 787.432 3520
1076.56 787.432 3520
1082.51 785.643 3512
1086.25 782.287 3497
1094.61 782.287 3497
1100.76 780.721 3490
1109.11 780.721 3490
1117.46 780.721 3490
1125.8 780.721 3490
1131.87 779.155 3483
1137.91 777.589 3476
1146.22 777.589 3476
1159.18 780.721 3490
1167.53 780.721 3490
1175.88 780.721 3490
1186.6 782.287 3497
1194.96 782.287 3497
1203.32 782.287 3497
1211.68 782.287 3497
1220.05 782.287 3497
1231.22 784.077 3505
1244.91 787.432 3520
1253.32 787.432 3520
1266.76 790.564 3534
1283.51 795.709 3557
1300.37 800.854 3580
1308.93 800.854 3580
1325.95 806 3603
1334.57 806 3603
1343.19 806 3603
1351.8 806 3603
1372.5 813.158 3635
1381.19 813.158 3635
1389.89 813.158 3635
1398.58 813.158 3635
1407.27 813.158 3635
1406.61 807.789 3611
1415.25 807.789 3611
1411.66 800.854 3580
1407.92 793.92 3549
1404.84 787.432 3520
1407.23 784.077 3505
1415.61 784.077 3505
1408.96 775.8 3468
1400.09 766.404 3426
1393.9 758.575 3391
1402 758.575 3391
1390.15 747.837 3343
1387.27 742.021 3317
1383.85 735.981 3290
1391.72 735.981 3290
1391.5 731.73 3271
1399.32 731.73 3271
1398.97 727.48 3252
1404.15 726.138 3246
1411.91 726.138 3246
1413.99 723.23 3233
1421.72 723.23 3233
1429.45 723.23 3233
1437.18 723.23 3233
1444.92 723.23 3233
1452.65 723.23 3233
1460.38 723.23 3233
1468.11 723.23 3233
1475.84 723.23 3233
1483.57 723.23 3233
1491.3 723.23 3233
1499.03 723.23 3233
1506.76 723.23 3233
1514.49 723.23 3233
1522.23 723.23 3233
1529.96 723.23 3233
1537.69 723.23 3233
1545.42 723.23 3233
1547.39 720.545 3221
1551.71 718.979 3214
1559.39 718.979 3214
1555.38 713.61 3190
1560.07 712.268 3184
1561.77 709.584 3172
1569.36 709.584 3172
1567.99 705.557 3154
1563.55 700.188 3130
1553.46 692.359 3095
1549.27 687.214 3072
1556.61 687.214 3072
1558.36 684.753 3061
1526.29 667.528 2984
1514.41 659.251 2947
1521.46 659.251 2947
1509.84 651.198 2911
1498.56 643.368 2876
1498.11 640.236 2862
1494.44 635.762 2842
1501.23 635.762 2842
1505.38 634.644 2837
1509.5 633.525 2832
1514.13 632.63 2828
1520.89 632.63 2828
1522.25 630.393 2818
1521.39 627.261 2804
1525.37 626.143 2799
1532.07 626.143 2799
1533.81 624.13 2790
1532.75 620.998 2776
1539.39 620.998 2776
1546.03 620.998 2776
1549.87 619.879 2771
1556.5 619.879 2771
1565.94 620.998 2776
1577.68 623.011 2785
1589.46 625.024 2794
1596.14 625.024 2794
1608.56 627.261 2804
1626.21 631.512 2823
1632.96 631.512 2823
1639.71 631.512 2823
1978.16 746.495 3337
2043.28 767.97 3433
2051.49 767.97 3433
2102.9 784.077 3505
2115.49 785.643 3512
2132.96 788.998 3527
2141.4 788.998 3527
2149.83 788.998 3527
2153.98 787.432 3520
2162.4 787.432 3520
2161.57 784.077 3505
2156.33 779.155 3483
2155.33 775.8 3468
2154.89 772.668 3454
2163.15 772.668 3454
2158.21 767.97 3433
2166.42 767.97 3433
2152.46 760.141 3398
2169.49 763.272 3412
2177.65 763.272 3412
2190.29 764.838 3419
2198.46 764.838 3419
2206.64 764.838 3419
2214.82 764.838 3419
2173.58 747.837 3343
2143.07 734.638 3284
2146.99 733.296 3278
2154.83 733.296 3278
2145.52 727.48 3252
2149.32 726.138 3246
2169.71 730.388 3265
2186.19 733.296 3278
2194.03 733.296 3278
2205.89 734.638 3284
2213.75 734.638 3284
2234.45 738.889 3303
2242.35 738.889 3303
2250.25 738.889 3303
2258.15 738.889 3303
2266.05 738.889 3303
2273.95 738.889 3303
2268.72 734.638 3284
2263.4 730.388 3265
2271.21 730.388 3265
2279.02 730.388 3265
2286.82 730.388 3265
2285.49 727.48 3252
2279.87 723.23 3233
2287.6 723.23 3233
2286.81 720.545 3221
2272.43 713.61 3190
2275.77 712.268 3184
2283.39 712.268 3184
2286.68 710.926 3178
2289.95 709.584 3172
2258.42 697.504 3118
2241.17 689.898 3084
2248.55 689.898 3084
2243.49 686.095 3067
2222.2 677.371 3028
2314.92 689.898 3084
2322.29 689.898 3084
2355.35 697.504 3118
2390.09 705.557 3154
2397.63 705.557 3154
2405.17 705.557 3154
-2498.49 754.489 3337
-2490.51 754.489 3337
-2497.41 759.01 3357
-2514.6 766.698 3391
-2511.66 768.281 3398
-2503.54 768.281 3398
-2495.41 768.281 3398
-2471.91 763.532 3377
-2509.8 777.777 3440
-2501.58 777.777 3440
-2551.34 795.864 3520
-2553.03 799.03 3534
-2544.58 799.03 3534
-2536.13 799.03 3534
-2517.67 795.864 3520
-2503.55 794.056 3512
-2495.15 794.056 3512
-2420.9 773.029 3419
-2437.42 780.942 3454
-2429.16 780.942 3454
-2420.9 780.942 3454
-2412.64 780.942 3454
-2404.38 780.942 3454
-2400.98 782.525 3461
-2397.54 784.107 3468
-2389.25 784.107 3468
-2380.96 784.107 3468
-2392.51 790.664 3497
-2389.6 792.473 3505
-2381.22 792.473 3505
-2372.83 792.473 3505
-2364.45 792.473 3505
-2356.07 792.473 3505
-2347.69 792.473 3505
-2349.32 795.864 3520
-2340.9 795.864 3520
-2332.48 795.864 3520
-2324.07 795.864 3520
-2324.86 799.03 3534
-2316.41 799.03 3534
-2307.96 799.03 3534
-2299.51 799.03 3534
-2291.06 799.03 3534
-2282.61 799.03 3534
-2274.15 799.03 3534
-2265.7 799.03 3534
-2257.25 799.03 3534
-2244.35 797.447 3527
-2235.91 797.447 3527
-2227.48 797.447 3527
-2209.61 794.056 3512
-2196.82 792.473 3505
-2179.07 789.082 3490
-2170.73 789.082 3490
-2162.38 789.082 3490
-2154.04 789.082 3490
-2145.69 789.082 3490
-2137.35 789.082 3490
-2124.73 787.499 3483
-2112.15 785.916 3476
-2094.76 782.525 3461
-2086.48 782.525 3461
-2065.6 777.777 3440
-2057.37 777.777 3440
-2044.97 776.194 3433
-2036.76 776.194 3433
-2028.55 776.194 3433
-2020.35 776.194 3433
-2012.14 776.194 3433
-2003.93 776.194 3433
-1995.72 776.194 3433
-1975.35 771.446 3412
-1963.16 769.863 3405
-1955.01 769.863 3405
-1934.86 765.115 3384
-1926.77 765.115 3384
-1906.77 760.367 3363
-1898.73 760.367 3363
-1890.69 760.367 3363
-1882.65 760.367 3363
-1874.6 760.367 3363
-1874.33 763.532 3377
-1866.26 763.532 3377
-1862.03 765.115 3384
-1853.94 765.115 3384
-1853.49 768.281 3398
-1845.36 768.281 3398
-1837.23 768.281 3398
-1821.57 765.115 3384
-1813.48 765.115 3384
-1805.39 765.115 3384
-1801.01 766.698 3391
-1815.11 776.194 3433
-1806.9 776.194 3433
-1798.69 776.194 3433
-1801.44 780.942 3454
-1796.81 782.525 3461
-1796.29 785.916 3476
-1787.97 785.916 3476
-1786.83 789.082 3490
-1786.13 792.473 3505
-1781.3 794.056 3512
-1772.9 794.056 3512
-1764.5 794.056 3512
-1756.1 794.056 3512
-1758.65 799.03 3534
-1750.2 799.03 3534
-1741.75 799.03 3534
-1733.3 799.03 3534
-1724.85 799.03 3534
-1723.68 802.421 3549
-1715.2 802.421 3549
-1717.77 807.622 3572
-1716.88 811.239 3588
-1715.45 814.631 3603
-1706.83 814.631 3603
-1709.53 820.057 3627
-1704.6 821.866 3635
-1702.91 825.257 3650
-1694.18 825.257 3650
-1727.01 845.606 3740
-1737.82 855.328 3783
-1728.78 855.328 3783
-1727.46 859.172 3800
-1726.51 863.242 3818
-1720.98 865.05 3826
-1711.83 865.05 3826
-1730.72 879.295 3889
-1733.37 885.399 3916
-1724.01 885.399 3916
-1714.64 885.399 3916
-1701.36 883.364 3907
-1680.32 877.26 3880
-1671.04 877.26 3880
-1635.21 863.242 3818
-1607.34 853.293 3774
-1556.39 830.91 3675
-1537.07 825.257 3650
-1528.35 825.257 3650
-1496.72 812.822 3595
-1481.91 809.43 3580
-1460.59 802.421 3549
-1452.11 802.421 3549
-1431.82 795.864 3520
-1420.17 794.056 3512
-1397.3 785.916 3476
-1394.58 789.082 3490
-1386.24 789.082 3490
-1377.89 789.082 3490
-1369.55 789.082 3490
-1361.2 789.082 3490
-1350.14 787.499 3483
-1350.29 792.473 3505
-1347.65 795.864 3520
-1344.56 799.03 3534
-1336.11 799.03 3534
-1333.29 802.421 3549
-1336.38 809.43 3580
-1336.35 814.631 3603
-1327.73 814.631 3603
-1324.97 818.248 3619
-1322.14 821.866 3635
-1315.98 823.448 3642
-1307.27 823.448 3642
-1301.41 825.257 3650
-1295.52 827.066 3658
-1286.77 827.066 3658
-1278.02 827.066 3658
-1269.27 827.066 3658
-1260.53 827.066 3658
-1249.04 825.257 3650
-1240.31 825.257 3650
-1226.52 821.866 3635
-1217.83 821.866 3635
-1211.47 823.448 3642
-1202.76 823.448 3642
-1194.05 823.448 3642
-1187.94 825.257 3650
-1181.8 827.066 3658
-1173.05 827.066 3658
-1164.3 827.066 3658
-1158.4 829.101 3667
-1149.63 829.101 3667
-1140.86 829.101 3667
-1129.32 827.066 3658
-1123.32 829.101 3667
-1119.42 832.718 3683
-1115.44 836.336 3699
-1106.59 836.336 3699
-1097.75 836.336 3699
-1091.26 838.145 3707
-1087.35 841.988 3724
-1078.45 841.988 3724
-1074.14 845.606 3740
-1070.04 849.45 3757
-1061.05 849.45 3757
-1052.07 849.45 3757
-1043.09 849.45 3757
-1029.42 845.606 3740
-1020.48 845.606 3740
-1009.37 843.797 3732
-1000.45 843.797 3732
-991.523 843.797 3732
-982.598 843.797 3732
-971.587 841.988 3724
-964.75 843.797 3732
-957.874 845.606 3740
-948.931 845.606 3740
-939.987 845.606 3740
-931.044 845.606 3740
-922.1 845.606 3740
-913.157 845.606 3740
-904.213 845.606 3740
-895.27 845.606 3740
-886.326 845.606 3740
-877.383 845.606 3740
-864.724 841.988 3724
-853.98 840.18 3716
-846.914 841.988 3724
-841.609 845.606 3740
-834.669 847.641 3749
-825.704 847.641 3749
-822.186 853.293 3774
-813.161 853.293 3774
-804.136 853.293 3774
-793.426 851.485 3766
-782.546 849.45 3757
-770.061 845.606 3740
-761.118 845.606 3740
-750.565 843.797 3732
-741.641 843.797 3732
-731.146 841.988 3724
-722.241 841.988 3724
-711.803 840.18 3716
-699.701 836.336 3699
-689.362 834.527 3691
-680.536 834.527 3691
-667.342 829.101 3667
-658.573 829.101 3667
-646.791 825.257 3650
-638.063 825.257 3650
-625.369 820.057 3627
-616.696 820.057 3627
-606.681 818.248 3619
-598.027 818.248 3619
-586.768 814.631 3603
-574.461 809.43 3580
-565.9 809.43 3580
-558.585 811.239 3588
-550.005 811.239 3588
-541.425 811.239 3588
-532.845 811.239 3588
-521.927 807.622 3572
-513.385 807.622 3572
-504.843 807.622 3572
-495.329 806.039 3565
-486.804 806.039 3565
-478.279 806.039 3565
-469.754 806.039 3565
-461.229 806.039 3565
-452.704 806.039 3565
-444.179 806.039 3565
-435.654 806.039 3565
-427.129 806.039 3565
-418.604 806.039 3565
-410.079 806.039 3565
-401.554 806.039 3565
-393.801 807.622 3572
-385.259 807.622 3572
-376.717 807.622 3572
-368.176 807.622 3572
-358.929 806.039 3565
-350.404 806.039 3565
-341.879 806.039 3565
-332.606 804.23 3557
-324.1 804.23 3557
-315.594 804.23 3557
-307.089 804.23 3557
-298.583 804.23 3557
-290.077 804.23 3557
-280.938 802.421 3549
-272.451 802.421 3549
-263.964 802.421 3549
-254.974 800.839 3542
-156.866 509.625 2254
-151.678 510.303 2257
-146.28 510.303 2257
-140.883 510.303 2257
-135.486 510.303 2257
-130.319 511.207 2261
-124.913 511.207 2261
-119.506 511.207 2261
-114.099 511.207 2261
-108.692 511.207 2261
-103.286 511.207 2261
-97.879 511.207 2261
-92.4722 511.207 2261
-87.0655 511.207 2261
-81.6587 511.207 2261
-76.1171 510.303 2257
-70.7199 510.303 2257
-65.3228 510.303 2257
-59.9256 510.303 2257
-54.4559 509.625 2254
-48.9353 508.268 2248
-43.3853 506.233 2239
-38.0312 506.233 2239
-32.677 506.233 2239
-27.1399 502.842 2224
-21.7922 502.163 2221
-16.4811 502.163 2221
-11.1298 500.355 2213
-5.82199 498.998 2207
-0.542162 496.963 2198
4.71392 496.963 2198
9.92918 494.928 2189
15.1083 493.119 2181
20.2958 492.441 2178
25.5041 492.441 2178
30.5572 489.954 2167
35.6897 489.276 2164
40.6945 487.241 2155
45.7414 486.11 2150
50.8827 486.11 2150
55.9458 485.432 2147
60.9377 484.302 2142
66.0599 484.302 2142
71.182 484.302 2142
76.1973 483.623 2139
81.0843 482.267 2133
86.1849 482.267 2133
91.2856 482.267 2133
96.2958 481.815 2131
101.392 481.815 2131
106.737 482.945 2136
111.845 482.945 2136
116.953 482.945 2136
122.061 482.945 2136
127.169 482.945 2136
132.277 482.945 2136
283.344 867.085 3835
292.515 867.085 3835
306.641 881.329 3898
316.692 883.364 3907
326.035 883.364 3907
335.378 883.364 3907
344.721 883.364 3907
354.064 883.364 3907
363.406 883.364 3907
371.032 879.295 3889
380.332 879.295 3889
388.73 877.26 3880
398.008 877.26 3880
559.937 855.328 3783
576.805 867.085 3835
590.101 873.19 3862
599.336 873.19 3862
609.99 875.225 3871
619.246 875.225 3871
628.503 875.225 3871
633.312 869.12 3844
639.495 865.05 3826
648.644 865.05 3826
657.793 865.05 3826
666.942 865.05 3826
676.092 865.05 3826
682.196 861.207 3809
691.304 861.207 3809
697.287 857.363 3792
721.07 875.225 3871
732.025 877.26 3880
741.303 877.26 3880
750.582 877.26 3880
759.86 877.26 3880
767.354 875.225 3871
776.611 875.225 3871
785.868 875.225 3871
795.124 875.225 3871
804.381 875.225 3871
811.746 873.19 3862
820.981 873.19 3862
828.282 871.155 3853
863.362 898.061 3972
872.86 898.061 3972
882.358 898.061 3972
887.59 893.765 3953
884.562 881.329 3898
893.883 881.329 3898
903.205 881.329 3898
910.419 879.295 3889
915.462 875.225 3871
913.969 865.05 3826
923.118 865.05 3826
907.413 841.988 3724
908.198 834.527 3691
913.05 830.91 3675
915.567 825.257 3650
924.295 825.257 3650
930.978 823.448 3642
939.687 823.448 3642
946.574 821.866 3635
955.266 821.866 3635
963.958 821.866 3635
970.51 820.057 3627
979.183 820.057 3627
987.857 820.057 3627
989.936 814.631 3603
996.334 812.822 3595
998.502 807.622 3572
1007.04 807.622 3572
1011.32 804.23 3557
1019.83 804.23 3557
1026.02 802.421 3549
1034.51 802.421 3549
1040.94 800.839 3542
1047.04 799.03 3534
1053.4 797.447 3527
1059.72 795.864 3520
1068.14 795.864 3520
1076.56 795.864 3520
1082.51 794.056 3512
1086.25 790.664 3497
1094.61 790.664 3497
1102.97 790.664 3497
1109.11 789.082 3490
1117.46 789.082 3490
1125.8 789.082 3490
1134.15 789.082 3490
1140.2 787.499 3483
1148.53 787.499 3483
1159.18 789.082 3490
1167.53 789.082 3490
1175.88 789.082 3490
1189.31 792.473 3505
1197.69 792.473 3505
1206.07 792.473 3505
1214.46 792.473 3505
1222.84 792.473 3505
1236.49 795.864 3520
1247.38 797.447 3527
1255.81 797.447 3527
1269.63 800.839 3542
1283.51 804.23 3557
1300.37 809.43 3580
1308.93 809.43 3580
1325.95 814.631 3603
1334.57 814.631 3603
1343.19 814.631 3603
1351.8 814.631 3603
1372.5 821.866 3635
1381.19 821.866 3635
1389.89 821.866 3635
1398.58 821.866 3635
1407.27 821.866 3635
1406.61 816.439 3611
1415.25 816.439 3611
1411.66 809.43 3580
1407.92 802.421 3549
1404.84 795.864 3520
1407.23 792.473 3505
1415.61 792.473 3505
1408.96 784.107 3468
1400.09 774.611 3426
1393.9 766.698 3391
1402 766.698 3391
1390.15 755.845 3343
1387.27 749.967 3317
1383.85 743.862 3290
1391.72 743.862 3290
1391.5 739.566 3271
1399.32 739.566 3271
1398.97 735.27 3252
1404.15 733.914 3246
1411.91 733.914 3246
1416.61 732.331 3239
1424.36 732.331 3239
1429.45 730.974 3233
1437.18 730.974 3233
1444.92 730.974 3233
1452.65 730.974 3233
1460.38 730.974 3233
1468.11 730.974 3233
1475.84 730.974 3233
1483.57 730.974 3233
1491.3 730.974 3233
1499.03 730.974 3233
1506.76 730.974 3233
1514.49 730.974 3233
1522.23 730.974 3233
1529.96 730.974 3233
1537.69 730.974 3233
1545.42 730.974 3233
1547.39 728.261 3221
1551.71 726.679 3214
1559.39 726.679 3214
1555.38 721.252 3190
1560.07 719.896 3184
1561.77 717.182 3172
1569.36 717.182 3172
1565.01 711.756 3148
1560.55 706.33 3124
1553.46 699.773 3095
1549.27 694.573 3072
1556.61 694.573 3072
1558.36 692.086 3061
1526.29 674.676 2984
1509.28 664.049 2937
1516.3 664.049 2937
1507.24 657.04 2906
1498.56 650.257 2876
1498.11 647.092 2862
1494.44 642.57 2842
1501.23 642.57 2842
1505.38 641.44 2837
1509.5 640.309 2832
1514.13 639.405 2828
1520.89 639.405 2828
1519.55 636.013 2813
1521.39 633.978 2804
1525.37 632.848 2799
1532.07 632.848 2799
1533.81 630.813 2790
1532.75 627.648 2776
1536.62 626.517 2771
1543.24 626.517 2771
1549.87 626.517 2771
1556.5 626.517 2771
1568.2 628.552 2780
1577.68 629.683 2785
1595.15 633.978 2804
1601.85 633.978 2804
1611.43 635.109 2809
1626.21 638.274 2823
1632.96 638.274 2823
1639.71 638.274 2823
2022.62 771.446 3412
2059.95 782.525 3461
2068.22 782.525 3461
2102.9 792.473 3505
2115.49 794.056 3512
2132.96 797.447 3527
2141.4 797.447 3527
2149.83 797.447 3527
2153.98 795.864 3520
2162.4 795.864 3520
2161.57 792.473 3505
2160.66 789.082 3490
2160.31 785.916 3476
2163.63 784.107 3468
2171.92 784.107 3468
2180.21 784.107 3468
2175.25 779.359 3447
2179.06 777.777 3440
2187.29 777.777 3440
2191.05 776.194 3433
2208.23 779.359 3447
2216.47 779.359 3447
2224.71 779.359 3447
2232.95 779.359 3447
2213.89 769.863 3405
2177.66 754.489 3337
2167.95 748.384 3310
2175.87 748.384 3310
2166.63 742.505 3284
2174.48 742.505 3284
2178.35 741.149 3278
2202.86 746.801 3303
2210.76 746.801 3303
2223.36 748.384 3310
2235.99 749.967 3317
2257.45 754.489 3337
2265.43 754.489 3337
2273.41 754.489 3337
2281.39 754.489 3337
2289.37 754.489 3337
2287.71 751.323 3323
2286.68 748.384 3310
2280.73 743.862 3290
2280.25 741.149 3278
2288.09 741.149 3278
2291.03 739.566 3271
2294.63 738.21 3265
2297.5 736.627 3258
2305.29 736.627 3258
2286.81 728.261 3221
2280.98 723.965 3202
2280.06 721.252 3190
2287.69 721.252 3190
2295.32 721.252 3190
2294.28 718.539 3178
2280.15 711.756 3148
2265.88 704.973 3118
2273.34 704.973 3118
2276.4 703.617 3112
2258.89 695.929 3078
2229.44 684.624 3028
2236.68 684.624 3028
2243.92 684.624 3028
2254.88 685.755 3033
2270.34 688.242 3044
2324.75 702.486 3107
2332.18 702.486 3107
2347.9 704.973 3118
2378.02 711.756 3148
2399.18 715.826 3166
2406.75 715.826 3166
2414.33 715.826 3166
-2488.01 759.283 3323
-2480.07 759.283 3323
-2482.53 762.482 3337
-2499.03 770.023 3370
-2496.14 771.622 3377
-2488.07 771.622 3377
-2479.99 771.622 3377
-2471.91 771.622 3377
-2509.8 786.017 3440
-2501.58 786.017 3440
-2551.34 804.297 3520
-2553.03 807.496 3534
-2544.58 807.496 3534
-2536.13 807.496 3534
-2522.67 805.896 3527
-2503.55 802.469 3512
-2495.15 802.469 3512
-2420.9 781.219 3419
-2447.3 792.415 3468
-2439.01 792.415 3468
-2430.72 792.415 3468
-2422.42 792.415 3468
-2404.38 789.216 3454
-2400.98 790.816 3461
-2397.54 792.415 3468
-2389.25 792.415 3468
-2380.96 792.415 3468
-2392.51 799.041 3497
-2389.6 800.869 3505
-2381.22 800.869 3505
-2372.83 800.869 3505
-2364.45 800.869 3505
-2356.07 800.869 3505
-2347.69 800.869 3505
-2349.32 804.297 3520
-2340.9 804.297 3520
-2332.48 804.297 3520
-2324.07 804.297 3520
-2324.86 807.496 3534
-2316.41 807.496 3534
-2307.96 807.496 3534
-2299.51 807.496 3534
-2291.06 807.496 3534
-2287.77 809.323 3542
-2279.3 809.323 3542
-2270.83 809.323 3542
-2262.36 809.323 3542
-2253.89 809.323 3542
-2235.91 805.896 3527
-2227.48 805.896 3527
-2214.64 804.297 3520
-2201.21 802.469 3512
-2183.45 799.041 3497
-2175.08 799.041 3497
-2162.38 797.442 3490
-2154.04 797.442 3490
-2145.69 797.442 3490
-2137.35 797.442 3490
-2124.73 795.842 3483
-2107.29 792.415 3468
-2094.76 790.816 3461
-2086.48 790.816 3461
-2065.6 786.017 3440
-2057.37 786.017 3440
-2044.97 784.418 3433
-2036.76 784.418 3433
-2028.55 784.418 3433
-2016.23 782.818 3426
-2008.03 782.818 3426
-1999.84 782.818 3426
-1991.65 782.818 3426
-1975.35 779.619 3412
-1959.12 776.42 3398
-1950.99 776.42 3398
-1938.87 774.821 3391
-1926.77 773.222 3384
-1906.77 768.423 3363
-1898.73 768.423 3363
-1890.69 768.423 3363
-1882.65 768.423 3363
-1882.41 771.622 3377
-1874.33 771.622 3377
-1866.26 771.622 3377
-1865.89 774.821 3391
-1857.78 774.821 3391
-1853.49 776.42 3398
-1845.36 776.42 3398
-1841.02 778.02 3405
-1832.88 778.02 3405
-1824.73 778.02 3405
-1809.12 774.821 3391
-1801.01 774.821 3391
-1815.11 784.418 3433
-1810.59 786.017 3440
-1802.36 786.017 3440
-1801.44 789.216 3454
-1796.81 790.816 3461
-1796.29 794.243 3476
-1787.97 794.243 3476
-1786.83 797.442 3490
-1786.13 800.869 3505
-1781.3 802.469 3512
-1772.9 802.469 3512
-1764.5 802.469 3512
-1756.1 802.469 3512
-1758.65 807.496 3534
-1750.2 807.496 3534
-1741.75 807.496 3534
-1733.3 807.496 3534
-1724.85 807.496 3534
-1723.68 810.923 3549
-1715.2 810.923 3549
-1717.77 816.178 3572
-1716.88 819.834 3588
-1715.45 823.262 3603
-1706.83 823.262 3603
-1709.53 828.745 3627
-1704.6 830.573 3635
-1702.91 834.001 3650
-1694.18 834.001 3650
-1719.62 850.909 3724
-1730.01 860.506 3766
-1721.01 860.506 3766
-1719.73 864.39 3783
-1722.44 870.331 3809
-1713.33 870.331 3809
-1704.22 870.331 3809
-1722.71 884.498 3871
-1725.4 890.667 3898
-1716.08 890.667 3898
-1706.76 890.667 3898
-1697.44 890.667 3898
-1668.63 880.385 3853
-1659.41 880.385 3853
-1635.21 872.388 3818
-1592.86 854.565 3740
-1556.39 839.713 3675
-1520.65 825.09 3611
-1512.01 825.09 3611
-1496.72 821.434 3595
-1475.7 814.579 3565
-1451.54 805.896 3527
-1443.11 805.896 3527
-1428.57 802.469 3512
-1420.17 802.469 3512
-1394.09 792.415 3468
-1388.99 794.243 3476
-1380.68 794.243 3476
-1375.13 795.842 3483
-1366.8 795.842 3483
-1358.47 795.842 3483
-1344.33 792.415 3468
-1341.81 795.842 3483
-1341.91 800.869 3505
-1339.23 804.297 3520
-1330.82 804.297 3520
-1330.66 809.323 3542
-1336.38 818.006 3580
-1333.38 821.434 3595
-1324.78 821.434 3595
-1322.05 825.09 3611
-1319.23 828.745 3627
-1313.45 830.573 3635
-1304.75 830.573 3635
-1301.41 834.001 3650
-1295.52 835.829 3658
-1286.77 835.829 3658
-1278.02 835.829 3658
-1269.27 835.829 3658
-1257.77 834.001 3650
-1243.91 830.573 3635
-1235.22 830.573 3635
-1226.52 830.573 3635
-1217.83 830.573 3635
-1209.14 830.573 3635
-1202.76 832.173 3642
-1194.05 832.173 3642
-1185.34 832.173 3642
-1179.21 834.001 3650
-1173.05 835.829 3658
-1164.3 835.829 3658
-1155.56 835.829 3658
-1146.81 835.829 3658
-1138.06 835.829 3658
-1129.32 835.829 3658
-1120.57 835.829 3658
-1116.99 839.713 3675
-1110.61 841.541 3683
-1101.8 841.541 3683
-1097.75 845.197 3699
-1091.26 847.025 3707
-1087.35 850.909 3724
-1078.45 850.909 3724
-1074.14 854.565 3740
-1065.2 854.565 3740
-1056.25 854.565 3740
-1047.31 854.565 3740
-1038.37 854.565 3740
-1027.22 852.737 3732
-1018.3 852.737 3732
-1009.37 852.737 3732
-1000.45 852.737 3732
-989.397 850.909 3724
-980.492 850.909 3724
-971.587 850.909 3724
-962.682 850.909 3724
-955.825 852.737 3732
-948.931 854.565 3740
-939.987 854.565 3740
-931.044 854.565 3740
-922.1 854.565 3740
-913.157 854.565 3740
-904.213 854.565 3740
-895.27 854.565 3740
-886.326 854.565 3740
-877.383 854.565 3740
-862.867 849.081 3716
-853.98 849.081 3716
-846.914 850.909 3724
-839.809 852.737 3732
-834.669 856.622 3749
-825.704 856.622 3749
-820.443 860.506 3766
-811.437 860.506 3766
-802.432 860.506 3766
-789.844 856.622 3749
-780.879 856.622 3749
-768.414 852.737 3732
-759.49 852.737 3732
-748.956 850.909 3724
-738.461 849.081 3716
-729.575 849.081 3716
-720.689 849.081 3716
-708.547 845.197 3699
-698.188 843.369 3691
-684.879 837.885 3667
-676.11 837.885 3667
-665.704 835.829 3658
-655.52 834.001 3650
-644.133 830.573 3635
-635.441 830.573 3635
-623.99 826.917 3619
-615.336 826.917 3619
-602.658 821.434 3595
-594.061 821.434 3595
-583.022 818.006 3580
-572.054 814.579 3565
-563.529 814.579 3565
-557.339 818.006 3580
-548.778 818.006 3580
-540.218 818.006 3580
-531.657 818.006 3580
-521.927 816.178 3572
-513.385 816.178 3572
-503.854 814.579 3565
-495.329 814.579 3565
-485.712 812.751 3557
-477.206 812.751 3557
-468.7 812.751 3557
-461.229 814.579 3565
-452.704 814.579 3565
-444.179 814.579 3565
-435.654 814.579 3565
-427.129 814.579 3565
-418.604 814.579 3565
-410.079 814.579 3565
-401.554 814.579 3565
-393.029 814.579 3565
-384.504 814.579 3565
-375.979 814.579 3565
-367.454 814.579 3565
-358.929 814.579 3565
-349.618 812.751 3557
-341.112 812.751 3557
-332.606 812.751 3557
-324.1 812.751 3557
-315.594 812.751 3557
-307.089 812.751 3557
-298.583 812.751 3557
-290.077 812.751 3557
-280.938 810.923 3549
-272.451 810.923 3549
-263.964 810.923 3549
-254.974 809.323 3542
-156.866 515.024 2254
-151.476 515.024 2254
-146.086 515.024 2254
-140.883 515.71 2257
-135.486 515.71 2257
-130.089 515.71 2257
-124.692 515.71 2257
-119.294 515.71 2257
-114.099 516.623 2261
-108.692 516.623 2261
-103.286 516.623 2261
-97.879 516.623 2261
-92.4722 516.623 2261
-87.0655 516.623 2261
-81.6587 516.623 2261
-76.1171 515.71 2257
-70.7199 515.71 2257
-65.2359 515.024 2254
-59.8459 515.024 2254
-54.4559 515.024 2254
-48.9353 513.653 2248
-43.3853 511.597 2239
-38.0312 511.597 2239
-32.6333 510.911 2236
-27.1033 507.484 2221
-21.7922 507.484 2221
-16.4811 507.484 2221
-11.1298 505.656 2213
-5.82199 504.285 2207
-0.541422 501.543 2195
4.70749 501.543 2195
9.91558 499.487 2186
15.0875 497.659 2178
20.2678 496.973 2175
25.4689 496.973 2175
30.5149 494.46 2164
35.6897 494.46 2164
40.6567 491.946 2153
45.6776 490.575 2147
50.8117 490.575 2147
55.8676 489.89 2144
60.9377 489.433 2142
65.9674 488.747 2139
71.0824 488.747 2139
76.1973 488.747 2139
81.0843 487.376 2133
86.1041 486.919 2131
91.2 486.919 2131
96.2958 486.919 2131
101.392 486.919 2131
106.588 487.376 2133
111.845 488.062 2136
116.953 488.062 2136
122.061 488.062 2136
127.169 488.062 2136
132.277 488.062 2136
283.344 876.272 3835
292.515 876.272 3835
301.685 876.272 3835
313.774 884.498 3871
323.031 884.498 3871
332.288 884.498 3871
341.544 884.498 3871
350.801 884.498 3871
360.058 884.498 3871
368.456 882.441 3862
377.691 882.441 3862
386.926 882.441 3862
396.162 882.441 3862
561.27 866.447 3792
576.805 876.272 3835
590.101 882.441 3862
599.336 882.441 3862
609.99 884.498 3871
619.246 884.498 3871
628.503 884.498 3871
633.312 878.328 3844
639.495 874.216 3826
648.644 874.216 3826
657.793 874.216 3826
666.942 874.216 3826
676.092 874.216 3826
682.196 870.331 3809
691.304 870.331 3809
697.287 866.447 3792
721.07 884.498 3871
732.025 886.554 3880
741.303 886.554 3880
750.582 886.554 3880
759.86 886.554 3880
767.354 884.498 3871
776.611 884.498 3871
785.868 884.498 3871
795.124 884.498 3871
804.381 884.498 3871
811.746 882.441 3862
820.981 882.441 3862
828.282 880.385 3853
863.362 907.576 3972
872.86 907.576 3972
882.358 907.576 3972
887.59 903.234 3953
884.562 890.667 3898
893.883 890.667 3898
903.205 890.667 3898
910.419 888.611 3889
915.462 884.498 3871
913.969 874.216 3826
923.118 874.216 3826
907.413 850.909 3724
908.198 843.369 3691
913.05 839.713 3675
915.567 834.001 3650
924.295 834.001 3650
930.978 832.173 3642
939.687 832.173 3642
946.574 830.573 3635
955.266 830.573 3635
963.958 830.573 3635
970.51 828.745 3627
979.183 828.745 3627
987.857 828.745 3627
989.936 823.262 3603
996.334 821.434 3595
998.502 816.178 3572
1007.04 816.178 3572
1011.32 812.751 3557
1019.83 812.751 3557
1026.02 810.923 3549
1034.51 810.923 3549
1040.94 809.323 3542
1047.04 807.496 3534
1053.4 805.896 3527
1059.72 804.297 3520
1068.14 804.297 3520
1076.56 804.297 3520
1082.51 802.469 3512
1086.25 799.041 3497
1094.61 799.041 3497
1102.97 799.041 3497
1109.11 797.442 3490
1117.46 797.442 3490
1125.8 797.442 3490
1134.15 797.442 3490
1142.49 797.442 3490
1150.84 797.442 3490
1159.18 797.442 3490
1169.87 799.041 3497
1178.23 799.041 3497
1191.69 802.469 3512
1200.08 802.469 3512
1208.48 802.469 3512
1216.88 802.469 3512
1225.28 802.469 3512
1236.49 804.297 3520
1247.38 805.896 3527
1255.81 805.896 3527
1269.63 809.323 3542
1283.51 812.751 3557
1300.37 818.006 3580
1308.93 818.006 3580
1325.95 823.262 3603
1334.57 823.262 3603
1343.19 823.262 3603
1351.8 823.262 3603
1372.5 830.573 3635
1381.19 830.573 3635
1389.89 830.573 3635
1398.58 830.573 3635
1407.27 830.573 3635
1406.61 825.09 3611
1415.25 825.09 3611
1411.66 818.006 3580
1407.92 810.923 3549
1404.84 804.297 3520
1407.23 800.869 3505
1415.61 800.869 3505
1408.96 792.415 3468
1400.09 782.818 3426
1393.9 774.821 3391
1402 774.821 3391
1390.15 763.853 3343
1387.27 757.912 3317
1389.32 754.714 3303
1397.22 754.714 3303
1394.48 749.001 3278
1399.32 747.402 3271
1401.55 744.431 3258
1406.75 743.06 3252
1414.52 743.06 3252
1419.68 741.689 3246
1424.36 740.09 3239
1432.11 740.09 3239
1439.85 740.09 3239
1447.6 740.09 3239
1455.34 740.09 3239
1463.09 740.09 3239
1470.83 740.09 3239
1478.58 740.09 3239
1486.32 740.09 3239
1494.07 740.09 3239
1501.81 740.09 3239
1509.56 740.09 3239
1517.31 740.09 3239
1525.05 740.09 3239
1532.8 740.09 3239
1540.54 740.09 3239
1545.42 738.719 3233
1547.39 735.977 3221
1551.71 734.378 3214
1559.39 734.378 3214
1555.38 728.894 3190
1560.07 727.523 3184
1561.77 724.781 3172
1569.36 724.781 3172
1565.01 719.297 3148
1560.55 713.813 3124
1553.46 707.187 3095
1549.27 701.932 3072
1556.61 701.932 3072
1558.36 699.418 3061
1526.29 681.824 2984
1509.28 671.085 2937
1516.3 671.085 2937
1507.24 664.002 2906
1498.56 657.147 2876
1498.11 653.948 2862
1494.44 649.378 2842
1501.23 649.378 2842
1505.38 648.236 2837
1509.5 647.093 2832
1514.13 646.179 2828
1520.89 646.179 2828
1519.55 642.752 2813
1521.39 640.695 2804
1525.37 639.553 2799
1532.07 639.553 2799
1533.81 637.497 2790
1532.75 634.298 2776
1536.62 633.155 2771
1543.24 633.155 2771
1549.87 633.155 2771
1556.5 633.155 2771
1571.02 636.354 2785
1580.51 637.497 2790
1597.99 641.838 2809
1604.71 641.838 2809
1613.72 642.752 2813
1626.21 645.037 2823
1632.96 645.037 2823
1639.71 645.037 2823
2022.62 779.619 3412
2068.87 794.243 3476
2077.19 794.243 3476
2107.1 802.469 3512
2124.53 805.896 3527
2137.2 807.496 3534
2145.65 807.496 3534
2154.1 807.496 3534
2158.27 805.896 3527
2166.7 805.896 3527
2170.82 804.297 3520
2169.95 800.869 3505
2169.01 797.442 3490
2172.99 795.842 3483
2181.31 795.842 3483
2185.24 794.243 3476
2193.56 794.243 3476
2196.8 792.415 3468
2205.09 792.415 3468
2213.39 792.415 3468
2240.26 799.041 3497
2248.62 799.041 3497
2256.98 799.041 3497
2246.56 792.415 3468
2241.2 787.617 3447
2212.9 774.821 3391
2221 774.821 3391
2215.31 770.023 3370
2201.6 762.482 3337
2204.94 760.883 3330
2212.9 760.883 3330
2238.87 767.052 3357
2246.9 767.052 3357
2263.66 770.023 3370
2271.72 770.023 3370
2284.51 771.622 3377
2292.59 771.622 3377
2300.66 771.622 3377
2308.74 771.622 3377
2316.82 771.622 3377
2315.25 768.423 3363
2314.31 765.453 3350
2303.61 759.283 3323
2297.64 754.714 3303
2305.54 754.714 3303
2304.33 751.743 3290
2307.98 750.372 3284
2306.67 747.402 3271
2314.49 747.402 3271
2299.59 740.09 3239
2294.52 735.977 3221
2292.93 733.007 3208
2300.6 733.007 3208
2308.27 733.007 3208
2302.95 728.894 3190
2301.88 726.152 3178
2287.68 719.297 3148
2295.21 719.297 3148
2289.57 715.184 3130
2288.25 712.442 3118
2291.29 711.071 3112
2298.73 711.071 3112
2306.17 711.071 3112
2313.61 711.071 3112
2321.05 711.071 3112
2332.98 712.442 3118
2340.44 712.442 3118
2370.49 719.297 3148
2391.61 723.41 3166
2408.28 726.152 3178
2415.88 726.152 3178
2423.48 726.152 3178
-2488.01 767.244 3323
-2480.07 767.244 3323
-2497.41 775.094 3357
-2489.39 775.094 3357
-2490.97 778.096 3370
-2482.91 778.096 3370
-2474.85 778.096 3370
-2492.41 786.177 3405
-2509.8 794.258 3440
-2501.58 794.258 3440
-2556.41 814.345 3527
-2553.03 815.961 3534
-2544.58 815.961 3534
-2536.13 815.961 3534
-2527.68 815.961 3534
-2503.55 810.882 3512
-2495.15 810.882 3512
-2420.9 789.409 3419
-2447.3 800.723 3468
-2439.01 800.723 3468
-2430.72 800.723 3468
-2422.42 800.723 3468
-2404.38 797.49 3454
-2400.98 799.106 3461
-2397.54 800.723 3468
-2389.25 800.723 3468
-2380.96 800.723 3468
-2392.51 807.418 3497
-2384.14 807.418 3497
-2375.78 807.418 3497
-2367.42 807.418 3497
-2364.45 809.266 3505
-2356.07 809.266 3505
-2347.69 809.266 3505
-2349.32 812.729 3520
-2340.9 812.729 3520
-2332.48 812.729 3520
-2324.07 812.729 3520
-2334.73 819.425 3549
-2326.24 819.425 3549
-2317.75 819.425 3549
-2309.27 819.425 3549
-2296.24 817.808 3542
-2287.77 817.808 3542
-2279.3 817.808 3542
-2270.83 817.808 3542
-2262.36 817.808 3542
-2253.89 817.808 3542
-2245.42 817.808 3542
-2236.95 817.808 3542
-2219.05 814.345 3527
-2206.22 812.729 3520
-2188.44 809.266 3505
-2180.06 809.266 3505
-2171.68 809.266 3505
-2158.36 807.418 3497
-2145.69 805.802 3490
-2137.35 805.802 3490
-2120.46 802.57 3476
-2107.29 800.723 3468
-2094.76 799.106 3461
-2086.48 799.106 3461
-2074 797.49 3454
-2053.18 792.642 3433
-2044.97 792.642 3433
-2036.76 792.642 3433
-2024.42 791.025 3426
-2016.23 791.025 3426
-2008.03 791.025 3426
-1999.84 791.025 3426
-1991.65 791.025 3426
-1979.4 789.409 3419
-1963.16 786.177 3405
-1955.01 786.177 3405
-1946.87 786.177 3405
-1930.76 782.944 3391
-1918.68 781.328 3384
-1910.59 781.328 3384
-1902.49 781.328 3384
-1890.48 779.712 3377
-1882.41 779.712 3377
-1882.1 782.944 3391
-1873.99 782.944 3391
-1869.74 784.56 3398
-1861.61 784.56 3398
-1857.3 786.177 3405
-1849.16 786.177 3405
-1841.02 786.177 3405
-1832.88 786.177 3405
-1824.73 786.177 3405
-1812.86 784.56 3398
-1815.89 789.409 3419
-1815.11 792.642 3433
-1810.59 794.258 3440
-1802.36 794.258 3440
-1801.44 797.49 3454
-1796.81 799.106 3461
-1796.29 802.57 3476
-1787.97 802.57 3476
-1786.83 805.802 3490
-1786.13 809.266 3505
-1777.75 809.266 3505
-1769.36 809.266 3505
-1760.98 809.266 3505
-1756.1 810.882 3512
-1758.65 815.961 3534
-1750.2 815.961 3534
-1741.75 815.961 3534
-1733.3 815.961 3534
-1724.85 815.961 3534
-1723.68 819.425 3549
-1715.2 819.425 3549
-1710.56 821.272 3557
-1709.23 824.735 3572
-1704.5 826.582 3580
-1695.93 826.582 3580
-1698.21 831.893 3603
-1697.1 835.587 3619
-1692.18 837.434 3627
-1683.51 837.434 3627
-1689.15 844.591 3658
-1710.72 859.83 3724
-1701.81 859.83 3724
-1692.91 859.83 3724
-1691.24 863.524 3740
-1682.3 863.524 3740
-1673.35 863.524 3740
-1687.55 875.531 3792
-1689.99 881.534 3818
-1680.86 881.534 3818
-1671.73 881.534 3818
-1662.6 881.534 3818
-1653.47 881.534 3818
-1625.39 871.375 3774
-1616.37 871.375 3774
-1565.18 848.517 3675
-1545.8 842.744 3650
-1513.91 830.046 3595
-1505.32 830.046 3595
-1484.23 823.119 3565
-1466.18 817.808 3542
-1448.66 812.729 3520
-1440.24 812.729 3520
-1428.57 810.882 3512
-1420.17 810.882 3512
-1391.27 799.106 3461
-1388.99 802.57 3476
-1380.68 802.57 3476
-1372.37 802.57 3476
-1364.05 802.57 3476
-1355.74 802.57 3476
-1344.33 800.723 3468
-1339.12 802.57 3476
-1333.48 804.186 3483
-1336.19 810.882 3512
-1327.79 810.882 3512
-1325.03 814.345 3527
-1330.78 823.119 3565
-1333.38 830.046 3595
-1324.78 830.046 3595
-1319.12 831.893 3603
-1316.32 835.587 3619
-1310.56 837.434 3627
-1301.88 837.434 3627
-1296.06 839.281 3635
-1287.37 839.281 3635
-1278.68 839.281 3635
-1269.99 839.281 3635
-1261.29 839.281 3635
-1252.6 839.281 3635
-1243.91 839.281 3635
-1235.22 839.281 3635
-1223.82 837.434 3627
-1215.15 837.434 3627
-1206.48 837.434 3627
-1197.8 837.434 3627
-1189.13 837.434 3627
-1183.06 839.281 3635
-1176.63 840.897 3642
-1167.92 840.897 3642
-1159.21 840.897 3642
-1150.5 840.897 3642
-1141.79 840.897 3642
-1135.57 842.744 3650
-1126.85 842.744 3650
-1118.12 842.744 3650
-1114.56 846.669 3667
-1108.2 848.517 3675
-1099.41 848.517 3675
-1093 850.364 3683
-1086.55 852.211 3691
-1082.39 855.905 3707
-1073.53 855.905 3707
-1071.84 861.677 3732
-1062.92 861.677 3732
-1053.99 861.677 3732
-1045.07 861.677 3732
-1036.14 861.677 3732
-1022.82 857.983 3716
-1013.93 857.983 3716
-1005.04 857.983 3716
-996.158 857.983 3716
-987.272 857.983 3716
-978.386 857.983 3716
-969.5 857.983 3716
-962.682 859.83 3724
-955.825 861.677 3732
-946.901 861.677 3732
-937.977 861.677 3732
-929.052 861.677 3732
-922.1 863.524 3740
-913.157 863.524 3740
-904.213 863.524 3740
-895.27 863.524 3740
-886.326 863.524 3740
-877.383 863.524 3740
-866.582 861.677 3732
-853.98 857.983 3716
-846.914 859.83 3724
-839.809 861.677 3732
-832.666 863.524 3740
-823.722 863.524 3740
-818.482 867.45 3757
-809.498 867.45 3757
-800.514 867.45 3757
-789.844 865.602 3749
-780.879 865.602 3749
-768.414 861.677 3732
-759.49 861.677 3732
-747.348 857.983 3716
-738.461 857.983 3716
-727.808 855.905 3707
-718.944 855.905 3707
-708.547 854.058 3699
-698.188 852.211 3691
-684.879 846.669 3667
-676.11 846.669 3667
-665.704 844.591 3658
-655.52 842.744 3650
-644.133 839.281 3635
-635.441 839.281 3635
-623.99 835.587 3619
-613.975 833.74 3611
-602.658 830.046 3595
-594.061 830.046 3595
-581.719 824.735 3572
-570.77 821.272 3557
-562.264 821.272 3557
-556.094 824.735 3572
-547.552 824.735 3572
-539.01 824.735 3572
-530.469 824.735 3572
-520.904 823.119 3565
-512.379 823.119 3565
-503.854 823.119 3565
-494.218 821.272 3557
-484.619 819.425 3549
-476.133 819.425 3549
-467.646 819.425 3549
-460.194 821.272 3557
-451.688 821.272 3557
-443.182 821.272 3557
-434.676 821.272 3557
-426.171 821.272 3557
-417.665 821.272 3557
-409.159 821.272 3557
-400.653 821.272 3557
-393.029 823.119 3565
-384.504 823.119 3565
-375.979 823.119 3565
-367.454 823.119 3565
-358.124 821.272 3557
-348.832 819.425 3549
-340.345 819.425 3549
-332.606 821.272 3557
-324.1 821.272 3557
-315.594 821.272 3557
-307.089 821.272 3557
-298.583 821.272 3557
-290.077 821.272 3557
-280.938 819.425 3549
-272.451 819.425 3549
-263.964 819.425 3549
-254.974 817.808 3542
-157.075 521.116 2257
-151.678 521.116 2257
-146.28 521.116 2257
-140.883 521.116 2257
-135.486 521.116 2257
-130.089 521.116 2257
-124.692 521.116 2257
-119.294 521.116 2257
-114.099 522.04 2261
-108.692 522.04 2261
-103.286 522.04 2261
-97.879 522.04 2261
-92.4722 522.04 2261
-87.0655 522.04 2261
-81.6587 522.04 2261
-76.1171 521.116 2257
-70.7199 521.116 2257
-65.2359 520.424 2254
-59.8459 520.424 2254
-54.3835 519.731 2251
-48.87 518.346 2245
-43.3853 516.96 2239
-38.0312 516.96 2239
-32.6333 516.268 2236
-27.1033 512.804 2221
-21.7627 512.112 2218
-16.4588 512.112 2218
-11.1147 510.264 2210
-5.81407 508.879 2204
-0.541422 506.801 2195
4.70749 506.801 2195
9.91558 504.723 2186
15.0875 502.876 2178
20.2678 502.183 2175
25.4689 502.183 2175
30.5149 499.644 2164
35.6402 498.951 2161
40.6001 496.411 2150
45.6776 495.718 2147
50.8117 495.718 2147
55.8155 494.564 2142
60.9377 494.564 2142
65.9674 493.871 2139
71.0824 493.871 2139
76.0905 493.179 2136
81.0082 492.024 2131
86.1041 492.024 2131
91.2 492.024 2131
96.2958 492.024 2131
101.392 492.024 2131
106.488 492.024 2131
111.688 492.486 2133
116.789 492.486 2133
121.889 492.486 2133
126.99 492.486 2133
132.091 492.486 2133
283.344 885.459 3835
292.515 885.459 3835
301.685 885.459 3835
312.315 889.615 3853
321.529 889.615 3853
330.742 889.615 3853
339.162 887.537 3844
348.354 887.537 3844
357.546 887.537 3844
366.739 887.537 3844
375.051 885.459 3835
384.221 885.459 3835
393.392 885.459 3835
561.27 875.531 3792
574.248 881.534 3818
585.975 885.459 3835
595.146 885.459 3835
609.99 893.771 3871
619.246 893.771 3871
628.503 893.771 3871
630.346 883.381 3826
635.149 877.378 3800
644.236 877.378 3800
653.323 877.378 3800
662.41 877.378 3800
671.497 877.378 3800
680.584 877.378 3800
689.671 877.378 3800
697.287 875.531 3792
721.07 893.771 3871
732.025 895.849 3880
741.303 895.849 3880
750.582 895.849 3880
756.335 891.693 3862
765.57 891.693 3862
776.611 893.771 3871
785.868 893.771 3871
795.124 893.771 3871
804.381 893.771 3871
861.921 895.849 3880
871.199 895.849 3880
880.477 895.849 3880
887.692 893.771 3871
896.948 893.771 3871
895.671 883.381 3826
904.82 883.381 3826
897.486 867.45 3757
906.47 867.45 3757
903.271 855.905 3707
904.262 848.517 3675
908.826 844.591 3658
913.56 840.897 3642
922.269 840.897 3642
927.144 837.434 3627
935.817 837.434 3627
944.49 837.434 3627
953.164 837.434 3627
961.837 837.434 3627
968.369 835.587 3619
974.864 833.74 3611
983.499 833.74 3611
989.936 831.893 3603
994.394 828.429 3588
998.502 824.735 3572
1007.04 824.735 3572
1011.32 821.272 3557
1019.83 821.272 3557
1026.02 819.425 3549
1034.51 819.425 3549
1040.94 817.808 3542
1047.04 815.961 3534
1053.4 814.345 3527
1059.72 812.729 3520
1068.14 812.729 3520
1076.56 812.729 3520
1082.51 810.882 3512
1086.25 807.418 3497
1094.61 807.418 3497
1102.97 807.418 3497
1109.11 805.802 3490
1117.46 805.802 3490
1125.8 805.802 3490
1134.15 805.802 3490
1142.49 805.802 3490
1150.84 805.802 3490
1159.18 805.802 3490
1169.87 807.418 3497
1178.23 807.418 3497
1191.69 810.882 3512
1200.08 810.882 3512
1208.48 810.882 3512
1216.88 810.882 3512
1225.28 810.882 3512
1236.49 812.729 3520
1247.38 814.345 3527
1255.81 814.345 3527
1269.63 817.808 3542
1283.51 821.272 3557
1300.37 826.582 3580
1308.93 826.582 3580
1325.95 831.893 3603
1334.57 831.893 3603
1343.19 831.893 3603
1351.8 831.893 3603
1366.46 835.587 3619
1381.19 839.281 3635
1389.89 839.281 3635
1398.58 839.281 3635
1401.08 835.587 3619
1403.5 831.893 3603
1412.11 831.893 3603
1411.66 826.582 3580
1407.92 819.425 3549
1404.84 812.729 3520
1404.02 807.418 3497
1412.38 807.418 3497
1403.27 797.49 3454
1394.37 787.793 3412
1385.26 778.096 3370
1393.32 778.096 3370
1384.75 768.86 3330
1384.35 764.242 3310
1389.32 762.626 3303
1397.22 762.626 3303
1394.48 756.854 3278
1399.32 755.237 3271
1401.55 752.236 3258
1406.75 750.851 3252
1414.52 750.851 3252
1419.68 749.465 3246
1424.36 747.849 3239
1432.11 747.849 3239
1439.85 747.849 3239
1447.6 747.849 3239
1455.34 747.849 3239
1463.09 747.849 3239
1470.83 747.849 3239
1478.58 747.849 3239
1486.32 747.849 3239
1494.07 747.849 3239
1501.81 747.849 3239
1509.56 747.849 3239
1517.31 747.849 3239
1525.05 747.849 3239
1532.8 747.849 3239
1540.54 747.849 3239
1545.42 746.464 3233
1547.39 743.693 3221
1551.71 742.077 3214
1559.39 742.077 3214
1555.38 736.536 3190
1560.07 735.15 3184
1561.77 732.38 3172
1569.36 732.38 3172
1565.01 726.838 3148
1560.55 721.297 3124
1553.46 714.601 3095
1549.27 709.291 3072
1556.61 709.291 3072
1558.36 706.751 3061
1526.29 688.972 2984
1506.71 676.966 2932
1513.72 676.966 2932
1507.24 670.963 2906
1495.96 662.882 2871
1498.11 660.804 2862
1494.44 656.186 2842
1501.23 656.186 2842
1505.38 655.032 2837
1507.36 652.954 2828
1514.13 652.954 2828
1520.89 652.954 2828
1519.55 649.49 2813
1518.68 646.258 2799
1525.37 646.258 2799
1532.07 646.258 2799
1533.81 644.18 2790
1534.96 641.871 2780
1539.39 640.948 2776
1546.03 640.948 2776
1554.9 641.871 2780
1561.55 641.871 2780
1571.02 643.026 2785
1582.78 645.104 2794
1600.27 649.49 2813
1607 649.49 2813
1619.46 651.799 2823
1626.21 651.799 2823
1632.96 651.799 2823
1639.71 651.799 2823
2043.37 795.874 3447
2077.21 805.802 3490
2085.55 805.802 3490
2111.9 812.729 3520
2128.75 815.961 3534
2137.2 815.961 3534
2145.65 815.961 3534
2154.1 815.961 3534
2162.55 815.961 3534
2171 815.961 3534
2175.13 814.345 3527
2179.23 812.729 3520
2182.68 810.882 3512
2191.08 810.882 3512
2195.09 809.266 3505
2203.47 809.266 3505
2211.86 809.266 3505
2220.24 809.266 3505
2228.62 809.266 3505
2237 809.266 3505
2245.38 809.266 3505
2253.76 809.266 3505
2262.15 809.266 3505
2270.53 809.266 3505
2241.2 795.874 3447
2231.17 789.409 3419
2239.34 789.409 3419
2233.72 784.56 3398
2223.37 778.096 3370
2231.43 778.096 3370
2230.85 775.094 3357
2256.88 781.328 3384
2264.97 781.328 3384
2277.77 782.944 3391
2285.88 782.944 3391
2303.46 786.177 3405
2311.6 786.177 3405
2319.74 786.177 3405
2318.31 782.944 3391
2326.42 782.944 3391
2329.71 781.328 3384
2323.29 776.479 3363
2322.32 773.478 3350
2330.34 773.478 3350
2319.5 767.244 3323
2318.34 764.242 3310
2317.12 761.241 3297
2320.07 759.624 3290
2327.94 759.624 3290
2318.05 753.852 3265
2312.33 749.465 3246
2320.09 749.465 3246
2327.85 749.465 3246
2312.59 742.077 3214
2315.94 740.692 3208
2310.57 736.536 3190
2300.76 730.994 3166
2308.33 730.994 3166
2311.51 729.609 3160
2314.67 728.224 3154
2322.21 728.224 3154
2329.75 728.224 3154
2337.29 728.224 3154
2335.92 725.453 3142
2343.43 725.453 3142
2355.43 726.838 3148
2362.96 726.838 3148
2375.01 728.224 3154
2391.61 730.994 3166
2408.28 733.765 3178
2415.88 733.765 3178
2423.48 733.765 3178
-2513.47 783.136 3357
-2505.44 783.136 3357
-2512.29 787.801 3377
-2504.22 787.801 3377
-2496.14 787.801 3377
-2488.07 787.801 3377
-2505.69 795.966 3412
-2497.53 795.966 3412
-2568.17 821.161 3520
-2559.75 821.161 3520
-2556.41 822.794 3527
-2563.87 827.926 3549
-2555.38 827.926 3549
-2546.9 827.926 3549
-2538.41 827.926 3549
-2503.55 819.295 3512
-2495.15 819.295 3512
-2466.22 812.53 3483
-2462.83 814.162 3490
-2454.48 814.162 3490
-2446.14 814.162 3490
-2437.79 814.162 3490
-2429.44 814.162 3490
-2400.98 807.397 3461
-2397.54 809.03 3468
-2389.25 809.03 3468
-2380.96 809.03 3468
-2392.51 815.795 3497
-2384.14 815.795 3497
-2375.78 815.795 3497
-2367.42 815.795 3497
-2364.45 817.662 3505
-2356.07 817.662 3505
-2347.69 817.662 3505
-2349.32 821.161 3520
-2340.9 821.161 3520
-2337.12 822.794 3527
-2328.69 822.794 3527
-2334.73 827.926 3549
-2326.24 827.926 3549
-2317.75 827.926 3549
-2309.27 827.926 3549
-2300.78 827.926 3549
-2292.29 827.926 3549
-2283.81 827.926 3549
-2275.32 827.926 3549
-2266.83 827.926 3549
-2258.35 827.926 3549
-2249.86 827.926 3549
-2241.37 827.926 3549
-2232.89 827.926 3549
-2210.61 822.794 3527
-2197.81 821.161 3520
-2189.39 821.161 3520
-2176.01 819.295 3512
-2163.3 817.662 3505
-2154.91 817.662 3505
-2146.53 817.662 3505
-2129 814.162 3490
-2112.15 810.897 3476
-2098.99 809.03 3468
-2090.7 809.03 3468
-2078.21 807.397 3461
-2065.74 805.764 3454
-2057.48 805.764 3454
-2049.22 805.764 3454
-2032.69 802.498 3440
-2024.46 802.498 3440
-2016.24 802.498 3440
-2008.01 802.498 3440
-1995.72 800.865 3433
-1983.46 799.232 3426
-1967.19 795.966 3412
-1959.03 795.966 3412
-1950.87 795.966 3412
-1938.73 794.333 3405
-1922.65 791.067 3391
-1914.54 791.067 3391
-1902.49 789.434 3384
-1894.4 789.434 3384
-1882.41 787.801 3377
-1885.99 792.7 3398
-1877.86 792.7 3398
-1869.74 792.7 3398
-1861.61 792.7 3398
-1861.12 795.966 3412
-1852.96 795.966 3412
-1844.8 795.966 3412
-1836.65 795.966 3412
-1828.49 795.966 3412
-1812.86 792.7 3398
-1815.89 797.599 3419
-1815.11 800.865 3433
-1810.59 802.498 3440
-1802.36 802.498 3440
-1801.44 805.764 3454
-1796.81 807.397 3461
-1796.29 810.897 3476
-1787.97 810.897 3476
-1786.83 814.162 3490
-1786.13 817.662 3505
-1777.75 817.662 3505
-1769.36 817.662 3505
-1760.98 817.662 3505
-1756.1 819.295 3512
-1758.65 824.427 3534
-1750.2 824.427 3534
-1741.75 824.427 3534
-1733.3 824.427 3534
-1724.85 824.427 3534
-1723.68 827.926 3549
-1715.2 827.926 3549
-1710.56 829.793 3557
-1709.23 833.292 3572
-1704.5 835.158 3580
-1695.93 835.158 3580
-1698.21 840.524 3603
