340.893 988.16 2857
348.333 989.889 2862
355.177 989.889 2862
363.16 993.002 2871
370.025 993.002 2871
377.547 994.732 2876
387.098 1001.65 2896
396.88 1008.91 2917
403.855 1008.91 2917
412.239 1012.37 2927
422.103 1019.29 2947
433.81 1030.36 2979
440.934 1030.36 2979
448.81 1032.09 2984
455.945 1032.09 2984
463.081 1032.09 2984
467.695 1026.55 2968
473.193 1023.09 2958
480.267 1023.09 2958
487.34 1023.09 2958
493.578 1021.36 2953
500.639 1021.36 2953
504.95 1015.83 2937
511.973 1015.83 2937
518.997 1015.83 2937
525.124 1014.1 2932
527.417 1005.11 2906
535.285 1006.84 2911
543.364 1008.91 2917
550.34 1008.91 2917
558.27 1010.64 2922
565.258 1010.64 2922
573.224 1012.37 2927
580.224 1012.37 2927
587.223 1012.37 2927
596.252 1015.83 2937
604.303 1017.56 2942
611.338 1017.56 2942
619.424 1019.29 2947
626.471 1019.29 2947
633.518 1019.29 2947
640.566 1019.29 2947
647.613 1019.29 2947
654.66 1019.29 2947
661.707 1019.29 2947
668.754 1019.29 2947
672.362 1014.1 2932
677.056 1010.64 2922
686.384 1014.1 2932
693.396 1014.1 2932
700.407 1014.1 2932
707.418 1014.1 2932
714.429 1014.1 2932
721.441 1014.1 2932
723.235 1006.84 2911
730.196 1006.84 2911
737.157 1006.84 2911
744.118 1006.84 2911
748.499 1003.38 2901
751.53 998.19 2886
758.431 998.19 2886
766.658 999.92 2891
773.572 999.92 2891
787.504 1008.91 2917
797.203 1012.37 2927
804.203 1012.37 2927
812.588 1014.1 2932
819.599 1014.1 2932
844.372 1035.89 2995
851.534 1035.89 2995
865.003 1043.5 3017
872.218 1043.5 3017
880.89 1045.23 3022
888.116 1045.23 3022
895.343 1045.23 3022
902.569 1045.23 3022
909.796 1045.23 3022
913.684 1041.42 3011
920.885 1041.42 3011
921.612 1034.16 2990
935.285 1041.42 3011
947.807 1047.3 3028
956.624 1049.03 3033
963.877 1049.03 3033
971.13 1049.03 3033
974.835 1045.23 3022
982.061 1045.23 3022
976.848 1032.09 2984
983.983 1032.09 2984
991.119 1032.09 2984
998.255 1032.09 2984
1005.39 1032.09 2984
1005.4 1024.82 2963
1009.07 1021.36 2953
1016.13 1021.36 2953
1023.19 1021.36 2953
1028.16 1019.29 2947
1031.69 1015.83 2937
1033.41 1010.64 2922
1040.4 1010.64 2922
1047.39 1010.64 2922
1057.98 1014.1 2932
1064.99 1014.1 2932
1072.01 1014.1 2932
1077.18 1012.37 2927
1082.32 1010.64 2922
1089.31 1010.64 2922
1096.3 1010.64 2922
1099.13 1006.84 2911
1108.37 1008.91 2917
1117.26 1010.64 2922
1124.25 1010.64 2922
1131.24 1010.64 2922
1136.28 1008.91 2917
1145.21 1010.64 2922
1152.2 1010.64 2922
1159.19 1010.64 2922
1166.17 1010.64 2922
1173.16 1010.64 2922
1182.17 1012.37 2927
1205.82 1026.55 2968
1212.92 1026.55 2968
1233.17 1037.62 3000
1244.89 1041.42 3011
1252.09 1041.42 3011
1259.29 1041.42 3011
1261.87 1037.62 3000
1258.04 1028.63 2974
1265.16 1028.63 2974
1272.27 1028.63 2974
1279.38 1028.63 2974
1274.81 1019.29 2947
1281.86 1019.29 2947
1295.9 1024.82 2963
1302.99 1024.82 2963
1331.3 1041.42 3011
1341.16 1043.5 3017
1348.38 1043.5 3017
1355.59 1043.5 3017
1372.75 1051.11 3039
1387.28 1056.64 3055
1394.58 1056.64 3055
1401.89 1056.64 3055
1401.81 1051.11 3039
1396.1 1041.42 3011
1403.3 1041.42 3011
1385.67 1023.09 2958
1400.28 1028.63 2974
1432.94 1047.3 3028
1442.56 1049.03 3033
1449.82 1049.03 3033
1457.07 1049.03 3033
1480.74 1060.79 3067
1518.64 1082.58 3130
1526.12 1082.58 3130
1533.61 1082.58 3130
1541.09 1082.58 3130
1548.58 1082.58 3130
1556.06 1082.58 3130
1526.08 1056.64 3055
1530.88 1054.91 3050
1527.08 1047.3 3028
1534.32 1047.3 3028
1522.21 1034.16 2990
1518.11 1026.55 2968
1525.21 1026.55 2968
1532.3 1026.55 2968
1536.81 1024.82 2963
1537.15 993.002 2871
1544.01 993.002 2871
1550.88 993.002 2871
1552.86 989.889 2862
1559.71 989.889 2862
1566.55 989.889 2862
-1742.01 971.67 2790
-1740.94 974.804 2799
-1740.44 978.287 2809
-1733.72 978.287 2809
-1729.46 979.68 2813
-1725.8 981.422 2818
-1727.6 986.297 2832
-1720.83 986.297 2832
-1717.08 988.039 2837
-1719.34 993.263 2852
-1715.52 995.004 2857
-1708.69 995.004 2857
-1710.2 999.88 2871
-1706.3 1001.62 2876
-1702.38 1003.36 2881
-1695.49 1003.36 2881
-1688.6 1003.36 2881
-1681.71 1003.36 2881
-1674.82 1003.36 2881
-1667.93 1003.36 2881
-1669.69 1008.59 2896
-1674.82 1015.9 2917
-1682.14 1024.61 2942
-1675.11 1024.61 2942
-1670.91 1026.35 2947
-1675.72 1033.66 2968
-1680.99 1041.32 2990
-1673.84 1041.32 2990
-1672.26 1044.81 3000
-1671.19 1048.64 3011
-1670.07 1052.47 3022
-1662.84 1052.47 3022
-1658.91 1054.56 3028
-1651.66 1054.56 3028
-1644.42 1054.56 3028
-1369.31 1001.62 2876
-1362.43 1001.62 2876
-1355.55 1001.62 2876
-1346.33 999.88 2871
-1339.47 999.88 2871
-1341.89 1006.85 2891
-1334.97 1006.85 2891
-1328.06 1006.85 2891
-1325.72 1010.33 2901
-1318.78 1010.33 2901
-1311.84 1010.33 2901
-1314.35 1017.64 2922
-1311.84 1021.12 2932
-1318.62 1031.92 2963
-1311.54 1031.92 2963
-1304.45 1031.92 2963
-1297.36 1031.92 2963
-1290.28 1031.92 2963
-1278.86 1028.44 2953
-1258.45 1017.64 2922
-1249.32 1015.9 2917
-1242.35 1015.9 2917
-1235.37 1015.9 2917
-1228.4 1015.9 2917
-1221.42 1015.9 2917
-1214.44 1015.9 2917
-1207.47 1015.9 2917
-1198.02 1013.81 2911
-1186.97 1010.33 2901
-1188.58 1017.64 2922
-1181.59 1017.64 2922
-1180.63 1022.87 2937
-1175.61 1024.61 2942
-1183.27 1037.49 2979
-1176.14 1037.49 2979
-1179.62 1046.9 3006
-1172.43 1046.9 3006
-1165.24 1046.9 3006
-1158.05 1046.9 3006
-1150.86 1046.9 3006
-1145.58 1048.64 3011
-1138.38 1048.64 3011
-1131.18 1048.64 3011
-1128.08 1052.47 3022
-1129.02 1060.13 3044
-1123.95 1062.22 3050
-1116.65 1062.22 3050
-1119.54 1071.97 3078
-1112.18 1071.97 3078
-1104.82 1071.97 3078
-1097.46 1071.97 3078
-1090.1 1071.97 3078
-1066.91 1056.3 3033
-1042.54 1039.23 2984
-1035.41 1039.23 2984
-1006.9 1017.64 2922
-991.02 1008.59 2896
-980.697 1005.1 2886
-973.795 1005.1 2886
-965.219 1003.36 2881
-961.656 1006.85 2891
-964.98 1017.64 2922
-957.993 1017.64 2922
-951.005 1017.64 2922
-940.464 1013.81 2911
-928.693 1008.59 2896
-921.768 1008.59 2896
-913.263 1006.85 2891
-903.215 1003.36 2881
-893.214 999.88 2871
-886.349 999.88 2871
-879.483 999.88 2871
-875.657 1003.36 2881
-891.987 1030.18 2958
-905.855 1054.56 3028
-898.614 1054.56 3028
-892.845 1056.3 3033
-885.592 1056.3 3033
-880.077 1058.39 3039
-872.81 1058.39 3039
-868.676 1062.22 3050
-862.794 1063.96 3055
-855.489 1063.96 3055
-848.184 1063.96 3055
-840.878 1063.96 3055
-830.571 1060.13 3044
-823.292 1060.13 3044
-813.064 1056.3 3033
-804.483 1054.56 3028
-794.346 1050.73 3017
-787.131 1050.73 3017
-774.23 1043.07 2995
-760.153 1033.66 2968
-749.249 1028.44 2953
-738.166 1022.87 2937
-731.143 1022.87 2937
-722.887 1021.12 2932
-714.655 1019.38 2927
-705.238 1015.9 2917
-698.263 1015.9 2917
-688.68 1012.07 2906
-680.558 1010.33 2901
-668.977 1003.36 2881
-662.088 1003.36 2881
-652.924 999.88 2871
-644.033 996.745 2862
-636.076 995.004 2857
-629.244 995.004 2857
-622.412 995.004 2857
-613.426 991.521 2847
-607.683 993.263 2852
-602.97 996.745 2862
-596.126 996.745 2862
-591.135 999.88 2871
-587.322 1005.1 2886
-581.427 1006.85 2891
-574.513 1006.85 2891
-567.6 1006.85 2891
-560.687 1006.85 2891
-553.774 1006.85 2891
-546.86 1006.85 2891
-538.079 1003.36 2881
-526.765 995.004 2857
-519.023 993.263 2852
-514.718 998.138 2866
-507.864 998.138 2866
-501.885 999.88 2871
-495.019 999.88 2871
-489.854 1003.36 2881
-482.965 1003.36 2881
-481.033 1013.81 2911
-474.072 1013.81 2911
-467.111 1013.81 2911
-460.15 1013.81 2911
-453.188 1013.81 2911
-445.461 1012.07 2906
-438.512 1012.07 2906
-431.563 1012.07 2906
-423.883 1010.33 2901
-416.946 1010.33 2901
-412.27 1015.9 2917
-405.295 1015.9 2917
-398.319 1015.9 2917
-390.539 1013.81 2911
-387.662 1024.61 2942
-380.627 1024.61 2942
-374.227 1026.35 2947
-367.18 1026.35 2947
-360.133 1026.35 2947
-353.085 1026.35 2947
-346.743 1028.44 2953
-339.681 1028.44 2953
-332.62 1028.44 2953
-324.897 1026.35 2947
-317.85 1026.35 2947
-310.275 1024.61 2942
-303.24 1024.61 2942
-297.312 1028.44 2953
-290.251 1028.44 2953
-284.628 1033.66 2968
-279.026 1039.23 2984
-272.437 1041.32 2990
-265.287 1041.32 2990
-259.001 1044.81 3000
-254.177 1054.56 3028
-246.936 1054.56 3028
-239.695 1054.56 3028
-231.15 1048.64 3011
-223.949 1048.64 3011
-217.181 1050.73 3017
-209.966 1050.73 3017
-202.752 1050.73 3017
-195.537 1050.73 3017
-188.635 1052.47 3022
-181.408 1052.47 3022
-174.182 1052.47 3022
-166.955 1052.47 3022
-159.729 1052.47 3022
-110.92 765.495 2198
-105.664 765.495 2198
-100.408 765.495 2198
-95.1517 765.495 2198
-89.8956 765.495 2198
-84.6395 765.495 2198
-79.3834 765.495 2198
-73.925 763.405 2192
-68.5893 762.36 2189
-63.21 760.619 2184
-57.9874 760.619 2184
-52.7648 760.619 2184
-47.4769 759.574 2181
-42.2614 759.574 2181
-37.046 759.574 2181
-31.7868 758.529 2178
-26.5785 758.529 2178
-21.3703 758.529 2178
-16.162 758.529 2178
-10.9236 756.44 2172
-5.72966 756.44 2172
-0.535749 756.44 2172
4.65816 756.44 2172
9.85207 756.44 2172
15.046 756.44 2172
20.1653 753.654 2164
25.3401 753.654 2164
30.4726 752.609 2161
35.5907 751.564 2158
40.7512 751.564 2158
45.9116 751.564 2158
51.072 751.564 2158
56.2325 751.564 2158
62.1326 760.619 2184
67.3552 760.619 2184
72.5778 760.619 2184
77.8004 760.619 2184
83.023 760.619 2184
88.2456 760.619 2184
93.4682 760.619 2184
98.6908 760.619 2184
103.913 760.619 2184
109.136 760.619 2184
114.359 760.619 2184
119.417 759.574 2181
124.29 757.485 2175
130.026 760.619 2184
135.249 760.619 2184
140.472 760.619 2184
145.694 760.619 2184
150.917 760.619 2184
156.139 760.619 2184
161.362 760.619 2184
166.585 760.619 2184
171.807 760.619 2184
177.03 760.619 2184
182.253 760.619 2184
187.475 760.619 2184
276.569 984.904 2828
283.332 984.904 2828
290.505 986.297 2832
297.802 988.039 2837
305.66 991.521 2847
312.468 991.521 2847
319.276 991.521 2847
326.656 993.263 2852
333.476 993.263 2852
340.296 993.263 2852
347.116 993.263 2852
353.936 993.263 2852
362.021 996.745 2862
368.865 996.745 2862
377.547 1001.62 2876
387.098 1008.59 2896
396.064 1013.81 2911
403.025 1013.81 2911
411.535 1017.64 2922
419.239 1019.38 2927
431.48 1031.92 2963
438.566 1031.92 2963
445.651 1031.92 2963
452.737 1031.92 2963
459.822 1031.92 2963
466.12 1030.18 2958
470.634 1024.61 2942
477.669 1024.61 2942
484.704 1024.61 2942
490.904 1022.87 2937
497.927 1022.87 2937
504.95 1022.87 2937
511.973 1022.87 2937
518.997 1022.87 2937
523.333 1017.64 2922
526.509 1010.33 2901
533.447 1010.33 2901
542.246 1013.81 2911
549.208 1013.81 2911
557.315 1015.9 2917
564.29 1015.9 2917
571.266 1015.9 2917
578.241 1015.9 2917
585.217 1015.9 2917
593.207 1017.64 2922
602.249 1021.12 2932
609.26 1021.12 2932
617.322 1022.87 2937
624.345 1022.87 2937
631.369 1022.87 2937
637.305 1021.12 2932
644.316 1021.12 2932
651.328 1021.12 2932
658.339 1021.12 2932
661.946 1015.9 2917
667.546 1013.81 2911
677.056 1017.64 2922
686.384 1021.12 2932
693.396 1021.12 2932
700.407 1021.12 2932
707.418 1021.12 2932
714.429 1021.12 2932
721.441 1021.12 2932
723.235 1013.81 2911
730.196 1013.81 2911
737.157 1013.81 2911
744.118 1013.81 2911
748.499 1010.33 2901
751.53 1005.1 2886
758.431 1005.1 2886
766.658 1006.85 2891
773.572 1006.85 2891
787.504 1015.9 2917
797.203 1019.38 2927
804.203 1019.38 2927
812.588 1021.12 2932
819.599 1021.12 2932
844.372 1043.07 2995
851.534 1043.07 2995
865.003 1050.73 3017
872.218 1050.73 3017
880.89 1052.47 3022
888.116 1052.47 3022
895.343 1052.47 3022
902.569 1052.47 3022
909.796 1052.47 3022
913.684 1048.64 3011
920.885 1048.64 3011
921.612 1041.32 2990
935.285 1048.64 3011
947.807 1054.56 3028
956.624 1056.3 3033
963.877 1056.3 3033
971.13 1056.3 3033
974.835 1052.47 3022
982.061 1052.47 3022
976.848 1039.23 2984
983.983 1039.23 2984
991.119 1039.23 2984
998.255 1039.23 2984
1005.39 1039.23 2984
1005.4 1031.92 2963
1009.07 1028.44 2953
1016.13 1028.44 2953
1023.19 1028.44 2953
1028.16 1026.35 2947
1031.69 1022.87 2937
1033.41 1017.64 2922
1040.4 1017.64 2922
1047.39 1017.64 2922
1057.98 1021.12 2932
1064.99 1021.12 2932
1072.01 1021.12 2932
1077.18 1019.38 2927
1082.32 1017.64 2922
1089.31 1017.64 2922
1096.3 1017.64 2922
1099.13 1013.81 2911
1108.37 1015.9 2917
1117.26 1017.64 2922
1124.25 1017.64 2922
1131.24 1017.64 2922
1136.28 1015.9 2917
1145.21 1017.64 2922
1152.2 1017.64 2922
1159.19 1017.64 2922
1166.17 1017.64 2922
1173.16 1017.64 2922
1182.17 1019.38 2927
1205.82 1033.66 2968
1212.92 1033.66 2968
1233.17 1044.81 3000
1244.89 1048.64 3011
1252.09 1048.64 3011
1259.29 1048.64 3011
1261.87 1044.81 3000
1258.04 1035.75 2974
1265.16 1035.75 2974
1272.27 1035.75 2974
1279.38 1035.75 2974
1274.81 1026.35 2947
1281.86 1026.35 2947
1295.9 1031.92 2963
1302.99 1031.92 2963
1331.3 1048.64 3011
1341.16 1050.73 3017
1348.38 1050.73 3017
1355.59 1050.73 3017
1372.75 1058.39 3039
1387.28 1063.96 3055
1394.58 1063.96 3055
1401.89 1063.96 3055
1401.81 1058.39 3039
1396.1 1048.64 3011
1403.3 1048.64 3011
1385.67 1030.18 2958
1400.28 1035.75 2974
1432.94 1054.56 3028
1442.56 1056.3 3033
1449.82 1056.3 3033
1457.07 1056.3 3033
1480.74 1068.14 3067
1518.64 1090.08 3130
1526.12 1090.08 3130
1533.61 1090.08 3130
1541.09 1090.08 3130
1548.58 1090.08 3130
1556.06 1090.08 3130
1526.08 1063.96 3055
1530.88 1062.22 3050
1527.08 1054.56 3028
1534.32 1054.56 3028
1522.21 1041.32 2990
1518.11 1033.66 2968
1525.21 1033.66 2968
1532.3 1033.66 2968
1536.81 1031.92 2963
1495.96 999.88 2871
1537.15 999.88 2871
1544.01 999.88 2871
1550.88 999.88 2871
1552.86 996.745 2862
1559.71 996.745 2862
1566.55 996.745 2862
-1723.27 960.47 2739
-1716.72 960.47 2739
-1742.01 978.353 2790
-1740.94 981.509 2799
-1740.44 985.016 2809
-1733.72 985.016 2809
-1729.46 986.419 2813
-1725.8 988.172 2818
-1727.6 993.081 2832
-1720.83 993.081 2832
-1717.08 994.835 2837
-1719.34 1000.09 2852
-1715.52 1001.85 2857
-1708.69 1001.85 2857
-1710.2 1006.76 2871
-1706.3 1008.51 2876
-1702.38 1010.26 2881
-1695.49 1010.26 2881
-1688.6 1010.26 2881
-1681.71 1010.26 2881
-1674.82 1010.26 2881
-1667.93 1010.26 2881
-1669.69 1015.52 2896
-1674.82 1022.89 2917
-1682.14 1031.65 2942
-1675.11 1031.65 2942
-1670.91 1033.41 2947
-1675.72 1040.77 2968
-1680.99 1048.49 2990
-1673.84 1048.49 2990
-1672.26 1051.99 3000
-1671.19 1055.85 3011
-1670.07 1059.71 3022
-1662.84 1059.71 3022
-1658.91 1061.81 3028
-1651.66 1061.81 3028
-1644.42 1061.81 3028
-1371.69 1010.26 2881
-1364.8 1010.26 2881
-1357.91 1010.26 2881
-1351.02 1010.26 2881
-1346.47 1012.02 2886
-1353.95 1022.89 2917
-1346.98 1022.89 2917
-1342.3 1024.64 2922
-1335.31 1024.64 2922
-1332.87 1028.15 2932
-1325.86 1028.15 2932
-1325.59 1033.41 2947
-1325.71 1039.02 2963
-1330.64 1048.49 2990
-1323.49 1048.49 2990
-1316.34 1048.49 2990
-1309.19 1048.49 2990
-1302.04 1048.49 2990
-1290.12 1044.63 2979
-1267.06 1031.65 2942
-1255.75 1028.15 2932
-1248.73 1028.15 2932
-1237.49 1024.64 2922
-1228.4 1022.89 2917
-1221.42 1022.89 2917
-1214.44 1022.89 2917
-1207.47 1022.89 2917
-1198.02 1020.78 2911
-1186.97 1017.28 2901
-1188.58 1024.64 2922
-1181.59 1024.64 2922
-1180.63 1029.9 2937
-1175.61 1031.65 2942
-1183.27 1044.63 2979
-1176.14 1044.63 2979
-1175.3 1050.24 2995
-1170.09 1051.99 3000
-1162.91 1051.99 3000
-1155.74 1051.99 3000
-1146.65 1050.24 2995
-1143.67 1054.1 3006
-1136.49 1054.1 3006
-1129.3 1054.1 3006
-1123.98 1055.85 3011
-1116.78 1055.85 3011
-1121.74 1067.42 3044
-1114.46 1067.42 3044
-1107.18 1067.42 3044
-1099.9 1067.42 3044
-1092.62 1067.42 3044
-1083.56 1065.67 3039
-1074.17 1063.56 3033
-1053.55 1050.24 2995
-1020.88 1024.64 2922
-1013.89 1024.64 2922
-994.499 1012.02 2886
-985.887 1010.26 2881
-977.298 1008.51 2876
-970.421 1008.51 2876
-961.869 1006.76 2871
-956.666 1008.51 2876
-956.394 1015.52 2896
-949.469 1015.52 2896
-942.543 1015.52 2896
-935.618 1015.52 2896
-925.486 1012.02 2886
-918.585 1012.02 2886
-910.104 1010.26 2881
-898.512 1005 2866
-891.659 1005 2866
-886.349 1006.76 2871
-879.483 1006.76 2871
-875.657 1010.26 2881
-896.812 1042.88 2974
-904.06 1059.71 3022
-896.834 1059.71 3022
-892.845 1063.56 3033
-885.592 1063.56 3033
-878.34 1063.56 3033
-869.651 1061.81 3028
-862.41 1061.81 3028
-861.382 1069.53 3050
-854.089 1069.53 3050
-846.795 1069.53 3050
-839.502 1069.53 3050
-829.207 1065.67 3039
-821.94 1065.67 3039
-813.064 1063.56 3033
-804.483 1061.81 3028
-792.766 1055.85 3011
-785.566 1055.85 3011
-772.937 1048.49 2990
-756.311 1035.51 2953
-742.652 1026.39 2927
-735.653 1026.39 2927
-728.654 1026.39 2927
-719.189 1022.89 2917
-712.214 1022.89 2917
-703.787 1020.78 2911
-696.826 1020.78 2911
-687.495 1017.28 2901
-678.212 1013.77 2891
-668.977 1010.26 2881
-662.088 1010.26 2881
-650.877 1003.6 2862
-642.908 1001.85 2857
-633.85 998.341 2847
-627.042 998.341 2847
-620.234 998.341 2847
-612.349 996.588 2842
-607.683 1000.09 2852
-601.917 1001.85 2857
-595.085 1001.85 2857
-589.282 1003.6 2862
-584.27 1006.76 2871
-580.421 1012.02 2886
-573.52 1012.02 2886
-566.619 1012.02 2886
-559.717 1012.02 2886
-551.858 1010.26 2881
-544.969 1010.26 2881
-537.146 1008.51 2876
-526.765 1001.85 2857
-519.023 1000.09 2852
-513.999 1003.6 2862
-507.155 1003.6 2862
-501.885 1006.76 2871
-495.019 1006.76 2871
-489.854 1010.26 2881
-482.965 1010.26 2881
-476.902 1012.02 2886
-472.443 1017.28 2901
-467.111 1020.78 2911
-460.15 1020.78 2911
-453.188 1020.78 2911
-445.461 1019.03 2906
-438.512 1019.03 2906
-431.563 1019.03 2906
-423.883 1017.28 2901
-416.946 1017.28 2901
-412.27 1022.89 2917
-405.295 1022.89 2917
-398.319 1022.89 2917
-391.344 1022.89 2917
-387.662 1031.65 2942
-380.627 1031.65 2942
-374.227 1033.41 2947
-367.18 1033.41 2947
-360.133 1033.41 2947
-353.085 1033.41 2947
-346.743 1035.51 2953
-339.681 1035.51 2953
-332.62 1035.51 2953
-324.346 1031.65 2942
-317.31 1031.65 2942
-309.748 1029.9 2937
-302.725 1029.9 2937
-295.701 1029.9 2937
-288.678 1029.9 2937
-282.134 1031.65 2942
-276.128 1035.51 2953
-271.891 1046.38 2984
-264.755 1046.38 2984
-259.001 1051.99 3000
-251.827 1051.99 3000
-244.653 1051.99 3000
-237.479 1051.99 3000
-230.305 1051.99 3000
-220.751 1040.77 2968
-214.446 1044.63 2979
-207.322 1044.63 2979
-200.198 1044.63 2979
-193.399 1046.38 2984
-186.263 1046.38 2984
-179.127 1046.38 2984
-171.992 1046.38 2984
-164.856 1046.38 2984
-157.72 1046.38 2984
-105.664 770.76 2198
-100.408 770.76 2198
-95.1517 770.76 2198
-89.8956 770.76 2198
-84.4085 768.656 2192
-79.1667 768.656 2192
-73.925 768.656 2192
-68.4953 766.552 2186
-63.21 765.851 2184
-57.9874 765.851 2184
-52.6923 764.799 2181
-47.4769 764.799 2181
-42.2033 763.747 2178
-36.995 763.747 2178
-31.743 762.695 2175
-26.5419 762.695 2175
-21.3408 762.695 2175
-16.1397 762.695 2175
-10.9236 761.643 2172
-5.72175 760.591 2169
-0.535009 760.591 2169
4.65173 760.591 2169
9.83846 760.591 2169
15.0252 760.591 2169
20.1653 758.838 2164
25.3401 758.838 2164
30.4726 757.786 2161
35.5083 754.98 2153
40.6945 755.682 2155
45.8478 755.682 2155
51.001 755.682 2155
56.1543 755.682 2155
62.0472 764.799 2181
67.3552 765.851 2184
72.5778 765.851 2184
77.8004 765.851 2184
83.023 765.851 2184
88.2456 765.851 2184
93.4682 765.851 2184
98.6908 765.851 2184
103.771 764.799 2181
108.986 764.799 2181
114.202 764.799 2181
119.253 763.747 2178
124.118 761.643 2172
130.026 765.851 2184
135.249 765.851 2184
140.472 765.851 2184
145.694 765.851 2184
150.917 765.851 2184
156.139 765.851 2184
161.362 765.851 2184
166.585 765.851 2184
171.807 765.851 2184
177.03 765.851 2184
182.253 765.851 2184
276.96 993.081 2832
283.733 993.081 2832
290.505 993.081 2832
297.277 993.081 2832
304.049 993.081 2832
310.821 993.081 2832
317.593 993.081 2832
324.366 993.081 2832
331.138 993.081 2832
337.91 993.081 2832
345.291 994.835 2837
353.316 998.341 2847
360.756 1000.09 2852
367.576 1000.09 2852
375.709 1003.6 2862
384.424 1008.51 2876
394.023 1015.52 2896
400.948 1015.52 2896
409.986 1020.78 2911
418.523 1024.64 2922
426.966 1028.15 2932
433.977 1028.15 2932
444.147 1035.51 2953
451.209 1035.51 2953
458.27 1035.51 2953
461.235 1026.39 2927
467.434 1024.64 2922
473.61 1022.89 2917
480.585 1022.89 2917
486.558 1020.78 2911
493.519 1020.78 2911
501.512 1022.89 2917
508.487 1022.89 2917
515.462 1022.89 2917
522.438 1022.89 2917
526.509 1017.28 2901
533.447 1017.28 2901
540.384 1017.28 2901
547.321 1017.28 2901
554.258 1017.28 2901
561.195 1017.28 2901
568.132 1017.28 2901
574.078 1015.52 2896
578.997 1012.02 2886
587.929 1015.52 2896
595.881 1017.28 2901
602.818 1017.28 2901
609.755 1017.28 2901
616.693 1017.28 2901
623.63 1017.28 2901
632.741 1020.78 2911
639.702 1020.78 2911
646.663 1020.78 2911
653.624 1020.78 2911
660.585 1020.78 2911
665.253 1017.28 2901
672.19 1017.28 2901
679.127 1017.28 2901
686.064 1017.28 2901
693.001 1017.28 2901
699.939 1017.28 2901
705.657 1015.52 2896
712.583 1015.52 2896
718.266 1013.77 2891
723.925 1012.02 2886
730.826 1012.02 2886
737.727 1012.02 2886
744.629 1012.02 2886
751.53 1012.02 2886
758.431 1012.02 2886
766.658 1013.77 2891
773.572 1013.77 2891
785.884 1020.78 2911
792.845 1020.78 2911
799.807 1020.78 2911
806.768 1020.78 2911
813.729 1020.78 2911
823.791 1024.64 2922
843.857 1040.77 2968
850.954 1040.77 2968
858.052 1040.77 2968
865.149 1040.77 2968
872.247 1040.77 2968
879.344 1040.77 2968
886.441 1040.77 2968
893.539 1040.77 2968
891.229 1029.9 2937
898.253 1029.9 2937
905.276 1029.9 2937
915.405 1033.41 2947
929.026 1040.77 2968
936.123 1040.77 2968
943.22 1040.77 2968
950.318 1040.77 2968
954.189 1037.27 2958
961.263 1037.27 2958
966.7 1035.51 2953
973.761 1035.51 2953
980.823 1035.51 2953
987.884 1035.51 2953
994.946 1035.51 2953
998.275 1031.65 2942
998.476 1024.64 2922
1005.46 1024.64 2922
1012.45 1024.64 2922
1019.44 1024.64 2922
1026.43 1024.64 2922
1033.41 1024.64 2922
1040.4 1024.64 2922
1047.39 1024.64 2922
1056.18 1026.39 2927
1063.18 1026.39 2927
1070.18 1026.39 2927
1075.34 1024.64 2922
1082.32 1024.64 2922
1085.21 1020.78 2911
1092.17 1020.78 2911
1097.25 1019.03 2906
1104.19 1019.03 2906
1111.14 1019.03 2906
1118.09 1019.03 2906
1125.04 1019.03 2906
1128.1 1015.52 2896
1145.21 1024.64 2922
1152.2 1024.64 2922
1159.19 1024.64 2922
1166.17 1024.64 2922
1173.16 1024.64 2922
1182.17 1026.39 2927
1203.79 1039.02 2963
1210.88 1039.02 2963
1220.02 1040.77 2968
1227.12 1040.77 2968
1234.21 1040.77 2968
1241.31 1040.77 2968
1244.2 1037.27 2958
1244.51 1031.65 2942
1251.54 1031.65 2942
1258.58 1031.65 2942
1265.61 1031.65 2942
1264 1024.64 2922
1270.98 1024.64 2922
1295.9 1039.02 2963
1302.99 1039.02 2963
1331.3 1055.85 3011
1341.16 1057.95 3017
1348.38 1057.95 3017
1355.59 1057.95 3017
1365.07 1059.71 3022
1380.01 1065.67 3039
1387.28 1065.67 3039
1394.55 1065.67 3039
1393.97 1059.71 3022
1396.1 1055.85 3011
1403.3 1055.85 3011
1385.67 1037.27 2958
1400.28 1042.88 2974
1432.94 1061.81 3028
1442.56 1063.56 3033
1449.82 1063.56 3033
1457.07 1063.56 3033
1472.53 1069.53 3050
1496.32 1081.45 3084
1503.69 1081.45 3084
1533.61 1097.58 3130
1541.09 1097.58 3130
1548.58 1097.58 3130
1524.74 1075.49 3067
1512.59 1061.81 3028
1516.82 1059.71 3022
1524.05 1059.71 3022
1531.28 1059.71 3022
1511.01 1040.77 2968
1504.81 1031.65 2942
1511.85 1031.65 2942
1518.88 1031.65 2942
1525.92 1031.65 2942
1495.96 1006.76 2871
1492.88 1000.09 2852
1499.7 1000.09 2852
1506.52 1000.09 2852
1500.6 991.679 2828
1507.36 991.679 2828
1537.15 1006.76 2871
1544.01 1006.76 2871
1550.88 1006.76 2871
1552.86 1003.6 2862
1559.71 1003.6 2862
1566.55 1003.6 2862
1556.9 993.081 2832
1839.45 1054.1 3006
1846.64 1054.1 3006
1853.83 1054.1 3006
-1723.27 967.031 2739
-1716.72 967.031 2739
-1742.01 985.037 2790
-1740.94 988.214 2799
-1740.44 991.745 2809
-1733.72 991.745 2809
-1727.01 991.745 2809
-1722.74 993.157 2813
-1719.06 994.923 2818
-1712.32 994.923 2818
-1714.06 999.865 2832
-1710.3 1001.63 2837
-1706.52 1003.4 2842
-1699.72 1003.4 2842
-1695.9 1005.16 2847
-1692.06 1006.93 2852
-1685.24 1006.93 2852
-1678.42 1006.93 2852
-1671.6 1006.93 2852
-1670.62 1010.46 2862
-1666.1 1011.87 2866
-1659.25 1011.87 2866
-1661.04 1017.17 2881
-1662.77 1022.46 2896
-1661.56 1025.99 2906
-1654.61 1025.99 2906
-1653.9 1029.88 2917
-1649.74 1031.64 2922
-1642.76 1031.64 2922
-1635.77 1031.64 2922
-1637.14 1036.94 2937
-1659.54 1055.65 2990
-1663.99 1063.06 3011
-1656.79 1063.06 3011
-1649.59 1063.06 3011
-1642.39 1063.06 3011
-1635.19 1063.06 3011
-1378.58 1017.17 2881
-1383.59 1025.99 2906
-1376.64 1025.99 2906
-1369.69 1025.99 2906
-1365.09 1027.76 2911
-1365.59 1033.41 2927
-1367.88 1040.47 2947
-1360.83 1040.47 2947
-1353.78 1040.47 2947
-1346.74 1040.47 2947
-1339.69 1040.47 2947
-1332.64 1040.47 2947
-1330.54 1044.35 2958
-1325.71 1046.12 2963
-1330.64 1055.65 2990
-1323.49 1055.65 2990
-1316.34 1055.65 2990
-1309.19 1055.65 2990
-1302.04 1055.65 2990
-1290.12 1051.77 2979
-1271.8 1042.59 2953
-1260.03 1038.7 2942
-1252.99 1038.7 2942
-1241.72 1035.17 2932
-1228.4 1029.88 2917
-1221.42 1029.88 2917
-1214.44 1029.88 2917
-1207.47 1029.88 2917
-1198.02 1027.76 2911
-1186.97 1024.23 2901
-1188.58 1031.64 2922
-1181.59 1031.64 2922
-1180.63 1036.94 2937
-1175.61 1038.7 2942
-1183.27 1051.77 2979
-1176.14 1051.77 2979
-1175.3 1057.41 2995
-1170.09 1059.18 3000
-1162.91 1059.18 3000
-1155.74 1059.18 3000
-1146.65 1057.41 2995
-1143.67 1061.3 3006
-1136.49 1061.3 3006
-1129.3 1061.3 3006
-1123.98 1063.06 3011
-1116.78 1063.06 3011
-1121.74 1074.71 3044
-1114.46 1074.71 3044
-1107.18 1074.71 3044
-1099.9 1074.71 3044
-1092.62 1074.71 3044
-1083.56 1072.95 3039
-1074.17 1070.83 3033
-1053.55 1057.41 2995
-1020.88 1031.64 2922
-1013.89 1031.64 2922
-994.499 1018.93 2886
-985.887 1017.17 2881
-977.298 1015.4 2876
-970.421 1015.4 2876
-961.869 1013.63 2871
-956.666 1015.4 2876
-956.394 1022.46 2896
-949.469 1022.46 2896
-942.543 1022.46 2896
-935.618 1022.46 2896
-925.486 1018.93 2886
-918.585 1018.93 2886
-910.104 1017.17 2881
-898.512 1011.87 2866
-891.659 1011.87 2866
-886.349 1013.63 2871
-879.483 1013.63 2871
-875.657 1017.17 2881
-896.812 1050 2974
-904.06 1066.95 3022
-896.834 1066.95 3022
-892.845 1070.83 3033
-885.592 1070.83 3033
-878.34 1070.83 3033
-869.651 1069.07 3028
-862.41 1069.07 3028
-861.382 1076.83 3050
-854.089 1076.83 3050
-846.795 1076.83 3050
-839.502 1076.83 3050
-829.207 1072.95 3039
-821.94 1072.95 3039
-813.064 1070.83 3033
-804.483 1069.07 3028
-792.766 1063.06 3011
-785.566 1063.06 3011
-772.937 1055.65 2990
-756.311 1042.59 2953
-742.652 1033.41 2927
-735.653 1033.41 2927
-728.654 1033.41 2927
-719.189 1029.88 2917
-712.214 1029.88 2917
-703.787 1027.76 2911
-696.826 1027.76 2911
-687.495 1024.23 2901
-678.212 1020.7 2891
-668.977 1017.17 2881
-662.088 1017.17 2881
-650.877 1010.46 2862
-642.908 1008.69 2857
-633.85 1005.16 2847
-627.042 1005.16 2847
-620.234 1005.16 2847
-612.349 1003.4 2842
-607.683 1006.93 2852
-601.917 1008.69 2857
-595.085 1008.69 2857
-589.282 1010.46 2862
-584.27 1013.63 2871
-580.421 1018.93 2886
-573.52 1018.93 2886
-566.619 1018.93 2886
-559.717 1018.93 2886
-551.858 1017.17 2881
-544.969 1017.17 2881
-537.146 1015.4 2876
-526.765 1008.69 2857
-519.023 1006.93 2852
-513.999 1010.46 2862
-507.155 1010.46 2862
-501.885 1013.63 2871
-495.019 1013.63 2871
-489.854 1017.17 2881
-482.965 1017.17 2881
-476.902 1018.93 2886
-472.443 1024.23 2901
-467.111 1027.76 2911
-460.15 1027.76 2911
-453.188 1027.76 2911
-445.461 1025.99 2906
-438.512 1025.99 2906
-431.563 1025.99 2906
-423.883 1024.23 2901
-416.946 1024.23 2901
-412.27 1029.88 2917
-405.295 1029.88 2917
-398.319 1029.88 2917
-391.344 1029.88 2917
-387.004 1036.94 2937
-379.98 1036.94 2937
-374.227 1040.47 2947
-367.18 1040.47 2947
-360.133 1040.47 2947
-353.085 1040.47 2947
-346.038 1040.47 2947
-338.991 1040.47 2947
-331.944 1040.47 2947
-323.243 1035.17 2932
-316.771 1036.94 2937
-309.748 1036.94 2937
-302.725 1036.94 2937
-295.701 1036.94 2937
-288.187 1035.17 2932
-282.134 1038.7 2942
-276.128 1042.59 2953
-271.891 1053.53 2984
-264.755 1053.53 2984
-259.001 1059.18 3000
-251.827 1059.18 3000
-244.653 1059.18 3000
-237.479 1059.18 3000
-230.305 1059.18 3000
-220.751 1047.88 2968
-213.654 1047.88 2968
-204.747 1038.7 2942
-197.712 1038.7 2942
-190.676 1038.7 2942
-184.64 1044.35 2958
-177.566 1044.35 2958
-170.493 1044.35 2958
-163.42 1044.35 2958
-156.346 1044.35 2958
-100.408 776.026 2198
-95.1517 776.026 2198
-89.8956 776.026 2198
-84.4085 773.907 2192
-79.1667 773.907 2192
-73.925 773.907 2192
-68.3386 770.023 2181
-63.1232 770.023 2181
-57.9077 770.023 2181
-52.6923 770.023 2181
-47.4769 770.023 2181
-42.2033 768.964 2178
-36.995 768.964 2178
-31.743 767.905 2175
-26.5419 767.905 2175
-21.3408 767.905 2175
-16.1397 767.905 2175
-10.9236 766.846 2172
-5.71647 765.081 2167
-0.535749 766.846 2172
4.65816 766.846 2172
9.85207 766.846 2172
15.046 766.846 2172
20.1374 762.962 2161
25.2699 761.903 2158
30.4303 761.903 2158
35.5083 760.138 2153
40.6945 760.844 2155
45.8478 760.844 2155
51.001 760.844 2155
56.1543 760.844 2155
62.0472 770.023 2181
67.2626 770.023 2181
72.4781 770.023 2181
77.6935 770.023 2181
82.9089 770.023 2181
88.2456 771.083 2184
93.4682 771.083 2184
98.6908 771.083 2184
103.771 770.023 2181
108.986 770.023 2181
114.202 770.023 2181
119.253 768.964 2178
124.118 766.846 2172
130.026 771.083 2184
135.249 771.083 2184
140.472 771.083 2184
145.694 771.083 2184
150.917 771.083 2184
156.139 771.083 2184
161.362 771.083 2184
166.585 771.083 2184
171.807 771.083 2184
177.03 771.083 2184
182.002 770.023 2181
186.188 765.787 2169
270.188 999.865 2832
277.449 1001.63 2837
284.234 1001.63 2837
291.018 1001.63 2837
297.802 1001.63 2837
304.586 1001.63 2837
311.37 1001.63 2837
318.154 1001.63 2837
324.366 999.865 2832
331.138 999.865 2832
337.91 999.865 2832
344.682 999.865 2832
352.075 1001.63 2837
360.124 1005.16 2847
366.932 1005.16 2847
374.396 1006.93 2852
382.553 1010.46 2862
391.302 1015.4 2876
398.179 1015.4 2876
407.169 1020.7 2891
414.082 1020.7 2891
423.18 1025.99 2906
430.129 1025.99 2906
437.078 1025.99 2906
444.027 1025.99 2906
450.976 1025.99 2906
455.562 1020.7 2891
462.475 1020.7 2891
469.388 1020.7 2891
475.478 1018.93 2886
482.379 1018.93 2886
489.28 1018.93 2886
497.901 1022.46 2896
504.826 1022.46 2896
511.751 1022.46 2896
518.677 1022.46 2896
524.694 1020.7 2891
530.688 1018.93 2886
538.521 1020.7 2891
545.434 1020.7 2891
552.347 1020.7 2891
559.261 1020.7 2891
566.174 1020.7 2891
572.096 1018.93 2886
576.991 1015.4 2876
585.899 1018.93 2886
593.827 1020.7 2891
600.74 1020.7 2891
607.654 1020.7 2891
614.567 1020.7 2891
621.48 1020.7 2891
629.48 1022.46 2896
636.405 1022.46 2896
643.331 1022.46 2896
649.133 1020.7 2891
656.046 1020.7 2891
660.666 1017.17 2881
668.714 1018.93 2886
676.786 1020.7 2891
683.699 1020.7 2891
690.613 1020.7 2891
697.526 1020.7 2891
703.221 1018.93 2886
710.122 1018.93 2886
714.539 1015.4 2876
721.416 1015.4 2876
730.826 1018.93 2886
737.727 1018.93 2886
744.629 1018.93 2886
751.53 1018.93 2886
758.431 1018.93 2886
770.636 1025.99 2906
777.585 1025.99 2906
787.504 1029.88 2917
794.48 1029.88 2917
801.455 1029.88 2917
808.43 1029.88 2917
815.406 1029.88 2917
822.381 1029.88 2917
829.357 1029.88 2917
836.332 1029.88 2917
841.573 1027.76 2911
863.692 1046.12 2963
870.777 1046.12 2963
877.863 1046.12 2963
881.961 1042.59 2953
889.023 1042.59 2953
885.16 1029.88 2917
892.136 1029.88 2917
897.262 1027.76 2911
904.223 1027.76 2911
916.192 1033.41 2927
924.768 1035.17 2932
931.78 1035.17 2932
938.791 1035.17 2932
945.802 1035.17 2932
952.814 1035.17 2932
956.551 1031.64 2922
963.539 1031.64 2922
966.873 1027.76 2911
973.834 1027.76 2911
980.795 1027.76 2911
987.756 1027.76 2911
994.717 1027.76 2911
1001.68 1027.76 2911
1008.64 1027.76 2911
1015.6 1027.76 2911
1022.56 1027.76 2911
1029.52 1027.76 2911
1036.48 1027.76 2911
1043.44 1027.76 2911
1054.37 1031.64 2922
1061.36 1031.64 2922
1068.35 1031.64 2922
1073.5 1029.88 2917
1080.47 1029.88 2917
1085.21 1027.76 2911
1092.17 1027.76 2911
1095.36 1024.23 2901
1102.29 1024.23 2901
1105.41 1020.7 2891
1112.32 1020.7 2891
1119.23 1020.7 2891
1126.15 1020.7 2891
1138.94 1025.99 2906
1152.2 1031.64 2922
1159.19 1031.64 2922
1166.17 1031.64 2922
1173.16 1031.64 2922
1178.13 1029.88 2917
1185.1 1029.88 2917
1192.08 1029.88 2917
1203.17 1033.41 2927
1210.16 1033.41 2927
1217.16 1033.41 2927
1222.07 1031.64 2922
1229.06 1031.64 2922
1236.05 1031.64 2922
1243.03 1031.64 2922
1250.02 1031.64 2922
1257.01 1031.64 2922
1264 1031.64 2922
1270.98 1031.64 2922
1295.9 1046.12 2963
1302.99 1046.12 2963
1322.01 1055.65 2990
1331.38 1057.41 2995
1338.55 1057.41 2995
1345.71 1057.41 2995
1350.61 1055.65 2990
1372.29 1066.95 3022
1379.52 1066.95 3022
1386.75 1066.95 3022
1391.67 1065.18 3017
1378.94 1050 2974
1386.05 1050 2974
1385.67 1044.35 2958
1392.74 1044.35 2958
1430.11 1066.95 3022
1440.19 1069.07 3028
1447.43 1069.07 3028
1457.07 1070.83 3033
1467.22 1072.95 3039
1479.82 1076.83 3050
1487.12 1076.83 3050
1502.74 1082.83 3067
1510.07 1082.83 3067
1517.41 1082.83 3067
1513.31 1074.71 3044
1512.59 1069.07 3028
1516.82 1066.95 3022
1507.91 1055.65 2990
1515.06 1055.65 2990
1497.77 1038.7 2942
1492.02 1029.88 2917
1499 1029.88 2917
1505.97 1029.88 2917
1507.24 1025.99 2906
1495.96 1013.63 2871
1492.88 1006.93 2852
1499.7 1006.93 2852
1506.52 1006.93 2852
1500.6 998.453 2828
1507.36 998.453 2828
1524.3 1005.16 2847
1531.11 1005.16 2847
1537.91 1005.16 2847
1544.72 1005.16 2847
1548.81 1003.4 2842
1555.6 1003.4 2842
1556.9 999.865 2832
1839.45 1061.3 3006
1846.64 1061.3 3006
1853.83 1061.3 3006
-1723.27 973.592 2739
-1716.72 973.592 2739
-1724.53 981.768 2762
-1735.34 991.72 2790
-1734.24 994.919 2799
-1727.55 994.919 2799
-1720.86 994.919 2799
-1714.16 994.919 2799
-1707.47 994.919 2799
-1700.78 994.919 2799
-1705.58 1001.67 2818
-1701.86 1003.45 2823
-1698.11 1005.23 2828
-1691.35 1005.23 2828
-1684.59 1005.23 2828
-1686.13 1010.2 2842
-1682.29 1011.98 2847
-1675.48 1011.98 2847
-1671.6 1013.76 2852
-1664.78 1013.76 2852
-1657.96 1013.76 2852
-1651.14 1013.76 2852
-1652.39 1018.73 2866
-1654.15 1024.07 2881
-1655.84 1029.4 2896
-1648.92 1029.4 2896
-1647.66 1032.95 2906
-1640.71 1032.95 2906
-1636.57 1034.73 2911
-1629.61 1034.73 2911
-1622.65 1034.73 2911
-1615.69 1034.73 2911
-1608.73 1034.73 2911
-1601.77 1034.73 2911
-1594.81 1034.73 2911
-1582.39 1031.18 2901
-1575.45 1031.18 2901
-1378.58 1024.07 2881
-1383.59 1032.95 2906
-1376.64 1032.95 2906
-1369.69 1032.95 2906
-1365.09 1034.73 2911
-1365.59 1040.42 2927
-1367.88 1047.53 2947
-1360.83 1047.53 2947
-1353.78 1047.53 2947
-1346.74 1047.53 2947
-1339.69 1047.53 2947
-1332.64 1047.53 2947
-1330.54 1051.44 2958
-1325.71 1053.21 2963
-1330.64 1062.81 2990
-1323.49 1062.81 2990
-1316.34 1062.81 2990
-1309.19 1062.81 2990
-1302.04 1062.81 2990
-1290.12 1058.9 2979
-1271.8 1049.66 2953
-1260.03 1045.75 2942
-1252.99 1045.75 2942
-1241.72 1042.2 2932
-1228.4 1036.86 2917
-1221.42 1036.86 2917
-1214.44 1036.86 2917
-1207.47 1036.86 2917
-1198.02 1034.73 2911
-1184.93 1029.4 2896
-1184.1 1034.73 2911
-1177.14 1034.73 2911
-1174.6 1038.64 2922
-1173.61 1043.97 2937
-1183.27 1058.9 2979
-1176.14 1058.9 2979
-1173.34 1062.81 2990
-1168.14 1064.59 2995
-1160.98 1064.59 2995
-1153.81 1064.59 2995
-1146.65 1064.59 2995
-1141.39 1066.37 3000
-1134.22 1066.37 3000
-1127.04 1066.37 3000
-1112.03 1058.9 2979
-1100.83 1054.99 2968
-1101.84 1062.81 2990
-1094.69 1062.81 2990
-1105.36 1080.23 3039
-1098.09 1080.23 3039
-1090.83 1080.23 3039
-1077.5 1074.19 3022
-1064.6 1068.5 3006
-1036.66 1047.53 2947
-1011.8 1029.4 2896
-1004.87 1029.4 2896
-994.499 1025.84 2886
-984.176 1022.29 2876
-977.298 1022.29 2876
-970.421 1022.29 2876
-958.853 1017.31 2862
-956.666 1022.29 2876
-953.091 1025.84 2886
-949.469 1029.4 2896
-942.543 1029.4 2896
-935.618 1029.4 2896
-925.486 1025.84 2886
-918.585 1025.84 2886
-891.659 1018.73 2866
-886.349 1020.51 2871
-879.483 1020.51 2871
-875.657 1024.07 2881
-896.812 1057.12 2974
-904.06 1074.19 3022
-896.834 1074.19 3022
-892.845 1078.1 3033
-885.592 1078.1 3033
-878.34 1078.1 3033
-867.928 1074.19 3022
-860.701 1074.19 3022
-861.382 1084.14 3050
-854.089 1084.14 3050
-846.795 1084.14 3050
-839.502 1084.14 3050
-829.207 1080.23 3039
-821.94 1080.23 3039
-813.064 1078.1 3033
-804.483 1076.32 3028
-792.766 1070.28 3011
-785.566 1070.28 3011
-772.937 1062.81 2990
-753.494 1045.75 2942
-742.652 1040.42 2927
-733.14 1036.86 2917
-726.164 1036.86 2917
-719.189 1036.86 2917
-710.749 1034.73 2911
-703.787 1034.73 2911
-696.826 1034.73 2911
-687.495 1031.18 2901
-678.212 1027.62 2891
-668.977 1024.07 2881
-662.088 1024.07 2881
-650.877 1017.31 2862
-642.908 1015.54 2857
-633.85 1011.98 2847
-627.042 1011.98 2847
-619.145 1010.2 2842
-612.349 1010.2 2842
-606.618 1011.98 2847
-600.863 1013.76 2852
-594.043 1013.76 2852
-588.253 1015.54 2857
-583.252 1018.73 2866
-577.404 1020.51 2871
-572.526 1024.07 2881
-565.637 1024.07 2881
-558.747 1024.07 2881
-550.9 1022.29 2876
-544.023 1022.29 2876
-533.597 1015.54 2857
-522.156 1006.65 2832
-515.383 1006.65 2832
-513.101 1015.54 2857
-506.269 1015.54 2857
-500.311 1017.31 2862
-493.467 1017.31 2862
-488.154 1020.51 2871
-481.288 1020.51 2871
-476.075 1024.07 2881
-470.815 1027.62 2891
-464.704 1029.4 2896
-457.778 1029.4 2896
-451.632 1031.18 2901
-444.694 1031.18 2901
-437.757 1031.18 2901
-430.82 1031.18 2901
-423.152 1029.4 2896
-416.946 1031.18 2901
-412.27 1036.86 2917
-405.295 1036.86 2917
-398.319 1036.86 2917
-391.344 1036.86 2917
-387.004 1043.97 2937
-379.98 1043.97 2937
-374.227 1047.53 2947
-367.18 1047.53 2947
-360.133 1047.53 2947
-353.085 1047.53 2947
-346.038 1047.53 2947
-338.991 1047.53 2947
-331.944 1047.53 2947
-323.243 1042.2 2932
-316.771 1043.97 2937
-309.748 1043.97 2937
-302.725 1043.97 2937
-295.701 1043.97 2937
-288.187 1042.2 2932
-282.134 1045.75 2942
-276.128 1049.66 2953
-271.891 1060.68 2984
-264.755 1060.68 2984
-259.001 1066.37 3000
-251.827 1066.37 3000
-244.653 1066.37 3000
-237.479 1066.37 3000
-230.305 1066.37 3000
-220.751 1054.99 2968
-213.654 1054.99 2968
-204.747 1045.75 2942
-197.712 1045.75 2942
-190.676 1045.75 2942
-184.64 1051.44 2958
-177.566 1051.44 2958
-170.493 1051.44 2958
-163.42 1051.44 2958
-156.346 1051.44 2958
-100.408 781.291 2198
-95.1517 781.291 2198
-89.8956 781.291 2198
-84.4085 779.158 2192
-79.1667 779.158 2192
-73.925 779.158 2192
-68.3386 775.248 2181
-63.1232 775.248 2181
-57.9077 775.248 2181
-52.6923 775.248 2181
-47.4769 775.248 2181
-42.2033 774.182 2178
-36.995 774.182 2178
-31.743 773.115 2175
-26.5419 773.115 2175
-21.3408 773.115 2175
-16.1397 773.115 2175
-10.9236 772.049 2172
-5.71647 770.272 2167
-0.535749 772.049 2172
4.65816 772.049 2172
9.85207 772.049 2172
15.046 772.049 2172
20.1374 768.139 2161
25.2699 767.073 2158
30.4303 767.073 2158
35.5083 765.295 2153
40.6945 766.006 2155
45.8478 766.006 2155
51.001 766.006 2155
56.1543 766.006 2155
62.0472 775.248 2181
67.2626 775.248 2181
72.4781 775.248 2181
77.6935 775.248 2181
82.9089 775.248 2181
88.2456 776.314 2184
93.4682 776.314 2184
98.6908 776.314 2184
103.771 775.248 2181
108.986 775.248 2181
114.202 775.248 2181
119.253 774.182 2178
124.118 772.049 2172
130.026 776.314 2184
135.249 776.314 2184
140.472 776.314 2184
145.694 776.314 2184
150.917 776.314 2184
156.282 777.025 2186
161.51 777.025 2186
166.737 777.025 2186
171.807 776.314 2184
177.03 776.314 2184
182.002 775.248 2181
186.188 770.983 2169
270.188 1006.65 2832
277.449 1008.43 2837
284.234 1008.43 2837
291.018 1008.43 2837
297.802 1008.43 2837
304.586 1008.43 2837
311.37 1008.43 2837
318.154 1008.43 2837
324.366 1006.65 2832
331.138 1006.65 2832
337.91 1006.65 2832
344.682 1006.65 2832
352.075 1008.43 2837
360.124 1011.98 2847
366.932 1011.98 2847
374.396 1013.76 2852
382.553 1017.31 2862
391.302 1022.29 2876
398.179 1022.29 2876
407.169 1027.62 2891
414.082 1027.62 2891
423.18 1032.95 2906
430.129 1032.95 2906
437.078 1032.95 2906
444.027 1032.95 2906
450.976 1032.95 2906
455.562 1027.62 2891
462.475 1027.62 2891
469.388 1027.62 2891
475.478 1025.84 2886
482.379 1025.84 2886
489.28 1025.84 2886
497.901 1029.4 2896
504.826 1029.4 2896
511.751 1029.4 2896
518.677 1029.4 2896
524.694 1027.62 2891
528.849 1022.29 2876
536.658 1024.07 2881
543.548 1024.07 2881
550.437 1024.07 2881
557.326 1024.07 2881
564.216 1024.07 2881
569.123 1020.51 2871
574.985 1018.73 2866
583.869 1022.29 2876
590.746 1022.29 2876
597.623 1022.29 2876
604.501 1022.29 2876
611.378 1022.29 2876
618.255 1022.29 2876
626.22 1024.07 2881
633.109 1024.07 2881
639.998 1024.07 2881
645.765 1022.29 2876
652.642 1022.29 2876
658.373 1020.51 2871
668.714 1025.84 2886
676.786 1027.62 2891
683.699 1027.62 2891
690.613 1027.62 2891
697.526 1027.62 2891
702.003 1024.07 2881
708.892 1024.07 2881
714.539 1022.29 2876
721.416 1022.29 2876
730.826 1025.84 2886
737.727 1025.84 2886
744.629 1025.84 2886
751.53 1025.84 2886
758.431 1025.84 2886
770.636 1032.95 2906
777.585 1032.95 2906
787.504 1036.86 2917
794.48 1036.86 2917
801.455 1036.86 2917
808.43 1036.86 2917
815.406 1036.86 2917
820.69 1034.73 2911
827.651 1034.73 2911
834.612 1034.73 2911
867.838 1049.66 2953
874.9 1049.66 2953
881.961 1049.66 2953
889.023 1049.66 2953
881.822 1032.95 2906
888.771 1032.95 2906
888.015 1024.07 2881
891.798 1020.51 2871
894.281 1015.54 2857
901.113 1015.54 2857
907.945 1015.54 2857
916.378 1017.31 2862
923.222 1017.31 2862
931.366 1018.73 2866
938.219 1018.73 2866
945.073 1018.73 2866
947.276 1013.76 2852
954.096 1013.76 2852
960.916 1013.76 2852
967.736 1013.76 2852
979.34 1018.73 2866
991.355 1024.07 2881
998.244 1024.07 2881
1005.13 1024.07 2881
1015.54 1027.62 2891
1025.99 1031.18 2901
1034.7 1032.95 2906
1041.65 1032.95 2906
1050.41 1034.73 2911
1057.37 1034.73 2911
1064.33 1034.73 2911
1071.29 1034.73 2911
1078.25 1034.73 2911
1085.21 1034.73 2911
1092.17 1034.73 2911
1093.47 1029.4 2896
1100.39 1029.4 2896
1105.41 1027.62 2891
1112.32 1027.62 2891
1119.23 1027.62 2891
1126.15 1027.62 2891
1138.94 1032.95 2906
1150.23 1036.86 2917
1157.2 1036.86 2917
1164.18 1036.86 2917
1171.15 1036.86 2917
1178.13 1036.86 2917
1185.1 1036.86 2917
1187.58 1032.95 2906
1199.05 1036.86 2917
1206.03 1036.86 2917
1213.01 1036.86 2917
1217.47 1034.73 2911
1224.43 1034.73 2911
1231.39 1034.73 2911
1245.16 1040.42 2927
1252.16 1040.42 2927
1259.16 1040.42 2927
1266.16 1040.42 2927
1277.51 1043.97 2937
1295.9 1053.21 2963
1302.99 1053.21 2963
1317.15 1058.9 2979
1324.27 1058.9 2979
1331.4 1058.9 2979
1336.27 1057.12 2974
1343.38 1057.12 2974
1355.04 1060.68 2984
1362.17 1060.68 2984
1369.31 1060.68 2984
1369.06 1054.99 2968
1371.52 1051.44 2958
1378.6 1051.44 2958
1380.52 1047.53 2947
1392.74 1051.44 2958
1399.82 1051.44 2958
1426.87 1066.37 3000
1434.04 1066.37 3000
1444.1 1068.5 3006
1456.6 1072.41 3017
1476.91 1082.01 3044
1484.19 1082.01 3044
1491.47 1082.01 3044
1496.29 1080.23 3039
1503.55 1080.23 3039
1510.82 1080.23 3039
1509.6 1074.19 3022
1500.76 1062.81 2990
1483.7 1045.75 2942
1490.74 1045.75 2942
1481.99 1034.73 2911
1468.49 1020.51 2871
1475.36 1020.51 2871
1482.22 1020.51 2871
1489.09 1020.51 2871
1495.96 1020.51 2871
1492.88 1013.76 2852
1499.7 1013.76 2852
1506.52 1013.76 2852
1502.72 1006.65 2832
1507.36 1005.23 2828
1518.94 1008.43 2837
1525.73 1008.43 2837
1532.51 1008.43 2837
1539.3 1008.43 2837
1543.36 1006.65 2832
1550.13 1006.65 2832
1556.9 1006.65 2832
1558.7 1003.45 2823
1565.45 1003.45 2823
1572.2 1003.45 2823
1736.56 1032.95 2906
1743.51 1032.95 2906
1787.81 1054.99 2968
1794.91 1054.99 2968
1802 1054.99 2968
1809.1 1054.99 2968
1839.45 1068.5 3006
1846.64 1068.5 3006
1870.48 1078.1 3033
1877.73 1078.1 3033
1884.99 1078.1 3033
-1723.27 980.153 2739
-1716.72 980.153 2739
-1718.91 985.163 2753
-1729.12 994.825 2780
-1722.47 994.825 2780
-1715.82 994.825 2780
-1709.18 994.825 2780
-1702.53 994.825 2780
-1695.88 994.825 2780
-1689.23 994.825 2780
-1691.06 999.835 2794
-1687.39 1001.62 2799
-1689.1 1006.63 2813
-1682.38 1006.63 2813
-1678.63 1008.42 2818
-1674.86 1010.21 2823
-1673.42 1013.43 2832
-1666.65 1013.43 2832
-1659.88 1013.43 2832
-1656.03 1015.22 2837
-1649.24 1015.22 2837
-1642.46 1015.22 2837
-1650.09 1024.17 2862
-1645.54 1025.6 2866
-1641.55 1027.39 2871
-1634.68 1027.39 2871
-1627.82 1027.39 2871
-1620.95 1027.39 2871
-1619.71 1030.97 2881
-1612.82 1030.97 2881
-1608.71 1032.76 2886
-1601.81 1032.76 2886
-1594.91 1032.76 2886
-1588.01 1032.76 2886
-1581.11 1032.76 2886
-1574.21 1032.76 2886
-1567.31 1032.76 2886
-1341.61 993.394 2776
-1334.97 993.394 2776
-1378.58 1030.97 2881
-1383.59 1039.91 2906
-1376.64 1039.91 2906
-1369.69 1039.91 2906
-1365.09 1041.7 2911
-1365.59 1047.43 2927
-1367.88 1054.59 2947
-1360.83 1054.59 2947
-1353.78 1054.59 2947
-1346.74 1054.59 2947
-1339.69 1054.59 2947
-1332.64 1054.59 2947
-1330.54 1058.52 2958
-1325.71 1060.31 2963
-1318.62 1060.31 2963
-1311.54 1060.31 2963
-1316.34 1069.97 2990
-1309.19 1069.97 2990
-1302.04 1069.97 2990
-1290.12 1066.04 2979
-1271.8 1056.73 2953
-1260.03 1052.8 2942
-1252.99 1052.8 2942
-1241.72 1049.22 2932
-1221.66 1038.13 2901
-1214.72 1038.13 2901
-1207.78 1038.13 2901
-1200.85 1038.13 2901
-1191.85 1036.34 2896
-1178.79 1030.97 2881
-1178 1036.34 2896
-1171.08 1036.34 2896
-1166.16 1038.13 2901
-1173.61 1051.01 2937
-1170.56 1054.59 2947
-1163.51 1054.59 2947
-1160.78 1058.52 2958
-1153.71 1058.52 2958
-1146.63 1058.52 2958
-1139.56 1058.52 2958
-1132.49 1058.52 2958
-1125.41 1058.52 2958
-1118.34 1058.52 2958
-1111.27 1058.52 2958
-1098.22 1052.8 2942
-1098.97 1060.31 2963
-1093.73 1062.1 2968
-1094.69 1069.97 2990
-1087.54 1069.97 2990
-1080.39 1069.97 2990
-1004.81 1029.18 2876
-997.931 1029.18 2876
-991.053 1029.18 2876
-977.674 1022.38 2857
-970.842 1022.38 2857
-964.01 1022.38 2857
-952.153 1017.01 2842
-950.346 1022.38 2857
-949.789 1029.18 2876
-942.911 1029.18 2876
-936.034 1029.18 2876
-929.157 1029.18 2876
-922.279 1029.18 2876
-915.402 1029.18 2876
-885.747 1018.8 2847
-886.349 1027.39 2871
-879.483 1027.39 2871
-874.138 1029.18 2876
-891.987 1058.52 2958
-899.274 1075.7 3006
-892.085 1075.7 3006
-891.373 1083.57 3028
-884.133 1083.57 3028
-876.892 1083.57 3028
-861.609 1073.55 3000
-854.435 1073.55 3000
-853.475 1081.43 3022
-851.008 1087.51 3039
-843.741 1087.51 3039
-836.474 1087.51 3039
-827.57 1085.36 3033
-820.317 1085.36 3033
-813.064 1085.36 3033
-798.638 1075.7 3006
-787.237 1069.97 2990
-768.868 1054.59 2947
-761.821 1054.59 2947
-749.652 1047.43 2927
-737.324 1039.91 2906
-730.375 1039.91 2906
-723.426 1039.91 2906
-716.477 1039.91 2906
-707.086 1036.34 2896
-700.161 1036.34 2896
-693.236 1036.34 2896
-685.126 1034.55 2891
-677.039 1032.76 2886
-667.816 1029.18 2876
-660.939 1029.18 2876
-649.74 1022.38 2857
-641.783 1020.59 2852
-632.737 1017.01 2842
-625.941 1017.01 2842
-619.145 1017.01 2842
-612.349 1017.01 2842
-605.552 1017.01 2842
-599.81 1018.8 2847
-593.002 1018.8 2847
-586.194 1018.8 2847
-580.403 1020.59 2852
-573.583 1020.59 2852
-566.763 1020.59 2852
-557.98 1017.01 2842
-544.784 1005.2 2809
-538.067 1005.2 2809
-531.349 1005.2 2809
-522.764 1001.62 2799
-516.071 1001.62 2799
-511.926 1006.63 2813
-506.097 1008.42 2818
-499.358 1008.42 2818
-493.494 1010.21 2823
-486.743 1010.21 2823
-479.992 1010.21 2823
-473.242 1010.21 2823
-466.491 1010.21 2823
-459.74 1010.21 2823
-452.99 1010.21 2823
-446.239 1010.21 2823
-444.782 1022.38 2857
-439.329 1025.6 2866
-432.476 1025.6 2866
-425.622 1025.6 2866
-420.961 1030.97 2881
-415.509 1034.55 2891
-411.422 1041.7 2911
-404.461 1041.7 2911
-397.5 1041.7 2911
-391.344 1043.85 2917
-385.027 1045.64 2922
-378.04 1045.64 2922
-372.322 1049.22 2932
-365.311 1049.22 2932
-358.3 1049.22 2932
-351.288 1049.22 2932
-344.277 1049.22 2932
-337.266 1049.22 2932
-330.254 1049.22 2932
-322.141 1045.64 2922
-315.153 1045.64 2922
-308.166 1045.64 2922
-301.178 1045.64 2922
-294.191 1045.64 2922
-286.712 1043.85 2917
-280.216 1045.64 2922
-274.631 1051.01 2937
-270.433 1062.1 2968
-263.335 1062.1 2968
-256.238 1062.1 2968
-250.064 1066.04 2979
-242.94 1066.04 2979
-235.817 1066.04 2979
-227.081 1058.52 2958
-218.817 1052.8 2942
-211.782 1052.8 2942
-204.051 1049.22 2932
-197.04 1049.22 2932
-189.704 1047.43 2927
-182.705 1047.43 2927
-175.706 1047.43 2927
-168.706 1047.43 2927
-160.823 1041.7 2911
-153.862 1041.7 2911
-83.8694 779.399 2178
-78.6611 779.399 2178
-73.4528 779.399 2178
-68.3386 780.473 2181
-63.1232 780.473 2181
-57.9077 780.473 2181
-52.6923 780.473 2181
-47.4769 780.473 2181
-42.1452 778.326 2175
-36.9441 778.326 2175
-31.743 778.326 2175
