2033.46 272.029 2744
2040.02 272.029 2744
2042.86 271.533 2739
2042.67 270.641 2730
2049.2 270.641 2730
2045.94 269.352 2717
2026 265.882 2682
2032.41 265.882 2682
2038.82 265.882 2682
2045.24 265.882 2682
2041.71 264.594 2669
-2106.16 285.608 2813
-2106.9 286.623 2823
-2103.87 287.131 2828
-2097.11 287.131 2828
-2100.69 288.552 2842
-2104.95 290.075 2857
-2098.11 290.075 2857
-2091.28 290.075 2857
-2084.45 290.075 2857
-2070.35 289.06 2847
-2067.16 289.568 2852
-2060.34 289.568 2852
-2053.52 289.568 2852
-2046.7 289.568 2852
-2039.88 289.568 2852
-2033.06 289.568 2852
-2029.79 290.075 2857
-2022.96 290.075 2857
-2016.13 290.075 2857
-2009.3 290.075 2857
-1998.96 289.568 2852
-1999.13 290.583 2862
-1995.07 290.989 2866
-1988.21 290.989 2866
-1981.36 290.989 2866
-1981.4 292.004 2876
-1974.52 292.004 2876
-1967.64 292.004 2876
-1960.76 292.004 2876
-1947.09 290.989 2866
-1960.55 294.035 2896
-1953.62 294.035 2896
-1953.42 295.05 2906
-1946.47 295.05 2906
-1946.86 296.167 2917
-1939.89 296.167 2917
-1942.85 297.69 2932
-1980.74 304.594 3000
-1991.98 307.437 3028
-1984.74 307.437 3028
-1987.95 309.062 3044
-1995.64 311.397 3067
-1988.3 311.397 3067
-1988.08 312.514 3078
-1980.72 312.514 3078
-1973.35 312.514 3078
-1951.3 310.178 3055
-1940.82 309.671 3050
-1947.47 311.904 3072
-1969.18 316.575 3118
-1961.72 316.575 3118
-1980.59 320.839 3160
-1973.03 320.839 3160
-1965.47 320.839 3160
-2098.99 352.111 3468
-2090.7 352.111 3468
-2082.41 352.111 3468
-2074.12 352.111 3468
-2065.82 352.111 3468
-2057.53 352.111 3468
-2045.1 351.4 3461
-2045.65 352.923 3476
-2041.44 353.634 3483
-2037.2 354.345 3490
-2028.85 354.345 3490
-2020.51 354.345 3490
-2016.2 355.055 3497
-2016.45 356.578 3512
-2008.05 356.578 3512
-1999.65 356.578 3512
-1991.25 356.578 3512
-1987.37 357.391 3520
-1978.95 357.391 3520
-1970.54 357.391 3520
-1969.92 358.812 3534
-1961.47 358.812 3534
-1953.02 358.812 3534
-1948.97 359.624 3542
-1944.34 360.335 3549
-1940.21 361.147 3557
-1931.71 361.147 3557
-1923.2 361.147 3557
-1914.7 361.147 3557
-1914.23 362.67 3572
-1905.69 362.67 3572
-1905.64 364.295 3588
-1900.77 365.005 3595
-1892.17 365.005 3595
-1883.57 365.005 3595
-1883.32 366.63 3611
-1878.84 367.442 3619
-1882.07 369.777 3642
-1873.36 369.777 3642
-1877.45 372.316 3667
-1872.76 373.128 3675
-1868.03 373.94 3683
-1859.22 373.94 3683
-1858.45 375.565 3699
-1858.11 377.291 3716
-1853.2 378.103 3724
-1844.3 378.103 3724
-1851.66 381.453 3757
-1885.34 390.287 3844
-1906.9 396.683 3907
-1897.56 396.683 3907
-1888.21 396.683 3907
-1883.2 397.597 3916
-1887.23 400.44 3944
-1877.8 400.44 3944
-1881.63 403.283 3972
-1872.14 403.283 3972
-1862.64 403.283 3972
-1853.14 403.283 3972
-1843.64 403.283 3972
-1829.99 402.369 3963
-1820.51 402.369 3963
-1806.46 401.354 3953
-1822.92 407.141 4010
-1840.01 413.131 4069
-1830.28 413.131 4069
-1820.55 413.131 4069
-1797.47 410.085 4039
-1774.98 407.141 4010
-1765.39 407.141 4010
-1730.84 401.354 3953
-1654.76 385.819 3800
-1595.01 373.94 3683
-1551.74 365.818 3603
-1543.13 365.818 3603
-1518.33 361.959 3565
-1503.03 360.335 3549
-1478.96 356.578 3512
-1470.56 356.578 3512
-1435.1 349.979 3447
-1418.17 347.847 3426
-1398.45 345.004 3398
-1390.32 345.004 3398
-1373.66 342.872 3377
-1365.58 342.872 3377
-1357.51 342.872 3377
-1341.44 340.841 3357
-1333.41 340.841 3357
-1322.62 340.13 3350
-1301.66 336.78 3317
-1273.44 331.5 3265
-1265.64 331.5 3265
-1245.5 328.251 3233
-1223.61 324.494 3196
-1204.55 321.448 3166
-1196.98 321.448 3166
-1175.88 317.793 3130
-1166.16 317.184 3124
-1152.38 315.458 3107
-1144.95 315.458 3107
-1114.46 309.062 3044
-1101.36 307.437 3028
-1094.12 307.437 3028
-1088.67 307.945 3033
-1085.34 309.062 3044
-1078.06 309.062 3044
-1078.87 311.397 3067
-1071.54 311.397 3067
-1064.2 311.397 3067
-1056.87 311.397 3067
-1045.43 310.178 3055
-1036.43 309.671 3050
-1029.13 309.671 3050
-1019.83 309.062 3044
-1008.89 307.945 3033
-999.986 307.437 3028
-992.745 307.437 3028
-978.344 305.203 3006
-969.218 304.594 3000
-962.044 304.594 3000
-954.87 304.594 3000
-917.921 309.062 3044
-910.642 309.062 3044
-903.363 309.062 3044
-894.612 308.554 3039
-882.381 306.828 3022
-875.154 306.828 3022
-866.492 306.32 3017
-854.435 304.594 3000
-839.918 301.954 2974
-832.807 301.954 2974
-819.865 299.822 2953
-807.023 297.69 2932
-798.647 297.182 2927
-791.648 297.182 2927
-784.648 297.182 2927
-777.649 297.182 2927
-771.966 297.69 2932
-764.955 297.69 2932
-757.944 297.69 2932
-749.652 297.182 2927
-742.652 297.182 2927
-734.396 296.675 2922
-727.409 296.675 2922
-717.71 295.558 2911
-708.307 294.543 2901
-697.743 293.02 2886
-690.842 293.02 2886
-679.201 290.989 2866
-672.347 290.989 2866
-665.494 290.989 2866
-658.641 290.989 2866
-651.787 290.989 2866
-646.059 291.497 2871
-641.42 292.512 2881
-634.53 292.512 2881
-627.641 292.512 2881
-620.752 292.512 2881
-613.862 292.512 2881
-606.973 292.512 2881
-599.042 292.004 2876
-592.165 292.004 2876
-586.305 292.512 2881
-581.427 293.527 2891
-574.513 293.527 2891
-567.6 293.527 2891
-561.657 294.035 2896
-554.731 294.035 2896
-547.806 294.035 2896
-540.881 294.035 2896
-537.531 379.727 3740
-528.587 379.727 3740
-526.869 385.007 3792
-535.962 398.511 3925
-527.918 399.526 3935
-518.508 399.526 3935
-512.721 402.369 3963
-515.435 412.116 4059
-505.729 412.116 4059
-496.022 412.116 4059
-486.316 412.116 4059
-476.61 412.116 4059
-465.753 411.101 4049
-451.678 407.141 4010
-441.097 406.227 4001
-431.529 406.227 4001
-421.961 406.227 4001
-412.394 406.227 4001
-402.826 406.227 4001
-392.276 405.212 3991
-382.732 405.212 3991
-370.57 402.369 3963
-355.991 396.683 3907
-344.253 393.942 3880
-338.082 397.597 3916
-328.718 397.597 3916
-319.354 397.597 3916
-307.852 394.856 3889
-298.552 394.856 3889
-163.258 222.861 2195
-157.001 221.44 2181
-151.577 221.135 2178
-146.368 221.135 2178
-140.966 220.831 2175
-135.39 220.222 2169
-129.903 219.714 2164
-124.728 219.714 2164
-119.554 219.714 2164
-114.22 219.409 2161
-109.053 219.409 2161
-103.741 219.105 2158
-98.5805 219.105 2158
-93.4201 219.105 2158
-88.1369 218.8 2155
-82.9837 218.8 2155
-77.8304 218.8 2155
-72.6772 218.8 2155
-67.5239 218.8 2155
-62.3707 218.8 2155
-57.297 219.105 2158
-52.1366 219.105 2158
-47.0415 219.409 2161
-41.8739 219.409 2161
-36.7572 219.714 2164
-31.5825 219.714 2164
-26.4443 220.019 2167
-21.282 220.222 2169
-16.1175 220.526 2172
-10.9236 220.526 2172
-5.73757 220.831 2175
-0.537229 221.135 2178
4.67746 221.44 2181
9.8929 221.44 2181
15.1291 221.745 2184
20.3704 221.948 2186
25.6329 222.252 2189
30.8674 222.252 2189
36.102 222.252 2189
41.3366 222.252 2189
46.5711 222.252 2189
51.8057 222.252 2189
57.0402 222.252 2189
62.2748 222.252 2189
67.4168 221.948 2186
72.6442 221.948 2186
77.8716 221.948 2186
82.9089 221.44 2181
88.1244 221.44 2181
93.3398 221.44 2181
98.2841 220.831 2175
103.342 220.526 2172
108.287 220.019 2167
113.468 220.019 2167
118.65 220.019 2167
123.661 219.714 2164
128.836 219.714 2164
134.01 219.714 2164
138.799 219.105 2158
143.96 219.105 2158
149.12 219.105 2158
154.281 219.105 2158
159.441 219.105 2158
164.373 218.8 2155
169.526 218.8 2155
174.517 218.597 2153
179.666 218.597 2153
184.557 218.293 2150
189.698 218.293 2150
194.567 217.988 2147
199.701 217.988 2147
204.836 217.988 2147
210.263 218.293 2150
215.705 218.597 2153
220.853 218.597 2153
226.002 218.597 2153
231.15 218.597 2153
236.299 218.597 2153
241.447 218.597 2153
246.596 218.597 2153
251.393 218.293 2150
256.535 218.293 2150
261.676 218.293 2150
266.445 217.988 2147
271.579 217.988 2147
277.487 218.597 2153
282.635 218.597 2153
287.784 218.597 2153
292.932 218.597 2153
441.726 313.123 3084
449.101 313.123 3084
456.476 313.123 3084
462.948 312.514 3078
468.628 311.397 3067
475.962 311.397 3067
477.15 307.437 3028
483.431 306.828 3022
487.086 304.594 3000
494.26 304.594 3000
500.598 304.087 2995
504.2 301.954 2974
510.28 301.345 2968
517.377 301.345 2968
524.475 301.345 2968
531.572 301.345 2968
537.762 300.838 2963
544.847 300.838 2963
551.933 300.838 2963
559.018 300.838 2963
564.193 299.822 2953
569.127 298.705 2942
576.162 298.705 2942
583.197 298.705 2942
588.226 297.69 2932
595.237 297.69 2932
602.249 297.69 2932
609.26 297.69 2932
616.271 297.69 2932
622.22 297.182 2927
629.219 297.182 2927
636.218 297.182 2927
643.218 297.182 2927
650.217 297.182 2927
657.216 297.182 2927
664.216 297.182 2927
671.215 297.182 2927
677.056 296.675 2922
684.043 296.675 2922
691.031 296.675 2922
698.018 296.675 2922
705.005 296.675 2922
711.993 296.675 2922
718.98 296.675 2922
725.968 296.675 2922
732.955 296.675 2922
739.942 296.675 2922
746.93 296.675 2922
753.917 296.675 2922
760.904 296.675 2922
767.892 296.675 2922
774.879 296.675 2922
781.867 296.675 2922
788.854 296.675 2922
795.841 296.675 2922
802.829 296.675 2922
809.816 296.675 2922
816.804 296.675 2922
823.791 296.675 2922
829.357 296.167 2917
836.332 296.167 2917
841.573 295.558 2911
848.534 295.558 2911
857.259 296.167 2917
864.234 296.167 2917
871.209 296.167 2917
878.185 296.167 2917
885.16 296.167 2917
893.665 296.675 2922
900.652 296.675 2922
909.193 297.182 2927
916.192 297.182 2927
944.639 304.087 2995
951.801 304.087 2995
962.485 305.203 3006
969.673 305.203 3006
976.862 305.203 3006
1273.43 370.59 3650
1284.96 371.402 3658
1296.89 372.316 3667
1305.66 372.316 3667
1314.43 372.316 3667
1328.97 373.94 3683
1340.69 374.752 3691
1349.51 374.752 3691
1376.37 379.727 3740
1385.32 379.727 3740
1394.26 379.727 3740
1403.2 379.727 3740
1403.08 377.291 3716
1408.55 376.377 3707
1417.42 376.377 3707
1417.05 373.94 3683
1407.27 369.067 3635
1415.96 369.067 3635
1424.65 369.067 3635
1430.19 368.254 3627
1426.17 365.005 3595
1428.78 363.482 3580
1416.06 358.101 3527
1424.5 358.101 3527
1420.74 355.055 3497
1405.81 349.268 3440
1405.41 347.136 3419
1413.58 347.136 3419
1413.02 345.004 3398
1395.64 338.81 3337
1383.85 334.038 3290
1375.64 330.18 3252
1408.09 336.069 3310
1416.01 336.069 3310
1429.51 337.389 3323
1440.49 338.1 3330
1468.9 342.872 3377
1476.97 342.872 3377
1491.2 344.293 3391
1517.88 348.557 3433
1526.09 348.557 3433
1534.3 348.557 3433
1542.51 348.557 3433
1566.53 352.111 3468
1601.61 358.101 3527
1610.05 358.101 3527
1618.48 358.101 3527
1393.78 305.203 3006
1406.1 306.32 3017
1413.31 306.32 3017
1420.52 306.32 3017
1422.53 305.203 3006
1429.72 305.203 3006
1436.91 305.203 3006
1423.44 300.838 2963
1415.56 297.69 2932
1409.96 295.05 2906
1416.91 295.05 2906
1418.95 294.035 2896
1420.96 293.02 2886
1425.38 292.512 2881
1432.27 292.512 2881
1439.16 292.512 2881
1441.03 291.497 2871
1443.36 290.583 2862
1450.2 290.583 2862
1457.05 290.583 2862
1463.89 290.583 2862
1468.17 290.075 2857
1475 290.075 2857
1476.64 289.06 2847
1480.85 288.552 2842
1485.02 288.045 2837
1491.81 288.045 2837
1498.59 288.045 2837
1505.38 288.045 2837
1507.36 287.131 2828
1514.13 287.131 2828
1520.89 287.131 2828
1527.65 287.131 2828
1534.41 287.131 2828
1538.45 286.623 2823
1545.2 286.623 2823
1549.2 286.115 2818
1555.94 286.115 2818
1565.45 286.623 2823
1572.2 286.623 2823
1581.75 287.131 2828
1588.51 287.131 2828
1595.28 287.131 2828
1602.04 287.131 2828
1608.8 287.131 2828
1615.57 287.131 2828
1624.62 287.537 2832
1631.39 287.537 2832
1638.17 287.537 2832
1644.94 287.537 2832
1654.63 288.045 2837
1661.41 288.045 2837
1668.2 288.045 2837
1674.98 288.045 2837
1684.73 288.552 2842
1694.5 289.06 2847
1701.31 289.06 2847
1708.12 289.06 2847
1717.94 289.568 2852
1724.76 289.568 2852
1731.58 289.568 2852
1735.35 289.06 2847
1739.1 288.552 2842
1739.75 287.537 2832
1746.52 287.537 2832
1753.29 287.537 2832
1754.47 286.623 2823
1761.22 286.623 2823
1764.84 286.115 2818
1771.58 286.115 2818
1772.64 285.202 2809
1776.19 284.694 2804
1779.72 284.186 2799
1786.41 284.186 2799
1787.34 283.273 2790
1794.01 283.273 2790
1800.68 283.273 2790
1804.11 282.765 2785
1810.77 282.765 2785
1814.17 282.257 2780
1818.2 281.851 2776
1824.84 281.851 2776
1831.47 281.851 2776
1838.11 281.851 2776
1844.75 281.851 2776
1851.39 281.851 2776
1858.03 281.851 2776
1864.67 281.851 2776
1874 282.257 2780
1880.65 282.257 2780
1887.3 282.257 2780
1893.94 282.257 2780
1900.59 282.257 2780
1907.24 282.257 2780
1913.89 282.257 2780
1920.54 282.257 2780
1927.18 282.257 2780
1931.05 281.851 2776
1937.69 281.851 2776
1944.32 281.851 2776
1950.96 281.851 2776
1957.6 281.851 2776
1964.24 281.851 2776
1970.88 281.851 2776
1977.52 281.851 2776
1984.15 281.851 2776
1984.34 280.937 2767
1990.95 280.937 2767
1990.35 279.922 2757
1987.53 278.602 2744
1990.46 278.095 2739
1990.45 277.181 2730
1996.97 277.181 2730
1996.9 276.267 2721
2020.34 278.602 2744
2026.9 278.602 2744
2033.46 278.602 2744
2040.02 278.602 2744
2039.87 277.688 2735
2042.67 277.181 2730
2049.2 277.181 2730
2045.94 275.861 2717
2026 272.307 2682
2032.41 272.307 2682
2038.82 272.307 2682
2045.24 272.307 2682
2041.71 270.987 2669
-2106.16 292.346 2813
-2106.9 293.386 2823
-2103.87 293.905 2828
-2097.11 293.905 2828
-2100.69 295.36 2842
-2104.95 296.919 2857
-2098.11 296.919 2857
-2091.28 296.919 2857
-2084.45 296.919 2857
-2073.98 296.4 2852
-2067.16 296.4 2852
-2060.34 296.4 2852
-2053.52 296.4 2852
-2046.7 296.4 2852
-2039.88 296.4 2852
-2033.06 296.4 2852
-2029.79 296.919 2857
-2022.96 296.919 2857
-2016.13 296.919 2857
-2009.3 296.919 2857
-1998.96 296.4 2852
-1995.64 296.919 2857
-1992.28 297.439 2862
-1985.44 297.439 2862
-1978.6 297.439 2862
-1977.95 298.374 2871
-1971.09 298.374 2871
-1964.22 298.374 2871
-1957.36 298.374 2871
-1944.38 297.439 2862
-1957.16 300.453 2891
-1950.25 300.453 2891
-1946.7 300.972 2896
-1946.47 302.012 2906
-1939.52 302.012 2906
-1932.57 302.012 2906
-1936.23 303.674 2922
-1956.31 307.935 2963
-1977.51 312.404 3006
-1970.32 312.404 3006
-1977.5 314.691 3028
-1980.67 316.354 3044
-1980.53 317.497 3055
-1973.22 317.497 3055
-1965.91 317.497 3055
-1958.61 317.497 3055
-1951.3 317.497 3055
-1940.82 316.977 3050
-1947.47 319.263 3072
-1969.18 324.044 3118
-1961.72 324.044 3118
-1980.59 328.409 3160
-1973.03 328.409 3160
-1965.47 328.409 3160
-2082.05 357.509 3440
-2078.04 358.236 3447
-2069.8 358.236 3447
-2061.56 358.236 3447
-2049.14 357.509 3440
-2040.92 357.509 3440
-2028.55 356.781 3433
-2028.58 358.236 3447
-2028.55 359.691 3461
-2020.27 359.691 3461
-2011.99 359.691 3461
-1999.67 358.964 3454
-1999.48 360.419 3468
-1999.8 361.977 3483
-1991.47 361.977 3483
-1987.12 362.705 3490
-1978.78 362.705 3490
-1982.85 364.991 3512
-1974.46 364.991 3512
-1966.06 364.991 3512
-1957.66 364.991 3512
-1953.7 365.823 3520
-1945.28 365.823 3520
-1944.57 367.278 3534
-1936.12 367.278 3534
-1940.21 369.668 3557
-1931.71 369.668 3557
-1923.2 369.668 3557
-1914.7 369.668 3557
-1914.23 371.227 3572
-1905.69 371.227 3572
-1905.64 372.89 3588
-1900.77 373.617 3595
-1892.17 373.617 3595
-1883.57 373.617 3595
-1883.32 375.28 3611
-1878.84 376.111 3619
-1882.07 378.502 3642
-1873.36 378.502 3642
-1877.45 381.1 3667
-1872.76 381.931 3675
-1872.09 383.594 3691
-1863.26 383.594 3691
-1858.45 384.426 3699
-1858.11 386.192 3716
-1853.2 387.024 3724
-1844.3 387.024 3724
-1851.66 390.453 3757
-1880.93 398.56 3835
-1889.33 402.301 3871
-1880.07 402.301 3871
-1883.86 405.107 3898
-1878.87 406.042 3907
-1869.53 406.042 3907
-1860.19 406.042 3907
-1877.37 411.862 3963
-1867.89 411.862 3963
-1858.42 411.862 3963
-1848.94 411.862 3963
-1839.46 411.862 3963
-1821.21 409.888 3944
-1811.78 409.888 3944
-1793.67 407.913 3925
-1818.83 415.812 4001
-1826.45 419.761 4039
-1816.79 419.761 4039
-1807.13 419.761 4039
-1789.02 417.786 4020
-1770.99 415.812 4001
-1761.43 415.812 4001
-1718.58 407.913 3925
-1647.36 393.155 3783
-1595.01 382.763 3683
-1558.64 376.111 3619
-1549.98 376.111 3619
-1528.12 372.89 3588
-1503.03 368.837 3549
-1485.28 366.55 3527
-1476.84 366.55 3527
-1443.84 360.419 3468
-1423.96 357.509 3440
-1398.45 353.144 3398
-1390.32 353.144 3398
-1373.66 350.961 3377
-1359.92 349.506 3363
-1351.88 349.506 3363
-1341.44 348.883 3357
-1333.41 348.883 3357
-1317.49 346.804 3337
-1301.66 344.726 3317
-1273.44 339.321 3265
-1265.64 339.321 3265
-1245.5 335.996 3233
-1223.61 332.15 3196
-1204.55 329.033 3166
-1196.98 329.033 3166
-1178.14 325.915 3136
-1166.16 324.668 3124
-1152.38 322.901 3107
-1144.95 322.901 3107
-1114.46 316.354 3044
-1101.36 314.691 3028
-1094.12 314.691 3028
-1088.67 315.21 3033
-1087.48 316.977 3050
-1080.19 316.977 3050
-1078.87 318.744 3067
-1071.54 318.744 3067
-1064.2 318.744 3067
-1056.87 318.744 3067
-1045.43 317.497 3055
-1036.43 316.977 3050
-1029.13 316.977 3050
-1018.15 315.834 3039
-1008.89 315.21 3033
-998.005 314.067 3022
-990.778 314.067 3022
-978.344 312.404 3006
-969.218 311.781 3000
-962.044 311.781 3000
-954.87 311.781 3000
-917.921 316.354 3044
-910.642 316.354 3044
-903.363 316.354 3044
-894.612 315.834 3039
-887.344 315.834 3039
-880.077 315.834 3039
-867.928 314.067 3022
-856.144 312.404 3006
-844.437 310.741 2990
-837.287 310.741 2990
-825.695 309.079 2974
-809.775 305.753 2942
-800.011 304.714 2932
-791.648 304.194 2927
-784.648 304.194 2927
-777.649 304.194 2927
-773.283 305.233 2937
-766.259 305.233 2937
-759.236 305.233 2937
-752.213 305.233 2937
-742.652 304.194 2927
-734.396 303.674 2922
-727.409 303.674 2922
-719.189 303.155 2917
-708.307 301.492 2901
-697.743 299.933 2886
-690.842 299.933 2886
-680.386 298.374 2871
-673.52 298.374 2871
-665.494 297.855 2866
-659.79 298.374 2871
-652.924 298.374 2871
-647.184 298.894 2876
-643.646 300.453 2891
-636.733 300.453 2891
-629.82 300.453 2891
-622.906 300.453 2891
-615.993 300.453 2891
-609.08 300.453 2891
-601.125 299.933 2886
-598.342 302.012 2906
-594.649 303.674 2922
-587.661 303.674 2922
-582.661 304.714 2932
-575.65 304.714 2932
-570.578 305.753 2942
-570.63 309.598 2979
-563.506 309.598 2979
-566.468 315.21 3033
-559.215 315.21 3033
-551.963 315.21 3033
-535.962 407.913 3925
-529.126 409.888 3944
-519.694 409.888 3944
-513.886 412.798 3972
-515.435 421.839 4059
-505.729 421.839 4059
-496.022 421.839 4059
-486.316 421.839 4059
-476.61 421.839 4059
-465.753 420.8 4049
-451.678 416.747 4010
-441.097 415.812 4001
-431.529 415.812 4001
-421.961 415.812 4001
-412.394 415.812 4001
-402.826 415.812 4001
-393.259 415.812 4001
-383.691 415.812 4001
-371.412 412.798 3972
-359.362 409.888 3944
-349.132 408.952 3935
-339.723 408.952 3935
-330.313 408.952 3935
-320.903 408.952 3935
-309.989 406.978 3916
-300.625 406.978 3916
-289.252 404.172 3889
-157.001 226.665 2181
-151.577 226.353 2178
-146.368 226.353 2178
-140.966 226.041 2175
-135.577 225.729 2172
-129.903 224.898 2164
-124.728 224.898 2164
-119.554 224.898 2164
-114.22 224.586 2161
-109.053 224.586 2161
-103.885 224.586 2161
-98.7176 224.586 2161
-93.4201 224.274 2158
-88.2596 224.274 2158
-83.0992 224.274 2158
-77.9388 224.274 2158
-72.7783 224.274 2158
-67.6179 224.274 2158
-62.4575 224.274 2158
-57.3767 224.586 2161
-52.2091 224.586 2161
-47.0415 224.586 2161
-41.9901 225.21 2167
-36.8082 225.21 2167
-31.6262 225.21 2167
-26.4443 225.21 2167
-21.3114 225.729 2172
-16.1397 226.041 2175
-10.9387 226.041 2175
-5.74549 226.353 2178
-0.537969 226.665 2181
4.6839 226.976 2184
9.9065 226.976 2184
15.143 227.184 2186
20.3704 227.184 2186
25.6329 227.496 2189
30.8674 227.496 2189
36.102 227.496 2189
41.3366 227.496 2189
46.6349 227.808 2192
51.8767 227.808 2192
57.1184 227.808 2192
62.2748 227.496 2189
67.4168 227.184 2186
72.6442 227.184 2186
77.8716 227.184 2186
82.9089 226.665 2181
88.1244 226.665 2181
93.3398 226.665 2181
98.2841 226.041 2175
103.485 226.041 2175
108.386 225.417 2169
113.573 225.417 2169
118.65 225.21 2167
123.832 225.21 2167
128.836 224.898 2164
134.01 224.898 2164
138.992 224.586 2161
144.16 224.586 2161
149.328 224.586 2161
154.495 224.586 2161
159.663 224.586 2161
164.602 224.274 2158
169.526 223.962 2155
174.679 223.962 2155
179.832 223.962 2155
184.814 223.755 2153
189.698 223.443 2150
194.839 223.443 2150
200.259 223.755 2153
205.408 223.755 2153
210.556 223.755 2153
215.905 223.962 2155
221.059 223.962 2155
226.212 223.962 2155
231.365 223.962 2155
236.518 223.962 2155
241.672 223.962 2155
246.825 223.962 2155
251.744 223.755 2153
256.893 223.755 2153
262.041 223.755 2153
266.817 223.443 2150
271.959 223.443 2150
277.744 223.962 2155
282.898 223.962 2155
288.051 223.962 2155
293.204 223.962 2155
441.726 320.511 3084
449.101 320.511 3084
456.476 320.511 3084
462.948 319.887 3078
468.628 318.744 3067
475.962 318.744 3067
478.884 315.834 3039
484.391 314.691 3028
487.086 311.781 3000
494.26 311.781 3000
500.598 311.261 2995
505.047 309.598 2979
511.311 309.079 2974
517.377 308.455 2968
524.475 308.455 2968
531.572 308.455 2968
538.669 308.455 2968
544.847 307.935 2963
551.933 307.935 2963
558.075 307.416 2958
564.193 306.896 2953
569.127 305.753 2942
576.162 305.753 2942
583.197 305.753 2942
589.229 305.233 2937
595.237 304.714 2932
602.249 304.714 2932
609.26 304.714 2932
616.271 304.714 2932
622.22 304.194 2927
629.219 304.194 2927
636.218 304.194 2927
643.218 304.194 2927
650.217 304.194 2927
657.216 304.194 2927
664.216 304.194 2927
671.215 304.194 2927
677.056 303.674 2922
684.043 303.674 2922
691.031 303.674 2922
698.018 303.674 2922
705.005 303.674 2922
711.993 303.674 2922
718.98 303.674 2922
725.968 303.674 2922
732.955 303.674 2922
739.942 303.674 2922
746.93 303.674 2922
753.917 303.674 2922
760.904 303.674 2922
767.892 303.674 2922
774.879 303.674 2922
781.867 303.674 2922
788.854 303.674 2922
795.841 303.674 2922
802.829 303.674 2922
809.816 303.674 2922
816.804 303.674 2922
822.381 303.155 2917
829.357 303.155 2917
836.332 303.155 2917
840.128 302.012 2906
847.077 302.012 2906
855.495 302.531 2911
862.456 302.531 2911
869.417 302.531 2911
876.378 302.531 2911
883.34 302.531 2911
892.136 303.155 2917
899.111 303.155 2917
909.193 304.194 2927
919.322 305.233 2937
948.108 312.404 3006
955.297 312.404 3006
966.007 313.547 3017
973.222 313.547 3017
980.436 313.547 3017
1273.43 379.333 3650
1284.96 380.165 3658
1293.71 380.165 3658
1302.46 380.165 3658
1314.43 381.1 3667
1328.97 382.763 3683
1340.69 383.594 3691
1349.51 383.594 3691
1376.37 388.687 3740
1385.32 388.687 3740
1394.26 388.687 3740
1403.2 388.687 3740
1403.08 386.192 3716
1408.55 385.257 3707
1417.42 385.257 3707
1417.05 382.763 3683
1407.27 377.774 3635
1415.96 377.774 3635
1424.65 377.774 3635
1430.19 376.943 3627
1426.17 373.617 3595
1428.78 372.058 3580
1416.06 366.55 3527
1424.5 366.55 3527
1420.74 363.432 3497
1405.81 357.509 3440
1405.41 355.326 3419
1413.58 355.326 3419
1413.02 353.144 3398
1395.64 346.804 3337
1383.85 341.92 3290
1375.64 337.97 3252
1408.09 343.998 3310
1416.01 343.998 3310
1429.51 345.349 3323
1440.49 346.077 3330
1468.9 350.961 3377
1476.97 350.961 3377
1494.28 353.144 3398
1517.88 356.781 3433
1526.09 356.781 3433
1534.3 356.781 3433
1542.51 356.781 3433
1576.47 362.705 3490
1601.61 366.55 3527
1610.05 366.55 3527
1618.48 366.55 3527
1398.88 313.547 3017
1408.43 314.067 3022
1415.65 314.067 3022
1422.88 314.067 3022
1422.53 312.404 3006
1429.72 312.404 3006
1436.91 312.404 3006
1423.44 307.935 2963
1413.15 304.194 2927
1407.53 301.492 2901
1414.47 301.492 2901
1416.5 300.453 2891
1418.49 299.413 2881
1422.91 298.894 2876
1429.79 298.894 2876
1436.66 298.894 2876
1441.03 298.374 2871
1443.36 297.439 2862
1450.2 297.439 2862
1457.05 297.439 2862
1461.33 296.919 2857
1468.17 296.919 2857
1475 296.919 2857
1476.64 295.88 2847
1480.85 295.36 2842
1485.02 294.841 2837
1491.81 294.841 2837
1498.59 294.841 2837
1502.72 294.321 2832
1507.36 293.905 2828
1514.13 293.905 2828
1520.89 293.905 2828
1527.65 293.905 2828
1534.41 293.905 2828
1538.45 293.386 2823
1545.2 293.386 2823
1549.2 292.866 2818
1553.18 292.346 2813
1565.45 293.386 2823
1572.2 293.386 2823
1581.75 293.905 2828
1588.51 293.905 2828
1595.28 293.905 2828
1602.04 293.905 2828
1608.8 293.905 2828
1615.57 293.905 2828
1622.33 293.905 2828
1631.39 294.321 2832
1638.17 294.321 2832
1644.94 294.321 2832
1654.63 294.841 2837
1661.41 294.841 2837
1668.2 294.841 2837
1674.98 294.841 2837
1684.73 295.36 2842
1694.5 295.88 2847
1701.31 295.88 2847
1708.12 295.88 2847
1717.94 296.4 2852
1724.76 296.4 2852
1731.58 296.4 2852
1735.35 295.88 2847
1739.1 295.36 2842
1739.75 294.321 2832
1744.05 293.905 2828
1750.82 293.905 2828
1754.47 293.386 2823
1758.1 292.866 2818
1761.71 292.346 2813
1768.44 292.346 2813
1772.64 291.931 2809
1776.19 291.411 2804
1779.72 290.891 2799
1786.41 290.891 2799
1787.34 289.956 2790
1794.01 289.956 2790
1800.68 289.956 2790
1804.11 289.436 2785
1810.77 289.436 2785
1811.56 288.501 2776
1818.2 288.501 2776
1821.55 287.981 2771
1831.47 288.501 2776
1838.11 288.501 2776
1844.75 288.501 2776
1851.39 288.501 2776
1858.03 288.501 2776
1864.67 288.501 2776
1874 288.917 2780
1880.65 288.917 2780
1887.3 288.917 2780
1893.94 288.917 2780
1900.59 288.917 2780
1907.24 288.917 2780
1913.89 288.917 2780
1920.54 288.917 2780
1927.18 288.917 2780
1927.57 287.981 2771
1934.2 287.981 2771
1940.82 287.981 2771
1947.45 287.981 2771
1954.08 287.981 2771
1960.7 287.981 2771
1967.33 287.981 2771
1973.95 287.981 2771
1980.58 287.981 2771
1980.75 287.046 2762
1987.36 287.046 2762
1990.35 286.526 2757
1987.53 285.175 2744
1987.55 284.24 2735
1987.53 283.305 2726
1994.05 283.305 2726
1996.9 282.785 2721
2016.66 284.656 2739
2023.21 284.656 2739
2029.76 284.656 2739
2036.31 284.656 2739
2039.87 284.24 2735
2042.67 283.72 2730
2049.2 283.72 2730
2045.94 282.369 2717
2026 278.732 2682
2035.44 279.148 2686
2041.86 279.148 2686
2048.29 279.148 2686
2054.71 279.148 2686
-2106.16 299.085 2813
-2106.9 300.148 2823
-2103.87 300.68 2828
-2097.11 300.68 2828
-2100.69 302.168 2842
-2104.95 303.763 2857
-2098.11 303.763 2857
-2091.28 303.763 2857
-2084.45 303.763 2857
-2073.98 303.232 2852
-2067.16 303.232 2852
-2060.34 303.232 2852
-2057.12 303.763 2857
-2050.29 303.763 2857
-2043.46 303.763 2857
-2036.63 303.763 2857
-2029.79 303.763 2857
-2022.96 303.763 2857
-2016.13 303.763 2857
-2009.3 303.763 2857
-1998.96 303.232 2852
-1995.64 303.763 2857
-1992.28 304.295 2862
-1985.44 304.295 2862
-1978.6 304.295 2862
-1977.95 305.252 2871
-1971.09 305.252 2871
-1964.22 305.252 2871
-1957.36 305.252 2871
-1944.38 304.295 2862
-1957.16 307.378 2891
-1950.25 307.378 2891
-1946.7 307.91 2896
-1946.47 308.973 2906
-1939.52 308.973 2906
-1932.57 308.973 2906
-1936.23 310.674 2922
-1956.31 315.033 2963
-1977.51 319.605 3006
-1970.32 319.605 3006
-1977.5 321.944 3028
-1980.67 323.645 3044
-1980.53 324.815 3055
-1973.22 324.815 3055
-1965.91 324.815 3055
-1958.61 324.815 3055
-1951.3 324.815 3055
-1940.82 324.283 3050
-1947.47 326.622 3072
-1969.18 331.513 3118
-1961.72 331.513 3118
-1980.59 335.979 3160
-1973.03 335.979 3160
-1965.47 335.979 3160
-2082.05 365.749 3440
-2078.04 366.493 3447
-2069.8 366.493 3447
-2061.56 366.493 3447
-2049.14 365.749 3440
-2040.92 365.749 3440
-2028.55 365.005 3433
-2028.58 366.493 3447
-2028.55 367.982 3461
-2020.27 367.982 3461
-2011.99 367.982 3461
-1999.67 367.238 3454
-1999.48 368.726 3468
-1999.8 370.321 3483
-1991.47 370.321 3483
-1987.12 371.065 3490
-1978.78 371.065 3490
-1982.85 373.404 3512
-1974.46 373.404 3512
-1966.06 373.404 3512
-1957.66 373.404 3512
-1953.7 374.255 3520
-1945.28 374.255 3520
-1944.57 375.743 3534
-1936.12 375.743 3534
-1940.21 378.189 3557
-1931.71 378.189 3557
-1923.2 378.189 3557
-1914.7 378.189 3557
-1914.23 379.784 3572
-1905.69 379.784 3572
-1905.64 381.485 3588
-1900.77 382.229 3595
-1892.17 382.229 3595
-1883.57 382.229 3595
-1883.32 383.93 3611
-1878.84 384.781 3619
-1882.07 387.226 3642
-1873.36 387.226 3642
-1877.45 389.884 3667
-1872.76 390.735 3675
-1872.09 392.436 3691
-1863.26 392.436 3691
-1858.45 393.287 3699
-1858.11 395.094 3716
-1853.2 395.945 3724
-1844.3 395.945 3724
-1851.66 399.453 3757
-1880.93 407.746 3835
-1889.33 411.574 3871
-1880.07 411.574 3871
-1883.86 414.445 3898
-1878.87 415.402 3907
-1869.53 415.402 3907
-1860.19 415.402 3907
-1877.37 421.356 3963
-1867.89 421.356 3963
-1858.42 421.356 3963
-1848.94 421.356 3963
-1839.46 421.356 3963
-1834.14 422.313 3972
-1824.64 422.313 3972
-1815.15 422.313 3972
-1818.83 425.396 4001
-1826.45 429.436 4039
-1816.79 429.436 4039
-1807.13 429.436 4039
-1797.47 429.436 4039
-1783.83 428.479 4030
-1774.19 428.479 4030
-1739.16 422.313 3972
-1662.6 405.939 3818
-1605.4 394.137 3707
-1565.53 386.482 3635
-1556.83 386.482 3635
-1537.92 383.93 3611
-1512.77 379.784 3572
-1491.59 376.594 3542
-1483.12 376.594 3542
-1447.17 369.577 3476
-1429.76 367.238 3454
-1404.21 362.772 3412
-1396.05 362.772 3412
-1373.66 359.051 3377
-1359.92 357.562 3363
-1351.88 357.562 3363
-1341.44 356.924 3357
-1333.41 356.924 3357
-1317.49 354.798 3337
-1301.66 352.671 3317
-1273.44 347.143 3265
-1265.64 347.143 3265
-1245.5 343.74 3233
-1223.61 339.806 3196
-1204.55 336.617 3166
-1196.98 336.617 3166
-1178.14 333.427 3136
-1166.16 332.151 3124
-1152.38 330.344 3107
-1144.95 330.344 3107
-1114.46 323.645 3044
-1101.36 321.944 3028
-1094.12 321.944 3028
-1088.67 322.476 3033
-1087.48 324.283 3050
-1080.19 324.283 3050
-1078.87 326.091 3067
-1071.54 326.091 3067
-1064.2 326.091 3067
-1056.87 326.091 3067
-1045.43 324.815 3055
-1036.43 324.283 3050
-1029.13 324.283 3050
-1018.15 323.114 3039
-1008.89 322.476 3033
-998.005 321.306 3022
-990.778 321.306 3022
-978.344 319.605 3006
-969.218 318.967 3000
-962.044 318.967 3000
-954.87 318.967 3000
-917.921 323.645 3044
-910.642 323.645 3044
-903.363 323.645 3044
-894.612 323.114 3039
-887.344 323.114 3039
-880.077 323.114 3039
-867.928 321.306 3022
-857.568 320.137 3011
-844.437 317.904 2990
-837.287 317.904 2990
-825.695 316.203 2974
-811.151 313.332 2947
-801.376 312.269 2937
-791.648 311.206 2927
-784.648 311.206 2927
-777.649 311.206 2927
-773.283 312.269 2937
-766.259 312.269 2937
-759.236 312.269 2937
-752.213 312.269 2937
-743.921 311.737 2932
-735.653 311.206 2927
-728.654 311.206 2927
-720.422 310.674 2922
-709.528 308.973 2906
-700.161 307.91 2896
-693.236 307.91 2896
-682.756 306.315 2881
-673.52 305.252 2871
-667.816 305.783 2876
-660.939 305.783 2876
-654.061 305.783 2876
-650.559 307.378 2891
-646.986 308.973 2906
-641.138 309.505 2911
-634.177 309.505 2911
-627.216 309.505 2911
-619.189 308.973 2906
-614.557 310.142 2917
-607.582 310.142 2917
-601.636 310.674 2922
-600.957 313.97 2953
-593.896 313.97 2953
-586.834 313.97 2953
-580.755 314.502 2958
-580.857 318.436 2995
-576.76 320.137 3011
-569.56 320.137 3011
-571.698 325.453 3061
-572.859 330.344 3107
-565.43 330.344 3107
-558 330.344 3107
-551.456 330.875 3112
-544.014 330.875 3112
-536.573 330.875 3112
-535.962 417.315 3925
-529.126 419.336 3944
-520.88 420.293 3953
-513.886 422.313 3972
-515.435 431.563 4059
-505.729 431.563 4059
-496.022 431.563 4059
-486.316 431.563 4059
-476.61 431.563 4059
-465.753 430.499 4049
-451.678 426.353 4010
-441.097 425.396 4001
-431.529 425.396 4001
-421.961 425.396 4001
-412.394 425.396 4001
-402.826 425.396 4001
-393.259 425.396 4001
-383.691 425.396 4001
-372.347 423.376 3982
-361.093 421.356 3963
-349.931 419.336 3944
-340.5 419.336 3944
-331.068 419.336 3944
-320.903 418.379 3935
-309.989 416.359 3916
-300.625 416.359 3916
-290.591 415.402 3907
-158.441 234.016 2201
-151.785 231.889 2181
-146.57 231.889 2181
-140.966 231.251 2175
-135.577 230.932 2172
-129.903 230.082 2164
-124.728 230.082 2164
-119.554 230.082 2164
-114.379 230.082 2164
-109.204 230.082 2164
-103.885 229.763 2161
-98.7176 229.763 2161
-93.4201 229.444 2158
-88.2596 229.444 2158
-83.2147 229.763 2161
-78.0471 229.763 2161
-72.8795 229.763 2161
-67.7119 229.763 2161
-62.5443 229.763 2161
-57.4564 230.082 2164
-52.2816 230.082 2164
-47.1721 230.401 2167
-41.9901 230.401 2167
-36.8082 230.401 2167
-31.6262 230.401 2167
-26.4687 230.613 2169
-21.3408 231.251 2175
-16.1397 231.251 2175
-10.9387 231.251 2175
-5.74549 231.57 2178
-0.537969 231.889 2181
4.6839 232.208 2184
9.9065 232.208 2184
15.143 232.421 2186
20.3983 232.74 2189
25.6329 232.74 2189
30.8674 232.74 2189
36.102 232.74 2189
41.3366 232.74 2189
46.6349 233.059 2192
51.8767 233.059 2192
57.1184 233.059 2192
62.2748 232.74 2189
67.5094 232.74 2189
72.7439 232.74 2189
77.8716 232.421 2186
83.023 232.208 2184
88.1244 231.889 2181
93.3398 231.889 2181
98.4197 231.57 2178
103.485 231.251 2175
108.536 230.932 2172
113.73 230.932 2172
118.76 230.613 2169
123.832 230.401 2167
129.014 230.401 2167
134.196 230.401 2167
139.185 230.082 2164
144.36 230.082 2164
149.535 230.082 2164
154.71 230.082 2164
159.884 230.082 2164
165.059 230.082 2164
169.998 229.763 2161
174.922 229.444 2158
180.083 229.444 2158
185.243 229.444 2158
190.139 229.125 2155
195.292 229.125 2155
200.725 229.444 2158
205.885 229.444 2158
211.045 229.444 2158
216.506 229.763 2161
221.674 229.763 2161
226.842 229.763 2161
232.009 229.763 2161
237.177 229.763 2161
242.344 229.763 2161
247.168 229.444 2158
251.978 229.125 2155
256.893 228.912 2153
262.041 228.912 2153
267.19 228.912 2153
272.338 228.912 2153
277.744 229.125 2155
283.685 229.763 2161
288.853 229.763 2161
294.021 229.763 2161
447.353 326.622 3072
454.699 326.622 3072
462.046 326.622 3072
468.628 326.091 3067
475.962 326.091 3067
478.884 323.114 3039
484.391 321.944 3028
487.086 318.967 3000
494.26 318.967 3000
500.598 318.436 2995
505.047 316.734 2979
512.171 316.734 2979
519.295 316.734 2979
526.418 316.734 2979
532.647 316.203 2974
539.758 316.203 2974
544.847 315.033 2963
551.933 315.033 2963
558.075 314.502 2958
565.148 314.502 2958
571.255 313.97 2953
578.316 313.97 2953
584.188 313.332 2947
590.232 312.801 2942
596.252 312.269 2937
603.276 312.269 2937
610.299 312.269 2937
617.322 312.269 2937
623.283 311.737 2932
630.294 311.737 2932
637.305 311.737 2932
643.218 311.206 2927
650.217 311.206 2927
657.216 311.206 2927
664.216 311.206 2927
670.068 310.674 2922
677.056 310.674 2922
682.873 310.142 2917
691.031 310.674 2922
698.018 310.674 2922
705.005 310.674 2922
711.993 310.674 2922
718.98 310.674 2922
725.968 310.674 2922
732.955 310.674 2922
739.942 310.674 2922
746.93 310.674 2922
753.917 310.674 2922
760.904 310.674 2922
767.892 310.674 2922
774.879 310.674 2922
781.867 310.674 2922
788.854 310.674 2922
795.841 310.674 2922
802.829 310.674 2922
809.816 310.674 2922
815.406 310.142 2917
822.381 310.142 2917
827.651 309.505 2911
834.612 309.505 2911
840.128 308.973 2906
847.077 308.973 2906
855.495 309.505 2911
862.456 309.505 2911
869.417 309.505 2911
876.378 309.505 2911
883.34 309.505 2911
890.301 309.505 2911
897.262 309.505 2911
910.746 311.737 2932
920.887 312.801 2942
951.578 320.775 3017
958.792 320.775 3017
966.007 320.775 3017
973.222 320.775 3017
980.436 320.775 3017
1270.63 387.226 3642
1282.15 388.077 3650
1293.71 388.927 3658
1302.46 388.927 3658
1311.21 388.927 3658
1328.97 391.585 3683
1343.59 393.287 3699
1352.44 393.287 3699
1376.37 397.646 3740
1391.61 399.453 3757
1400.6 399.453 3757
1409.58 399.453 3757
1409.13 396.795 3732
1411.97 395.094 3716
1420.86 395.094 3716
1420.12 392.436 3691
1413.08 388.077 3650
1412.85 385.631 3627
1421.52 385.631 3627
1430.19 385.631 3627
1426.17 382.229 3595
1428.78 380.634 3580
1416.06 374.999 3527
1424.5 374.999 3527
1420.74 371.809 3497
1405.81 365.749 3440
1405.41 363.516 3419
1413.58 363.516 3419
1410.11 360.539 3391
1395.64 354.798 3337
1383.85 349.801 3290
1373.1 345.123 3246
1402.56 350.545 3297
1410.45 350.545 3297
1423.92 351.927 3310
1440.49 354.054 3330
1462.81 357.562 3363
1470.85 357.562 3363
1494.28 361.284 3398
1514.79 364.261 3426
1522.98 364.261 3426
1531.17 364.261 3426
1542.51 365.005 3433
1576.47 371.065 3490
1591.62 372.66 3505
1600.01 372.66 3505
1608.39 372.66 3505
1590.01 366.493 3447
1598.26 366.493 3447
1426.6 325.453 3061
1433.92 325.453 3061
1433.24 323.645 3044
1427.74 320.775 3017
1434.95 320.775 3017
1436.91 319.605 3006
1423.44 315.033 2963
1408.32 310.142 2917
1405.1 307.91 2896
1412.03 307.91 2896
1414.05 306.846 2886
1416.03 305.783 2876
1420.44 305.252 2871
1427.3 305.252 2871
1431.67 304.72 2866
1438.52 304.72 2866
1443.36 304.295 2862
1450.2 304.295 2862
1454.5 303.763 2857
1461.33 303.763 2857
1463.03 302.7 2847
1469.83 302.7 2847
1474.05 302.168 2842
1480.85 302.168 2842
1485.02 301.637 2837
1491.81 301.637 2837
1498.59 301.637 2837
1502.72 301.105 2832
1507.36 300.68 2828
1514.13 300.68 2828
1520.89 300.68 2828
1527.65 300.68 2828
1531.7 300.148 2823
1535.73 299.617 2818
1542.47 299.617 2818
1549.2 299.617 2818
1553.18 299.085 2813
1562.68 299.617 2818
1572.2 300.148 2823
1578.96 300.148 2823
1585.71 300.148 2823
1595.28 300.68 2828
1602.04 300.68 2828
1608.8 300.68 2828
1615.57 300.68 2828
1622.33 300.68 2828
1629.09 300.68 2828
1635.85 300.68 2828
1642.62 300.68 2828
1651.71 301.105 2832
1658.48 301.105 2832
1668.2 301.637 2837
1674.98 301.637 2837
1681.76 301.637 2837
1691.52 302.168 2842
1701.31 302.7 2847
1708.12 302.7 2847
1714.92 302.7 2847
1721.73 302.7 2847
1728.54 302.7 2847
1735.35 302.7 2847
1739.1 302.168 2842
1739.75 301.105 2832
1744.05 300.68 2828
1750.82 300.68 2828
1751.36 299.617 2818
1754.98 299.085 2813
1759.21 298.66 2809
1765.92 298.66 2809
1769.48 298.128 2804
1773.02 297.596 2799
1776.54 297.065 2794
1783.22 297.065 2794
1787.34 296.64 2790
1794.01 296.64 2790
1797.45 296.108 2785
1800.87 295.576 2780
1807.52 295.576 2780
1811.56 295.151 2776
1814.92 294.619 2771
1818.92 294.194 2767
1828.18 294.619 2771
1834.8 294.619 2771
1844.75 295.151 2776
1851.39 295.151 2776
1858.03 295.151 2776
1864.67 295.151 2776
1874 295.576 2780
1880.65 295.576 2780
1887.3 295.576 2780
1893.94 295.576 2780
1900.59 295.576 2780
1907.24 295.576 2780
1913.89 295.576 2780
1920.54 295.576 2780
1927.18 295.576 2780
1927.57 294.619 2771
1934.2 294.619 2771
1940.82 294.619 2771
1947.45 294.619 2771
1954.08 294.619 2771
1960.7 294.619 2771
1967.33 294.619 2771
1973.95 294.619 2771
1977.72 294.194 2767
1980.75 293.663 2762
1987.36 293.663 2762
1987.46 292.706 2753
1987.53 291.749 2744
1983.92 290.26 2730
1983.88 289.303 2721
1990.39 289.303 2721
1993.96 288.878 2717
2013.71 290.792 2735
2020.25 290.792 2735
2026.79 290.792 2735
2033.33 290.792 2735
2039.87 290.792 2735
2039.68 289.835 2726
2046.2 289.835 2726
2045.94 288.878 2717
2026 285.157 2682
2039.23 286.114 2691
2045.67 286.114 2691
2052.1 286.114 2691
2054.71 285.582 2686
-2106.16 305.824 2813
-2106.9 306.911 2823
-2103.87 307.454 2828
-2097.11 307.454 2828
-2100.69 308.976 2842
-2101.26 310.064 2852
-2094.44 310.064 2852
-2087.62 310.064 2852
-2080.8 310.064 2852
-2073.98 310.064 2852
-2067.16 310.064 2852
-2060.34 310.064 2852
-2057.12 310.607 2857
-2050.29 310.607 2857
-2043.46 310.607 2857
-2036.63 310.607 2857
-2026.24 310.064 2852
-2019.42 310.064 2852
-2012.6 310.064 2852
-2005.78 310.064 2852
-1998.96 310.064 2852
-1992.14 310.064 2852
-1988.8 310.607 2857
-1981.97 310.607 2857
-1978.6 311.151 2862
-1977.95 312.129 2871
-1971.09 312.129 2871
-1964.22 312.129 2871
-1957.36 312.129 2871
-1944.38 311.151 2862
-1950.4 313.216 2881
-1943.51 313.216 2881
-1943.34 314.304 2891
-1936.43 314.304 2891
-1932.85 314.847 2896
-1925.92 314.847 2896
-1925.62 315.934 2906
-1949.71 321.044 2953
-1977.51 326.806 3006
-1970.32 326.806 3006
-1973.58 328.546 3022
-1970.26 329.198 3028
-1973.39 330.937 3044
-1966.11 330.937 3044
-1958.84 330.937 3044
-1951.56 330.937 3044
-1944.28 330.937 3044
-1930 329.741 3033
-1947.47 333.981 3072
-1958.44 337.134 3101
-1951.02 337.134 3101
-1954.26 338.982 3118
-1946.81 338.982 3118
-1939.35 338.982 3118
-2052.39 368.662 3391
-2044.28 368.662 3391
-2036.17 368.662 3391
-2019.69 367.14 3377
-2011.62 367.14 3377
-2024.3 370.946 3412
-2016.15 370.946 3412
-2020.35 373.229 3433
-2020.34 374.751 3447
-2012.1 374.751 3447
-2003.86 374.751 3447
-1995.61 374.751 3447
-1991.41 375.512 3454
-1991.18 377.034 3468
-1982.89 377.034 3468
-1979.15 377.904 3476
-1974.81 378.665 3483
-1966.48 378.665 3483
-1958.15 378.665 3483
-1962.14 381.056 3505
-1957.66 381.817 3512
-1949.26 381.817 3512
-1940.86 381.817 3512
-1936.87 382.687 3520
-1932.28 383.448 3527
-1927.67 384.209 3534
-1919.22 384.209 3534
-1915.09 385.079 3542
-1914.7 386.71 3557
-1910.48 387.579 3565
-1901.95 387.579 3565
-1901.4 389.21 3580
-1897.06 390.08 3588
-1892.17 390.841 3595
-1883.57 390.841 3595
-1883.32 392.58 3611
-1878.84 393.45 3619
-1882.07 395.951 3642
-1873.36 395.951 3642
-1877.45 398.669 3667
-1872.76 399.538 3675
-1872.09 401.278 3691
-1863.26 401.278 3691
-1858.45 402.148 3699
-1853.61 403.017 3707
-1853.2 404.866 3724
-1844.3 404.866 3724
-1851.66 408.453 3757
-1863.76 413.128 3800
-1876.15 417.912 3844
-1866.96 417.912 3844
-1866.47 419.869 3862
-1861.56 420.847 3871
-1865.22 423.782 3898
-1855.9 423.782 3898
-1868.37 428.784 3944
-1858.94 428.784 3944
-1853.73 429.762 3953
-1844.28 429.762 3953
-1834.82 429.762 3953
-1834.14 431.828 3972
-1824.64 431.828 3972
-1815.15 431.828 3972
-1818.83 434.98 4001
-1826.45 439.112 4039
-1816.79 439.112 4039
-1807.13 439.112 4039
-1797.47 439.112 4039
-1783.83 438.133 4030
-1774.19 438.133 4030
-1739.16 431.828 3972
-1662.6 415.085 3818
-1605.4 403.017 3707
-1565.53 395.19 3635
-1556.83 395.19 3635
-1537.92 392.58 3611
-1512.77 388.34 3572
-1491.59 385.079 3542
-1483.12 385.079 3542
-1447.17 377.904 3476
-1429.76 375.512 3454
-1404.21 370.946 3412
-1396.05 370.946 3412
-1367.96 365.618 3363
-1359.92 365.618 3363
-1346.65 364.205 3350
-1338.64 364.205 3350
-1330.63 364.205 3350
-1314.72 362.031 3330
-1296.16 359.095 3303
-1273.44 354.964 3265
-1265.64 354.964 3265
-1245.5 351.485 3233
-1223.61 347.462 3196
-1204.55 344.201 3166
-1196.98 344.201 3166
-1178.14 340.939 3136
-1163.92 338.982 3118
-1152.38 337.787 3107
-1144.95 337.787 3107
-1114.46 330.937 3044
-1101.36 329.198 3028
-1094.12 329.198 3028
-1088.67 329.741 3033
-1087.48 331.59 3050
-1080.19 331.59 3050
-1078.87 333.438 3067
-1071.54 333.438 3067
-1064.2 333.438 3067
-1056.87 333.438 3067
-1045.43 332.133 3055
-1034.39 330.937 3044
-1027.11 330.937 3044
-1016.14 329.741 3033
-1007.23 329.198 3028
-992.721 326.806 3006
-985.533 326.806 3006
-978.344 326.806 3006
-964.049 324.414 2984
-956.913 324.414 2984
-949.777 324.414 2984
-914.604 329.741 3033
-909.146 330.394 3039
-901.879 330.394 3039
-894.612 330.394 3039
-887.344 330.394 3039
-880.077 330.394 3039
-867.928 328.546 3022
-857.568 327.35 3011
-844.437 325.067 2990
-837.287 325.067 2990
-825.695 323.327 2974
-811.151 320.392 2947
-801.376 319.305 2937
-791.648 318.217 2927
-784.648 318.217 2927
-777.649 318.217 2927
-773.283 319.305 2937
-766.259 319.305 2937
-759.236 319.305 2937
-752.213 319.305 2937
-743.921 318.761 2932
-735.653 318.217 2927
-728.654 318.217 2927
-720.422 317.674 2922
-709.528 315.934 2906
-700.161 314.847 2896
-693.236 314.847 2896
-682.756 313.216 2881
-673.52 312.129 2871
-667.816 312.673 2876
-660.939 312.673 2876
-654.061 312.673 2876
-650.559 314.304 2891
-646.986 315.934 2906
-641.138 316.478 2911
-634.177 316.478 2911
-627.216 316.478 2911
-619.189 315.934 2906
-614.557 317.13 2917
-607.582 317.13 2917
-601.636 317.674 2922
-600.957 321.044 2953
-593.896 321.044 2953
-586.834 321.044 2953
-580.755 321.588 2958
-580.857 325.61 2995
-576.76 327.35 3011
-569.56 327.35 3011
-571.698 332.786 3061
-572.859 337.787 3107
-565.43 337.787 3107
-558 337.787 3107
-551.456 338.33 3112
-544.014 338.33 3112
-536.573 338.33 3112
-529.126 428.784 3944
-520.88 429.762 3953
-513.886 431.828 3972
-515.435 441.286 4059
-505.729 441.286 4059
-496.022 441.286 4059
-486.316 441.286 4059
-476.61 441.286 4059
-464.603 439.112 4039
-451.678 435.959 4010
-441.097 434.98 4001
-431.529 434.98 4001
-421.961 434.98 4001
-412.394 434.98 4001
-402.826 434.98 4001
-393.259 434.98 4001
-383.691 434.98 4001
-372.347 432.915 3982
-361.093 430.849 3963
-349.931 428.784 3944
-340.5 428.784 3944
-331.068 428.784 3944
-320.903 427.805 3935
-309.989 425.739 3916
-300.625 425.739 3916
-290.591 424.761 3907
-281.248 424.761 3907
-271.906 424.761 3907
-262.563 424.761 3907
-141.355 237.114 2181
-135.577 236.135 2172
-129.903 235.266 2164
-124.728 235.266 2164
-119.554 235.266 2164
-114.379 235.266 2164
-109.204 235.266 2164
-103.885 234.939 2161
-98.7176 234.939 2161
-93.5499 234.939 2161
-88.2596 234.613 2158
-83.2147 234.939 2161
-78.1555 235.266 2164
-72.9807 235.266 2164
-67.8059 235.266 2164
-62.6311 235.266 2164
-57.4564 235.266 2164
-52.2816 235.266 2164
-47.1721 235.592 2167
-41.9901 235.592 2167
-36.8422 235.809 2169
-31.6554 235.809 2169
-26.5053 236.135 2172
-21.3408 236.461 2175
-16.1397 236.461 2175
-10.9387 236.461 2175
-5.74549 236.788 2178
-0.537969 237.114 2181
4.6839 237.44 2184
9.9065 237.44 2184
15.143 237.657 2186
20.3983 237.984 2189
25.6329 237.984 2189
30.8674 237.984 2189
36.102 237.984 2189
41.3366 237.984 2189
46.6349 238.31 2192
51.8767 238.31 2192
57.1184 238.31 2192
62.2748 237.984 2189
67.5094 237.984 2189
72.7439 237.984 2189
77.8716 237.657 2186
83.023 237.44 2184
88.1244 237.114 2181
93.3398 237.114 2181
98.4197 236.788 2178
103.485 236.461 2175
108.536 236.135 2172
113.73 236.135 2172
118.924 236.135 2172
123.947 235.809 2169
129.014 235.592 2167
134.196 235.592 2167
139.378 235.592 2167
144.694 235.809 2169
149.88 235.809 2169
155.067 235.809 2169
160.254 235.809 2169
165.441 235.809 2169
170.234 235.266 2164
175.409 235.266 2164
180.584 235.266 2164
185.758 235.266 2164
190.668 234.939 2161
195.836 234.939 2161
201.004 234.939 2161
206.171 234.939 2161
211.339 234.939 2161
217.108 235.592 2167
222.29 235.592 2167
227.471 235.592 2167
232.653 235.592 2167
237.835 235.592 2167
243.017 235.592 2167
248.199 235.592 2167
252.68 234.939 2161
257.489 234.613 2158
262.65 234.613 2158
267.438 234.287 2155
272.591 234.287 2155
278.518 234.939 2161
283.685 234.939 2161
288.853 234.939 2161
294.021 234.939 2161
440.867 334.634 3078
448.227 334.634 3078
455.587 334.634 3078
462.948 334.634 3078
468.628 333.438 3067
475.962 333.438 3067
478.884 330.394 3039
484.391 329.198 3028
487.086 326.154 3000
494.26 326.154 3000
500.598 325.61 2995
505.047 323.871 2979
512.171 323.871 2979
519.295 323.871 2979
526.418 323.871 2979
533.542 323.871 2979
540.666 323.871 2979
546.87 323.327 2974
553.982 323.327 2974
559.018 322.131 2963
565.148 321.588 2958
571.255 321.044 2953
578.316 321.044 2953
585.378 321.044 2953
591.235 320.392 2947
598.283 320.392 2947
605.33 320.392 2947
610.299 319.305 2937
617.322 319.305 2937
624.345 319.305 2937
631.369 319.305 2937
638.392 319.305 2937
644.316 318.761 2932
651.328 318.761 2932
658.339 318.761 2932
665.35 318.761 2932
671.215 318.217 2927
677.056 317.674 2922
684.043 317.674 2922
691.031 317.674 2922
698.018 317.674 2922
705.005 317.674 2922
711.993 317.674 2922
718.98 317.674 2922
725.968 317.674 2922
732.955 317.674 2922
739.942 317.674 2922
746.93 317.674 2922
753.917 317.674 2922
760.904 317.674 2922
767.892 317.674 2922
774.879 317.674 2922
781.867 317.674 2922
788.854 317.674 2922
795.841 317.674 2922
802.829 317.674 2922
809.816 317.674 2922
815.406 317.13 2917
822.381 317.13 2917
827.651 316.478 2911
834.612 316.478 2911
840.128 315.934 2906
847.077 315.934 2906
855.495 316.478 2911
862.456 316.478 2911
869.417 316.478 2911
876.378 316.478 2911
883.34 316.478 2911
890.301 316.478 2911
897.262 316.478 2911
910.746 318.761 2932
920.887 319.848 2942
953.155 328.546 3022
960.381 328.546 3022
973.051 330.394 3039
980.318 330.394 3039
987.586 330.394 3039
994.853 330.394 3039
1270.63 395.951 3642
1282.15 396.82 3650
1293.71 397.69 3658
1302.46 397.69 3658
1311.21 397.69 3658
1328.97 400.408 3683
1343.59 402.148 3699
1352.44 402.148 3699
1382.63 408.453 3757
1391.61 408.453 3757
1400.6 408.453 3757
1409.58 408.453 3757
1418.57 408.453 3757
1418.05 405.735 3732
1426.97 405.735 3732
1426.28 403.017 3707
1413.08 396.82 3650
1415.96 395.19 3635
1424.65 395.19 3635
1430.19 394.32 3627
1426.17 390.841 3595
1428.78 389.21 3580
1418.87 384.209 3534
1427.32 384.209 3534
1420.74 380.187 3497
1405.81 373.99 3440
1405.41 371.707 3419
1413.58 371.707 3419
1410.11 368.662 3391
1395.64 362.792 3337
1383.85 357.682 3290
1373.1 352.898 3246
1402.56 358.443 3297
1410.45 358.443 3297
1423.92 359.856 3310
1440.49 362.031 3330
1462.81 365.618 3363
1470.85 365.618 3363
1494.28 369.424 3398
1514.79 372.468 3426
1522.98 372.468 3426
1531.17 372.468 3426
