1987.36 412.758 2762
1993.96 412.758 2762
1994.05 411.413 2753
1987.55 408.723 2735
1994.09 408.723 2735
2007.21 410.068 2744
2013.78 410.068 2744
2020.34 410.068 2744
2026.9 410.068 2744
2033.46 410.068 2744
2019.95 406.033 2717
2026.45 406.033 2717
2039.68 407.378 2726
2049.2 407.975 2730
2055.73 407.975 2730
2075.85 410.665 2748
2086.21 411.413 2753
2092.8 411.413 2753
2099.38 411.413 2753
2105.96 411.413 2753
-2157.08 437.443 2881
-2150.19 437.443 2881
-2143.3 437.443 2881
-2111.19 432.28 2847
-2100.69 431.521 2842
-2108.63 434.558 2862
-2101.79 434.558 2862
-2094.94 434.558 2862
-2088.1 434.558 2862
-2066.71 431.521 2842
-2059.91 431.521 2842
-2053.12 431.521 2842
-2046.32 431.521 2842
-2029.48 429.395 2828
-2022.72 429.395 2828
-2002.41 426.51 2809
-1998.53 427.118 2813
-2008.8 430.762 2837
-2002.02 430.762 2837
-1995.23 430.762 2837
-1988.45 430.762 2837
-1978.17 430.003 2832
-1971.4 430.003 2832
-1958.38 428.636 2823
-1955.09 429.395 2828
-1948.33 429.395 2828
-1941.57 429.395 2828
-1934.8 429.395 2828
-1928.04 429.395 2828
-1921.28 429.395 2828
-1914.51 429.395 2828
-1907.75 429.395 2828
-1903.68 430.003 2832
-1900.26 430.762 2837
-1896.81 431.521 2842
-1890.01 431.521 2842
-1893.16 433.799 2857
-1889.62 434.558 2862
-1885.41 435.165 2866
-1878.56 435.165 2866
-1871.71 435.165 2866
-1868.11 435.924 2871
-1864.48 436.683 2876
-1857.6 436.683 2876
-1860.38 438.961 2891
-1859.88 440.479 2901
-1856.13 441.239 2906
-1849.18 441.239 2906
-1865.06 446.705 2942
-1864.97 448.375 2953
-1881.19 453.993 2990
-1874.04 453.993 2990
-1866.89 453.993 2990
-1859.74 453.993 2990
-1852.59 453.993 2990
-1835.56 451.563 2974
-1838.29 453.993 2990
-1861.15 461.433 3039
-1860.59 463.103 3050
-1853.29 463.103 3050
-1862.95 467.355 3078
-1859.2 468.266 3084
-1851.83 468.266 3084
-1844.46 468.266 3084
-1843.63 469.936 3095
-1878.36 480.716 3166
-1884.97 484.36 3190
-1877.34 484.36 3190
-1891.4 489.978 3227
-1898.27 493.774 3252
-1890.5 493.774 3252
-1893.72 496.659 3271
-1912.42 503.644 3317
-1930.9 510.628 3363
-1922.86 510.628 3363
-1946.7 519.131 3419
-1950.43 522.32 3440
-1946.16 523.382 3447
-1937.91 523.382 3447
-1929.67 523.382 3447
-1933.13 526.571 3468
-1933.17 528.849 3483
-1924.84 528.849 3483
-1924.21 530.974 3497
-1924.07 533.252 3512
-1920.03 534.467 3520
-1911.62 534.467 3520
-1903.2 534.467 3520
-1898.55 535.529 3527
-1898.15 537.807 3542
-1889.68 537.807 3542
-1881.21 537.807 3542
-1872.74 537.807 3542
-1867.96 538.87 3549
-1859.47 538.87 3549
-1850.98 538.87 3549
-1846.65 540.085 3557
-1850.03 543.577 3580
-1841.47 543.577 3580
-1832.91 543.577 3580
-1828.42 544.791 3588
-1823.39 545.854 3595
-1814.8 545.854 3595
-1810.22 547.069 3603
-1801.6 547.069 3603
-1792.99 547.069 3603
-1784.37 547.069 3603
-1775.76 547.069 3603
-1774.99 549.498 3619
-1770.24 550.713 3627
-1761.57 550.713 3627
-1760.14 552.991 3642
-1759.13 555.42 3658
-1758.51 558.001 3675
-1749.73 558.001 3675
-1760.36 564.227 3716
-1770.8 570.452 3757
-1769.79 573.033 3774
-1760.76 573.033 3774
-1760.09 575.766 3792
-1751.02 575.766 3792
-1741.96 575.766 3792
-1721.01 571.818 3766
-1707.91 570.452 3757
-1698.93 570.452 3757
-1705.69 575.766 3792
-1696.62 575.766 3792
-1687.55 575.766 3792
-1678.48 575.766 3792
-1650.48 569.237 3749
-1641.52 569.237 3749
-1628.63 567.871 3740
-1609.3 564.227 3716
-1579.31 556.787 3667
-1570.54 556.787 3667
-1541.33 549.498 3619
-1519.54 544.791 3588
-1497.91 540.085 3557
-1489.4 540.085 3557
-1465.49 534.467 3520
-1450.87 532.189 3505
-1430.55 527.786 3476
-1422.24 527.786 3476
-1404.98 524.445 3454
-1393.89 523.382 3447
-1374.39 519.131 3419
-1366.21 519.131 3419
-1338.57 511.691 3370
-1306.83 502.581 3310
-1298.91 502.581 3310
-1288.27 501.518 3303
-1280.37 501.518 3303
-1270.16 500.607 3297
-1257.3 498.633 3284
-1242.21 495.748 3265
-1234.41 495.748 3265
-1219.46 492.863 3246
-1204.61 489.978 3227
-1176.49 481.627 3172
-1168.91 481.627 3172
-1154.73 478.894 3154
-1138.46 475.25 3130
-1128.81 474.339 3124
-1121.34 474.339 3124
-1111.73 473.428 3118
-1102.14 472.517 3112
-1094.7 472.517 3112
-1087.26 472.517 3112
-1068.02 467.355 3078
-1051.01 463.103 3050
-857.008 431.521 2842
-850.211 431.521 2842
-844.899 432.28 2847
-838.091 432.28 2847
-844.13 438.961 2891
-837.217 438.961 2891
-830.304 438.961 2891
-823.391 438.961 2891
-812.241 436.683 2876
-806.764 437.443 2881
-802.651 438.961 2891
-795.738 438.961 2891
-790.189 439.72 2896
-783.263 439.72 2896
-777.679 440.479 2901
-770.741 440.479 2901
-766.437 441.998 2911
-759.476 441.998 2911
-752.515 441.998 2911
-745.554 441.998 2911
-738.593 441.998 2911
-731.632 441.998 2911
-728.654 444.427 2927
-721.654 444.427 2927
-714.655 444.427 2927
-707.656 444.427 2927
-700.656 444.427 2927
-693.657 444.427 2927
-682.904 441.998 2911
-683.141 446.705 2942
-682.081 450.652 2968
-674.984 450.652 2968
-678.913 458.092 3017
-672.812 458.852 3022
-666.907 459.763 3028
-659.666 459.763 3028
-654.795 461.433 3039
-653.494 465.684 3067
-653.323 470.847 3101
-645.907 470.847 3101
-643.228 474.339 3124
-636.978 475.25 3130
-630.7 476.161 3136
-623.201 476.161 3136
-615.702 476.161 3136
-607.039 475.25 3130
-599.554 475.25 3130
-592.07 475.25 3130
-585.705 476.161 3136
-582.631 479.805 3160
-579.442 483.449 3184
-571.829 483.449 3184
-565.278 484.36 3190
-558.698 485.271 3196
-553.125 487.093 3208
-545.454 487.093 3208
-540.967 489.978 3227
-537.382 493.774 3252
-531.722 495.748 3265
-523.915 495.748 3265
-516.107 495.748 3265
-508.3 495.748 3265
-539.581 534.467 3520
-531.164 534.467 3520
-527.053 538.87 3549
-524.265 544.791 3588
-522.44 551.928 3635
-513.747 551.928 3635
-506.028 552.991 3642
-497.319 552.991 3642
-488.609 552.991 3642
-479.9 552.991 3642
-471.191 552.991 3642
-462.482 552.991 3642
-455.766 555.42 3658
-447.019 555.42 3658
-439.35 556.787 3667
-433.399 560.431 3691
-426.413 562.86 3707
-417.549 562.86 3707
-408.684 562.86 3707
-400.79 564.227 3716
-393.592 566.656 3732
-384.667 566.656 3732
-375.743 566.656 3732
-369.276 570.452 3757
-361.155 571.818 3766
-352.149 571.818 3766
-343.144 571.818 3766
-334.138 571.818 3766
-325.132 571.818 3766
-316.127 571.818 3766
-307.773 573.033 3774
-303.577 582.295 3835
-295.788 585.028 3853
-286.575 585.028 3853
-278.009 586.395 3862
-271.279 591.861 3898
-263.772 595.961 3925
-254.386 595.961 3925
-245.001 595.961 3925
-236.755 598.845 3944
-227.324 598.845 3944
-218.39 600.212 3953
-208.937 600.212 3953
-199.484 600.212 3953
-104.029 328.575 2164
-98.8546 328.575 2164
-93.6798 328.575 2164
-88.505 328.575 2164
-83.2147 328.12 2161
-78.0471 328.12 2161
-72.8795 328.12 2161
-67.7119 328.12 2161
-62.5443 328.12 2161
-57.3767 328.12 2161
-51.9433 326.45 2150
-46.802 326.45 2150
-41.7189 326.905 2153
-36.5704 326.905 2153
-31.4219 326.905 2153
-26.2368 326.45 2150
-21.125 326.905 2153
-15.9765 326.905 2153
-10.828 326.905 2153
-5.67954 326.905 2153
-0.531062 326.905 2153
4.61741 326.905 2153
9.76589 326.905 2153
14.9144 326.905 2153
20.1374 328.12 2161
25.3401 328.575 2164
30.67 330.246 2175
35.8711 330.246 2175
41.0722 330.246 2175
46.3371 330.701 2178
51.8057 332.371 2189
57.0402 332.371 2189
62.3602 332.827 2192
67.6944 333.282 2195
73.043 333.738 2198
78.2991 333.738 2198
83.6692 334.193 2201
89.1749 335.104 2207
94.4525 335.104 2207
99.7301 335.104 2207
105.15 335.56 2210
110.435 335.56 2210
115.72 335.56 2210
121.005 335.56 2210
126.29 335.56 2210
131.396 335.104 2207
136.673 335.104 2207
141.951 335.104 2207
147.028 334.649 2204
151.884 333.738 2198
157.14 333.738 2198
162.396 333.738 2198
167.653 333.738 2198
173.381 334.649 2204
178.894 335.104 2207
184.172 335.104 2207
189.449 335.104 2207
194.727 335.104 2207
200.005 335.104 2207
205.282 335.104 2207
210.274 334.649 2204
216.62 336.319 2215
222.217 336.775 2218
228.444 338.141 2227
233.77 338.141 2227
240.706 340.419 2242
246.725 341.33 2248
252.101 341.33 2248
257.477 341.33 2248
459.822 449.893 2963
466.908 449.893 2963
474.793 450.652 2968
481.89 450.652 2968
488.988 450.652 2968
494.414 449.134 2958
499.622 447.464 2947
511.311 451.563 2974
521.212 453.993 2990
529.246 454.752 2995
536.408 454.752 2995
543.57 454.752 2995
550.732 454.752 2995
557.894 454.752 2995
565.056 454.752 2995
570.116 453.082 2984
578.412 453.993 2990
588.696 456.422 3006
595.884 456.422 3006
603.072 456.422 3006
610.26 456.422 3006
617.449 456.422 3006
624.637 456.422 3006
630.564 455.511 3000
637.738 455.511 3000
644.912 455.511 3000
648.608 453.082 2984
652.228 450.652 2968
659.325 450.652 2968
666.422 450.652 2968
672.385 449.893 2963
678.324 449.134 2958
685.397 449.134 2958
689.896 447.464 2947
696.943 447.464 2947
702.796 446.705 2942
709.831 446.705 2942
716.866 446.705 2942
723.901 446.705 2942
729.694 445.946 2937
736.718 445.946 2937
742.475 445.186 2932
749.486 445.186 2932
756.497 445.186 2932
762.207 444.427 2927
767.892 443.668 2922
774.879 443.668 2922
780.529 442.909 2917
787.504 442.909 2917
794.48 442.909 2917
801.455 442.909 2917
808.43 442.909 2917
815.406 442.909 2917
822.381 442.909 2917
829.357 442.909 2917
836.332 442.909 2917
843.308 442.909 2917
850.283 442.909 2917
855.495 441.998 2911
862.456 441.998 2911
869.417 441.998 2911
873.368 440.479 2901
878.788 439.72 2896
887.242 440.479 2901
894.179 440.479 2901
901.117 440.479 2901
917.757 445.186 2932
926.346 445.946 2937
933.369 445.946 2937
973.051 461.433 3039
987.415 464.773 3061
1028.86 480.716 3166
1036.43 480.716 3166
1053.89 485.271 3196
1067.51 488.004 3214
1094.27 496.659 3271
1102.09 496.659 3271
1125.52 503.644 3317
1170.7 520.194 3426
1198.5 528.849 3483
1206.83 528.849 3483
1228.07 534.467 3520
1241.41 536.592 3534
1249.86 536.592 3534
1258.31 536.592 3534
1266.76 536.592 3534
1283.51 540.085 3557
1297.46 542.362 3572
1306 542.362 3572
1320.43 544.791 3588
1337.53 548.284 3611
1346.17 548.284 3611
1354.8 548.284 3611
1363.44 548.284 3611
1372.07 548.284 3611
1380.71 548.284 3611
1389.34 548.284 3611
1397.98 548.284 3611
1400.38 545.854 3595
1408.98 545.854 3595
1405.74 541.299 3565
1401.97 536.592 3534
1401.64 533.252 3512
1389.56 525.508 3461
1397.84 525.508 3461
1383.37 517.005 3405
1371.89 509.717 3357
1371.7 506.68 3337
1379.68 506.68 3337
1376.43 502.581 3310
1378.91 500.607 3297
1386.79 500.607 3297
1389.18 498.633 3284
1397.03 498.633 3284
1404.88 498.633 3284
1412.74 498.633 3284
1420.59 498.633 3284
1428.44 498.633 3284
1436.3 498.633 3284
1446.79 499.544 3290
1457.75 500.607 3297
1468.3 501.518 3303
1476.2 501.518 3303
1487.24 502.581 3310
1495.16 502.581 3310
1503.07 502.581 3310
1507.79 501.518 3303
1515.69 501.518 3303
1520.82 500.607 3297
1528.71 500.607 3297
1524.47 496.659 3271
1523.4 493.774 3252
1525.05 491.8 3239
1518.13 487.093 3208
1525.8 487.093 3208
1519.13 482.538 3178
1509.43 477.072 3142
1491.36 469.025 3089
1498.75 469.025 3089
1487.12 463.103 3050
1478.24 458.092 3017
1458.87 449.893 2963
1455.56 446.705 2942
1462.6 446.705 2942
1451.65 441.239 2906
1451.07 438.961 2891
1450.42 436.683 2876
1457.3 436.683 2876
1459.08 435.165 2866
1465.94 435.165 2866
1468.17 433.799 2857
1475 433.799 2857
1481.83 433.799 2857
1483.45 432.28 2847
1487.64 431.521 2842
1491.81 430.762 2837
1498.59 430.762 2837
1505.38 430.762 2837
1509.5 430.003 2832
1516.27 430.003 2832
1523.04 430.003 2832
1529.81 430.003 2832
1534.41 429.395 2828
1535.73 427.877 2818
1542.47 427.877 2818
1549.2 427.877 2818
1553.18 427.118 2813
1554.92 425.751 2804
1561.62 425.751 2804
1568.33 425.751 2804
1575.03 425.751 2804
1581.74 425.751 2804
1588.44 425.751 2804
1597.99 426.51 2809
1604.71 426.51 2809
1611.43 426.51 2809
1618.15 426.51 2809
1624.86 426.51 2809
1631.58 426.51 2809
1640.63 427.118 2813
1647.36 427.118 2813
1657.02 427.877 2818
1663.76 427.877 2818
1670.5 427.877 2818
1677.24 427.877 2818
1686.97 428.636 2823
1693.72 428.636 2823
1700.47 428.636 2823
1707.22 428.636 2823
1713.97 428.636 2823
1720.72 428.636 2823
1727.47 428.636 2823
1731.15 427.877 2818
1737.89 427.877 2818
1744.63 427.877 2818
1751.36 427.877 2818
1758.1 427.877 2818
1764.84 427.877 2818
1771.58 427.877 2818
1775.16 427.118 2813
1781.89 427.118 2813
1779.72 424.992 2799
1786.41 424.992 2799
1793.1 424.992 2799
1796.58 424.233 2794
1803.26 424.233 2794
1809.94 424.233 2794
1816.62 424.233 2794
1823.31 424.233 2794
1827.37 423.625 2790
1834.04 423.625 2790
1840.71 423.625 2790
1844.07 422.866 2785
1847.41 422.107 2780
1854.06 422.107 2780
1860.7 422.107 2780
1867.35 422.107 2780
1874 422.107 2780
1877.94 421.5 2776
1884.58 421.5 2776
1891.22 421.5 2776
1891.7 420.133 2767
1898.32 420.133 2767
1907.69 420.741 2771
1914.32 420.741 2771
1920.94 420.741 2771
1924.79 420.133 2767
1927.91 419.374 2762
1934.52 419.374 2762
1941.12 419.374 2762
1944.2 418.615 2757
1954.33 419.374 2762
1960.94 419.374 2762
1967.54 419.374 2762
1974.15 419.374 2762
1980.75 419.374 2762
1987.36 419.374 2762
1993.96 419.374 2762
1994.05 418.008 2753
1987.55 415.274 2735
1994.09 415.274 2735
2007.21 416.641 2744
2013.78 416.641 2744
2020.34 416.641 2744
2026.9 416.641 2744
2033.46 416.641 2744
2019.95 412.541 2717
2026.45 412.541 2717
2032.94 412.541 2717
2039.44 412.541 2717
2045.94 412.541 2717
2062.26 414.515 2730
2075.6 415.882 2739
2085.96 416.641 2744
2092.52 416.641 2744
2099.08 416.641 2744
-2157.08 444.344 2881
-2150.19 444.344 2881
-2143.3 444.344 2881
-2111.19 439.1 2847
-2108.08 439.871 2852
-2108.63 441.414 2862
-2101.79 441.414 2862
-2094.94 441.414 2862
-2088.1 441.414 2862
-2066.71 438.329 2842
-2059.91 438.329 2842
-2053.12 438.329 2842
-2046.32 438.329 2842
-2029.48 436.17 2828
-2022.72 436.17 2828
-2005.26 433.856 2813
-2009.19 436.17 2828
-2012.34 438.329 2842
-2005.55 438.329 2842
-1998.75 438.329 2842
-1991.95 438.329 2842
-1981.66 437.558 2837
-1974.88 437.558 2837
-1961.85 436.17 2828
-1955.09 436.17 2828
-1948.33 436.17 2828
-1941.57 436.17 2828
-1934.8 436.17 2828
-1928.04 436.17 2828
-1921.28 436.17 2828
-1914.51 436.17 2828
-1907.75 436.17 2828
-1903.68 436.787 2832
-1900.26 437.558 2837
-1896.81 438.329 2842
-1890.01 438.329 2842
-1893.16 440.643 2857
-1889.62 441.414 2862
-1885.41 442.031 2866
-1878.56 442.031 2866
-1871.71 442.031 2866
-1868.11 442.802 2871
-1864.48 443.573 2876
-1857.6 443.573 2876
-1860.38 445.886 2891
-1859.88 447.429 2901
-1856.13 448.2 2906
-1849.18 448.2 2906
-1865.06 453.752 2942
-1864.97 455.449 2953
-1884.33 461.927 2995
-1877.17 461.927 2995
-1870.01 461.927 2995
-1862.85 461.927 2995
-1855.68 461.927 2995
-1848.52 461.927 2995
-1857.96 466.091 3022
-1867.88 470.409 3050
-1881.33 475.653 3084
-1873.95 475.653 3084
-1869.61 476.424 3089
-1865.84 477.35 3095
-1858.44 477.35 3095
-1851.03 477.35 3095
-1871.63 484.599 3142
-1892.59 492.002 3190
-1884.97 492.002 3190
-1895.58 496.783 3221
-1906.05 501.564 3252
-1909.36 504.495 3271
-1901.54 504.495 3271
-1920.35 511.59 3317
-1938.94 518.684 3363
-1950.99 524.082 3398
-1942.87 524.082 3398
-1958.66 530.56 3440
-1962.34 533.799 3461
-1958.01 534.879 3468
-1949.72 534.879 3468
-1941.43 534.879 3468
-1941.49 537.192 3483
-1949.26 541.665 3512
-1940.86 541.665 3512
-1932.47 541.665 3512
-1928.45 542.899 3520
-1920.03 542.899 3520
-1911.62 542.899 3520
-1903.2 542.899 3520
-1902.32 545.058 3534
-1898.15 546.292 3542
-1889.68 546.292 3542
-1881.21 546.292 3542
-1872.74 546.292 3542
-1867.96 547.371 3549
-1859.47 547.371 3549
-1850.98 547.371 3549
-1846.65 548.605 3557
-1850.03 552.153 3580
-1841.47 552.153 3580
-1832.91 552.153 3580
-1828.42 553.387 3588
-1823.39 554.466 3595
-1814.8 554.466 3595
-1810.22 555.7 3603
-1801.6 555.7 3603
-1792.99 555.7 3603
-1784.37 555.7 3603
-1775.76 555.7 3603
-1774.99 558.168 3619
-1770.24 559.402 3627
-1761.57 559.402 3627
-1760.14 561.715 3642
-1759.13 564.183 3658
-1758.51 566.805 3675
-1749.73 566.805 3675
-1760.36 573.128 3716
-1770.8 579.452 3757
-1769.79 582.074 3774
-1760.76 582.074 3774
-1760.09 584.85 3792
-1751.02 584.85 3792
-1741.96 584.85 3792
-1721.01 580.84 3766
-1707.91 579.452 3757
-1698.93 579.452 3757
-1705.69 584.85 3792
-1696.62 584.85 3792
-1687.55 584.85 3792
-1678.48 584.85 3792
-1650.48 578.218 3749
-1641.52 578.218 3749
-1628.63 576.83 3740
-1609.3 573.128 3716
-1579.31 565.571 3667
-1570.54 565.571 3667
-1541.33 558.168 3619
-1519.54 553.387 3588
-1497.91 548.605 3557
-1489.4 548.605 3557
-1465.49 542.899 3520
-1453.76 541.665 3512
-1433.43 537.192 3483
-1425.1 537.192 3483
-1407.82 533.799 3461
-1396.72 532.719 3454
-1374.39 527.321 3419
-1366.21 527.321 3419
-1338.57 519.764 3370
-1311.96 512.515 3323
-1298.91 510.51 3310
-1291 510.51 3310
-1283.08 510.51 3310
-1272.47 509.43 3303
-1259.59 507.425 3290
-1244.5 504.495 3271
-1236.68 504.495 3271
-1223.97 502.49 3258
-1206.85 498.634 3233
-1178.72 490.151 3178
-1171.12 490.151 3178
-1159.12 488.3 3166
-1147.19 486.45 3154
-1133.14 483.673 3136
-1125.64 483.673 3136
-1113.86 481.823 3124
-1104.27 480.897 3118
-1094.7 479.972 3112
-1087.26 479.972 3112
-1068.02 474.728 3078
-857.008 438.329 2842
-850.211 438.329 2842
-844.899 439.1 2847
-838.091 439.1 2847
-844.13 445.886 2891
-837.217 445.886 2891
-830.304 445.886 2891
-823.391 445.886 2891
-812.241 443.573 2876
-805.364 443.573 2876
-801.263 445.115 2886
-794.361 445.115 2886
-788.824 445.886 2891
-781.911 445.886 2891
-776.338 446.658 2896
-769.413 446.658 2896
-765.121 448.2 2906
-759.476 448.971 2911
-752.515 448.971 2911
-745.554 448.971 2911
-740.115 449.896 2917
-733.14 449.896 2917
-728.654 451.439 2927
-721.654 451.439 2927
-714.655 451.439 2927
-707.656 451.439 2927
-700.656 451.439 2927
-693.657 451.439 2927
-682.904 448.971 2911
-683.141 453.752 2942
-682.081 457.762 2968
-674.984 457.762 2968
-678.913 465.32 3017
-675.261 467.787 3033
-668.008 467.787 3033
-660.755 467.787 3033
-654.795 468.713 3039
-653.494 473.031 3067
-659.433 482.748 3130
-651.948 482.748 3130
-650.64 487.375 3160
-643.083 487.375 3160
-635.527 487.375 3160
-627.97 487.375 3160
-619.236 486.45 3154
-610.53 485.524 3148
-603.002 485.524 3148
-594.339 484.599 3142
-591.308 488.3 3166
-587.056 491.077 3184
-581.626 492.927 3196
-573.984 492.927 3196
-570.771 496.783 3221
-564.118 497.709 3227
-559.677 500.639 3246
-551.915 500.639 3246
-544.153 500.639 3246
-537.382 501.564 3252
-531.722 503.569 3265
-523.915 503.569 3265
-516.107 503.569 3265
-547.552 550.919 3572
-539.01 550.919 3572
-532.845 553.387 3588
-527.625 556.934 3611
-522.44 560.635 3635
-513.747 560.635 3635
-507.139 562.949 3650
-498.411 562.949 3650
-489.683 562.949 3650
-479.9 561.715 3642
-471.191 561.715 3642
-462.482 561.715 3642
-454.77 562.949 3650
-446.041 562.949 3650
-438.272 564.183 3658
-432.46 568.039 3683
-425.493 570.506 3699
-416.648 570.506 3699
-407.802 570.506 3699
-399.82 571.74 3707
-391.904 573.128 3716
-383.018 573.128 3716
-375.743 575.596 3732
-368.49 578.218 3749
-360.292 579.452 3757
-351.308 579.452 3757
-343.144 580.84 3766
-334.138 580.84 3766
-325.132 580.84 3766
-316.127 580.84 3766
-307.773 582.074 3774
-303.577 591.482 3835
-295.098 592.87 3844
-285.905 592.87 3844
-277.361 594.258 3853
-268.774 595.646 3862
-261.958 601.199 3898
-252.637 601.199 3898
-243.877 602.587 3907
-235.074 603.975 3916
-226.805 606.905 3935
-217.395 606.905 3935
-207.986 606.905 3935
-198.576 606.905 3935
-104.029 333.759 2164
-98.8546 333.759 2164
-93.6798 333.759 2164
-88.505 333.759 2164
-83.2147 333.297 2161
-78.1555 333.759 2164
-72.9807 333.759 2164
-67.8059 333.759 2164
-62.6311 333.759 2164
-57.4564 333.759 2164
-52.0158 332.063 2153
-46.8673 332.063 2153
-41.7189 332.063 2153
-36.5704 332.063 2153
-31.4219 332.063 2153
-26.2734 332.063 2153
-21.125 332.063 2153
-15.9765 332.063 2153
-10.828 332.063 2153
-5.68481 332.371 2155
-0.531556 332.371 2155
4.62814 332.834 2158
9.78857 332.834 2158
14.949 332.834 2158
20.1374 333.297 2161
25.3753 334.222 2167
30.67 335.456 2175
35.8711 335.456 2175
41.1855 336.381 2181
46.4647 336.844 2184
51.8057 337.615 2189
57.0402 337.615 2189
62.4455 338.541 2195
67.7869 339.003 2198
73.1427 339.466 2201
78.406 339.466 2201
83.6692 339.466 2201
89.2961 340.854 2210
94.5809 340.854 2210
99.8657 340.854 2210
105.15 340.854 2210
110.435 340.854 2210
115.72 340.854 2210
121.005 340.854 2210
126.29 340.854 2210
131.396 340.391 2207
136.673 340.391 2207
141.951 340.391 2207
147.028 339.929 2204
152.092 339.466 2201
157.355 339.466 2201
162.396 339.003 2198
167.653 339.003 2198
173.617 340.391 2207
178.894 340.391 2207
184.422 340.854 2210
189.707 340.854 2210
194.992 340.854 2210
200.277 340.854 2210
205.561 340.854 2210
210.56 340.391 2207
216.62 341.625 2215
222.518 342.551 2221
228.752 343.939 2230
234.085 343.939 2230
240.706 345.789 2242
246.725 346.715 2248
252.101 346.715 2248
257.477 346.715 2248
459.822 456.991 2963
466.908 456.991 2963
475.753 458.688 2974
482.864 458.688 2974
489.976 458.688 2974
494.414 456.22 2958
500.639 455.449 2953
510.28 457.762 2968
518.423 458.688 2974
528.362 461.155 2990
535.512 461.155 2990
543.57 461.927 2995
550.732 461.927 2995
557.894 461.927 2995
565.056 461.927 2995
570.116 460.23 2984
578.412 461.155 2990
588.696 463.623 3006
595.884 463.623 3006
603.072 463.623 3006
611.275 464.394 3011
618.476 464.394 3011
625.676 464.394 3011
631.825 463.623 3006
639.013 463.623 3006
646.202 463.623 3006
652.086 462.698 3000
652.228 457.762 2968
659.325 457.762 2968
666.422 457.762 2968
673.52 457.762 2968
679.471 456.991 2963
685.397 456.22 2958
689.896 454.523 2947
696.943 454.523 2947
702.796 453.752 2942
709.831 453.752 2942
716.866 453.752 2942
723.901 453.752 2942
729.694 452.981 2937
736.718 452.981 2937
743.741 452.981 2937
750.764 452.981 2937
757.787 452.981 2937
763.509 452.21 2932
767.892 450.668 2922
774.879 450.668 2922
780.529 449.896 2917
787.504 449.896 2917
794.48 449.896 2917
801.455 449.896 2917
808.43 449.896 2917
815.406 449.896 2917
822.381 449.896 2917
833.622 452.21 2932
840.633 452.21 2932
847.644 452.21 2932
854.655 452.21 2932
858.728 450.668 2922
865.715 450.668 2922
869.417 448.971 2911
876.378 448.971 2911
880.305 447.429 2901
887.242 447.429 2901
894.179 447.429 2901
902.67 448.2 2906
919.322 452.981 2937
958.517 468.713 3039
965.784 468.713 3039
983.617 473.803 3072
1011.61 483.673 3136
1038.61 492.927 3196
1046.25 492.927 3196
1059.83 495.704 3214
1073.82 498.634 3233
1109.66 511.59 3317
1117.59 511.59 3317
1127.55 512.515 3323
1173.09 529.48 3433
1198.5 537.192 3483
1206.83 537.192 3483
1225.28 541.665 3512
1241.41 545.058 3534
1249.86 545.058 3534
1258.31 545.058 3534
1266.76 545.058 3534
1280.62 547.371 3549
1294.92 549.839 3565
1303.44 549.839 3565
1314.55 550.919 3572
1331.61 554.466 3595
1343.19 555.7 3603
1351.8 555.7 3603
1363.44 556.934 3611
1372.07 556.934 3611
1380.71 556.934 3611
1389.34 556.934 3611
1397.98 556.934 3611
1397.65 553.387 3588
1406.23 553.387 3588
1402.59 548.605 3557
1401.97 545.058 3534
1398.85 540.585 3505
1389.56 533.799 3461
1397.84 533.799 3461
1380.52 524.082 3398
1371.89 517.759 3357
1371.7 514.674 3337
1379.68 514.674 3337
1376.43 510.51 3310
1378.91 508.505 3297
1386.79 508.505 3297
1389.18 506.5 3284
1397.03 506.5 3284
1402.32 505.574 3278
1410.16 505.574 3278
1417.99 505.574 3278
1425.83 505.574 3278
1433.67 505.574 3278
1444.15 506.5 3284
1454.66 507.425 3290
1465.63 508.505 3297
1473.52 508.505 3297
1484.1 509.43 3303
1492 509.43 3303
1499.9 509.43 3303
1505.05 508.505 3297
1512.94 508.505 3297
1514.83 506.5 3284
1522.68 506.5 3284
1524.47 504.495 3271
1523.4 501.564 3252
1525.05 499.559 3239
1518.13 494.778 3208
1525.8 494.778 3208
1522 491.077 3184
1512.32 485.524 3148
1491.36 476.424 3089
1498.75 476.424 3089
1487.12 470.409 3050
1480.69 466.091 3022
1464.28 458.688 2974
1461.01 455.449 2953
1468.07 455.449 2953
1457.15 449.896 2917
1451.07 445.886 2891
1450.42 443.573 2876
1457.3 443.573 2876
1459.08 442.031 2866
1465.94 442.031 2866
1468.17 440.643 2857
1475 440.643 2857
1481.83 440.643 2857
1483.45 439.1 2847
1487.64 438.329 2842
1494.44 438.329 2842
1501.23 438.329 2842
1505.38 437.558 2837
1512.16 437.558 2837
1516.27 436.787 2832
1523.04 436.787 2832
1529.81 436.787 2832
1534.41 436.17 2828
1535.73 434.627 2818
1542.47 434.627 2818
1549.2 434.627 2818
1553.18 433.856 2813
1554.92 432.468 2804
1561.62 432.468 2804
1568.33 432.468 2804
1575.03 432.468 2804
1581.74 432.468 2804
1588.44 432.468 2804
1595.15 432.468 2804
1601.85 432.468 2804
1608.56 432.468 2804
1618.15 433.239 2809
1624.86 433.239 2809
1631.58 433.239 2809
1638.3 433.239 2809
1647.36 433.856 2813
1654.08 433.856 2813
1660.81 433.856 2813
1667.54 433.856 2813
1677.24 434.627 2818
1683.98 434.627 2818
1690.72 434.627 2818
1697.46 434.627 2818
1707.22 435.399 2823
1713.97 435.399 2823
1720.72 435.399 2823
1724.41 434.627 2818
1731.15 434.627 2818
1734.8 433.856 2813
1741.53 433.856 2813
1748.26 433.856 2813
1754.98 433.856 2813
1761.71 433.856 2813
1768.44 433.856 2813
1775.16 433.856 2813
1779.36 433.239 2809
1779.72 431.697 2799
1786.41 431.697 2799
1793.1 431.697 2799
1796.58 430.926 2794
1803.26 430.926 2794
1809.94 430.926 2794
1816.62 430.926 2794
1823.31 430.926 2794
1827.37 430.309 2790
1834.04 430.309 2790
1840.71 430.309 2790
1844.07 429.538 2785
1847.41 428.767 2780
1854.06 428.767 2780
1860.7 428.767 2780
1867.35 428.767 2780
1874 428.767 2780
1877.94 428.15 2776
1884.58 428.15 2776
1891.22 428.15 2776
1891.7 426.762 2767
1898.32 426.762 2767
1907.69 427.379 2771
1914.32 427.379 2771
1920.94 427.379 2771
1924.79 426.762 2767
1927.91 425.99 2762
1934.52 425.99 2762
1941.12 425.99 2762
1944.2 425.219 2757
1954.33 425.99 2762
1960.94 425.99 2762
1967.54 425.99 2762
1974.15 425.99 2762
1980.75 425.99 2762
1987.36 425.99 2762
1993.96 425.99 2762
1994.05 424.602 2753
1990.46 422.443 2739
1997.01 422.443 2739
2007.21 423.214 2744
2013.78 423.214 2744
2020.34 423.214 2744
2026.9 423.214 2744
2033.46 423.214 2744
2022.92 419.667 2721
2026.45 419.05 2717
2032.94 419.05 2717
2039.44 419.05 2717
2045.94 419.05 2717
2059.23 420.438 2726
2075.6 422.443 2739
2082.15 422.443 2739
2088.7 422.443 2739
2095.25 422.443 2739
-2157.08 451.246 2881
-2150.19 451.246 2881
-2143.3 451.246 2881
-2111.19 445.92 2847
-2108.08 446.703 2852
-2108.63 448.27 2862
-2101.79 448.27 2862
-2094.94 448.27 2862
-2088.1 448.27 2862
-2066.71 445.137 2842
-2059.91 445.137 2842
-2053.12 445.137 2842
-2046.32 445.137 2842
-2029.48 442.944 2828
-2022.72 442.944 2828
-2005.26 440.595 2813
-2009.19 442.944 2828
-2012.34 445.137 2842
-2005.55 445.137 2842
-1998.75 445.137 2842
-1991.95 445.137 2842
-1981.66 444.354 2837
-1974.88 444.354 2837
-1961.85 442.944 2828
-1955.09 442.944 2828
-1948.33 442.944 2828
-1941.57 442.944 2828
-1934.8 442.944 2828
-1928.04 442.944 2828
-1921.28 442.944 2828
-1914.51 442.944 2828
-1907.75 442.944 2828
-1903.68 443.571 2832
-1896.91 443.571 2832
-1896.81 445.137 2842
-1890.01 445.137 2842
-1889.84 446.703 2852
-1886.32 447.486 2857
-1882.78 448.27 2862
-1875.94 448.27 2862
-1869.09 448.27 2862
-1862.25 448.27 2862
-1861.24 449.679 2871
-1854.37 449.679 2871
-1860.38 452.812 2891
-1856.67 453.595 2896
-1856.13 455.161 2906
-1849.18 455.161 2906
-1865.06 460.8 2942
-1864.97 462.523 2953
-1884.33 469.101 2995
-1877.17 469.101 2995
-1870.01 469.101 2995
-1862.85 469.101 2995
-1855.68 469.101 2995
-1848.52 469.101 2995
-1857.96 473.33 3022
-1867.88 477.716 3050
-1881.33 483.041 3084
-1873.95 483.041 3084
-1869.61 483.824 3089
-1865.84 484.764 3095
-1858.44 484.764 3095
-1851.03 484.764 3095
-1871.63 492.125 3142
-1892.59 499.644 3190
-1884.97 499.644 3190
-1895.58 504.499 3221
-1906.05 509.355 3252
-1909.36 512.331 3271
-1901.54 512.331 3271
-1920.35 519.535 3317
-1938.94 526.74 3363
-1950.99 532.222 3398
-1942.87 532.222 3398
-1958.66 538.801 3440
-1962.34 542.09 3461
-1958.01 543.186 3468
-1949.72 543.186 3468
-1941.43 543.186 3468
-1941.49 545.536 3483
-1949.26 550.078 3512
-1940.86 550.078 3512
-1932.47 550.078 3512
-1928.45 551.331 3520
-1920.03 551.331 3520
-1911.62 551.331 3520
-1903.2 551.331 3520
-1902.32 553.524 3534
-1898.15 554.777 3542
-1889.68 554.777 3542
-1881.21 554.777 3542
-1872.74 554.777 3542
-1864.27 554.777 3542
-1855.8 554.777 3542
-1850.98 555.873 3549
-1846.65 557.126 3557
-1845.9 559.476 3572
-1837.35 559.476 3572
-1832.91 560.729 3580
-1824.35 560.729 3580
-1819.84 561.982 3588
-1811.26 561.982 3588
-1806.2 563.078 3595
-1797.6 563.078 3595
-1789.01 563.078 3595
-1780.41 563.078 3595
-1771.81 563.078 3595
-1767.14 564.331 3603
-1762.43 565.584 3611
-1753.79 565.584 3611
-1752.89 568.09 3627
-1751.43 570.44 3642
-1750.38 572.946 3658
-1741.63 572.946 3658
-1748.52 578.114 3691
-1751.47 582.03 3716
-1753.84 585.789 3740
-1744.9 585.789 3740
-1743.85 588.452 3757
-1734.86 588.452 3757
-1725.88 588.452 3757
-1716.89 588.452 3757
-1704.27 587.199 3749
-1695.31 587.199 3749
-1697.59 591.114 3774
-1688.56 591.114 3774
-1679.54 591.114 3774
-1670.51 591.114 3774
-1650.48 587.199 3749
-1641.52 587.199 3749
-1625.15 584.536 3732
-1609.3 582.03 3716
-1579.31 574.355 3667
-1570.54 574.355 3667
-1544.73 568.09 3627
-1522.51 563.078 3595
-1497.91 557.126 3557
-1489.4 557.126 3557
-1468.41 552.427 3527
-1457.08 551.331 3520
-1439.19 547.728 3497
-1430.83 547.728 3497
-1410.67 543.186 3468
-1399.55 542.09 3461
-1377.2 536.608 3426
-1369.01 536.608 3426
-1341.35 528.933 3377
-1327.75 526.74 3363
-1304.01 520.475 3323
-1296.07 520.475 3323
-1288.12 520.475 3323
-1275.17 518.439 3310
-1267.25 518.439 3310
-1254.39 516.403 3297
-1246.51 516.403 3297
-1228.85 512.331 3271
-1216.18 510.294 3258
-1196.89 505.439 3227
-1189.17 505.439 3227
-1161.32 496.824 3172
-1151.55 495.885 3166
-1139.65 494.005 3154
-1132.1 494.005 3154
-1122.42 493.065 3148
-1110.64 491.186 3136
-1094.7 487.427 3112
-1087.26 487.427 3112
-1068.02 482.101 3078
-858.515 445.92 2847
-851.707 445.92 2847
-847.867 447.486 2857
-841.035 447.486 2857
-844.13 452.812 2891
-837.217 452.812 2891
-830.304 452.812 2891
-823.391 452.812 2891
-812.241 450.462 2876
-805.364 450.462 2876
-801.263 452.029 2886
-794.361 452.029 2886
-788.824 452.812 2891
-781.911 452.812 2891
-776.338 453.595 2896
-769.413 453.595 2896
-765.121 455.161 2906
-759.476 455.944 2911
-752.515 455.944 2911
-745.554 455.944 2911
-740.115 456.884 2917
-733.14 456.884 2917
-729.898 459.234 2932
-722.887 459.234 2932
-715.876 459.234 2932
-708.865 459.234 2932
-701.853 459.234 2932
-693.657 458.45 2927
-682.904 455.944 2911
-683.141 460.8 2942
-682.081 464.872 2968
-674.984 464.872 2968
-678.913 472.547 3017
-675.261 475.053 3033
-668.008 475.053 3033
-660.755 475.053 3033
-654.795 475.993 3039
-653.494 480.378 3067
-659.433 490.246 3130
-651.948 490.246 3130
-650.64 494.945 3160
-643.083 494.945 3160
-643.974 501.523 3202
-636.317 501.523 3202
-628.66 501.523 3202
-618.676 499.644 3190
-611.047 499.644 3190
-598.879 495.885 3166
-596.911 500.583 3196
-589.269 500.583 3196
-581.626 500.583 3196
-573.984 500.583 3196
-570.771 504.499 3221
-564.118 505.439 3227
-559.677 508.415 3246
-551.915 508.415 3246
-577.848 539.897 3447
-570.762 540.993 3454
-567.225 545.536 3483
-558.896 545.536 3483
-556.416 551.331 3520
-556.094 559.476 3572
-550.005 561.982 3588
-541.425 561.982 3588
-535.072 564.331 3603
-527.625 565.584 3611
-524.596 571.693 3650
-515.867 571.693 3650
-507.139 571.693 3650
-498.411 571.693 3650
-489.683 571.693 3650
-480.954 571.693 3650
-471.191 570.44 3642
-462.482 570.44 3642
-454.77 571.693 3650
-446.041 571.693 3650
-438.272 572.946 3658
-432.46 576.861 3683
-425.493 579.367 3699
-416.648 579.367 3699
-407.802 579.367 3699
-399.82 580.62 3707
-391.904 582.03 3716
-383.018 582.03 3716
-375.743 584.536 3732
-368.49 587.199 3749
-360.292 588.452 3757
-351.308 588.452 3757
-343.144 589.861 3766
-334.848 591.114 3774
-325.823 591.114 3774
-316.798 591.114 3774
-309.241 593.934 3792
-303.577 600.669 3835
-295.098 602.078 3844
-285.905 602.078 3844
-278.009 604.898 3862
-269.4 606.307 3871
-261.958 610.536 3898
-252.637 610.536 3898
-243.877 611.946 3907
-235.074 613.356 3916
-226.805 616.332 3935
-217.395 616.332 3935
-207.986 616.332 3935
-198.576 616.332 3935
-104.558 340.666 2175
-99.3571 340.666 2175
-94.0261 340.196 2172
-88.6277 339.413 2167
-83.2147 338.473 2161
-78.1555 338.943 2164
-72.9807 338.943 2164
-67.8059 338.943 2164
-62.6311 338.943 2164
-57.4564 338.943 2164
-52.0641 337.534 2155
-46.8673 337.22 2153
-41.7576 337.534 2155
-36.6044 337.534 2155
-31.4511 337.534 2155
-26.2734 337.22 2153
-21.125 337.22 2153
-15.9913 337.534 2155
-10.8381 337.534 2155
-5.68481 337.534 2155
-0.532296 338.003 2158
4.62814 338.003 2158
9.78857 338.003 2158
14.949 338.003 2158
20.1653 338.943 2164
25.3753 339.413 2167
30.7546 341.606 2181
35.9701 341.606 2181
41.2421 342.076 2184
46.5073 342.389 2186
51.8767 343.329 2192
57.1184 343.329 2192
62.4455 343.799 2195
67.7869 344.269 2198
73.1427 344.738 2201
78.406 344.738 2201
83.7833 345.208 2204
89.2961 346.148 2210
94.5809 346.148 2210
99.8657 346.148 2210
105.15 346.148 2210
110.435 346.148 2210
115.72 346.148 2210
121.005 346.148 2210
126.29 346.148 2210
131.396 345.678 2207
136.673 345.678 2207
141.951 345.678 2207
147.028 345.208 2204
152.092 344.738 2201
157.355 344.738 2201
162.396 344.269 2198
167.653 344.269 2198
173.617 345.678 2207
178.894 345.678 2207
184.422 346.148 2210
189.707 346.148 2210
194.992 346.148 2210
200.277 346.148 2210
205.561 346.148 2210
210.56 345.678 2207
216.62 346.931 2215
222.818 348.341 2224
228.752 349.281 2230
234.085 349.281 2230
241.35 352.1 2248
247.055 352.57 2251
252.437 352.57 2251
257.82 352.57 2251
459.822 464.089 2963
466.908 464.089 2963
475.753 465.812 2974
482.864 465.812 2974
489.976 465.812 2974
494.414 463.306 2958
501.487 463.306 2958
510.28 464.872 2968
519.295 466.595 2979
528.362 468.318 2990
535.512 468.318 2990
543.57 469.101 2995
550.732 469.101 2995
557.894 469.101 2995
565.056 469.101 2995
570.116 467.378 2984
578.412 468.318 2990
588.696 470.824 3006
595.884 470.824 3006
604.075 471.607 3011
611.275 471.607 3011
618.476 471.607 3011
625.676 471.607 3011
632.876 471.607 3011
640.076 471.607 3011
647.277 471.607 3011
653.39 470.824 3006
658.161 469.101 2995
659.325 464.872 2968
666.422 464.872 2968
673.52 464.872 2968
680.617 464.872 2968
686.556 464.089 2963
693.641 464.089 2963
700.727 464.089 2963
703.99 461.583 2947
711.037 461.583 2947
718.084 461.583 2947
725.132 461.583 2947
732.179 461.583 2947
739.226 461.583 2947
745.007 460.8 2942
752.042 460.8 2942
759.077 460.8 2942
764.811 460.017 2937
769.206 458.45 2927
776.205 458.45 2927
781.867 457.667 2922
790.204 458.45 2927
797.203 458.45 2927
804.203 458.45 2927
809.816 457.667 2922
815.406 456.884 2917
828.02 460.017 2937
836.465 460.8 2942
844.934 461.583 2947
851.981 461.583 2947
859.028 461.583 2947
863.136 460.017 2937
870.159 460.017 2937
872.703 457.667 2922
879.69 457.667 2922
883.34 455.944 2911
890.301 455.944 2911
895.721 455.161 2906
912.299 460.017 2937
925.896 463.306 2958
967.348 480.378 3067
974.682 480.378 3067
998.346 488.366 3118
1025.16 497.764 3178
1044.46 503.403 3214
1052.14 503.403 3214
1066.09 506.379 3233
1080.13 509.355 3252
1109.66 519.535 3317
1117.59 519.535 3317
1129.93 521.572 3330
1173.09 537.704 3433
1193.34 543.186 3468
1201.64 543.186 3468
1217.6 546.632 3490
1233.68 550.078 3512
1242.08 550.078 3512
1250.47 550.078 3512
1261.74 551.331 3520
1272.68 552.427 3527
1289.11 555.873 3549
1297.59 555.873 3549
1311.97 558.379 3565
1326.05 560.729 3580
1340.2 563.078 3595
1348.8 563.078 3595
1357.4 563.078 3595
1369.03 564.331 3603
1377.65 564.331 3603
1386.27 564.331 3603
1389.07 561.982 3588
1397.65 561.982 3588
1406.23 561.982 3588
1399.44 555.873 3549
1399.19 552.427 3527
1395.66 547.728 3497
1389.56 542.09 3461
1397.84 542.09 3461
1377.68 531.126 3391
1371.89 525.801 3357
1371.7 522.668 3337
1379.68 522.668 3337
1373.52 517.343 3303
1378.91 516.403 3297
1381.32 514.367 3284
1383.68 512.331 3271
1391.5 512.331 3271
1399.32 512.331 3271
1407.14 512.331 3271
1412.37 511.391 3265
1420.18 511.391 3265
1427.99 511.391 3265
1435.79 511.391 3265
1446.25 512.331 3271
1457.19 513.427 3278
1465.03 513.427 3278
1475.56 514.367 3284
1483.41 514.367 3284
1491.27 514.367 3284
1499.12 514.367 3284
1506.97 514.367 3284
1508.83 512.331 3271
1516.65 512.331 3271
1518.42 510.294 3258
1520.58 508.415 3246
1522.23 506.379 3233
1515.29 501.523 3202
1522.94 501.523 3202
1522 498.704 3184
1512.32 493.065 3148
1500.05 486.644 3107
1507.48 486.644 3107
1497.84 481.162 3072
1491.47 476.776 3044
1474.62 469.101 2995
1463.48 463.306 2958
1470.55 463.306 2958
1457.15 456.884 2917
1451.07 452.812 2891
1450.42 450.462 2876
1457.3 450.462 2876
1459.08 448.896 2866
1465.94 448.896 2866
1468.17 447.486 2857
1475 447.486 2857
1481.83 447.486 2857
1483.45 445.92 2847
1487.64 445.137 2842
1494.44 445.137 2842
1501.23 445.137 2842
1505.38 444.354 2837
1512.16 444.354 2837
1516.27 443.571 2832
1523.04 443.571 2832
1529.81 443.571 2832
1534.41 442.944 2828
1535.73 441.378 2818
1542.47 441.378 2818
1546.46 440.595 2813
1553.18 440.595 2813
1554.92 439.185 2804
1561.62 439.185 2804
1565.53 438.402 2799
1572.23 438.402 2799
1578.92 438.402 2799
1588.44 439.185 2804
1595.15 439.185 2804
1601.85 439.185 2804
1608.56 439.185 2804
1615.26 439.185 2804
1621.97 439.185 2804
1628.68 439.185 2804
1638.3 439.968 2809
1645.01 439.968 2809
1654.08 440.595 2813
1660.81 440.595 2813
1667.54 440.595 2813
1674.26 440.595 2813
1680.99 440.595 2813
1687.72 440.595 2813
1694.44 440.595 2813
1704.19 441.378 2818
1710.93 441.378 2818
1717.67 441.378 2818
1724.41 441.378 2818
1731.15 441.378 2818
1734.8 440.595 2813
1741.53 440.595 2813
1745.77 439.968 2809
1752.49 439.968 2809
1759.21 439.968 2809
1765.92 439.968 2809
1772.64 439.968 2809
1776.19 439.185 2804
1779.72 438.402 2799
1786.41 438.402 2799
1793.1 438.402 2799
1799.8 438.402 2799
1803.26 437.619 2794
1809.94 437.619 2794
1816.62 437.619 2794
1823.31 437.619 2794
1827.37 436.992 2790
1834.04 436.992 2790
1840.71 436.992 2790
1844.07 436.209 2785
1847.41 435.426 2780
1854.06 435.426 2780
1860.7 435.426 2780
1867.35 435.426 2780
1874 435.426 2780
1877.94 434.8 2776
1884.58 434.8 2776
1887.81 434.016 2771
1891.7 433.39 2767
1898.32 433.39 2767
1907.69 434.016 2771
1914.32 434.016 2771
1920.94 434.016 2771
1924.79 433.39 2767
1927.91 432.607 2762
1934.52 432.607 2762
1937.61 431.824 2757
1944.2 431.824 2757
1954.33 432.607 2762
1960.94 432.607 2762
1967.54 432.607 2762
1974.15 432.607 2762
1980.75 432.607 2762
1987.36 432.607 2762
1993.96 432.607 2762
1994.05 431.197 2753
1990.46 429.004 2739
1997.01 429.004 2739
2010.14 430.414 2748
2016.71 430.414 2748
2023.28 430.414 2748
2029.85 430.414 2748
2036.43 430.414 2748
2026.64 426.968 2726
2036.14 427.595 2730
2046.41 428.378 2735
2052.95 428.378 2735
2059.49 428.378 2735
2062.26 427.595 2730
2072.57 428.378 2735
2082.15 429.004 2739
2092.52 429.788 2744
2099.08 429.788 2744
-2157.08 458.147 2881
-2150.19 458.147 2881
-2143.3 458.147 2881
-2111.19 452.74 2847
-2108.08 453.535 2852
-2108.63 455.126 2862
-2101.79 455.126 2862
-2094.94 455.126 2862
-2088.1 455.126 2862
-2066.71 451.945 2842
-2059.91 451.945 2842
-2053.12 451.945 2842
-2046.32 451.945 2842
-2029.48 449.719 2828
-2022.72 449.719 2828
-2008.83 448.129 2818
-2012.03 450.355 2832
-2015.88 452.74 2847
-2012.6 453.535 2852
-2005.78 453.535 2852
-1998.96 453.535 2852
-1981.66 451.15 2837
-1974.88 451.15 2837
-1964.63 450.355 2832
-1955.09 449.719 2828
-1948.33 449.719 2828
-1941.57 449.719 2828
-1934.8 449.719 2828
-1928.04 449.719 2828
-1923.99 450.355 2832
-1917.22 450.355 2832
-1910.45 450.355 2832
-1903.68 450.355 2832
-1900.26 451.15 2837
-1893.47 451.15 2837
-1886.69 451.15 2837
-1889.84 453.535 2852
-1883.02 453.535 2852
-1876.2 453.535 2852
-1869.38 453.535 2852
-1862.56 453.535 2852
-1855.74 453.535 2852
-1861.24 456.557 2871
-1854.37 456.557 2871
-1850.73 457.352 2876
-1856.67 460.532 2896
-1869.55 465.462 2927
-1862.55 465.462 2927
-1861.89 467.052 2937
-1884.55 474.526 2984
-1884.33 476.276 2995
-1877.17 476.276 2995
-1873.13 477.071 3000
-1879.64 480.569 3022
-1872.41 480.569 3022
-1865.19 480.569 3022
-1871.49 484.068 3044
-1899.12 493.132 3101
-1913.05 498.698 3136
-1905.55 498.698 3136
-1898.05 498.698 3136
-1890.55 498.698 3136
-1886.66 499.652 3142
-1879.14 499.652 3142
-1893.07 505.377 3178
-1910.99 512.215 3221
-1903.28 512.215 3221
-1913.83 517.145 3252
-1924.8 522.234 3284
-1932.13 526.368 3310
-1924.21 526.368 3310
-1939.46 532.729 3350
-1959.12 540.362 3398
-1975.11 547.041 3440
-1966.88 547.041 3440
-1979.15 552.766 3476
-1978.78 554.992 3490
-1970.43 554.992 3490
-1962.09 554.992 3490
-1953.74 554.992 3490
-1957.66 558.491 3512
-1957.59 560.876 3527
-1949.15 560.876 3527
-1944.57 561.989 3534
-1936.12 561.989 3534
-1932.03 563.262 3542
-1923.56 563.262 3542
-1915.09 563.262 3542
-1906.62 563.262 3542
-1901.9 564.375 3549
-1893.42 564.375 3549
-1884.93 564.375 3549
-1876.44 564.375 3549
-1867.96 564.375 3549
-1859.47 564.375 3549
-1850.98 564.375 3549
-1842.5 564.375 3549
-1842.28 566.919 3565
-1833.75 566.919 3565
-1828.81 568.032 3572
-1824.35 569.305 3580
-1815.79 569.305 3580
-1807.23 569.305 3580
-1802.68 570.577 3588
-1794.1 570.577 3588
-1785.52 570.577 3588
-1776.94 570.577 3588
-1768.36 570.577 3588
-1763.22 571.69 3595
-1758.53 572.962 3603
-1749.91 572.962 3603
-1749.03 575.506 3619
-1744.22 576.779 3627
-1750.38 581.708 3658
-1741.63 581.708 3658
-1748.52 586.956 3691
-1747.23 589.501 3707
-1742.59 590.932 3716
-1733.7 590.932 3716
-1732.24 593.476 3732
-1723.32 593.476 3732
-1714.39 593.476 3732
-1705.47 593.476 3732
-1696.55 593.476 3732
-1695.31 596.18 3749
-1697.59 600.155 3774
-1688.56 600.155 3774
-1679.54 600.155 3774
-1670.51 600.155 3774
-1650.48 596.18 3749
-1641.52 596.18 3749
-1625.15 593.476 3732
-1609.3 590.932 3716
-1579.31 583.14 3667
-1570.54 583.14 3667
-1544.73 576.779 3627
-1522.51 571.69 3595
-1497.91 565.647 3557
-1489.4 565.647 3557
-1468.41 560.876 3527
-1457.08 559.763 3520
-1439.19 556.106 3497
-1430.83 556.106 3497
-1410.67 551.494 3468
-1399.55 550.381 3461
-1377.2 544.815 3426
-1369.01 544.815 3426
-1341.35 537.023 3377
-1327.75 534.796 3363
-1304.01 528.435 3323
-1296.07 528.435 3323
-1288.12 528.435 3323
-1275.17 526.368 3310
-1267.25 526.368 3310
-1254.39 524.301 3297
-1246.51 524.301 3297
-1228.85 520.166 3271
-1216.18 518.099 3258
-1196.89 513.169 3227
-1189.17 513.169 3227
-1161.32 504.423 3172
-1151.55 503.469 3166
-1139.65 501.56 3154
-1132.1 501.56 3154
-1122.42 500.606 3148
-1110.64 498.698 3136
-1094.7 494.881 3112
-1087.26 494.881 3112
-858.515 452.74 2847
-851.707 452.74 2847
-847.867 454.33 2857
-841.035 454.33 2857
-844.13 459.737 2891
-837.217 459.737 2891
-830.304 459.737 2891
-823.391 459.737 2891
-812.241 457.352 2876
-805.364 457.352 2876
-801.263 458.942 2886
-794.361 458.942 2886
-787.46 458.942 2886
-780.559 458.942 2886
-774.998 459.737 2891
-768.085 459.737 2891
-765.121 462.123 2906
-758.172 462.123 2906
-752.515 462.918 2911
-745.554 462.918 2911
-740.115 463.872 2917
-733.14 463.872 2917
-729.898 466.257 2932
-722.887 466.257 2932
-715.876 466.257 2932
-708.865 466.257 2932
-701.853 466.257 2932
-693.657 465.462 2927
-682.904 462.918 2911
-683.141 467.847 2942
-682.081 471.982 2968
-674.984 471.982 2968
-678.913 479.774 3017
-675.261 482.319 3033
-668.008 482.319 3033
-660.755 482.319 3033
-652.425 481.523 3028
-659.433 497.744 3130
-651.948 497.744 3130
-650.64 502.515 3160
-643.083 502.515 3160
-643.974 509.194 3202
-636.317 509.194 3202
-628.66 509.194 3202
-618.676 507.285 3190
-611.047 507.285 3190
-598.879 503.469 3166
-596.911 508.239 3196
-589.269 508.239 3196
-581.626 508.239 3196
-573.984 508.239 3196
-570.771 512.215 3221
-564.118 513.169 3227
-559.677 516.191 3246
-551.915 516.191 3246
-577.848 548.154 3447
-570.762 549.268 3454
-567.225 553.879 3483
-558.896 553.879 3483
-556.416 559.763 3520
-556.094 568.032 3572
-550.005 570.577 3588
-541.425 570.577 3588
-535.072 572.962 3603
-527.625 574.234 3611
-524.596 580.436 3650
-515.867 580.436 3650
-507.139 580.436 3650
-498.411 580.436 3650
-489.683 580.436 3650
-480.954 580.436 3650
-471.191 579.164 3642
-462.482 579.164 3642
-454.77 580.436 3650
-446.041 580.436 3650
-438.272 581.708 3658
-431.52 584.412 3675
-423.653 585.684 3683
-414.845 585.684 3683
-406.92 586.956 3691
-398.957 588.228 3699
-390.111 588.228 3699
-381.266 588.228 3699
-375.743 593.476 3732
-368.49 596.18 3749
-360.292 597.452 3757
-351.308 597.452 3757
-343.144 598.883 3766
-334.848 600.155 3774
-325.823 600.155 3774
-316.798 600.155 3774
-309.241 603.018 3792
-302.865 608.424 3826
-295.098 611.287 3844
-285.905 611.287 3844
-278.009 614.149 3862
-269.4 615.58 3871
-261.958 619.874 3898
-252.637 619.874 3898
-243.877 621.305 3907
-234.534 621.305 3907
-225.191 621.305 3907
-215.849 621.305 3907
-206.506 621.305 3907
-109.759 345.876 2175
-104.558 345.876 2175
-99.3571 345.876 2175
-94.0261 345.399 2172
-88.6277 344.604 2167
-83.2147 343.65 2161
-78.1555 344.127 2164
-72.9807 344.127 2164
-67.8059 344.127 2164
-62.6311 344.127 2164
-57.4564 344.127 2164
-52.0641 342.696 2155
-46.8673 342.378 2153
-41.7576 342.696 2155
-36.6044 342.696 2155
-31.4511 342.696 2155
-26.2734 342.378 2153
-21.125 342.378 2153
-15.9913 342.696 2155
-10.8381 342.696 2155
-5.68481 342.696 2155
-0.532296 343.173 2158
4.62814 343.173 2158
9.78857 343.173 2158
14.949 343.173 2158
20.1653 344.127 2164
25.3753 344.604 2167
30.7546 346.831 2181
35.9701 346.831 2181
41.2421 347.308 2184
46.5073 347.626 2186
51.8767 348.58 2192
57.1184 348.58 2192
62.4455 349.057 2195
67.7869 349.534 2198
73.1427 350.011 2201
78.406 350.011 2201
83.7833 350.488 2204
89.2961 351.442 2210
94.5809 351.442 2210
99.8657 351.442 2210
105.15 351.442 2210
110.435 351.442 2210
115.72 351.442 2210
121.005 351.442 2210
126.29 351.442 2210
131.396 350.965 2207
136.673 350.965 2207
141.951 350.965 2207
146.828 350.011 2201
152.092 350.011 2201
157.355 350.011 2201
162.396 349.534 2198
167.653 349.534 2198
173.617 350.965 2207
178.894 350.965 2207
184.422 351.442 2210
189.707 351.442 2210
194.992 351.442 2210
200.277 351.442 2210
205.561 351.442 2210
210.56 350.965 2207
216.62 352.237 2215
222.818 353.669 2224
228.752 354.623 2230
234.085 354.623 2230
241.35 357.485 2248
247.055 357.962 2251
252.437 357.962 2251
257.82 357.962 2251
475.753 472.936 2974
482.864 472.936 2974
489.976 472.936 2974
494.414 470.392 2958
501.487 470.392 2958
511.311 472.936 2974
519.295 473.731 2979
528.362 475.481 2990
535.512 475.481 2990
543.57 476.276 2995
550.732 476.276 2995
557.894 476.276 2995
565.056 476.276 2995
571.262 475.481 2990
579.379 476.276 2995
588.696 478.025 3006
595.884 478.025 3006
605.279 479.774 3017
615.742 482.319 3033
622.995 482.319 3033
630.247 482.319 3033
637.5 482.319 3033
644.753 482.319 3033
652.006 482.319 3033
654.477 478.82 3011
658.161 476.276 2995
665.323 476.276 2995
672.485 476.276 2995
679.647 476.276 2995
683.14 473.731 2979
686.556 471.187 2963
693.641 471.187 2963
700.727 471.187 2963
705.423 469.597 2953
711.037 468.643 2947
718.084 468.643 2947
726.608 469.597 2953
733.669 469.597 2953
740.731 469.597 2953
749.059 470.392 2958
756.132 470.392 2958
763.206 470.392 2958
768.977 469.597 2953
771.834 467.052 2937
778.857 467.052 2937
783.205 465.462 2927
790.204 465.462 2927
797.203 465.462 2927
804.203 465.462 2927
813.973 467.052 2937
820.997 467.052 2937
830.839 468.643 2947
839.592 469.597 2953
846.654 469.597 2953
853.715 469.597 2953
860.777 469.597 2953
867.838 469.597 2953
874.9 469.597 2953
881.961 469.597 2953
885.711 467.847 2942
889.712 466.257 2932
898.253 467.052 2937
905.276 467.052 2937
920.375 471.187 2963
954.693 485.022 3050
978.072 493.132 3101
985.487 493.132 3101
1007.95 500.606 3148
1032.9 509.194 3202
1054.85 516.191 3246
1062.62 516.191 3246
1072.36 517.145 3252
1097.07 525.255 3303
1114 529.549 3330
1121.97 529.549 3330
1162.5 544.815 3426
1182.66 550.381 3461
1200.91 554.992 3490
1209.26 554.992 3490
1220.05 556.106 3497
1233.68 558.491 3512
1242.08 558.491 3512
1250.47 558.491 3512
1261.74 559.763 3520
1272.68 560.876 3527
1289.11 564.375 3549
1297.59 564.375 3549
1311.97 566.919 3565
1326.05 569.305 3580
1340.2 571.69 3595
1348.8 571.69 3595
1357.4 571.69 3595
1369.03 572.962 3603
