854.116 1152.11 2153
859.264 1152.11 2153
864.413 1152.11 2153
869.561 1152.11 2153
874.71 1152.11 2153
878.632 1150.5 2150
883.774 1150.5 2150
887.674 1148.9 2147
890.729 1146.22 2142
895.852 1146.22 2142
900.974 1146.22 2142
906.096 1146.22 2142
911.218 1146.22 2142
915.057 1144.62 2139
920.172 1144.62 2139
926.585 1146.22 2142
931.707 1146.22 2142
936.829 1146.22 2142
941.951 1146.22 2142
947.073 1146.22 2142
950.862 1144.62 2139
953.295 1141.41 2133
956.149 1138.73 2128
961.238 1138.73 2128
963.602 1135.52 2122
968.677 1135.52 2122
975.128 1137.13 2125
980.209 1137.13 2125
985.291 1137.13 2125
990.372 1137.13 2125
994.048 1135.52 2122
999.123 1135.52 2122
1004.2 1135.52 2122
1009.27 1135.52 2122
1011.96 1132.85 2117
1017.02 1132.85 2117
1023.53 1134.45 2120
1028.6 1134.45 2120
1033.67 1134.45 2120
1038.74 1134.45 2120
1043.81 1134.45 2120
1047.39 1132.85 2117
1052.45 1132.85 2117
1060.01 1135.52 2122
1066.59 1137.13 2125
1071.68 1137.13 2125
1076.76 1137.13 2125
1081.84 1137.13 2125
1085.39 1135.52 2122
1090.46 1135.52 2122
1095.54 1135.52 2122
1100.61 1135.52 2122
1105.68 1135.52 2122
1115.47 1140.34 2131
1120.57 1140.34 2131
1126.72 1141.41 2133
1131.82 1141.41 2133
1136.92 1141.41 2133
1139.34 1138.73 2128
1142.82 1137.13 2125
1145.2 1134.45 2120
1150.27 1134.45 2120
1156.43 1135.52 2122
1161.5 1135.52 2122
1168.23 1137.13 2125
1173.31 1137.13 2125
1178.39 1137.13 2125
1183.47 1137.13 2125
1186.87 1135.52 2122
1191.95 1135.52 2122
1197.02 1135.52 2122
1202.1 1135.52 2122
1210.58 1138.73 2128
1215.67 1138.73 2128
1220.76 1138.73 2128
1225.85 1138.73 2128
1230.94 1138.73 2128
1234.29 1137.13 2125
1239.37 1137.13 2125
1244.45 1137.13 2125
1247.77 1135.52 2122
1251.66 1134.45 2120
1256.73 1134.45 2120
1261.8 1134.45 2120
1266.87 1134.45 2120
1271.94 1134.45 2120
1277.01 1134.45 2120
1282.08 1134.45 2120
1287.15 1134.45 2120
1295.26 1137.13 2125
1302.18 1138.73 2128
1310.34 1141.41 2133
1315.44 1141.41 2133
1320.54 1141.41 2133
1322.54 1138.73 2128
1327.62 1138.73 2128
1325.82 1132.85 2117
1332.77 1134.45 2120
1352.99 1147.29 2144
1360.01 1148.9 2147
1365.15 1148.9 2147
1370.28 1148.9 2147
1380.54 1153.18 2155
1393.41 1159.6 2167
1398.59 1159.6 2167
1403.78 1159.6 2167
1408.96 1159.6 2167
1410.22 1156.39 2161
1415.39 1156.39 2161
1420.56 1156.39 2161
1418.47 1150.5 2150
1421.62 1148.9 2147
1426.76 1148.9 2147
1429.89 1147.29 2144
1435.02 1147.29 2144
1436.79 1144.62 2139
1445.27 1147.29 2144
1450.4 1147.29 2144
1455.53 1147.29 2144
1457.25 1144.62 2139
1462.36 1144.62 2139
1467.48 1144.62 2139
1468.46 1141.41 2133
1470.11 1138.73 2128
1465.49 1131.24 2114
1470.55 1131.24 2114
1474.21 1130.17 2112
1477.15 1128.56 2109
1484.31 1130.17 2112
1489.36 1130.17 2112
1494.41 1130.17 2112
1499.46 1130.17 2112
1505.93 1131.24 2114
1515.28 1134.45 2120
1520.35 1134.45 2120
1525.42 1134.45 2120
1530.48 1134.45 2120
1531.21 1131.24 2114
1536.26 1131.24 2114
1537.67 1128.56 2109
1536.86 1124.28 2101
1541.89 1124.28 2101
1546.91 1124.28 2101
1551.94 1124.28 2101
1559.18 1125.89 2104
1567.93 1128.56 2109
1578.94 1132.85 2117
1584.01 1132.85 2117
1589.07 1132.85 2117
1597.9 1135.52 2122
1602.97 1135.52 2122
1608.04 1135.52 2122
1613.12 1135.52 2122
1614.38 1132.85 2117
1615.62 1130.17 2112
-1522.91 1093.3 2034
-1518.04 1093.3 2034
-1515.41 1094.92 2037
-1510.54 1094.92 2037
-1505.67 1094.92 2037
-1500.8 1094.92 2037
-1495.93 1094.92 2037
-1487.39 1092.23 2032
-1483.99 1093.3 2034
-1479.13 1093.3 2034
-1474.27 1093.3 2034
-1469.4 1093.3 2034
-1464.54 1093.3 2034
-1459.67 1093.3 2034
-1465.54 1101.37 2049
-1462.78 1102.98 2052
-1457.87 1102.98 2052
-1452.96 1102.98 2052
-1448.06 1102.98 2052
-1450.18 1108.35 2062
-1448.76 1111.04 2067
-1443.81 1111.04 2067
-1450.01 1119.64 2083
-1454.05 1126.63 2096
-1454.57 1130.93 2104
-1449.53 1130.93 2104
-1445.88 1132 2106
-1465.47 1151.35 2142
-1461.71 1152.43 2144
-1456.58 1152.43 2144
-1458.9 1158.34 2155
-1457.8 1161.57 2161
-1458.01 1165.87 2169
-1452.82 1165.87 2169
-1447.63 1165.87 2169
-1439.12 1163.18 2164
-1433.95 1163.18 2164
-1421.51 1157.27 2153
-1405.18 1148.13 2136
-1385.65 1136.3 2114
-1380.6 1136.3 2114
-1370.33 1132 2106
-1365.3 1132 2106
-1360.26 1132 2106
-1355.23 1132 2106
-1350.19 1132 2106
-1345.15 1132 2106
-1340.12 1132 2106
-1335.08 1132 2106
-1324.99 1127.7 2098
-1315.57 1123.94 2091
-1305.56 1119.64 2083
-1300.58 1119.64 2083
-1292.49 1116.95 2078
-1287.52 1116.95 2078
-1285.63 1119.64 2083
-1281.88 1120.72 2085
-1276.9 1120.72 2085
-1271.91 1120.72 2085
-1268.75 1122.33 2088
-1271.62 1129.32 2101
-1269.61 1132 2106
-1264.58 1132 2106
-1259.54 1132 2106
-1254.5 1132 2106
-1249.47 1132 2106
-1241.48 1129.32 2101
-1228.8 1122.33 2088
-1223.81 1122.33 2088
-1218.82 1122.33 2088
-1213.82 1122.33 2088
-1213.46 1126.63 2096
-1208.45 1126.63 2096
-1203.44 1126.63 2096
-1198.43 1126.63 2096
-1193.41 1126.63 2096
-1185.57 1123.94 2091
-1180.57 1123.94 2091
-1175.57 1123.94 2091
-1170.57 1123.94 2091
-1165.57 1123.94 2091
-1160.57 1123.94 2091
-1155.57 1123.94 2091
-1150.57 1123.94 2091
-1142.28 1120.72 2085
-1137.29 1120.72 2085
-1131.22 1119.64 2083
-1127.32 1120.72 2085
-1126.64 1125.02 2093
-1121.64 1125.02 2093
-1116.63 1125.02 2093
-1111.63 1125.02 2093
-1108.21 1126.63 2096
-1104.25 1127.7 2098
-1099.23 1127.7 2098
-1094.21 1127.7 2098
-1090.75 1129.32 2101
-1087.28 1130.93 2104
-1082.25 1130.93 2104
-1077.22 1130.93 2104
-1070.66 1129.32 2101
-1065.63 1129.32 2101
-1059.09 1127.7 2098
-1058.1 1132 2106
-1058.56 1137.92 2117
-1054.99 1139.53 2120
-1049.92 1139.53 2120
-1044.85 1139.53 2120
-1040.76 1140.6 2122
-1037.15 1142.22 2125
-1032.07 1142.22 2125
-1028.44 1143.83 2128
-1023.35 1143.83 2128
-1018.26 1143.83 2128
-1011.75 1142.22 2125
-1006.66 1142.22 2125
-1001.58 1142.22 2125
-996.502 1142.22 2125
-991.42 1142.22 2125
-986.339 1142.22 2125
-978.948 1139.53 2120
-973.879 1139.53 2120
-968.809 1139.53 2120
-963.74 1139.53 2120
-957.314 1137.92 2117
-952.251 1137.92 2117
-945.847 1136.3 2114
-938.566 1133.62 2109
-932.195 1132 2106
-928.48 1133.62 2109
-923.436 1133.62 2109
-918.393 1133.62 2109
-915.515 1136.3 2114
-910.46 1136.3 2114
-906.69 1137.92 2117
-901.627 1137.92 2117
-896.565 1137.92 2117
-891.503 1137.92 2117
-887.696 1139.53 2120
-882.627 1139.53 2120
-877.557 1139.53 2120
-872.488 1139.53 2120
-867.418 1139.53 2120
-862.349 1139.53 2120
-857.279 1139.53 2120
-852.209 1139.53 2120
-847.14 1139.53 2120
-839.687 1136.3 2114
-834.632 1136.3 2114
-827.615 1133.62 2109
-822.571 1133.62 2109
-817.528 1133.62 2109
-812.485 1133.62 2109
-807.442 1133.62 2109
-803.54 1135.23 2112
-798.489 1135.23 2112
-794.19 1136.3 2114
-789.135 1136.3 2114
-785.192 1137.92 2117
-780.13 1137.92 2117
-776.166 1139.53 2120
-771.096 1139.53 2120
-766.027 1139.53 2120
-758.804 1136.3 2114
-750.896 1132 2106
-745.86 1132 2106
-742.934 1135.23 2112
-737.884 1135.23 2112
-733.528 1136.3 2114
-729.506 1137.92 2117
-724.444 1137.92 2117
-719.381 1137.92 2117
-715.331 1139.53 2120
-711.937 1142.22 2125
-706.855 1142.22 2125
-701.774 1142.22 2125
-696.692 1142.22 2125
-690.634 1140.6 2122
-684.914 1139.53 2120
-679.844 1139.53 2120
-673.82 1137.92 2117
-667.178 1135.23 2112
-662.128 1135.23 2112
-657.077 1135.23 2112
-650.174 1132 2106
-645.138 1132 2106
-640.102 1132 2106
-635.066 1132 2106
-629.432 1130.93 2104
-624.4 1130.93 2104
-619.369 1130.93 2104
-614.338 1130.93 2104
-608.438 1129.32 2101
-602.552 1127.7 2098
-597.535 1127.7 2098
-592.518 1127.7 2098
-587.501 1127.7 2098
-581.929 1126.63 2096
-576.917 1126.63 2096
-571.905 1126.63 2096
-566.892 1126.63 2096
-562.416 1127.7 2098
-558.196 1129.32 2101
-554.489 1132 2106
-549.453 1132 2106
-544.417 1132 2106
-540.917 1135.23 2112
-536.374 1136.3 2114
-531.319 1136.3 2114
-526.264 1136.3 2114
-521.209 1136.3 2114
-516.153 1136.3 2114
-510.615 1135.23 2112
-505.564 1135.23 2112
-500.514 1135.23 2112
-495.463 1135.23 2112
-490.413 1135.23 2112
-485.362 1135.23 2112
-479.63 1133.62 2109
-473.461 1130.93 2104
-468.43 1130.93 2104
-463.399 1130.93 2104
-458.803 1132 2106
-453.767 1132 2106
-448.731 1132 2106
-443.274 1130.93 2104
-437.617 1129.32 2101
-432.593 1129.32 2101
-427.569 1129.32 2101
-421.942 1127.7 2098
-416.925 1127.7 2098
-412.497 1129.32 2101
-407.473 1129.32 2101
-402.448 1129.32 2101
-397.992 1130.93 2104
-392.961 1130.93 2104
-387.929 1130.93 2104
-382.898 1130.93 2104
-377.867 1130.93 2104
-373.19 1132 2106
-368.154 1132 2106
-363.118 1132 2106
-358.081 1132 2106
-353.045 1132 2106
-348.009 1132 2106
-342.973 1132 2106
-337.135 1129.32 2101
-331.32 1126.63 2096
-325.841 1125.02 2093
-321.296 1126.63 2096
-316.284 1126.63 2096
-311.272 1126.63 2096
-306.552 1127.7 2098
-301.535 1127.7 2098
-296.518 1127.7 2098
-291.501 1127.7 2098
-286.211 1126.63 2096
-281.199 1126.63 2096
-276.186 1126.63 2096
-271.174 1126.63 2096
-265.781 1125.02 2093
-260.776 1125.02 2093
-255.771 1125.02 2093
-250.766 1125.02 2093
-246.348 1127.7 2098
-241.331 1127.7 2098
-236.314 1127.7 2098
-231.628 1129.32 2101
-226.604 1129.32 2101
-222.107 1132 2106
-217.071 1132 2106
-212.337 1133.62 2109
-207.785 1136.3 2114
-202.73 1136.3 2114
-197.675 1136.3 2114
-192.62 1136.3 2114
-187.121 1133.62 2109
-182.337 1135.23 2112
-177.286 1135.23 2112
-172.888 1139.53 2120
-167.818 1139.53 2120
-162.749 1139.53 2120
-157.679 1139.53 2120
-152.61 1139.53 2120
-147.54 1139.53 2120
-142.471 1139.53 2120
-137.401 1139.53 2120
-132.332 1139.53 2120
-127.382 1140.6 2122
-122.481 1142.22 2125
-117.399 1142.22 2125
-112.318 1142.22 2125
-107.236 1142.22 2125
-101.914 1139.53 2120
-96.8446 1139.53 2120
-91.5153 1136.3 2114
-86.4601 1136.3 2114
-81.3279 1135.23 2112
-76.2774 1135.23 2112
-71.227 1135.23 2112
-66.2392 1136.3 2114
-61.184 1136.3 2114
-56.1288 1136.3 2114
-51.0736 1136.3 2114
-46.0837 1137.92 2117
-41.2344 1143.83 2128
-36.1457 1143.83 2128
-31.0571 1143.83 2128
-25.9318 1142.22 2125
-20.8012 1139.53 2120
-15.7316 1139.53 2120
-10.662 1139.53 2120
-5.58457 1137.92 2117
-0.519469 1132 2106
4.53377 1136.3 2114
9.6026 1137.92 2117
14.665 1137.92 2117
19.774 1140.6 2122
24.8834 1142.22 2125
29.965 1142.22 2125
35.0465 1142.22 2125
40.128 1142.22 2125
45.1031 1139.53 2120
50.1727 1139.53 2120
55.1641 1137.92 2117
60.1411 1136.3 2114
65.1347 1135.23 2112
70.1851 1135.23 2112
75.1287 1133.62 2109
80.1719 1133.62 2109
85.2152 1133.62 2109
90.3868 1135.23 2112
95.4373 1135.23 2112
100.726 1137.92 2117
106.038 1140.6 2122
111.426 1143.83 2128
116.515 1143.83 2128
121.604 1143.83 2128
126.514 1142.22 2125
131.595 1142.22 2125
136.677 1142.22 2125
141.758 1142.22 2125
146.84 1142.22 2125
151.921 1142.22 2125
156.634 1139.53 2120
161.703 1139.53 2120
167.166 1142.22 2125
172.247 1142.22 2125
177.329 1142.22 2125
182.411 1142.22 2125
187.492 1142.22 2125
192.845 1143.83 2128
198.213 1145.44 2131
203.309 1145.44 2131
208.6 1146.52 2133
213.701 1146.52 2133
218.802 1146.52 2133
223.902 1146.52 2133
229.003 1146.52 2133
234.104 1146.52 2133
239.204 1146.52 2133
244.305 1146.52 2133
249.756 1148.13 2136
254.864 1148.13 2136
259.972 1148.13 2136
265.08 1148.13 2136
270.188 1148.13 2136
275.296 1148.13 2136
280.403 1148.13 2136
285.912 1149.74 2139
291.027 1149.74 2139
296.142 1149.74 2139
301.257 1149.74 2139
306.372 1149.74 2139
311.487 1149.74 2139
317.046 1151.35 2142
322.168 1151.35 2142
327.291 1151.35 2142
332.413 1151.35 2142
337.535 1151.35 2142
342.657 1151.35 2142
347.779 1151.35 2142
352.901 1151.35 2142
357.522 1149.74 2139
361.62 1146.52 2133
366.721 1146.52 2133
371.821 1146.52 2133
376.922 1146.52 2133
382.023 1146.52 2133
387.123 1146.52 2133
392.224 1146.52 2133
398.442 1149.74 2139
403.557 1149.74 2139
408.672 1149.74 2139
413.207 1148.13 2136
418.315 1148.13 2136
424.017 1149.74 2139
429.132 1149.74 2139
435.262 1152.43 2144
440.389 1152.43 2144
446.14 1154.04 2147
451.274 1154.04 2147
456.408 1154.04 2147
461.542 1154.04 2147
467.98 1157.27 2153
473.568 1158.34 2155
478.721 1158.34 2155
483.875 1158.34 2155
489.028 1158.34 2155
493.723 1157.27 2153
498.871 1157.27 2153
504.02 1157.27 2153
509.168 1157.27 2153
513.6 1155.66 2150
518.741 1155.66 2150
523.882 1155.66 2150
528.286 1154.04 2147
534.91 1157.27 2153
540.059 1157.27 2153
545.207 1157.27 2153
550.356 1157.27 2153
555.504 1157.27 2153
559.872 1155.66 2150
565.013 1155.66 2150
568.563 1152.43 2144
574.493 1154.04 2147
581.247 1157.27 2153
586.395 1157.27 2153
591.544 1157.27 2153
595.861 1155.66 2150
601.841 1157.27 2153
606.989 1157.27 2153
612.138 1157.27 2153
617.286 1157.27 2153
622.435 1157.27 2153
627.583 1157.27 2153
632.731 1157.27 2153
639.361 1159.96 2158
644.522 1159.96 2158
649.682 1159.96 2158
654.843 1159.96 2158
660.003 1159.96 2158
664.239 1158.34 2155
669.392 1158.34 2155
674.545 1158.34 2155
679.699 1158.34 2155
684.852 1158.34 2155
688.404 1155.66 2150
693.545 1155.66 2150
696.737 1152.43 2144
701.209 1151.35 2142
706.331 1151.35 2142
711.453 1151.35 2142
716.576 1151.35 2142
721.698 1151.35 2142
726.82 1151.35 2142
732.626 1152.43 2144
737.753 1152.43 2144
742.879 1152.43 2144
747.309 1151.35 2142
752.431 1151.35 2142
756.492 1149.74 2139
761.607 1149.74 2139
767.797 1151.35 2142
772.919 1151.35 2142
778.042 1151.35 2142
782.067 1149.74 2139
787.182 1149.74 2139
792.297 1149.74 2139
798.53 1151.35 2142
803.653 1151.35 2142
808.775 1151.35 2142
814.657 1152.43 2144
820.931 1154.04 2147
826.065 1154.04 2147
831.199 1154.04 2147
837.502 1155.66 2150
843.819 1157.27 2153
848.967 1157.27 2153
854.116 1157.27 2153
859.264 1157.27 2153
864.413 1157.27 2153
869.561 1157.27 2153
874.71 1157.27 2153
878.632 1155.66 2150
883.774 1155.66 2150
887.674 1154.04 2147
890.729 1151.35 2142
895.852 1151.35 2142
900.974 1151.35 2142
906.096 1151.35 2142
911.218 1151.35 2142
915.057 1149.74 2139
920.172 1149.74 2139
926.585 1151.35 2142
931.707 1151.35 2142
936.829 1151.35 2142
941.951 1151.35 2142
947.073 1151.35 2142
950.862 1149.74 2139
953.295 1146.52 2133
956.149 1143.83 2128
961.238 1143.83 2128
963.602 1140.6 2122
968.677 1140.6 2122
975.128 1142.22 2125
980.209 1142.22 2125
985.291 1142.22 2125
990.372 1142.22 2125
991.706 1137.92 2117
996.768 1137.92 2117
1001.83 1137.92 2117
1006.89 1137.92 2117
1009.57 1135.23 2112
1014.62 1135.23 2112
1020.63 1136.3 2114
1025.69 1136.3 2114
1030.74 1136.3 2114
1035.8 1136.3 2114
1040.85 1136.3 2114
1044.92 1135.23 2112
1048.48 1133.62 2109
1053.52 1133.62 2109
1058.56 1133.62 2109
1063.61 1133.62 2109
1068.65 1133.62 2109
1073.69 1133.62 2109
1078.74 1133.62 2109
1083.78 1133.62 2109
1088.82 1133.62 2109
1093.87 1133.62 2109
1097.35 1132 2106
1106.57 1136.3 2114
1111.63 1136.3 2114
1120.91 1140.6 2122
1125.98 1140.6 2122
1131.06 1140.6 2122
1136.13 1140.6 2122
1136.9 1136.3 2114
1140.88 1135.23 2112
1145.93 1135.23 2112
1152.07 1136.3 2114
1157.12 1136.3 2114
1165.48 1139.53 2120
1170.55 1139.53 2120
1175.62 1139.53 2120
1180.69 1139.53 2120
1185.75 1139.53 2120
1190.82 1139.53 2120
1195.89 1139.53 2120
1199.26 1137.92 2117
1207.17 1140.6 2122
1213.96 1142.22 2125
1219.04 1142.22 2125
1224.12 1142.22 2125
1229.2 1142.22 2125
1234.29 1142.22 2125
1239.37 1142.22 2125
1239.76 1137.92 2117
1243.06 1136.3 2114
1246.94 1135.23 2112
1248.43 1132 2106
1253.47 1132 2106
1258.5 1132 2106
1263.54 1132 2106
1263.75 1127.7 2098
1268.77 1127.7 2098
1273.79 1127.7 2098
1285.51 1133.62 2109
1290.55 1133.62 2109
1300.51 1137.92 2117
1305.57 1137.92 2117
1310.64 1137.92 2117
1315.7 1137.92 2117
1320.76 1137.92 2117
1318.93 1132 2106
1327.74 1135.23 2112
1337.84 1139.53 2120
1346.08 1142.22 2125
1354.97 1145.44 2131
1360.07 1145.44 2131
1370.29 1149.74 2139
1377.34 1151.35 2142
1382.46 1151.35 2142
1387.58 1151.35 2142
1390.75 1149.74 2139
1395.87 1149.74 2139
1400.98 1149.74 2139
1404.12 1148.13 2136
1407.25 1146.52 2133
1407.06 1142.22 2125
1412.14 1142.22 2125
1413.89 1139.53 2120
1418.95 1139.53 2120
1425.37 1140.6 2122
1436.51 1145.44 2131
1441.6 1145.44 2131
1446.7 1145.44 2131
1451.8 1145.44 2131
1454.84 1143.83 2128
1459.93 1143.83 2128
1460.89 1140.6 2122
1465.96 1140.6 2122
1464.1 1135.23 2112
1469.15 1135.23 2112
1472.11 1133.62 2109
1477.15 1133.62 2109
1482.2 1133.62 2109
1487.24 1133.62 2109
1492.28 1133.62 2109
1497.33 1133.62 2109
1502.37 1133.62 2109
1510.99 1136.3 2114
1516.04 1136.3 2114
1521.1 1136.3 2114
1526.15 1136.3 2114
1527.59 1133.62 2109
1532.63 1133.62 2109
1535.49 1132 2106
1531.01 1125.02 2093
1536.02 1125.02 2093
1543.23 1126.63 2096
1548.24 1126.63 2096
1553.26 1126.63 2096
1561.99 1129.32 2101
1572.98 1133.62 2109
1578.02 1133.62 2109
1585.31 1135.23 2112
1594.13 1137.92 2117
1599.19 1137.92 2117
1604.26 1137.92 2117
1605.52 1135.23 2112
1610.57 1135.23 2112
1611.03 1132 2106
-1522.91 1098.18 2034
-1518.04 1098.18 2034
-1515.41 1099.8 2037
-1510.54 1099.8 2037
-1505.67 1099.8 2037
-1500.8 1099.8 2037
-1493.72 1098.18 2034
-1485.93 1096.02 2030
-1482.54 1097.1 2032
-1477.68 1097.1 2032
-1474.27 1098.18 2034
-1469.4 1098.18 2034
-1464.54 1098.18 2034
-1459.67 1098.18 2034
-1465.54 1106.27 2049
-1462.78 1107.89 2052
-1457.87 1107.89 2052
-1452.96 1107.89 2052
-1448.06 1107.89 2052
-1450.18 1113.29 2062
-1448.76 1115.99 2067
-1443.81 1115.99 2067
-1447.92 1123.01 2080
-1451.97 1130.03 2093
-1452.49 1134.35 2101
-1447.47 1134.35 2101
-1444.5 1135.97 2104
-1455.89 1148.93 2128
-1456.26 1153.25 2136
-1451.15 1153.25 2136
-1450.1 1156.49 2142
-1446.33 1157.57 2144
-1447.25 1162.43 2153
-1442.1 1162.43 2153
-1436.96 1162.43 2153
-1429.81 1160.81 2150
-1424.67 1160.81 2150
-1410.29 1153.25 2136
-1397.94 1147.31 2125
-1384.34 1140.29 2112
-1379.29 1140.29 2112
-1369.03 1135.97 2104
-1364 1135.97 2104
-1358.97 1135.97 2104
-1353.94 1135.97 2104
-1348.91 1135.97 2104
-1343.88 1135.97 2104
-1336.94 1134.35 2101
-1331.91 1134.35 2101
-1323.73 1131.65 2096
-1313.68 1127.33 2088
-1303.68 1123.01 2080
-1298.7 1123.01 2080
-1292.49 1121.93 2078
-1287.52 1121.93 2078
-1285.63 1124.63 2083
-1281.88 1125.71 2085
-1276.9 1125.71 2085
-1271.91 1125.71 2085
-1266.92 1125.71 2085
-1269.81 1132.73 2098
-1266.6 1134.35 2101
-1261.57 1134.35 2101
-1256.55 1134.35 2101
-1249.74 1132.73 2098
-1244.72 1132.73 2098
-1233.8 1127.33 2088
-1227.04 1125.71 2085
-1219.12 1123.01 2080
-1218.82 1127.33 2088
-1213.82 1127.33 2088
-1208.83 1127.33 2088
-1203.84 1127.33 2088
-1200.57 1128.95 2091
-1195.57 1128.95 2091
-1190.57 1128.95 2091
-1179.33 1123.01 2080
-1174.36 1123.01 2080
-1169.38 1123.01 2080
-1166.09 1124.63 2083
-1161.11 1124.63 2083
-1156.13 1124.63 2083
-1151.14 1124.63 2083
-1143.41 1121.93 2078
-1136.8 1120.31 2075
-1133.47 1121.93 2078
-1128.5 1121.93 2078
-1126.24 1124.63 2083
-1122.33 1125.71 2085
-1117.35 1125.71 2085
-1112.36 1125.71 2085
-1107.38 1125.71 2085
-1102.39 1125.71 2085
-1097.41 1125.71 2085
-1091.37 1124.63 2083
-1086.39 1124.63 2083
-1085.56 1128.95 2091
-1080.56 1128.95 2091
-1075.56 1128.95 2091
-1070.56 1128.95 2091
-1065.56 1128.95 2091
-1060.56 1128.95 2091
-1052.53 1125.71 2085
-1053.07 1131.65 2096
-1053.06 1137.05 2106
-1052.01 1141.37 2114
-1046.95 1141.37 2114
-1041.9 1141.37 2114
-1036.84 1141.37 2114
-1031.79 1141.37 2114
-1026.73 1141.37 2114
-1023.12 1142.99 2117
-1018.06 1142.99 2117
-1013 1142.99 2117
-1006.51 1141.37 2114
-1001.45 1141.37 2114
-996.399 1141.37 2114
-991.344 1141.37 2114
-986.288 1141.37 2114
-981.233 1141.37 2114
-976.178 1141.37 2114
-971.123 1141.37 2114
-966.067 1141.37 2114
-962.376 1142.99 2117
-957.314 1142.99 2117
-952.251 1142.99 2117
-945.847 1141.37 2114
-938.566 1138.67 2109
-932.195 1137.05 2106
-928.48 1138.67 2109
-923.436 1138.67 2109
-918.393 1138.67 2109
-915.515 1141.37 2114
-910.46 1141.37 2114
-906.69 1142.99 2117
-901.627 1142.99 2117
-896.565 1142.99 2117
-891.503 1142.99 2117
-887.696 1144.61 2120
-882.627 1144.61 2120
-877.557 1144.61 2120
-872.488 1144.61 2120
-867.418 1144.61 2120
-862.349 1144.61 2120
-857.279 1144.61 2120
-852.209 1144.61 2120
-847.14 1144.61 2120
-839.687 1141.37 2114
-834.632 1141.37 2114
-827.615 1138.67 2109
-822.571 1138.67 2109
-817.528 1138.67 2109
-812.485 1138.67 2109
-807.442 1138.67 2109
-803.54 1140.29 2112
-798.489 1140.29 2112
-794.19 1141.37 2114
-789.135 1141.37 2114
-785.192 1142.99 2117
-780.13 1142.99 2117
-776.166 1144.61 2120
-771.096 1144.61 2120
-766.027 1144.61 2120
-758.804 1141.37 2114
-750.896 1137.05 2106
-745.86 1137.05 2106
-742.934 1140.29 2112
-737.884 1140.29 2112
-733.528 1141.37 2114
-729.506 1142.99 2117
-724.444 1142.99 2117
-719.381 1142.99 2117
-715.331 1144.61 2120
-711.937 1147.31 2125
-706.855 1147.31 2125
-701.774 1147.31 2125
-696.692 1147.31 2125
-690.634 1145.69 2122
-684.914 1144.61 2120
-679.844 1144.61 2120
-673.82 1142.99 2117
-667.178 1140.29 2112
-662.128 1140.29 2112
-657.077 1140.29 2112
-650.174 1137.05 2106
-645.138 1137.05 2106
-640.102 1137.05 2106
-635.066 1137.05 2106
-629.432 1135.97 2104
-624.4 1135.97 2104
-619.369 1135.97 2104
-614.338 1135.97 2104
-608.438 1134.35 2101
-602.552 1132.73 2098
-597.535 1132.73 2098
-592.518 1132.73 2098
-587.501 1132.73 2098
-581.929 1131.65 2096
-576.917 1131.65 2096
-571.905 1131.65 2096
-566.892 1131.65 2096
-562.416 1132.73 2098
-558.196 1134.35 2101
-554.489 1137.05 2106
-549.453 1137.05 2106
-544.417 1137.05 2106
-540.917 1140.29 2112
-536.374 1141.37 2114
-531.319 1141.37 2114
-526.264 1141.37 2114
-521.209 1141.37 2114
-516.153 1141.37 2114
-510.615 1140.29 2112
-505.564 1140.29 2112
-500.514 1140.29 2112
-495.463 1140.29 2112
-490.413 1140.29 2112
-485.362 1140.29 2112
-477.128 1132.73 2098
-471.661 1131.65 2096
-466.649 1131.65 2096
-460.976 1130.03 2093
-455.535 1128.95 2091
-450.535 1128.95 2091
-445.535 1128.95 2091
-439.903 1127.33 2088
-434.91 1127.33 2088
-428.269 1123.01 2080
-423.295 1123.01 2080
-418.322 1123.01 2080
-413.348 1123.01 2080
-408.374 1123.01 2080
-403.4 1123.01 2080
-398.426 1123.01 2080
-394.019 1124.63 2083
-389.038 1124.63 2083
-384.057 1124.63 2083
-379.076 1124.63 2083
-374.095 1124.63 2083
-370 1127.33 2088
-365.531 1128.95 2091
-360.531 1128.95 2091
-355.531 1128.95 2091
-350.866 1130.03 2093
-345.861 1130.03 2093
-340.856 1130.03 2093
-335.049 1127.33 2088
-330.056 1127.33 2088
-324.284 1124.63 2083
-320.07 1127.33 2088
-315.077 1127.33 2088
-310.084 1127.33 2088
-305.821 1130.03 2093
-300.816 1130.03 2093
-295.811 1130.03 2093
-290.806 1130.03 2093
-285.528 1128.95 2091
-280.528 1128.95 2091
-275.528 1128.95 2091
-270.527 1128.95 2091
-265.146 1127.33 2088
-260.153 1127.33 2088
-254.794 1125.71 2085
-249.808 1125.71 2085
-245.526 1128.95 2091
-240.526 1128.95 2091
-235.526 1128.95 2091
-230.746 1130.03 2093
-225.741 1130.03 2093
-220.736 1130.03 2093
-215.731 1130.03 2093
-211.028 1131.65 2096
-206.213 1132.73 2098
-201.196 1132.73 2098
-196.179 1132.73 2098
-191.162 1132.73 2098
-185.701 1130.03 2093
-180.696 1130.03 2093
-175.523 1128.95 2091
-171.094 1132.73 2098
-166.314 1134.35 2101
-161.521 1135.97 2104
-156.638 1137.05 2106
-151.602 1137.05 2106
-146.566 1137.05 2106
-141.53 1137.05 2106
-136.494 1137.05 2106
-131.458 1137.05 2106
-126.422 1137.05 2106
-121.385 1137.05 2106
-116.515 1138.67 2109
-111.472 1138.67 2109
-106.429 1138.67 2109
-101.385 1138.67 2109
-96.3421 1138.67 2109
-90.9525 1134.35 2101
-85.9284 1134.35 2101
-80.7888 1132.73 2098
-75.9885 1135.97 2104
-70.9572 1135.97 2104
-65.9886 1137.05 2106
-60.9525 1137.05 2106
-55.9164 1137.05 2106
-50.8803 1137.05 2106
-46.0184 1141.37 2114
-41.0213 1142.99 2117
-35.9589 1142.99 2117
-30.8965 1142.99 2117
-25.8341 1142.99 2117
-20.7717 1142.99 2117
-15.7093 1142.99 2117
-10.647 1142.99 2117
-5.57138 1140.29 2112
-0.519469 1137.05 2106
4.51662 1137.05 2106
9.58899 1141.37 2114
14.6442 1141.37 2114
19.7553 1144.61 2120
24.8249 1144.61 2120
29.8945 1144.61 2120
34.964 1144.61 2120
40.0336 1144.61 2120
44.9755 1141.37 2114
50.0307 1141.37 2114
55.0859 1141.37 2114
59.9135 1137.05 2106
64.9496 1137.05 2106
69.9857 1137.05 2106
74.8437 1134.35 2101
79.8678 1134.35 2101
84.8919 1134.35 2101
90.0445 1135.97 2104
95.0758 1135.97 2104
100.488 1140.29 2112
105.638 1141.37 2114
110.85 1142.99 2117
115.913 1142.99 2117
121.147 1144.61 2120
126.216 1144.61 2120
131.286 1144.61 2120
136.355 1144.61 2120
141.425 1144.61 2120
146.287 1142.99 2117
150.992 1140.29 2112
156.19 1141.37 2114
161.245 1141.37 2114
166.537 1142.99 2117
171.842 1144.61 2120
177.079 1145.69 2122
182.153 1145.69 2122
187.227 1145.69 2122
192.302 1145.69 2122
197.376 1145.69 2122
202.45 1145.69 2122
207.525 1145.69 2122
212.599 1145.69 2122
217.981 1147.31 2125
223.063 1147.31 2125
228.144 1147.31 2125
233.226 1147.31 2125
238.307 1147.31 2125
243.045 1145.69 2122
248.821 1148.93 2128
253.91 1148.93 2128
259.364 1150.55 2131
264.459 1150.55 2131
269.555 1150.55 2131
274.909 1151.63 2133
280.01 1151.63 2133
285.11 1151.63 2133
290.211 1151.63 2133
295.312 1151.63 2133
300.412 1151.63 2133
305.513 1151.63 2133
310.613 1151.63 2133
316.158 1153.25 2136
321.717 1154.87 2139
326.832 1154.87 2139
331.947 1154.87 2139
337.062 1154.87 2139
341.217 1151.63 2133
346.318 1151.63 2133
351.419 1151.63 2133
356.185 1150.55 2131
359.755 1145.69 2122
364.829 1145.69 2122
369.555 1144.61 2120
374.625 1144.61 2120
379.694 1144.61 2120
384.764 1144.61 2120
389.833 1144.61 2120
395.276 1145.69 2122
400.35 1145.69 2122
405.424 1145.69 2122
410.112 1144.61 2120
415.181 1144.61 2120
420.251 1144.61 2120
424.718 1142.99 2117
431.405 1147.31 2125
436.486 1147.31 2125
442.815 1150.55 2131
447.911 1150.55 2131
453.007 1150.55 2131
458.102 1150.55 2131
463.633 1151.63 2133
470.711 1156.49 2142
475.834 1156.49 2142
480.956 1156.49 2142
486.078 1156.49 2142
491.659 1157.57 2144
497.481 1159.19 2147
502.615 1159.19 2147
507.749 1159.19 2147
512.883 1159.19 2147
518.017 1159.19 2147
523.151 1159.19 2147
526.317 1154.87 2139
532.177 1156.49 2142
538.554 1159.19 2147
543.688 1159.19 2147
548.822 1159.19 2147
553.182 1157.57 2144
557.788 1156.49 2142
562.91 1156.49 2142
568.033 1156.49 2142
573.69 1157.57 2144
578.817 1157.57 2144
583.944 1157.57 2144
589.071 1157.57 2144
594.198 1157.57 2144
600.163 1159.19 2147
605.297 1159.19 2147
610.432 1159.19 2147
615.566 1159.19 2147
619.833 1157.57 2144
625.834 1159.19 2147
630.968 1159.19 2147
636.102 1159.19 2147
641.236 1159.19 2147
646.37 1159.19 2147
651.505 1159.19 2147
656.639 1159.19 2147
658.382 1153.25 2136
663.49 1153.25 2136
668.598 1153.25 2136
673.706 1153.25 2136
678.814 1153.25 2136
682.961 1151.63 2133
688.062 1151.63 2133
693.162 1151.63 2133
697.608 1150.55 2131
702.704 1150.55 2131
707.8 1150.55 2131
712.896 1150.55 2131
717.992 1150.55 2131
723.766 1151.63 2133
728.867 1151.63 2133
733.967 1151.63 2133
739.068 1151.63 2133
743.471 1150.55 2131
748.567 1150.55 2131
753.663 1150.55 2131
758.759 1150.55 2131
763.854 1150.55 2131
769.672 1151.63 2133
775.862 1153.25 2136
780.97 1153.25 2136
786.078 1153.25 2136
792.297 1154.87 2139
797.412 1154.87 2139
802.527 1154.87 2139
808.775 1156.49 2142
813.897 1156.49 2142
819.784 1157.57 2144
824.911 1157.57 2144
830.038 1157.57 2144
836.333 1159.19 2147
841.467 1159.19 2147
846.602 1159.19 2147
852.926 1160.81 2150
858.067 1160.81 2150
863.208 1160.81 2150
868.35 1160.81 2150
872.272 1159.19 2147
877.406 1159.19 2147
882.54 1159.19 2147
886.434 1157.57 2144
890.729 1156.49 2142
895.852 1156.49 2142
897.188 1151.63 2133
902.289 1151.63 2133
906.539 1150.55 2131
911.635 1150.55 2131
917.591 1151.63 2133
922.691 1151.63 2133
927.792 1151.63 2133
932.893 1151.63 2133
937.993 1151.63 2133
943.094 1151.63 2133
947.306 1150.55 2131
951.061 1148.93 2128
952.555 1144.61 2120
957.624 1144.61 2120
961.332 1142.99 2117
966.394 1142.99 2117
971.456 1142.99 2117
976.519 1142.99 2117
981.581 1142.99 2117
986.644 1142.99 2117
991.706 1142.99 2117
996.768 1142.99 2117
1001.83 1142.99 2117
1006.89 1142.99 2117
1009.57 1140.29 2112
1014.62 1140.29 2112
1020.63 1141.37 2114
1025.69 1141.37 2114
1030.74 1141.37 2114
1035.8 1141.37 2114
1040.85 1141.37 2114
1044.92 1140.29 2112
1048.48 1138.67 2109
1053.52 1138.67 2109
1058.56 1138.67 2109
1063.61 1138.67 2109
1068.65 1138.67 2109
1073.69 1138.67 2109
1078.74 1138.67 2109
1083.78 1138.67 2109
1088.82 1138.67 2109
1093.87 1138.67 2109
1097.35 1137.05 2106
1106.57 1141.37 2114
1111.63 1141.37 2114
1120.91 1145.69 2122
1125.98 1145.69 2122
1131.06 1145.69 2122
1136.13 1145.69 2122
1136.9 1141.37 2114
1140.88 1140.29 2112
1145.93 1140.29 2112
1152.07 1141.37 2114
1157.12 1141.37 2114
1165.48 1144.61 2120
1170.55 1144.61 2120
1175.62 1144.61 2120
1180.69 1144.61 2120
1185.75 1144.61 2120
1190.82 1144.61 2120
1195.89 1144.61 2120
1199.26 1142.99 2117
1207.17 1145.69 2122
1213.96 1147.31 2125
1219.04 1147.31 2125
1224.12 1147.31 2125
1229.2 1147.31 2125
1234.29 1147.31 2125
1239.37 1147.31 2125
1239.76 1142.99 2117
1243.06 1141.37 2114
1246.94 1140.29 2112
1248.43 1137.05 2106
1253.47 1137.05 2106
1258.5 1137.05 2106
1263.54 1137.05 2106
1263.75 1132.73 2098
1268.77 1132.73 2098
1273.79 1132.73 2098
1285.51 1138.67 2109
1290.55 1138.67 2109
1300.51 1142.99 2117
1305.57 1142.99 2117
1310.64 1142.99 2117
1315.7 1142.99 2117
1320.76 1142.99 2117
1318.93 1137.05 2106
1327.74 1140.29 2112
1337.84 1144.61 2120
1346.08 1147.31 2125
1354.97 1150.55 2131
1360.07 1150.55 2131
1370.29 1154.87 2139
1377.34 1156.49 2142
1382.46 1156.49 2142
1387.58 1156.49 2142
1390.75 1154.87 2139
1395.87 1154.87 2139
1400.98 1154.87 2139
1404.12 1153.25 2136
1407.25 1151.63 2133
1407.06 1147.31 2125
1412.14 1147.31 2125
1413.89 1144.61 2120
1418.95 1144.61 2120
1425.37 1145.69 2122
1436.51 1150.55 2131
1441.6 1150.55 2131
1446.7 1150.55 2131
1451.8 1150.55 2131
1450.74 1145.69 2122
1455.81 1145.69 2122
1459.51 1144.61 2120
1464.58 1144.61 2120
1464.1 1140.29 2112
1469.15 1140.29 2112
1470.02 1137.05 2106
1475.05 1137.05 2106
1482.2 1138.67 2109
1487.24 1138.67 2109
1492.28 1138.67 2109
1497.33 1138.67 2109
1502.37 1138.67 2109
1510.99 1141.37 2114
1516.04 1141.37 2114
1521.1 1141.37 2114
1526.15 1141.37 2114
1527.59 1138.67 2109
1532.63 1138.67 2109
1531.84 1134.35 2101
1529.55 1128.95 2091
1532.35 1127.33 2088
1537.34 1127.33 2088
1542.33 1127.33 2088
1549.55 1128.95 2091
1558.27 1131.65 2096
1567.01 1134.35 2101
1572.03 1134.35 2101
1579.31 1135.97 2104
1590.37 1140.29 2112
1595.42 1140.29 2112
1600.47 1140.29 2112
1603.24 1138.67 2109
1608.28 1138.67 2109
1609.5 1135.97 2104
-1521.41 1101.96 2032
-1516.55 1101.96 2032
-1515.41 1104.68 2037
-1510.54 1104.68 2037
-1505.67 1104.68 2037
-1500.8 1104.68 2037
-1493.72 1103.05 2034
-1485.93 1100.88 2030
-1482.54 1101.96 2032
-1477.68 1101.96 2032
-1472.82 1101.96 2032
-1469.4 1103.05 2034
-1464.54 1103.05 2034
-1459.67 1103.05 2034
-1461.96 1108.47 2044
-1460.64 1111.18 2049
-1455.74 1111.18 2049
-1450.84 1111.18 2049
-1448.06 1112.81 2052
-1450.18 1118.23 2062
-1448.76 1120.94 2067
-1443.81 1120.94 2067
-1442.35 1123.66 2072
-1445.03 1129.62 2083
-1449.03 1136.67 2096
-1444.02 1136.67 2096
-1444.5 1141.01 2104
-1440.84 1142.09 2106
-1448.76 1152.4 2125
-1443.68 1152.4 2125
-1440.62 1154.03 2128
-1440.93 1158.36 2136
-1435.83 1158.36 2136
-1430.72 1158.36 2136
-1425.61 1158.36 2136
-1418.51 1156.74 2133
-1413.41 1156.74 2133
-1403.02 1152.4 2125
-1380.18 1137.76 2098
-1373.85 1136.67 2096
-1370.15 1137.76 2098
-1365.13 1137.76 2098
-1362.06 1139.38 2101
-1357.03 1139.38 2101
-1352.01 1139.38 2101
-1346.98 1139.38 2101
-1341.96 1139.38 2101
-1335.03 1137.76 2098
-1330.01 1137.76 2098
-1320.57 1133.96 2091
-1311.8 1130.71 2085
-1303.68 1127.99 2080
-1298.7 1127.99 2080
-1292.49 1126.91 2078
-1287.52 1126.91 2078
-1285.63 1129.62 2083
-1281.88 1130.71 2085
-1276.9 1130.71 2085
-1271.91 1130.71 2085
-1266.92 1130.71 2085
-1269.81 1137.76 2098
-1264.79 1137.76 2098
-1259.77 1137.76 2098
-1254.76 1137.76 2098
-1246.76 1135.04 2093
-1241.76 1135.04 2093
-1230.84 1129.62 2083
-1221.15 1125.28 2075
-1217.95 1126.91 2078
-1214.15 1127.99 2080
-1209.17 1127.99 2080
-1205.94 1129.62 2083
-1200.96 1129.62 2083
-1195.97 1129.62 2083
-1190.99 1129.62 2083
-1186.01 1129.62 2083
-1178.2 1126.91 2078
-1173.23 1126.91 2078
-1164.88 1123.66 2072
-1163.29 1126.91 2078
-1158.32 1126.91 2078
-1153.35 1126.91 2078
-1142.3 1120.94 2067
-1137.36 1120.94 2067
-1134.06 1122.57 2070
-1129.11 1122.57 2070
-1124.16 1122.57 2070
-1123.54 1126.91 2078
-1119.64 1127.99 2080
-1114.67 1127.99 2080
-1109.7 1127.99 2080
-1104.72 1127.99 2080
-1099.75 1127.99 2080
-1094.77 1127.99 2080
-1088.75 1126.91 2078
-1082.22 1125.28 2075
-1078.81 1126.91 2078
-1074.88 1127.99 2080
-1069.9 1127.99 2080
-1064.93 1127.99 2080
-1059.96 1127.99 2080
-1054.98 1127.99 2080
-1050.01 1127.99 2080
-1046.54 1129.62 2083
-1049.06 1137.76 2098
-1047.03 1141.01 2104
-1042 1141.01 2104
-1036.97 1141.01 2104
-1035.86 1145.35 2112
-1030.81 1145.35 2112
-1025.76 1145.35 2112
-1020.71 1145.35 2112
-1015.66 1145.35 2112
-1010.61 1145.35 2112
-1005.56 1145.35 2112
-1000.51 1145.35 2112
-995.456 1145.35 2112
-990.406 1145.35 2112
-985.355 1145.35 2112
-980.305 1145.35 2112
-973.869 1143.72 2109
-968.826 1143.72 2109
-963.783 1143.72 2109
-960.103 1145.35 2112
-955.053 1145.35 2112
-950.002 1145.35 2112
-943.609 1143.72 2109
-935.006 1139.38 2101
-929.982 1139.38 2101
-926.279 1141.01 2104
-921.247 1141.01 2104
-916.216 1141.01 2104
-912.051 1142.09 2106
-907.015 1142.09 2106
-901.979 1142.09 2106
-896.943 1142.09 2106
-893.177 1143.72 2109
-889.397 1145.35 2112
-884.347 1145.35 2112
-879.296 1145.35 2112
-876.315 1148.06 2117
-871.253 1148.06 2117
-866.191 1148.06 2117
-861.128 1148.06 2117
-856.066 1148.06 2117
-849.798 1146.43 2114
-844.742 1146.43 2114
-837.701 1143.72 2109
-830.684 1141.01 2104
-824.475 1139.38 2101
-819.451 1139.38 2101
-813.264 1137.76 2098
-808.247 1137.76 2098
-803.23 1137.76 2098
-801.257 1142.09 2106
-796.221 1142.09 2106
-791.185 1142.09 2106
-786.149 1142.09 2106
-781.113 1142.09 2106
-776.076 1142.09 2106
-771.04 1142.09 2106
-766.004 1142.09 2106
-760.968 1142.09 2106
-752.343 1136.67 2096
-744.478 1132.33 2088
-739.485 1132.33 2088
-736.251 1135.04 2093
-732.294 1136.67 2096
-727.282 1136.67 2096
-725.026 1141.01 2104
-720.68 1142.09 2106
-716.663 1143.72 2109
-711.62 1143.72 2109
-708.252 1146.43 2114
-703.196 1146.43 2114
-698.141 1146.43 2114
-693.086 1146.43 2114
-687.38 1145.35 2112
-681.36 1143.72 2109
-676.317 1143.72 2109
-669.682 1141.01 2104
-664.651 1141.01 2104
-659.62 1141.01 2104
-654.588 1141.01 2104
-648.631 1139.38 2101
-643.607 1139.38 2101
-638.582 1139.38 2101
-633.558 1139.38 2101
-628.534 1139.38 2101
-623.51 1139.38 2101
-617.603 1137.76 2098
-612.586 1137.76 2098
-607.569 1137.76 2098
-602.552 1137.76 2098
-596.965 1136.67 2096
-591.953 1136.67 2096
-586.101 1135.04 2093
-580.541 1133.96 2091
-576.091 1135.04 2093
-571.086 1135.04 2093
-566.081 1135.04 2093
-561.076 1135.04 2093
-556.868 1136.67 2096
-553.172 1139.38 2101
-548.148 1139.38 2101
-543.9 1141.01 2104
-539.38 1142.09 2106
-535.106 1143.72 2109
-530.062 1143.72 2109
-525.019 1143.72 2109
-519.976 1143.72 2109
-514.933 1143.72 2109
-508.68 1141.01 2104
-503.649 1141.01 2104
-498.618 1141.01 2104
-492.883 1139.38 2101
-487.859 1139.38 2101
-482.835 1139.38 2101
-477.128 1137.76 2098
-471.661 1136.67 2096
-466.649 1136.67 2096
-460.976 1135.04 2093
-455.535 1133.96 2091
-450.535 1133.96 2091
-445.535 1133.96 2091
-439.903 1132.33 2088
-434.91 1132.33 2088
-428.269 1127.99 2080
-423.295 1127.99 2080
-418.322 1127.99 2080
-413.348 1127.99 2080
-408.374 1127.99 2080
-403.4 1127.99 2080
-398.426 1127.99 2080
-394.019 1129.62 2083
-389.038 1129.62 2083
-384.057 1129.62 2083
-379.076 1129.62 2083
-374.095 1129.62 2083
-370 1132.33 2088
-365.531 1133.96 2091
-360.531 1133.96 2091
-355.531 1133.96 2091
-350.866 1135.04 2093
-345.861 1135.04 2093
-340.856 1135.04 2093
-335.049 1132.33 2088
-330.056 1132.33 2088
-324.284 1129.62 2083
-320.07 1132.33 2088
-315.077 1132.33 2088
-310.084 1132.33 2088
-305.821 1135.04 2093
-300.816 1135.04 2093
-295.811 1135.04 2093
-290.806 1135.04 2093
-285.528 1133.96 2091
-280.528 1133.96 2091
-275.528 1133.96 2091
-270.527 1133.96 2091
-265.146 1132.33 2088
-260.153 1132.33 2088
-254.794 1130.71 2085
-249.808 1130.71 2085
-245.526 1133.96 2091
-240.526 1133.96 2091
-235.526 1133.96 2091
-230.746 1135.04 2093
-225.741 1135.04 2093
-220.736 1135.04 2093
-215.731 1135.04 2093
-211.028 1136.67 2096
-206.213 1137.76 2098
-201.196 1137.76 2098
-196.179 1137.76 2098
-191.162 1137.76 2098
-185.701 1135.04 2093
-180.696 1135.04 2093
-175.523 1133.96 2091
-171.094 1137.76 2098
-166.314 1139.38 2101
-161.521 1141.01 2104
-156.638 1142.09 2106
-151.602 1142.09 2106
-146.566 1142.09 2106
-141.53 1142.09 2106
-136.494 1142.09 2106
-131.458 1142.09 2106
-126.422 1142.09 2106
-121.385 1142.09 2106
-116.515 1143.72 2109
-111.472 1143.72 2109
-106.429 1143.72 2109
-101.385 1143.72 2109
-96.3421 1143.72 2109
-90.9525 1139.38 2101
-85.9284 1139.38 2101
-80.7888 1137.76 2098
-75.9885 1141.01 2104
-70.9572 1141.01 2104
-65.9886 1142.09 2106
-60.9525 1142.09 2106
-55.9164 1142.09 2106
-50.8803 1142.09 2106
-46.0184 1146.43 2114
-41.0213 1148.06 2117
-35.9589 1148.06 2117
-30.8965 1148.06 2117
-25.8341 1148.06 2117
-20.7423 1146.43 2114
-15.6871 1146.43 2114
-10.6218 1145.35 2112
-5.54236 1139.38 2101
-0.518236 1139.38 2101
4.51233 1141.01 2104
9.5527 1142.09 2106
14.5888 1142.09 2106
19.6994 1146.43 2114
24.7546 1146.43 2114
29.8098 1146.43 2114
34.8651 1146.43 2114
39.9203 1146.43 2114
44.9329 1145.35 2112
49.9834 1145.35 2112
54.8775 1142.09 2106
59.8566 1141.01 2104
64.7954 1139.38 2101
69.8196 1139.38 2101
74.4874 1133.96 2091
79.4877 1133.96 2091
84.6899 1136.67 2096
89.7877 1137.76 2098
94.8046 1137.76 2098
100.107 1141.01 2104
105.388 1143.72 2109
110.589 1145.35 2112
115.639 1145.35 2112
120.689 1145.35 2112
125.859 1146.43 2114
130.914 1146.43 2114
135.969 1146.43 2114
140.891 1145.35 2112
145.527 1142.09 2106
150.206 1139.38 2101
155.451 1141.01 2104
160.483 1141.01 2104
165.671 1142.09 2106
170.951 1143.72 2109
176.244 1145.35 2112
181.295 1145.35 2112
186.521 1146.43 2114
191.577 1146.43 2114
196.632 1146.43 2114
201.687 1146.43 2114
206.742 1146.43 2114
211.798 1146.43 2114
216.853 1146.43 2114
221.383 1143.72 2109
226.748 1145.35 2112
231.799 1145.35 2112
237.074 1146.43 2114
242.129 1146.43 2114
247.184 1146.43 2114
252.597 1148.06 2117
258.025 1149.69 2120
263.094 1149.69 2120
268.164 1149.69 2120
273.491 1150.77 2122
278.566 1150.77 2122
283.64 1150.77 2122
288.714 1150.77 2122
293.789 1150.77 2122
298.863 1150.77 2122
303.937 1150.77 2122
309.012 1150.77 2122
314.53 1152.4 2125
320.063 1154.03 2128
325.151 1154.03 2128
330.24 1154.03 2128
335.329 1154.03 2128
339.458 1150.77 2122
344.532 1150.77 2122
349.606 1150.77 2122
354.681 1150.77 2122
358.399 1146.43 2114
363.454 1146.43 2114
368.509 1146.43 2114
373.564 1146.43 2114
378.62 1146.43 2114
383.675 1146.43 2114
388.73 1146.43 2114
394.344 1148.06 2117
399.407 1148.06 2117
404.469 1148.06 2117
409.531 1148.06 2117
414.594 1148.06 2117
419.061 1146.43 2114
424.117 1146.43 2114
429.781 1148.06 2117
434.843 1148.06 2117
440.945 1150.77 2122
446.019 1150.77 2122
451.731 1152.4 2125
456.813 1152.4 2125
461.894 1152.4 2125
468.294 1155.65 2131
473.39 1155.65 2131
478.486 1155.65 2131
484.036 1156.74 2133
489.136 1156.74 2133
495.627 1159.99 2139
500.742 1159.99 2139
505.857 1159.99 2139
510.972 1159.99 2139
516.087 1159.99 2139
520.471 1158.36 2136
524.841 1156.74 2133
529.941 1156.74 2133
537.3 1161.62 2142
542.422 1161.62 2142
547.544 1161.62 2142
551.892 1159.99 2139
554.924 1155.65 2131
560.545 1156.74 2133
565.646 1156.74 2133
570.747 1156.74 2133
575.847 1156.74 2133
580.948 1156.74 2133
586.049 1156.74 2133
590.595 1155.65 2131
596.25 1156.74 2133
601.351 1156.74 2133
606.451 1156.74 2133
611.552 1156.74 2133
616.074 1155.65 2131
622.628 1158.36 2136
627.735 1158.36 2136
632.843 1158.36 2136
637.951 1158.36 2136
643.059 1158.36 2136
648.167 1158.36 2136
653.275 1158.36 2136
655.917 1154.03 2128
661.937 1155.65 2131
667.659 1156.74 2133
672.76 1156.74 2133
677.86 1156.74 2133
682.321 1155.65 2131
687.416 1155.65 2131
692.512 1155.65 2131
695.644 1152.4 2125
700.725 1152.4 2125
705.807 1152.4 2125
710.888 1152.4 2125
716.981 1154.03 2128
722.07 1154.03 2128
728.867 1156.74 2133
733.967 1156.74 2133
739.068 1156.74 2133
742.424 1154.03 2128
747.513 1154.03 2128
753.663 1155.65 2131
758.759 1155.65 2131
763.854 1155.65 2131
769.672 1156.74 2133
774.773 1156.74 2133
779.873 1156.74 2133
784.974 1156.74 2133
791.186 1158.36 2136
797.412 1159.99 2139
802.527 1159.99 2139
808.775 1161.62 2142
813.897 1161.62 2142
819.019 1161.62 2142
824.141 1161.62 2142
829.263 1161.62 2142
834.386 1161.62 2142
840.292 1162.7 2144
845.419 1162.7 2144
850.545 1162.7 2144
855.672 1162.7 2144
860.799 1162.7 2144
865.926 1162.7 2144
871.053 1162.7 2144
875.363 1161.62 2142
880.485 1161.62 2142
885.607 1161.62 2142
888.234 1158.36 2136
892.088 1156.74 2133
895.085 1154.03 2128
900.174 1154.03 2128
905.262 1154.03 2128
910.351 1154.03 2128
915.44 1154.03 2128
920.529 1154.03 2128
925.617 1154.03 2128
930.706 1154.03 2128
935.795 1154.03 2128
940.883 1154.03 2128
945.972 1154.03 2128
947.485 1149.69 2120
948.96 1145.35 2112
954.011 1145.35 2112
959.969 1146.43 2114
965.025 1146.43 2114
970.08 1146.43 2114
974.212 1145.35 2112
979.263 1145.35 2112
984.313 1145.35 2112
989.364 1145.35 2112
994.414 1145.35 2112
999.465 1145.35 2112
1001.66 1142.09 2106
1006.7 1142.09 2106
1013.17 1143.72 2109
1018.22 1143.72 2109
1023.26 1143.72 2109
1028.3 1143.72 2109
1033.35 1143.72 2109
1038.39 1143.72 2109
1039.48 1139.38 2101
1044.5 1139.38 2101
1052.02 1142.09 2106
1057.06 1142.09 2106
1062.09 1142.09 2106
1067.13 1142.09 2106
1072.17 1142.09 2106
1074.65 1139.38 2101
1079.67 1139.38 2101
1082.11 1136.67 2096
1087.12 1136.67 2096
1089.53 1133.96 2091
1098.2 1137.76 2098
1103.21 1137.76 2098
1111.4 1141.01 2104
1116.43 1141.01 2104
1121.46 1141.01 2104
1126.49 1141.01 2104
1129.91 1139.38 2101
1133.31 1137.76 2098
1141.59 1141.01 2104
1147.71 1142.09 2106
1152.74 1142.09 2106
1157.78 1142.09 2106
1162.82 1142.09 2106
1167.85 1142.09 2106
1172.89 1142.09 2106
1181.28 1145.35 2112
1186.33 1145.35 2112
1192.51 1146.43 2114
1197.56 1146.43 2114
1206.03 1149.69 2120
1211.1 1149.69 2120
1216.17 1149.69 2120
1221.24 1149.69 2120
1226.31 1149.69 2120
1231.38 1149.69 2120
1236.45 1149.69 2120
1238.01 1146.43 2114
1241.89 1145.35 2112
1243.39 1142.09 2106
1245.47 1139.38 2101
1250.49 1139.38 2101
1255.51 1139.38 2101
1258.74 1137.76 2098
1259.54 1133.96 2091
1264.54 1133.96 2091
1264.68 1129.62 2083
1272.71 1132.33 2088
1277.7 1132.33 2088
1284.54 1133.96 2091
1289.54 1133.96 2091
1294.54 1133.96 2091
1299.54 1133.96 2091
1304.54 1133.96 2091
1304.53 1129.62 2083
1309.51 1129.62 2083
1317.65 1132.33 2088
1327.71 1136.67 2096
1333.99 1137.76 2098
1339.01 1137.76 2098
1349.15 1142.09 2106
1354.19 1142.09 2106
1359.22 1142.09 2106
1364.26 1142.09 2106
1369.3 1142.09 2106
1369.11 1137.76 2098
1374.13 1137.76 2098
1379.14 1137.76 2098
1388.12 1141.01 2104
1393.15 1141.01 2104
1399.51 1142.09 2106
1404.55 1142.09 2106
1409.58 1142.09 2106
1419.99 1146.43 2114
1430.44 1150.77 2122
1435.52 1150.77 2122
1440.59 1150.77 2122
1445.66 1150.77 2122
1450.74 1150.77 2122
1455.81 1150.77 2122
1459.51 1149.69 2120
1464.58 1149.69 2120
1464.1 1145.35 2112
1469.15 1145.35 2112
1470.02 1142.09 2106
1475.05 1142.09 2106
1482.2 1143.72 2109
1487.24 1143.72 2109
1492.28 1143.72 2109
1497.33 1143.72 2109
1502.37 1143.72 2109
1510.99 1146.43 2114
1516.04 1146.43 2114
1521.1 1146.43 2114
1526.15 1146.43 2114
1527.59 1143.72 2109
1532.63 1143.72 2109
1531.84 1139.38 2101
1529.55 1133.96 2091
1532.35 1132.33 2088
1537.34 1132.33 2088
1542.33 1132.33 2088
1549.55 1133.96 2091
1558.27 1136.67 2096
1567.01 1139.38 2101
1572.03 1139.38 2101
1579.31 1141.01 2104
1590.37 1145.35 2112
1595.42 1145.35 2112
1600.47 1145.35 2112
1603.24 1143.72 2109
1608.28 1143.72 2109
1609.5 1141.01 2104
-1521.41 1106.83 2032
-1516.55 1106.83 2032
-1515.41 1109.55 2037
-1510.54 1109.55 2037
-1505.67 1109.55 2037
-1500.8 1109.55 2037
-1493.72 1107.92 2034
-1485.93 1105.74 2030
-1482.54 1106.83 2032
-1477.68 1106.83 2032
-1472.82 1106.83 2032
-1469.4 1107.92 2034
-1464.54 1107.92 2034
-1459.67 1107.92 2034
-1461.96 1113.37 2044
-1460.64 1116.09 2049
-1455.74 1116.09 2049
-1450.84 1116.09 2049
-1448.06 1117.73 2052
-1450.18 1123.17 2062
-1445.25 1123.17 2062
-1440.32 1123.17 2062
-1442.35 1128.62 2072
-1442.95 1132.98 2080
-1446.96 1140.06 2093
-1441.96 1140.06 2093
-1439.01 1141.69 2096
-1439.47 1146.05 2104
-1445.35 1154.77 2120
-1440.28 1154.77 2120
-1438.59 1157.49 2125
-1433.51 1157.49 2125
-1428.43 1157.49 2125
-1423.35 1157.49 2125
-1416.27 1155.85 2122
-1409.86 1154.77 2120
-1404.79 1154.77 2120
-1394.44 1150.41 2112
-1380.18 1142.78 2098
-1370.57 1138.97 2091
-1365.57 1138.97 2091
-1360.57 1138.97 2091
-1355.57 1138.97 2091
-1350.57 1138.97 2091
-1345.57 1138.97 2091
-1340.57 1138.97 2091
-1335.57 1138.97 2091
-1328.66 1137.33 2088
-1323.67 1137.33 2088
-1318.68 1137.33 2088
-1310.54 1134.61 2083
-1302.42 1131.89 2078
-1297.45 1131.89 2078
-1290.62 1130.25 2075
-1285.66 1130.25 2075
-1282.55 1131.89 2078
-1280.65 1134.61 2083
-1275.67 1134.61 2083
-1270.69 1134.61 2083
-1268.75 1137.33 2088
-1266.78 1140.06 2093
-1263.58 1141.69 2096
-1258.57 1141.69 2096
-1253.56 1141.69 2096
-1240.8 1134.61 2083
-1235.82 1134.61 2083
-1226.11 1130.25 2075
-1210.56 1120.45 2057
-1208.57 1123.17 2062
-1206.56 1125.9 2067
-1201.62 1125.9 2067
-1204.2 1132.98 2080
-1199.23 1132.98 2080
-1194.25 1132.98 2080
-1189.28 1132.98 2080
-1184.3 1132.98 2080
-1174.79 1128.62 2072
-1169.84 1128.62 2072
-1164.88 1128.62 2072
-1157.13 1125.9 2067
-1152.19 1125.9 2067
-1147.24 1125.9 2067
-1142.3 1125.9 2067
-1137.36 1125.9 2067
-1132.42 1125.9 2067
-1129.11 1127.53 2070
-1124.16 1127.53 2070
-1121.91 1130.25 2075
-1118.57 1131.89 2078
-1113.6 1131.89 2078
-1108.63 1131.89 2078
-1103.66 1131.89 2078
-1097.1 1130.25 2075
-1092.14 1130.25 2075
-1084.56 1127.53 2070
-1079.61 1127.53 2070
-1074.66 1127.53 2070
-1072.29 1130.25 2075
-1067.33 1130.25 2075
-1062.37 1130.25 2075
-1057.41 1130.25 2075
-1052.45 1130.25 2075
-1045.97 1128.62 2072
-1044.03 1131.89 2078
-1046.56 1140.06 2093
-1044.04 1142.78 2098
-1039.03 1142.78 2098
-1034.01 1142.78 2098
-1031.94 1146.05 2104
-1026.9 1146.05 2104
-1021.87 1146.05 2104
-1019.26 1148.77 2109
-1014.22 1148.77 2109
-1009.17 1148.77 2109
-1002.7 1147.14 2106
-997.664 1147.14 2106
-992.628 1147.14 2106
-987.592 1147.14 2106
-982.556 1147.14 2106
-977.52 1147.14 2106
-972.484 1147.14 2106
-967.448 1147.14 2106
-963.783 1148.77 2109
-958.739 1148.77 2109
-953.696 1148.77 2109
-945.054 1144.42 2101
-940.03 1144.42 2101
-930.556 1138.97 2091
-920.686 1132.98 2080
-915.713 1132.98 2080
-910.739 1132.98 2080
-905.765 1132.98 2080
-898.625 1130.25 2075
-893.664 1130.25 2075
-888.702 1130.25 2075
-883.74 1130.25 2075
-878.778 1130.25 2075
-877.185 1134.61 2083
-874.297 1137.33 2088
-869.304 1137.33 2088
-866.381 1140.06 2093
-862.61 1141.69 2096
-857.598 1141.69 2096
-852.586 1141.69 2096
-847.574 1141.69 2096
-842.562 1141.69 2096
-837.55 1141.69 2096
-831.346 1140.06 2093
-825.551 1138.97 2091
-820.551 1138.97 2091
-815.551 1138.97 2091
-810.551 1138.97 2091
-805.55 1138.97 2091
-800.55 1138.97 2091
-795.55 1138.97 2091
-790.55 1138.97 2091
-785.549 1138.97 2091
-780.549 1138.97 2091
-775.549 1138.97 2091
-770.549 1138.97 2091
-765.549 1138.97 2091
-760.548 1138.97 2091
-755.548 1138.97 2091
-746.6 1132.98 2080
-738.773 1128.62 2072
-734.881 1130.25 2075
-730.974 1131.89 2078
-726.704 1132.98 2080
-721.73 1132.98 2080
-720.547 1138.97 2091
-716.231 1140.06 2093
-712.245 1141.69 2096
-707.233 1141.69 2096
-703.896 1144.42 2101
-698.872 1144.42 2101
-694.839 1146.05 2104
-689.807 1146.05 2104
-684.776 1146.05 2104
-678.776 1144.42 2101
-673.751 1144.42 2101
-667.772 1142.78 2098
-662.755 1142.78 2098
-657.738 1142.78 2098
-652.721 1142.78 2098
-647.087 1141.69 2096
-642.075 1141.69 2096
-637.063 1141.69 2096
-632.051 1141.69 2096
-627.038 1141.69 2096
-622.026 1141.69 2096
-617.014 1141.69 2096
-612.002 1141.69 2096
-606.99 1141.69 2096
-600.542 1138.97 2091
-595.541 1138.97 2091
-590.541 1138.97 2091
-585.541 1138.97 2091
