1452 -83.514 3284
1459.86 -83.514 3284
1465.03 -83.3614 3278
1469.72 -83.1834 3271
1477.54 -83.1834 3271
1485.36 -83.1834 3271
1493.19 -83.1834 3271
1509.73 -83.6666 3290
1523.59 -83.9972 3303
1553.28 -85.1924 3350
1561.29 -85.1924 3350
1572.58 -85.3704 3357
1583.44 -85.523 3363
1604.73 -86.2351 3391
1612.84 -86.2351 3391
1620.95 -86.2351 3391
1629.05 -86.2351 3391
1637.16 -86.2351 3391
1645.27 -86.2351 3391
1633.39 -85.1924 3350
1644.83 -85.3704 3357
1652.86 -85.3704 3357
1660.89 -85.3704 3357
1668.91 -85.3704 3357
1676.94 -85.3704 3357
1664.89 -84.3532 3317
1672.82 -84.3532 3317
1670.62 -83.8446 3297
1674.94 -83.6666 3290
1682.81 -83.6666 3290
1690.68 -83.6666 3290
1698.54 -83.6666 3290
1693.44 -83.0308 3265
1694.48 -82.7002 3252
1689.17 -82.0644 3227
1696.89 -82.0644 3227
1701.43 -81.9119 3221
1715.5 -82.217 3233
1723.23 -82.217 3233
1730.97 -82.217 3233
1738.7 -82.217 3233
1746.43 -82.217 3233
1747.65 -81.9119 3221
1755.35 -81.9119 3221
1739.52 -80.8184 3178
1720.73 -79.5977 3130
1702.81 -78.4279 3084
1688.01 -77.4107 3044
1695.29 -77.4107 3044
1657.26 -75.3508 2963
1652.55 -74.8167 2942
1639.28 -73.9012 2906
1646.23 -73.9012 2906
1633.26 -73.0112 2871
1626.42 -72.4008 2847
1624.62 -72.0194 2832
1623.33 -71.6633 2818
1630.07 -71.6633 2818
1631.58 -71.4345 2809
1635.38 -71.3073 2804
1639.16 -71.1802 2799
1645.85 -71.1802 2799
1649.59 -71.053 2794
1650.94 -70.8241 2785
1654.62 -70.697 2780
1661.27 -70.697 2780
1662.52 -70.4681 2771
1666.73 -70.3664 2767
1670.33 -70.2392 2762
1676.93 -70.2392 2762
1683.54 -70.2392 2762
1690.14 -70.2392 2762
1693.68 -70.1121 2757
1697.8 -70.0104 2753
1704.38 -70.0104 2753
1707.86 -69.8832 2748
1714.43 -69.8832 2748
1721 -69.8832 2748
1727.57 -69.8832 2748
1728.47 -69.6543 2739
1735.02 -69.6543 2739
1739.02 -69.5526 2735
1742.37 -69.4255 2730
1748.9 -69.4255 2730
1752.86 -69.3237 2726
1759.37 -69.3237 2726
1760.06 -69.0949 2717
1766.56 -69.0949 2717
1767.18 -68.866 2708
1762.53 -68.4337 2691
1760.41 -68.1031 2678
1766.82 -68.1031 2678
1764.61 -67.7725 2665
1765.01 -67.5436 2656
1768.69 -67.4419 2652
1775.03 -67.4419 2652
1776 -67.2384 2644
1776.26 -67.0096 2635
1779.85 -66.9078 2631
1786.14 -66.9078 2631
1792.43 -66.9078 2631
1798.73 -66.9078 2631
1802.27 -66.8061 2627
1808.55 -66.8061 2627
1817.6 -66.9078 2631
1823.89 -66.9078 2631
1830.18 -66.9078 2631
1833.68 -66.8061 2627
1839.96 -66.8061 2627
1849.06 -66.9078 2631
1855.35 -66.9078 2631
1864.47 -67.0096 2635
1870.77 -67.0096 2635
1877.07 -67.0096 2635
1880.52 -66.9078 2631
1883.94 -66.8061 2627
1893.1 -66.9078 2631
1902.28 -67.0096 2635
1908.58 -67.0096 2635
1914.88 -67.0096 2635
1921.18 -67.0096 2635
1927.48 -67.0096 2635
1933.78 -67.0096 2635
1937.14 -66.9078 2631
1943.43 -66.9078 2631
1949.72 -66.9078 2631
1953.04 -66.8061 2627
1959.32 -66.8061 2627
1962.61 -66.7044 2623
1971.89 -66.8061 2627
1978.17 -66.8061 2627
1984.45 -66.8061 2627
1987.7 -66.7044 2623
1990.93 -66.6027 2619
1997.19 -66.6027 2619
2000.4 -66.5009 2615
-2061.24 -63.4155 2753
-2054.66 -63.4155 2753
-2051.05 -63.5077 2757
-2044.46 -63.5077 2757
-2037.86 -63.5077 2757
-2031.27 -63.5077 2757
-2024.68 -63.5077 2757
-2011.5 -63.3003 2748
-2008.57 -63.4155 2753
-2004.9 -63.5077 2757
-1998.31 -63.5077 2757
-1991.71 -63.5077 2757
-1985.12 -63.5077 2757
-1972.07 -63.3003 2748
-1965.5 -63.3003 2748
-1956.07 -63.2082 2744
-1945.96 -63.093 2739
-1955.7 -63.6228 2762
-2050.71 -66.9399 2906
-2043.76 -66.9399 2906
-2036.81 -66.9399 2906
-2145.81 -70.7637 3072
-2138.47 -70.7637 3072
-2147.08 -71.2935 3095
-2197.06 -73.2054 3178
-2275.58 -76.0848 3303
-2267.68 -76.0848 3303
-2283.04 -76.868 3337
-2279.15 -77.0062 3343
-2280.67 -77.3287 3357
-2272.64 -77.3287 3357
-2282.83 -77.9506 3384
-2288.85 -78.4344 3405
-2280.71 -78.4344 3405
-2272.57 -78.4344 3405
-2264.42 -78.4344 3405
-2251.64 -78.2731 3398
-2262 -78.9181 3426
-2253.81 -78.9181 3426
-2245.62 -78.9181 3426
-2237.43 -78.9181 3426
-2233.79 -79.0794 3433
-2225.58 -79.0794 3433
-2230.93 -79.5631 3454
-2231.68 -79.8856 3468
-2233.01 -80.2311 3483
-2224.68 -80.2311 3483
-2225.26 -80.5536 3497
-2235.91 -81.2447 3527
-2236.95 -81.5902 3542
-2228.48 -81.5902 3542
-2229.41 -81.9357 3557
-2220.91 -81.9357 3557
-2212.4 -81.9357 3557
-2203.9 -81.9357 3557
-2195.39 -81.9357 3557
-2196.11 -82.2812 3572
-2197.36 -82.6498 3588
-2188.78 -82.6498 3588
-2189.32 -82.9953 3603
-2185.54 -83.1796 3611
-2191.38 -83.7324 3635
-2182.69 -83.7324 3635
-2173.99 -83.7324 3635
-2165.3 -83.7324 3635
-2160.76 -83.8937 3642
-2152.05 -83.8937 3642
-2167.47 -84.8381 3683
-2158.67 -84.8381 3683
-2149.86 -84.8381 3683
-2141.05 -84.8381 3683
-2122.98 -84.4696 3667
-2109.02 -84.2623 3658
-2100.28 -84.2623 3658
-2078.38 -83.7324 3635
-2060.57 -83.3639 3619
-2047.38 -83.1796 3611
-2038.75 -83.1796 3611
-2030.11 -83.1796 3611
-2021.48 -83.1796 3611
-2012.84 -83.1796 3611
-2004.21 -83.1796 3611
-1978.44 -82.4655 3580
-1965.48 -82.2812 3572
-1956.94 -82.2812 3572
-1952.76 -82.4655 3580
-1944.2 -82.4655 3580
-1935.64 -82.4655 3580
-1922.77 -82.2812 3572
-1914.23 -82.2812 3572
-1901.95 -82.12 3565
-1884.93 -81.7514 3549
-1876.44 -81.7514 3549
-1867.96 -81.7514 3549
-1855.8 -81.5902 3542
-1843.16 -81.4059 3534
-1842.5 -81.7514 3549
-1838.14 -81.9357 3557
-1829.64 -81.9357 3557
-1825.23 -82.12 3565
-1816.7 -82.12 3565
-1808.18 -82.12 3565
-1795.61 -81.9357 3557
-1787.11 -81.9357 3557
-1771.1 -81.5902 3542
-1762.63 -81.5902 3542
-1754.16 -81.5902 3542
-1745.69 -81.5902 3542
-1737.22 -81.5902 3542
-1724.85 -81.4059 3534
-1716.4 -81.4059 3534
-1707.95 -81.4059 3534
-1699.5 -81.4059 3534
-1687.7 -81.2447 3527
-1679.26 -81.2447 3527
-1670.83 -81.2447 3527
-1662.39 -81.2447 3527
-1657.24 -81.4059 3534
-1655.79 -81.7514 3549
-1647.3 -81.7514 3549
-1638.82 -81.7514 3549
-1627.11 -81.5902 3542
-1618.64 -81.5902 3542
-1610.17 -81.5902 3542
-1604.87 -81.7514 3549
-1603.58 -82.12 3565
-1595.05 -82.12 3565
-1586.53 -82.12 3565
-1578 -82.12 3565
-1565.96 -81.9357 3557
-1557.45 -81.9357 3557
-1538.93 -81.4059 3534
-1533.94 -81.5902 3542
-1525.47 -81.5902 3542
-1517 -81.5902 3542
-1508.53 -81.5902 3542
-1493.71 -81.2447 3527
-1476.01 -80.7379 3505
-1467.63 -80.7379 3505
-1455.92 -80.5536 3497
-1441.76 -80.2311 3483
-1409.97 -78.9181 3426
-1401.78 -78.9181 3426
-1376.5 -77.9506 3384
-1341.32 -76.4073 3317
-1302.03 -74.6106 3239
-1274.71 -73.4818 3190
-1267.08 -73.4818 3190
-1240.5 -72.3762 3142
-1219.25 -71.5699 3107
-1202.85 -71.0401 3084
-1195.47 -71.0401 3084
-1175 -70.2569 3050
-1155.07 -69.4968 3017
-1137.59 -68.8748 2990
-1120.23 -68.2529 2963
-1113.14 -68.2529 2963
-1102.33 -68.0225 2953
-1091.18 -67.7691 2942
-1084.15 -67.7691 2942
-1077.11 -67.7691 2942
-1070.08 -67.7691 2942
-1063.04 -67.7691 2942
-1056.01 -67.7691 2942
-1048.97 -67.7691 2942
-1040.17 -67.654 2937
-1033.14 -67.654 2937
-1024.37 -67.5388 2932
-1017.36 -67.5388 2932
-1008.63 -67.4236 2927
-999.917 -67.3084 2922
-991.231 -67.1933 2917
-984.255 -67.1933 2917
-975.27 -67.0551 2911
-966.645 -66.9399 2906
-959.696 -66.9399 2906
-954.386 -67.0551 2911
-947.425 -67.0551 2911
-940.464 -67.0551 2911
-933.503 -67.0551 2911
-926.542 -67.0551 2911
-919.581 -67.0551 2911
-912.62 -67.0551 2911
-905.659 -67.0551 2911
-898.698 -67.0551 2911
-890.205 -66.9399 2906
-884.776 -67.0551 2911
-877.815 -67.0551 2911
-870.853 -67.0551 2911
-863.892 -67.0551 2911
-856.931 -67.0551 2911
-849.97 -67.0551 2911
-841.561 -66.9399 2906
-834.612 -66.9399 2906
-827.663 -66.9399 2906
-820.714 -66.9399 2906
-813.765 -66.9399 2906
-806.815 -66.9399 2906
-799.866 -66.9399 2906
-792.917 -66.9399 2906
-785.968 -66.9399 2906
-779.019 -66.9399 2906
-770.741 -66.8247 2901
-763.804 -66.8247 2901
-755.563 -66.7095 2896
-748.637 -66.7095 2896
-741.712 -66.7095 2896
-733.518 -66.5944 2891
-726.605 -66.5944 2891
-719.692 -66.5944 2891
-711.546 -66.4792 2886
-704.645 -66.4792 2886
-696.534 -66.364 2881
-689.645 -66.364 2881
-681.571 -66.2488 2876
-674.693 -66.2488 2876
-665.494 -66.0185 2866
-658.641 -66.0185 2866
-651.787 -66.0185 2866
-644.934 -66.0185 2866
-638.08 -66.0185 2866
-631.227 -66.0185 2866
-621.323 -65.696 2852
-614.503 -65.696 2852
-608.749 -65.8112 2857
-603.813 -66.0185 2866
-596.959 -66.0185 2866
-590.106 -66.0185 2866
-586.305 -66.364 2881
-591.684 -67.7691 2942
-584.648 -67.7691 2942
-589.001 -69.1052 3000
-622.167 -73.8965 3208
-632.693 -76.0848 3303
-624.794 -76.0848 3303
-618.203 -76.246 3310
-611.578 -76.4073 3317
-603.647 -76.4073 3317
-595.715 -76.4073 3317
-590.086 -76.7067 3330
-583.347 -76.868 3337
-577.609 -77.1674 3350
-569.598 -77.1674 3350
-561.587 -77.1674 3350
-554.733 -77.3287 3357
-551.102 -77.9506 3384
-543.01 -77.9506 3384
-536.024 -78.1119 3391
-527.916 -78.1119 3391
-519.807 -78.1119 3391
-511.698 -78.1119 3391
-501.51 -77.7894 3377
-493.434 -77.7894 3377
-485.359 -77.7894 3377
-473.467 -77.1674 3350
-465.457 -77.1674 3350
-455.67 -76.868 3337
-447.691 -76.868 3337
-439.711 -76.868 3337
-431.731 -76.868 3337
-422.862 -76.7067 3330
-414.899 -76.7067 3330
-406.936 -76.7067 3330
-398.973 -76.7067 3330
-391.01 -76.7067 3330
-259.18 -53.0037 2301
-254.008 -53.0728 2304
-248.499 -53.0728 2304
-242.989 -53.0728 2304
-237.479 -53.0728 2304
-232.675 -53.234 2311
-227.148 -53.234 2311
-221.622 -53.234 2311
-215.722 -53.1419 2307
-210.205 -53.1419 2307
-204.422 -53.0728 2304
-198.913 -53.0728 2304
-191.808 -52.6351 2285
-185.855 -52.4969 2279
-179.93 -52.3587 2273
-174.494 -52.3587 2273
-167.646 -51.921 2254
-160.744 -51.4373 2233
-155.196 -51.3682 2230
-149.863 -51.3682 2230
-143.429 -50.9766 2213
-137.013 -50.562 2195
-130.924 -50.2395 2181
-125.363 -50.1013 2175
-120.161 -50.1013 2175
-114.379 -49.8479 2164
-108.901 -49.7097 2158
-103.597 -49.6406 2155
-98.4435 -49.6406 2155
-93.2036 -49.5945 2153
-87.9324 -49.5254 2150
-82.6756 -49.4563 2147
-77.5415 -49.4563 2147
-72.2387 -49.3411 2142
-67.0226 -49.272 2139
-61.8208 -49.2029 2136
-56.7129 -49.2029 2136
-51.4843 -49.0877 2131
-46.3884 -49.0877 2131
-41.2344 -49.0186 2128
-36.1457 -49.0186 2128
-31.0571 -49.0186 2128
-25.8951 -48.8804 2122
-20.8012 -48.8343 2120
-15.7093 -48.7652 2117
-10.647 -48.7652 2117
-5.57666 -48.6961 2114
-0.521442 -48.6961 2114
4.53377 -48.6961 2114
9.58899 -48.6961 2114
14.6303 -48.65 2112
19.6528 -48.5809 2109
24.6961 -48.5809 2109
29.7393 -48.5809 2109
34.7331 -48.5118 2106
39.7314 -48.4658 2104
44.8053 -48.5118 2106
49.8414 -48.5118 2106
54.8775 -48.5118 2106
59.9135 -48.5118 2106
64.8879 -48.4658 2104
69.9193 -48.4658 2104
74.9505 -48.4658 2104
79.9818 -48.4658 2104
85.0132 -48.4658 2104
90.0445 -48.4658 2104
94.9402 -48.3967 2101
100.107 -48.4658 2104
105.138 -48.4658 2104
110.17 -48.4658 2104
115.201 -48.4658 2104
120.232 -48.4658 2104
125.264 -48.4658 2104
130.295 -48.4658 2104
135.455 -48.5118 2106
140.491 -48.5118 2106
145.527 -48.5118 2106
150.778 -48.5809 2109
155.821 -48.5809 2109
160.864 -48.5809 2109
166.143 -48.65 2112
171.194 -48.65 2112
176.411 -48.6961 2114
181.466 -48.6961 2114
186.786 -48.7652 2117
192.12 -48.8343 2120
197.655 -48.9495 2125
202.737 -48.9495 2125
208.112 -49.0186 2128
213.2 -49.0186 2128
218.597 -49.0877 2131
223.693 -49.0877 2131
229.325 -49.2029 2136
234.433 -49.2029 2136
240.774 -49.4563 2147
245.909 -49.4563 2147
251.393 -49.5254 2150
256.893 -49.5945 2153
262.041 -49.5945 2153
267.19 -49.5945 2153
272.338 -49.5945 2153
409.153 -70.5103 3061
416.472 -70.5103 3061
423.792 -70.5103 3061
429.563 -70.2569 3050
436.856 -70.2569 3050
444.15 -70.2569 3050
448.187 -69.7502 3028
453.773 -69.4968 3017
459.307 -69.2434 3006
466.495 -69.2434 3006
473.684 -69.2434 3006
480.872 -69.2434 3006
487.086 -69.1052 3000
494.26 -69.1052 3000
497.924 -68.6214 2979
501.487 -68.1377 2958
506.669 -67.8843 2947
512.845 -67.7691 2942
519.88 -67.7691 2942
526.02 -67.654 2937
531.228 -67.4236 2927
536.389 -67.1933 2917
543.364 -67.1933 2917
549.208 -67.0551 2911
555.213 -66.9399 2906
562.162 -66.9399 2906
569.112 -66.9399 2906
576.061 -66.9399 2906
582.007 -66.8247 2901
586.914 -66.5944 2891
593.827 -66.5944 2891
600.74 -66.5944 2891
606.603 -66.4792 2886
612.441 -66.364 2881
619.33 -66.364 2881
626.22 -66.364 2881
633.109 -66.364 2881
638.888 -66.2488 2876
645.765 -66.2488 2876
652.642 -66.2488 2876
659.52 -66.2488 2876
666.397 -66.2488 2876
673.275 -66.2488 2876
680.152 -66.2488 2876
687.029 -66.2488 2876
693.907 -66.2488 2876
700.784 -66.2488 2876
707.662 -66.2488 2876
713.297 -66.1337 2871
720.162 -66.1337 2871
727.028 -66.1337 2871
733.893 -66.1337 2871
740.758 -66.1337 2871
747.624 -66.1337 2871
754.489 -66.1337 2871
761.355 -66.1337 2871
768.22 -66.1337 2871
775.086 -66.1337 2871
781.951 -66.1337 2871
790.19 -66.2488 2876
797.068 -66.2488 2876
803.945 -66.2488 2876
810.822 -66.2488 2876
816.278 -66.1337 2871
823.144 -66.1337 2871
830.009 -66.1337 2871
838.332 -66.2488 2876
845.209 -66.2488 2876
852.087 -66.2488 2876
858.964 -66.2488 2876
867.347 -66.364 2881
874.236 -66.364 2881
881.125 -66.364 2881
888.015 -66.364 2881
896.457 -66.4792 2886
908.054 -66.8247 2901
916.568 -66.9399 2906
923.517 -66.9399 2906
935.589 -67.3084 2922
944.189 -67.4236 2927
951.189 -67.4236 2927
959.825 -67.5388 2932
966.836 -67.5388 2932
973.848 -67.5388 2932
982.532 -67.654 2937
996.63 -68.1377 2958
1003.7 -68.1377 2958
1010.78 -68.1377 2958
1083.23 -72.5144 3148
1090.76 -72.5144 3148
1117.13 -73.7583 3202
1151.48 -75.5089 3278
1196.81 -77.9506 3384
1204.9 -77.9506 3384
1235.57 -79.4019 3447
1254.28 -80.0699 3476
1265.14 -80.2311 3483
1273.46 -80.2311 3483
1281.79 -80.2311 3483
1295.31 -80.5536 3497
1312.24 -81.0834 3520
1320.66 -81.0834 3520
1329.08 -81.0834 3520
1337.5 -81.0834 3520
1345.91 -81.0834 3520
1345.48 -80.5536 3497
1345.71 -80.0699 3476
1345.46 -79.5631 3454
1348.23 -79.2406 3440
1356.46 -79.2406 3440
1356.35 -78.7569 3419
1353.35 -78.1119 3391
1347.81 -77.3287 3357
1355.84 -77.3287 3357
1363.86 -77.3287 3357
1371.89 -77.3287 3357
1377.04 -77.1674 3350
1385.05 -77.1674 3350
1393.06 -77.1674 3350
1395.64 -76.868 3337
1395.21 -76.4073 3317
1400.18 -76.246 3310
1408.09 -76.246 3310
1413.01 -76.0848 3303
1418.33 -75.9466 3297
1426.21 -75.9466 3297
1434.1 -75.9466 3297
1441.98 -75.9466 3297
1446.79 -75.7853 3290
1452 -75.6471 3284
1459.86 -75.6471 3284
1465.03 -75.5089 3278
1472.87 -75.5089 3278
1486.12 -75.7853 3290
1493.99 -75.7853 3290
1501.86 -75.7853 3290
1504.22 -75.5089 3278
1512.06 -75.5089 3278
1540.76 -76.5455 3323
1551.97 -76.7067 3330
1559.93 -76.7067 3330
1580.61 -77.3287 3357
1591.48 -77.4669 3363
1599.52 -77.4669 3363
1607.56 -77.4669 3363
1615.6 -77.4669 3363
1620.75 -77.3287 3357
1628.78 -77.3287 3357
1629.98 -77.0062 3343
1637.97 -77.0062 3343
1639.56 -76.7067 3330
1647.53 -76.7067 3330
1655.49 -76.7067 3330
1656.96 -76.4073 3317
1654.85 -75.9466 3297
1662.74 -75.9466 3297
1660.99 -75.5089 3278
1662.21 -75.2095 3265
1670.02 -75.2095 3265
1677.83 -75.2095 3265
1685.64 -75.2095 3265
1689.81 -75.0482 3258
1681.45 -74.3341 3227
1689.17 -74.3341 3227
1696.89 -74.3341 3227
1697.74 -74.0347 3214
1712.32 -74.3341 3227
1723.23 -74.4724 3233
1730.97 -74.4724 3233
1738.7 -74.4724 3233
1746.43 -74.4724 3233
1747.65 -74.1959 3221
1755.35 -74.1959 3221
1739.52 -73.2054 3178
1720.73 -72.0997 3130
1708.89 -71.2935 3095
1688.01 -70.1187 3044
1695.29 -70.1187 3044
1690.26 -69.612 3022
1667.15 -68.3681 2968
1662.41 -67.8843 2947
1669.45 -67.8843 2947
1644.64 -66.5944 2891
1632.13 -65.8112 2857
1627.49 -65.3505 2837
1629.09 -65.1432 2828
1635.85 -65.1432 2828
1636.81 -64.9128 2818
1638.3 -64.7055 2809
1639.16 -64.4751 2799
1645.85 -64.4751 2799
1649.59 -64.36 2794
1656.27 -64.36 2794
1657.6 -64.1526 2785
1664.26 -64.1526 2785
1665.52 -63.9453 2776
1669.14 -63.8302 2771
1675.77 -63.8302 2771
1682.4 -63.8302 2771
1689.02 -63.8302 2771
1695.65 -63.8302 2771
1696.75 -63.6228 2762
1700.27 -63.5077 2757
1706.86 -63.5077 2757
1710.97 -63.4155 2753
1717.55 -63.4155 2753
1721 -63.3003 2748
1727.57 -63.3003 2748
1734.15 -63.3003 2748
1738.18 -63.2082 2744
1741.57 -63.093 2739
1748.12 -63.093 2739
1752.1 -63.0009 2735
1758.64 -63.0009 2735
1759.37 -62.7936 2726
1762.65 -62.6784 2721
1769.16 -62.6784 2721
1767.18 -62.3789 2708
1765.15 -62.0795 2695
1763.04 -61.78 2682
1769.46 -61.78 2682
1769.91 -61.5727 2673
1770.99 -61.3884 2665
1771.36 -61.1811 2656
1777.71 -61.1811 2656
1776 -60.9047 2644
1782.32 -60.9047 2644
1782.56 -60.6974 2635
1788.86 -60.6974 2635
1795.16 -60.6974 2635
1801.46 -60.6974 2635
1805.02 -60.6052 2631
1811.31 -60.6052 2631
1817.6 -60.6052 2631
1823.89 -60.6052 2631
1830.18 -60.6052 2631
1836.47 -60.6052 2631
1842.77 -60.6052 2631
1851.87 -60.6974 2635
1858.17 -60.6974 2635
1868.01 -60.8126 2640
1874.32 -60.8126 2640
1880.63 -60.8126 2640
1880.52 -60.6052 2631
1886.81 -60.6052 2631
1895.98 -60.6974 2635
1905.89 -60.8126 2640
1912.2 -60.8126 2640
1918.51 -60.8126 2640
1924.83 -60.8126 2640
1931.14 -60.8126 2640
1933.78 -60.6974 2635
1940.08 -60.6974 2635
1946.38 -60.6974 2635
1952.69 -60.6974 2635
1956.01 -60.6052 2631
1962.3 -60.6052 2631
1968.6 -60.6052 2631
1974.89 -60.6052 2631
1981.18 -60.6052 2631
1987.47 -60.6052 2631
1990.73 -60.5131 2627
1993.97 -60.421 2623
2000.24 -60.421 2623
2003.46 -60.3288 2619
-2067.98 -57.0064 2762
-2061.37 -57.0064 2762
-2054.77 -57.0064 2762
-2048.16 -57.0064 2762
-2034.91 -56.8207 2753
-2028.32 -56.8207 2753
-2021.74 -56.8207 2753
-2015.16 -56.8207 2753
-2008.57 -56.8207 2753
-2004.9 -56.9032 2757
-1998.31 -56.9032 2757
-1991.71 -56.9032 2757
-1985.12 -56.9032 2757
-1975.66 -56.8207 2753
-1969.07 -56.8207 2753
-1956.07 -56.6349 2744
-1949.51 -56.6349 2744
-1955.7 -57.0064 2762
-2019.66 -59.0704 2862
-2012.82 -59.0704 2862
-2005.97 -59.0704 2862
-2122.76 -62.7236 3039
-2115.5 -62.7236 3039
-2142.92 -63.7556 3089
-2184.61 -65.221 3160
-2249.4 -67.3881 3265
-2241.59 -67.3881 3265
-2259.78 -68.1724 3303
-2251.88 -68.1724 3303
-2262.32 -68.7297 3330
-2254.36 -68.7297 3330
-2264.61 -69.287 3357
-2274.73 -69.8442 3384
-2266.64 -69.8442 3384
-2258.55 -69.8442 3384
-2245.8 -69.6998 3377
-2247 -69.9887 3391
-2248.14 -70.2777 3405
-2240 -70.2777 3405
-2241.03 -70.5666 3419
-2232.85 -70.5666 3419
-2224.68 -70.5666 3419
-2216.5 -70.5666 3419
-2217.37 -70.8556 3433
-2218.17 -71.1445 3447
-2218.9 -71.4335 3461
-2210.63 -71.4335 3461
-2216.35 -71.8876 3483
-2221.97 -72.3416 3505
-2223.06 -72.6512 3520
-2214.64 -72.6512 3520
-2220.01 -73.1053 3542
-2211.54 -73.1053 3542
-2203.07 -73.1053 3542
-2194.6 -73.1053 3542
-2186.13 -73.1053 3542
-2181.97 -73.2498 3549
-2201.65 -74.1992 3595
-2193.05 -74.1992 3595
-2189.32 -74.3643 3603
-2200.07 -75.0248 3635
-2191.38 -75.0248 3635
-2182.69 -75.0248 3635
-2173.99 -75.0248 3635
-2169.47 -75.1692 3642
-2185.09 -76.0155 3683
-2176.28 -76.0155 3683
-2172.18 -76.1806 3691
-2163.35 -76.1806 3691
-2154.53 -76.1806 3691
-2141.05 -76.0155 3683
-2132.24 -76.0155 3683
-2114.21 -75.6852 3667
-2105.44 -75.6852 3667
-2086.95 -75.3344 3650
-2069.68 -75.0248 3635
-2051.92 -74.6945 3619
-2043.27 -74.6945 3619
-2034.61 -74.6945 3619
-2021.48 -74.5294 3611
-2012.84 -74.5294 3611
-2004.21 -74.5294 3611
-1978.44 -73.8896 3580
-1965.48 -73.7245 3572
-1956.94 -73.7245 3572
-1952.76 -73.8896 3580
-1944.2 -73.8896 3580
-1935.64 -73.8896 3580
-1922.77 -73.7245 3572
-1914.23 -73.7245 3572
-1901.95 -73.58 3565
-1884.93 -73.2498 3549
-1876.44 -73.2498 3549
-1867.96 -73.2498 3549
-1855.8 -73.1053 3542
-1843.16 -72.9402 3534
-1842.5 -73.2498 3549
-1838.14 -73.4149 3557
-1829.64 -73.4149 3557
-1825.23 -73.58 3565
-1816.7 -73.58 3565
-1808.18 -73.58 3565
-1795.61 -73.4149 3557
-1787.11 -73.4149 3557
-1771.1 -73.1053 3542
-1766.12 -73.2498 3549
-1757.63 -73.2498 3549
-1749.14 -73.2498 3549
-1737.22 -73.1053 3542
-1724.85 -72.9402 3534
-1716.4 -72.9402 3534
-1707.95 -72.9402 3534
-1699.5 -72.9402 3534
-1687.7 -72.7957 3527
-1679.26 -72.7957 3527
-1670.83 -72.7957 3527
-1662.39 -72.7957 3527
-1660.99 -73.1053 3542
-1655.79 -73.2498 3549
-1647.3 -73.2498 3549
-1638.82 -73.2498 3549
-1630.33 -73.2498 3549
-1621.84 -73.2498 3549
-1613.35 -73.2498 3549
-1612.1 -73.58 3565
-1603.58 -73.58 3565
-1595.05 -73.58 3565
-1586.53 -73.58 3565
-1578 -73.58 3565
-1565.96 -73.4149 3557
-1557.45 -73.4149 3557
-1545.46 -73.2498 3549
-1533.94 -73.1053 3542
-1525.47 -73.1053 3542
-1517 -73.1053 3542
-1508.53 -73.1053 3542
-1493.71 -72.7957 3527
-1476.01 -72.3416 3505
-1467.63 -72.3416 3505
-1455.92 -72.1765 3497
-1441.76 -71.8876 3483
-1421.5 -71.289 3454
-1413.24 -71.289 3454
-1382.2 -70.1332 3398
-1346.58 -68.7297 3330
-1304.85 -66.996 3246
-1277.1 -65.964 3196
-1269.46 -65.964 3196
-1242.87 -64.9733 3148
-1223.57 -64.3541 3118
-1207.14 -63.8794 3095
-1199.74 -63.8794 3095
-1179.24 -63.1777 3061
-1161.2 -62.5998 3033
-1139.49 -61.8155 2995
-1126.28 -61.4852 2979
-1119.15 -61.4852 2979
-1102.33 -60.9486 2953
-1095.26 -60.9486 2953
-1088.2 -60.9486 2953
-1082.97 -61.0518 2958
-1075.9 -61.0518 2958
-1068.82 -61.0518 2958
-1061.75 -61.0518 2958
-1054.68 -61.0518 2958
-1041.94 -60.7216 2942
-1034.9 -60.7216 2942
-1026.12 -60.6184 2937
-1019.1 -60.6184 2937
-1010.35 -60.5152 2932
-1001.63 -60.412 2927
-992.93 -60.3088 2922
-985.942 -60.3088 2922
-977.28 -60.2056 2917
-968.309 -60.0817 2911
-961.348 -60.0817 2911
-954.386 -60.0817 2911
-947.425 -60.0817 2911
-940.464 -60.0817 2911
-935.427 -60.2056 2917
-928.452 -60.2056 2917
-921.476 -60.2056 2917
-914.501 -60.2056 2917
-905.659 -60.0817 2911
-898.698 -60.0817 2911
-891.737 -60.0817 2911
-884.776 -60.0817 2911
-877.815 -60.0817 2911
-870.853 -60.0817 2911
-863.892 -60.0817 2911
-856.931 -60.0817 2911
-849.97 -60.0817 2911
-843.009 -60.0817 2911
-836.048 -60.0817 2911
-827.663 -59.9785 2906
-822.126 -60.0817 2911
-815.165 -60.0817 2911
-808.204 -60.0817 2911
-801.243 -60.0817 2911
-794.282 -60.0817 2911
-787.32 -60.0817 2911
-780.359 -60.0817 2911
-773.398 -60.0817 2911
-763.804 -59.8753 2901
-756.867 -59.8753 2901
-749.93 -59.8753 2901
-742.993 -59.8753 2901
-734.787 -59.7721 2896
-727.862 -59.7721 2896
-720.937 -59.7721 2896
-712.779 -59.6689 2891
-704.645 -59.5657 2886
-696.534 -59.4625 2881
-689.645 -59.4625 2881
-682.756 -59.4625 2881
-674.693 -59.3593 2876
-666.655 -59.2562 2871
-659.79 -59.2562 2871
-652.924 -59.2562 2871
-646.059 -59.2562 2871
-638.08 -59.153 2866
-631.227 -59.153 2866
-623.502 -59.0704 2862
-616.658 -59.0704 2862
-610.666 -59.153 2866
-603.813 -59.153 2866
-599.042 -59.3593 2876
-592.165 -59.3593 2876
-587.322 -59.5657 2886
-591.684 -60.7216 2942
-584.648 -60.7216 2942
-589.001 -61.9187 3000
-622.167 -66.2117 3208
-632.693 -68.1724 3303
-624.794 -68.1724 3303
-618.203 -68.3169 3310
-613.975 -68.7297 3330
-606.012 -68.7297 3330
-598.049 -68.7297 3330
-590.086 -68.7297 3330
-585.62 -69.1425 3350
-581.057 -69.5553 3370
-572.998 -69.5553 3370
-567.287 -69.8442 3384
-560.351 -69.9887 3391
-553.382 -70.1332 3398
-545.257 -70.1332 3398
-538.237 -70.2777 3405
-530.095 -70.2777 3405
-521.953 -70.2777 3405
-513.81 -70.2777 3405
-505.668 -70.2777 3405
-496.503 -70.1332 3398
-488.377 -70.1332 3398
-477.283 -69.6998 3377
-469.208 -69.6998 3377
-458.401 -69.287 3357
-450.374 -69.287 3357
-442.346 -69.287 3357
-434.319 -69.287 3357
-426.291 -69.287 3357
-418.263 -69.287 3357
-410.236 -69.287 3357
-402.208 -69.287 3357
-394.181 -69.287 3357
-383.047 -68.7297 3330
-375.084 -68.7297 3330
-254.008 -47.5535 2304
-248.499 -47.5535 2304
-243.727 -47.698 2311
-238.201 -47.698 2311
-232.977 -47.7599 2314
-227.443 -47.7599 2314
-221.91 -47.7599 2314
-216.376 -47.7599 2314
-210.569 -47.698 2311
-204.422 -47.5535 2304
-198.913 -47.5535 2304
-191.808 -47.1614 2285
-186.099 -47.0995 2282
-179.93 -46.9137 2273
-174.494 -46.9137 2273
-167.646 -46.5215 2254
-161.176 -46.212 2239
-155.196 -46.0262 2230
-149.863 -46.0262 2230
-143.558 -45.7166 2215
-137.2 -45.3657 2198
-131.104 -45.0768 2184
-125.535 -44.9529 2178
-120.327 -44.9529 2178
-114.379 -44.664 2164
-109.053 -44.6021 2161
-103.597 -44.4782 2155
-98.4435 -44.4782 2155
-93.2036 -44.437 2153
-87.9324 -44.375 2150
-82.6756 -44.3131 2147
-77.5415 -44.3131 2147
-72.2387 -44.2099 2142
-67.0226 -44.148 2139
-61.8208 -44.0861 2136
-56.7129 -44.0861 2136
-51.4843 -43.9829 2131
-46.3884 -43.9829 2131
-41.2344 -43.921 2128
-36.1457 -43.921 2128
-31.0571 -43.921 2128
-25.8951 -43.7971 2122
-20.8208 -43.7971 2122
-15.7093 -43.6939 2117
-10.647 -43.6939 2117
-5.58457 -43.6939 2117
-0.521442 -43.632 2114
4.53377 -43.632 2114
9.58899 -43.632 2114
14.6442 -43.632 2114
19.6808 -43.5907 2112
24.6961 -43.5288 2109
29.7393 -43.5288 2109
34.7331 -43.4669 2106
39.7692 -43.4669 2106
44.8053 -43.4669 2106
49.8414 -43.4669 2106
54.8775 -43.4669 2106
59.9135 -43.4669 2106
64.9496 -43.4669 2106
69.9857 -43.4669 2106
75.0218 -43.4669 2106
80.0579 -43.4669 2106
85.094 -43.4669 2106
90.1301 -43.4669 2106
95.0758 -43.4256 2104
100.107 -43.4256 2104
105.138 -43.4256 2104
110.17 -43.4256 2104
115.201 -43.4256 2104
120.232 -43.4256 2104
125.264 -43.4256 2104
130.295 -43.4256 2104
135.455 -43.4669 2106
140.491 -43.4669 2106
145.527 -43.4669 2106
150.778 -43.5288 2109
155.821 -43.5288 2109
160.864 -43.5288 2109
166.143 -43.5907 2112
171.194 -43.5907 2112
176.411 -43.632 2114
181.466 -43.632 2114
186.786 -43.6939 2117
192.12 -43.7558 2120
197.655 -43.859 2125
202.737 -43.859 2125
208.112 -43.921 2128
213.501 -43.9829 2131
218.597 -43.9829 2131
223.693 -43.9829 2131
229.325 -44.0861 2136
234.762 -44.148 2139
241.111 -44.375 2150
246.252 -44.375 2150
251.978 -44.4782 2155
257.131 -44.4782 2155
262.285 -44.4782 2155
267.438 -44.4782 2155
272.591 -44.4782 2155
410.623 -63.4047 3072
417.969 -63.4047 3072
425.315 -63.4047 3072
431.112 -63.1777 3061
438.432 -63.1777 3061
445.751 -63.1777 3061
450.555 -62.8268 3044
456.18 -62.5998 3033
461.752 -62.3727 3022
468.978 -62.3727 3022
476.205 -62.3727 3022
483.431 -62.3727 3022
488.06 -62.0425 3006
495.248 -62.0425 3006
497.924 -61.4852 2979
505.047 -61.4852 2979
508.561 -61.0518 2958
512.845 -60.7216 2942
519.88 -60.7216 2942
526.02 -60.6184 2937
531.228 -60.412 2927
536.389 -60.2056 2917
543.364 -60.2056 2917
549.208 -60.0817 2911
556.169 -60.0817 2911
562.162 -59.9785 2906
569.112 -59.9785 2906
576.061 -59.9785 2906
583.01 -59.9785 2906
587.929 -59.7721 2896
594.854 -59.7721 2896
600.74 -59.6689 2891
607.654 -59.6689 2891
613.504 -59.5657 2886
620.405 -59.5657 2886
627.307 -59.5657 2886
634.208 -59.5657 2886
639.998 -59.4625 2881
646.888 -59.4625 2881
653.777 -59.4625 2881
660.666 -59.4625 2881
667.556 -59.4625 2881
674.445 -59.4625 2881
681.334 -59.4625 2881
688.224 -59.4625 2881
695.113 -59.4625 2881
700.784 -59.3593 2876
707.662 -59.3593 2876
714.539 -59.3593 2876
721.416 -59.3593 2876
728.294 -59.3593 2876
735.171 -59.3593 2876
742.048 -59.3593 2876
748.926 -59.3593 2876
754.489 -59.2562 2871
761.355 -59.2562 2871
768.22 -59.2562 2871
775.086 -59.2562 2871
783.313 -59.3593 2876
790.19 -59.3593 2876
797.068 -59.3593 2876
803.945 -59.3593 2876
810.822 -59.3593 2876
816.278 -59.2562 2871
824.577 -59.3593 2876
831.455 -59.3593 2876
838.332 -59.3593 2876
845.209 -59.3593 2876
853.568 -59.4625 2881
860.457 -59.4625 2881
867.347 -59.4625 2881
874.236 -59.4625 2881
881.125 -59.4625 2881
888.015 -59.4625 2881
896.457 -59.5657 2886
909.619 -59.9785 2906
920.037 -60.2056 2917
927.013 -60.2056 2917
937.19 -60.412 2927
947.415 -60.6184 2937
954.439 -60.6184 2937
963.099 -60.7216 2942
970.134 -60.7216 2942
978.83 -60.8248 2947
989.557 -61.0518 2958
996.63 -61.0518 2958
1003.7 -61.0518 2958
1010.78 -61.0518 2958
1099.75 -65.964 3196
1107.39 -65.964 3196
1134.57 -67.1198 3252
1155.69 -67.9041 3290
1196.81 -69.8442 3384
1204.9 -69.8442 3384
1235.57 -71.1445 3447
1254.28 -71.7431 3476
1265.14 -71.8876 3483
1273.46 -71.8876 3483
1281.79 -71.8876 3483
1295.31 -72.1765 3497
1312.24 -72.6512 3520
1320.66 -72.6512 3520
1329.08 -72.6512 3520
1337.5 -72.6512 3520
1345.91 -72.6512 3520
1345.48 -72.1765 3497
1345.71 -71.7431 3476
1345.46 -71.289 3454
1348.23 -71.0001 3440
1356.46 -71.0001 3440
1356.35 -70.5666 3419
1353.35 -69.9887 3391
1347.81 -69.287 3357
1355.84 -69.287 3357
1363.86 -69.287 3357
1371.89 -69.287 3357
1377.04 -69.1425 3350
1385.05 -69.1425 3350
1393.06 -69.1425 3350
1395.64 -68.8742 3337
1395.21 -68.4614 3317
1400.18 -68.3169 3310
1408.09 -68.3169 3310
1413.01 -68.1724 3303
1418.33 -68.0486 3297
1426.21 -68.0486 3297
1434.1 -68.0486 3297
1441.98 -68.0486 3297
1446.79 -67.9041 3290
1454.66 -67.9041 3290
1462.52 -67.9041 3290
1470.39 -67.9041 3290
1478.26 -67.9041 3290
1486.12 -67.9041 3290
1493.99 -67.9041 3290
1501.86 -67.9041 3290
1504.22 -67.6564 3278
1512.06 -67.6564 3278
1540.76 -68.5852 3323
1551.97 -68.7297 3330
1559.93 -68.7297 3330
1580.61 -69.287 3357
1591.48 -69.4108 3363
1599.52 -69.4108 3363
1607.56 -69.4108 3363
1615.6 -69.4108 3363
1620.75 -69.287 3357
1628.78 -69.287 3357
1629.98 -68.998 3343
1637.97 -68.998 3343
1639.56 -68.7297 3330
1647.53 -68.7297 3330
1655.49 -68.7297 3330
1656.96 -68.4614 3317
1654.85 -68.0486 3297
1662.74 -68.0486 3297
1660.99 -67.6564 3278
1662.21 -67.3881 3265
1670.02 -67.3881 3265
1677.83 -67.3881 3265
1685.64 -67.3881 3265
1689.81 -67.2437 3258
1684.58 -66.7277 3233
1689.17 -66.6038 3227
1696.89 -66.6038 3227
1704.6 -66.6038 3227
1712.32 -66.6038 3227
1723.23 -66.7277 3233
1730.97 -66.7277 3233
1738.7 -66.7277 3233
1746.43 -66.7277 3233
1747.65 -66.48 3221
1755.35 -66.48 3221
1739.52 -65.5925 3178
1727.32 -64.8495 3142
1718.27 -64.2303 3112
1710.19 -63.6524 3084
1717.56 -63.6524 3084
1702.56 -62.8268 3044
1697.49 -62.3727 3022
1674.25 -61.2582 2968
1681.35 -61.2582 2968
1656.02 -60.0817 2911
1637.27 -59.153 2866
1636.1 -58.864 2852
1634.27 -58.5544 2837
1641.06 -58.5544 2837
1639.71 -58.2655 2823
1640.63 -58.0591 2813
1642.09 -57.8733 2804
1648.79 -57.8733 2804
1652.54 -57.7701 2799
1656.27 -57.6669 2794
1657.6 -57.4812 2785
1664.26 -57.4812 2785
1665.52 -57.2954 2776
1669.14 -57.1922 2771
1675.77 -57.1922 2771
1682.4 -57.1922 2771
1689.02 -57.1922 2771
1695.65 -57.1922 2771
1702.28 -57.1922 2771
1703.35 -57.0064 2762
1709.96 -57.0064 2762
1713.45 -56.9032 2757
1720.05 -56.9032 2757
1724.13 -56.8207 2753
1730.72 -56.8207 2753
1734.15 -56.7175 2748
1740.72 -56.7175 2748
1744.74 -56.6349 2744
1751.31 -56.6349 2744
1757.87 -56.6349 2744
1761.21 -56.5317 2739
1765.18 -56.4492 2735
1765.89 -56.2634 2726
1772.41 -56.2634 2726
1773.06 -56.0777 2717
1771.04 -55.8093 2704
1765.67 -55.4378 2686
1772.1 -55.4378 2686
1775.87 -55.3553 2682
1776.3 -55.1695 2673
1777.36 -55.0044 2665
1783.73 -55.0044 2665
1781.37 -54.7361 2652
1782.32 -54.571 2644
1788.65 -54.571 2644
1792.25 -54.4884 2640
1798.57 -54.4884 2640
1801.46 -54.3852 2635
1807.76 -54.3852 2635
1814.06 -54.3852 2635
1820.36 -54.3852 2635
1826.66 -54.3852 2635
1832.97 -54.3852 2635
1839.27 -54.3852 2635
1845.57 -54.3852 2635
1851.87 -54.3852 2635
1861.7 -54.4884 2640
1870.84 -54.571 2644
1877.16 -54.571 2644
1883.48 -54.571 2644
1889.81 -54.571 2644
1893.26 -54.4884 2640
1899.57 -54.4884 2640
1908.77 -54.571 2644
1915.1 -54.571 2644
1921.42 -54.571 2644
1927.74 -54.571 2644
1934.07 -54.571 2644
1937.45 -54.4884 2640
1943.77 -54.4884 2640
1950.08 -54.4884 2640
1956.39 -54.4884 2640
1958.99 -54.3852 2635
1965.29 -54.3852 2635
1971.59 -54.3852 2635
1977.89 -54.3852 2635
1984.19 -54.3852 2635
1990.49 -54.3852 2635
1993.76 -54.3027 2631
1993.97 -54.1375 2623
2000.24 -54.1375 2623
2003.46 -54.055 2619
-2067.98 -50.39 2762
-2061.37 -50.39 2762
-2054.77 -50.39 2762
-2048.16 -50.39 2762
-2034.91 -50.2258 2753
-2028.32 -50.2258 2753
-2021.74 -50.2258 2753
-2015.16 -50.2258 2753
-2008.57 -50.2258 2753
-2004.9 -50.2988 2757
-1998.31 -50.2988 2757
-1991.71 -50.2988 2757
-1985.12 -50.2988 2757
-1975.66 -50.2258 2753
-1969.07 -50.2258 2753
-1956.07 -50.0617 2744
-1949.51 -50.0617 2744
-1955.7 -50.39 2762
-1998.49 -51.6671 2832
-1991.72 -51.6671 2832
-1984.94 -51.6671 2832
-2108.23 -55.4436 3039
-2155.58 -56.8849 3118
-2249.4 -59.5668 3265
-2241.59 -59.5668 3265
-2242.67 -59.804 3278
-2251.88 -60.2601 3303
-2262.32 -60.7527 3330
-2254.36 -60.7527 3330
-2264.61 -61.2453 3357
-2260.62 -61.3547 3363
-2252.58 -61.3547 3363
-2244.53 -61.3547 3363
-2245.8 -61.6101 3377
-2247 -61.8655 3391
-2238.9 -61.8655 3391
-2230.79 -61.8655 3391
-2222.68 -61.8655 3391
-2223.71 -62.121 3405
-2220.12 -62.2487 3412
-2211.96 -62.2487 3412
-2212.85 -62.5041 3426
-2218.17 -62.8872 3447
-2218.9 -63.1426 3461
-2210.63 -63.1426 3461
-2211.89 -63.4163 3476
-2216.9 -63.7994 3497
-2218.01 -64.0731 3512
-2209.61 -64.0731 3512
-2215 -64.4744 3534
-2211.54 -64.6204 3542
-2203.07 -64.6204 3542
-2194.6 -64.6204 3542
-2186.13 -64.6204 3542
-2181.97 -64.7481 3549
-2201.65 -65.5873 3595
-2193.05 -65.5873 3595
-2189.32 -65.7333 3603
-2200.07 -66.3171 3635
-2191.38 -66.3171 3635
-2182.69 -66.3171 3635
-2173.99 -66.3171 3635
-2169.47 -66.4448 3642
-2185.09 -67.1928 3683
-2176.28 -67.1928 3683
-2172.18 -67.3388 3691
-2163.35 -67.3388 3691
-2154.53 -67.3388 3691
-2141.05 -67.1928 3683
-2132.24 -67.1928 3683
-2114.21 -66.9009 3667
-2105.44 -66.9009 3667
-2086.95 -66.5908 3650
-2069.68 -66.3171 3635
-2051.92 -66.0252 3619
-2043.27 -66.0252 3619
-2034.61 -66.0252 3619
-2021.48 -65.8792 3611
-2012.84 -65.8792 3611
-2004.21 -65.8792 3611
-1978.44 -65.3137 3580
-1965.48 -65.1677 3572
-1956.94 -65.1677 3572
-1952.76 -65.3137 3580
-1944.2 -65.3137 3580
-1935.64 -65.3137 3580
-1922.77 -65.1677 3572
-1914.23 -65.1677 3572
-1901.95 -65.04 3565
-1884.93 -64.7481 3549
-1876.44 -64.7481 3549
-1867.96 -64.7481 3549
-1855.8 -64.6204 3542
-1843.16 -64.4744 3534
-1838.86 -64.6204 3542
-1834.01 -64.7481 3549
-1825.52 -64.7481 3549
-1821.13 -64.8941 3557
-1812.63 -64.8941 3557
-1804.12 -64.8941 3557
-1795.61 -64.8941 3557
-1787.11 -64.8941 3557
-1771.1 -64.6204 3542
-1766.12 -64.7481 3549
-1757.63 -64.7481 3549
-1749.14 -64.7481 3549
-1737.22 -64.6204 3542
-1724.85 -64.4744 3534
-1716.4 -64.4744 3534
-1707.95 -64.4744 3534
-1699.5 -64.4744 3534
-1687.7 -64.3467 3527
-1679.26 -64.3467 3527
-1670.83 -64.3467 3527
-1662.39 -64.3467 3527
-1660.99 -64.6204 3542
-1655.79 -64.7481 3549
-1647.3 -64.7481 3549
-1638.82 -64.7481 3549
-1630.33 -64.7481 3549
-1621.84 -64.7481 3549
-1613.35 -64.7481 3549
-1612.1 -65.04 3565
-1603.58 -65.04 3565
-1595.05 -65.04 3565
-1586.53 -65.04 3565
-1578 -65.04 3565
-1562.43 -64.7481 3549
-1553.95 -64.7481 3549
-1545.46 -64.7481 3549
-1530.48 -64.4744 3534
-1522.03 -64.4744 3534
-1513.58 -64.4744 3534
-1505.13 -64.4744 3534
-1490.75 -64.219 3520
-1476.01 -63.9454 3505
-1467.63 -63.9454 3505
-1453 -63.6717 3490
-1438.86 -63.4163 3476
-1421.5 -63.0149 3454
-1413.24 -63.0149 3454
-1382.2 -61.9933 3398
-1346.58 -60.7527 3330
-1304.85 -59.2202 3246
-1277.1 -58.308 3196
-1269.46 -58.308 3196
-1242.87 -57.4322 3148
-1223.57 -56.8849 3118
-1207.14 -56.4653 3095
-1199.74 -56.4653 3095
-1179.24 -55.845 3061
-1161.2 -55.3342 3033
-1139.49 -54.6409 2995
-1126.28 -54.349 2979
-1119.15 -54.349 2979
-1102.33 -53.8747 2953
-1095.26 -53.8747 2953
-1088.2 -53.8747 2953
-1082.97 -53.9659 2958
-1075.9 -53.9659 2958
-1068.82 -53.9659 2958
-1061.75 -53.9659 2958
-1054.68 -53.9659 2958
-1041.94 -53.674 2942
-1034.9 -53.674 2942
-1026.12 -53.5828 2937
-1019.1 -53.5828 2937
-1010.35 -53.4915 2932
-1001.63 -53.4003 2927
-992.93 -53.3091 2922
-985.942 -53.3091 2922
-977.28 -53.2179 2917
-968.309 -53.1084 2911
-961.348 -53.1084 2911
-954.386 -53.1084 2911
-947.425 -53.1084 2911
-940.464 -53.1084 2911
-935.427 -53.2179 2917
-928.452 -53.2179 2917
-921.476 -53.2179 2917
-914.501 -53.2179 2917
-905.659 -53.1084 2911
-898.698 -53.1084 2911
-891.737 -53.1084 2911
-884.776 -53.1084 2911
-877.815 -53.1084 2911
-870.853 -53.1084 2911
-863.892 -53.1084 2911
-856.931 -53.1084 2911
-849.97 -53.1084 2911
-843.009 -53.1084 2911
-836.048 -53.1084 2911
-827.663 -53.0172 2906
-822.126 -53.1084 2911
-815.165 -53.1084 2911
-808.204 -53.1084 2911
-801.243 -53.1084 2911
-794.282 -53.1084 2911
-787.32 -53.1084 2911
-780.359 -53.1084 2911
-773.398 -53.1084 2911
-763.804 -52.926 2901
-756.867 -52.926 2901
-749.93 -52.926 2901
-742.993 -52.926 2901
-734.787 -52.8347 2896
-727.862 -52.8347 2896
-720.937 -52.8347 2896
-712.779 -52.7435 2891
-704.645 -52.6523 2886
-696.534 -52.5611 2881
-689.645 -52.5611 2881
-682.756 -52.5611 2881
-674.693 -52.4699 2876
-666.655 -52.3786 2871
-659.79 -52.3786 2871
-652.924 -52.3786 2871
-646.059 -52.3786 2871
-638.08 -52.2874 2866
-631.227 -52.2874 2866
-623.502 -52.2145 2862
-616.658 -52.2145 2862
-610.666 -52.2874 2866
-603.813 -52.2874 2866
-599.042 -52.4699 2876
-592.165 -52.4699 2876
-587.322 -52.6523 2886
-590.678 -53.5828 2937
-583.655 -53.5828 2937
-589.001 -54.7321 3000
-622.167 -58.5269 3208
-632.693 -60.2601 3303
-624.794 -60.2601 3303
-618.203 -60.3878 3310
-613.975 -60.7527 3330
-606.012 -60.7527 3330
-598.049 -60.7527 3330
-590.086 -60.7527 3330
-585.62 -61.1175 3350
-581.057 -61.4824 3370
-572.998 -61.4824 3370
-567.287 -61.7378 3384
-560.351 -61.8655 3391
-553.382 -61.9933 3398
-545.257 -61.9933 3398
-538.237 -62.121 3405
-530.095 -62.121 3405
-521.953 -62.121 3405
-513.81 -62.121 3405
-505.668 -62.121 3405
-496.503 -61.9933 3398
-488.377 -61.9933 3398
-477.283 -61.6101 3377
-469.208 -61.6101 3377
-458.401 -61.2453 3357
-450.374 -61.2453 3357
-442.346 -61.2453 3357
-434.319 -61.2453 3357
-426.291 -61.2453 3357
-418.263 -61.2453 3357
-410.236 -61.2453 3357
-402.208 -61.2453 3357
-394.181 -61.2453 3357
-383.047 -60.7527 3330
-375.084 -60.7527 3330
-254.008 -42.0343 2304
-248.499 -42.0343 2304
-243.727 -42.162 2311
-238.201 -42.162 2311
-232.977 -42.2167 2314
-227.443 -42.2167 2314
-221.91 -42.2167 2314
-216.376 -42.2167 2314
-210.569 -42.162 2311
-204.422 -42.0343 2304
-198.913 -42.0343 2304
-191.808 -41.6876 2285
-186.099 -41.6329 2282
-179.93 -41.4687 2273
-174.494 -41.4687 2273
-167.423 -41.0673 2251
-161.176 -40.8484 2239
-154.987 -40.6295 2227
-149.661 -40.6295 2227
-143.558 -40.4106 2215
-137.2 -40.1004 2198
-131.104 -39.845 2184
-125.535 -39.7355 2178
-120.327 -39.7355 2178
-114.379 -39.4801 2164
-109.053 -39.4254 2161
-103.597 -39.3159 2155
-98.4435 -39.3159 2155
-93.2036 -39.2794 2153
-87.9324 -39.2247 2150
-82.6756 -39.17 2147
-77.5415 -39.17 2147
-72.2387 -39.0787 2142
-67.0226 -39.024 2139
-61.8208 -38.9693 2136
-56.7129 -38.9693 2136
-51.4843 -38.8781 2131
-46.3884 -38.8781 2131
-41.2344 -38.8233 2128
-36.1457 -38.8233 2128
-31.0571 -38.8233 2128
-25.8951 -38.7139 2122
-20.8208 -38.7139 2122
-15.7093 -38.6226 2117
-10.647 -38.6226 2117
-5.58457 -38.6226 2117
-0.521442 -38.5679 2114
4.53377 -38.5679 2114
9.58899 -38.5679 2114
14.6442 -38.5679 2114
19.6808 -38.5314 2112
24.6961 -38.4767 2109
29.7393 -38.4767 2109
34.7331 -38.422 2106
39.7692 -38.422 2106
44.8053 -38.422 2106
49.8414 -38.422 2106
54.8775 -38.422 2106
59.9135 -38.422 2106
64.9496 -38.422 2106
69.9857 -38.422 2106
75.0218 -38.422 2106
80.0579 -38.422 2106
85.094 -38.422 2106
90.1301 -38.422 2106
95.0758 -38.3855 2104
100.107 -38.3855 2104
105.138 -38.3855 2104
110.17 -38.3855 2104
115.201 -38.3855 2104
120.232 -38.3855 2104
125.264 -38.3855 2104
130.295 -38.3855 2104
135.455 -38.422 2106
140.491 -38.422 2106
145.527 -38.422 2106
150.778 -38.4767 2109
155.821 -38.4767 2109
160.864 -38.4767 2109
166.143 -38.5314 2112
171.194 -38.5314 2112
176.411 -38.5679 2114
181.466 -38.5679 2114
186.786 -38.6226 2117
192.12 -38.6774 2120
197.655 -38.7686 2125
202.737 -38.7686 2125
208.112 -38.8233 2128
213.501 -38.8781 2131
218.597 -38.8781 2131
223.693 -38.8781 2131
229.325 -38.9693 2136
234.762 -39.024 2139
241.111 -39.2247 2150
246.252 -39.2247 2150
251.978 -39.3159 2155
257.131 -39.3159 2155
262.285 -39.3159 2155
267.438 -39.3159 2155
272.591 -39.3159 2155
410.623 -56.0457 3072
417.969 -56.0457 3072
425.315 -56.0457 3072
431.112 -55.845 3061
438.432 -55.845 3061
445.751 -55.845 3061
450.555 -55.5349 3044
456.18 -55.3342 3033
461.752 -55.1335 3022
468.978 -55.1335 3022
476.205 -55.1335 3022
483.431 -55.1335 3022
488.06 -54.8416 3006
495.248 -54.8416 3006
497.924 -54.349 2979
505.047 -54.349 2979
508.561 -53.9659 2958
512.845 -53.674 2942
519.88 -53.674 2942
526.02 -53.5828 2937
531.228 -53.4003 2927
536.389 -53.2179 2917
543.364 -53.2179 2917
549.208 -53.1084 2911
556.169 -53.1084 2911
562.162 -53.0172 2906
569.112 -53.0172 2906
576.061 -53.0172 2906
583.01 -53.0172 2906
587.929 -52.8347 2896
594.854 -52.8347 2896
600.74 -52.7435 2891
607.654 -52.7435 2891
613.504 -52.6523 2886
620.405 -52.6523 2886
627.307 -52.6523 2886
634.208 -52.6523 2886
639.998 -52.5611 2881
646.888 -52.5611 2881
653.777 -52.5611 2881
660.666 -52.5611 2881
667.556 -52.5611 2881
674.445 -52.5611 2881
681.334 -52.5611 2881
688.224 -52.5611 2881
695.113 -52.5611 2881
700.784 -52.4699 2876
707.662 -52.4699 2876
714.539 -52.4699 2876
721.416 -52.4699 2876
728.294 -52.4699 2876
735.171 -52.4699 2876
742.048 -52.4699 2876
748.926 -52.4699 2876
754.489 -52.3786 2871
761.355 -52.3786 2871
768.22 -52.3786 2871
775.086 -52.3786 2871
783.313 -52.4699 2876
790.19 -52.4699 2876
797.068 -52.4699 2876
803.945 -52.4699 2876
810.822 -52.4699 2876
816.278 -52.3786 2871
824.577 -52.4699 2876
831.455 -52.4699 2876
838.332 -52.4699 2876
845.209 -52.4699 2876
853.568 -52.5611 2881
860.457 -52.5611 2881
867.347 -52.5611 2881
874.236 -52.5611 2881
881.125 -52.5611 2881
888.015 -52.5611 2881
896.457 -52.6523 2886
909.619 -53.0172 2906
920.037 -53.2179 2917
927.013 -53.2179 2917
937.19 -53.4003 2927
947.415 -53.5828 2937
954.439 -53.5828 2937
963.099 -53.674 2942
970.134 -53.674 2942
978.83 -53.7652 2947
989.557 -53.9659 2958
996.63 -53.9659 2958
1003.7 -53.9659 2958
1010.78 -53.9659 2958
1099.75 -58.308 3196
1107.39 -58.308 3196
1134.57 -59.3296 3252
1155.69 -60.0229 3290
1191.86 -61.4824 3370
1199.91 -61.4824 3370
1218.01 -61.9933 3398
1243.82 -62.8872 3447
1252.06 -62.8872 3447
1260.3 -62.8872 3447
1268.54 -62.8872 3447
1274.19 -62.7595 3440
1295.84 -63.4163 3476
1304.15 -63.4163 3476
1320.39 -63.7994 3497
1328.76 -63.7994 3497
1337.12 -63.7994 3497
1337.4 -63.4163 3476
1334.49 -62.8872 3447
1337.28 -62.6318 3433
1340 -62.3764 3419
1348.17 -62.3764 3419
1345.24 -61.8655 3391
1342.18 -61.3547 3363
1339.78 -60.8804 3337
1347.76 -60.8804 3337
1355.74 -60.8804 3337
1363.72 -60.8804 3337
1371.7 -60.8804 3337
1379.68 -60.8804 3337
1387.66 -60.8804 3337
1389.78 -60.625 3323
1395.21 -60.5155 3317
1400.18 -60.3878 3310
1408.09 -60.3878 3310
1410.45 -60.1506 3297
1415.32 -60.0229 3290
1423.19 -60.0229 3290
1431.05 -60.0229 3290
1438.92 -60.0229 3290
1446.79 -60.0229 3290
1454.66 -60.0229 3290
1462.52 -60.0229 3290
1470.39 -60.0229 3290
1478.26 -60.0229 3290
1486.12 -60.0229 3290
1493.99 -60.0229 3290
1501.86 -60.0229 3290
1504.22 -59.804 3278
1512.06 -59.804 3278
1534.73 -60.3878 3310
1548.71 -60.625 3323
1556.66 -60.625 3323
1567.9 -60.7527 3330
1582.01 -60.9898 3343
1590.01 -60.9898 3343
1598 -60.9898 3343
1605.99 -60.9898 3343
1613.99 -60.9898 3343
1621.98 -60.9898 3343
1620.23 -60.625 3323
1628.17 -60.625 3323
1636.12 -60.625 3323
1644.06 -60.625 3323
1652.01 -60.625 3323
1646.97 -60.1506 3297
1645.32 -59.804 3278
1653.16 -59.804 3278
1650.86 -59.4391 3258
1658.65 -59.4391 3258
1666.44 -59.4391 3258
1674.23 -59.4391 3258
1682.02 -59.4391 3258
1686.7 -59.3296 3252
1684.58 -58.983 3233
1689.17 -58.8735 3227
1696.89 -58.8735 3227
1704.6 -58.8735 3227
1712.32 -58.8735 3227
1720.04 -58.8735 3227
1727.75 -58.8735 3227
1735.47 -58.8735 3227
1743.19 -58.8735 3227
1747.65 -58.7641 3221
1755.35 -58.7641 3221
1739.52 -57.9796 3178
1727.32 -57.3228 3142
1718.27 -56.7755 3112
1710.19 -56.2646 3084
1717.56 -56.2646 3084
1702.56 -55.5349 3044
1697.49 -55.1335 3022
1674.25 -54.1483 2968
1681.35 -54.1483 2968
1656.02 -53.1084 2911
1637.27 -52.2874 2866
1636.1 -52.032 2852
1634.27 -51.7584 2837
1641.06 -51.7584 2837
1639.71 -51.5029 2823
1640.63 -51.3205 2813
1642.09 -51.1563 2804
1648.79 -51.1563 2804
1652.54 -51.0651 2799
1656.27 -50.9739 2794
1657.6 -50.8097 2785
1664.26 -50.8097 2785
1665.52 -50.6455 2776
1669.14 -50.5542 2771
1675.77 -50.5542 2771
1682.4 -50.5542 2771
1689.02 -50.5542 2771
1695.65 -50.5542 2771
1702.28 -50.5542 2771
1703.35 -50.39 2762
1709.96 -50.39 2762
1713.45 -50.2988 2757
1720.05 -50.2988 2757
1724.13 -50.2258 2753
1730.72 -50.2258 2753
1734.15 -50.1346 2748
1740.72 -50.1346 2748
1744.74 -50.0617 2744
1751.31 -50.0617 2744
1757.87 -50.0617 2744
1761.21 -49.9704 2739
1765.18 -49.8975 2735
1765.89 -49.7333 2726
1772.41 -49.7333 2726
1773.06 -49.5691 2717
1771.04 -49.3319 2704
1765.67 -49.0035 2686
1772.1 -49.0035 2686
1775.87 -48.9305 2682
1776.3 -48.7663 2673
1777.36 -48.6204 2665
1783.73 -48.6204 2665
1781.37 -48.3832 2652
1782.32 -48.2372 2644
1788.65 -48.2372 2644
1792.25 -48.1643 2640
1798.57 -48.1643 2640
1801.46 -48.0731 2635
1807.76 -48.0731 2635
1814.06 -48.0731 2635
1820.36 -48.0731 2635
1826.66 -48.0731 2635
1832.97 -48.0731 2635
1839.27 -48.0731 2635
1845.57 -48.0731 2635
1851.87 -48.0731 2635
1861.7 -48.1643 2640
1870.84 -48.2372 2644
1877.16 -48.2372 2644
1883.48 -48.2372 2644
1889.81 -48.2372 2644
1893.26 -48.1643 2640
1899.57 -48.1643 2640
1908.77 -48.2372 2644
1915.1 -48.2372 2644
1921.42 -48.2372 2644
1927.74 -48.2372 2644
1934.07 -48.2372 2644
1937.45 -48.1643 2640
1943.77 -48.1643 2640
1950.08 -48.1643 2640
1956.39 -48.1643 2640
1958.99 -48.0731 2635
1965.29 -48.0731 2635
1971.59 -48.0731 2635
1977.89 -48.0731 2635
1984.19 -48.0731 2635
1990.49 -48.0731 2635
1993.76 -48.0001 2631
1993.97 -47.8541 2623
2000.24 -47.8541 2623
2003.46 -47.7811 2619
-2071.72 -43.8529 2767
-2065.1 -43.8529 2767
-2058.49 -43.8529 2767
-2048.16 -43.7737 2762
-2041.56 -43.7737 2762
-2031.27 -43.6944 2757
-2024.68 -43.6944 2757
-2015.16 -43.631 2753
-2011.49 -43.6944 2757
-2004.9 -43.6944 2757
-1998.31 -43.6944 2757
-1991.71 -43.6944 2757
-1985.12 -43.6944 2757
-1975.66 -43.631 2753
-1969.07 -43.631 2753
-1958.93 -43.5518 2748
-1949.51 -43.4884 2744
-1952.16 -43.6944 2757
-1995.67 -44.8197 2828
-1988.9 -44.8197 2828
-1982.14 -44.8197 2828
-1975.38 -44.8197 2828
-1968.62 -44.8197 2828
-2108.23 -48.1637 3039
-2155.58 -49.4157 3118
-2258.35 -51.9515 3278
-2250.51 -51.9515 3278
-2259.78 -52.3477 3303
-2261.42 -52.5696 3317
-2271.16 -52.9816 3343
-2263.16 -52.9816 3343
-2278.1 -53.5205 3377
-2317.08 -54.6299 3447
-2318.22 -54.8518 3461
-2309.94 -54.8518 3461
-2301.67 -54.8518 3461
-2293.39 -54.8518 3461
-2289.73 -54.9627 3468
-2281.44 -54.9627 3468
-2273.15 -54.9627 3468
-2260.28 -54.8518 3461
-2252.01 -54.8518 3461
-2239.19 -54.7408 3454
-2230.93 -54.7408 3454
-2231.68 -54.9627 3468
-2237.49 -55.3114 3490
-2229.15 -55.3114 3490
-2220.8 -55.3114 3490
-2221.97 -55.5491 3505
-2223.06 -55.7868 3520
-2214.64 -55.7868 3520
-2220.01 -56.1355 3542
-2215.91 -56.2464 3549
-2207.43 -56.2464 3549
-2198.94 -56.2464 3549
-2190.45 -56.2464 3549
-2196.11 -56.611 3572
-2201.65 -56.9755 3595
-2193.05 -56.9755 3595
-2194.18 -57.2291 3611
-2200.07 -57.6094 3635
-2195.6 -57.7204 3642
-2186.89 -57.7204 3642
-2178.18 -57.7204 3642
-2174.24 -57.8471 3650
-2185.09 -58.3702 3683
-2176.28 -58.3702 3683
-2176.89 -58.6237 3699
-2168.04 -58.6237 3699
-2159.2 -58.6237 3699
-2150.35 -58.6237 3699
-2141.51 -58.6237 3699
-2118.82 -58.2434 3675
-2110.04 -58.2434 3675
-2086.95 -57.8471 3650
-2069.68 -57.6094 3635
-2056.46 -57.4826 3627
-2047.78 -57.4826 3627
-2034.61 -57.3558 3619
-2025.96 -57.3558 3619
-2012.84 -57.2291 3611
-2004.21 -57.2291 3611
-1982.86 -56.8645 3588
-1965.48 -56.611 3572
-1956.94 -56.611 3572
-1952.76 -56.7378 3580
-1944.2 -56.7378 3580
-1935.64 -56.7378 3580
-1922.77 -56.611 3572
-1914.23 -56.611 3572
-1901.95 -56.5 3565
-1884.93 -56.2464 3549
-1876.44 -56.2464 3549
-1867.96 -56.2464 3549
-1855.8 -56.1355 3542
-1843.16 -56.0087 3534
-1838.86 -56.1355 3542
-1834.01 -56.2464 3549
-1825.52 -56.2464 3549
-1821.13 -56.3732 3557
-1816.7 -56.5 3565
-1808.18 -56.5 3565
-1799.65 -56.5 3565
-1791.13 -56.5 3565
-1778.6 -56.3732 3557
-1770.1 -56.3732 3557
-1761.59 -56.3732 3557
-1753.09 -56.3732 3557
-1744.58 -56.3732 3557
-1728.75 -56.1355 3542
-1720.28 -56.1355 3542
-1707.95 -56.0087 3534
-1699.5 -56.0087 3534
-1687.7 -55.8978 3527
-1679.26 -55.8978 3527
-1670.83 -55.8978 3527
-1672.76 -56.2464 3549
-1664.28 -56.2464 3549
-1655.79 -56.2464 3549
-1647.3 -56.2464 3549
-1638.82 -56.2464 3549
-1634 -56.3732 3557
-1625.5 -56.3732 3557
-1616.99 -56.3732 3557
-1612.1 -56.5 3565
-1603.58 -56.5 3565
-1595.05 -56.5 3565
-1586.53 -56.5 3565
-1578 -56.5 3565
-1562.43 -56.2464 3549
