-1305.46 -867.552 3953
-1293.06 -865.577 3944
-1280.7 -863.602 3935
-1277.11 -867.552 3953
-1267.65 -867.552 3953
-1258.2 -867.552 3953
-1251.91 -869.747 3963
-1242.43 -869.747 3963
-1232.95 -869.747 3963
-1220.39 -867.552 3953
-1205.42 -863.602 3935
-280.09 -503.018 2292
-274.609 -503.018 2292
-269.128 -503.018 2292
-262.497 -500.823 2282
-256.364 -499.506 2276
-250.591 -498.848 2273
-244.508 -497.531 2267
-239.087 -497.531 2267
-232.326 -494.678 2254
-224.217 -488.753 2227
-218.597 -488.094 2224
-213.279 -488.094 2224
-207.961 -488.094 2224
-202.369 -487.436 2221
-197.058 -487.436 2221
-191.747 -487.436 2221
-186.184 -486.777 2218
-180.635 -486.119 2215
-175.339 -486.119 2215
-170.042 -486.119 2215
-164.745 -486.119 2215
-159.304 -485.68 2213
-153.804 -485.022 2210
-148.519 -485.022 2210
-143.04 -484.363 2207
-137.2 -482.388 2198
-131.944 -482.388 2198
-126.342 -481.071 2192
-121.101 -481.071 2192
-115.542 -479.754 2186
-110.213 -479.315 2184
-104.847 -478.657 2181
-99.6312 -478.657 2181
-94.156 -477.34 2175
-88.8322 -476.682 2172
-83.3303 -474.926 2164
-78.1555 -474.926 2164
-72.6097 -472.512 2153
-67.4612 -472.512 2153
-62.2259 -471.854 2150
-57.0846 -471.854 2150
-51.7984 -470.537 2144
-46.5626 -469.439 2139
-41.3895 -468.781 2136
-36.2816 -468.781 2136
-31.13 -468.123 2133
-26.005 -467.684 2131
-20.8797 -467.025 2128
-15.791 -467.025 2128
-10.7023 -467.025 2128
-5.61359 -467.025 2128
-0.524156 -466.367 2125
4.55093 -465.709 2122
9.62527 -465.709 2122
14.6996 -465.709 2122
19.774 -465.709 2122
24.8483 -465.709 2122
29.9227 -465.709 2122
34.997 -465.709 2122
40.0713 -465.709 2122
45.1457 -465.709 2122
50.22 -465.709 2122
55.2944 -465.709 2122
60.3687 -465.709 2122
65.3814 -465.27 2120
70.451 -465.27 2120
75.5205 -465.27 2120
80.476 -464.611 2117
85.5384 -464.611 2117
90.6008 -464.611 2117
95.6632 -464.611 2117
100.583 -463.953 2114
105.638 -463.953 2114
110.589 -463.514 2112
115.639 -463.514 2112
120.689 -463.514 2112
125.74 -463.514 2112
130.605 -462.855 2109
135.648 -462.855 2109
140.691 -462.855 2109
145.527 -462.197 2106
150.778 -462.855 2109
155.821 -462.855 2109
160.864 -462.855 2109
165.907 -462.855 2109
171.194 -463.514 2112
176.244 -463.514 2112
181.295 -463.514 2112
186.521 -463.953 2114
191.577 -463.953 2114
197.19 -465.27 2120
202.26 -465.27 2120
207.525 -465.709 2122
212.9 -466.367 2125
218.289 -467.025 2128
223.378 -467.025 2128
228.788 -467.684 2131
234.104 -468.123 2133
239.541 -468.781 2136
244.649 -468.781 2136
250.107 -469.439 2139
255.819 -470.537 2144
261.311 -471.195 2147
266.817 -471.854 2150
271.959 -471.854 2150
277.1 -471.854 2150
282.241 -471.854 2150
287.383 -471.854 2150
292.524 -471.854 2150
297.25 -471.195 2147
302.806 -471.854 2150
307.948 -471.854 2150
313.089 -471.854 2150
318.23 -471.854 2150
322.92 -471.195 2147
328.055 -471.195 2147
333.189 -471.195 2147
338.323 -471.195 2147
343.937 -471.854 2150
349.078 -471.854 2150
354.219 -471.854 2150
359.361 -471.854 2150
364.502 -471.854 2150
369.643 -471.854 2150
374.785 -471.854 2150
379.926 -471.854 2150
385.067 -471.854 2150
390.209 -471.854 2150
395.35 -471.854 2150
736.628 -815.539 3716
752.135 -822.781 3749
761.1 -822.781 3749
770.065 -822.781 3749
779.03 -822.781 3749
787.995 -822.781 3749
802.274 -828.268 3774
811.299 -828.268 3774
824.236 -832.218 3792
833.304 -832.218 3792
842.372 -832.218 3792
847.398 -828.268 3774
852.565 -824.537 3757
859.715 -822.781 3749
870.534 -824.537 3757
879.518 -824.537 3757
890.63 -826.512 3766
899.636 -826.512 3766
908.641 -826.512 3766
917.647 -826.512 3766
926.653 -826.512 3766
933.422 -824.537 3757
946.671 -828.268 3774
960.254 -832.218 3792
969.322 -832.218 3792
980.453 -833.974 3800
989.54 -833.974 3800
998.627 -833.974 3800
1007.71 -833.974 3800
1016.8 -833.974 3800
1016.71 -826.512 3766
1025.71 -826.512 3766
1025.38 -819.05 3732
1032.09 -817.294 3724
1043.23 -819.05 3732
1063.99 -828.268 3774
1073.02 -828.268 3774
1084.62 -830.243 3783
1098.58 -833.974 3800
1120.5 -843.63 3844
1129.69 -843.63 3844
1154.88 -855.482 3898
1169.58 -859.432 3916
1178.94 -859.432 3916
1188.31 -859.432 3916
1192.16 -855.482 3898
1204.26 -857.457 3907
1213.6 -857.457 3907
1222.95 -857.457 3907
1232.29 -857.457 3907
1250.53 -863.602 3935
1274.99 -873.917 3982
1284.51 -873.917 3982
1294.03 -873.917 3982
1325.49 -888.621 4049
1335.17 -888.621 4049
1344.85 -888.621 4049
1354.54 -888.621 4049
1357.82 -884.451 4030
1364.06 -882.256 4020
1373.67 -882.256 4020
1383.29 -882.256 4020
1392.9 -882.256 4020
1395.88 -878.087 4001
1405.45 -878.087 4001
1398.04 -867.552 3953
1404.29 -865.577 3944
1420.53 -869.747 3963
1436.87 -873.917 3982
1446.39 -873.917 3982
1455.91 -873.917 3982
1465.43 -873.917 3982
1474.95 -873.917 3982
1484.48 -873.917 3982
1486.87 -869.747 3963
1496.35 -869.747 3963
1477.71 -853.506 3889
1487.01 -853.506 3889
1472.07 -839.68 3826
1468.05 -832.218 3792
1470.11 -828.268 3774
1479.13 -828.268 3774
1488.16 -828.268 3774
1497.18 -828.268 3774
1506.21 -828.268 3774
1515.23 -828.268 3774
1524.26 -828.268 3774
1526.37 -824.537 3757
1535.36 -824.537 3757
1537.35 -820.806 3740
1546.3 -820.806 3740
1541.52 -813.563 3707
1543.69 -810.052 3691
1552.52 -810.052 3691
1561.34 -810.052 3691
1570.17 -810.052 3691
1579 -810.052 3691
-2953.98 -887.604 4089
-2944.2 -887.604 4089
-2934.42 -887.604 4089
-2924.64 -887.604 4089
-2914.86 -887.604 4089
-2905.09 -887.604 4089
-2888.23 -885.434 4079
-2878.47 -885.434 4079
-2854.65 -881.092 4059
-2844.95 -881.092 4059
-2835.24 -881.092 4059
-2818.57 -878.922 4049
-2801.95 -876.751 4039
-2792.29 -876.751 4039
-2769.55 -872.627 4020
-2759.93 -872.627 4020
-2763.32 -876.751 4039
-2753.66 -876.751 4039
-2744 -876.751 4039
-2734.34 -876.751 4039
-2718.61 -874.797 4030
-2721.75 -878.922 4049
-2712.07 -878.922 4049
-2709.06 -881.092 4059
-2699.35 -881.092 4059
-2689.65 -881.092 4059
-2679.94 -881.092 4059
-2670.23 -881.092 4059
-1345.87 -830.515 3826
-1336.72 -830.515 3826
-1336.94 -836.376 3853
-1330.82 -838.329 3862
-1346.57 -854.175 3935
-1337.16 -854.175 3935
-1330.79 -856.129 3944
-1324.37 -858.083 3953
-1314.92 -858.083 3953
-1305.46 -858.083 3953
-1293.06 -856.129 3944
-1280.7 -854.175 3935
-1277.11 -858.083 3953
-1267.65 -858.083 3953
-1258.2 -858.083 3953
-1251.91 -860.253 3963
-1242.43 -860.253 3963
-1232.95 -860.253 3963
-1220.39 -858.083 3953
-280.09 -497.527 2292
-274.609 -497.527 2292
-269.128 -497.527 2292
-262.497 -495.357 2282
-256.364 -494.054 2276
-250.26 -492.752 2270
-244.184 -491.449 2264
-238.77 -491.449 2264
-232.326 -489.279 2254
-224.217 -483.418 2227
-218.302 -482.115 2221
-212.991 -482.115 2221
-207.68 -482.115 2221
-202.369 -482.115 2221
-197.058 -482.115 2221
-191.747 -482.115 2221
-186.184 -481.464 2218
-180.635 -480.813 2215
-175.339 -480.813 2215
-170.042 -480.813 2215
-164.745 -480.813 2215
-159.304 -480.379 2213
-153.804 -479.728 2210
-148.519 -479.728 2210
-143.04 -479.076 2207
-137.2 -477.123 2198
-131.944 -477.123 2198
-126.342 -475.82 2192
-121.101 -475.82 2192
-115.542 -474.518 2186
-110.213 -474.084 2184
-104.847 -473.432 2181
-99.6312 -473.432 2181
-94.156 -472.13 2175
-88.8322 -471.479 2172
-83.3303 -469.742 2164
-78.1555 -469.742 2164
-72.6097 -467.354 2153
-67.4612 -467.354 2153
-62.2259 -466.703 2150
-57.0846 -466.703 2150
-51.7984 -465.401 2144
-46.5626 -464.315 2139
-41.3895 -463.664 2136
-36.2816 -463.664 2136
-31.13 -463.013 2133
-26.005 -462.579 2131
-20.8797 -461.928 2128
-15.791 -461.928 2128
-10.7023 -461.928 2128
-5.61359 -461.928 2128
-0.524156 -461.276 2125
4.55093 -460.625 2122
9.62527 -460.625 2122
14.6996 -460.625 2122
19.774 -460.625 2122
24.8483 -460.625 2122
29.9227 -460.625 2122
34.997 -460.625 2122
40.0713 -460.625 2122
45.1457 -460.625 2122
50.22 -460.625 2122
55.2944 -460.625 2122
60.3118 -460.191 2120
65.3814 -460.191 2120
70.451 -460.191 2120
75.4137 -459.54 2117
80.476 -459.54 2117
85.5384 -459.54 2117
90.6008 -459.54 2117
95.6632 -459.54 2117
100.583 -458.889 2114
105.538 -458.455 2112
110.589 -458.455 2112
115.639 -458.455 2112
120.689 -458.455 2112
125.74 -458.455 2112
130.605 -457.803 2109
135.648 -457.803 2109
140.691 -457.803 2109
145.527 -457.152 2106
150.778 -457.803 2109
155.821 -457.803 2109
160.864 -457.803 2109
165.907 -457.803 2109
171.194 -458.455 2112
176.244 -458.455 2112
181.295 -458.455 2112
186.521 -458.889 2114
191.577 -458.889 2114
197.19 -460.191 2120
202.26 -460.191 2120
207.525 -460.625 2122
212.9 -461.276 2125
218.289 -461.928 2128
223.378 -461.928 2128
228.788 -462.579 2131
234.104 -463.013 2133
239.541 -463.664 2136
244.649 -463.664 2136
250.107 -464.315 2139
255.819 -465.401 2144
261.311 -466.052 2147
266.817 -466.703 2150
271.959 -466.703 2150
277.1 -466.703 2150
282.241 -466.703 2150
287.383 -466.703 2150
292.524 -466.703 2150
297.25 -466.052 2147
302.806 -466.703 2150
307.948 -466.703 2150
313.089 -466.703 2150
318.23 -466.703 2150
322.92 -466.052 2147
328.055 -466.052 2147
333.189 -466.052 2147
338.323 -466.052 2147
343.937 -466.703 2150
349.078 -466.703 2150
354.219 -466.703 2150
359.361 -466.703 2150
364.502 -466.703 2150
369.643 -466.703 2150
374.785 -466.703 2150
379.926 -466.703 2150
385.067 -466.703 2150
390.209 -466.703 2150
395.35 -466.703 2150
736.628 -806.637 3716
750.329 -811.847 3740
759.273 -811.847 3740
768.216 -811.847 3740
773.835 -808.373 3724
784.422 -810.11 3732
796.96 -813.8 3749
805.925 -813.8 3749
820.324 -819.227 3774
829.349 -819.227 3774
838.373 -819.227 3774
841.785 -813.8 3749
848.707 -811.847 3740
853.982 -808.373 3724
862.887 -808.373 3724
869.919 -806.637 3716
882.589 -810.11 3732
891.514 -810.11 3732
900.438 -810.11 3732
909.362 -810.11 3732
918.287 -810.11 3732
927.211 -810.11 3732
944.664 -817.49 3766
957.975 -821.181 3783
967.021 -821.181 3783
978.389 -823.134 3792
987.457 -823.134 3792
996.525 -823.134 3792
1003.21 -821.181 3783
1007.7 -817.49 3766
1005.37 -808.373 3724
1014.28 -808.373 3724
1020.98 -806.637 3716
1022.94 -801.21 3691
1034 -802.947 3699
1052.15 -810.11 3732
1061.08 -810.11 3732
1082.04 -819.227 3774
1096.27 -823.134 3792
1117.87 -832.468 3835
1127.04 -832.468 3835
1149.55 -842.237 3880
1169.58 -850.051 3916
1178.94 -850.051 3916
1188.31 -850.051 3916
1186.66 -842.237 3880
1204.26 -848.097 3907
1213.6 -848.097 3907
1222.95 -848.097 3907
1232.29 -848.097 3907
1250.53 -854.175 3935
1274.99 -864.378 3982
1284.51 -864.378 3982
1294.03 -864.378 3982
1325.49 -878.922 4049
1335.17 -878.922 4049
1344.85 -878.922 4049
1354.54 -878.922 4049
1357.82 -874.797 4030
1364.06 -872.627 4020
1373.67 -872.627 4020
1383.29 -872.627 4020
1392.9 -872.627 4020
1395.88 -868.502 4001
1405.45 -868.502 4001
1398.04 -858.083 3953
1404.29 -856.129 3944
1420.53 -860.253 3963
1436.87 -864.378 3982
1446.39 -864.378 3982
1455.91 -864.378 3982
1465.43 -864.378 3982
1474.95 -864.378 3982
1484.48 -864.378 3982
1476.36 -854.175 3935
1482 -852.005 3925
1460.61 -834.422 3844
1469.8 -834.422 3844
1458.98 -823.134 3792
1461.08 -819.227 3774
1466.99 -817.49 3766
1476 -817.49 3766
1481.45 -815.537 3757
1490.44 -815.537 3757
1496.23 -813.8 3749
1505.19 -813.8 3749
1514.16 -813.8 3749
1519.47 -811.847 3740
1528.41 -811.847 3740
1530.78 -808.373 3724
1539.68 -808.373 3724
1541.52 -804.683 3707
1540.35 -799.474 3683
1552.52 -801.21 3691
1561.34 -801.21 3691
1570.17 -801.21 3691
1579 -801.21 3691
-2953.98 -877.809 4089
-2944.2 -877.809 4089
-2934.42 -877.809 4089
-2924.64 -877.809 4089
-2914.86 -877.809 4089
-2905.09 -877.809 4089
-2888.23 -875.662 4079
-2878.47 -875.662 4079
-2854.65 -871.369 4059
-2844.95 -871.369 4059
-2835.24 -871.369 4059
-2818.57 -869.222 4049
-2801.95 -867.075 4039
-2792.29 -867.075 4039
-2769.55 -862.997 4020
-2759.93 -862.997 4020
-2763.32 -867.075 4039
-2753.66 -867.075 4039
-2744 -867.075 4039
-2734.34 -867.075 4039
-2718.61 -865.143 4030
-2721.75 -869.222 4049
-2712.07 -869.222 4049
-2709.06 -871.369 4059
-2699.35 -871.369 4059
-2689.65 -871.369 4059
-2679.94 -871.369 4059
-2670.23 -871.369 4059
-1336.72 -815.768 3800
-1327.63 -815.768 3800
-1327.57 -821.349 3826
-1327.72 -827.146 3853
-1343.15 -842.602 3925
-1333.76 -842.602 3925
-1327.75 -844.749 3935
-1324.37 -848.613 3953
-1314.92 -848.613 3953
-1305.46 -848.613 3953
-1286.83 -842.602 3925
-1277.45 -842.602 3925
-1271.29 -844.749 3935
-1261.88 -844.749 3935
-1252.47 -844.749 3935
-1248.75 -848.613 3953
-1239.29 -848.613 3953
-1229.84 -848.613 3953
-1220.39 -848.613 3953
-280.09 -492.037 2292
-274.609 -492.037 2292
-269.128 -492.037 2292
-262.497 -489.89 2282
-256.364 -488.602 2276
-249.929 -486.67 2267
-243.861 -485.382 2261
-238.454 -485.382 2261
-231.707 -482.591 2248
-223.915 -477.439 2224
-218.302 -476.795 2221
-213.279 -477.439 2224
-207.961 -477.439 2224
-202.642 -477.439 2224
-197.058 -476.795 2221
-191.747 -476.795 2221
-186.184 -476.151 2218
-180.635 -475.507 2215
-175.339 -475.507 2215
-170.042 -475.507 2215
-164.745 -475.507 2215
-159.304 -475.077 2213
-154.013 -475.077 2213
-148.721 -475.077 2213
-143.234 -474.433 2210
-137.388 -472.501 2201
-131.944 -471.857 2198
-126.688 -471.857 2198
-121.432 -471.857 2198
-115.7 -469.925 2189
-110.213 -468.852 2184
-104.847 -468.208 2181
-99.6312 -468.208 2181
-94.156 -466.92 2175
-88.9549 -466.92 2175
-83.3303 -464.558 2164
-78.1555 -464.558 2164
-72.6772 -462.626 2155
-67.4612 -462.197 2153
-62.3128 -462.197 2153
-57.1643 -462.197 2153
-51.7984 -460.265 2144
-46.5626 -459.191 2139
-41.4476 -459.191 2139
-36.3326 -459.191 2139
-31.13 -457.903 2133
-26.005 -457.474 2131
-20.8797 -456.83 2128
-15.791 -456.83 2128
-10.7023 -456.83 2128
-5.61359 -456.83 2128
-0.524156 -456.186 2125
4.55093 -455.542 2122
9.62527 -455.542 2122
14.6996 -455.542 2122
19.774 -455.542 2122
24.8483 -455.542 2122
29.9227 -455.542 2122
34.997 -455.542 2122
40.0713 -455.542 2122
45.1457 -455.542 2122
50.22 -455.542 2122
55.2944 -455.542 2122
60.3118 -455.113 2120
65.3814 -455.113 2120
70.451 -455.113 2120
75.4137 -454.469 2117
80.476 -454.469 2117
85.5384 -454.469 2117
90.6008 -454.469 2117
95.6632 -454.469 2117
100.583 -453.825 2114
105.638 -453.825 2114
110.693 -453.825 2114
115.748 -453.825 2114
120.804 -453.825 2114
125.74 -453.395 2112
130.79 -453.395 2112
135.841 -453.395 2112
140.691 -452.751 2109
145.734 -452.751 2109
150.778 -452.751 2109
155.821 -452.751 2109
160.864 -452.751 2109
166.143 -453.395 2112
171.194 -453.395 2112
176.244 -453.395 2112
181.295 -453.395 2112
186.521 -453.825 2114
191.849 -454.469 2117
197.19 -455.113 2120
202.26 -455.113 2120
207.525 -455.542 2122
213.2 -456.83 2128
218.289 -456.83 2128
223.378 -456.83 2128
229.003 -457.903 2133
234.433 -458.547 2136
239.877 -459.191 2139
244.992 -459.191 2139
250.692 -460.265 2144
255.819 -460.265 2144
261.311 -460.909 2147
266.817 -461.553 2150
271.959 -461.553 2150
277.1 -461.553 2150
282.241 -461.553 2150
287.383 -461.553 2150
292.524 -461.553 2150
297.665 -461.553 2150
302.806 -461.553 2150
307.948 -461.553 2150
313.089 -461.553 2150
318.23 -461.553 2150
323.372 -461.553 2150
328.513 -461.553 2150
333.189 -460.909 2147
338.796 -461.553 2150
343.937 -461.553 2150
349.078 -461.553 2150
354.219 -461.553 2150
359.361 -461.553 2150
364.502 -461.553 2150
369.643 -461.553 2150
374.785 -461.553 2150
379.926 -461.553 2150
385.067 -461.553 2150
390.209 -461.553 2150
395.35 -461.553 2150
400.491 -461.553 2150
715.567 -794.086 3699
724.413 -794.086 3699
736.628 -797.735 3716
748.724 -801.17 3732
757.649 -801.17 3732
766.573 -801.17 3732
772.173 -797.735 3716
782.74 -799.453 3724
796.96 -804.819 3749
805.925 -804.819 3749
818.585 -808.469 3766
827.591 -808.469 3766
836.596 -808.469 3766
841.785 -804.819 3749
848.707 -802.887 3740
853.982 -799.453 3724
864.741 -801.17 3732
873.665 -801.17 3732
886.61 -804.819 3749
895.575 -804.819 3749
904.54 -804.819 3749
913.505 -804.819 3749
918.287 -801.17 3732
935.658 -808.469 3766
948.928 -812.118 3783
957.975 -812.118 3783
967.021 -812.118 3783
976.067 -812.118 3783
985.114 -812.118 3783
994.16 -812.118 3783
998.698 -808.469 3766
998.606 -801.17 3732
1003.21 -797.735 3716
1012.1 -797.735 3716
1009.72 -788.933 3675
1009.36 -781.849 3642
1018.07 -781.849 3642
1033.83 -787.216 3667
1042.6 -787.216 3667
1058.25 -792.368 3691
1088.75 -808.469 3766
1117.87 -823.282 3835
1127.04 -823.282 3835
1136.21 -823.282 3835
1150.76 -827.146 3853
1159.97 -827.146 3853
1174.65 -831.01 3871
1183.91 -831.01 3871
1204.26 -838.738 3907
1213.6 -838.738 3907
1222.95 -838.738 3907
1232.29 -838.738 3907
1250.53 -844.749 3935
1274.99 -854.839 3982
1284.51 -854.839 3982
1294.03 -854.839 3982
1325.49 -869.222 4049
1335.17 -869.222 4049
1344.85 -869.222 4049
1354.54 -869.222 4049
1357.82 -865.143 4030
1364.06 -862.997 4020
1373.67 -862.997 4020
1383.29 -862.997 4020
1392.9 -862.997 4020
1395.88 -858.918 4001
1405.45 -858.918 4001
1398.04 -848.613 3953
1404.29 -846.681 3944
1416.95 -848.613 3953
1433.26 -852.692 3972
1442.76 -852.692 3972
1452.25 -852.692 3972
1454.76 -848.613 3953
1457.54 -844.749 3935
1466.95 -844.749 3935
1472.61 -842.602 3925
1475.2 -838.738 3907
1453.77 -821.349 3826
1462.92 -821.349 3826
1452.06 -810.186 3774
1454.5 -806.537 3757
1460.37 -804.819 3749
1472.47 -806.537 3757
1481.45 -806.537 3757
1490.44 -806.537 3757
1492.64 -802.887 3740
1501.58 -802.887 3740
1510.52 -802.887 3740
1519.47 -802.887 3740
1528.41 -802.887 3740
1530.78 -799.453 3724
1539.68 -799.453 3724
1541.52 -795.803 3707
1543.69 -792.368 3691
1552.52 -792.368 3691
1561.34 -792.368 3691
1570.17 -792.368 3691
1579 -792.368 3691
-2924.64 -868.014 4089
-2914.86 -868.014 4089
-2905.09 -868.014 4089
-2895.31 -868.014 4089
-2885.53 -868.014 4089
-2875.75 -868.014 4089
-2865.97 -868.014 4089
-2856.2 -868.014 4089
-2832.5 -863.768 4069
-2808.89 -859.523 4049
-2799.21 -859.523 4049
-2769.55 -853.367 4020
-2772.98 -857.4 4039
-2770.16 -859.523 4049
-2760.48 -859.523 4049
-2750.8 -859.523 4049
-2741.11 -859.523 4049
-2731.43 -859.523 4049
-2721.75 -859.523 4049
-2712.07 -859.523 4049
-2729.08 -868.014 4089
-2719.3 -868.014 4089
-2709.53 -868.014 4089
-2699.75 -868.014 4089
-2670.23 -861.646 4059
-1336.72 -806.665 3800
-1327.63 -806.665 3800
-1327.57 -812.184 3826
-1327.72 -817.916 3853
-1340.07 -831.289 3916
-1330.7 -831.289 3916
-1327.75 -835.323 3935
-1318.34 -835.323 3935
-1308.93 -835.323 3935
-1299.52 -835.323 3935
-1286.83 -833.2 3925
-1277.45 -833.2 3925
-1271.29 -835.323 3935
-1261.88 -835.323 3935
-1252.47 -835.323 3935
-1243.06 -835.323 3935
-1230.52 -833.2 3925
-1221.13 -833.2 3925
-1211.74 -833.2 3925
-279.601 -485.697 2288
-274.129 -485.697 2288
-268.658 -485.697 2288
-262.497 -484.424 2282
-256.026 -482.513 2273
-249.929 -481.239 2267
-243.861 -479.966 2261
-238.454 -479.966 2261
-232.017 -477.843 2251
-224.217 -472.748 2227
-218.892 -472.748 2227
-213.567 -472.748 2227
-208.241 -472.748 2227
-202.916 -472.748 2227
-197.59 -472.748 2227
-192.265 -472.748 2227
-186.436 -471.474 2221
-180.88 -470.838 2218
-175.576 -470.838 2218
-170.272 -470.838 2218
-164.745 -470.201 2215
-159.448 -470.201 2215
-154.013 -469.776 2213
-148.721 -469.776 2213
-143.429 -469.776 2213
-137.575 -467.866 2204
-132.124 -467.229 2201
-126.688 -466.592 2198
-121.432 -466.592 2198
-115.7 -464.681 2189
-110.314 -464.045 2186
-104.991 -463.62 2184
-99.7682 -463.62 2184
-94.2859 -462.346 2178
-88.9549 -461.71 2175
-83.3303 -459.374 2164
-78.1555 -459.374 2164
-72.6772 -457.464 2155
-67.5239 -457.464 2155
-62.3128 -457.039 2153
-57.1643 -457.039 2153
-51.8709 -455.766 2147
-46.6279 -454.704 2142
-41.4476 -454.067 2139
-36.3326 -454.067 2139
-31.1738 -453.431 2136
-26.005 -452.369 2131
-20.8797 -451.732 2128
-15.791 -451.732 2128
-10.7023 -451.732 2128
-5.61359 -451.732 2128
-0.524156 -451.096 2125
4.55093 -450.459 2122
9.62527 -450.459 2122
14.6996 -450.459 2122
19.774 -450.459 2122
24.8483 -450.459 2122
29.9227 -450.459 2122
34.997 -450.459 2122
40.0713 -450.459 2122
45.1457 -450.459 2122
50.22 -450.459 2122
55.2944 -450.459 2122
60.3687 -450.459 2122
65.3814 -450.034 2120
70.451 -450.034 2120
75.5205 -450.034 2120
80.476 -449.397 2117
85.5384 -449.397 2117
90.6008 -449.397 2117
95.6632 -449.397 2117
100.726 -449.397 2117
105.788 -449.397 2117
110.85 -449.397 2117
115.748 -448.76 2114
120.804 -448.76 2114
125.859 -448.76 2114
130.79 -448.336 2112
135.841 -448.336 2112
140.691 -447.699 2109
145.734 -447.699 2109
150.778 -447.699 2109
156.042 -448.336 2112
161.093 -448.336 2112
166.143 -448.336 2112
171.194 -448.336 2112
176.244 -448.336 2112
181.295 -448.336 2112
186.521 -448.76 2114
191.849 -449.397 2117
197.376 -450.459 2122
202.45 -450.459 2122
207.525 -450.459 2122
213.2 -451.732 2128
218.289 -451.732 2128
223.378 -451.732 2128
229.003 -452.794 2133
234.433 -453.431 2136
239.877 -454.067 2139
244.992 -454.067 2139
250.692 -455.129 2144
255.819 -455.129 2144
261.676 -456.403 2150
266.817 -456.403 2150
271.959 -456.403 2150
277.1 -456.403 2150
282.635 -457.039 2153
287.784 -457.039 2153
292.932 -457.039 2153
298.081 -457.039 2153
303.229 -457.039 2153
308.377 -457.039 2153
313.526 -457.039 2153
318.674 -457.039 2153
323.372 -456.403 2150
328.513 -456.403 2150
333.654 -456.403 2150
338.796 -456.403 2150
344.417 -457.039 2153
349.565 -457.039 2153
354.714 -457.039 2153
359.862 -457.039 2153
365.011 -457.039 2153
370.159 -457.039 2153
375.308 -457.039 2153
380.456 -457.039 2153
385.605 -457.039 2153
390.753 -457.039 2153
395.902 -457.039 2153
400.491 -456.403 2150
715.567 -785.225 3699
724.413 -785.225 3699
736.628 -788.833 3716
747.119 -790.532 3724
756.025 -790.532 3724
764.93 -790.532 3724
773.835 -790.532 3724
782.74 -790.532 3724
796.96 -795.839 3749
805.925 -795.839 3749
818.585 -799.447 3766
831.326 -803.056 3783
840.373 -803.056 3783
849.419 -803.056 3783
850.75 -795.839 3749
871.41 -806.665 3800
880.497 -806.665 3800
889.584 -806.665 3800
898.671 -806.665 3800
907.758 -806.665 3800
916.845 -806.665 3800
925.932 -806.665 3800
926.653 -799.447 3766
939.882 -803.056 3783
953.193 -806.665 3800
962.28 -806.665 3800
971.367 -806.665 3800
976.067 -803.056 3783
982.77 -801.146 3774
991.795 -801.146 3774
996.311 -797.537 3757
1003.15 -795.839 3749
1005.37 -790.532 3724
1014.28 -790.532 3724
1005.05 -776.521 3658
1000.77 -766.544 3611
1013.88 -769.94 3627
1024.81 -771.639 3635
1033.5 -771.639 3635
1048.78 -776.521 3658
1067.07 -783.526 3691
1097.76 -799.447 3766
1106.77 -799.447 3766
1120.81 -803.056 3783
1145.39 -814.095 3835
1154.56 -814.095 3835
1169.19 -817.916 3853
1178.4 -817.916 3853
1187.62 -817.916 3853
1199.62 -819.826 3862
1214.49 -823.647 3880
1223.77 -823.647 3880
1238.77 -827.468 3898
1259.94 -835.323 3935
1284.51 -845.3 3982
1294.03 -845.3 3982
1325.49 -859.523 4049
1335.17 -859.523 4049
1344.85 -859.523 4049
1354.54 -859.523 4049
1357.82 -855.489 4030
1364.06 -853.367 4020
1373.67 -853.367 4020
1379.84 -851.244 4010
1389.43 -851.244 4010
1379.14 -839.144 3953
1388.59 -839.144 3953
1394.86 -837.233 3944
1397.53 -833.2 3925
1406.91 -833.2 3925
1419.91 -835.323 3935
1429.32 -835.323 3935
1438.73 -835.323 3935
1437.83 -829.379 3907
1447.17 -829.379 3907
1456.52 -829.379 3907
1465.86 -829.379 3907
1448.02 -814.095 3835
1447.31 -808.576 3809
1456.42 -808.576 3809
1445.52 -797.537 3757
1444.82 -792.23 3732
1453.75 -792.23 3732
1465.81 -793.928 3740
1474.75 -793.928 3740
1483.69 -793.928 3740
1492.64 -793.928 3740
1501.58 -793.928 3740
1510.52 -793.928 3740
1516.22 -792.23 3732
1525.14 -792.23 3732
1530.78 -790.532 3724
1539.68 -790.532 3724
1541.52 -786.923 3707
1543.69 -783.526 3691
1552.52 -783.526 3691
1564.73 -785.225 3699
1573.57 -785.225 3699
1582.42 -785.225 3699
1591.27 -785.225 3699
1600.11 -785.225 3699
-2914.86 -858.219 4089
-2905.09 -858.219 4089
-2895.31 -858.219 4089
-2885.53 -858.219 4089
-2875.75 -858.219 4089
-2865.97 -858.219 4089
-2856.2 -858.219 4089
-2832.5 -854.021 4069
-2808.89 -849.823 4049
-2799.21 -849.823 4049
-2782.64 -847.724 4039
-2779.84 -849.823 4049
-2777 -851.922 4059
-2767.3 -851.922 4059
-2757.59 -851.922 4059
-2747.88 -851.922 4059
-2744.92 -854.021 4069
-2748.64 -858.219 4089
-2738.86 -858.219 4089
-2729.08 -858.219 4089
-2719.3 -858.219 4089
-2709.53 -858.219 4089
-2699.75 -858.219 4089
-1336.72 -797.562 3800
-1327.63 -797.562 3800
-1327.57 -803.019 3826
-1327.72 -808.686 3853
-1340.07 -821.909 3916
-1330.7 -821.909 3916
-1327.75 -825.896 3935
-1318.34 -825.896 3935
-1308.93 -825.896 3935
-1299.52 -825.896 3935
-1286.83 -823.798 3925
-1280.7 -825.896 3935
-1274.2 -827.785 3944
-1264.77 -827.785 3944
-1255.34 -827.785 3944
-1243.06 -825.896 3935
-1230.52 -823.798 3925
-1221.13 -823.798 3925
-1211.74 -823.798 3925
-279.601 -480.216 2288
-274.129 -480.216 2288
-268.658 -480.216 2288
-262.497 -478.957 2282
-256.026 -477.068 2273
-249.929 -475.809 2267
-243.861 -474.549 2261
-238.454 -474.549 2261
-232.017 -472.451 2251
-224.822 -468.673 2233
-218.892 -467.413 2227
-213.854 -468.043 2230
-208.522 -468.043 2230
-203.189 -468.043 2230
-197.59 -467.413 2227
-192.265 -467.413 2227
-186.939 -467.413 2227
-181.125 -466.154 2221
-175.814 -466.154 2221
-170.503 -466.154 2221
-165.191 -466.154 2221
-159.664 -465.524 2218
-154.36 -465.524 2218
-149.057 -465.524 2218
-143.558 -464.895 2215
-137.949 -463.845 2210
-132.304 -462.586 2204
-126.861 -461.956 2201
-121.598 -461.956 2201
-115.859 -460.067 2192
-110.314 -458.808 2186
-104.991 -458.388 2184
-99.7682 -458.388 2184
-94.2859 -457.129 2178
-88.9549 -456.499 2175
-83.4458 -454.82 2167
-78.2638 -454.82 2167
-72.7783 -452.931 2158
-67.5239 -452.302 2155
-62.3707 -452.302 2155
-57.2174 -452.302 2155
-51.8709 -450.623 2147
-46.6714 -449.993 2144
-41.4476 -448.943 2139
-36.3326 -448.943 2139
-31.1738 -448.314 2136
-26.005 -447.264 2131
-20.9091 -447.264 2131
-15.791 -446.635 2128
-10.7023 -446.635 2128
-5.61359 -446.635 2128
-0.524156 -446.005 2125
4.55736 -446.005 2125
9.63888 -446.005 2125
14.7204 -446.005 2125
19.774 -445.375 2122
24.8483 -445.375 2122
29.9227 -445.375 2122
34.997 -445.375 2122
40.0713 -445.375 2122
45.1457 -445.375 2122
50.22 -445.375 2122
55.2944 -445.375 2122
60.3687 -445.375 2122
65.4431 -445.375 2122
70.5174 -445.375 2122
75.5205 -444.956 2120
80.5901 -444.956 2120
85.6596 -444.956 2120
90.7292 -444.956 2120
95.7988 -444.956 2120
100.726 -444.326 2117
105.788 -444.326 2117
110.85 -444.326 2117
115.913 -444.326 2117
120.975 -444.326 2117
125.859 -443.696 2114
130.79 -443.277 2112
135.841 -443.277 2112
140.891 -443.277 2112
145.734 -442.647 2109
150.992 -443.277 2112
156.042 -443.277 2112
161.093 -443.277 2112
166.143 -443.277 2112
171.194 -443.277 2112
176.244 -443.277 2112
181.295 -443.277 2112
186.521 -443.696 2114
191.849 -444.326 2117
197.376 -445.375 2122
202.45 -445.375 2122
207.525 -445.375 2122
213.2 -446.635 2128
218.289 -446.635 2128
223.378 -446.635 2128
229.003 -447.684 2133
234.433 -448.314 2136
239.877 -448.943 2139
244.992 -448.943 2139
250.692 -449.993 2144
255.819 -449.993 2144
261.676 -451.252 2150
266.817 -451.252 2150
271.959 -451.252 2150
277.487 -451.882 2153
282.635 -451.882 2153
287.784 -451.882 2153
292.932 -451.882 2153
298.081 -451.882 2153
303.229 -451.882 2153
308.377 -451.882 2153
313.526 -451.882 2153
318.674 -451.882 2153
323.823 -451.882 2153
328.971 -451.882 2153
333.654 -451.252 2150
339.268 -451.882 2153
344.417 -451.882 2153
349.89 -452.302 2155
355.043 -452.302 2155
360.197 -452.302 2155
365.35 -452.302 2155
370.503 -452.302 2155
375.308 -451.882 2153
380.456 -451.882 2153
385.605 -451.882 2153
390.753 -451.882 2153
395.902 -451.882 2153
401.05 -451.882 2153
715.567 -776.364 3699
724.413 -776.364 3699
736.628 -779.932 3716
747.119 -781.611 3724
756.025 -781.611 3724
764.93 -781.611 3724
773.835 -781.611 3724
782.74 -781.611 3724
796.96 -786.858 3749
805.925 -786.858 3749
818.585 -790.426 3766
833.304 -795.883 3792
842.372 -795.883 3792
851.44 -795.883 3792
862.323 -797.562 3800
873.474 -799.451 3809
882.582 -799.451 3809
891.691 -799.451 3809
900.799 -799.451 3809
909.908 -799.451 3809
919.016 -799.451 3809
925.932 -797.562 3800
935.019 -797.562 3800
944.106 -797.562 3800
953.193 -797.562 3800
962.28 -797.562 3800
971.367 -797.562 3800
976.067 -793.994 3783
982.77 -792.105 3774
991.795 -792.105 3774
998.698 -790.426 3766
1007.7 -790.426 3766
1012.12 -786.858 3749
1021.08 -786.858 3749
1027.58 -784.969 3740
1009.36 -764.4 3642
1013.88 -761.252 3627
1024.81 -762.931 3635
1033.5 -762.931 3635
1048.78 -767.758 3658
1067.07 -774.685 3691
1097.76 -790.426 3766
1106.77 -790.426 3766
1120.81 -793.994 3783
1145.39 -804.908 3835
1154.56 -804.908 3835
1169.19 -808.686 3853
1186.66 -814.353 3880
1195.94 -814.353 3880
1205.22 -814.353 3880
1214.49 -814.353 3880
1223.77 -814.353 3880
1238.77 -818.131 3898
1259.94 -825.896 3935
1284.51 -835.761 3982
1294.03 -835.761 3982
1325.49 -849.823 4049
1335.17 -849.823 4049
1344.85 -849.823 4049
1354.54 -849.823 4049
1357.82 -845.836 4030
1364.06 -843.737 4020
1373.67 -843.737 4020
1379.84 -841.638 4010
1389.43 -841.638 4010
1379.14 -829.674 3953
1388.59 -829.674 3953
1394.86 -827.785 3944
1397.53 -823.798 3925
1406.91 -823.798 3925
1419.91 -825.896 3935
1429.32 -825.896 3935
1438.73 -825.896 3935
1437.83 -820.02 3907
1447.17 -820.02 3907
1456.52 -820.02 3907
1465.86 -820.02 3907
1448.02 -804.908 3835
1447.31 -799.451 3809
1456.42 -799.451 3809
1445.52 -788.537 3757
1444.82 -783.29 3732
1453.75 -783.29 3732
1465.81 -784.969 3740
1474.75 -784.969 3740
1483.69 -784.969 3740
1492.64 -784.969 3740
1501.58 -784.969 3740
1510.52 -784.969 3740
1516.22 -783.29 3732
1525.14 -783.29 3732
1530.78 -781.611 3724
1539.68 -781.611 3724
1541.52 -778.043 3707
1543.69 -774.685 3691
1552.52 -774.685 3691
1564.73 -776.364 3699
1573.57 -776.364 3699
1582.42 -776.364 3699
1591.27 -776.364 3699
1600.11 -776.364 3699
-2914.86 -848.424 4089
-2905.09 -848.424 4089
-2895.31 -848.424 4089
-2885.53 -848.424 4089
-2875.75 -848.424 4089
-2865.97 -848.424 4089
-2856.2 -848.424 4089
-2839.46 -846.349 4079
-2822.77 -844.274 4069
-2813.03 -844.274 4069
-2782.64 -838.049 4039
-2779.84 -840.124 4049
-2783.84 -844.274 4069
-2774.11 -844.274 4069
-2764.38 -844.274 4069
-2754.65 -844.274 4069
-2744.92 -844.274 4069
-2748.64 -848.424 4089
-2738.86 -848.424 4089
-2729.08 -848.424 4089
-2719.3 -848.424 4089
-2709.53 -848.424 4089
-2699.75 -848.424 4089
-1333.91 -786.799 3792
-1324.84 -786.799 3792
-1327.57 -793.854 3826
-1318.42 -793.854 3826
-1336.99 -810.66 3907
-1327.64 -810.66 3907
-1327.75 -816.47 3935
-1318.34 -816.47 3935
-1308.93 -816.47 3935
-1299.52 -816.47 3935
-1286.83 -814.395 3925
-1280.7 -816.47 3935
-1274.2 -818.338 3944
-1264.77 -818.338 3944
-1255.34 -818.338 3944
-1243.06 -816.47 3935
-279.601 -474.735 2288
-274.129 -474.735 2288
-268.658 -474.735 2288
-262.152 -472.868 2279
-255.35 -470.378 2267
-249.268 -469.133 2261
-243.861 -469.133 2261
-238.454 -469.133 2261
-232.017 -467.058 2251
-224.822 -463.323 2233
-218.892 -462.079 2227
-213.854 -462.701 2230
-208.522 -462.701 2230
-203.189 -462.701 2230
-197.59 -462.079 2227
-192.265 -462.079 2227
-186.939 -462.079 2227
-181.125 -460.834 2221
-175.814 -460.834 2221
-170.503 -460.834 2221
-165.191 -460.834 2221
-159.664 -460.211 2218
-154.36 -460.211 2218
-149.057 -460.211 2218
-143.558 -459.589 2215
-137.949 -458.551 2210
-132.304 -457.306 2204
-126.861 -456.684 2201
-121.598 -456.684 2201
-115.859 -454.816 2192
-110.314 -453.571 2186
-104.991 -453.156 2184
-99.7682 -453.156 2184
-94.2859 -451.912 2178
-88.9549 -451.289 2175
-83.4458 -449.629 2167
-78.2638 -449.629 2167
-72.7783 -447.762 2158
-67.5239 -447.139 2155
-62.3707 -447.139 2155
-57.2174 -447.139 2155
-51.8709 -445.479 2147
-46.6714 -444.857 2144
-41.4476 -443.819 2139
-36.3326 -443.819 2139
-31.1738 -443.197 2136
-26.005 -442.16 2131
-20.9091 -442.16 2131
-15.791 -441.537 2128
-10.7023 -441.537 2128
-5.61359 -441.537 2128
-0.524156 -440.915 2125
4.55736 -440.915 2125
9.63888 -440.915 2125
14.7204 -440.915 2125
19.774 -440.292 2122
24.8483 -440.292 2122
29.9227 -440.292 2122
34.997 -440.292 2122
40.0713 -440.292 2122
45.1457 -440.292 2122
50.22 -440.292 2122
55.2944 -440.292 2122
60.3687 -440.292 2122
65.4431 -440.292 2122
70.5174 -440.292 2122
75.5205 -439.877 2120
80.5901 -439.877 2120
85.6596 -439.877 2120
90.7292 -439.877 2120
95.7988 -439.877 2120
100.726 -439.255 2117
105.788 -439.255 2117
110.85 -439.255 2117
115.913 -439.255 2117
120.975 -439.255 2117
125.859 -438.632 2114
130.79 -438.217 2112
135.841 -438.217 2112
140.891 -438.217 2112
145.734 -437.595 2109
150.992 -438.217 2112
156.042 -438.217 2112
161.093 -438.217 2112
166.143 -438.217 2112
171.194 -438.217 2112
176.244 -438.217 2112
181.295 -438.217 2112
186.521 -438.632 2114
191.849 -439.255 2117
197.376 -440.292 2122
202.45 -440.292 2122
207.525 -440.292 2122
213.2 -441.537 2128
218.289 -441.537 2128
223.378 -441.537 2128
229.003 -442.575 2133
234.433 -443.197 2136
239.877 -443.819 2139
244.992 -443.819 2139
250.692 -444.857 2144
255.819 -444.857 2144
261.676 -446.102 2150
266.817 -446.102 2150
271.959 -446.102 2150
277.487 -446.724 2153
282.635 -446.724 2153
287.784 -446.724 2153
292.932 -446.724 2153
298.081 -446.724 2153
303.229 -446.724 2153
308.377 -446.724 2153
313.526 -446.724 2153
318.674 -446.724 2153
323.823 -446.724 2153
328.971 -446.724 2153
333.654 -446.102 2150
339.268 -446.724 2153
344.417 -446.724 2153
349.89 -447.139 2155
355.043 -447.139 2155
360.197 -447.139 2155
365.35 -447.139 2155
370.503 -447.139 2155
375.308 -446.724 2153
380.456 -446.724 2153
385.605 -446.724 2153
390.753 -446.724 2153
395.902 -446.724 2153
401.05 -446.724 2153
715.567 -767.503 3699
724.413 -767.503 3699
736.628 -771.03 3716
747.119 -772.69 3724
756.025 -772.69 3724
764.93 -772.69 3724
773.835 -772.69 3724
782.74 -772.69 3724
796.96 -777.877 3749
805.925 -777.877 3749
818.585 -781.404 3766
833.304 -786.799 3792
842.372 -786.799 3792
851.44 -786.799 3792
862.323 -788.459 3800
873.474 -790.327 3809
882.582 -790.327 3809
891.691 -790.327 3809
900.799 -790.327 3809
909.908 -790.327 3809
919.016 -790.327 3809
925.932 -788.459 3800
935.019 -788.459 3800
944.106 -788.459 3800
953.193 -788.459 3800
962.28 -788.459 3800
971.367 -788.459 3800
976.067 -784.932 3783
982.77 -783.064 3774
991.795 -783.064 3774
998.698 -781.404 3766
1007.7 -781.404 3766
1012.12 -777.877 3749
1021.08 -777.877 3749
1027.58 -776.01 3740
1009.36 -755.676 3642
1009.4 -749.244 3611
1022.55 -752.563 3627
1031.22 -752.563 3627
1042.19 -754.223 3635
1060.13 -760.863 3667
1087.85 -774.35 3732
1096.77 -774.35 3732
1118.14 -783.064 3774
1140.31 -792.194 3818
1149.44 -792.194 3818
1169.19 -799.456 3853
1186.66 -805.058 3880
1195.94 -805.058 3880
1205.22 -805.058 3880
1214.49 -805.058 3880
1218.1 -801.323 3862
1233.05 -805.058 3880
1253.86 -812.528 3916
1284.51 -826.222 3982
1294.03 -826.222 3982
1325.49 -840.124 4049
1335.17 -840.124 4049
1344.85 -840.124 4049
1354.54 -840.124 4049
1357.82 -836.182 4030
1364.06 -834.107 4020
1373.67 -834.107 4020
1376.75 -830.164 4001
1386.32 -830.164 4001
1359.95 -808.793 3898
1369.27 -808.793 3898
1378.59 -808.793 3898
1371.89 -799.456 3853
1381.1 -799.456 3853
1393.56 -801.323 3862
1402.8 -801.323 3862
1412.03 -801.323 3862
1421.27 -801.323 3862
1430.51 -801.323 3862
1439.74 -801.323 3862
1438.85 -795.721 3835
1438.2 -790.327 3809
1427.55 -779.537 3757
1436.53 -779.537 3757
1435.9 -774.35 3732
1441.73 -772.69 3724
1450.63 -772.69 3724
1459.54 -772.69 3724
1468.44 -772.69 3724
1480.52 -774.35 3732
1489.44 -774.35 3732
1498.37 -774.35 3732
1507.29 -774.35 3732
1516.22 -774.35 3732
1525.14 -774.35 3732
1530.78 -772.69 3724
1539.68 -772.69 3724
1541.52 -769.163 3707
1543.69 -765.843 3691
1549.15 -764.183 3683
1564.73 -767.503 3699
1573.57 -767.503 3699
1582.42 -767.503 3699
1591.27 -767.503 3699
1600.11 -767.503 3699
-2905.09 -838.628 4089
-2895.31 -838.628 4089
-2885.53 -838.628 4089
-2875.75 -838.628 4089
-2865.97 -838.628 4089
-2856.2 -838.628 4089
-2839.46 -836.577 4079
-2822.77 -834.526 4069
-2813.03 -834.526 4069
-2782.64 -828.374 4039
-2779.84 -830.424 4049
-2783.84 -834.526 4069
-2774.11 -834.526 4069
-2764.38 -834.526 4069
-2754.65 -834.526 4069
-2744.92 -834.526 4069
-2748.64 -838.628 4089
-2738.86 -838.628 4089
-2729.08 -838.628 4089
-2719.3 -838.628 4089
-2709.53 -838.628 4089
-1333.91 -777.715 3792
-1324.84 -777.715 3792
-1324.79 -783.048 3818
-1315.66 -783.048 3818
-1327.75 -795.764 3880
-1318.47 -795.764 3880
-1324.38 -804.993 3925
-1318.34 -807.044 3935
-1308.93 -807.044 3935
-1299.52 -807.044 3935
-1286.83 -804.993 3925
-1280.7 -807.044 3935
-1274.2 -808.89 3944
-1264.77 -808.89 3944
-1255.34 -808.89 3944
-1243.06 -807.044 3935
-272.332 -466.178 2273
-266.897 -466.178 2273
-261.461 -466.178 2273
-254.674 -463.717 2261
-249.268 -463.717 2261
-243.106 -462.281 2254
-237.716 -462.281 2254
-232.017 -461.666 2251
-224.822 -457.974 2233
-219.187 -457.359 2230
-214.43 -458.59 2236
-209.083 -458.59 2236
-203.736 -458.59 2236
-197.856 -457.359 2230
-192.524 -457.359 2230
-186.939 -456.744 2227
-181.614 -456.744 2227
-176.289 -456.744 2227
-170.963 -456.744 2227
-165.191 -455.513 2221
-159.88 -455.513 2221
-154.569 -455.513 2221
-149.258 -455.513 2221
-143.947 -455.513 2221
-137.949 -453.257 2210
-132.485 -452.642 2207
-127.207 -452.642 2207
-121.929 -452.642 2207
-116.017 -450.181 2195
-110.617 -449.565 2192
-105.087 -448.335 2186
-99.8596 -448.335 2186
-94.4157 -447.309 2181
-89.0776 -446.694 2178
-83.5228 -444.848 2169
-78.3361 -444.848 2169
-72.8795 -443.208 2161
-67.6179 -442.592 2158
-62.3707 -441.977 2155
-57.2174 -441.977 2155
-51.8709 -440.336 2147
-46.7367 -440.336 2147
-41.4476 -438.695 2139
-36.3326 -438.695 2139
-31.1738 -438.08 2136
-26.005 -437.055 2131
-20.9091 -437.055 2131
-15.8132 -437.055 2131
-10.7174 -437.055 2131
-5.61359 -436.439 2128
-0.524896 -436.439 2128
4.55736 -435.824 2125
9.63888 -435.824 2125
14.7204 -435.824 2125
19.8019 -435.824 2125
24.8483 -435.209 2122
29.9227 -435.209 2122
34.997 -435.209 2122
40.0713 -435.209 2122
45.1457 -435.209 2122
50.22 -435.209 2122
55.2944 -435.209 2122
60.3687 -435.209 2122
65.4431 -435.209 2122
70.5174 -435.209 2122
75.5205 -434.799 2120
80.5901 -434.799 2120
85.6596 -434.799 2120
90.7292 -434.799 2120
95.7988 -434.799 2120
100.726 -434.183 2117
105.788 -434.183 2117
110.85 -434.183 2117
115.913 -434.183 2117
120.975 -434.183 2117
125.859 -433.568 2114
130.79 -433.158 2112
135.841 -433.158 2112
140.891 -433.158 2112
145.734 -432.543 2109
150.992 -433.158 2112
156.042 -433.158 2112
161.093 -433.158 2112
166.143 -433.158 2112
171.194 -433.158 2112
176.244 -433.158 2112
181.295 -433.158 2112
186.521 -433.568 2114
191.849 -434.183 2117
197.376 -435.209 2122
202.45 -435.209 2122
207.525 -435.209 2122
212.9 -435.824 2125
218.289 -436.439 2128
223.378 -436.439 2128
228.788 -437.055 2131
234.433 -438.08 2136
239.877 -438.695 2139
244.992 -438.695 2139
250.692 -439.721 2144
256.177 -440.336 2147
261.676 -440.952 2150
266.817 -440.952 2150
271.959 -440.952 2150
277.487 -441.567 2153
282.635 -441.567 2153
287.784 -441.567 2153
292.932 -441.567 2153
298.081 -441.567 2153
303.229 -441.567 2153
308.664 -441.977 2155
313.817 -441.977 2155
318.97 -441.977 2155
324.124 -441.977 2155
329.277 -441.977 2155
334.12 -441.567 2153
339.268 -441.567 2153
344.417 -441.567 2153
350.377 -442.592 2158
355.538 -442.592 2158
360.698 -442.592 2158
365.858 -442.592 2158
371.019 -442.592 2158
375.656 -441.977 2155
380.81 -441.977 2155
385.963 -441.977 2155
391.116 -441.977 2155
396.269 -441.977 2155
401.05 -441.567 2153
736.628 -762.128 3716
747.119 -763.769 3724
756.025 -763.769 3724
764.93 -763.769 3724
772.173 -762.128 3716
782.74 -763.769 3724
796.96 -768.896 3749
805.925 -768.896 3749
827.932 -781.202 3809
837.04 -781.202 3809
846.148 -781.202 3809
855.257 -781.202 3809
862.323 -779.356 3800
873.474 -781.202 3809
882.582 -781.202 3809
891.691 -781.202 3809
900.799 -781.202 3809
909.908 -781.202 3809
919.016 -781.202 3809
925.932 -779.356 3800
935.019 -779.356 3800
944.106 -779.356 3800
953.193 -779.356 3800
962.28 -779.356 3800
971.367 -779.356 3800
976.067 -775.87 3783
982.77 -774.024 3774
991.795 -774.024 3774
1000.82 -774.024 3774
1009.84 -774.024 3774
1016.71 -772.383 3766
1025.71 -772.383 3766
1034.72 -772.383 3766
1032.09 -763.769 3724
1007.17 -738.953 3603
1022.55 -743.875 3627
1031.22 -743.875 3627
1042.19 -745.516 3635
1057.53 -750.233 3658
1087.85 -765.41 3732
1099.12 -767.051 3740
1115.77 -772.383 3766
1129.85 -775.87 3783
1168.1 -795.764 3880
1177.38 -795.764 3880
1189.41 -797.609 3889
1198.71 -797.609 3889
1208.01 -797.609 3889
1214.49 -795.764 3880
1209.58 -786.534 3835
1325.72 -801.301 3907
1335.06 -801.301 3907
1344.4 -801.301 3907
1350.63 -799.455 3898
1359.95 -799.455 3898
1369.27 -799.455 3898
1362.68 -790.226 3853
1368.69 -788.38 3844
1371.43 -784.689 3826
1390.32 -790.226 3853
1399.53 -790.226 3853
1408.74 -790.226 3853
1417.96 -790.226 3853
1427.17 -790.226 3853
1436.39 -790.226 3853
1429.09 -781.202 3809
1418.57 -770.537 3757
1421.09 -767.051 3740
1430.03 -767.051 3740
1432.82 -763.769 3724
1438.63 -762.128 3716
1447.51 -762.128 3716
1456.4 -762.128 3716
1465.29 -762.128 3716
1477.35 -763.769 3724
1486.25 -763.769 3724
1495.16 -763.769 3724
1504.06 -763.769 3724
1512.97 -763.769 3724
1521.87 -763.769 3724
1530.78 -763.769 3724
1539.68 -763.769 3724
1541.52 -760.282 3707
1543.69 -757.001 3691
1545.79 -753.719 3675
1557.96 -755.36 3683
1566.77 -755.36 3683
1582.42 -758.642 3699
1591.27 -758.642 3699
1600.11 -758.642 3699
-2914.86 -828.833 4089
-2905.09 -828.833 4089
-2895.31 -828.833 4089
-2885.53 -828.833 4089
-2875.75 -828.833 4089
-2865.97 -828.833 4089
-2856.2 -828.833 4089
-2839.46 -826.806 4079
-2822.77 -824.779 4069
-2813.03 -824.779 4069
-2782.64 -818.698 4039
-2766.8 -816.874 4030
-2783.84 -824.779 4069
-2774.11 -824.779 4069
-2764.38 -824.779 4069
-2754.65 -824.779 4069
-2744.92 -824.779 4069
-2748.64 -828.833 4089
-2738.86 -828.833 4089
-2729.08 -828.833 4089
-1333.91 -768.632 3792
-1324.84 -768.632 3792
-1324.79 -773.902 3818
-1315.66 -773.902 3818
-1321.59 -782.821 3862
-1312.35 -782.821 3862
-1318.3 -791.942 3907
-1311.97 -793.766 3916
-1302.61 -793.766 3916
-1293.25 -793.766 3916
-1283.88 -793.766 3916
-1280.7 -797.617 3935
-1274.2 -799.442 3944
-1264.77 -799.442 3944
-1255.34 -799.442 3944
-1243.06 -797.617 3935
-1230.52 -795.591 3925
-1221.13 -795.591 3925
-1208.97 -793.766 3916
-270.415 -457.49 2257
-265.488 -458.301 2261
-260.081 -458.301 2261
-254.674 -458.301 2261
-249.268 -458.301 2261
-243.106 -456.882 2254
-237.716 -456.882 2254
-232.017 -456.274 2251
-225.124 -453.233 2236
-219.482 -452.625 2233
-214.43 -453.233 2236
-209.083 -453.233 2236
-203.736 -453.233 2236
-198.389 -453.233 2236
-193.042 -453.233 2236
-187.191 -452.017 2230
-181.859 -452.017 2230
-176.526 -452.017 2230
-171.193 -452.017 2230
-165.191 -450.193 2221
-160.096 -450.801 2224
-154.778 -450.801 2224
-149.46 -450.801 2224
-144.142 -450.801 2224
-138.137 -448.571 2213
-132.665 -447.963 2210
-127.207 -447.355 2207
-121.929 -447.355 2207
-116.176 -445.531 2198
-110.617 -444.315 2192
-105.231 -443.706 2189
-99.9966 -443.706 2189
-94.4157 -442.085 2181
-89.0776 -441.477 2178
-83.5228 -439.652 2169
-78.3361 -439.652 2169
-72.8795 -438.031 2161
-67.6179 -437.423 2158
-62.4575 -437.423 2158
-57.297 -437.423 2158
-51.9433 -435.801 2150
-46.7367 -435.193 2147
-41.4476 -433.572 2139
-36.3326 -433.572 2139
-31.1738 -432.963 2136
-26.005 -431.95 2131
-20.9091 -431.95 2131
-15.8132 -431.95 2131
-10.7174 -431.95 2131
-5.6215 -431.95 2131
-0.524896 -431.342 2128
4.55736 -430.734 2125
9.63888 -430.734 2125
14.7204 -430.734 2125
19.8019 -430.734 2125
24.8834 -430.734 2125
29.965 -430.734 2125
34.997 -430.126 2122
40.0713 -430.126 2122
45.1457 -430.126 2122
50.22 -430.126 2122
55.2944 -430.126 2122
60.3687 -430.126 2122
65.4431 -430.126 2122
70.5174 -430.126 2122
75.5205 -429.72 2120
80.5901 -429.72 2120
85.6596 -429.72 2120
90.7292 -429.72 2120
95.7988 -429.72 2120
100.726 -429.112 2117
105.788 -429.112 2117
110.85 -429.112 2117
115.748 -428.504 2114
120.804 -428.504 2114
125.859 -428.504 2114
130.79 -428.099 2112
135.841 -428.099 2112
140.891 -428.099 2112
145.942 -428.099 2112
150.992 -428.099 2112
156.042 -428.099 2112
161.093 -428.099 2112
166.143 -428.099 2112
171.194 -428.099 2112
176.244 -428.099 2112
181.295 -428.099 2112
186.521 -428.504 2114
192.12 -429.72 2120
197.376 -430.126 2122
202.45 -430.126 2122
207.818 -430.734 2125
212.9 -430.734 2125
218.597 -431.95 2131
223.693 -431.95 2131
229.003 -432.355 2133
234.762 -433.572 2139
240.438 -434.585 2144
245.565 -434.585 2144
251.043 -435.193 2147
256.535 -435.801 2150
261.676 -435.801 2150
267.438 -436.815 2155
272.591 -436.815 2155
277.744 -436.815 2155
283.291 -437.423 2158
288.452 -437.423 2158
293.612 -437.423 2158
298.773 -437.423 2158
303.933 -437.423 2158
309.094 -437.423 2158
314.254 -437.423 2158
319.414 -437.423 2158
324.124 -436.815 2155
329.277 -436.815 2155
334.43 -436.815 2155
339.268 -436.409 2153
344.417 -436.409 2153
350.377 -437.423 2158
355.538 -437.423 2158
360.698 -437.423 2158
365.858 -437.423 2158
371.019 -437.423 2158
375.656 -436.815 2155
380.81 -436.815 2155
385.963 -436.815 2155
391.116 -436.815 2155
396.269 -436.815 2155
747.119 -754.848 3724
756.025 -754.848 3724
764.93 -754.848 3724
772.173 -753.227 3716
782.74 -754.848 3724
795.047 -758.091 3740
803.99 -758.091 3740
827.932 -772.078 3809
837.04 -772.078 3809
846.148 -772.078 3809
855.257 -772.078 3809
860.508 -768.632 3792
873.474 -772.078 3809
882.582 -772.078 3809
891.691 -772.078 3809
900.799 -772.078 3809
909.908 -772.078 3809
919.016 -772.078 3809
925.932 -770.253 3800
930.836 -766.807 3783
944.106 -770.253 3800
953.193 -770.253 3800
962.28 -770.253 3800
971.367 -770.253 3800
976.067 -766.807 3783
985.114 -766.807 3783
994.16 -766.807 3783
1000.82 -764.983 3774
1009.84 -764.983 3774
1016.71 -763.362 3766
1025.71 -763.362 3766
1034.72 -763.362 3766
1032.09 -754.848 3724
1020.31 -739.849 3650
1029.03 -739.849 3650
1031.22 -735.186 3627
1042.19 -736.808 3635
1062.45 -744.916 3675
1090.18 -758.091 3740
1099.12 -758.091 3740
1115.77 -763.362 3766
1127.17 -764.983 3774
1168.1 -786.469 3880
1177.38 -786.469 3880
1189.41 -788.293 3889
1198.71 -788.293 3889
1208.01 -788.293 3889
1214.49 -786.469 3880
1218.1 -782.821 3862
1291.31 -793.766 3916
1300.68 -793.766 3916
1310.04 -793.766 3916
1319.41 -793.766 3916
1325.72 -791.942 3907
1335.06 -791.942 3907
1344.4 -791.942 3907
1350.63 -790.118 3898
1359.95 -790.118 3898
1369.27 -790.118 3898
1362.68 -780.996 3853
1368.69 -779.172 3844
1371.43 -775.523 3826
1390.32 -780.996 3853
1399.53 -780.996 3853
1408.74 -780.996 3853
1417.96 -780.996 3853
1427.17 -780.996 3853
1436.39 -780.996 3853
1415.96 -764.983 3774
1415.54 -759.916 3749
1415.01 -754.848 3724
1423.92 -754.848 3724
1426.28 -751.402 3707
1432.05 -749.781 3699
1440.89 -749.781 3699
1456.4 -753.227 3716
1465.29 -753.227 3716
1474.17 -753.227 3716
1486.25 -754.848 3724
1495.16 -754.848 3724
1504.06 -754.848 3724
1512.97 -754.848 3724
1521.87 -754.848 3724
1527.49 -753.227 3716
1536.38 -753.227 3716
1541.52 -751.402 3707
1537 -744.916 3675
1542.42 -743.294 3667
1551.19 -743.294 3667
1559.96 -743.294 3667
1575.57 -746.538 3683
1584.38 -746.538 3683
1593.19 -746.538 3683
-2924.64 -819.038 4089
-2914.86 -819.038 4089
-2905.09 -819.038 4089
-2895.31 -819.038 4089
-2885.53 -819.038 4089
-2861.69 -815.032 4069
-2851.96 -815.032 4069
-2842.23 -815.032 4069
-2832.5 -815.032 4069
-2808.89 -811.026 4049
-2799.21 -811.026 4049
-2782.64 -809.023 4039
-2766.8 -807.22 4030
-2777 -813.029 4059
-2774.11 -815.032 4069
-2764.38 -815.032 4069
-2754.65 -815.032 4069
-2744.92 -815.032 4069
-2748.64 -819.038 4089
-2738.86 -819.038 4089
-2729.08 -819.038 4089
-2719.3 -819.038 4089
-2709.53 -819.038 4089
-1333.91 -759.548 3792
-1324.84 -759.548 3792
-1324.79 -764.756 3818
-1315.66 -764.756 3818
-1321.59 -773.569 3862
-1312.35 -773.569 3862
-1315.26 -780.78 3898
-1308.96 -782.583 3907
-1302.61 -784.385 3916
-1293.25 -784.385 3916
-1283.88 -784.385 3916
-1277.45 -786.188 3925
-1271.29 -788.191 3935
-1261.88 -788.191 3935
-1252.47 -788.191 3935
-1239.9 -786.188 3925
-1230.52 -786.188 3925
-1221.13 -786.188 3925
-1208.97 -784.385 3916
-270.895 -452.884 2261
-265.488 -452.884 2261
-260.081 -452.884 2261
-254.674 -452.884 2261
-249.268 -452.884 2261
-243.429 -452.083 2257
