967.722 -180.565 2832
1287.73 -235.333 3691
1296.56 -235.333 3691
1314.22 -236.927 3716
1323.11 -236.927 3716
1332 -236.927 3716
1334.75 -235.843 3699
1343.59 -235.843 3699
1352.44 -235.843 3699
1358.34 -235.333 3691
1361.24 -234.313 3675
1370.03 -234.313 3675
1375.81 -233.803 3667
1384.58 -233.803 3667
1389.93 -233.229 3658
1398.68 -233.229 3658
1404.35 -232.719 3650
1407.27 -231.763 3635
1412.85 -231.253 3627
1421.52 -231.253 3627
1423.88 -230.233 3611
1426.17 -229.213 3595
1425.59 -227.746 3572
1424.9 -226.28 3549
1433.38 -226.28 3549
1435.78 -225.323 3534
1432.37 -223.474 3505
1437.47 -222.964 3497
1445.83 -222.964 3497
1448.37 -222.072 3483
1450.43 -221.115 3468
1444 -218.884 3433
1452.21 -218.884 3433
1428.09 -214.038 3357
1421.57 -211.87 3323
1423.92 -211.041 3310
1428.81 -210.595 3303
1436.71 -210.595 3303
1436.3 -209.384 3284
1441.51 -209.001 3278
1443.6 -208.172 3265
1451.41 -208.172 3265
1456.09 -207.726 3258
1463.88 -207.726 3258
1483.41 -209.384 3284
1491.27 -209.384 3284
1499.12 -209.384 3284
1506.97 -209.384 3284
1514.83 -209.384 3284
1522.68 -209.384 3284
1496.69 -172.085 2699
1508.16 -172.659 2708
1517.43 -172.977 2713
1523.92 -172.977 2713
1530.41 -172.977 2713
1549.36 -174.38 2735
1555.9 -174.38 2735
1562.44 -174.38 2735
1568.98 -174.38 2735
1575.52 -174.38 2735
1582.06 -174.38 2735
1583.37 -173.806 2726
1589.89 -173.806 2726
1596.41 -173.806 2726
1602.93 -173.806 2726
1611.81 -174.061 2730
1618.33 -174.061 2730
1624.86 -174.061 2730
1631.39 -174.061 2730
1637.92 -174.061 2730
1639.03 -173.487 2721
1643.11 -173.232 2717
1644.15 -172.659 2708
1650.62 -172.659 2708
1649.14 -171.83 2695
1653.13 -171.575 2691
1654.02 -171.001 2682
1660.43 -171.001 2682
1666.84 -171.001 2682
1673.26 -171.001 2682
1679.67 -171.001 2682
1686.08 -171.001 2682
1692.5 -171.001 2682
1698.91 -171.001 2682
1699.6 -170.427 2673
1700.89 -169.917 2665
1707.26 -169.917 2665
1707.84 -169.343 2656
1709.03 -168.833 2648
1712.77 -168.578 2644
1719.1 -168.578 2644
1722.81 -168.323 2640
1725.85 -168.004 2635
1729.52 -167.749 2631
1735.81 -167.749 2631
1742.1 -167.749 2631
1748.39 -167.749 2631
1752.02 -167.494 2627
1755.62 -167.239 2623
1761.89 -167.239 2623
1768.17 -167.239 2623
1769.03 -166.729 2615
1772.56 -166.474 2611
1778.81 -166.474 2611
1782.32 -166.219 2607
1788.55 -166.219 2607
1794.79 -166.219 2607
1806.55 -166.729 2615
1812.8 -166.729 2615
1819.05 -166.729 2615
1828.1 -166.984 2619
1834.36 -166.984 2619
1840.62 -166.984 2619
1846.89 -166.984 2619
1853.15 -166.984 2619
1856.57 -166.729 2615
1862.83 -166.729 2615
1866.22 -166.474 2611
1869.6 -166.219 2607
1870.07 -165.709 2599
1876.29 -165.709 2599
1878.88 -165.39 2594
1882.18 -165.135 2590
1888.37 -165.135 2590
1894.56 -165.135 2590
1900.76 -165.135 2590
1904.01 -164.88 2586
1907.24 -164.625 2582
1913.41 -164.625 2582
1916.61 -164.37 2578
1919.79 -164.115 2574
1923.7 -163.924 2571
1926.85 -163.669 2567
1932.99 -163.669 2567
1936.1 -163.414 2563
1939.2 -163.159 2559
1945.32 -163.159 2559
1954.49 -163.414 2563
1960.62 -163.414 2563
-1995.35 -163.533 2665
-1988.98 -163.533 2665
-1982.61 -163.533 2665
-1963.63 -162.49 2648
-1957.29 -162.49 2648
-1948.01 -162.244 2644
-1941.69 -162.244 2644
-1917.07 -160.71 2619
-1899.13 -159.728 2603
-2391.16 -207.224 3377
-2383.08 -207.224 3377
-2375.01 -207.224 3377
-2324.88 -203.542 3317
-2344.89 -205.996 3357
-2336.86 -205.996 3357
-2333 -206.364 3363
-2324.95 -206.364 3363
-2316.91 -206.364 3363
-2308.87 -206.364 3363
-2291.93 -205.567 3350
-2283.92 -205.567 3350
-2275.91 -205.567 3350
-2267.9 -205.567 3350
-2259.89 -205.567 3350
-2274.73 -207.653 3384
-2266.64 -207.653 3384
-2258.55 -207.653 3384
-2250.46 -207.653 3384
-2228.45 -206.364 3363
-2238.9 -208.083 3391
-2230.79 -208.083 3391
-2231.85 -208.942 3405
-2237.43 -210.23 3426
-2252.01 -212.378 3461
-2243.73 -212.378 3461
-2235.45 -212.378 3461
-2227.18 -212.378 3461
-2218.9 -212.378 3461
-2210.63 -212.378 3461
-2225.26 -214.587 3497
-2231.48 -215.998 3520
-2227.48 -216.428 3527
-2219.05 -216.428 3527
-2210.61 -216.428 3527
-2202.18 -216.428 3527
-2193.74 -216.428 3527
-2185.31 -216.428 3527
-2217.88 -223.976 3650
-2209.15 -223.976 3650
-2200.42 -223.976 3650
-2191.69 -223.976 3650
-2169.21 -222.564 3627
-2179 -224.467 3658
-2180.34 -225.51 3675
-2171.55 -225.51 3675
-2162.76 -225.51 3675
-2153.98 -225.51 3675
-2149.86 -226.001 3683
-2141.05 -226.001 3683
-2141.51 -226.982 3699
-2132.66 -226.982 3699
-2133.58 -228.026 3716
-2124.69 -228.026 3716
-2148.83 -231.585 3774
-2179.49 -235.88 3844
-2170.3 -235.88 3844
-2161.11 -235.88 3844
-2161.99 -236.985 3862
-2152.76 -236.985 3862
-2143.52 -236.985 3862
-2129.31 -236.432 3853
-2115.15 -235.88 3844
-2081.85 -233.18 3800
-2072.76 -233.18 3800
-2063.68 -233.18 3800
-2054.59 -233.18 3800
-2045.5 -233.18 3800
-2036.41 -233.18 3800
-2023.06 -232.689 3792
-2004.43 -231.585 3774
-2009.15 -233.18 3800
-2000.07 -233.18 3800
-1990.98 -233.18 3800
-2004.84 -235.88 3844
-2000.32 -236.432 3853
-1991.11 -236.432 3853
-1981.89 -236.432 3853
-1968.07 -235.88 3844
-1923.21 -231.585 3774
-1914.18 -231.585 3774
-1888 -229.498 3740
-1866.99 -228.026 3716
-1849.61 -226.982 3699
-1840.76 -226.982 3699
-1831.92 -226.982 3699
-1827.01 -227.473 3707
-1842.67 -230.542 3757
-1838.08 -231.094 3766
-1829.08 -231.094 3766
-1820.07 -231.094 3766
-1806.74 -230.542 3757
-1797.75 -230.542 3757
-1780.67 -229.498 3740
-1767.94 -229.007 3732
-1767.03 -230.051 3749
-1758.06 -230.051 3749
-1749.1 -230.051 3749
-1740.13 -230.051 3749
-1708.08 -226.982 3699
-1691.89 -226.001 3683
-1701.81 -228.517 3724
-1692.91 -228.517 3724
-1691.24 -229.498 3740
-1686.34 -230.051 3749
-1677.38 -230.051 3749
-1668.41 -230.051 3749
-1659.45 -230.051 3749
-1646.52 -229.498 3740
-1637.58 -229.498 3740
-1628.63 -229.498 3740
-1605.4 -227.473 3707
-1259.76 -187.833 3061
-1252.44 -187.833 3061
-1245.12 -187.833 3061
-1235.37 -187.465 3055
-1212.79 -185.133 3017
-1167.61 -179.303 2922
-1150.3 -177.708 2896
-1143.37 -177.708 2896
-1134.49 -177.401 2891
-1127.57 -177.401 2891
-1110.97 -175.867 2866
-1111.82 -177.094 2886
-1104.92 -177.094 2886
-1103.73 -178.015 2901
-1098.68 -178.321 2906
-1097.74 -179.303 2922
-1090.75 -179.303 2922
-1087.47 -179.917 2932
-1080.46 -179.917 2932
-1073.45 -179.917 2932
-1062.8 -179.303 2922
-1050.03 -178.321 2906
-1041.29 -178.015 2901
-1034.35 -178.015 2901
-1025.65 -177.708 2896
-1015.2 -177.094 2886
-1006.55 -176.787 2881
-999.666 -176.787 2881
-992.776 -176.787 2881
-985.887 -176.787 2881
-978.997 -176.787 2881
-972.108 -176.787 2881
-965.219 -176.787 2881
-958.329 -176.787 2881
-951.44 -176.787 2881
-944.551 -176.787 2881
-934.407 -176.174 2871
-925.926 -175.867 2866
-917.79 -175.621 2862
-910.946 -175.621 2862
-904.102 -175.621 2862
-897.258 -175.621 2862
-890.414 -175.621 2862
-884.805 -175.867 2866
-877.952 -175.867 2866
-871.098 -175.867 2866
-864.245 -175.867 2866
-857.391 -175.867 2866
-852.022 -176.174 2871
-845.156 -176.174 2871
-838.291 -176.174 2871
-828.819 -175.621 2862
-821.975 -175.621 2862
-815.131 -175.621 2862
-808.287 -175.621 2862
-801.443 -175.621 2862
-794.599 -175.621 2862
-787.756 -175.621 2862
-780.912 -175.621 2862
-772.715 -175.315 2857
-765.883 -175.315 2857
-759.052 -175.315 2857
-750.903 -175.008 2852
-744.083 -175.008 2852
-737.263 -175.008 2852
-729.163 -174.701 2847
-722.354 -174.701 2847
-715.546 -174.701 2847
-708.738 -174.701 2847
-700.698 -174.394 2842
-693.901 -174.394 2842
-687.105 -174.394 2842
-680.309 -174.394 2842
-673.513 -174.394 2842
-666.717 -174.394 2842
-657.599 -173.781 2832
-650.827 -173.781 2832
-642.008 -173.228 2823
-635.257 -173.228 2823
-628.507 -173.228 2823
-627.042 -174.701 2847
-625.462 -176.174 2871
-618.597 -176.174 2871
-620.254 -178.628 2911
-624.249 -181.819 2963
-617.163 -181.819 2963
-619.961 -184.765 3011
-612.761 -184.765 3011
-605.561 -184.765 3011
-293.175 -131.747 2147
-288.041 -131.747 2147
-282.907 -131.747 2147
-277.772 -131.747 2147
-272.638 -131.747 2147
-267.504 -131.747 2147
-262.37 -131.747 2147
-257.236 -131.747 2147
-252.102 -131.747 2147
-246.968 -131.747 2147
-241.496 -131.563 2144
-237.361 -132.115 2153
-232.428 -132.238 2155
-227.591 -132.422 2158
-222.431 -132.422 2158
-217.27 -132.422 2158
-212.11 -132.422 2158
-207.237 -132.606 2161
-202.07 -132.606 2161
-196.902 -132.606 2161
-194.219 -134.324 2189
-190.538 -135.429 2207
-185.261 -135.429 2207
-179.983 -135.429 2207
-174.705 -135.429 2207
-169.428 -135.429 2207
-164.15 -135.429 2207
-158.657 -135.244 2204
-152.342 -134.324 2189
-147.108 -134.324 2189
-141.679 -134.14 2186
-136.139 -133.833 2181
-130.924 -133.833 2181
-125.535 -133.649 2178
-120.327 -133.649 2178
-114.802 -133.281 2172
-109.356 -132.974 2167
-104.029 -132.79 2164
-98.8546 -132.79 2164
-93.5499 -132.606 2161
-88.2596 -132.422 2158
-82.9837 -132.238 2155
-77.8304 -132.238 2155
-72.5085 -131.931 2150
-67.2732 -131.747 2147
-62.1391 -131.747 2147
-57.005 -131.747 2147
-51.7984 -131.563 2144
-46.6714 -131.563 2144
-41.5057 -131.44 2142
-36.3835 -131.44 2142
-31.2614 -131.44 2142
-26.1026 -131.256 2139
-20.9876 -131.256 2139
-15.8726 -131.256 2139
-10.7425 -131.072 2136
-5.62678 -130.888 2133
-0.526129 -130.888 2133
4.57452 -130.888 2133
9.67517 -130.888 2133
14.7758 -130.888 2133
19.8578 -130.765 2131
24.9186 -130.581 2128
30.0073 -130.581 2128
35.096 -130.581 2128
40.1846 -130.581 2128
45.2733 -130.581 2128
50.362 -130.581 2128
55.3726 -130.397 2125
60.4541 -130.397 2125
65.4431 -130.213 2122
70.6171 -130.397 2125
75.6986 -130.397 2125
80.7802 -130.397 2125
85.8617 -130.397 2125
90.9432 -130.397 2125
96.0247 -130.397 2125
101.249 -130.581 2128
106.488 -130.765 2131
111.583 -130.765 2131
116.953 -131.072 2136
122.061 -131.072 2136
127.169 -131.072 2136
132.648 -131.44 2142
137.77 -131.44 2142
142.892 -131.44 2142
148.153 -131.563 2144
153.28 -131.563 2144
158.628 -131.747 2147
163.763 -131.747 2147
169.133 -131.931 2150
174.517 -132.115 2153
179.832 -132.238 2155
184.986 -132.238 2155
190.404 -132.422 2158
196.108 -132.79 2164
201.562 -132.974 2167
206.744 -132.974 2167
211.926 -132.974 2167
217.308 -133.097 2169
222.802 -133.281 2172
227.996 -133.281 2172
233.19 -133.281 2172
238.384 -133.281 2172
243.914 -133.465 2175
249.116 -133.465 2175
254.667 -133.649 2178
261.904 -134.692 2195
268.248 -135.244 2204
273.519 -135.244 2204
279.548 -135.613 2210
288.571 -137.392 2239
294.319 -137.576 2242
299.68 -137.576 2242
306.266 -138.129 2251
313.033 -138.742 2261
318.862 -138.926 2264
324.276 -138.926 2264
330.127 -139.11 2267
335.548 -139.11 2267
340.969 -139.11 2267
346.39 -139.11 2267
350.88 -138.742 2261
356.287 -138.742 2261
362.653 -139.11 2267
368.075 -139.11 2267
373.496 -139.11 2267
378.917 -139.11 2267
384.338 -139.11 2267
389.759 -139.11 2267
509.101 -176.787 2881
515.99 -176.787 2881
522.88 -176.787 2881
529.769 -176.787 2881
536.658 -176.787 2881
543.548 -176.787 2881
550.437 -176.787 2881
557.326 -176.787 2881
564.216 -176.787 2881
569.123 -176.174 2871
575.988 -176.174 2871
581.838 -175.867 2866
588.692 -175.867 2866
594.714 -175.621 2862
601.558 -175.621 2862
607.339 -175.315 2857
614.171 -175.315 2857
621.003 -175.315 2857
627.835 -175.315 2857
634.667 -175.315 2857
641.499 -175.315 2857
648.331 -175.315 2857
655.163 -175.315 2857
660.836 -175.008 2852
667.656 -175.008 2852
674.476 -175.008 2852
680.102 -174.701 2847
686.91 -174.701 2847
693.718 -174.701 2847
700.526 -174.701 2847
707.334 -174.701 2847
714.142 -174.701 2847
719.684 -174.394 2842
726.48 -174.394 2842
733.276 -174.394 2842
740.072 -174.394 2842
745.554 -174.087 2837
753.664 -174.394 2842
760.46 -174.394 2842
767.256 -174.394 2842
774.052 -174.394 2842
779.475 -174.087 2837
786.259 -174.087 2837
793.043 -174.087 2837
798.418 -173.781 2832
805.19 -173.781 2832
811.962 -173.781 2832
818.734 -173.781 2832
825.506 -173.781 2832
832.278 -173.781 2832
839.051 -173.781 2832
845.823 -173.781 2832
851.391 -173.535 2828
858.153 -173.535 2828
864.916 -173.535 2828
871.679 -173.535 2828
878.441 -173.535 2828
885.204 -173.535 2828
891.966 -173.535 2828
897.14 -173.228 2823
900.689 -172.615 2813
909.028 -172.922 2818
917.392 -173.228 2823
924.143 -173.228 2823
930.893 -173.228 2823
939.305 -173.535 2828
946.067 -173.535 2828
954.177 -173.781 2832
960.95 -173.781 2832
967.722 -173.781 2832
1296.45 -228.026 3716
1305.34 -228.026 3716
1317.05 -228.517 3724
1325.96 -228.517 3724
1334.86 -228.517 3724
1340.88 -228.026 3716
1349.77 -228.026 3716
1358.65 -228.026 3716
1361.28 -226.982 3699
1367.17 -226.492 3691
1375.99 -226.492 3691
1378.82 -225.51 3675
1387.6 -225.51 3675
1393.35 -225.019 3667
1402.12 -225.019 3667
1407.43 -224.467 3658
1409.98 -223.485 3642
1412.85 -222.564 3627
1421.52 -222.564 3627
1423.88 -221.583 3611
1429.34 -221.092 3603
1425.59 -219.189 3572
1424.9 -217.778 3549
1433.38 -217.778 3549
1435.78 -216.858 3534
1432.37 -215.078 3505
1437.47 -214.587 3497
1445.83 -214.587 3497
1448.37 -213.728 3483
1450.43 -212.808 3468
1444 -210.66 3433
1452.21 -210.66 3433
1428.09 -205.996 3357
1421.57 -203.91 3323
1429.51 -203.91 3323
1431.84 -203.112 3310
1439.75 -203.112 3310
1444.61 -202.683 3303
1441.51 -201.149 3278
1446.25 -200.719 3271
1454.08 -200.719 3271
1459.22 -200.351 3265
1467.02 -200.351 3265
1483.41 -201.517 3284
1491.27 -201.517 3284
1499.12 -201.517 3284
1506.97 -201.517 3284
1514.83 -201.517 3284
1522.68 -201.517 3284
1518.42 -199.921 3258
1496.69 -165.619 2699
1508.16 -166.172 2708
1517.43 -166.478 2713
1523.92 -166.478 2713
1532.66 -166.724 2717
1549.36 -167.828 2735
1555.9 -167.828 2735
1562.44 -167.828 2735
1568.98 -167.828 2735
1575.52 -167.828 2735
1582.06 -167.828 2735
1583.37 -167.276 2726
1589.89 -167.276 2726
1596.41 -167.276 2726
1602.93 -167.276 2726
1611.81 -167.522 2730
1618.33 -167.522 2730
1624.86 -167.522 2730
1631.39 -167.522 2730
1637.92 -167.522 2730
1639.03 -166.969 2721
1643.11 -166.724 2717
1644.15 -166.172 2708
1650.62 -166.172 2708
1651.59 -165.619 2699
1653.13 -165.128 2691
1654.02 -164.576 2682
1660.43 -164.576 2682
1666.84 -164.576 2682
1673.26 -164.576 2682
1679.67 -164.576 2682
1686.08 -164.576 2682
1692.5 -164.576 2682
1698.91 -164.576 2682
1699.6 -164.024 2673
1703.44 -163.778 2669
1709.82 -163.778 2669
1707.84 -162.981 2656
1711.61 -162.735 2652
1712.77 -162.244 2644
1719.1 -162.244 2644
1725.42 -162.244 2644
1729.12 -161.999 2640
1729.52 -161.447 2631
1735.81 -161.447 2631
1742.1 -161.447 2631
1748.39 -161.447 2631
1752.02 -161.201 2627
1758.3 -161.201 2627
1764.58 -161.201 2627
1770.86 -161.201 2627
1769.03 -160.465 2615
1775.28 -160.465 2615
1781.53 -160.465 2615
1785.05 -160.219 2611
1791.3 -160.219 2611
1800.29 -160.465 2615
1806.55 -160.465 2615
1812.8 -160.465 2615
1821.84 -160.71 2619
1828.1 -160.71 2619
1834.36 -160.71 2619
1840.62 -160.71 2619
1846.89 -160.71 2619
1853.15 -160.71 2619
1859.41 -160.71 2619
1865.68 -160.71 2619
1869.08 -160.465 2615
1869.6 -159.974 2607
1872.95 -159.728 2603
1879.18 -159.728 2603
1878.88 -159.176 2594
1885.08 -159.176 2594
1891.29 -159.176 2594
1897.49 -159.176 2594
1900.76 -158.931 2590
1904.01 -158.685 2586
1910.19 -158.685 2586
1916.37 -158.685 2586
1916.61 -158.194 2578
1919.79 -157.949 2574
1923.7 -157.765 2571
1929.85 -157.765 2571
1936 -157.765 2571
1939.12 -157.519 2567
1942.23 -157.274 2563
1948.36 -157.274 2563
1957.54 -157.519 2567
1963.68 -157.519 2567
-1995.35 -157.149 2665
-1988.98 -157.149 2665
-1982.61 -157.149 2665
-1963.63 -156.146 2648
-1957.29 -156.146 2648
-1948.01 -155.911 2644
-1941.69 -155.911 2644
-1917.07 -154.436 2619
-1899.13 -153.493 2603
-2391.16 -199.134 3377
-2383.08 -199.134 3377
-2375.01 -199.134 3377
-2324.88 -195.596 3317
-2340 -197.542 3350
-2331.99 -197.542 3350
-2333 -198.308 3363
-2324.95 -198.308 3363
-2316.91 -198.308 3363
-2308.87 -198.308 3363
-2291.93 -197.542 3350
-2283.92 -197.542 3350
-2275.91 -197.542 3350
-2267.9 -197.542 3350
-2259.89 -197.542 3350
-2274.73 -199.547 3384
-2266.64 -199.547 3384
-2258.55 -199.547 3384
-2250.46 -199.547 3384
-2228.45 -198.308 3363
-2238.9 -199.959 3391
-2230.79 -199.959 3391
-2231.85 -200.785 3405
-2237.43 -202.023 3426
-2252.01 -204.087 3461
-2243.73 -204.087 3461
-2235.45 -204.087 3461
-2227.18 -204.087 3461
-2218.9 -204.087 3461
-2210.63 -204.087 3461
-2225.26 -206.21 3497
-2231.48 -207.566 3520
-2223.06 -207.566 3520
-2214.64 -207.566 3520
-2206.22 -207.566 3520
-2192.81 -207.095 3512
-2184.41 -207.095 3512
-2171.68 -206.682 3505
-2138.88 -207.566 3520
-2185.54 -212.932 3611
-2186.56 -213.876 3627
-2177.88 -213.876 3627
-2169.21 -213.876 3627
-2165.3 -214.348 3635
-2170.25 -215.704 3658
-2161.51 -215.704 3658
-2158.06 -216.235 3667
-2149.29 -216.235 3667
-2140.52 -216.235 3667
-2131.75 -216.235 3667
-2141.51 -218.121 3699
-2132.66 -218.121 3699
-2133.58 -219.124 3716
-2124.69 -219.124 3716
-2148.83 -222.544 3774
-2179.49 -226.672 3844
-2170.3 -226.672 3844
-2161.11 -226.672 3844
-2161.99 -227.733 3862
-2152.76 -227.733 3862
-2143.52 -227.733 3862
-2129.31 -227.203 3853
-2095.89 -224.608 3809
-2072.54 -223.075 3783
-2068.4 -223.605 3792
-2059.33 -223.605 3792
-2050.26 -223.605 3792
-2041.2 -223.605 3792
-2032.13 -223.605 3792
-2013.46 -222.544 3774
-2004.43 -222.544 3774
-2009.15 -224.077 3800
-2000.07 -224.077 3800
-1990.98 -224.077 3800
-2000.15 -226.141 3835
-1995.65 -226.672 3844
-1986.46 -226.672 3844
-1977.26 -226.672 3844
-1963.46 -226.141 3835
-1914.55 -221.542 3757
-1905.56 -221.542 3757
-1888 -220.539 3740
-1866.99 -219.124 3716
-1849.61 -218.121 3699
-1840.76 -218.121 3699
-1831.92 -218.121 3699
-1823.07 -218.121 3699
-1830.41 -220.067 3732
-1833.69 -221.542 3757
-1824.7 -221.542 3757
-1815.72 -221.542 3757
-1790.87 -219.596 3724
-1781.96 -219.596 3724
-1769.25 -219.124 3716
-1756.1 -218.593 3707
-1751.47 -219.124 3716
-1742.59 -219.124 3716
-1733.7 -219.124 3716
-1724.82 -219.124 3716
-1697 -216.706 3675
-1688.21 -216.706 3675
-1683.08 -217.178 3683
-1674.27 -217.178 3683
-1687.62 -220.067 3732
-1686.34 -221.07 3749
-1677.38 -221.07 3749
-1668.41 -221.07 3749
-1659.45 -221.07 3749
-1646.52 -220.539 3740
-1637.58 -220.539 3740
-1628.63 -220.539 3740
-1605.4 -218.593 3707
-1259.76 -180.5 3061
-1252.44 -180.5 3061
-1245.12 -180.5 3061
-1235.37 -180.146 3055
-1212.79 -177.906 3017
-1167.61 -172.304 2922
-1150.3 -170.77 2896
-1143.37 -170.77 2896
-1134.49 -170.476 2891
-1125.62 -170.181 2886
-1110.97 -169.001 2866
-1111.82 -170.181 2886
-1104.92 -170.181 2886
-1103.73 -171.065 2901
-1098.68 -171.36 2906
-1097.74 -172.304 2922
-1090.75 -172.304 2922
-1083.77 -172.304 2922
-1076.78 -172.304 2922
-1069.79 -172.304 2922
-1060.98 -172.009 2917
-1050.03 -171.36 2906
-1041.29 -171.065 2901
-1034.35 -171.065 2901
-1025.65 -170.77 2896
-1015.2 -170.181 2886
-1006.55 -169.886 2881
-999.666 -169.886 2881
-992.776 -169.886 2881
-985.887 -169.886 2881
-978.997 -169.886 2881
-972.108 -169.886 2881
-965.219 -169.886 2881
-958.329 -169.886 2881
-951.44 -169.886 2881
-944.551 -169.886 2881
-934.407 -169.296 2871
-925.926 -169.001 2866
-917.79 -168.766 2862
-910.946 -168.766 2862
-904.102 -168.766 2862
-897.258 -168.766 2862
-890.414 -168.766 2862
-884.805 -169.001 2866
-877.952 -169.001 2866
-871.098 -169.001 2866
-864.245 -169.001 2866
-857.391 -169.001 2866
-850.538 -169.001 2866
-843.684 -169.001 2866
-836.831 -169.001 2866
-828.819 -168.766 2862
-821.975 -168.766 2862
-815.131 -168.766 2862
-806.875 -168.471 2857
-800.043 -168.471 2857
-794.599 -168.766 2862
-787.756 -168.766 2862
-780.912 -168.766 2862
-772.715 -168.471 2857
-765.883 -168.471 2857
-759.052 -168.471 2857
-750.903 -168.176 2852
-744.083 -168.176 2852
-737.263 -168.176 2852
-729.163 -167.881 2847
-722.354 -167.881 2847
-715.546 -167.881 2847
-708.738 -167.881 2847
-700.698 -167.586 2842
-693.901 -167.586 2842
-687.105 -167.586 2842
-680.309 -167.586 2842
-673.513 -167.586 2842
-666.717 -167.586 2842
-657.599 -166.997 2832
-650.827 -166.997 2832
-642.008 -166.466 2823
-634.132 -166.171 2818
-628.507 -166.466 2823
-624.839 -167.291 2837
-623.502 -168.766 2862
-616.658 -168.766 2862
-613.862 -169.886 2881
-624.249 -174.721 2963
-617.163 -174.721 2963
-619.961 -177.552 3011
-612.761 -177.552 3011
-605.561 -177.552 3011
-293.175 -126.604 2147
-288.041 -126.604 2147
-282.907 -126.604 2147
-277.772 -126.604 2147
-272.638 -126.604 2147
-267.504 -126.604 2147
-261.759 -126.309 2142
-256.877 -126.427 2144
-251.75 -126.427 2144
-246.623 -126.427 2144
-241.496 -126.427 2144
-237.361 -126.957 2153
-232.428 -127.075 2155
-227.591 -127.252 2158
-222.431 -127.252 2158
-217.27 -127.252 2158
-212.11 -127.252 2158
-207.237 -127.429 2161
-202.07 -127.429 2161
-196.902 -127.429 2161
-194.219 -129.08 2189
-190.538 -130.142 2207
-185.261 -130.142 2207
-179.983 -130.142 2207
-174.705 -130.142 2207
-169.428 -130.142 2207
-164.15 -130.142 2207
-158.657 -129.965 2204
-152.342 -129.08 2189
-147.108 -129.08 2189
-141.679 -128.903 2186
-136.139 -128.609 2181
-130.924 -128.609 2181
-125.535 -128.432 2178
-120.327 -128.432 2178
-114.643 -127.901 2169
-109.204 -127.606 2164
-104.029 -127.606 2164
-98.8546 -127.606 2164
-93.5499 -127.429 2161
-88.1369 -127.075 2155
-82.9837 -127.075 2155
-77.8304 -127.075 2155
-72.5085 -126.781 2150
-67.2732 -126.604 2147
-62.1391 -126.604 2147
-57.005 -126.604 2147
-51.7984 -126.427 2144
-46.6279 -126.309 2142
-41.5057 -126.309 2142
-36.3835 -126.309 2142
-31.2176 -126.132 2139
-26.1026 -126.132 2139
-20.9582 -125.955 2136
-15.8503 -125.955 2136
-10.7274 -125.778 2133
-5.62678 -125.778 2133
-0.526129 -125.778 2133
4.57452 -125.778 2133
9.67517 -125.778 2133
14.7758 -125.778 2133
19.8578 -125.66 2131
24.9186 -125.483 2128
30.0073 -125.483 2128
35.096 -125.483 2128
40.1846 -125.483 2128
45.2733 -125.483 2128
50.362 -125.483 2128
55.3726 -125.306 2125
60.3687 -125.129 2122
65.4431 -125.129 2122
70.5174 -125.129 2122
75.5918 -125.129 2122
80.6661 -125.129 2122
85.7405 -125.129 2122
90.9432 -125.306 2125
96.0247 -125.306 2125
101.249 -125.483 2128
106.488 -125.66 2131
111.583 -125.66 2131
116.953 -125.955 2136
122.061 -125.955 2136
127.169 -125.955 2136
132.462 -126.132 2139
137.77 -126.309 2142
142.892 -126.309 2142
148.015 -126.309 2142
153.28 -126.427 2144
158.628 -126.604 2147
163.763 -126.604 2147
169.133 -126.781 2150
174.517 -126.957 2153
179.832 -127.075 2155
184.986 -127.075 2155
190.404 -127.252 2158
195.836 -127.429 2161
201.562 -127.783 2167
206.744 -127.783 2167
211.926 -127.783 2167
217.308 -127.901 2169
222.802 -128.078 2172
227.996 -128.078 2172
233.19 -128.078 2172
238.384 -128.078 2172
243.914 -128.255 2175
249.116 -128.255 2175
254.667 -128.432 2178
261.546 -129.257 2192
267.883 -129.788 2201
273.147 -129.788 2201
279.548 -130.319 2210
287.797 -131.675 2233
293.925 -132.029 2239
299.279 -132.029 2239
305.449 -132.382 2245
312.064 -132.913 2254
318.862 -133.503 2264
324.276 -133.503 2264
330.127 -133.68 2267
335.548 -133.68 2267
340.969 -133.68 2267
345.932 -133.503 2264
350.88 -133.326 2261
356.287 -133.326 2261
362.653 -133.68 2267
368.075 -133.68 2267
373.496 -133.68 2267
378.917 -133.68 2267
384.338 -133.68 2267
389.759 -133.68 2267
509.101 -169.886 2881
515.99 -169.886 2881
522.88 -169.886 2881
529.769 -169.886 2881
536.658 -169.886 2881
543.548 -169.886 2881
550.437 -169.886 2881
557.326 -169.886 2881
564.216 -169.886 2881
569.123 -169.296 2871
575.988 -169.296 2871
581.838 -169.001 2866
588.692 -169.001 2866
594.714 -168.766 2862
601.558 -168.766 2862
607.339 -168.471 2857
614.171 -168.471 2857
621.003 -168.471 2857
627.835 -168.471 2857
634.667 -168.471 2857
641.499 -168.471 2857
648.331 -168.471 2857
655.163 -168.471 2857
660.836 -168.176 2852
667.656 -168.176 2852
674.476 -168.176 2852
680.102 -167.881 2847
686.91 -167.881 2847
693.718 -167.881 2847
700.526 -167.881 2847
707.334 -167.881 2847
714.142 -167.881 2847
719.684 -167.586 2842
726.48 -167.586 2842
733.276 -167.586 2842
740.072 -167.586 2842
745.554 -167.291 2837
753.664 -167.586 2842
760.46 -167.586 2842
767.256 -167.586 2842
774.052 -167.586 2842
779.475 -167.291 2837
786.259 -167.291 2837
793.043 -167.291 2837
798.418 -166.997 2832
805.19 -166.997 2832
811.962 -166.997 2832
818.734 -166.997 2832
825.506 -166.997 2832
832.278 -166.997 2832
839.051 -166.997 2832
845.823 -166.997 2832
851.391 -166.761 2828
858.153 -166.761 2828
864.916 -166.761 2828
871.679 -166.761 2828
878.441 -166.761 2828
885.204 -166.761 2828
891.966 -166.761 2828
897.14 -166.466 2823
900.689 -165.876 2813
909.028 -166.171 2818
917.392 -166.466 2823
924.143 -166.466 2823
930.893 -166.466 2823
937.644 -166.466 2823
946.067 -166.761 2828
952.83 -166.761 2828
959.592 -166.761 2828
966.355 -166.761 2828
1296.45 -219.124 3716
1305.34 -219.124 3716
1317.05 -219.596 3724
1325.96 -219.596 3724
1334.86 -219.596 3724
1340.88 -219.124 3716
1349.77 -219.124 3716
1358.65 -219.124 3716
1361.28 -218.121 3699
1367.17 -217.65 3691
1375.99 -217.65 3691
1378.82 -216.706 3675
1387.6 -216.706 3675
1393.35 -216.235 3667
1402.12 -216.235 3667
1407.43 -215.704 3658
1409.98 -214.76 3642
1412.85 -213.876 3627
1421.52 -213.876 3627
1423.88 -212.932 3611
1429.34 -212.461 3603
1425.59 -210.633 3572
1424.9 -209.276 3549
1433.38 -209.276 3549
1435.78 -208.392 3534
1429.11 -206.21 3497
1434.59 -205.797 3490
1442.94 -205.797 3490
1448.37 -205.384 3483
1450.43 -204.5 3468
1444 -202.436 3433
1452.21 -202.436 3433
1428.09 -197.955 3357
1421.57 -195.95 3323
1429.51 -195.95 3323
1431.84 -195.183 3310
1439.75 -195.183 3310
1444.61 -194.77 3303
1441.51 -193.296 3278
1446.25 -192.883 3271
1454.08 -192.883 3271
1459.22 -192.53 3265
1467.02 -192.53 3265
1483.41 -193.65 3284
1491.27 -193.65 3284
1499.12 -193.65 3284
1506.97 -193.65 3284
1514.83 -193.65 3284
1522.68 -193.65 3284
1518.42 -192.117 3258
1496.69 -159.154 2699
1508.16 -159.685 2708
1517.43 -159.979 2713
1523.92 -159.979 2713
1532.66 -160.215 2717
1549.36 -161.277 2735
1555.9 -161.277 2735
1562.44 -161.277 2735
1568.98 -161.277 2735
1575.52 -161.277 2735
1582.06 -161.277 2735
1583.37 -160.746 2726
1589.89 -160.746 2726
1596.41 -160.746 2726
1602.93 -160.746 2726
1609.44 -160.746 2726
1615.96 -160.746 2726
1622.48 -160.746 2726
1629 -160.746 2726
1635.52 -160.746 2726
1636.62 -160.215 2717
1643.11 -160.215 2717
1644.15 -159.685 2708
1650.62 -159.685 2708
1651.59 -159.154 2699
1653.13 -158.682 2691
1654.02 -158.151 2682
1660.43 -158.151 2682
1666.84 -158.151 2682
1673.26 -158.151 2682
1679.67 -158.151 2682
1686.08 -158.151 2682
1692.5 -158.151 2682
1698.91 -158.151 2682
1699.6 -157.621 2673
1703.44 -157.385 2669
1709.82 -157.385 2669
1707.84 -156.618 2656
1711.61 -156.382 2652
1712.77 -155.911 2644
1719.1 -155.911 2644
1725.42 -155.911 2644
1729.12 -155.675 2640
1729.52 -155.144 2631
1735.81 -155.144 2631
1742.1 -155.144 2631
1748.39 -155.144 2631
1752.02 -154.908 2627
1758.3 -154.908 2627
1764.58 -154.908 2627
1770.86 -154.908 2627
1769.03 -154.201 2615
1775.28 -154.201 2615
1781.53 -154.201 2615
1785.05 -153.965 2611
1791.3 -153.965 2611
1800.29 -154.201 2615
1806.55 -154.201 2615
1812.8 -154.201 2615
1821.84 -154.436 2619
1828.1 -154.436 2619
1834.36 -154.436 2619
1840.62 -154.436 2619
1846.89 -154.436 2619
1853.15 -154.436 2619
1859.41 -154.436 2619
1865.68 -154.436 2619
1869.08 -154.201 2615
1869.6 -153.729 2607
1872.95 -153.493 2603
1879.18 -153.493 2603
1878.88 -152.962 2594
1885.08 -152.962 2594
1891.29 -152.962 2594
1897.49 -152.962 2594
1900.76 -152.726 2590
1904.01 -152.49 2586
1910.19 -152.49 2586
1916.37 -152.49 2586
1916.61 -152.019 2578
1919.79 -151.783 2574
1923.7 -151.606 2571
1929.85 -151.606 2571
1936 -151.606 2571
1939.12 -151.37 2567
1942.23 -151.134 2563
1948.36 -151.134 2563
1957.54 -151.37 2567
1963.68 -151.37 2567
-1998.35 -150.991 2669
-1991.96 -150.991 2669
-1988.56 -151.217 2673
-1982.16 -151.217 2673
-1975.77 -151.217 2673
-1950.96 -149.803 2648
-1944.63 -149.803 2648
-1917.07 -148.163 2619
-1899.13 -147.257 2603
-2406.03 -192.232 3398
-2397.9 -192.232 3398
-2389.78 -192.232 3398
-2366.93 -191.044 3377
-2368.64 -191.836 3391
-2360.53 -191.836 3391
-2366.99 -193.024 3412
-2358.83 -193.024 3412
-2350.67 -193.024 3412
-2337.71 -192.628 3405
-2300.83 -190.252 3363
-2292.79 -190.252 3363
-2284.74 -190.252 3363
-2272.64 -189.913 3357
-2273.38 -190.648 3370
-2284.15 -192.232 3398
-2276.02 -192.232 3398
-2267.89 -192.232 3398
-2259.77 -192.232 3398
-2242.37 -191.44 3384
-2238.9 -191.836 3391
-2230.79 -191.836 3391
-2222.68 -191.836 3391
-2237.43 -193.816 3426
-2242.9 -195.004 3447
-2234.66 -195.004 3447
-2235.45 -195.796 3461
-2227.18 -195.796 3461
-2218.9 -195.796 3461
-2206.15 -195.4 3454
-2216.35 -197.041 3483
-2221.97 -198.286 3505
-2213.59 -198.286 3505
-2205.2 -198.286 3505
-2196.82 -198.286 3505
-2183.45 -197.833 3497
-2175.08 -197.833 3497
-2144.42 -195.796 3461
-2136.14 -195.796 3461
-2110.65 -194.212 3433
-2128.77 -196.645 3476
-2120.46 -196.645 3476
-2138.88 -199.134 3520
-2185.54 -204.282 3611
-2176.91 -204.282 3611
-2168.27 -204.282 3611
-2159.64 -204.282 3611
-2155.77 -204.735 3619
-2147.12 -204.735 3619
-2138.46 -204.735 3619
-2134.52 -205.187 3627
-2125.84 -205.187 3627
-2121.84 -205.64 3635
-2113.15 -205.64 3635
-2117.77 -206.941 3658
-2109.02 -206.941 3658
-2110.04 -207.903 3675
-2101.25 -207.903 3675
-2115.8 -210.222 3716
-2135.27 -213.051 3766
-2130.78 -213.503 3774
-2121.75 -213.503 3774
-2117.77 -214.013 3783
-2108.72 -214.013 3783
-2099.67 -214.013 3783
-2090.63 -214.013 3783
-2067.28 -212.542 3757
-2053.91 -212.089 3749
-2054.22 -213.051 3766
-2045.21 -213.051 3766
-2036.21 -213.051 3766
-2022.35 -212.542 3757
-2013.37 -212.542 3757
-2004.39 -212.542 3757
-2004.43 -213.503 3774
-2000.17 -214.013 3783
-1991.12 -214.013 3783
-1982.07 -214.013 3783
-1977.72 -214.522 3792
-1990.98 -216.954 3835
-1981.81 -216.954 3835
-1972.64 -216.954 3835
-1941.45 -214.522 3792
-1910.47 -212.089 3749
-1901.5 -212.089 3749
-1879.92 -210.675 3724
-1858.45 -209.261 3699
-1845.61 -208.808 3691
-1836.78 -208.808 3691
-1827.95 -208.808 3691
-1823.07 -209.261 3699
-1818.15 -209.713 3707
-1813.68 -210.222 3716
-1804.79 -210.222 3716
-1795.91 -210.222 3716
-1778.84 -209.261 3699
-1770 -209.261 3699
-1757.34 -208.808 3691
-1748.52 -208.808 3691
-1747.23 -209.713 3707
-1738.37 -209.713 3707
-1729.5 -209.713 3707
-1716.93 -209.261 3699
-1697 -207.903 3675
-1688.21 -207.903 3675
-1686.73 -208.808 3691
-1677.91 -208.808 3691
-1684 -210.675 3724
-1682.3 -211.58 3740
-1673.35 -211.58 3740
-1664.41 -211.58 3740
-1655.47 -211.58 3740
-1646.52 -211.58 3740
-1637.58 -211.58 3740
-1628.63 -211.58 3740
-1246.18 -171.301 3028
-1238.93 -171.301 3028
-1231.69 -171.301 3028
-1224.45 -171.301 3028
-1212.79 -170.678 3017
-1167.61 -165.304 2922
-1150.3 -163.833 2896
-1143.37 -163.833 2896
-1134.49 -163.55 2891
-1125.62 -163.267 2886
-1112.91 -162.419 2871
-1115.67 -163.833 2896
-1108.75 -163.833 2896
-1105.63 -164.399 2906
-1100.57 -164.682 2911
-1093.61 -164.682 2911
-1086.65 -164.682 2911
-1083.77 -165.304 2922
-1076.78 -165.304 2922
-1069.79 -165.304 2922
-1058.8 -164.682 2911
-1051.84 -164.682 2911
-1043.09 -164.399 2906
-1036.14 -164.399 2906
-1027.42 -164.116 2901
-1016.96 -163.55 2891
-1010.05 -163.55 2891
-1003.14 -163.55 2891
-996.222 -163.55 2891
-989.309 -163.55 2891
-978.997 -162.984 2881
-972.108 -162.984 2881
-965.219 -162.984 2881
-958.329 -162.984 2881
-951.44 -162.984 2881
-944.551 -162.984 2881
-936.034 -162.702 2876
-927.541 -162.419 2871
-919.073 -162.136 2866
-912.219 -162.136 2866
-905.366 -162.136 2866
-898.512 -162.136 2866
-891.659 -162.136 2866
-886.349 -162.419 2871
-879.483 -162.419 2871
-872.618 -162.419 2871
-865.753 -162.419 2871
-858.887 -162.419 2871
-852.022 -162.419 2871
-843.684 -162.136 2866
-836.831 -162.136 2866
-828.819 -161.91 2862
-821.975 -161.91 2862
-815.131 -161.91 2862
-808.287 -161.91 2862
-801.443 -161.91 2862
-794.599 -161.91 2862
-787.756 -161.91 2862
-780.912 -161.91 2862
-774.068 -161.91 2862
-767.224 -161.91 2862
-759.052 -161.627 2857
-750.903 -161.344 2852
-744.083 -161.344 2852
-737.263 -161.344 2852
-730.443 -161.344 2852
-723.623 -161.344 2852
-715.546 -161.061 2847
-708.738 -161.061 2847
-701.93 -161.061 2847
-695.122 -161.061 2847
-688.314 -161.061 2847
-681.506 -161.061 2847
-674.698 -161.061 2847
-667.89 -161.061 2847
-658.76 -160.495 2837
-651.976 -160.495 2837
-644.055 -160.212 2832
-636.382 -159.986 2828
-629.62 -159.986 2828
-624.839 -160.495 2837
-623.502 -161.91 2862
-616.658 -161.91 2862
-613.862 -162.984 2881
-618.771 -166.153 2937
-611.748 -166.153 2937
-619.961 -170.339 3011
-618.459 -171.923 3039
-611.192 -171.923 3039
-603.925 -171.923 3039
-296.781 -120.838 2136
-292.082 -121.008 2139
-288.041 -121.46 2147
-282.907 -121.46 2147
-277.772 -121.46 2147
-272.638 -121.46 2147
-267.504 -121.46 2147
-261.759 -121.178 2142
-256.877 -121.291 2144
-251.75 -121.291 2144
-246.623 -121.291 2144
-241.496 -121.291 2144
-237.361 -121.8 2153
-232.428 -121.913 2155
-227.591 -122.083 2158
-222.431 -122.083 2158
-217.27 -122.083 2158
-212.11 -122.083 2158
-207.237 -122.252 2161
-202.07 -122.252 2161
-196.902 -122.252 2161
-195.017 -124.346 2198
-190.538 -124.855 2207
-185.261 -124.855 2207
-179.983 -124.855 2207
-174.705 -124.855 2207
-169.428 -124.855 2207
-164.15 -124.855 2207
-158.657 -124.685 2204
-152.342 -123.837 2189
-147.108 -123.837 2189
-141.679 -123.667 2186
-136.139 -123.384 2181
-130.744 -123.214 2178
-125.535 -123.214 2178
-120.327 -123.214 2178
-114.537 -122.592 2167
-109.204 -122.422 2164
-103.885 -122.252 2161
-98.7176 -122.252 2161
-93.4201 -122.083 2158
-88.1369 -121.913 2155
-82.9067 -121.8 2153
-77.7582 -121.8 2153
-72.5085 -121.63 2150
-67.2732 -121.46 2147
-62.0523 -121.291 2144
-56.9253 -121.291 2144
-51.7501 -121.178 2142
-46.6279 -121.178 2142
-41.5057 -121.178 2142
-36.3835 -121.178 2142
-31.2614 -121.178 2142
-26.1026 -121.008 2139
-20.9582 -120.838 2136
-15.8503 -120.838 2136
-10.7274 -120.668 2133
-5.62678 -120.668 2133
-0.526129 -120.668 2133
4.57452 -120.668 2133
9.67517 -120.668 2133
14.7758 -120.668 2133
19.8578 -120.555 2131
24.9186 -120.386 2128
30.0073 -120.386 2128
35.096 -120.386 2128
40.1846 -120.386 2128
45.2733 -120.386 2128
50.362 -120.386 2128
55.3726 -120.216 2125
60.4541 -120.216 2125
65.4431 -120.046 2122
70.5174 -120.046 2122
75.5918 -120.046 2122
80.6661 -120.046 2122
85.7405 -120.046 2122
90.9432 -120.216 2125
96.0247 -120.216 2125
101.249 -120.386 2128
106.488 -120.555 2131
111.583 -120.555 2131
116.789 -120.668 2133
121.889 -120.668 2133
127.169 -120.838 2136
132.462 -121.008 2139
137.77 -121.178 2142
142.892 -121.178 2142
148.015 -121.178 2142
153.28 -121.291 2144
158.628 -121.46 2147
163.763 -121.46 2147
169.133 -121.63 2150
174.274 -121.63 2150
179.832 -121.913 2155
184.986 -121.913 2155
190.139 -121.913 2155
195.836 -122.252 2161
201.562 -122.592 2167
206.744 -122.592 2167
212.121 -122.705 2169
217.308 -122.705 2169
222.802 -122.875 2172
227.996 -122.875 2172
233.19 -122.875 2172
238.384 -122.875 2172
243.914 -123.045 2175
249.116 -123.045 2175
254.317 -123.045 2175
261.188 -123.837 2189
267.518 -124.346 2198
272.774 -124.346 2198
278.789 -124.685 2204
286.637 -125.817 2224
293.531 -126.495 2236
298.878 -126.495 2236
305.449 -127.005 2245
312.064 -127.514 2254
318.862 -128.079 2264
324.276 -128.079 2264
329.69 -128.079 2264
335.104 -128.079 2264
340.518 -128.079 2264
345.932 -128.079 2264
350.88 -127.91 2261
357.232 -128.249 2267
363.133 -128.419 2270
368.562 -128.419 2270
373.99 -128.419 2270
378.917 -128.249 2267
383.829 -128.079 2264
389.243 -128.079 2264
509.101 -162.984 2881
515.99 -162.984 2881
524.694 -163.55 2891
531.608 -163.55 2891
538.521 -163.55 2891
544.491 -163.267 2886
551.392 -163.267 2886
557.326 -162.984 2881
564.216 -162.984 2881
571.105 -162.984 2881
575.988 -162.419 2871
582.854 -162.419 2871
589.719 -162.419 2871
595.545 -162.136 2866
602.399 -162.136 2866
608.402 -161.91 2862
615.246 -161.91 2862
622.09 -161.91 2862
628.934 -161.91 2862
635.778 -161.91 2862
641.499 -161.627 2857
648.331 -161.627 2857
655.163 -161.627 2857
661.995 -161.627 2857
667.656 -161.344 2852
674.476 -161.344 2852
681.296 -161.344 2852
688.116 -161.344 2852
694.936 -161.344 2852
701.756 -161.344 2852
708.576 -161.344 2852
714.142 -161.061 2847
720.95 -161.061 2847
727.758 -161.061 2847
734.566 -161.061 2847
740.072 -160.778 2842
746.868 -160.778 2842
753.664 -160.778 2842
760.46 -160.778 2842
767.256 -160.778 2842
775.414 -161.061 2847
782.222 -161.061 2847
789.03 -161.061 2847
794.441 -160.778 2842
801.237 -160.778 2842
806.611 -160.495 2837
813.395 -160.495 2837
820.18 -160.495 2837
826.964 -160.495 2837
833.748 -160.495 2837
840.532 -160.495 2837
847.316 -160.495 2837
854.1 -160.495 2837
860.884 -160.495 2837
867.668 -160.495 2837
874.453 -160.495 2837
879.684 -160.212 2832
885.204 -159.986 2828
891.966 -159.986 2828
897.14 -159.703 2823
902.29 -159.42 2818
910.641 -159.703 2823
917.392 -159.703 2823
924.143 -159.703 2823
930.893 -159.703 2823
937.644 -159.703 2823
946.067 -159.986 2828
952.83 -159.986 2828
959.592 -159.986 2828
966.355 -159.986 2828
1310.76 -212.542 3757
1319.74 -212.542 3757
1328.72 -212.542 3757
1334.86 -212.089 3749
1343.82 -212.089 3749
1343.77 -210.675 3724
1352.67 -210.675 3724
1358.65 -210.222 3716
1361.28 -209.261 3699
1370.13 -209.261 3699
1378.97 -209.261 3699
1378.82 -207.903 3675
1387.6 -207.903 3675
1393.35 -207.45 3667
1402.12 -207.45 3667
1407.43 -206.941 3658
1413.08 -206.488 3650
1412.85 -205.187 3627
1421.52 -205.187 3627
1423.88 -204.282 3611
1429.34 -203.83 3603
1425.59 -202.076 3572
1424.9 -200.775 3549
1433.38 -200.775 3549
1432.93 -199.53 3527
1429.11 -197.833 3497
1431.71 -197.041 3483
1440.04 -197.041 3483
1445.46 -196.645 3476
1447.5 -195.796 3461
1441.05 -193.816 3426
1449.25 -193.816 3426
1430.64 -190.252 3363
1433.12 -189.517 3350
1429.51 -187.989 3323
1437.46 -187.989 3323
1445.41 -187.989 3323
1447.67 -187.254 3310
1452.5 -186.858 3303
1449.35 -185.444 3278
1457.19 -185.444 3278
1465.03 -185.444 3278
1467.02 -184.708 3265
1486.12 -186.122 3290
1493.99 -186.122 3290
1501.86 -186.122 3290
1498.25 -184.708 3265
1506.06 -184.708 3265
1513.87 -184.708 3265
1518.42 -184.312 3258
1526.21 -184.312 3258
1496.69 -152.688 2699
1508.16 -153.197 2708
1519.67 -153.707 2717
1526.16 -153.707 2717
1534.92 -153.933 2721
1546.52 -154.442 2730
1558.17 -154.951 2739
1564.72 -154.951 2739
1571.27 -154.951 2739
1577.82 -154.951 2739
1584.37 -154.951 2739
1585.69 -154.442 2730
1592.22 -154.442 2730
1596.41 -154.216 2726
1602.93 -154.216 2726
1611.81 -154.442 2730
1618.33 -154.442 2730
1624.86 -154.442 2730
1626.01 -153.933 2721
1632.52 -153.933 2721
1639.03 -153.933 2721
1640.69 -153.48 2713
1644.15 -153.197 2708
1650.62 -153.197 2708
1654.65 -152.971 2704
1655.59 -152.462 2695
1654.02 -151.727 2682
1662.9 -151.953 2686
1669.33 -151.953 2686
1675.75 -151.953 2686
1682.17 -151.953 2686
1688.6 -151.953 2686
1695.02 -151.953 2686
1698.91 -151.727 2682
1699.6 -151.217 2673
1703.44 -150.991 2669
1709.82 -150.991 2669
1711.06 -150.539 2661
1711.61 -150.029 2652
1715.37 -149.803 2648
1721.7 -149.803 2648
1725.42 -149.577 2644
1729.12 -149.351 2640
1732.15 -149.068 2635
1738.45 -149.068 2635
1744.75 -149.068 2635
1748.39 -148.841 2631
1754.68 -148.841 2631
1758.3 -148.615 2627
1764.58 -148.615 2627
1770.86 -148.615 2627
1769.03 -147.936 2615
1775.28 -147.936 2615
1781.53 -147.936 2615
1787.79 -147.936 2615
1794.04 -147.936 2615
1800.29 -147.936 2615
1806.55 -147.936 2615
1812.8 -147.936 2615
1821.84 -148.163 2619
1828.1 -148.163 2619
1834.36 -148.163 2619
1843.44 -148.389 2623
1849.71 -148.389 2623
1855.98 -148.389 2623
1859.41 -148.163 2619
1865.68 -148.163 2619
1871.94 -148.163 2619
1869.6 -147.484 2607
1872.95 -147.257 2603
1879.18 -147.257 2603
1882.5 -147.031 2599
1885.08 -146.748 2594
1891.29 -146.748 2594
1897.49 -146.748 2594
1903.69 -146.748 2594
1904.01 -146.296 2586
1910.19 -146.296 2586
1916.37 -146.296 2586
1919.58 -146.069 2582
1922.78 -145.843 2578
1928.94 -145.843 2578
1929.85 -145.447 2571
1936 -145.447 2571
1942.15 -145.447 2571
1945.26 -145.221 2567
1951.4 -145.221 2567
1957.54 -145.221 2567
1963.68 -145.221 2567
-1998.35 -144.598 2669
-1991.96 -144.598 2669
-1988.56 -144.814 2673
-1982.16 -144.814 2673
-1975.77 -144.814 2673
-1960.54 -144.164 2661
-1954.18 -144.164 2661
-1920 -142.105 2623
-1910.81 -141.889 2619
-1886.36 -140.534 2594
-1880.16 -140.534 2594
-2450.64 -187.505 3461
-2442.36 -187.505 3461
-2434.09 -187.505 3461
-2366.93 -182.955 3377
-2383.31 -184.851 3412
-2375.15 -184.851 3412
-2376.7 -185.609 3426
-2368.51 -185.609 3426
-2360.32 -185.609 3426
-2347.32 -185.23 3419
-2319.98 -183.713 3391
-2292.79 -182.196 3363
-2284.74 -182.196 3363
-2272.64 -181.871 3357
-2273.38 -182.575 3370
-2284.15 -184.092 3398
-2276.02 -184.092 3398
-2267.89 -184.092 3398
-2259.77 -184.092 3398
-2242.37 -183.334 3384
-2238.9 -183.713 3391
-2230.79 -183.713 3391
-2222.68 -183.713 3391
-2223.71 -184.472 3405
-2233.79 -185.989 3433
-2225.58 -185.989 3433
-2226.41 -186.747 3447
-2218.17 -186.747 3447
-2209.93 -186.747 3447
-2192.74 -185.989 3433
-2197.9 -187.126 3454
-2208.02 -188.697 3483
-2199.69 -188.697 3483
-2191.36 -188.697 3483
-2183.03 -188.697 3483
-2174.7 -188.697 3483
-2166.38 -188.697 3483
-2144.42 -187.505 3461
-2136.14 -187.505 3461
-2110.65 -185.989 3433
-2128.77 -188.318 3476
-2120.46 -188.318 3476
-2138.88 -190.702 3520
-2134.7 -191.081 3527
-2126.27 -191.081 3527
-2117.84 -191.081 3527
-2109.4 -191.081 3527
-2083.1 -189.456 3497
-2083.63 -190.268 3512
-2075.24 -190.268 3512
-2111.56 -194.386 3588
-2107.09 -194.765 3595
-2112.5 -196.065 3619
-2103.85 -196.065 3619
-2104.45 -196.932 3635
-2099.8 -197.311 3642
-2095.68 -197.745 3650
-2086.95 -197.745 3650
-2092.46 -199.099 3675
-2135.27 -204.029 3766
-2130.78 -204.463 3774
-2121.75 -204.463 3774
-2112.73 -204.463 3774
-2099.24 -204.029 3766
-2090.24 -204.029 3766
-2076.26 -203.542 3757
-2053.52 -202.187 3732
-2035.83 -201.321 3716
-2044.94 -203.108 3749
-2035.98 -203.108 3749
-2027.01 -203.108 3749
-2018.05 -203.108 3749
-2009.08 -203.108 3749
-1995.32 -202.621 3740
-2004.43 -204.463 3774
-1995.41 -204.463 3774
-1986.38 -204.463 3774
-1964.26 -203.108 3749
-1964.16 -204.029 3766
-1968.65 -205.438 3792
-1959.58 -205.438 3792
-1950.52 -205.438 3792
-1941.45 -205.438 3792
-1905.88 -202.621 3740
-1896.94 -202.621 3740
-1871.34 -200.833 3707
-1854.43 -199.966 3691
-1845.61 -199.966 3691
-1840.76 -200.4 3699
-1831.92 -200.4 3699
-1827.01 -200.833 3707
-1818.15 -200.833 3707
-1817.58 -201.754 3724
-1808.68 -201.754 3724
-1799.77 -201.754 3724
-1775 -199.966 3691
-1766.17 -199.966 3691
-1761.15 -200.4 3699
-1752.31 -200.4 3699
-1751.47 -201.321 3716
-1742.59 -201.321 3716
-1733.7 -201.321 3716
-1716.93 -200.4 3699
-1700.69 -199.533 3683
-1691.89 -199.533 3683
-1686.73 -199.966 3691
-1677.91 -199.966 3691
-1680.39 -201.321 3716
-1678.7 -202.187 3732
-1673.35 -202.621 3740
-1664.41 -202.621 3740
-1655.47 -202.621 3740
-1646.52 -202.621 3740
-1637.58 -202.621 3740
-1628.63 -202.621 3740
-1255.23 -165.239 3050
-1247.94 -165.239 3050
-1240.64 -165.239 3050
-1224.45 -164.047 3028
-1210.38 -163.126 3011
-1165.62 -158.033 2917
-1154.27 -157.437 2906
-1147.32 -157.437 2906
-1136.45 -156.896 2896
-1127.57 -156.625 2891
-1118.72 -156.354 2886
-1117.6 -157.167 2901
-1110.66 -157.167 2901
-1107.53 -157.708 2911
-1100.57 -157.708 2911
-1093.61 -157.708 2911
-1086.65 -157.708 2911
-1083.77 -158.304 2922
-1076.78 -158.304 2922
-1069.79 -158.304 2922
-1060.98 -158.033 2917
-1054.01 -158.033 2917
-1047.03 -158.033 2917
-1040.06 -158.033 2917
-1029.19 -157.437 2906
-1018.72 -156.896 2896
-1010.05 -156.625 2891
-1003.14 -156.625 2891
-996.222 -156.625 2891
-989.309 -156.625 2891
-982.396 -156.625 2891
-975.482 -156.625 2891
-968.569 -156.625 2891
-959.993 -156.354 2886
-953.091 -156.354 2886
-946.19 -156.354 2886
-936.034 -155.812 2876
-929.157 -155.812 2876
-920.676 -155.541 2871
-913.81 -155.541 2871
-906.945 -155.541 2871
-900.08 -155.541 2871
-893.214 -155.541 2871
-886.349 -155.541 2871
-879.483 -155.541 2871
-872.618 -155.541 2871
-865.753 -155.541 2871
-858.887 -155.541 2871
-852.022 -155.541 2871
-845.156 -155.541 2871
-836.831 -155.27 2866
-828.819 -155.054 2862
-821.975 -155.054 2862
-815.131 -155.054 2862
-808.287 -155.054 2862
-801.443 -155.054 2862
-794.599 -155.054 2862
-787.756 -155.054 2862
-780.912 -155.054 2862
-774.068 -155.054 2862
-767.224 -155.054 2862
-759.052 -154.783 2857
-752.22 -154.783 2857
-745.388 -154.783 2857
-738.556 -154.783 2857
-731.724 -154.783 2857
-724.892 -154.783 2857
-716.803 -154.512 2852
-709.983 -154.512 2852
-703.163 -154.512 2852
-696.343 -154.512 2852
-689.523 -154.512 2852
-682.703 -154.512 2852
-675.883 -154.512 2852
-667.89 -154.241 2847
-661.082 -154.241 2847
-654.274 -154.241 2847
-645.192 -153.699 2837
-637.283 -153.428 2832
-631.624 -153.699 2837
-625.941 -153.97 2842
-624.373 -155.27 2866
-617.52 -155.27 2866
-613.862 -156.083 2881
-611.187 -157.167 2901
-604.249 -157.167 2901
-618.932 -162.855 3006
-618.459 -164.643 3039
-611.192 -164.643 3039
-603.925 -164.643 3039
-296.781 -115.721 2136
-291.673 -115.721 2136
-287.638 -116.155 2144
-282.511 -116.155 2144
-277.384 -116.155 2144
-272.257 -116.155 2144
-267.13 -116.155 2144
-261.392 -115.884 2139
-256.877 -116.155 2144
-251.75 -116.155 2144
-246.623 -116.155 2144
-241.496 -116.155 2144
-237.03 -116.48 2150
-232.428 -116.751 2155
-227.275 -116.751 2155
-222.122 -116.751 2155
-217.27 -116.913 2158
-212.11 -116.913 2158
-206.95 -116.913 2158
-201.789 -116.913 2158
-197.449 -117.401 2167
-195.283 -119.243 2201
-190.538 -119.568 2207
-185.261 -119.568 2207
-179.983 -119.568 2207
-174.705 -119.568 2207
-169.428 -119.568 2207
-164.15 -119.568 2207
-158.441 -119.243 2201
-152.342 -118.593 2189
-147.108 -118.593 2189
-141.549 -118.322 2184
-135.952 -117.997 2178
-130.744 -117.997 2178
-125.363 -117.834 2175
-120.161 -117.834 2175
-114.379 -117.238 2164
-109.053 -117.076 2161
-103.741 -116.913 2158
-98.5805 -116.913 2158
-93.4201 -116.913 2158
-88.1369 -116.751 2155
-82.9067 -116.642 2153
-77.7582 -116.642 2153
-72.5085 -116.48 2150
-67.2732 -116.317 2147
-62.0523 -116.155 2144
-56.9253 -116.155 2144
-51.7501 -116.046 2142
-46.6279 -116.046 2142
-41.5057 -116.046 2142
-36.3835 -116.046 2142
-31.2614 -116.046 2142
-26.1026 -115.884 2139
-20.9582 -115.721 2136
-15.8503 -115.721 2136
-10.7274 -115.559 2133
-5.62678 -115.559 2133
-0.526129 -115.559 2133
4.57452 -115.559 2133
9.67517 -115.559 2133
14.7758 -115.559 2133
19.8578 -115.45 2131
24.9537 -115.45 2131
30.0496 -115.45 2131
35.096 -115.288 2128
40.1846 -115.288 2128
45.2733 -115.288 2128
50.362 -115.288 2128
55.3726 -115.125 2125
60.4541 -115.125 2125
65.4431 -114.963 2122
70.5174 -114.963 2122
75.5918 -114.963 2122
80.6661 -114.963 2122
85.7405 -114.963 2122
90.8148 -114.963 2122
95.8891 -114.963 2122
101.106 -115.125 2125
106.338 -115.288 2128
111.583 -115.45 2131
116.789 -115.559 2133
121.889 -115.559 2133
126.99 -115.559 2133
132.462 -115.884 2139
137.577 -115.884 2139
142.692 -115.884 2139
148.015 -116.046 2142
153.137 -116.046 2142
158.628 -116.317 2147
163.763 -116.317 2147
169.133 -116.48 2150
174.274 -116.48 2150
179.666 -116.642 2153
184.814 -116.642 2153
190.139 -116.751 2155
195.836 -117.076 2161
201.562 -117.401 2167
206.744 -117.401 2167
212.121 -117.509 2169
217.308 -117.509 2169
222.495 -117.509 2169
227.681 -117.509 2169
232.868 -117.509 2169
238.055 -117.509 2169
243.578 -117.672 2172
248.772 -117.672 2172
254.317 -117.834 2175
260.83 -118.43 2186
267.153 -118.918 2195
272.402 -118.918 2195
278.41 -119.243 2201
286.251 -120.326 2221
292.349 -120.651 2227
297.675 -120.651 2227
304.633 -121.302 2239
311.233 -121.789 2248
317.454 -122.114 2254
322.844 -122.114 2254
329.69 -122.656 2264
335.104 -122.656 2264
340.518 -122.656 2264
345.473 -122.493 2261
350.88 -122.493 2261
357.705 -122.981 2270
363.133 -122.981 2270
368.562 -122.981 2270
373.99 -122.981 2270
378.917 -122.819 2267
382.642 -122.277 2257
388.04 -122.277 2257
509.101 -156.083 2881
515.99 -156.083 2881
524.694 -156.625 2891
531.608 -156.625 2891
538.521 -156.625 2891
545.434 -156.625 2891
552.347 -156.625 2891
558.294 -156.354 2886
565.195 -156.354 2886
571.105 -156.083 2881
575.988 -155.541 2871
582.854 -155.541 2871
589.719 -155.541 2871
595.545 -155.27 2866
