142.851 438.318 2221
149.163 441.279 2236
154.925 442.463 2242
160.715 443.647 2248
166.091 443.647 2248
171.466 443.647 2248
177.865 446.212 2261
183.758 447.396 2267
189.179 447.396 2267
194.6 447.396 2267
200.021 447.396 2267
206.258 449.173 2276
211.7 449.173 2276
217.429 449.765 2279
222.879 449.765 2279
228.329 449.765 2279
233.778 449.765 2279
239.228 449.765 2279
244.678 449.765 2279
249.469 448.581 2273
254.905 448.581 2273
258.164 444.831 2254
262.151 442.463 2242
897.486 741.451 3757
906.47 741.451 3757
915.454 741.451 3757
906.838 720.334 3650
919.831 723.689 3667
928.6 723.689 3667
937.369 723.689 3667
939.687 718.755 3642
946.574 717.374 3635
955.266 717.374 3635
963.958 717.374 3635
968.369 714.216 3619
977.024 714.216 3619
985.678 714.216 3619
992.134 712.637 3611
994.394 708.098 3588
1000.74 706.519 3580
1009.3 706.519 3580
1015.59 704.94 3572
1024.13 704.94 3572
1030.65 703.559 3565
1039.17 703.559 3565
1045.34 701.98 3557
1049.41 699.02 3542
1057.88 699.02 3542
1063.94 697.441 3534
1072.39 697.441 3534
1080.84 697.441 3534
1082.51 693.099 3512
1090.91 693.099 3512
1099.31 693.099 3512
1107.7 693.099 3512
1116.1 693.099 3512
1124.5 693.099 3512
1132.9 693.099 3512
1136.42 690.139 3497
1144.78 690.139 3497
1153.15 690.139 3497
1161.51 690.139 3497
1174.89 693.099 3512
1183.29 693.099 3512
1191.69 693.099 3512
1200.08 693.099 3512
1208.48 693.099 3512
1216.88 693.099 3512
1225.28 693.099 3512
1236.49 694.678 3520
1249.86 697.441 3534
1258.31 697.441 3534
1272.13 700.401 3549
1291.81 706.519 3580
1303.27 708.098 3588
1311.85 708.098 3588
1325.95 711.058 3603
1343.46 715.795 3627
1360.71 720.334 3650
1369.44 720.334 3650
1384.58 723.689 3667
1396.39 725.268 3675
1405.18 725.268 3675
1413.97 725.268 3675
1419.66 723.689 3667
1415.96 717.374 3635
1424.65 717.374 3635
1420.73 711.058 3603
1423.39 708.098 3588
1422.79 703.559 3565
1418.87 697.441 3534
1427.32 697.441 3534
1423.99 691.718 3505
1414.39 683.034 3461
1411.16 677.509 3433
1419.37 677.509 3433
1401.38 665.075 3370
1395.64 658.563 3337
1395.21 654.616 3317
1403.14 654.616 3317
1397.03 648.103 3284
1396.76 644.353 3265
1398.97 641.788 3252
1401.12 639.222 3239
1408.87 639.222 3239
1413.99 638.038 3233
1419.08 636.854 3227
1426.8 636.854 3227
1434.52 636.854 3227
1442.23 636.854 3227
1452.65 638.038 3233
1460.38 638.038 3233
1468.11 638.038 3233
1475.84 638.038 3233
1483.57 638.038 3233
1491.3 638.038 3233
1499.03 638.038 3233
1506.76 638.038 3233
1514.49 638.038 3233
1519.4 636.854 3227
1524.28 635.67 3221
1531.98 635.67 3221
1533.47 633.104 3208
1532.49 629.552 3190
1537.22 628.368 3184
1544.84 628.368 3184
1537.82 622.447 3154
1536.55 618.895 3136
1538.14 616.527 3124
1545.61 616.527 3124
1535.68 609.62 3089
1523.58 601.923 3050
1495.24 587.911 2979
1486.23 581.596 2947
1493.27 581.596 2947
1485.05 575.675 2917
1481.28 571.531 2896
1480.5 568.57 2881
1487.39 568.57 2881
1486.5 565.61 2866
1483.45 561.86 2847
1487.64 560.874 2842
1491.81 559.887 2837
1498.59 559.887 2837
1502.72 558.9 2832
1507.36 558.111 2828
1514.13 558.111 2828
1520.89 558.111 2828
1524.95 557.124 2823
1526.28 555.15 2813
1530.82 554.361 2809
1537.54 554.361 2809
1538.76 552.388 2799
1542.69 551.401 2794
1547.15 550.611 2790
1553.83 550.611 2790
1554.9 548.638 2780
1556.5 546.862 2771
1558.05 545.086 2762
1569.75 546.862 2771
1579.22 547.848 2776
1585.86 547.848 2776
1600.53 550.611 2790
1607.2 550.611 2790
1613.87 550.611 2790
1620.54 550.611 2790
1627.22 550.611 2790
1630.96 549.625 2785
1637.62 549.625 2785
2014.12 667.838 3384
2022.21 667.838 3384
2093.9 688.758 3490
2102.24 688.758 3490
2110.59 688.758 3490
2114.68 687.376 3483
2118.75 685.995 3476
2117.88 683.034 3461
2126.16 683.034 3461
2108.53 674.746 3419
2099.37 669.22 3391
1807.47 558.9 2832
1814.24 558.9 2832
1827.45 560.874 2842
1834.24 560.874 2842
1841.04 560.874 2842
1847.83 560.874 2842
1854.63 560.874 2842
1858.15 559.887 2837
1864.94 559.887 2837
1871.72 559.887 2837
1865.92 556.137 2818
1879.31 558.111 2828
1886.07 558.111 2828
1898.86 559.887 2837
1905.64 559.887 2837
1915.79 560.874 2842
1922.59 560.874 2842
1929.39 560.874 2842
1932.78 559.887 2837
1936.14 558.9 2832
1936.74 557.124 2823
1943.49 557.124 2823
1950.24 557.124 2823
1950.06 555.15 2813
1950.53 553.374 2804
1934.2 546.862 2771
1940.82 546.862 2771
1947.45 546.862 2771
1967.47 550.611 2790
1974.15 550.611 2790
1990.76 553.374 2804
1997.46 553.374 2804
2004.17 553.374 2804
2010.87 553.374 2804
2017.58 553.374 2804
2014.18 550.611 2790
2030.99 553.374 2804
2051.5 557.124 2823
2064.81 558.9 2832
2078.9 560.874 2842
2085.7 560.874 2842
2092.49 560.874 2842
2102.98 561.86 2847
2109.79 561.86 2847
2116.6 561.86 2847
2152.49 569.557 2886
2159.4 569.557 2886
2302.16 605.278 3067
2309.49 605.278 3067
2347.04 613.172 3107
2390.09 622.447 3154
2397.63 622.447 3154
2405.17 622.447 3154
-2401.91 640.789 3208
-2394.24 640.789 3208
-2386.57 640.789 3208
-2397.43 645.783 3233
-2389.7 645.783 3233
-2381.97 645.783 3233
-2374.24 645.783 3233
-2343.82 639.591 3202
-2327.41 637.194 3190
-2319.78 637.194 3190
-2312.15 637.194 3190
-2304.52 637.194 3190
-2288.25 634.797 3178
-2284.96 635.995 3184
-2277.34 635.995 3184
-2282.56 639.591 3202
-2274.9 639.591 3202
-2284.95 644.584 3227
-2277.23 644.584 3227
-2269.52 644.584 3227
-2261.8 644.584 3227
-2254.08 644.584 3227
-2246.37 644.584 3227
-2246.97 646.981 3239
-2261.35 653.373 3271
-2266.62 657.169 3290
-2258.75 657.169 3290
-2278.25 665.158 3330
-2307.1 675.945 3384
-2299.01 675.945 3384
-2290.92 675.945 3384
-2282.83 675.945 3384
-2279.44 677.343 3391
-2294.77 684.334 3426
-2286.58 684.334 3426
-2297.01 689.927 3454
-2298.03 692.724 3468
-2304.26 697.118 3490
-2295.91 697.118 3490
-2292.16 698.516 3497
-2293.59 701.512 3512
-2294.95 704.509 3527
-2286.52 704.509 3527
-2282.61 705.907 3534
-2274.15 705.907 3534
-2265.7 705.907 3534
-2257.25 705.907 3534
-2244.35 704.509 3527
-2235.91 704.509 3527
-2227.48 704.509 3527
-2209.61 701.512 3512
-2196.82 700.114 3505
-2183.45 698.516 3497
-2175.08 698.516 3497
-2166.72 698.516 3497
-2158.36 698.516 3497
-2150 698.516 3497
-2141.63 698.516 3497
-2124.73 695.72 3483
-2107.29 692.724 3468
-2090.52 689.927 3454
-2082.26 689.927 3454
-2061.39 685.732 3433
-2036.44 680.139 3405
-2019.95 677.343 3391
-2011.85 677.343 3391
-2003.74 677.343 3391
-1983.27 673.148 3370
-1967.59 670.552 3357
-1959.56 670.552 3357
-1935.84 665.158 3330
-1923.82 663.76 3323
-1915.88 663.76 3323
-1907.93 663.76 3323
-1892.55 661.163 3310
-1888.62 662.562 3317
-1888.06 665.158 3330
-1880.1 665.158 3330
-1872.14 665.158 3330
-1875.37 669.153 3350
-1871.26 670.552 3357
-1866.56 671.75 3363
-1858.52 671.75 3363
-1850.48 671.75 3363
-1846.27 673.148 3370
-1842.03 674.547 3377
-1833.96 674.547 3377
-1829.67 675.945 3384
-1832.88 680.139 3405
-1832.24 682.936 3419
-1824.06 682.936 3419
-1827.04 687.131 3440
-1822.51 688.529 3447
-1821.64 691.325 3461
-1813.36 691.325 3461
-1808.74 692.724 3468
-1808.23 695.72 3483
-1811.27 700.114 3505
-1802.89 700.114 3505
-1798.09 701.512 3512
-1793.77 703.11 3520
-1792.46 705.907 3534
-1784 705.907 3534
-1779.57 707.505 3542
-1774.6 708.903 3549
-1774.08 712.099 3565
-1765.55 712.099 3565
-1760.48 713.497 3572
-1759.78 716.693 3588
-1751.2 716.693 3588
-1742.62 716.693 3588
-1741.29 719.689 3603
-1740.37 722.885 3619
-1742.72 727.48 3642
-1734.01 727.48 3642
-1729.1 729.078 3650
-1732.15 734.071 3675
-1738.37 740.463 3707
-1729.5 740.463 3707
-1732.24 745.457 3732
-1739.02 752.248 3766
-1749.77 760.837 3809
-1740.66 760.837 3809
-1735.64 762.635 3818
-1750.48 773.222 3871
-1745.27 775.019 3880
-1735.99 775.019 3880
-1734.72 778.615 3898
-1725.4 778.615 3898
-1716.08 778.615 3898
-1706.76 778.615 3898
-1677.84 769.626 3853
-1634.42 753.846 3774
-1621.95 752.248 3766
-1612.94 752.248 3766
-1589.45 745.457 3732
-1556.39 734.071 3675
-1544.23 732.473 3667
-1535.46 732.473 3667
-1510.04 724.483 3627
-1491.43 719.689 3603
-1470.06 713.497 3572
-1461.52 713.497 3572
-1443.62 708.903 3549
-1429.07 705.907 3534
-1417.8 704.509 3527
-1409.37 704.509 3527
-1400.93 704.509 3527
-1392.5 704.509 3527
-1381.32 703.11 3520
-1372.9 703.11 3520
-1364.48 703.11 3520
-1364.54 707.505 3542
-1364.88 712.099 3565
-1362.06 715.095 3580
-1353.5 715.095 3580
-1347.94 716.693 3588
-1347.95 721.287 3611
-1342.28 722.885 3619
-1333.63 722.885 3619
-1327.9 724.483 3627
-1322.14 726.081 3635
-1315.98 727.48 3642
-1307.27 727.48 3642
-1301.41 729.078 3650
-1292.68 729.078 3650
-1283.95 729.078 3650
-1275.23 729.078 3650
-1266.5 729.078 3650
-1255.01 727.48 3642
-1241.17 724.483 3627
-1232.5 724.483 3627
-1221.12 722.885 3619
-1212.47 722.885 3619
-1201.16 721.287 3611
-1192.52 721.287 3611
-1181.26 719.689 3603
-1172.65 719.689 3603
-1164.03 719.689 3603
-1155.41 719.689 3603
-1146.8 719.689 3603
-1138.18 719.689 3603
-1129.57 719.689 3603
-1125.93 722.885 3619
-1117.27 722.885 3619
-1108.62 722.885 3619
-1099.97 722.885 3619
-1091.31 722.885 3619
-1082.66 722.885 3619
-1080.83 727.48 3642
-1079.48 732.473 3667
-1075.38 735.669 3683
-1066.58 735.669 3683
-1067.25 742.261 3716
-1065.2 747.055 3740
-1061.05 750.45 3757
-1052.07 750.45 3757
-1043.09 750.45 3757
-1036.58 752.248 3766
-1034.67 757.442 3792
-1025.6 757.442 3792
-1018.68 759.04 3800
-1009.59 759.04 3800
-1000.5 759.04 3800
-989.328 757.442 3792
-982.328 759.04 3800
-973.241 759.04 3800
-973.035 766.031 3835
-963.864 766.031 3835
-954.693 766.031 3835
-945.523 766.031 3835
-936.352 766.031 3835
-927.181 766.031 3835
-913.941 762.635 3818
-904.811 762.635 3818
-895.681 762.635 3818
-886.551 762.635 3818
-875.353 760.837 3809
-866.245 760.837 3809
-857.136 760.837 3809
-848.028 760.837 3809
-838.919 760.837 3809
-829.811 760.837 3809
-811.437 752.248 3766
-802.432 752.248 3766
-789.844 748.852 3749
-780.879 748.852 3749
-771.914 748.852 3749
-762.949 748.852 3749
-753.984 748.852 3749
-743.231 747.055 3740
-726.238 738.865 3699
-717.392 738.865 3699
-707.014 737.267 3691
-695.162 734.071 3675
-681.704 729.078 3650
-672.976 729.078 3650
-664.248 729.078 3650
-654.083 727.48 3642
-645.374 727.48 3642
-636.665 727.48 3642
-623.99 722.885 3619
-613.975 721.287 3611
-602.658 718.091 3595
-594.061 718.091 3595
-585.465 718.091 3595
-576.868 718.091 3595
-568.271 718.091 3595
-559.674 718.091 3595
-551.078 718.091 3595
-542.481 718.091 3595
-532.845 716.693 3588
-523.096 715.095 3580
-514.535 715.095 3580
-505.974 715.095 3580
-498.525 716.693 3588
-490.901 718.091 3595
-482.304 718.091 3595
-473.707 718.091 3595
-465.11 718.091 3595
-457.53 719.689 3603
-449.91 721.287 3611
-441.275 721.287 3611
-432.64 721.287 3611
-424.945 722.885 3619
-416.291 722.885 3619
-407.637 722.885 3619
-398.982 722.885 3619
-390.328 722.885 3619
-381.674 722.885 3619
-373.02 722.885 3619
-364.366 722.885 3619
-354.926 721.287 3611
-346.291 721.287 3611
-337.656 721.287 3611
-329.021 721.287 3611
-320.386 721.287 3611
-312.441 722.885 3619
-303.787 722.885 3619
-295.133 722.885 3619
-286.479 722.885 3619
-277.825 722.885 3619
-269.171 722.885 3619
-260.516 722.885 3619
-251.306 721.287 3611
-242.133 719.689 3603
-233.517 719.689 3603
-223.965 716.693 3588
-214.905 715.095 3580
-206.344 715.095 3580
-197.783 715.095 3580
-188.799 713.497 3572
-180.258 713.497 3572
-170.995 710.501 3557
-162.489 710.501 3557
-153.334 707.505 3542
-144.536 705.907 3534
-135.816 704.509 3527
-127.382 704.509 3527
-118.712 703.11 3520
-110.044 701.512 3512
-101.211 698.516 3497
-92.8488 698.516 3497
-84.1482 695.72 3483
-75.8193 695.72 3483
-67.626 697.118 3490
-59.6541 701.512 3512
-51.5769 705.907 3534
-43.126 705.907 3534
-34.6752 705.907 3534
-26.2243 705.907 3534
-17.7734 705.907 3534
-5.65052 427.859 2142
-0.528349 427.859 2142
4.59382 427.859 2142
9.71599 427.859 2142
14.8382 427.859 2142
19.9603 427.859 2142
25.1411 428.857 2147
30.2752 428.857 2147
35.4093 428.857 2147
40.5434 428.857 2147
45.6137 428.258 2144
50.7407 428.258 2144
55.8676 428.258 2144
60.9377 427.859 2142
65.9674 427.259 2139
71.0824 427.259 2139
76.1973 427.259 2139
81.5024 428.258 2144
86.8718 429.457 2150
92.3555 431.055 2158
97.5159 431.055 2158
102.819 431.654 2161
108.287 432.852 2167
113.887 434.45 2175
119.088 434.45 2175
125.09 437.247 2189
130.86 439.044 2198
137.355 443.039 2218
142.658 443.039 2218
148.763 445.436 2230
154.51 446.635 2236
160.286 447.833 2242
165.647 447.833 2242
171.466 449.032 2248
177.865 451.629 2261
183.515 452.228 2264
188.928 452.228 2264
194.6 452.827 2267
200.021 452.827 2267
205.986 454.026 2273
211.421 454.026 2273
217.143 454.625 2276
222.879 455.224 2279
228.329 455.224 2279
233.778 455.224 2279
239.228 455.224 2279
244.678 455.224 2279
249.14 453.426 2270
254.568 453.426 2270
258.164 450.23 2254
262.151 447.833 2242
897.486 750.45 3757
906.47 750.45 3757
915.454 750.45 3757
906.838 729.078 3650
919.831 732.473 3667
928.6 732.473 3667
937.369 732.473 3667
939.687 727.48 3642
946.574 726.081 3635
955.266 726.081 3635
963.958 726.081 3635
968.369 722.885 3619
977.024 722.885 3619
985.678 722.885 3619
992.134 721.287 3611
994.394 716.693 3588
1000.74 715.095 3580
1009.3 715.095 3580
1015.59 713.497 3572
1024.13 713.497 3572
1030.65 712.099 3565
1039.17 712.099 3565
1045.34 710.501 3557
1049.41 707.505 3542
1057.88 707.505 3542
1063.94 705.907 3534
1072.39 705.907 3534
1080.84 705.907 3534
1082.51 701.512 3512
1090.91 701.512 3512
1099.31 701.512 3512
1105.5 700.114 3505
1113.88 700.114 3505
1122.26 700.114 3505
1130.64 700.114 3505
1136.42 698.516 3497
1144.78 698.516 3497
1153.15 698.516 3497
1161.51 698.516 3497
1174.89 701.512 3512
1183.29 701.512 3512
1191.69 701.512 3512
1200.08 701.512 3512
1208.48 701.512 3512
1216.88 701.512 3512
1225.28 701.512 3512
1236.49 703.11 3520
1249.86 705.907 3534
1258.31 705.907 3534
1275 710.501 3557
1294.69 716.693 3588
1308.72 719.689 3603
1317.34 719.689 3603
1328.9 721.287 3611
1346.42 726.081 3635
1360.71 729.078 3650
1369.44 729.078 3650
1390.62 735.669 3683
1399.43 735.669 3683
1408.24 735.669 3683
1417.05 735.669 3683
1422.76 734.071 3675
1418.69 727.48 3642
1427.4 727.48 3642
1423.88 721.287 3611
1423.39 716.693 3588
1422.79 712.099 3565
1422.09 707.505 3542
1430.56 707.505 3542
1423.99 700.114 3505
1414.39 691.325 3461
1411.16 685.732 3433
1419.37 685.732 3433
1401.38 673.148 3370
1395.64 666.557 3337
1395.21 662.562 3317
1403.14 662.562 3317
1397.03 655.97 3284
1396.76 652.175 3265
1398.97 649.578 3252
1401.12 646.981 3239
1408.87 646.981 3239
1413.99 645.783 3233
1419.08 644.584 3227
1426.8 644.584 3227
1434.52 644.584 3227
1442.23 644.584 3227
1452.65 645.783 3233
1460.38 645.783 3233
1468.11 645.783 3233
1475.84 645.783 3233
1483.57 645.783 3233
1491.3 645.783 3233
1499.03 645.783 3233
1506.76 645.783 3233
1514.49 645.783 3233
1519.4 644.584 3227
1524.28 643.386 3221
1531.98 643.386 3221
1533.47 640.789 3208
1532.49 637.194 3190
1537.22 635.995 3184
1544.84 635.995 3184
1537.82 630.003 3154
1539.49 627.606 3142
1538.14 624.01 3124
1545.61 624.01 3124
1538.66 618.218 3095
1526.08 610.228 3055
1500.76 597.244 2990
1496.82 592.85 2968
1503.91 592.85 2968
1500.32 588.655 2947
1486.4 580.466 2906
1488.21 578.468 2896
1495.13 578.468 2896
1491.68 574.473 2876
1486.06 569.679 2852
1490.26 568.68 2847
1491.81 566.683 2837
1498.59 566.683 2837
1502.72 565.684 2832
1509.5 565.684 2832
1514.13 564.885 2828
1520.89 564.885 2828
1524.95 563.887 2823
1526.28 561.889 2813
1530.82 561.09 2809
1537.54 561.09 2809
1538.76 559.093 2799
1542.69 558.094 2794
1547.15 557.295 2790
1553.83 557.295 2790
1560.5 557.295 2790
1559.31 554.498 2776
1560.87 552.701 2767
1569.75 553.5 2771
1579.22 554.498 2776
1585.86 554.498 2776
1600.53 557.295 2790
1607.2 557.295 2790
1616.19 558.094 2794
1622.87 558.094 2794
1629.55 558.094 2794
1630.96 556.296 2785
1637.62 556.296 2785
2022.45 678.741 3398
2030.57 678.741 3398
2093.9 697.118 3490
2106.46 698.516 3497
2114.82 698.516 3497
2123.18 698.516 3497
2127.28 697.118 3490
2131.34 695.72 3483
2139.67 695.72 3483
2143.68 694.321 3476
2142.71 691.325 3461
2124.88 682.936 3419
1868.1 584.66 2927
1875.1 584.66 2927
1908.47 592.85 2968
1915.56 592.85 2968
1922.66 592.85 2968
1929.76 592.85 2968
1910.1 584.66 2927
1913.82 583.661 2922
1920.81 583.661 2922
1920.54 581.464 2911
1897.71 572.476 2866
1917.85 576.471 2886
1948.76 583.661 2922
1955.75 583.661 2922
1962.74 583.661 2922
1969.72 583.661 2922
1969.27 581.464 2911
1976.23 581.464 2911
1983.19 581.464 2911
1936.14 565.684 2832
1936.74 563.887 2823
1943.49 563.887 2823
1950.24 563.887 2823
1950.06 561.889 2813
1956.79 561.889 2813
1963.51 561.889 2813
1970.24 561.889 2813
1970.64 560.091 2804
2000.62 566.683 2837
2021.55 570.678 2857
2028.39 570.678 2857
2035.22 570.678 2857
2048.48 572.476 2866
2055.34 572.476 2866
2062.19 572.476 2866
2069.04 572.476 2866
2079.52 573.474 2871
2100.92 577.469 2891
2122.41 581.464 2911
2129.37 581.464 2911
2136.33 581.464 2911
2092.49 567.682 2842
2102.98 568.68 2847
2109.79 568.68 2847
2116.6 568.68 2847
2152.49 576.471 2886
2159.4 576.471 2886
2302.16 612.625 3067
2309.49 612.625 3067
2382.55 630.003 3154
2390.09 630.003 3154
2397.63 630.003 3154
2405.17 630.003 3154
-2416.13 652.315 3227
-2417.37 654.74 3239
-2409.63 654.74 3239
-2411.52 657.368 3252
-2403.75 657.368 3252
-2395.97 657.368 3252
-2388.19 657.368 3252
-2357.73 651.102 3221
-2340.54 648.474 3208
-2332.87 648.474 3208
-2325.2 648.474 3208
-2335.58 653.528 3233
-2327.85 653.528 3233
-2320.12 653.528 3233
-2312.39 653.528 3233
-2318.2 657.368 3252
-2310.43 657.368 3252
-2302.65 657.368 3252
-2294.87 657.368 3252
-2305.38 662.624 3278
-2297.55 662.624 3278
-2289.71 662.624 3278
-2281.87 662.624 3278
-2305.25 671.72 3323
-2302.14 673.135 3330
-2316.91 679.806 3363
-2308.87 679.806 3363
-2343.93 692.541 3426
-2350.05 696.786 3447
-2341.81 696.786 3447
-2333.57 696.786 3447
-2325.33 696.786 3447
-2317.08 696.786 3447
-2322.91 701.031 3468
-2314.61 701.031 3468
-2320.95 705.478 3490
-2317.24 706.893 3497
-2314.16 708.51 3505
-2305.78 708.51 3505
-2301.99 709.925 3512
-2298.81 711.543 3520
-2294.95 712.958 3527
-2286.52 712.958 3527
-2282.61 714.373 3534
-2274.15 714.373 3534
-2265.7 714.373 3534
-2257.25 714.373 3534
-2244.35 712.958 3527
-2235.91 712.958 3527
-2227.48 712.958 3527
-2209.61 709.925 3512
-2196.82 708.51 3505
-2183.45 706.893 3497
-2175.08 706.893 3497
-2166.72 706.893 3497
-2158.36 706.893 3497
-2150 706.893 3497
-2141.63 706.893 3497
-2133.27 706.893 3497
-2112.15 702.648 3476
-2094.76 699.616 3461
-2086.48 699.616 3461
-2065.6 695.371 3440
-2040.62 689.711 3412
-2028.29 688.296 3405
-2020.15 688.296 3405
-2003.74 685.466 3391
-1995.63 685.466 3391
-1975.21 681.221 3370
-1967.15 681.221 3370
-1947.47 677.178 3350
-1927.88 673.135 3330
-1915.88 671.72 3323
-1907.93 671.72 3323
-1899.99 671.72 3323
-1888.62 670.508 3317
-1884.09 671.72 3323
-1880.1 673.135 3330
-1872.14 673.135 3330
-1868.09 674.55 3337
-1867.36 677.178 3350
-1863.23 678.593 3357
-1855.2 678.593 3357
-1847.18 678.593 3357
-1842.44 679.806 3363
-1838.21 681.221 3370
-1830.15 681.221 3370
-1825.88 682.636 3377
-1825.34 685.466 3391
-1824.73 688.296 3405
-1816.59 688.296 3405
-1815.89 691.126 3419
-1818.81 695.371 3440
-1817.96 698.201 3454
-1809.7 698.201 3454
-1808.74 701.031 3468
-1808.23 704.063 3483
-1807.14 706.893 3497
-1798.78 706.893 3497
-1798.09 709.925 3512
-1793.77 711.543 3520
-1792.46 714.373 3534
-1784 714.373 3534
-1779.57 715.99 3542
-1774.6 717.405 3549
-1774.08 720.639 3565
-1765.55 720.639 3565
-1760.48 722.054 3572
-1759.78 725.288 3588
-1751.2 725.288 3588
-1742.62 725.288 3588
-1741.29 728.32 3603
-1740.37 731.555 3619
-1742.72 736.204 3642
-1734.01 736.204 3642
-1729.1 737.821 3650
-1732.15 742.875 3675
-1734.62 747.726 3699
-1725.77 747.726 3699
-1728.53 752.78 3724
-1739.02 761.27 3766
-1749.77 769.962 3809
-1740.66 769.962 3809
-1735.64 771.781 3818
-1750.48 782.495 3871
-1745.27 784.314 3880
-1735.99 784.314 3880
-1734.72 787.953 3898
-1725.4 787.953 3898
-1716.08 787.953 3898
-1706.76 787.953 3898
-1677.84 778.856 3853
-1642.21 766.525 3792
-1625.39 762.887 3774
-1616.37 762.887 3774
-1592.86 756.014 3740
-1559.78 744.492 3683
-1547.6 742.875 3675
-1538.81 742.875 3675
-1513.37 734.789 3635
-1491.43 728.32 3603
-1473.35 723.671 3580
-1464.79 723.671 3580
-1443.62 717.405 3549
-1432.3 715.99 3542
-1417.8 712.958 3527
-1409.37 712.958 3527
-1400.93 712.958 3527
-1392.5 712.958 3527
-1384.07 712.958 3527
-1375.63 712.958 3527
-1364.48 711.543 3520
-1364.54 715.99 3542
-1364.88 720.639 3565
-1362.06 723.671 3580
-1353.5 723.671 3580
-1347.94 725.288 3588
-1347.95 729.938 3611
-1342.28 731.555 3619
-1333.63 731.555 3619
-1330.83 734.789 3635
-1322.14 734.789 3635
-1315.98 736.204 3642
-1307.27 736.204 3642
-1301.41 737.821 3650
-1295.52 739.438 3658
-1286.77 739.438 3658
-1278.02 739.438 3658
-1269.27 739.438 3658
-1257.77 737.821 3650
-1243.91 734.789 3635
-1235.22 734.789 3635
-1223.82 733.172 3627
-1212.47 731.555 3619
-1203.82 731.555 3619
-1195.16 731.555 3619
-1183.89 729.938 3611
-1175.25 729.938 3611
-1166.62 729.938 3611
-1157.98 729.938 3611
-1149.35 729.938 3611
-1143.24 731.555 3619
-1134.58 731.555 3619
-1130.91 734.789 3635
-1122.21 734.789 3635
-1113.52 734.789 3635
-1104.83 734.789 3635
-1096.14 734.789 3635
-1087.44 734.789 3635
-1088.25 741.258 3667
-1084.19 744.492 3683
-1082.39 749.343 3707
-1073.53 749.343 3707
-1071.84 754.397 3732
-1072.6 761.27 3766
-1063.6 761.27 3766
-1054.59 761.27 3766
-1045.58 761.27 3766
-1041.26 764.706 3783
-1034.67 766.525 3792
-1025.6 766.525 3792
-1018.68 768.143 3800
-1009.59 768.143 3800
-1000.5 768.143 3800
-991.415 768.143 3800
-982.328 768.143 3800
-973.241 768.143 3800
-973.035 775.218 3835
-963.864 775.218 3835
-954.693 775.218 3835
-945.523 775.218 3835
-936.352 775.218 3835
-925.005 773.398 3826
-913.941 771.781 3818
-904.811 771.781 3818
-895.681 771.781 3818
-884.461 769.962 3809
-875.353 769.962 3809
-866.245 769.962 3809
-857.136 769.962 3809
-848.028 769.962 3809
-838.919 769.962 3809
-826.107 766.525 3792
-811.437 761.27 3766
-802.432 761.27 3766
-791.53 759.45 3757
-780.879 757.833 3749
-771.914 757.833 3749
-762.949 757.833 3749
-753.984 757.833 3749
-745.019 757.833 3749
-731.146 752.78 3724
-722.241 752.78 3724
-708.547 747.726 3699
-696.675 744.492 3683
-686.374 742.875 3675
-677.585 742.875 3675
-665.704 739.438 3658
-656.956 739.438 3658
-645.374 736.204 3642
-636.665 736.204 3642
-625.369 733.172 3627
-615.336 731.555 3619
-603.999 728.32 3603
-595.383 728.32 3603
-586.768 728.32 3603
-578.152 728.32 3603
-569.536 728.32 3603
-559.674 726.703 3595
-551.078 726.703 3595
-542.481 726.703 3595
-533.884 726.703 3595
-523.096 723.671 3580
-514.535 723.671 3580
-505.974 723.671 3580
-498.525 725.288 3588
-490.901 726.703 3595
-482.304 726.703 3595
-473.707 726.703 3595
-465.11 726.703 3595
-457.53 728.32 3603
-449.91 729.938 3611
-441.275 729.938 3611
-432.64 729.938 3611
-424.005 729.938 3611
-415.37 729.938 3611
-406.735 729.938 3611
-398.1 729.938 3611
-389.465 729.938 3611
-380.831 729.938 3611
-372.195 729.938 3611
-363.561 729.938 3611
-354.139 728.32 3603
-345.523 728.32 3603
-336.907 728.32 3603
-328.292 728.32 3603
-320.386 729.938 3611
-311.751 729.938 3611
-303.116 729.938 3611
-294.481 729.938 3611
-285.846 729.938 3611
-277.211 729.938 3611
-268.576 729.938 3611
-259.941 729.938 3611
-250.749 728.32 3603
-241.595 726.703 3595
-232.999 726.703 3595
-223.466 723.671 3580
-214.905 723.671 3580
-205.883 722.054 3572
-197.341 722.054 3572
-188.429 720.639 3565
-179.501 719.022 3557
-170.274 715.99 3542
-161.804 715.99 3542
-152.987 714.373 3534
-144.25 712.958 3527
-135.546 711.543 3520
-127.129 711.543 3520
-118.442 709.925 3512
-109.574 706.893 3497
-100.603 702.648 3476
-92.2913 702.648 3476
-83.7858 701.031 3468
-75.4928 701.031 3468
-67.1997 701.031 3468
-59.2804 705.478 3490
-51.1537 708.51 3505
-42.7721 708.51 3505
-34.4593 709.925 3512
-26.061 709.925 3512
-17.6628 709.925 3512
-5.65052 432.99 2142
-0.528349 432.99 2142
4.59382 432.99 2142
9.71599 432.99 2142
14.8382 432.99 2142
19.9603 432.99 2142
25.1411 434.001 2147
30.2752 434.001 2147
35.4093 434.001 2147
40.5434 434.001 2147
45.6137 433.394 2144
50.7407 433.394 2144
55.8676 433.394 2144
60.9377 432.99 2142
66.0599 432.99 2142
71.182 432.99 2142
76.3042 432.99 2142
81.5024 433.394 2144
86.8718 434.607 2150
92.3555 436.224 2158
97.5159 436.224 2158
102.819 436.831 2161
108.386 438.448 2169
113.887 439.661 2175
119.088 439.661 2175
125.09 442.491 2189
130.503 443.097 2192
137.045 447.342 2213
142.337 447.342 2213
148.163 448.959 2221
154.303 451.385 2233
160.072 452.598 2239
165.426 452.598 2239
171.237 453.811 2245
177.314 455.63 2254
183.271 457.045 2261
188.678 457.045 2261
194.342 457.651 2264
200.021 458.258 2267
205.714 458.864 2270
211.142 458.864 2270
216.857 459.471 2273
222.292 459.471 2273
227.727 459.471 2273
233.163 459.471 2273
238.598 459.471 2273
243.712 458.864 2270
248.481 457.651 2264
253.895 457.651 2264
258.164 455.63 2254
262.151 453.204 2242
899.636 761.27 3766
908.641 761.27 3766
917.647 761.27 3766
918.287 754.397 3732
927.211 754.397 3732
936.135 754.397 3732
938.729 749.343 3707
937.369 741.258 3667
941.751 737.821 3650
950.48 737.821 3650
959.208 737.821 3650
963.958 734.789 3635
972.651 734.789 3635
977.024 731.555 3619
985.678 731.555 3619
992.134 729.938 3611
1000.77 729.938 3611
1000.74 723.671 3580
1009.3 723.671 3580
1015.59 722.054 3572
1024.13 722.054 3572
1030.65 720.639 3565
1039.17 720.639 3565
1042.99 717.405 3549
1049.41 715.99 3542
1057.88 715.99 3542
1063.94 714.373 3534
1072.39 714.373 3534
1078.7 712.958 3527
1082.51 709.925 3512
1088.73 708.51 3505
1097.11 708.51 3505
1102.97 706.893 3497
1111.33 706.893 3497
1119.7 706.893 3497
1128.06 706.893 3497
1134.15 705.478 3490
1142.49 705.478 3490
1153.15 706.893 3497
1161.51 706.893 3497
1169.87 706.893 3497
1178.23 706.893 3497
1191.69 709.925 3512
1200.08 709.925 3512
1208.48 709.925 3512
1216.88 709.925 3512
1222.84 708.51 3505
1233.68 709.925 3512
1249.86 714.373 3534
1258.31 714.373 3534
1275 719.022 3557
1294.69 725.288 3588
1308.72 728.32 3603
1317.34 728.32 3603
1328.9 729.938 3611
1346.42 734.789 3635
1360.71 737.821 3650
1369.44 737.821 3650
1390.62 744.492 3683
1399.43 744.492 3683
1408.24 744.492 3683
1417.05 744.492 3683
1422.76 742.875 3675
1418.69 736.204 3642
1427.4 736.204 3642
1423.88 729.938 3611
1423.39 725.288 3588
1422.79 720.639 3565
1422.09 715.99 3542
1430.56 715.99 3542
1423.99 708.51 3505
1414.39 699.616 3461
1411.16 693.956 3433
1419.37 693.956 3433
1401.38 681.221 3370
1395.64 674.55 3337
1395.21 670.508 3317
1403.14 670.508 3317
1397.03 663.837 3284
1396.76 659.996 3265
1398.97 657.368 3252
1401.12 654.74 3239
1408.87 654.74 3239
1413.99 653.528 3233
1419.08 652.315 3227
1424.15 651.102 3221
1434.52 652.315 3227
1442.23 652.315 3227
1449.95 652.315 3227
1460.38 653.528 3233
1468.11 653.528 3233
1475.84 653.528 3233
1483.57 653.528 3233
1491.3 653.528 3233
1499.03 653.528 3233
1503.97 652.315 3227
1511.68 652.315 3227
1519.4 652.315 3227
1524.28 651.102 3221
1531.98 651.102 3221
1533.47 648.474 3208
1532.49 644.835 3190
1534.33 642.41 3178
1541.93 642.41 3178
1537.82 637.558 3154
1539.49 635.133 3142
1538.14 631.494 3124
1545.61 631.494 3124
1538.66 625.632 3095
1526.08 617.546 3055
1500.76 604.407 2990
1496.82 599.96 2968
1503.91 599.96 2968
1500.32 595.715 2947
1486.4 587.427 2906
1488.21 585.405 2896
1495.13 585.405 2896
1491.68 581.363 2876
1486.06 576.511 2852
1490.26 575.5 2847
1491.81 573.479 2837
1498.59 573.479 2837
1502.72 572.468 2832
1509.5 572.468 2832
1514.13 571.66 2828
1520.89 571.66 2828
1524.95 570.649 2823
1526.28 568.628 2813
1530.82 567.819 2809
1537.54 567.819 2809
1538.76 565.798 2799
1542.69 564.787 2794
1547.15 563.978 2790
1553.83 563.978 2790
1560.5 563.978 2790
1559.31 561.148 2776
1560.87 559.329 2767
1569.75 560.138 2771
1579.22 561.148 2776
1585.86 561.148 2776
1600.53 563.978 2790
1607.2 563.978 2790
1616.19 564.787 2794
1622.87 564.787 2794
1629.55 564.787 2794
2022.45 686.881 3398
2030.57 686.881 3398
2093.9 705.478 3490
2106.46 706.893 3497
2114.82 706.893 3497
2123.18 706.893 3497
2127.28 705.478 3490
2131.34 704.063 3483
2139.67 704.063 3483
2143.68 702.648 3476
2142.71 699.616 3461
2124.88 691.126 3419
1868.1 591.672 2927
1875.1 591.672 2927
1908.47 599.96 2968
1915.56 599.96 2968
1922.66 599.96 2968
1929.76 599.96 2968
1910.1 591.672 2927
1913.82 590.661 2922
1920.81 590.661 2922
1920.54 588.438 2911
1897.71 579.341 2866
1917.85 583.384 2886
1948.76 590.661 2922
1955.75 590.661 2922
1962.74 590.661 2922
1969.72 590.661 2922
1969.27 588.438 2911
1976.23 588.438 2911
1983.19 588.438 2911
1936.14 572.468 2832
1936.74 570.649 2823
1943.49 570.649 2823
1950.24 570.649 2823
1950.06 568.628 2813
1956.79 568.628 2813
1963.51 568.628 2813
1970.24 568.628 2813
1970.64 566.808 2804
2000.62 573.479 2837
2021.55 577.522 2857
2028.39 577.522 2857
2035.22 577.522 2857
2048.48 579.341 2866
2055.34 579.341 2866
2062.19 579.341 2866
2069.04 579.341 2866
2079.52 580.352 2871
2100.92 584.395 2891
2122.41 588.438 2911
2129.37 588.438 2911
2136.33 588.438 2911
2092.49 574.49 2842
2102.98 575.5 2847
2109.79 575.5 2847
2116.6 575.5 2847
2152.49 583.384 2886
2159.4 583.384 2886
2302.16 619.972 3067
2309.49 619.972 3067
2382.55 637.558 3154
2390.09 637.558 3154
2397.63 637.558 3154
2405.17 637.558 3154
-2416.13 660.045 3227
-2417.37 662.5 3239
-2409.63 662.5 3239
-2411.52 665.159 3252
-2403.75 665.159 3252
-2395.97 665.159 3252
-2388.19 665.159 3252
-2357.73 658.818 3221
-2340.54 656.159 3208
-2332.87 656.159 3208
-2325.2 656.159 3208
-2353.65 666.386 3258
-2360.25 670.477 3278
-2370.36 675.59 3303
-2362.46 675.59 3303
-2393.05 686.635 3357
-2385.03 686.635 3357
-2381.25 687.862 3363
-2373.21 687.862 3363
-2394.7 696.453 3405
-2386.56 696.453 3405
-2383.31 697.885 3412
-2375.15 697.885 3412
-2376.7 700.748 3426
-2373.35 702.18 3433
-2365.14 702.18 3433
-2371.35 706.475 3454
-2382.93 712.407 3483
-2384.14 715.27 3497
-2375.78 715.27 3497
-2367.42 715.27 3497
-2354.33 713.839 3490
-2345.99 713.839 3490
-2337.64 713.839 3490
-2329.3 713.839 3490
-2325.61 715.27 3497
-2322.54 716.907 3505
-2318.79 718.338 3512
-2310.39 718.338 3512
-2307.23 719.975 3520
-2298.81 719.975 3520
-2294.95 721.406 3527
-2286.52 721.406 3527
-2282.61 722.838 3534
-2274.15 722.838 3534
-2265.7 722.838 3534
-2257.25 722.838 3534
-2244.35 721.406 3527
-2235.91 721.406 3527
-2227.48 721.406 3527
-2209.61 718.338 3512
-2196.82 716.907 3505
-2183.45 715.27 3497
-2175.08 715.27 3497
-2166.72 715.27 3497
-2158.36 715.27 3497
-2150 715.27 3497
-2141.63 715.27 3497
-2133.27 715.27 3497
-2116.4 712.407 3483
-2103.84 710.975 3476
-2095.52 710.975 3476
-2069.8 705.043 3447
-2057.37 703.612 3440
-2032.46 697.885 3412
-2024.3 697.885 3412
-2012.01 696.453 3405
-1999.75 695.021 3398
-1983.42 692.158 3384
-1975.32 692.158 3384
-1963.16 690.726 3377
-1939.46 685.203 3350
-1927.41 683.771 3343
-1919.41 683.771 3343
-1903.99 681.112 3330
-1892.04 679.681 3323
-1888.06 681.112 3330
-1880.1 681.112 3330
-1872.14 681.112 3330
-1871.45 683.771 3343
-1867.36 685.203 3350
-1863.23 686.635 3357
-1855.2 686.635 3357
-1847.18 686.635 3357
-1842.44 687.862 3363
-1838.21 689.294 3370
-1830.15 689.294 3370
-1825.88 690.726 3377
-1825.34 693.589 3391
-1824.73 696.453 3405
-1816.59 696.453 3405
-1815.89 699.316 3419
-1818.81 703.612 3440
-1817.96 706.475 3454
-1809.7 706.475 3454
-1808.74 709.339 3468
-1808.23 712.407 3483
-1807.14 715.27 3497
-1798.78 715.27 3497
-1798.09 718.338 3512
-1793.77 719.975 3520
-1792.46 722.838 3534
-1784 722.838 3534
-1779.57 724.475 3542
-1774.6 725.906 3549
-1774.08 729.179 3565
-1765.55 729.179 3565
-1760.48 730.611 3572
-1759.78 733.883 3588
-1751.2 733.883 3588
-1742.62 733.883 3588
-1741.29 736.951 3603
-1740.37 740.224 3619
-1742.72 744.928 3642
-1734.01 744.928 3642
-1729.1 746.565 3650
-1732.15 751.678 3675
-1734.62 756.587 3699
-1725.77 756.587 3699
-1728.53 761.701 3724
-1746.87 773.768 3783
-1753.9 780.927 3818
-1744.77 780.927 3818
-1747.46 786.245 3844
-1750.48 791.768 3871
-1745.27 793.609 3880
-1735.99 793.609 3880
-1734.72 797.29 3898
-1725.4 797.29 3898
-1716.08 797.29 3898
-1706.76 797.29 3898
-1681.76 789.927 3862
-1649.57 779.086 3809
-1629.27 773.768 3783
-1620.22 773.768 3783
-1596.69 766.814 3749
-1566.55 756.587 3699
-1550.97 753.314 3683
-1542.16 753.314 3683
-1513.37 743.497 3635
-1494.74 738.588 3611
-1476.64 733.883 3588
-1468.06 733.883 3588
-1446.87 727.543 3557
-1432.3 724.475 3542
-1420.62 722.838 3534
-1412.17 722.838 3534
-1400.93 721.406 3527
-1392.5 721.406 3527
-1384.07 721.406 3527
-1375.63 721.406 3527
-1364.48 719.975 3520
-1364.54 724.475 3542
-1364.88 729.179 3565
-1362.06 732.247 3580
-1353.5 732.247 3580
-1347.94 733.883 3588
-1347.95 738.588 3611
-1342.28 740.224 3619
-1333.63 740.224 3619
-1330.83 743.497 3635
-1322.14 743.497 3635
-1315.98 744.928 3642
-1307.27 744.928 3642
-1301.41 746.565 3650
-1295.52 748.201 3658
-1286.77 748.201 3658
-1278.02 748.201 3658
-1269.27 748.201 3658
-1260.53 748.201 3658
-1246.3 744.928 3642
-1237.59 744.928 3642
-1226.52 743.497 3635
-1215.15 741.86 3627
-1206.48 741.86 3627
-1197.8 741.86 3627
-1186.51 740.224 3619
-1175.25 738.588 3611
-1166.62 738.588 3611
-1160.55 740.224 3619
-1151.89 740.224 3619
-1143.24 740.224 3619
-1139.6 743.497 3635
-1133.08 744.928 3642
-1124.38 744.928 3642
-1115.67 744.928 3642
-1109.39 746.565 3650
-1100.66 746.565 3650
-1091.93 746.565 3650
-1088.25 750.042 3667
-1088.9 756.587 3699
-1087.35 761.701 3724
-1078.45 761.701 3724
-1076.72 766.814 3749
-1077.44 773.768 3783
-1068.4 773.768 3783
-1059.35 773.768 3783
-1050.3 773.768 3783
-1043.73 775.609 3792
-1034.67 775.609 3792
-1025.6 775.609 3792
-1018.68 777.245 3800
-1009.59 777.245 3800
-1000.5 777.245 3800
-991.415 777.245 3800
-982.328 777.245 3800
-975.546 779.086 3809
-973.035 784.404 3835
-963.864 784.404 3835
-954.693 784.404 3835
-945.523 784.404 3835
-936.352 784.404 3835
-925.005 782.563 3826
-913.941 780.927 3818
-904.811 780.927 3818
-895.681 780.927 3818
-884.461 779.086 3809
-875.353 779.086 3809
-866.245 779.086 3809
-857.136 779.086 3809
-848.028 779.086 3809
-838.919 779.086 3809
-827.85 777.245 3800
-813.161 771.927 3774
-804.136 771.927 3774
-793.426 770.291 3766
-782.546 768.45 3757
-775.415 770.291 3766
-766.409 770.291 3766
-757.403 770.291 3766
-745.019 766.814 3749
-732.717 763.337 3732
-723.792 763.337 3732
-711.803 760.064 3716
-701.215 758.223 3707
-687.868 753.314 3683
-679.06 753.314 3683
-668.797 751.678 3675
-656.956 748.201 3658
-648.209 748.201 3658
-639.462 748.201 3658
-625.369 741.86 3627
-615.336 740.224 3619
-603.999 736.951 3603
-595.383 736.951 3603
-586.768 736.951 3603
-578.152 736.951 3603
-569.536 736.951 3603
-559.674 735.315 3595
-551.078 735.315 3595
-542.481 735.315 3595
-533.884 735.315 3595
-523.096 732.247 3580
-514.535 732.247 3580
-505.974 732.247 3580
-497.413 732.247 3580
-489.945 733.883 3588
-482.304 735.315 3595
-473.707 735.315 3595
-465.11 735.315 3595
-456.514 735.315 3595
-448.914 736.951 3603
-440.298 736.951 3603
-431.682 736.951 3603
-423.066 736.951 3603
-414.45 736.951 3603
-405.834 736.951 3603
-397.219 736.951 3603
-388.603 736.951 3603
-379.987 736.951 3603
-371.371 736.951 3603
-362.755 736.951 3603
-353.353 735.315 3595
-344.756 735.315 3595
-336.159 735.315 3595
-328.292 736.951 3603
-319.676 736.951 3603
-311.751 738.588 3611
-303.116 738.588 3611
-294.481 738.588 3611
-285.846 738.588 3611
-277.211 738.588 3611
-268.576 738.588 3611
-258.789 735.315 3595
-250.192 735.315 3595
-241.125 733.883 3588
-232.545 733.883 3588
-223.466 732.247 3580
-214.424 730.611 3572
-205.479 729.179 3565
-196.954 729.179 3565
-187.584 725.906 3549
-178.744 724.475 3542
-169.889 722.838 3534
-161.438 722.838 3534
-152.684 721.406 3527
-143.964 719.975 3520
-135.238 718.338 3512
-126.84 718.338 3512
-118.206 716.907 3505
-109.574 715.27 3497
-100.372 709.339 3468
-92.0788 709.339 3468
-83.6167 707.907 3461
-75.188 706.475 3454
-66.9285 706.475 3454
-58.9067 709.339 3468
-50.7304 710.975 3476
-42.4182 710.975 3476
-34.2434 713.839 3490
-25.8978 713.839 3490
-17.5521 713.839 3490
-5.65052 438.121 2142
-0.528349 438.121 2142
4.59382 438.121 2142
9.71599 438.121 2142
14.8382 438.121 2142
19.9603 438.121 2142
25.1411 439.144 2147
30.2752 439.144 2147
35.4093 439.144 2147
40.5434 439.144 2147
45.6137 438.53 2144
50.7407 438.53 2144
55.8676 438.53 2144
60.9377 438.121 2142
66.0599 438.121 2142
71.182 438.121 2142
76.3042 438.121 2142
81.5024 438.53 2144
86.7506 439.144 2147
92.3555 441.394 2158
97.5159 441.394 2158
102.819 442.007 2161
108.386 443.644 2169
113.887 444.871 2175
119.088 444.871 2175
125.09 447.734 2189
130.503 448.348 2192
136.859 452.03 2210
142.144 452.03 2210
147.962 453.666 2218
153.888 455.507 2227
159.643 456.734 2233
164.982 456.734 2233
171.237 459.188 2245
177.314 461.029 2254
182.947 461.643 2257
188.344 461.643 2257
194.085 462.461 2261
199.492 462.461 2261
205.442 463.688 2267
210.863 463.688 2267
216.57 464.302 2270
221.999 464.302 2270
227.427 464.302 2270
232.855 464.302 2270
237.969 463.688 2267
243.068 463.075 2264
247.713 461.643 2257
253.11 461.643 2257
257.82 460.416 2251
262.502 459.188 2245
899.636 770.291 3766
908.641 770.291 3766
917.647 770.291 3766
922.47 766.814 3749
927.211 763.337 3732
936.135 763.337 3732
941.008 760.064 3716
943.504 754.951 3691
943.815 748.201 3658
952.563 748.201 3658
961.31 748.201 3658
965.815 744.928 3642
972.651 743.497 3635
977.024 740.224 3619
985.678 740.224 3619
994.332 740.224 3619
1000.77 738.588 3611
1000.74 732.247 3580
1009.3 732.247 3580
1015.59 730.611 3572
1022.12 729.179 3565
1030.65 729.179 3565
1039.17 729.179 3565
1042.99 725.906 3549
1049.41 724.475 3542
1057.88 724.475 3542
1061.83 721.406 3527
1070.26 721.406 3527
1076.56 719.975 3520
1080.35 716.907 3505
1084.07 713.839 3490
1092.42 713.839 3490
1096.35 710.975 3476
1106.89 712.407 3483
1115.21 712.407 3483
1123.54 712.407 3483
1131.87 712.407 3483
1137.91 710.975 3476
1148.53 712.407 3483
1159.18 713.839 3490
1169.87 715.27 3497
1178.23 715.27 3497
1189.31 716.907 3505
1197.69 716.907 3505
1206.07 716.907 3505
1214.46 716.907 3505
1222.84 716.907 3505
1233.68 718.338 3512
1252.69 724.475 3542
1261.16 724.475 3542
1275 727.543 3557
1294.69 733.883 3588
1311.63 738.588 3611
1320.26 738.588 3611
1331.84 740.224 3619
1346.42 743.497 3635
1360.71 746.565 3650
1369.44 746.565 3650
1390.62 753.314 3683
1402.47 754.951 3691
1411.3 754.951 3691
1420.12 754.951 3691
1422.76 751.678 3675
1418.69 744.928 3642
1427.4 744.928 3642
1430.19 741.86 3627
1429.34 736.951 3603
1425.59 730.611 3572
1422.09 724.475 3542
1430.56 724.475 3542
1420.74 715.27 3497
1411.53 706.475 3454
1405.41 699.316 3419
1413.58 699.316 3419
1393.06 685.203 3350
1389.78 679.681 3323
1389.32 675.59 3303
1397.22 675.59 3303
1394.48 670.477 3278
1393.76 666.386 3258
1396.39 663.931 3246
1398.53 661.272 3233
1406.26 661.272 3233
1413.99 661.272 3233
1416.44 658.818 3221
1424.15 658.818 3221
1431.85 658.818 3221
1439.55 658.818 3221
1449.95 660.045 3227
1457.67 660.045 3227
1465.38 660.045 3227
1473.1 660.045 3227
1480.82 660.045 3227
1488.53 660.045 3227
1496.25 660.045 3227
1503.97 660.045 3227
1511.68 660.045 3227
1516.58 658.818 3221
1524.28 658.818 3221
1531.98 658.818 3221
1536.34 657.386 3214
1535.38 653.704 3196
1537.22 651.25 3184
1544.84 651.25 3184
1540.75 646.341 3160
1542.43 643.886 3148
1541.09 640.205 3130
1548.58 640.205 3130
1541.64 634.273 3101
1532.08 627.319 3067
1519.83 619.342 3028
1507.91 611.569 2990
1515.06 611.569 2990
1505.92 605.024 2958
1492.02 596.638 2917
1488.21 592.343 2896
1495.13 592.343 2896
1491.68 588.252 2876
1486.06 583.343 2852
1490.26 582.32 2847
1494.44 581.298 2842
1501.23 581.298 2842
1502.72 579.252 2832
1509.5 579.252 2832
1516.27 579.252 2832
1523.04 579.252 2832
1524.95 577.412 2823
1526.28 575.366 2813
1530.82 574.548 2809
1537.54 574.548 2809
1538.76 572.503 2799
1542.69 571.48 2794
1547.15 570.662 2790
1553.83 570.662 2790
1560.5 570.662 2790
1559.31 567.798 2776
1560.87 565.957 2767
1572.58 567.798 2776
1579.22 567.798 2776
1585.86 567.798 2776
1600.53 570.662 2790
1607.2 570.662 2790
1619.08 572.503 2799
1625.77 572.503 2799
1632.46 572.503 2799
2001.87 690.726 3377
2047.45 703.612 3440
2055.67 703.612 3440
2093.9 713.839 3490
2115.49 718.338 3512
2128.73 719.975 3520
2137.15 719.975 3520
2145.57 719.975 3520
2149.09 718.338 3512
2157.49 718.338 3512
2165.88 718.338 3512
2156.33 712.407 3483
2155.33 709.339 3468
2150.53 705.043 3447
2158.77 705.043 3447
1868.1 598.684 2927
1875.1 598.684 2927
1908.47 607.07 2968
1915.56 607.07 2968
1922.66 607.07 2968
1929.76 607.07 2968
1910.1 598.684 2927
1913.82 597.661 2922
1920.81 597.661 2922
1920.54 595.411 2911
1897.71 586.207 2866
1917.85 590.297 2886
2083.48 638.978 3124
2090.95 638.978 3124
2098.42 638.978 3124
2105.89 638.978 3124
2113.36 638.978 3124
2128.98 641.432 3136
2136.48 641.432 3136
2156.28 645.114 3154
2163.82 645.114 3154
2171.37 645.114 3154
2170.62 642.659 3142
2178.13 642.659 3142
2181.47 641.432 3136
2188.97 641.432 3136
2196.47 641.432 3136
2014.21 586.207 2866
2028.12 588.252 2876
2049.15 592.343 2896
2056.07 592.343 2896
2063 592.343 2896
2069.92 592.343 2896
2076.85 592.343 2896
2083.77 592.343 2896
2076.26 588.252 2876
2094 591.32 2891
2115.45 595.411 2911
2137.72 599.706 2932
2144.73 599.706 2932
2151.75 599.706 2932
2318.67 631.819 3089
2326.06 631.819 3089
2382.55 645.114 3154
2390.09 645.114 3154
2397.63 645.114 3154
2405.17 645.114 3154
-2430.36 671.707 3246
-2436.78 675.639 3265
-2428.97 675.639 3265
-2430.8 678.329 3278
-2437.01 682.261 3297
-2429.12 682.261 3297
-2421.24 682.261 3297
-2380.42 672.949 3252
-2368.26 671.707 3246
-2360.5 671.707 3246
-2352.74 671.707 3246
-2353.65 674.19 3258
-2360.25 678.329 3278
-2370.36 683.502 3303
-2362.46 683.502 3303
-2393.05 694.677 3357
-2385.03 694.677 3357
-2381.25 695.918 3363
-2373.21 695.918 3363
-2394.7 704.61 3405
-2386.56 704.61 3405
-2383.31 706.058 3412
-2375.15 706.058 3412
-2376.7 708.955 3426
-2373.35 710.404 3433
-2365.14 710.404 3433
-2371.35 714.749 3454
-2382.93 720.75 3483
-2384.14 723.647 3497
-2375.78 723.647 3497
-2367.42 723.647 3497
-2354.33 722.199 3490
-2345.99 722.199 3490
-2337.64 722.199 3490
-2329.3 722.199 3490
-2325.61 723.647 3497
-2322.54 725.303 3505
-2318.79 726.751 3512
-2310.39 726.751 3512
-2307.23 728.407 3520
-2298.81 728.407 3520
-2294.95 729.855 3527
-2286.52 729.855 3527
-2282.61 731.304 3534
-2274.15 731.304 3534
-2265.7 731.304 3534
-2257.25 731.304 3534
-2244.35 729.855 3527
-2235.91 729.855 3527
-2227.48 729.855 3527
-2209.61 726.751 3512
-2196.82 725.303 3505
-2183.45 723.647 3497
-2175.08 723.647 3497
-2166.72 723.647 3497
-2158.36 723.647 3497
-2150 723.647 3497
-2141.63 723.647 3497
-2133.27 723.647 3497
-2116.4 720.75 3483
-2103.84 719.302 3476
-2095.52 719.302 3476
-2069.8 713.301 3447
-2057.37 711.852 3440
-2032.46 706.058 3412
-2024.3 706.058 3412
-2012.01 704.61 3405
-1999.75 703.161 3398
-1983.42 700.264 3384
-1975.32 700.264 3384
-1963.16 698.815 3377
-1939.46 693.228 3350
-1927.41 691.78 3343
-1919.41 691.78 3343
-1903.99 689.09 3330
-1892.04 687.641 3323
-1888.06 689.09 3330
-1880.1 689.09 3330
-1872.14 689.09 3330
-1871.45 691.78 3343
-1867.36 693.228 3350
-1859.35 693.228 3350
-1851.34 693.228 3350
-1843.33 693.228 3350
-1842.44 695.918 3363
-1838.21 697.367 3370
-1830.15 697.367 3370
-1825.88 698.815 3377
-1825.34 701.712 3391
-1820.98 703.161 3398
-1812.86 703.161 3398
-1815.89 707.507 3419
-1811.41 708.955 3426
-1814.27 713.301 3447
-1806.03 713.301 3447
-1805.09 716.198 3461
-1804.6 719.302 3476
-1803.52 722.199 3490
-1795.18 722.199 3490
-1794.51 725.303 3505
-1793.77 728.407 3520
-1788.9 729.855 3527
-1780.47 729.855 3527
-1779.57 732.959 3542
-1774.6 734.408 3549
-1774.08 737.719 3565
-1765.55 737.719 3565
-1760.48 739.167 3572
-1755.86 740.823 3580
-1751.2 742.478 3588
-1742.62 742.478 3588
-1741.29 745.582 3603
-1740.37 748.893 3619
-1735.55 750.549 3627
-1726.87 750.549 3627
-1729.1 755.308 3650
-1728.38 758.826 3667
-1734.62 765.448 3699
-1725.77 765.448 3699
-1728.53 770.621 3724
-1746.87 782.831 3783
-1753.9 790.073 3818
-1744.77 790.073 3818
-1747.46 795.453 3844
-1746.41 799.178 3862
-1741.22 801.041 3871
-1731.96 801.041 3871
-1730.72 804.766 3889
-1721.42 804.766 3889
-1712.12 804.766 3889
-1702.82 804.766 3889
-1681.76 799.178 3862
-1649.57 788.211 3809
-1629.27 782.831 3783
-1620.22 782.831 3783
-1596.69 775.795 3749
-1566.55 765.448 3699
-1550.97 762.137 3683
-1542.16 762.137 3683
-1513.37 752.204 3635
-1494.74 747.238 3611
-1476.64 742.478 3588
-1468.06 742.478 3588
-1446.87 736.063 3557
-1432.3 732.959 3542
-1420.62 731.304 3534
-1412.17 731.304 3534
-1400.93 729.855 3527
-1392.5 729.855 3527
-1384.07 729.855 3527
-1375.63 729.855 3527
-1364.48 728.407 3520
-1364.54 732.959 3542
-1361.82 736.063 3557
-1362.06 740.823 3580
-1353.5 740.823 3580
-1347.94 742.478 3588
-1347.95 747.238 3611
-1342.28 748.893 3619
-1333.63 748.893 3619
-1330.83 752.204 3635
-1322.14 752.204 3635
-1315.98 753.653 3642
-1307.27 753.653 3642
-1301.41 755.308 3650
-1295.52 756.964 3658
-1286.77 756.964 3658
-1278.02 756.964 3658
-1269.27 756.964 3658
-1260.53 756.964 3658
-1246.3 753.653 3642
-1237.59 753.653 3642
-1226.52 752.204 3635
-1215.15 750.549 3627
-1206.48 750.549 3627
-1197.8 750.549 3627
-1186.51 748.893 3619
-1175.25 747.238 3611
-1166.62 747.238 3611
-1160.55 748.893 3619
-1151.89 748.893 3619
-1143.24 748.893 3619
-1139.6 752.204 3635
-1133.08 753.653 3642
-1124.38 753.653 3642
-1115.67 753.653 3642
-1109.39 755.308 3650
-1100.66 755.308 3650
-1091.93 755.308 3650
-1088.25 758.826 3667
-1088.9 765.448 3699
-1087.35 770.621 3724
-1078.45 770.621 3724
-1076.72 775.795 3749
-1077.44 782.831 3783
-1068.4 782.831 3783
-1059.35 782.831 3783
-1050.3 782.831 3783
-1043.73 784.693 3792
-1034.67 784.693 3792
-1025.6 784.693 3792
-1018.68 786.348 3800
-1009.59 786.348 3800
-1000.5 786.348 3800
-991.415 786.348 3800
-982.328 786.348 3800
-975.546 788.211 3809
-970.751 791.729 3826
-961.602 791.729 3826
-952.453 791.729 3826
-943.304 791.729 3826
-934.155 791.729 3826
-925.005 791.729 3826
-911.787 788.211 3809
-902.678 788.211 3809
-893.57 788.211 3809
-884.461 788.211 3809
-873.285 786.348 3800
-866.245 788.211 3809
-857.136 788.211 3809
-848.028 788.211 3809
-838.919 788.211 3809
-827.85 786.348 3800
-815.1 782.831 3783
-806.054 782.831 3783
-795.111 780.968 3774
-786.087 780.968 3774
-777.062 780.968 3774
-768.037 780.968 3774
-759.012 780.968 3774
-749.987 780.968 3774
-739.392 779.313 3766
-730.386 779.313 3766
-714.868 772.277 3732
-704.43 770.621 3724
-692.35 767.104 3707
-683.486 767.104 3707
-670.253 762.137 3683
-660.009 760.482 3675
-648.209 756.964 3658
-639.462 756.964 3658
-627.955 753.653 3642
-616.696 750.549 3627
-606.681 748.893 3619
-598.027 748.893 3619
-588.07 747.238 3611
-579.435 747.238 3611
-569.536 745.582 3603
-559.674 743.927 3595
-551.078 743.927 3595
-542.481 743.927 3595
-533.884 743.927 3595
-523.096 740.823 3580
-514.535 740.823 3580
-505.974 740.823 3580
-497.413 740.823 3580
-489.945 742.478 3588
-482.304 743.927 3595
-473.707 743.927 3595
-465.11 743.927 3595
-456.514 743.927 3595
-448.914 745.582 3603
-440.298 745.582 3603
-431.682 745.582 3603
-423.066 745.582 3603
-414.45 745.582 3603
-405.834 745.582 3603
-397.219 745.582 3603
-388.603 745.582 3603
-379.987 745.582 3603
-371.371 745.582 3603
-362.755 745.582 3603
-353.353 743.927 3595
-344.756 743.927 3595
-336.159 743.927 3595
-328.292 745.582 3603
-319.676 745.582 3603
-311.751 747.238 3611
-303.116 747.238 3611
-294.481 747.238 3611
-285.846 747.238 3611
-277.211 747.238 3611
-268.576 747.238 3611
-258.789 743.927 3595
-250.192 743.927 3595
-241.125 742.478 3588
-232.545 742.478 3588
-223.466 740.823 3580
-214.424 739.167 3572
-205.479 737.719 3565
-196.954 737.719 3565
-187.584 734.408 3549
-178.744 732.959 3542
-169.889 731.304 3534
-161.438 731.304 3534
-152.684 729.855 3527
-143.964 728.407 3520
-135.238 726.751 3512
-126.84 726.751 3512
-118.206 725.303 3505
