195.144 -23.1987 2098
199.97 -23.1766 2096
204.493 -23.1213 2091
209.193 -23.0881 2088
214.186 -23.0881 2088
218.864 -23.0549 2085
223.635 -23.0328 2083
227.738 -22.9443 2075
232.364 -22.9112 2072
237.662 -22.9443 2075
242.624 -22.9443 2075
247.586 -22.9443 2075
252.183 -22.9112 2072
257.137 -22.9112 2072
261.839 -22.8891 2070
266.145 -22.8338 2065
270.689 -22.8006 2062
275.62 -22.8006 2062
280.551 -22.8006 2062
423.366 -33.2389 3006
430.554 -33.2389 3006
437.742 -33.2389 3006
443.302 -33.1173 2995
446.403 -32.8187 2968
451.209 -32.6528 2953
458.27 -32.6528 2953
465.332 -32.6528 2953
472.393 -32.6528 2953
477.669 -32.5312 2942
483.057 -32.4206 2932
490.068 -32.4206 2932
496.231 -32.3653 2927
502.371 -32.3101 2922
507.441 -32.1884 2911
514.402 -32.1884 2911
521.363 -32.1884 2911
527.417 -32.1331 2906
534.366 -32.1331 2906
541.315 -32.1331 2906
548.264 -32.1331 2906
554.258 -32.0779 2901
561.195 -32.0779 2901
568.132 -32.0779 2901
575.07 -32.0779 2901
580 -31.9673 2891
586.914 -31.9673 2891
593.827 -31.9673 2891
600.74 -31.9673 2891
606.603 -31.912 2886
613.504 -31.912 2886
620.405 -31.912 2886
627.307 -31.912 2886
633.109 -31.8567 2881
639.998 -31.8567 2881
646.888 -31.8567 2881
653.777 -31.8567 2881
660.666 -31.8567 2881
667.556 -31.8567 2881
674.445 -31.8567 2881
681.334 -31.8567 2881
688.224 -31.8567 2881
693.907 -31.8014 2876
700.784 -31.8014 2876
707.662 -31.8014 2876
714.539 -31.8014 2876
722.671 -31.8567 2881
729.56 -31.8567 2881
736.449 -31.8567 2881
743.339 -31.8567 2881
750.228 -31.8567 2881
755.803 -31.8014 2876
762.681 -31.8014 2876
770.896 -31.8567 2881
777.785 -31.8567 2881
784.675 -31.8567 2881
791.564 -31.8567 2881
799.839 -31.912 2886
806.74 -31.912 2886
813.642 -31.912 2886
820.543 -31.912 2886
827.444 -31.912 2886
834.346 -31.912 2886
842.704 -31.9673 2891
851.087 -32.0226 2896
858.012 -32.0226 2896
864.937 -32.0226 2896
871.863 -32.0226 2896
878.788 -32.0226 2896
887.242 -32.0779 2901
894.179 -32.0779 2901
907.64 -32.3101 2922
920.887 -32.5312 2942
938.016 -32.8851 2974
945.127 -32.8851 2974
957.362 -33.062 2990
974.835 -33.4158 3022
987.586 -33.6038 3039
994.853 -33.6038 3039
1005.75 -33.7254 3050
1018.69 -33.9134 3067
1031.71 -34.1014 3084
1039.08 -34.1014 3084
1070.21 -34.8754 3154
1104.75 -35.749 3233
1125.55 -36.1691 3271
1133.38 -36.1691 3271
1152.36 -36.523 3303
1181.34 -37.1864 3363
1211.66 -37.883 3426
1219.85 -37.883 3426
1233.06 -38.0379 3440
1241.29 -38.0379 3440
1249.52 -38.0379 3440
1257.74 -38.0379 3440
1263.39 -37.9605 3433
1266.42 -37.8056 3419
1287.64 -38.1927 3454
1295.9 -38.1927 3454
1306.8 -38.2701 3461
1315.08 -38.2701 3461
1323.35 -38.2701 3461
1328.94 -38.1927 3454
1334.49 -38.1153 3447
1340 -38.0379 3440
1337.26 -37.7282 3412
1345.41 -37.7282 3412
1348.02 -37.5734 3398
1334.19 -36.9653 3343
1339.78 -36.8989 3337
1347.76 -36.8989 3337
1355.74 -36.8989 3337
1360.86 -36.8215 3330
1368.82 -36.8215 3330
1376.78 -36.8215 3330
1379.34 -36.6778 3317
1384.35 -36.6004 3310
1389.32 -36.523 3303
1397.22 -36.523 3303
1405.11 -36.523 3303
1407.45 -36.3792 3290
1410.16 -36.2465 3278
1417.99 -36.2465 3278
1425.83 -36.2465 3278
1433.67 -36.2465 3278
1438.43 -36.1691 3271
1446.25 -36.1691 3271
1454.08 -36.1691 3271
1461.9 -36.1691 3271
1478.26 -36.3792 3290
1486.12 -36.3792 3290
1493.99 -36.3792 3290
1501.86 -36.3792 3290
1509.73 -36.3792 3290
1514.83 -36.3129 3284
1531.49 -36.523 3303
1539.39 -36.523 3303
1547.29 -36.523 3303
1564.6 -36.7441 3323
1582.01 -36.9653 3343
1599.52 -37.1864 3363
1607.56 -37.1864 3363
1625.69 -37.4186 3384
1633.78 -37.4186 3384
1641.88 -37.4186 3384
1646.55 -37.3412 3377
1661.49 -37.496 3391
1669.6 -37.496 3391
1677.71 -37.496 3391
1685.82 -37.496 3391
1676.94 -37.1201 3357
1671.42 -36.8215 3330
1679.38 -36.8215 3330
1687.34 -36.8215 3330
1698.87 -36.8989 3337
1706.85 -36.8989 3337
1714.83 -36.8989 3337
1722.81 -36.8989 3337
1730.79 -36.8989 3337
1721.05 -36.523 3303
1722.15 -36.3792 3290
1730.01 -36.3792 3290
1737.88 -36.3792 3290
1745.75 -36.3792 3290
1753.62 -36.3792 3290
1761.48 -36.3792 3290
1766.12 -36.3129 3284
1763.71 -36.1028 3265
1761.21 -35.8927 3246
1768.97 -35.8927 3246
1763.05 -35.6163 3221
1753.71 -35.2735 3190
1751.4 -35.0744 3172
1755.66 -35.0081 3166
1763.23 -35.0081 3166
1757.38 -34.7427 3142
1748.04 -34.411 3112
1730.1 -33.9134 3067
1737.43 -33.9134 3067
1700.96 -33.062 2990
1669.26 -32.3101 2922
1661.34 -32.0226 2896
1659.62 -31.8567 2881
1666.51 -31.8567 2881
1662.36 -31.6466 2862
1654.63 -31.3702 2837
1653.21 -31.2154 2823
1659.96 -31.2154 2823
1660.81 -31.1048 2813
1662.2 -31.0053 2804
1654.62 -30.7399 2780
1661.27 -30.7399 2780
1665.52 -30.6957 2776
1672.16 -30.6957 2776
1675.77 -30.6404 2771
1682.4 -30.6404 2771
1689.02 -30.6404 2771
1693.2 -30.5961 2767
1696.75 -30.5409 2762
1700.27 -30.4856 2757
1706.86 -30.4856 2757
1710.97 -30.4413 2753
1714.43 -30.3861 2748
1721 -30.3861 2748
1727.57 -30.3861 2748
1731.62 -30.3418 2744
1735.02 -30.2865 2739
1741.57 -30.2865 2739
1748.12 -30.2865 2739
1752.1 -30.2423 2735
1755.43 -30.187 2730
1761.96 -30.187 2730
1765.89 -30.1428 2726
1772.41 -30.1428 2726
1775.67 -30.0875 2721
1776.93 -29.999 2713
1780.14 -29.9438 2708
1786.61 -29.9438 2708
1784.48 -29.8 2695
1788.27 -29.7558 2691
1791.37 -29.7005 2686
1797.79 -29.7005 2686
1795.48 -29.5567 2673
1801.87 -29.5567 2673
1808.26 -29.5567 2673
1814.66 -29.5567 2673
1821.05 -29.5567 2673
1827.44 -29.5567 2673
1833.83 -29.5567 2673
1840.22 -29.5567 2673
1846.62 -29.5567 2673
1850.23 -29.5125 2669
1853.83 -29.4683 2665
1860.21 -29.4683 2665
1866.58 -29.4683 2665
1870.14 -29.4241 2661
1872.98 -29.3688 2656
1876.5 -29.3245 2652
1882.84 -29.3245 2652
1889.18 -29.3245 2652
1892.67 -29.2803 2648
1899 -29.2803 2648
1902.45 -29.2361 2644
1908.77 -29.2361 2644
1915.1 -29.2361 2644
1921.42 -29.2361 2644
1921.18 -29.1366 2635
1927.48 -29.1366 2635
1933.78 -29.1366 2635
1937.14 -29.0923 2631
1940.48 -29.0481 2627
1946.76 -29.0481 2627
1953.04 -29.0481 2627
1959.32 -29.0481 2627
1965.6 -29.0481 2627
1971.89 -29.0481 2627
1978.17 -29.0481 2627
1984.45 -29.0481 2627
1987.7 -29.0039 2623
1990.93 -28.9596 2619
1997.19 -28.9596 2619
2003.46 -28.9596 2619
-2074.72 -24.0024 2771
-2068.09 -24.0024 2771
-2061.46 -24.0024 2771
-2054.84 -24.0024 2771
-2048.21 -24.0024 2771
-2041.58 -24.0024 2771
-2034.96 -24.0024 2771
-2018.08 -23.8812 2757
-2004.92 -23.8032 2748
-1988.9 -23.6906 2735
-1982.36 -23.6906 2735
-1965.71 -23.5693 2721
-1946.96 -23.4221 2704
-1940.49 -23.4221 2704
-1934.03 -23.4221 2704
-1927.56 -23.4221 2704
-1914.7 -23.3441 2695
-1899.05 -23.2315 2682
-1892.64 -23.2315 2682
-1856.68 -22.8677 2640
-2310.41 -29.2516 3377
-2302.33 -29.2516 3377
-2294.26 -29.2516 3377
-2286.18 -29.2516 3377
-2301.72 -29.5548 3412
-2331.2 -30.0398 3468
-2337.64 -30.2304 3490
-2329.3 -30.2304 3490
-2325.61 -30.291 3497
-2337.12 -30.5509 3527
-2338.59 -30.6808 3542
-2330.12 -30.6808 3542
-2321.65 -30.6808 3542
-2313.18 -30.6808 3542
-2304.71 -30.6808 3542
-2296.24 -30.6808 3542
-2287.77 -30.6808 3542
-2279.3 -30.6808 3542
-2280.45 -30.8108 3557
-2271.94 -30.8108 3557
-2263.44 -30.8108 3557
-2254.93 -30.8108 3557
-2255.9 -30.9407 3572
-2247.36 -30.9407 3572
-2243.83 -31.01 3580
-2235.27 -31.01 3580
-2226.71 -31.01 3580
-2218.15 -31.01 3580
-2204.65 -30.9407 3572
-2196.11 -30.9407 3572
-2192.46 -31.01 3580
-2183.9 -31.01 3580
-2180.2 -31.0793 3588
-2180.7 -31.2092 3603
-2181.73 -31.3478 3619
-2173.08 -31.3478 3619
-2164.42 -31.3478 3619
-2155.77 -31.3478 3619
-2165.51 -31.6163 3650
-2156.78 -31.6163 3650
-2158.06 -31.7636 3667
-2149.29 -31.7636 3667
-2140.52 -31.7636 3667
-2126.52 -31.6856 3658
-2117.77 -31.6856 3658
-2109.02 -31.6856 3658
-2100.28 -31.6856 3658
-2086.95 -31.6163 3650
-2069.68 -31.4864 3635
-2056.46 -31.4171 3627
-2047.78 -31.4171 3627
-2039.11 -31.4171 3627
-2030.44 -31.4171 3627
-2021.76 -31.4171 3627
-2013.09 -31.4171 3627
-2000 -31.3478 3619
-1991.34 -31.3478 3619
-1982.69 -31.3478 3619
-1974.03 -31.3478 3619
-1965.38 -31.3478 3619
-1956.73 -31.3478 3619
-1939.46 -31.2092 3603
-1930.84 -31.2092 3603
-1917.96 -31.1399 3595
-1909.36 -31.1399 3595
-1900.77 -31.1399 3595
-1892.17 -31.1399 3595
-1875.71 -31.01 3580
-1862.98 -30.9407 3572
-1854.44 -30.9407 3572
-1850.03 -31.01 3580
-1841.47 -31.01 3580
-1832.91 -31.01 3580
-1824.35 -31.01 3580
-1815.79 -31.01 3580
-1807.23 -31.01 3580
-1791.13 -30.8801 3565
-1782.6 -30.8801 3565
-1774.08 -30.8801 3565
-1765.55 -30.8801 3565
-1757.03 -30.8801 3565
-1748.5 -30.8801 3565
-1739.98 -30.8801 3565
-1731.45 -30.8801 3565
-1722.93 -30.8801 3565
-1714.4 -30.8801 3565
-1705.88 -30.8801 3565
-1697.35 -30.8801 3565
-1688.83 -30.8801 3565
-1683.6 -30.9407 3572
-1675.06 -30.9407 3572
-1666.52 -30.9407 3572
-1657.98 -30.9407 3572
-1649.44 -30.9407 3572
-1640.89 -30.9407 3572
-1632.35 -30.9407 3572
-1623.81 -30.9407 3572
-1618.89 -31.01 3580
-1610.33 -31.01 3580
-1601.76 -31.01 3580
-1593.2 -31.01 3580
-1584.64 -31.01 3580
-1572.56 -30.9407 3572
-1564.02 -30.9407 3572
-1548.94 -30.8108 3557
-1536.97 -30.7415 3549
-1528.49 -30.7415 3549
-1520 -30.7415 3549
-1502.14 -30.5509 3527
-1487.36 -30.421 3512
-1476.01 -30.3603 3505
-1467.63 -30.3603 3505
-1453 -30.2304 3490
-1438.86 -30.1091 3476
-1424.38 -29.9792 3461
-1416.1 -29.9792 3461
-1399.28 -29.7973 3440
-1388.23 -29.7367 3433
-1351.88 -29.1303 3363
-1309.87 -28.3941 3278
-1302.03 -28.3941 3278
-1266.56 -27.7877 3208
-1240.05 -27.3719 3160
-1220.79 -27.1121 3130
-1213.31 -27.1121 3130
-1190.03 -26.7569 3089
-1178.43 -26.6617 3078
-1153.95 -26.2719 3033
-1146.69 -26.2719 3033
-1131.18 -26.0813 3011
-1119.87 -25.986 3000
-1110.84 -25.9427 2995
-1105.52 -25.986 3000
-1098.35 -25.986 3000
-1091.17 -25.986 3000
-1084 -25.986 3000
-1073.24 -25.8994 2990
-1066.09 -25.8994 2990
-1055.04 -25.8041 2979
-1047.92 -25.8041 2979
-1040.79 -25.8041 2979
-1033.67 -25.8041 2979
-1022.76 -25.7088 2968
-1013.95 -25.6655 2963
-1003.46 -25.5789 2953
-996.402 -25.5789 2953
-989.341 -25.5789 2953
-980.284 -25.5269 2947
-971.585 -25.4836 2942
-964.55 -25.4836 2942
-954.26 -25.397 2932
-947.249 -25.397 2932
-940.237 -25.397 2932
-933.226 -25.397 2932
-926.215 -25.397 2932
-919.204 -25.397 2932
-910.637 -25.3537 2927
-903.637 -25.3537 2927
-893.575 -25.2671 2917
-886.599 -25.2671 2917
-879.624 -25.2671 2917
-872.648 -25.2671 2917
-865.673 -25.2671 2917
-858.698 -25.2671 2917
-851.722 -25.2671 2917
-844.747 -25.2671 2917
-837.771 -25.2671 2917
-830.796 -25.2671 2917
-823.82 -25.2671 2917
-816.845 -25.2671 2917
-809.87 -25.2671 2917
-802.894 -25.2671 2917
-795.919 -25.2671 2917
-787.32 -25.2151 2911
-780.359 -25.2151 2911
-772.07 -25.1718 2906
-763.804 -25.1285 2901
-756.867 -25.1285 2901
-749.93 -25.1285 2901
-742.993 -25.1285 2901
-736.056 -25.1285 2901
-727.862 -25.0852 2896
-720.937 -25.0852 2896
-712.779 -25.0419 2891
-705.865 -25.0419 2891
-697.743 -24.9986 2886
-690.842 -24.9986 2886
-682.756 -24.9552 2881
-674.693 -24.9119 2876
-666.655 -24.8686 2871
-660.939 -24.9119 2876
-654.061 -24.9119 2876
-648.309 -24.9552 2881
-641.42 -24.9552 2881
-634.53 -24.9552 2881
-627.641 -24.9552 2881
-623.984 -25.0852 2896
-618.124 -25.1285 2901
-613.293 -25.2151 2911
-606.332 -25.2151 2911
-603.695 -25.397 2932
-607.266 -25.8474 2984
-613.404 -26.4191 3050
-606.111 -26.4191 3050
-610.99 -26.9562 3112
-618.676 -27.6318 3190
-621.774 -28.1169 3246
-614.012 -28.1169 3246
-612.227 -28.3941 3278
-606.6 -28.498 3290
-606.012 -28.8445 3330
-598.049 -28.8445 3330
-591.327 -28.9051 3337
-584.396 -28.9571 3343
-579.85 -29.1303 3363
-571.808 -29.1303 3363
-567.287 -29.3122 3384
-561.508 -29.4335 3398
-554.522 -29.4941 3405
-546.38 -29.4941 3405
-539.344 -29.5548 3412
-532.275 -29.6154 3419
-526.245 -29.7367 3433
-518.035 -29.7367 3433
-509.826 -29.7367 3433
-501.617 -29.7367 3433
-495.42 -29.8579 3447
-487.177 -29.8579 3447
-478.934 -29.8579 3447
-470.691 -29.8579 3447
-463.387 -29.9186 3454
-455.128 -29.9186 3454
-447.774 -29.9792 3461
-440.387 -30.0398 3468
-432.093 -30.0398 3468
-423.8 -30.0398 3468
-415.507 -30.0398 3468
-404.749 -29.8579 3447
-396.506 -29.8579 3447
-388.263 -29.8579 3447
-260.843 -20.4943 2366
-255.186 -20.4943 2366
-249.528 -20.4943 2366
-243.87 -20.4943 2366
-238.917 -20.5549 2373
-233.93 -20.6156 2380
-228.239 -20.6156 2380
-223.763 -20.7282 2393
-218.679 -20.7888 2400
-212.94 -20.7888 2400
-207.201 -20.7888 2400
-201.461 -20.7888 2400
-195.151 -20.7282 2393
-189.429 -20.7282 2393
-182.939 -20.6416 2383
-176.274 -20.529 2370
-170.102 -20.4683 2363
-163.06 -20.2951 2343
-157.457 -20.2951 2343
-150.817 -20.1565 2327
-144.441 -20.0439 2314
-137.767 -19.8793 2295
-132.279 -19.8793 2295
-125.907 -19.7407 2279
-119.136 -19.5242 2254
-112.232 -19.2643 2224
-106.481 -19.1863 2215
-101.184 -19.1863 2215
-95.6712 -19.143 2210
-90.0183 -19.0651 2201
-84.4085 -18.9871 2192
-79.1667 -18.9871 2192
-73.8238 -18.9611 2189
-68.1506 -18.8399 2175
-62.718 -18.7706 2167
-57.536 -18.7706 2167
-52.1366 -18.6926 2158
-46.9109 -18.6666 2155
-41.6026 -18.5973 2147
-36.4685 -18.5973 2147
-31.2906 -18.5713 2144
-26.066 -18.502 2136
-20.9287 -18.4761 2133
-15.8281 -18.4761 2133
-10.7174 -18.4587 2131
-5.60567 -18.4068 2125
-0.524156 -18.4068 2125
4.55093 -18.3808 2122
9.62527 -18.3808 2122
14.6858 -18.3635 2120
19.7553 -18.3635 2120
24.7898 -18.3375 2117
29.8521 -18.3375 2117
34.9145 -18.3375 2117
39.9203 -18.3115 2114
44.9755 -18.3115 2114
50.0307 -18.3115 2114
55.0338 -18.2942 2112
59.9989 -18.2682 2109
65.0421 -18.2682 2109
70.0854 -18.2682 2109
75.1287 -18.2682 2109
80.1719 -18.2682 2109
85.094 -18.2422 2106
90.1301 -18.2422 2106
95.1661 -18.2422 2106
100.107 -18.2249 2104
105.138 -18.2249 2104
110.17 -18.2249 2104
115.037 -18.1989 2101
120.061 -18.1989 2101
125.085 -18.1989 2101
129.923 -18.1729 2098
134.94 -18.1729 2098
139.957 -18.1729 2098
145.181 -18.1989 2101
150.206 -18.1989 2101
155.451 -18.2249 2104
160.483 -18.2249 2104
165.514 -18.2249 2104
170.302 -18.1989 2101
175.326 -18.1989 2101
180.35 -18.1989 2101
185.374 -18.1989 2101
190.127 -18.1729 2098
195.144 -18.1729 2098
199.684 -18.1296 2093
204.2 -18.0863 2088
209.193 -18.0863 2088
214.186 -18.0863 2088
218.654 -18.043 2083
223.313 -18.017 2080
227.409 -17.9477 2072
232.364 -17.9477 2072
237.318 -17.9477 2072
242.273 -17.9477 2072
247.228 -17.9477 2072
251.939 -17.9304 2070
256.889 -17.9304 2070
261.839 -17.9304 2070
266.145 -17.887 2065
270.427 -17.8437 2060
275.353 -17.8437 2060
423.366 -26.038 3006
430.554 -26.038 3006
437.742 -26.038 3006
443.302 -25.9427 2995
446.403 -25.7088 2968
451.209 -25.5789 2953
458.27 -25.5789 2953
465.332 -25.5789 2953
472.393 -25.5789 2953
477.669 -25.4836 2942
483.057 -25.397 2932
490.068 -25.397 2932
496.231 -25.3537 2927
502.371 -25.3104 2922
507.441 -25.2151 2911
514.402 -25.2151 2911
521.363 -25.2151 2911
527.417 -25.1718 2906
534.366 -25.1718 2906
541.315 -25.1718 2906
548.264 -25.1718 2906
554.258 -25.1285 2901
561.195 -25.1285 2901
568.132 -25.1285 2901
575.07 -25.1285 2901
580 -25.0419 2891
586.914 -25.0419 2891
593.827 -25.0419 2891
600.74 -25.0419 2891
606.603 -24.9986 2886
613.504 -24.9986 2886
620.405 -24.9986 2886
627.307 -24.9986 2886
633.109 -24.9552 2881
639.998 -24.9552 2881
646.888 -24.9552 2881
653.777 -24.9552 2881
660.666 -24.9552 2881
667.556 -24.9552 2881
674.445 -24.9552 2881
681.334 -24.9552 2881
688.224 -24.9552 2881
693.907 -24.9119 2876
700.784 -24.9119 2876
707.662 -24.9119 2876
714.539 -24.9119 2876
722.671 -24.9552 2881
729.56 -24.9552 2881
736.449 -24.9552 2881
743.339 -24.9552 2881
750.228 -24.9552 2881
755.803 -24.9119 2876
762.681 -24.9119 2876
770.896 -24.9552 2881
777.785 -24.9552 2881
784.675 -24.9552 2881
791.564 -24.9552 2881
799.839 -24.9986 2886
806.74 -24.9986 2886
813.642 -24.9986 2886
820.543 -24.9986 2886
827.444 -24.9986 2886
834.346 -24.9986 2886
842.704 -25.0419 2891
851.087 -25.0852 2896
858.012 -25.0852 2896
864.937 -25.0852 2896
871.863 -25.0852 2896
878.788 -25.0852 2896
887.242 -25.1285 2901
894.179 -25.1285 2901
907.64 -25.3104 2922
920.887 -25.4836 2942
938.016 -25.7608 2974
945.127 -25.7608 2974
957.362 -25.8994 2990
974.835 -26.1766 3022
987.586 -26.3238 3039
994.853 -26.3238 3039
1005.75 -26.4191 3050
1018.69 -26.5664 3067
1031.71 -26.7136 3084
1039.08 -26.7136 3084
1070.21 -27.32 3154
1104.75 -28.0043 3233
1121.08 -28.2208 3258
1128.87 -28.2208 3258
1150.27 -28.5586 3297
1179.23 -29.0784 3357
1204.23 -29.4941 3405
1212.38 -29.4941 3405
1230.55 -29.7367 3433
1238.76 -29.7367 3433
1246.97 -29.7367 3433
1255.18 -29.7367 3433
1263.39 -29.7367 3433
1258.64 -29.4335 3398
1285.03 -29.8579 3447
1293.27 -29.8579 3447
1304.16 -29.9186 3454
1312.42 -29.9186 3454
1320.68 -29.9186 3454
1328.94 -29.9186 3454
1334.49 -29.8579 3447
1340 -29.7973 3440
1337.26 -29.5548 3412
1345.41 -29.5548 3412
1342.47 -29.3122 3384
1331.8 -28.9051 3337
1339.78 -28.9051 3337
1347.76 -28.9051 3337
1355.74 -28.9051 3337
1360.86 -28.8445 3330
1368.82 -28.8445 3330
1376.78 -28.8445 3330
1379.34 -28.7319 3317
1384.35 -28.6712 3310
1389.32 -28.6106 3303
1397.22 -28.6106 3303
1405.11 -28.6106 3303
1407.45 -28.498 3290
1410.16 -28.3941 3278
1417.99 -28.3941 3278
1425.83 -28.3941 3278
1433.67 -28.3941 3278
1438.43 -28.3334 3271
1443.6 -28.2815 3265
1454.08 -28.3334 3271
1461.9 -28.3334 3271
1478.26 -28.498 3290
1486.12 -28.498 3290
1493.99 -28.498 3290
1501.86 -28.498 3290
1509.73 -28.498 3290
1514.83 -28.446 3284
1531.49 -28.6106 3303
1539.39 -28.6106 3303
1547.29 -28.6106 3303
1564.6 -28.7838 3323
1575.86 -28.8445 3330
1596.67 -29.0784 3357
1604.69 -29.0784 3357
1618.97 -29.191 3370
1627.02 -29.191 3370
1638.48 -29.2516 3377
1646.55 -29.2516 3377
1661.49 -29.3729 3391
1669.6 -29.3729 3391
1677.71 -29.3729 3391
1685.82 -29.3729 3391
1673.44 -29.0177 3350
1671.42 -28.8445 3330
1679.38 -28.8445 3330
1680.76 -28.7319 3317
1698.87 -28.9051 3337
1706.85 -28.9051 3337
1714.83 -28.9051 3337
1722.81 -28.9051 3337
1730.79 -28.9051 3337
1721.05 -28.6106 3303
1722.15 -28.498 3290
1730.01 -28.498 3290
1737.88 -28.498 3290
1745.75 -28.498 3290
1753.62 -28.498 3290
1761.48 -28.498 3290
1766.12 -28.446 3284
1763.71 -28.2815 3265
1761.21 -28.1169 3246
1768.97 -28.1169 3246
1763.05 -27.9003 3221
1753.71 -27.6318 3190
1751.4 -27.4759 3172
1755.66 -27.4239 3166
1763.23 -27.4239 3166
1757.38 -27.216 3142
1748.04 -26.9562 3112
1730.1 -26.5664 3067
1737.43 -26.5664 3067
1700.96 -25.8994 2990
1669.26 -25.3104 2922
1661.34 -25.0852 2896
1659.62 -24.9552 2881
1666.51 -24.9552 2881
1662.36 -24.7907 2862
1654.63 -24.5741 2837
1653.21 -24.4528 2823
1659.96 -24.4528 2823
1660.81 -24.3662 2813
1662.2 -24.2883 2804
1654.62 -24.0804 2780
1661.27 -24.0804 2780
1665.52 -24.0457 2776
1672.16 -24.0457 2776
1675.77 -24.0024 2771
1682.4 -24.0024 2771
1689.02 -24.0024 2771
1693.2 -23.9678 2767
1696.75 -23.9245 2762
1700.27 -23.8812 2757
1706.86 -23.8812 2757
1710.97 -23.8465 2753
1714.43 -23.8032 2748
1721 -23.8032 2748
1727.57 -23.8032 2748
1731.62 -23.7685 2744
1735.02 -23.7252 2739
1741.57 -23.7252 2739
1748.12 -23.7252 2739
1752.1 -23.6906 2735
1755.43 -23.6473 2730
1759.37 -23.6126 2726
1765.89 -23.6126 2726
1772.41 -23.6126 2726
1775.67 -23.5693 2721
1776.93 -23.5 2713
1780.14 -23.4567 2708
1786.61 -23.4567 2708
1784.48 -23.3441 2695
1788.27 -23.3095 2691
1791.37 -23.2662 2686
1797.79 -23.2662 2686
1795.48 -23.1535 2673
1801.87 -23.1535 2673
1808.26 -23.1535 2673
1814.66 -23.1535 2673
1821.05 -23.1535 2673
1827.44 -23.1535 2673
1833.83 -23.1535 2673
1840.22 -23.1535 2673
1846.62 -23.1535 2673
1850.23 -23.1189 2669
1853.83 -23.0842 2665
1860.21 -23.0842 2665
1866.58 -23.0842 2665
1870.14 -23.0496 2661
1872.98 -23.0063 2656
1876.5 -22.9716 2652
1882.84 -22.9716 2652
1889.18 -22.9716 2652
1892.67 -22.937 2648
1899 -22.937 2648
1902.45 -22.9023 2644
1908.77 -22.9023 2644
1915.1 -22.9023 2644
1921.42 -22.9023 2644
1921.18 -22.8244 2635
1927.48 -22.8244 2635
1933.78 -22.8244 2635
1937.14 -22.7897 2631
1940.48 -22.7551 2627
1946.76 -22.7551 2627
1953.04 -22.7551 2627
1959.32 -22.7551 2627
1965.6 -22.7551 2627
1971.89 -22.7551 2627
1978.17 -22.7551 2627
1984.45 -22.7551 2627
1987.7 -22.7204 2623
1990.93 -22.6858 2619
1997.19 -22.6858 2619
2003.46 -22.6858 2619
-2078.46 -17.3958 2776
-2071.82 -17.3958 2776
-2068.16 -17.4209 2780
-2061.51 -17.4209 2780
-2054.86 -17.4209 2780
-2048.22 -17.4209 2780
-2041.57 -17.4209 2780
-2025.4 -17.3394 2767
-2011.49 -17.2767 2757
-1988.9 -17.1389 2735
-1982.36 -17.1389 2735
-1965.71 -17.0511 2721
-1953.44 -17.001 2713
-1946.95 -17.001 2713
-1940.46 -17.001 2713
-1930.41 -16.9697 2708
-1917.54 -16.9133 2699
-1872.14 -16.5686 2644
-1865.82 -16.5686 2644
-2300.83 -21.0742 3363
-2297.56 -21.1181 3370
-2294.26 -21.162 3377
-2286.18 -21.162 3377
-2282.83 -21.2058 3384
-2331.2 -21.7322 3468
-2342.33 -21.9139 3497
-2333.97 -21.9139 3497
-2340.9 -22.0581 3520
-2347.06 -22.1959 3542
-2338.59 -22.1959 3542
-2330.12 -22.1959 3542
-2321.65 -22.1959 3542
-2317.75 -22.2398 3549
-2309.27 -22.2398 3549
-2300.78 -22.2398 3549
-2297.46 -22.2899 3557
-2288.96 -22.2899 3557
-2285.58 -22.3401 3565
-2277.05 -22.3401 3565
-2268.53 -22.3401 3565
-2269.51 -22.4341 3580
-2260.95 -22.4341 3580
-2252.39 -22.4341 3580
-2253.23 -22.5281 3595
-2244.63 -22.5281 3595
-2236.04 -22.5281 3595
-2223.1 -22.4842 3588
-2214.52 -22.4842 3588
-2201.03 -22.4341 3580
-2192.46 -22.4341 3580
-2183.9 -22.4341 3580
-2184.46 -22.5281 3595
-2180.7 -22.5782 3603
-2181.73 -22.6785 3619
-2173.08 -22.6785 3619
-2164.42 -22.6785 3619
-2160.54 -22.7286 3627
-2165.51 -22.8727 3650
-2156.78 -22.8727 3650
-2158.06 -22.9792 3667
-2149.29 -22.9792 3667
-2140.52 -22.9792 3667
-2126.52 -22.9229 3658
-2117.77 -22.9229 3658
-2109.02 -22.9229 3658
-2100.28 -22.9229 3658
-2086.95 -22.8727 3650
-2078.23 -22.8727 3650
-2074.03 -22.9229 3658
-2070.37 -22.9792 3667
-2061.6 -22.9792 3667
-2052.83 -22.9792 3667
-2034.58 -22.8727 3650
-2025.86 -22.8727 3650
-2012.71 -22.8226 3642
-1995.74 -22.7286 3627
-1987.07 -22.7286 3627
-1978.4 -22.7286 3627
-1965.38 -22.6785 3619
-1956.73 -22.6785 3619
-1939.46 -22.5782 3603
-1930.84 -22.5782 3603
-1922.23 -22.5782 3603
-1913.61 -22.5782 3603
-1900.77 -22.5281 3595
-1892.17 -22.5281 3595
-1883.57 -22.5281 3595
-1867.15 -22.4341 3580
-1854.44 -22.3839 3572
-1850.03 -22.4341 3580
-1841.47 -22.4341 3580
-1832.91 -22.4341 3580
-1824.35 -22.4341 3580
-1815.79 -22.4341 3580
-1807.23 -22.4341 3580
-1791.13 -22.3401 3565
-1782.6 -22.3401 3565
-1774.08 -22.3401 3565
-1765.55 -22.3401 3565
-1757.03 -22.3401 3565
-1748.5 -22.3401 3565
-1739.98 -22.3401 3565
-1731.45 -22.3401 3565
-1722.93 -22.3401 3565
-1714.4 -22.3401 3565
-1705.88 -22.3401 3565
-1697.35 -22.3401 3565
-1688.83 -22.3401 3565
-1683.6 -22.3839 3572
-1675.06 -22.3839 3572
-1670.25 -22.4341 3580
-1661.69 -22.4341 3580
-1653.13 -22.4341 3580
-1644.57 -22.4341 3580
-1636.01 -22.4341 3580
-1627.45 -22.4341 3580
-1622.5 -22.4842 3588
-1613.92 -22.4842 3588
-1605.34 -22.4842 3588
-1596.76 -22.4842 3588
-1588.18 -22.4842 3588
-1576.08 -22.4341 3580
-1567.52 -22.4341 3580
-1548.94 -22.2899 3557
-1536.97 -22.2398 3549
-1528.49 -22.2398 3549
-1520 -22.2398 3549
-1502.14 -22.1019 3527
-1487.36 -22.0079 3512
-1469.69 -21.8701 3490
-1461.35 -21.8701 3490
-1450.09 -21.8262 3483
-1435.55 -21.7322 3468
-1424.38 -21.6884 3461
-1416.1 -21.6884 3461
-1396.44 -21.5129 3433
-1388.23 -21.5129 3433
-1354.69 -21.1181 3370
-1309.87 -20.5416 3278
-1302.03 -20.5416 3278
-1268.92 -20.1405 3214
-1247.11 -19.9149 3178
-1227.81 -19.7269 3148
-1220.28 -19.7269 3148
-1194.65 -19.4324 3101
-1180.73 -19.3259 3084
-1156.23 -19.0439 3039
-1148.96 -19.0439 3039
-1135.31 -18.9374 3022
-1122.11 -18.8371 3006
-1112.7 -18.7995 3000
-1107.73 -18.8371 3006
-1100.54 -18.8371 3006
-1093.36 -18.8371 3006
-1086.17 -18.8371 3006
-1073.24 -18.7368 2990
-1066.09 -18.7368 2990
-1058.94 -18.7368 2990
-1051.79 -18.7368 2990
-1044.64 -18.7368 2990
-1037.49 -18.7368 2990
-1024.82 -18.6366 2974
-1015.66 -18.599 2968
-1006.86 -18.5676 2963
-999.777 -18.5676 2963
-992.691 -18.5676 2963
-982.279 -18.505 2953
-973.236 -18.4674 2947
-966.189 -18.4674 2947
-957.515 -18.436 2942
-950.48 -18.436 2942
-941.841 -18.4047 2937
-934.818 -18.4047 2937
-927.794 -18.4047 2937
-920.771 -18.4047 2937
-912.192 -18.3734 2932
-905.181 -18.3734 2932
-896.638 -18.342 2927
-888.119 -18.3107 2922
-881.132 -18.3107 2922
-874.144 -18.3107 2922
-867.157 -18.3107 2922
-860.169 -18.3107 2922
-853.182 -18.3107 2922
-846.195 -18.3107 2922
-839.207 -18.3107 2922
-832.22 -18.3107 2922
-825.232 -18.3107 2922
-818.245 -18.3107 2922
-811.258 -18.3107 2922
-802.894 -18.2794 2917
-795.919 -18.2794 2917
-788.943 -18.2794 2917
-781.968 -18.2794 2917
-773.398 -18.2418 2911
-765.121 -18.2104 2906
-758.172 -18.2104 2906
-751.222 -18.2104 2906
-744.273 -18.2104 2906
-737.324 -18.2104 2906
-729.118 -18.1791 2901
-722.181 -18.1791 2901
-714.011 -18.1478 2896
-707.086 -18.1478 2896
-698.952 -18.1164 2891
-692.039 -18.1164 2891
-683.941 -18.0851 2886
-675.866 -18.0538 2881
-667.816 -18.0224 2876
-662.088 -18.0538 2881
-655.198 -18.0538 2881
-648.309 -18.0538 2881
-641.42 -18.0538 2881
-634.53 -18.0538 2881
-627.641 -18.0538 2881
-625.061 -18.1791 2901
-619.189 -18.2104 2906
-613.293 -18.2418 2911
-606.332 -18.2418 2911
-606.784 -18.4674 2947
-614.999 -18.9374 3022
-619.035 -19.2883 3078
-611.675 -19.2883 3078
-614.524 -19.6141 3130
-618.676 -19.9901 3190
-624.073 -20.4163 3258
-616.282 -20.4163 3258
-616.896 -20.6982 3303
-615.266 -20.9113 3337
-608.378 -20.9489 3343
-600.384 -20.9489 3343
-593.63 -20.9928 3350
-587.892 -21.0742 3363
-584.678 -21.2497 3391
-576.569 -21.2497 3391
-571.98 -21.3813 3412
-566.135 -21.469 3426
-557.942 -21.469 3426
-549.75 -21.469 3426
-543.77 -21.5568 3440
-535.544 -21.5568 3440
-528.391 -21.6006 3447
-520.148 -21.6006 3447
-511.905 -21.6006 3447
-503.662 -21.6006 3447
-496.426 -21.6445 3454
-488.166 -21.6445 3454
-479.906 -21.6445 3454
-471.647 -21.6445 3454
-463.387 -21.6445 3454
-455.128 -21.6445 3454
-447.774 -21.6884 3461
-441.402 -21.7823 3476
-433.09 -21.7823 3476
-424.778 -21.7823 3476
-415.507 -21.7322 3468
-266.952 -14.8516 2370
-261.284 -14.8516 2370
-255.617 -14.8516 2370
-249.95 -14.8516 2370
-243.87 -14.8265 2366
-238.917 -14.8704 2373
-233.242 -14.8704 2373
-227.568 -14.8704 2373
-223.763 -14.9957 2393
-218.679 -15.0396 2400
-212.94 -15.0396 2400
-207.201 -15.0396 2400
-201.461 -15.0396 2400
-195.151 -14.9957 2393
-189.429 -14.9957 2393
-182.939 -14.9331 2383
-176.274 -14.8516 2370
-170.102 -14.8077 2363
-163.06 -14.6824 2343
-157.457 -14.6824 2343
-151.012 -14.6009 2330
-144.441 -14.5007 2314
-137.767 -14.3816 2295
-132.279 -14.3816 2295
-125.907 -14.2814 2279
-119.136 -14.1247 2254
-112.232 -13.9367 2224
-106.481 -13.8803 2215
-101.184 -13.8803 2215
-95.6712 -13.849 2210
-90.0183 -13.7926 2201
-84.6395 -13.7738 2198
-79.3834 -13.7738 2198
-73.8238 -13.7174 2189
-68.1506 -13.6296 2175
-62.718 -13.5795 2167
-57.536 -13.5795 2167
-52.1366 -13.5231 2158
-46.8673 -13.4918 2153
-41.6026 -13.4542 2147
-36.4685 -13.4542 2147
-31.2906 -13.4354 2144
-26.1026 -13.404 2139
-20.9582 -13.3852 2136
-15.8503 -13.3852 2136
-10.7274 -13.3664 2133
-5.61359 -13.3351 2128
-0.524156 -13.3163 2125
4.55736 -13.3163 2125
9.63888 -13.3163 2125
14.6858 -13.285 2120
19.7553 -13.285 2120
24.7898 -13.2662 2117
29.8521 -13.2662 2117
34.9145 -13.2662 2117
39.9203 -13.2474 2114
44.9755 -13.2474 2114
50.0307 -13.2474 2114
55.0859 -13.2474 2114
60.0842 -13.2348 2112
65.0421 -13.216 2109
70.0854 -13.216 2109
75.1287 -13.216 2109
80.1719 -13.216 2109
85.094 -13.1972 2106
90.1301 -13.1972 2106
95.0758 -13.1847 2104
100.107 -13.1847 2104
105.138 -13.1847 2104
110.17 -13.1847 2104
115.201 -13.1847 2104
120.232 -13.1847 2104
124.906 -13.1471 2098
129.923 -13.1471 2098
134.94 -13.1471 2098
139.957 -13.1471 2098
145.181 -13.1659 2101
150.206 -13.1659 2101
155.451 -13.1847 2104
160.483 -13.1847 2104
165.514 -13.1847 2104
170.302 -13.1659 2101
175.326 -13.1659 2101
180.35 -13.1659 2101
185.374 -13.1659 2101
189.946 -13.1346 2096
194.958 -13.1346 2096
199.684 -13.1158 2093
204.2 -13.0844 2088
208.692 -13.0531 2083
213.673 -13.0531 2083
218.339 -13.0343 2080
223.098 -13.0218 2078
227.409 -12.9842 2072
231.803 -12.9529 2067
237.089 -12.9717 2070
242.039 -12.9717 2070
246.989 -12.9717 2070
251.939 -12.9717 2070
256.889 -12.9717 2070
260.574 -12.909 2060
265.5 -12.909 2060
270.033 -12.8902 2057
274.952 -12.8902 2057
424.07 -18.8684 3011
431.27 -18.8684 3011
438.47 -18.8684 3011
444.93 -18.8371 3006
447.306 -18.6366 2974
451.209 -18.505 2953
458.27 -18.505 2953
465.332 -18.505 2953
472.393 -18.505 2953
477.669 -18.436 2942
484.704 -18.436 2942
491.739 -18.436 2942
497.079 -18.3734 2932
503.231 -18.342 2927
508.487 -18.2794 2917
515.462 -18.2794 2917
521.363 -18.2418 2911
527.417 -18.2104 2906
534.366 -18.2104 2906
541.315 -18.2104 2906
548.264 -18.2104 2906
554.258 -18.1791 2901
561.195 -18.1791 2901
568.132 -18.1791 2901
575.07 -18.1791 2901
580 -18.1164 2891
586.914 -18.1164 2891
593.827 -18.1164 2891
600.74 -18.1164 2891
606.603 -18.0851 2886
613.504 -18.0851 2886
620.405 -18.0851 2886
627.307 -18.0851 2886
634.208 -18.0851 2886
641.109 -18.0851 2886
648.01 -18.0851 2886
654.912 -18.0851 2886
661.813 -18.0851 2886
668.714 -18.0851 2886
674.445 -18.0538 2881
681.334 -18.0538 2881
688.224 -18.0538 2881
695.113 -18.0538 2881
702.003 -18.0538 2881
708.892 -18.0538 2881
715.781 -18.0538 2881
722.671 -18.0538 2881
729.56 -18.0538 2881
736.449 -18.0538 2881
743.339 -18.0538 2881
750.228 -18.0538 2881
757.117 -18.0538 2881
764.007 -18.0538 2881
770.896 -18.0538 2881
777.785 -18.0538 2881
784.675 -18.0538 2881
792.938 -18.0851 2886
799.839 -18.0851 2886
806.74 -18.0851 2886
813.642 -18.0851 2886
821.965 -18.1164 2891
828.878 -18.1164 2891
835.791 -18.1164 2891
844.162 -18.1478 2896
854.026 -18.2104 2906
860.975 -18.2104 2906
867.924 -18.2104 2906
873.368 -18.1791 2901
880.305 -18.1791 2901
887.242 -18.1791 2901
894.179 -18.1791 2901
907.64 -18.3107 2922
922.452 -18.4674 2947
938.016 -18.6366 2974
945.127 -18.6366 2974
957.362 -18.7368 2990
974.835 -18.9374 3022
989.21 -19.0752 3044
996.49 -19.0752 3044
1007.4 -19.1442 3055
1018.69 -19.2194 3067
1031.71 -19.3259 3084
1039.08 -19.3259 3084
1070.21 -19.7645 3154
1104.75 -20.2596 3233
1121.08 -20.4163 3258
1128.87 -20.4163 3258
1150.27 -20.6606 3297
1172.2 -20.9113 3337
1199.28 -21.2497 3391
1207.39 -21.2497 3391
1223.03 -21.3813 3412
1236.24 -21.469 3426
1244.43 -21.469 3426
1252.62 -21.469 3426
1255.66 -21.3813 3412
1258.64 -21.2936 3398
1285.03 -21.6006 3447
1293.27 -21.6006 3447
1304.16 -21.6445 3454
1312.42 -21.6445 3454
1320.68 -21.6445 3454
1326.24 -21.6006 3447
1334.49 -21.6006 3447
1340 -21.5568 3440
1337.26 -21.3813 3412
1345.41 -21.3813 3412
1336.91 -21.1181 3370
1336.99 -20.9928 3350
1339.78 -20.9113 3337
1347.76 -20.9113 3337
1355.74 -20.9113 3337
1360.86 -20.8674 3330
1368.82 -20.8674 3330
1376.78 -20.8674 3330
1379.34 -20.786 3317
1384.35 -20.7421 3310
1392.26 -20.7421 3310
1397.22 -20.6982 3303
1405.11 -20.6982 3303
1407.45 -20.6168 3290
1410.16 -20.5416 3278
1417.99 -20.5416 3278
1425.83 -20.5416 3278
1433.67 -20.5416 3278
1438.43 -20.4977 3271
1443.6 -20.4601 3265
1459.86 -20.5792 3284
1467.71 -20.5792 3284
1478.26 -20.6168 3290
1501.03 -20.8236 3323
1518.06 -20.9489 3343
1526.05 -20.9489 3343
1534.05 -20.9489 3343
1536.05 -20.8674 3330
1556.53 -21.0366 3357
1564.55 -21.0366 3357
1572.58 -21.0366 3357
1577.31 -20.9928 3350
1588.64 -21.0366 3357
1612.84 -21.2497 3391
1620.95 -21.2497 3391
1632.42 -21.2936 3398
1640.54 -21.2936 3398
1648.67 -21.2936 3398
1653.38 -21.2497 3391
1664.92 -21.2936 3398
1673.05 -21.2936 3398
1681.17 -21.2936 3398
1689.3 -21.2936 3398
1673.44 -20.9928 3350
1674.93 -20.9113 3337
1682.91 -20.9113 3337
1690.89 -20.9113 3337
1698.87 -20.9113 3337
1706.85 -20.9113 3337
1714.83 -20.9113 3337
1722.81 -20.9113 3337
1730.79 -20.9113 3337
1728.35 -20.786 3317
1736.28 -20.786 3317
1744.21 -20.786 3317
1752.14 -20.786 3317
1760.08 -20.786 3317
1768.01 -20.786 3317
1775.94 -20.786 3317
1776.34 -20.6982 3303
1777.22 -20.6168 3290
1771.52 -20.4601 3265
1779.33 -20.4601 3265
1776.74 -20.3411 3246
1770.75 -20.1844 3221
1764.65 -20.0277 3196
1768.97 -19.9901 3190
1776.6 -19.9901 3190
1770.8 -19.8397 3166
1761.52 -19.6517 3136
1752.66 -19.47 3107
1760.09 -19.47 3107
1725.42 -19.0063 3033
1689.83 -18.5363 2958
1669.94 -18.2418 2911
1665.38 -18.1164 2891
1672.3 -18.1164 2891
1667.59 -17.9911 2871
1660.46 -17.8407 2847
1656.14 -17.7217 2828
1662.9 -17.7217 2828
1663.76 -17.659 2818
1662.2 -17.5713 2804
1657.6 -17.4522 2785
1664.26 -17.4522 2785
1667.92 -17.4209 2780
1672.16 -17.3958 2776
1678.79 -17.3958 2776
1685.43 -17.3958 2776
1692.07 -17.3958 2776
1695.65 -17.3645 2771
1699.82 -17.3394 2767
1703.35 -17.3081 2762
1709.96 -17.3081 2762
1710.97 -17.2517 2753
1714.43 -17.2203 2748
1721 -17.2203 2748
1727.57 -17.2203 2748
1731.62 -17.1953 2744
1738.18 -17.1953 2744
1741.57 -17.1639 2739
1748.12 -17.1639 2739
1754.67 -17.1639 2739
1761.21 -17.1639 2739
1765.18 -17.1389 2735
1768.48 -17.1075 2730
1775.01 -17.1075 2730
1775.67 -17.0511 2721
1779.55 -17.0261 2717
1780.14 -16.9697 2708
1786.61 -16.9697 2708
1787.13 -16.9133 2699
1790.92 -16.8882 2695
1794.7 -16.8631 2691
1801.14 -16.8631 2691
1804.21 -16.8318 2686
1805.24 -16.7817 2678
1811.65 -16.7817 2678
1820.77 -16.8067 2682
1827.18 -16.8067 2682
1833.59 -16.8067 2682
1840.01 -16.8067 2682
1846.42 -16.8067 2682
1852.83 -16.8067 2682
1850.23 -16.7253 2669
1856.62 -16.7253 2669
1860.21 -16.7002 2665
1866.58 -16.7002 2665
1872.95 -16.7002 2665
1879.33 -16.7002 2665
1879.33 -16.6438 2656
1885.68 -16.6438 2656
1892.03 -16.6438 2656
1895.52 -16.6188 2652
1901.87 -16.6188 2652
1905.33 -16.5937 2648
1911.66 -16.5937 2648
1915.1 -16.5686 2644
1921.42 -16.5686 2644
1927.74 -16.5686 2644
1934.07 -16.5686 2644
1933.78 -16.5122 2635
1937.14 -16.4872 2631
1943.43 -16.4872 2631
1949.72 -16.4872 2631
1956.01 -16.4872 2631
1962.3 -16.4872 2631
1968.6 -16.4872 2631
1974.89 -16.4872 2631
1981.18 -16.4872 2631
1987.47 -16.4872 2631
1993.76 -16.4872 2631
2000.05 -16.4872 2631
2006.35 -16.4872 2631
2009.58 -16.4621 2627
-2078.46 -10.7459 2776
-2071.82 -10.7459 2776
-2068.16 -10.7614 2780
-2061.51 -10.7614 2780
-2054.86 -10.7614 2780
-2048.22 -10.7614 2780
-2041.57 -10.7614 2780
-2028.33 -10.7265 2771
-2011.49 -10.6723 2757
-1988.9 -10.5872 2735
-1982.36 -10.5872 2735
-1965.71 -10.533 2721
-1953.44 -10.502 2713
-1946.95 -10.502 2713
-1940.46 -10.502 2713
-1930.41 -10.4826 2708
-1917.54 -10.4478 2699
-1872.14 -10.2349 2644
-1865.82 -10.2349 2644
-2269.36 -12.8401 3317
-2275.06 -12.9175 3337
-2284.74 -13.0181 3363
-2276.7 -13.0181 3363
-2278.1 -13.0723 3377
-2331.2 -13.4246 3468
-2342.33 -13.5369 3497
-2333.97 -13.5369 3497
-2340.9 -13.6259 3520
-2347.06 -13.711 3542
-2338.59 -13.711 3542
-2330.12 -13.711 3542
-2326.24 -13.7381 3549
-2317.75 -13.7381 3549
-2309.27 -13.7381 3549
-2300.78 -13.7381 3549
-2297.46 -13.7691 3557
-2294.1 -13.8001 3565
-2285.58 -13.8001 3565
-2277.05 -13.8001 3565
-2278.07 -13.8581 3580
-2274.58 -13.8891 3588
-2270.42 -13.9162 3595
-2261.83 -13.9162 3595
-2258.25 -13.9472 3603
-2249.63 -13.9472 3603
-2241.01 -13.9472 3603
-2232.4 -13.9472 3603
-2214.52 -13.8891 3588
-2201.03 -13.8581 3580
-2197.36 -13.8891 3588
-2188.78 -13.8891 3588
-2184.46 -13.9162 3595
-2185.54 -13.9781 3611
-2181.73 -14.0091 3619
-2173.08 -14.0091 3619
-2164.42 -14.0091 3619
-2179 -14.1601 3658
-2185.09 -14.2569 3683
-2176.28 -14.2569 3683
-2176.89 -14.3188 3699
-2168.04 -14.3188 3699
-2159.2 -14.3188 3699
-2131.75 -14.1949 3667
-2122.98 -14.1949 3667
-2114.21 -14.1949 3667
-2105.44 -14.1949 3667
-2091.53 -14.1601 3658
-2087.9 -14.1949 3667
-2083.67 -14.2259 3675
-2074.88 -14.2259 3675
-2066.1 -14.2259 3675
-2057.31 -14.2259 3675
-2044.06 -14.1949 3667
-2035.29 -14.1949 3667
-2017.13 -14.1291 3650
-2004 -14.0981 3642
-1995.29 -14.0981 3642
-1986.58 -14.0981 3642
-1965.38 -14.0091 3619
-1956.73 -14.0091 3619
-1948.07 -14.0091 3619
-1939.42 -14.0091 3619
-1926.49 -13.9781 3611
-1913.61 -13.9472 3603
-1904.99 -13.9472 3603
-1896.38 -13.9472 3603
-1883.57 -13.9162 3595
-1874.97 -13.9162 3595
-1862.74 -13.8891 3588
-1854.16 -13.8891 3588
-1841.47 -13.8581 3580
-1832.91 -13.8581 3580
-1824.35 -13.8581 3580
-1815.79 -13.8581 3580
-1803.19 -13.8272 3572
-1791.13 -13.8001 3565
-1778.6 -13.7691 3557
-1774.08 -13.8001 3565
-1765.55 -13.8001 3565
-1757.03 -13.8001 3565
-1748.5 -13.8001 3565
-1739.98 -13.8001 3565
-1731.45 -13.8001 3565
-1722.93 -13.8001 3565
-1714.4 -13.8001 3565
-1705.88 -13.8001 3565
-1697.35 -13.8001 3565
-1688.83 -13.8001 3565
-1683.6 -13.8272 3572
-1675.06 -13.8272 3572
-1670.25 -13.8581 3580
-1661.69 -13.8581 3580
-1653.13 -13.8581 3580
-1648.24 -13.8891 3588
-1639.66 -13.8891 3588
-1631.08 -13.8891 3588
-1622.5 -13.8891 3588
-1613.92 -13.8891 3588
-1608.48 -13.9162 3595
-1599.88 -13.9162 3595
-1591.28 -13.9162 3595
-1576.08 -13.8581 3580
-1567.52 -13.8581 3580
-1552.43 -13.8001 3565
-1540.44 -13.7691 3557
-1528.49 -13.7381 3549
-1520 -13.7381 3549
-1502.14 -13.653 3527
-1484.39 -13.5678 3505
-1469.69 -13.5098 3490
-1461.35 -13.5098 3490
-1450.09 -13.4827 3483
-1435.55 -13.4246 3468
-1424.38 -13.3975 3461
-1416.1 -13.3975 3461
-1396.44 -13.2891 3433
-1388.23 -13.2891 3433
-1354.69 -13.0452 3370
-1312.27 -12.7123 3284
-1304.41 -12.7123 3284
-1274.06 -12.4917 3227
-1254.18 -12.3717 3196
-1232.49 -12.2323 3160
-1224.94 -12.2323 3160
-1201.2 -12.0697 3118
-1184.94 -11.9807 3095
-1162.32 -11.8259 3055
-1155.01 -11.8259 3055
-1141.7 -11.7639 3039
-1123.98 -11.6556 3011
-1114.92 -11.6362 3006
-1107.73 -11.6362 3006
-1100.54 -11.6362 3006
-1093.36 -11.6362 3006
-1086.17 -11.6362 3006
-1073.24 -11.5743 2990
-1066.09 -11.5743 2990
-1058.94 -11.5743 2990
-1051.79 -11.5743 2990
-1044.64 -11.5743 2990
-1037.49 -11.5743 2990
-1026.55 -11.5317 2979
-1017.71 -11.5123 2974
-1008.56 -11.4891 2968
-1001.46 -11.4891 2968
-992.691 -11.4697 2963
-985.606 -11.4697 2963
-975.218 -11.431 2953
-968.156 -11.431 2953
-959.142 -11.4078 2947
-950.48 -11.3885 2942
-943.444 -11.3885 2942
-936.409 -11.3885 2942
-929.374 -11.3885 2942
-922.339 -11.3885 2942
-913.748 -11.3691 2937
-906.725 -11.3691 2937
-898.17 -11.3497 2932
-889.639 -11.3304 2927
-882.639 -11.3304 2927
-875.64 -11.3304 2927
-868.641 -11.3304 2927
-861.641 -11.3304 2927
-854.642 -11.3304 2927
-847.643 -11.3304 2927
-840.643 -11.3304 2927
-833.644 -11.3304 2927
-826.645 -11.3304 2927
-819.645 -11.3304 2927
-812.646 -11.3304 2927
-805.647 -11.3304 2927
-798.647 -11.3304 2927
-788.943 -11.2917 2917
-781.968 -11.2917 2917
-774.992 -11.2917 2917
-766.437 -11.2685 2911
-759.476 -11.2685 2911
-752.515 -11.2685 2911
-745.554 -11.2685 2911
-738.593 -11.2685 2911
-730.375 -11.2491 2906
-723.426 -11.2491 2906
-715.244 -11.2297 2901
-708.307 -11.2297 2901
-698.952 -11.191 2891
-692.039 -11.191 2891
-683.941 -11.1717 2886
-675.866 -11.1523 2881
-667.816 -11.133 2876
-663.237 -11.1717 2886
-656.335 -11.1717 2886
-649.434 -11.1717 2886
-642.533 -11.1717 2886
-635.632 -11.1717 2886
-628.73 -11.1717 2886
-626.138 -11.2491 2906
-619.189 -11.2491 2906
-613.293 -11.2685 2911
-606.332 -11.2685 2911
-606.784 -11.4078 2947
-614.999 -11.6981 3022
-621.248 -11.9575 3089
-613.861 -11.9575 3089
-618.058 -12.1859 3148
-621.003 -12.3949 3202
-630.203 -12.7356 3290
-622.335 -12.7356 3290
-624.366 -12.9407 3343
-620.06 -13.0181 3363
-615.84 -13.0994 3384
-607.747 -13.0994 3384
-599.655 -13.0994 3384
-592.787 -13.1265 3391
-590.713 -13.262 3426
-582.52 -13.262 3426
-575.501 -13.2891 3433
-568.448 -13.3162 3440
-560.222 -13.3162 3440
-551.996 -13.3162 3440
-545.983 -13.3704 3454
-537.723 -13.3704 3454
-530.537 -13.3975 3461
-522.261 -13.3975 3461
-513.984 -13.3975 3461
-505.708 -13.3975 3461
-498.438 -13.4246 3468
-490.145 -13.4246 3468
-481.852 -13.4246 3468
-472.603 -13.3975 3461
-464.327 -13.3975 3461
-456.05 -13.3975 3461
-449.715 -13.4556 3476
-441.402 -13.4556 3476
-433.09 -13.4556 3476
-424.778 -13.4556 3476
-267.29 -9.18586 2373
-261.615 -9.18586 2373
-255.941 -9.18586 2373
-249.95 -9.17425 2370
-243.87 -9.15876 2366
-238.917 -9.18586 2373
-233.242 -9.18586 2373
-227.568 -9.18586 2373
-223.763 -9.26328 2393
-218.679 -9.29037 2400
-212.94 -9.29037 2400
-207.201 -9.29037 2400
-201.461 -9.29037 2400
-195.151 -9.26328 2393
-189.429 -9.26328 2393
-182.939 -9.22457 2383
-176.274 -9.17425 2370
-170.102 -9.14715 2363
-163.06 -9.06973 2343
-157.457 -9.06973 2343
-151.012 -9.01941 2330
-144.441 -8.95747 2314
-137.767 -8.88392 2295
-132.279 -8.88392 2295
-125.907 -8.82199 2279
-119.136 -8.72521 2254
-112.232 -8.60908 2224
-106.385 -8.5665 2213
-101.093 -8.5665 2213
-95.6712 -8.55489 2210
-90.0183 -8.52005 2201
-84.6395 -8.50844 2198
-79.3834 -8.50844 2198
-73.8238 -8.4736 2189
-68.1506 -8.4194 2175
-62.718 -8.38843 2167
-57.536 -8.38843 2167
-52.2091 -8.36521 2161
-46.9109 -8.34198 2155
-41.6026 -8.31102 2147
-36.4685 -8.31102 2147
-31.3343 -8.31102 2147
-26.1026 -8.28005 2139
-20.9876 -8.28005 2139
-15.8726 -8.28005 2139
-10.7274 -8.25682 2133
-5.61359 -8.23747 2128
-0.524156 -8.22585 2125
4.55736 -8.22585 2125
9.63888 -8.22585 2125
14.6858 -8.2065 2120
19.7553 -8.2065 2120
24.7898 -8.19489 2117
29.8521 -8.19489 2117
34.9145 -8.19489 2117
39.9203 -8.18327 2114
44.9755 -8.18327 2114
50.0307 -8.18327 2114
55.0859 -8.18327 2114
60.1411 -8.18327 2114
65.1347 -8.17553 2112
70.1851 -8.17553 2112
75.1287 -8.16392 2109
80.1719 -8.16392 2109
85.094 -8.1523 2106
90.1301 -8.1523 2106
95.0758 -8.14456 2104
100.107 -8.14456 2104
105.138 -8.14456 2104
110.17 -8.14456 2104
115.201 -8.14456 2104
120.232 -8.14456 2104
125.085 -8.13295 2101
130.109 -8.13295 2101
135.133 -8.13295 2101
139.957 -8.12134 2098
145.181 -8.13295 2101
150.206 -8.13295 2101
155.23 -8.13295 2101
160.254 -8.13295 2101
165.278 -8.13295 2101
170.302 -8.13295 2101
175.326 -8.13295 2101
180.35 -8.13295 2101
185.11 -8.12134 2098
189.674 -8.10198 2093
194.679 -8.10198 2093
199.493 -8.09424 2091
203.906 -8.07101 2085
208.391 -8.05166 2080
213.365 -8.05166 2080
218.129 -8.04392 2078
222.776 -8.0323 2075
226.86 -8.00134 2067
231.018 -7.97424 2060
235.944 -7.97424 2060
240.87 -7.97424 2060
245.796 -7.97424 2060
250.357 -7.96263 2057
255.276 -7.96263 2057
260.195 -7.96263 2057
265.114 -7.96263 2057
269.376 -7.94327 2052
274.283 -7.94327 2052
425.619 -11.6981 3022
432.846 -11.6981 3022
440.072 -11.6981 3022
445.671 -11.6556 3011
448.81 -11.551 2984
451.973 -11.4504 2958
459.046 -11.4504 2958
466.12 -11.4504 2958
472.393 -11.431 2953
478.481 -11.4078 2947
484.704 -11.3885 2942
491.739 -11.3885 2942
497.079 -11.3497 2932
503.231 -11.3304 2927
508.487 -11.2917 2917
515.462 -11.2917 2917
521.363 -11.2685 2911
528.324 -11.2685 2911
534.366 -11.2491 2906
541.315 -11.2491 2906
548.264 -11.2491 2906
554.258 -11.2297 2901
561.195 -11.2297 2901
568.132 -11.2297 2901
575.07 -11.2297 2901
581.004 -11.2104 2896
586.914 -11.191 2891
593.827 -11.191 2891
600.74 -11.191 2891
606.603 -11.1717 2886
613.504 -11.1717 2886
620.405 -11.1717 2886
627.307 -11.1717 2886
634.208 -11.1717 2886
641.109 -11.1717 2886
648.01 -11.1717 2886
654.912 -11.1717 2886
661.813 -11.1717 2886
668.714 -11.1717 2886
674.445 -11.1523 2881
681.334 -11.1523 2881
688.224 -11.1523 2881
695.113 -11.1523 2881
702.003 -11.1523 2881
708.892 -11.1523 2881
715.781 -11.1523 2881
722.671 -11.1523 2881
729.56 -11.1523 2881
737.727 -11.1717 2886
744.629 -11.1717 2886
751.53 -11.1717 2886
758.431 -11.1717 2886
765.333 -11.1717 2886
772.234 -11.1717 2886
779.135 -11.1717 2886
786.036 -11.1717 2886
794.311 -11.191 2891
801.225 -11.191 2891
808.138 -11.191 2891
816.461 -11.2104 2896
823.386 -11.2104 2896
831.745 -11.2297 2901
838.682 -11.2297 2901
847.077 -11.2491 2906
854.026 -11.2491 2906
860.975 -11.2491 2906
867.924 -11.2491 2906
874.873 -11.2491 2906
881.822 -11.2491 2906
888.771 -11.2491 2906
895.721 -11.2491 2906
907.64 -11.311 2922
922.452 -11.4078 2947
938.016 -11.5123 2974
945.127 -11.5123 2974
957.362 -11.5743 2990
974.835 -11.6981 3022
989.21 -11.7833 3044
996.49 -11.7833 3044
1007.4 -11.8259 3055
1018.69 -11.8723 3067
1031.71 -11.9381 3084
1039.08 -11.9381 3084
1070.21 -12.2091 3154
1104.75 -12.5149 3233
1121.08 -12.6117 3258
1128.87 -12.6117 3258
1147.83 -12.7356 3290
1165.18 -12.8401 3317
1196.81 -13.0994 3384
1204.9 -13.0994 3384
1215.5 -13.1265 3391
1228.66 -13.1807 3405
1239.35 -13.2078 3412
1247.5 -13.2078 3412
1255.66 -13.2078 3412
1269.01 -13.262 3426
1292.86 -13.4246 3468
1301.15 -13.4246 3468
1312.47 -13.4556 3476
1320.78 -13.4556 3476
1329.09 -13.4556 3476
1337.4 -13.4556 3476
1339.91 -13.3975 3461
1340 -13.3162 3440
1342.74 -13.262 3426
1350.93 -13.262 3426
1339.69 -13.0723 3377
1336.99 -12.9678 3350
1339.78 -12.9175 3337
1347.76 -12.9175 3337
1355.74 -12.9175 3337
1360.86 -12.8904 3330
1368.82 -12.8904 3330
1376.78 -12.8904 3330
1379.34 -12.8401 3317
1384.35 -12.813 3310
1392.26 -12.813 3310
1397.22 -12.7859 3303
1405.11 -12.7859 3303
1407.45 -12.7356 3290
1410.16 -12.6891 3278
1417.99 -12.6891 3278
1425.83 -12.6891 3278
1433.67 -12.6891 3278
1435.79 -12.6388 3265
1449.35 -12.6891 3278
1459.86 -12.7123 3284
1467.71 -12.7123 3284
1490.39 -12.8401 3317
1510.07 -12.9407 3343
1524.42 -12.9949 3357
1532.44 -12.9949 3357
1540.47 -12.9949 3357
1548.5 -12.9949 3357
1559.31 -13.0181 3363
1567.35 -13.0181 3363
1575.39 -13.0181 3363
1583.44 -13.0181 3363
1604.73 -13.1265 3391
1619.5 -13.1807 3405
1627.64 -13.1807 3405
1639.14 -13.2078 3412
1647.3 -13.2078 3412
1655.46 -13.2078 3412
1656.79 -13.1536 3398
1671.78 -13.2078 3412
1679.94 -13.2078 3412
1688.1 -13.2078 3412
1696.26 -13.2078 3412
1673.44 -12.9678 3350
1677.94 -12.9407 3343
1685.94 -12.9407 3343
1690.89 -12.9175 3337
1698.87 -12.9175 3337
1709.92 -12.9407 3343
1717.91 -12.9407 3343
1725.91 -12.9407 3343
1730.79 -12.9175 3337
1735.12 -12.8904 3330
1736.28 -12.8401 3317
1747.37 -12.8633 3323
1755.31 -12.8633 3323
1763.26 -12.8633 3323
1768.01 -12.8401 3317
1775.94 -12.8401 3317
1780.11 -12.813 3310
1784.24 -12.7859 3303
1785.09 -12.7356 3290
1792.95 -12.7356 3290
1787.14 -12.6388 3265
1774.05 -12.4917 3227
1774.59 -12.4414 3214
1782.28 -12.4414 3214
1779.94 -12.3717 3196
1777.51 -12.302 3178
1768.26 -12.1859 3148
1752.66 -12.0272 3107
1760.09 -12.0272 3107
1737.94 -11.8259 3055
1695.54 -11.4891 2968
1673.38 -11.2917 2917
1671.14 -11.2297 2901
1678.08 -11.2297 2901
1670.5 -11.133 2876
1663.38 -11.0401 2852
1658.48 -10.9626 2832
1665.26 -10.9626 2832
1663.76 -10.9084 2818
1665.17 -10.8736 2809
1662.95 -10.8155 2794
1669.64 -10.8155 2794
1670.92 -10.7807 2785
1674.57 -10.7614 2780
1681.21 -10.7614 2780
1687.86 -10.7614 2780
1694.51 -10.7614 2780
1698.71 -10.7459 2776
1702.28 -10.7265 2771
1706.44 -10.711 2767
1713.05 -10.711 2767
1713.45 -10.6723 2757
1717.55 -10.6568 2753
1721 -10.6375 2748
1727.57 -10.6375 2748
1734.15 -10.6375 2748
1738.18 -10.622 2744
1744.74 -10.622 2744
1751.31 -10.622 2744
1754.67 -10.6026 2739
1761.21 -10.6026 2739
1767.76 -10.6026 2739
1771.72 -10.5872 2735
1778.26 -10.5872 2735
1778.93 -10.5523 2726
1782.17 -10.533 2721
1786.05 -10.5175 2717
1792.55 -10.5175 2717
1787.13 -10.4478 2699
1793.58 -10.4478 2699
1797.37 -10.4323 2695
1803.81 -10.4323 2695
1807.57 -10.4168 2691
1807.94 -10.382 2682
1814.35 -10.382 2682
1820.77 -10.382 2682
1827.18 -10.382 2682
1833.59 -10.382 2682
1840.01 -10.382 2682
1846.42 -10.382 2682
1852.83 -10.382 2682
1856.47 -10.3665 2678
1859.4 -10.3472 2673
1863 -10.3317 2669
1869.38 -10.3317 2669
1875.76 -10.3317 2669
1879.33 -10.3162 2665
1885.7 -10.3162 2665
1892.07 -10.3162 2665
1898.44 -10.3162 2665
1898.38 -10.2813 2656
1904.74 -10.2813 2656
1908.21 -10.2659 2652
1914.55 -10.2659 2652
1917.99 -10.2504 2648
1924.33 -10.2504 2648
1930.66 -10.2504 2648
1936.99 -10.2504 2648
1940.39 -10.2349 2644
1940.08 -10.2001 2635
1943.43 -10.1846 2631
1952.69 -10.2001 2635
1958.99 -10.2001 2635
1965.29 -10.2001 2635
1968.6 -10.1846 2631
1974.89 -10.1846 2631
1984.19 -10.2001 2635
1990.49 -10.2001 2635
1996.79 -10.2001 2635
2003.09 -10.2001 2635
2016.26 -10.2349 2644
2022.58 -10.2349 2644
-2078.46 -4.09593 2776
-2071.82 -4.09593 2776
-2068.16 -4.10184 2780
-2061.51 -4.10184 2780
-2054.86 -4.10184 2780
-2048.22 -4.10184 2780
-2041.57 -4.10184 2780
-2028.33 -4.08856 2771
-2011.49 -4.0679 2757
-1988.9 -4.03544 2735
-1982.36 -4.03544 2735
-1965.71 -4.01478 2721
-1953.44 -4.00298 2713
