-1368.76 565.945 3405
-1360.62 565.945 3405
-1338.57 560.128 3370
-1330.52 560.128 3370
-1322.46 560.128 3370
-1314.4 560.128 3370
-1306.34 560.128 3370
-1295.58 558.965 3363
-1287.54 558.965 3363
-1290.15 563.619 3391
-1282.04 563.619 3391
-1273.94 563.619 3391
-1265.83 563.619 3391
-1257.72 563.619 3391
-1254.77 565.945 3405
-1246.63 565.945 3405
-1238.48 565.945 3405
-1230.34 565.945 3405
-1222.2 565.945 3405
-1206.57 562.455 3384
-1196 561.292 3377
-1183 558.965 3363
-1174.95 558.965 3363
-874.661 456.745 2748
-868.09 456.745 2748
-861.518 456.745 2748
-854.947 456.745 2748
-854.241 459.903 2767
-847.625 459.903 2767
-841.008 459.903 2767
-838.311 462.064 2780
-831.664 462.064 2780
-834.809 467.549 2813
-828.082 467.549 2813
-828.363 471.538 2837
-824.475 473.2 2847
-817.667 473.2 2847
-810.859 473.2 2847
-804.051 473.2 2847
-788.824 480.514 2891
-783.263 481.345 2896
-777.679 482.176 2901
-770.741 482.176 2901
-763.804 482.176 2901
-761.042 484.835 2917
-754.066 484.835 2917
-747.091 484.835 2917
-740.115 484.835 2917
-733.14 484.835 2917
-726.164 484.835 2917
-635.13 580.073 3490
-626.784 580.073 3490
-618.439 580.073 3490
-612.715 582.567 3505
-604.334 582.567 3505
-595.952 582.567 3505
-587.571 582.567 3505
-583.981 587.387 3534
-575.531 587.387 3534
-567.08 587.387 3534
-561 589.88 3549
-557.339 595.032 3580
-548.778 595.032 3580
-540.218 595.032 3580
-532.845 596.362 3588
-525.288 597.525 3595
-520.14 601.514 3619
-511.486 601.514 3619
-503.944 602.844 3627
-495.27 602.844 3627
-486.597 602.844 3627
-477.924 602.844 3627
-469.25 602.844 3627
-459.561 601.514 3619
-451.904 602.844 3627
-443.231 602.844 3627
-434.557 602.844 3627
-427.646 605.337 3642
-419.857 606.667 3650
-411.128 606.667 3650
-405.156 610.822 3675
-398.094 613.482 3691
-390.111 614.811 3699
-381.266 614.811 3699
-376.548 621.626 3740
-368.49 623.122 3749
-362.785 628.773 3783
-353.739 628.773 3783
-346.241 631.599 3800
-337.953 633.094 3809
-328.845 633.094 3809
-319.736 633.094 3809
-310.628 633.094 3809
-302.232 634.59 3818
-293.716 635.92 3826
-284.567 635.92 3826
-276.713 638.912 3844
-267.521 638.912 3844
-258.329 638.912 3844
-249.137 638.912 3844
-238.322 634.59 3818
-227.091 628.773 3783
-217.064 625.947 3766
-208.059 625.947 3766
-196.833 618.967 3724
-187.524 617.637 3716
-175.85 607.997 3658
-167.103 607.997 3658
-97.7058 375.136 2257
-92.3086 375.136 2257
-86.9115 375.136 2257
-81.4059 374.638 2254
-75.9148 374.139 2251
-70.5319 374.139 2251
-65.0623 373.64 2248
-59.6866 373.64 2248
-54.2385 373.142 2245
-48.8047 372.643 2242
-43.3272 371.646 2236
-37.9802 371.646 2236
-32.4581 369.651 2224
-27.0056 367.823 2213
-21.5371 364.831 2195
-16.2882 364.831 2195
-11.0091 363.834 2189
-5.7534 362.504 2181
-0.536489 361.507 2175
4.6646 361.507 2175
9.80218 359.18 2161
14.949 358.681 2158
20.0628 357.85 2153
25.1762 357.352 2150
30.3175 357.352 2150
35.4093 356.853 2147
40.4868 356.355 2144
45.5712 356.022 2142
50.6934 356.022 2142
55.8155 356.022 2142
60.9377 356.022 2142
66.0599 356.022 2142
71.182 356.022 2142
76.3042 356.022 2142
81.4264 356.022 2142
86.5486 356.022 2142
91.6707 356.022 2142
96.7929 356.022 2142
101.915 356.022 2142
107.037 356.022 2142
112.421 356.853 2147
117.555 356.853 2147
123.032 357.85 2153
128.657 359.18 2161
134.32 360.51 2169
139.507 360.51 2169
144.694 360.51 2169
149.88 360.51 2169
283.324 658.691 3963
292.801 658.691 3963
302.964 660.187 3972
312.463 660.187 3972
321.961 660.187 3972
331.459 660.187 3972
340.957 660.187 3972
348.779 657.029 3953
358.232 657.029 3953
367.685 657.029 3953
376.279 655.533 3944
386.591 657.029 3953
399.851 663.345 3991
411.343 666.503 4010
420.932 666.503 4010
430.522 666.503 4010
440.111 666.503 4010
449.7 666.503 4010
459.289 666.503 4010
467.826 665.007 4001
480.854 669.827 4030
492.803 672.985 4049
502.485 672.985 4049
517.227 679.633 4089
527.005 679.633 4089
536.784 679.633 4089
560.63 513.423 3089
570.223 515.418 3101
577.639 515.418 3101
585.054 515.418 3101
592.47 515.418 3101
590.986 507.772 3055
598.292 507.772 3055
601.236 504.115 3033
608.489 504.115 3033
614.727 503.284 3028
621.968 503.284 3028
629.208 503.284 3028
635.188 502.287 3022
641.352 501.456 3017
648.566 501.456 3017
653.39 499.628 3006
652.228 493.312 2968
657.104 491.65 2958
664.177 491.65 2958
671.25 491.65 2958
674.655 488.99 2942
674.507 483.838 2911
680.298 483.007 2906
687.247 483.007 2906
691.807 481.345 2896
699.939 482.176 2901
708.094 483.007 2906
716.274 483.838 2911
723.235 483.838 2911
731.701 484.835 2917
738.676 484.835 2917
746.93 485.666 2922
753.917 485.666 2922
760.904 485.666 2922
767.892 485.666 2922
774.879 485.666 2922
781.867 485.666 2922
791.554 487.328 2932
798.565 487.328 2932
806.95 488.159 2937
815.359 488.99 2942
822.394 488.99 2942
838.451 494.309 2974
846.985 495.14 2979
855.542 495.971 2984
862.677 495.971 2984
873.019 497.799 2995
880.181 497.799 2995
887.343 497.799 2995
894.505 497.799 2995
901.667 497.799 2995
912.167 499.628 3006
926.084 503.284 3028
933.325 503.284 3028
959.514 513.423 3089
994.759 528.216 3178
1023.81 539.518 3246
1031.57 539.518 3246
1039.33 539.518 3246
1047.09 539.518 3246
1069.15 546.831 3290
1077.02 546.831 3290
1084.89 546.831 3290
1103.72 552.316 3323
1143.78 568.272 3419
1151.95 568.272 3419
1181.85 578.91 3483
1194.96 581.237 3497
1211.24 585.06 3520
1219.65 585.06 3520
1235.75 588.716 3542
1252.3 592.539 3565
1263.3 593.703 3572
1271.84 593.703 3572
1280.38 593.703 3572
1288.92 593.703 3572
1300.37 595.032 3580
1308.93 595.032 3580
1317.49 595.032 3580
1329.01 596.362 3588
1340.2 597.525 3595
1348.8 597.525 3595
1360.42 598.855 3603
1372.07 600.185 3611
1380.71 600.185 3611
1389.34 600.185 3611
1397.98 600.185 3611
1400.38 597.525 3595
1408.98 597.525 3595
1408.51 593.703 3572
1407.92 589.88 3549
1410.42 587.387 3534
1407.23 582.567 3505
1415.61 582.567 3505
1397.59 571.763 3440
1388.65 564.782 3398
1377.04 556.804 3350
1385.05 556.804 3350
1384.75 553.48 3330
1387.27 551.319 3317
1386.79 547.995 3297
1394.68 547.995 3297
1394.48 544.837 3278
1399.32 543.673 3271
1401.55 541.513 3258
1409.34 541.513 3258
1417.13 541.513 3258
1422.3 540.515 3252
1430.08 540.515 3252
1437.85 540.515 3252
1445.63 540.515 3252
1453.41 540.515 3252
1461.18 540.515 3252
1468.96 540.515 3252
1476.74 540.515 3252
1481.77 539.518 3246
1486.32 538.355 3239
1491.3 537.357 3233
1499.03 537.357 3233
1503.97 536.36 3227
1508.87 535.363 3221
1510.45 533.202 3208
1506.77 529.213 3184
1514.38 529.213 3184
1507.66 524.227 3154
1500.79 519.24 3124
1494.26 514.42 3095
1501.66 514.42 3095
1492.48 508.769 3061
1486.08 504.115 3033
1469.21 495.971 2984
1463.48 491.65 2958
1470.55 491.65 2958
1457.15 484.835 2917
1456.09 482.176 2901
1452.94 478.851 2881
1459.83 478.851 2881
1464.17 478.02 2876
1465.94 476.358 2866
1472.79 476.358 2866
1479.64 476.358 2866
1481.83 474.862 2857
1486.06 474.031 2852
1492.88 474.031 2852
1497.07 473.2 2847
1503.87 473.2 2847
1508.03 472.369 2842
1512.16 471.538 2837
1516.27 470.707 2832
1523.04 470.707 2832
1524.95 469.211 2823
1528.99 468.38 2818
1533 467.549 2813
1539.73 467.549 2813
1544.26 466.884 2809
1548.21 466.053 2804
1552.15 465.222 2799
1558.84 465.222 2799
1560.5 463.726 2790
1567.17 463.726 2790
1573.84 463.726 2790
1582.78 464.391 2794
1592.3 465.222 2799
1599 465.222 2799
1608.56 466.053 2804
1618.15 466.884 2809
1624.86 466.884 2809
1631.58 466.884 2809
1640.63 467.549 2813
1647.36 467.549 2813
1657.02 468.38 2818
1663.76 468.38 2818
1673.46 469.211 2823
1680.22 469.211 2823
1686.97 469.211 2823
1693.72 469.211 2823
1700.47 469.211 2823
1710.24 470.042 2828
1717 470.042 2828
1723.77 470.042 2828
1730.53 470.042 2828
1737.29 470.042 2828
1740.97 469.211 2823
1747.72 469.211 2823
1751.36 468.38 2818
1754.98 467.549 2813
1761.71 467.549 2813
1768.44 467.549 2813
1772.64 466.884 2809
1776.19 466.053 2804
1782.9 466.053 2804
1789.6 466.053 2804
1793.1 465.222 2799
1796.58 464.391 2794
1800.68 463.726 2790
1807.35 463.726 2790
1814.02 463.726 2790
1820.7 463.726 2790
1824.09 462.895 2785
1830.75 462.895 2785
1837.41 462.895 2785
1838.11 461.399 2776
1835.45 459.072 2762
1842.05 459.072 2762
1848.66 459.072 2762
1855.26 459.072 2762
1861.87 459.072 2762
1865.09 458.241 2757
1871.68 458.241 2757
1875.55 457.577 2753
1875.98 456.081 2744
1885.29 456.745 2748
1891.86 456.745 2748
1898.43 456.745 2748
1902.23 456.081 2744
1908.79 456.081 2744
1915.35 456.081 2744
1921.91 456.081 2744
1928.47 456.081 2744
1937.86 456.745 2748
1944.43 456.745 2748
1957.39 458.241 2757
1963.98 458.241 2757
1970.57 458.241 2757
1977.17 458.241 2757
1983.76 458.241 2757
1987.46 457.577 2753
1983.91 455.25 2739
1987.55 454.585 2735
2000.65 456.081 2744
2013.8 457.577 2753
2020.38 457.577 2753
2026.96 457.577 2753
2033.55 457.577 2753
2040.13 457.577 2753
2040.02 456.081 2744
2049.57 456.745 2748
2059.88 457.577 2753
2069.47 458.241 2757
2076.06 458.241 2757
2093.23 460.568 2771
2103.64 461.399 2776
2110.28 461.399 2776
2116.92 461.399 2776
2119.73 460.568 2771
-2099.42 472.77 2804
-2092.72 472.77 2804
-2086.01 472.77 2804
-2079.31 472.77 2804
-2068.91 471.927 2799
-2072.53 474.288 2813
-2065.8 474.288 2813
-2059.07 474.288 2813
-2052.35 474.288 2813
-2042.71 473.613 2809
-2036 473.613 2809
-2015.55 470.41 2790
-2008.88 470.41 2790
-1988.57 467.206 2771
-1998.4 471.084 2794
-1991.72 471.084 2794
-2005.64 475.974 2823
-2022.96 481.706 2857
-2019.66 482.549 2862
-2012.82 482.549 2862
-2005.97 482.549 2862
-1999.13 482.549 2862
-1992.28 482.549 2862
-1978.5 480.863 2852
-1971.68 480.863 2852
-1964.86 480.863 2852
-1958.04 480.863 2852
-1951.22 480.863 2852
-1947.81 481.706 2857
-1947.09 483.224 2866
-1943.63 484.067 2871
-1936.76 484.067 2871
-1933.26 484.91 2876
-1936.43 487.439 2891
-1932.85 488.282 2896
-1925.92 488.282 2896
-1936.23 492.666 2922
-1929.24 492.666 2922
-1922.25 492.666 2922
-1915.27 492.666 2922
-1924.6 496.881 2947
-1931.22 500.422 2968
-1963.02 510.538 3028
-1955.78 510.538 3028
-1958.84 513.236 3044
-1966.3 517.114 3067
-1958.97 517.114 3067
-1969.45 521.834 3095
-1969.66 523.858 3107
-1972.96 526.724 3124
-1965.49 526.724 3124
-1965.54 528.747 3136
-1958.05 528.747 3136
-1958.01 530.771 3148
-1950.48 530.771 3148
-1946.66 531.782 3154
-1953.87 535.829 3178
-1949.95 536.84 3184
-1942.33 536.84 3184
-1938.36 537.852 3190
-1930.74 537.852 3190
-1923.11 537.852 3190
-1915.48 537.852 3190
-1907.85 537.852 3190
-1910.95 540.887 3208
-1940.65 551.509 3271
-1932.83 551.509 3271
-1940.31 555.893 3297
-1959.39 563.649 3343
-1967.15 568.201 3370
-1959.09 568.201 3370
-1987.51 578.823 3433
-1995.44 583.544 3461
-1999.8 587.253 3483
-1991.47 587.253 3483
-1995.67 590.963 3505
-2003.73 595.852 3534
-1999.79 597.201 3542
-1991.32 597.201 3542
-1982.85 597.201 3542
-1978.28 598.381 3549
-1969.8 598.381 3549
-1961.31 598.381 3549
-1952.82 598.381 3549
-1944.34 598.381 3549
-1935.85 598.381 3549
-1927.36 598.381 3549
-1923.2 599.73 3557
-1914.7 599.73 3557
-1910.48 601.079 3565
-1901.95 601.079 3565
-1897.15 602.259 3572
-1888.6 602.259 3572
-1884.27 603.608 3580
-1875.71 603.608 3580
-1871.32 604.957 3588
-1866.38 606.137 3595
-1857.78 606.137 3595
-1849.18 606.137 3595
-1844.68 607.486 3603
-1836.07 607.486 3603
-1827.45 607.486 3603
-1818.84 607.486 3603
-1806.2 606.137 3595
-1797.6 606.137 3595
-1789.01 606.137 3595
-1780.41 606.137 3595
-1771.81 606.137 3595
-1771.06 608.835 3611
-1770.24 611.533 3627
-1761.57 611.533 3627
-1756.76 612.882 3635
-1748.07 612.882 3635
-1746.55 615.411 3650
-1737.82 615.411 3650
-1732.88 616.759 3658
-1739.69 622.323 3691
-1742.59 626.539 3716
-1733.7 626.539 3716
-1735.96 630.585 3740
-1734.86 633.451 3757
-1725.88 633.451 3757
-1716.89 633.451 3757
-1719.73 637.835 3783
-1714.75 639.353 3792
-1725.03 646.603 3835
-1715.86 646.603 3835
-1706.69 646.603 3835
-1697.52 646.603 3835
-1688.35 646.603 3835
-1679.17 646.603 3835
-1651.28 639.353 3792
-1609.3 626.539 3716
-1582.75 619.626 3675
-1573.97 619.626 3675
-1554.53 615.411 3650
-1532.67 610.184 3619
-1501.28 601.079 3565
-1492.75 601.079 3565
-1474.65 597.201 3542
-1459.97 594.672 3527
-1442.49 590.963 3505
-1434.1 590.963 3505
-1407.82 583.544 3461
-1393.89 581.184 3447
-1368.76 574.102 3405
-1360.62 574.102 3405
-1338.57 568.201 3370
-1330.52 568.201 3370
-1322.46 568.201 3370
-1314.4 568.201 3370
-1306.34 568.201 3370
-1295.58 567.021 3363
-1287.54 567.021 3363
-1290.15 571.742 3391
-1282.04 571.742 3391
-1273.94 571.742 3391
-1265.83 571.742 3391
-1257.72 571.742 3391
-1254.77 574.102 3405
-1246.63 574.102 3405
-1238.48 574.102 3405
-1230.34 574.102 3405
-1222.2 574.102 3405
-1206.57 570.562 3384
-1196 569.381 3377
-1183 567.021 3363
-1174.95 567.021 3363
-867.658 459.619 2726
-866.826 462.654 2744
-860.264 462.654 2744
-853.702 462.654 2744
-854.241 466.532 2767
-847.625 466.532 2767
-841.008 466.532 2767
-838.311 468.724 2780
-831.664 468.724 2780
-827.983 470.41 2790
-821.312 470.41 2790
-826.903 477.491 2832
-821.579 478.334 2837
-814.795 478.334 2837
-808.011 478.334 2837
-779.207 485.753 2881
-774.998 487.439 2891
-768.085 487.439 2891
-761.171 487.439 2891
-756.867 489.125 2901
-749.93 489.125 2901
-742.993 489.125 2901
-733.518 487.439 2891
-635.13 588.434 3490
-626.784 588.434 3490
-618.439 588.434 3490
-612.715 590.963 3505
-604.334 590.963 3505
-595.952 590.963 3505
-587.571 590.963 3505
-583.981 595.852 3534
-575.531 595.852 3534
-567.08 595.852 3534
-561 598.381 3549
-557.339 603.608 3580
-548.778 603.608 3580
-540.218 603.608 3580
-532.845 604.957 3588
-525.288 606.137 3595
-520.14 610.184 3619
-511.486 610.184 3619
-503.944 611.533 3627
-495.27 611.533 3627
-486.597 611.533 3627
-477.924 611.533 3627
-469.25 611.533 3627
-459.561 610.184 3619
-451.904 611.533 3627
-443.231 611.533 3627
-434.557 611.533 3627
-427.646 614.062 3642
-419.857 615.411 3650
-411.128 615.411 3650
-405.156 619.626 3675
-398.094 622.323 3691
-390.111 623.672 3699
-381.266 623.672 3699
-376.548 630.585 3740
-368.49 632.103 3749
-362.785 637.835 3783
-353.739 637.835 3783
-346.241 640.701 3800
-337.953 642.219 3809
-328.845 642.219 3809
-319.736 642.219 3809
-310.628 642.219 3809
-301.519 642.219 3809
-293.716 645.085 3826
-284.567 645.085 3826
-276.713 648.12 3844
-267.521 648.12 3844
-258.329 648.12 3844
-249.137 648.12 3844
-238.322 643.736 3818
-227.091 637.835 3783
-217.064 634.969 3766
-208.059 634.969 3766
-196.833 627.887 3724
-187.524 626.539 3716
-108.5 380.543 2257
-103.103 380.543 2257
-97.7058 380.543 2257
-92.1859 380.037 2254
-86.7959 380.037 2254
-81.4059 380.037 2254
-75.9148 379.531 2251
-70.5319 379.531 2251
-65.0623 379.025 2248
-59.6866 379.025 2248
-54.2385 378.52 2245
-48.8047 378.014 2242
-43.3272 377.002 2236
-37.9802 377.002 2236
-32.4581 374.979 2224
-26.969 372.618 2210
-21.5371 370.089 2195
-16.2882 370.089 2195
-11.0091 369.078 2189
-5.7534 367.729 2181
-0.536489 366.717 2175
4.6646 366.717 2175
9.80218 364.357 2161
14.949 363.851 2158
20.0628 363.008 2153
25.1762 362.502 2150
30.3175 362.502 2150
35.4093 361.996 2147
40.4868 361.491 2144
45.5712 361.153 2142
50.6934 361.153 2142
55.8155 361.153 2142
60.9377 361.153 2142
66.0599 361.153 2142
71.182 361.153 2142
76.3042 361.153 2142
81.4264 361.153 2142
86.5486 361.153 2142
91.6707 361.153 2142
96.7929 361.153 2142
101.915 361.153 2142
107.137 361.491 2144
112.578 362.502 2150
117.72 362.502 2150
123.032 363.008 2153
129.014 365.368 2167
134.506 366.211 2172
139.7 366.211 2172
144.894 366.211 2172
149.88 365.706 2169
283.324 668.184 3963
292.801 668.184 3963
302.964 669.702 3972
313.249 671.388 3982
322.772 671.388 3982
332.294 671.388 3982
341.816 671.388 3982
351.338 671.388 3982
360.86 671.388 3982
369.452 669.702 3972
378.092 668.184 3963
387.569 668.184 3963
400.852 674.591 4001
411.343 676.109 4010
420.932 676.109 4010
430.522 676.109 4010
440.111 676.109 4010
449.7 676.109 4010
459.289 676.109 4010
467.826 674.591 4001
481.927 680.998 4039
492.803 682.684 4049
502.485 682.684 4049
517.227 689.428 4089
527.005 689.428 4089
536.784 689.428 4089
560.63 520.823 3089
570.223 522.846 3101
577.639 522.846 3101
585.054 522.846 3101
592.47 522.846 3101
590.986 515.09 3055
598.292 515.09 3055
601.236 511.381 3033
608.489 511.381 3033
615.742 511.381 3033
622.995 511.381 3033
629.208 510.538 3028
635.188 509.526 3022
642.415 509.526 3022
649.641 509.526 3022
655.781 508.683 3017
660.578 506.829 3006
660.658 501.433 2974
667.77 501.433 2974
672.385 499.579 2963
674.655 496.038 2942
674.507 490.811 2911
680.298 489.968 2906
687.247 489.968 2906
691.807 488.282 2896
699.939 489.125 2901
708.094 489.968 2906
716.274 490.811 2911
723.235 490.811 2911
731.701 491.823 2917
741.208 493.509 2927
748.208 493.509 2927
755.207 493.509 2927
762.207 493.509 2927
769.206 493.509 2927
776.205 493.509 2927
781.867 492.666 2922
791.554 494.352 2932
799.927 495.195 2937
806.95 495.195 2937
819.793 498.736 2958
826.867 498.736 2958
841.27 503.119 2984
850.112 504.131 2990
858.696 504.974 2995
865.858 504.974 2995
876.226 506.829 3006
884.884 507.672 3011
892.084 507.672 3011
899.284 507.672 3011
906.484 507.672 3011
922.181 512.393 3039
929.448 512.393 3039
936.715 512.393 3039
959.514 520.823 3089
994.759 535.829 3178
1023.81 547.294 3246
1031.57 547.294 3246
1039.33 547.294 3246
1057.41 552.689 3278
1071.43 555.893 3297
1079.31 555.893 3297
1095.77 560.277 3323
1117 567.021 3363
1143.78 576.463 3419
1151.95 576.463 3419
1184.22 588.434 3490
1194.96 589.614 3497
1211.24 593.492 3520
1219.65 593.492 3520
1235.75 597.201 3542
1252.3 601.079 3565
1263.3 602.259 3572
1271.84 602.259 3572
1280.38 602.259 3572
1291.81 603.608 3580
1303.27 604.957 3588
1311.85 604.957 3588
1320.43 604.957 3588
1331.61 606.137 3595
1340.2 606.137 3595
1348.8 606.137 3595
1360.42 607.486 3603
1372.07 608.835 3611
1380.71 608.835 3611
1389.34 608.835 3611
1397.98 608.835 3611
1400.38 606.137 3595
1408.98 606.137 3595
1408.51 602.259 3572
1407.92 598.381 3549
1410.42 595.852 3534
1407.23 590.963 3505
1415.61 590.963 3505
1397.59 580.003 3440
1388.65 572.922 3398
1377.04 564.829 3350
1385.05 564.829 3350
1384.75 561.457 3330
1387.27 559.265 3317
1386.79 555.893 3297
1394.68 555.893 3297
1394.48 552.689 3278
1399.32 551.509 3271
1401.55 549.317 3258
1409.34 549.317 3258
1417.13 549.317 3258
1422.3 548.306 3252
1430.08 548.306 3252
1437.85 548.306 3252
1445.63 548.306 3252
1453.41 548.306 3252
1461.18 548.306 3252
1468.96 548.306 3252
1476.74 548.306 3252
1481.77 547.294 3246
1486.32 546.114 3239
1491.3 545.102 3233
1499.03 545.102 3233
1503.97 544.09 3227
1508.87 543.079 3221
1510.45 540.887 3208
1506.77 536.84 3184
1514.38 536.84 3184
1513.39 533.805 3166
1506.55 528.747 3136
1500.05 523.858 3107
1507.48 523.858 3107
1500.77 518.968 3078
1499.8 516.102 3061
1480.04 506.829 3006
1471.4 501.433 2974
1478.51 501.433 2974
1467.14 495.195 2937
1458.6 489.968 2906
1457.98 487.439 2891
1464.9 487.439 2891
1466.72 485.753 2881
1471.05 484.91 2876
1472.79 483.224 2866
1479.64 483.224 2866
1481.83 481.706 2857
1488.66 481.706 2857
1492.88 480.863 2852
1497.07 480.02 2847
1503.87 480.02 2847
1508.03 479.177 2842
1512.16 478.334 2837
1516.27 477.491 2832
1523.04 477.491 2832
1524.95 475.974 2823
1528.99 475.131 2818
1533 474.288 2813
1539.73 474.288 2813
1544.26 473.613 2809
1548.21 472.77 2804
1552.15 471.927 2799
1558.84 471.927 2799
1560.5 470.41 2790
1567.17 470.41 2790
1573.84 470.41 2790
1582.78 471.084 2794
1592.3 471.927 2799
1599 471.927 2799
1608.56 472.77 2804
1618.15 473.613 2809
1624.86 473.613 2809
1631.58 473.613 2809
1640.63 474.288 2813
1647.36 474.288 2813
1657.02 475.131 2818
1663.76 475.131 2818
1673.46 475.974 2823
1680.22 475.974 2823
1686.97 475.974 2823
1693.72 475.974 2823
1700.47 475.974 2823
1710.24 476.817 2828
1717 476.817 2828
1723.77 476.817 2828
1730.53 476.817 2828
1737.29 476.817 2828
1740.97 475.974 2823
1747.72 475.974 2823
1751.36 475.131 2818
1754.98 474.288 2813
1761.71 474.288 2813
1768.44 474.288 2813
1772.64 473.613 2809
1776.19 472.77 2804
1782.9 472.77 2804
1789.6 472.77 2804
1793.1 471.927 2799
1799.8 471.927 2799
1800.68 470.41 2790
1807.35 470.41 2790
1814.02 470.41 2790
1820.7 470.41 2790
1824.09 469.567 2785
1830.75 469.567 2785
1837.41 469.567 2785
1838.11 468.049 2776
1835.45 465.689 2762
1842.05 465.689 2762
1848.66 465.689 2762
1855.26 465.689 2762
1861.87 465.689 2762
1865.09 464.846 2757
1871.68 464.846 2757
1875.55 464.171 2753
1875.98 462.654 2744
1882.54 462.654 2744
1885.66 461.811 2739
1892.21 461.811 2739
1898.76 461.811 2739
1908.79 462.654 2744
1915.35 462.654 2744
1921.91 462.654 2744
1928.47 462.654 2744
1935.04 462.654 2744
1944.43 463.328 2748
1957.39 464.846 2757
1963.98 464.846 2757
1970.57 464.846 2757
1977.17 464.846 2757
1983.76 464.846 2757
1987.46 464.171 2753
1981.01 461.136 2735
1987.55 461.136 2735
2003.57 463.328 2748
2016.72 464.846 2757
2023.32 464.846 2757
2029.91 464.846 2757
2036.5 464.846 2757
2043.09 464.846 2757
2040.02 462.654 2744
2053.3 464.171 2753
2059.88 464.171 2753
2073.22 465.689 2762
2079.82 465.689 2762
2097 468.049 2776
2106.67 468.724 2780
2113.32 468.724 2780
2119.97 468.724 2780
2123.56 468.049 2776
-2042.13 478.632 2799
-2039.08 479.487 2804
-2038.89 481.026 2813
-2032.17 481.026 2813
-2025.44 481.026 2813
-2018.71 481.026 2813
-2019.14 482.736 2823
-2012.39 482.736 2823
-2012.03 484.275 2832
-2026.5 489.405 2862
-2043.65 495.219 2896
-2036.73 495.219 2896
-2029.8 495.219 2896
-2001.92 490.089 2866
-1995.07 490.089 2866
-1981.97 488.55 2857
-1975.14 488.55 2857
-1968.31 488.55 2857
-1961.48 488.55 2857
-1951.22 487.695 2852
-1951.22 489.405 2862
-1947.09 490.089 2866
-1943.63 490.944 2871
-1936.76 490.944 2871
-1936.62 492.654 2881
-1939.77 495.219 2896
-1939.52 496.929 2906
-1932.57 496.929 2906
-1939.54 500.52 2927
-1939.14 502.23 2937
-1938.7 503.94 2947
-1931.65 503.94 2947
-1942.24 508.557 2974
-1952.04 513.003 3000
-1963.02 517.792 3028
-1977.1 523.435 3061
-1980.72 526.342 3078
-1984.25 529.249 3095
-1976.85 529.249 3095
-1984.09 533.182 3118
-1980.43 534.208 3124
-1991.91 539.338 3154
-1984.37 539.338 3154
-1984.35 541.39 3166
-1976.78 541.39 3166
-1972.94 542.416 3172
-1965.35 542.416 3172
-1961.47 543.442 3178
-1964.94 546.52 3196
-1957.3 546.52 3196
-1949.65 546.52 3196
-1942.01 546.52 3196
-1934.37 546.52 3196
-1926.72 546.52 3196
-1919.08 546.52 3196
-1918.62 548.572 3208
-1922.26 551.821 3227
-1956.08 563.791 3297
-1948.19 563.791 3297
-1967.38 571.657 3343
-1991.62 581.062 3398
-2003.93 587.047 3433
-1995.72 587.047 3433
-2003.72 591.835 3461
-2012.16 596.794 3490
-2016.45 600.556 3512
-2008.05 600.556 3512
-2012.18 604.318 3534
-2008.26 605.686 3542
-1999.79 605.686 3542
-1991.32 605.686 3542
-1986.77 606.883 3549
-1982.74 608.251 3557
-1974.24 608.251 3557
-1965.73 608.251 3557
-1957.23 608.251 3557
-1944.34 606.883 3549
-1940.21 608.251 3557
-1931.71 608.251 3557
-1923.2 608.251 3557
-1914.7 608.251 3557
-1906.19 608.251 3557
-1897.69 608.251 3557
-1893.43 609.619 3565
-1888.6 610.816 3572
-1880.06 610.816 3572
-1871.52 610.816 3572
-1862.98 610.816 3572
-1858.59 612.184 3580
-1857.78 614.749 3595
-1849.18 614.749 3595
-1840.59 614.749 3595
-1831.99 614.749 3595
-1823.39 614.749 3595
-1814.8 614.749 3595
-1802.68 613.552 3588
-1794.1 613.552 3588
-1785.52 613.552 3588
-1776.94 613.552 3588
-1768.36 613.552 3588
-1763.22 614.749 3595
-1766.33 618.853 3619
-1757.68 618.853 3619
-1752.89 620.221 3627
-1748.07 621.589 3635
-1742.72 622.786 3642
-1734.01 622.786 3642
-1729.1 624.154 3650
-1724.14 625.522 3658
-1730.87 631.165 3691
-1722.04 631.165 3691
-1732.24 638.176 3732
-1727.01 639.544 3740
-1725.88 642.451 3757
-1716.89 642.451 3757
-1712 643.99 3766
-1714.75 648.436 3792
-1725.03 655.789 3835
-1715.86 655.789 3835
-1706.69 655.789 3835
-1697.52 655.789 3835
-1688.35 655.789 3835
-1667.79 651.343 3809
-1647.36 646.897 3783
-1601.94 632.533 3699
-1575.43 625.522 3658
-1566.68 625.522 3658
-1551.12 622.786 3642
-1529.28 617.485 3611
-1501.28 609.619 3565
-1492.75 609.619 3565
-1474.65 605.686 3542
-1459.97 603.121 3527
-1442.49 599.359 3505
-1434.1 599.359 3505
-1407.82 591.835 3461
-1393.89 589.441 3447
-1368.76 582.259 3405
-1360.62 582.259 3405
-1341.35 577.471 3377
-1333.28 577.471 3377
-1325.2 577.471 3377
-1317.13 577.471 3377
-1309.05 577.471 3377
-1300.98 577.471 3377
-1300.94 581.062 3398
-1300.81 584.653 3419
-1295.28 585.85 3426
-1287.08 585.85 3426
-1278.89 585.85 3426
-1278.49 589.441 3447
-1283.51 595.597 3483
-1275.18 595.597 3483
-1266.85 595.597 3483
-1261.05 596.794 3490
-1252.71 596.794 3490
-1244.36 596.794 3490
-1228.23 593.032 3468
-1187.92 577.471 3377
-1179.85 577.471 3377
-854.241 473.16 2767
-847.625 473.16 2767
-841.008 473.16 2767
-837.105 474.699 2776
-830.467 474.699 2776
-827.983 477.093 2790
-821.312 477.093 2790
-826.903 484.275 2832
-820.131 484.275 2832
-813.359 484.275 2832
-806.587 484.275 2832
-642.483 588.244 3440
-643.476 596.794 3490
-637.86 599.359 3505
-629.478 599.359 3505
-623.755 601.924 3520
-615.337 601.924 3520
-609.334 604.318 3534
-600.883 604.318 3534
-592.432 604.318 3534
-585.303 605.686 3542
-579.276 608.251 3557
-570.77 608.251 3557
-565.9 612.184 3580
-558.585 613.552 3588
-550.005 613.552 3588
-541.425 613.552 3588
-533.884 614.749 3595
-526.456 616.117 3603
-520.14 618.853 3619
-511.486 618.853 3619
-503.944 620.221 3627
-495.27 620.221 3627
-486.597 620.221 3627
-477.924 620.221 3627
-469.25 620.221 3627
-459.561 618.853 3619
-451.904 620.221 3627
-443.231 620.221 3627
-434.557 620.221 3627
-426.824 621.589 3635
-418.936 622.786 3642
-410.227 622.786 3642
-404.274 627.061 3667
-397.231 629.797 3683
-390.111 632.533 3699
-381.266 632.533 3699
-374.938 636.808 3724
-368.49 641.083 3749
-361.922 645.358 3774
-352.897 645.358 3774
-346.241 649.804 3800
-337.155 649.804 3800
-328.068 649.804 3800
-318.981 649.804 3800
-309.894 649.804 3800
-300.807 649.804 3800
-293.716 654.25 3826
-284.567 654.25 3826
-276.713 657.328 3844
-267.521 657.328 3844
-258.329 657.328 3844
-249.137 657.328 3844
-238.322 652.882 3818
-227.091 646.897 3783
-217.064 643.99 3766
-208.059 643.99 3766
-197.256 638.176 3732
-187.524 635.44 3716
-108.837 387.147 2264
-103.423 387.147 2264
-98.0088 387.147 2264
-92.5949 387.147 2264
-87.181 387.147 2264
-81.5143 385.95 2257
-76.1171 385.95 2257
-70.6259 385.437 2254
-65.1491 384.924 2251
-59.7663 384.924 2251
-54.2385 383.898 2245
-48.87 383.898 2245
-43.3272 382.359 2236
-37.9802 382.359 2236
-32.4581 380.307 2224
-26.9324 377.4 2207
-21.5371 375.348 2195
-16.2882 375.348 2195
-11.0091 374.322 2189
-5.7534 372.954 2181
-0.536489 371.928 2175
4.6646 371.928 2175
9.80218 369.534 2161
14.949 369.02 2158
20.0628 368.165 2153
25.1762 367.652 2150
30.3175 367.652 2150
35.4093 367.139 2147
40.4868 366.626 2144
45.5712 366.284 2142
50.6934 366.284 2142
55.8155 366.284 2142
60.9377 366.284 2142
66.0599 366.284 2142
71.182 366.284 2142
76.3042 366.284 2142
81.4264 366.284 2142
86.5486 366.284 2142
91.6707 366.284 2142
96.7929 366.284 2142
101.915 366.284 2142
107.137 366.626 2144
112.578 367.652 2150
117.72 367.652 2150
123.032 368.165 2153
129.014 370.56 2167
134.506 371.415 2172
139.7 371.415 2172
144.894 371.415 2172
149.88 370.902 2169
283.324 677.678 3963
292.801 677.678 3963
302.964 679.217 3972
313.249 680.927 3982
322.772 680.927 3982
332.294 680.927 3982
341.816 680.927 3982
351.338 680.927 3982
360.86 680.927 3982
369.452 679.217 3972
378.092 677.678 3963
387.569 677.678 3963
400.852 684.176 4001
411.343 685.715 4010
420.932 685.715 4010
430.522 685.715 4010
440.111 685.715 4010
449.7 685.715 4010
459.289 685.715 4010
467.826 684.176 4001
481.927 690.674 4039
492.803 692.384 4049
502.485 692.384 4049
514.698 695.804 4069
524.428 695.804 4069
534.158 695.804 4069
570.223 530.275 3101
577.639 530.275 3101
585.054 530.275 3101
592.47 530.275 3101
590.986 522.409 3055
598.292 522.409 3055
601.236 518.646 3033
608.489 518.646 3033
615.742 518.646 3033
622.995 518.646 3033
629.208 517.792 3028
635.188 516.766 3022
642.415 516.766 3022
649.641 516.766 3022
655.781 515.91 3017
660.578 514.029 3006
660.658 508.557 2974
667.77 508.557 2974
672.385 506.676 2963
674.655 503.085 2942
673.349 496.929 2906
679.127 496.074 2901
686.064 496.074 2901
691.807 495.219 2896
698.732 495.219 2896
706.876 496.074 2901
716.274 497.784 2911
723.235 497.784 2911
731.701 498.81 2917
741.208 500.52 2927
748.208 500.52 2927
755.207 500.52 2927
762.207 500.52 2927
769.206 500.52 2927
776.205 500.52 2927
781.867 499.665 2922
791.554 501.375 2932
799.927 502.23 2937
806.95 502.23 2937
819.793 505.821 2958
826.867 505.821 2958
841.27 510.267 2984
850.112 511.293 2990
858.696 512.148 2995
865.858 512.148 2995
876.226 514.029 3006
884.884 514.884 3011
892.084 514.884 3011
899.284 514.884 3011
906.484 514.884 3011
922.181 519.672 3039
929.448 519.672 3039
936.715 519.672 3039
956.097 526.342 3078
989.124 540.364 3160
998.573 541.39 3166
1006.14 541.39 3166
1029.08 549.598 3214
1057.41 560.542 3278
1071.43 563.791 3297
1079.31 563.791 3297
1095.77 568.237 3323
1117 575.077 3363
1143.78 584.653 3419
1151.95 584.653 3419
1184.22 596.794 3490
1194.96 597.991 3497
1211.24 601.924 3520
1219.65 601.924 3520
1235.75 605.686 3542
1252.3 609.619 3565
1263.3 610.816 3572
1271.84 610.816 3572
1280.38 610.816 3572
1291.81 612.184 3580
1303.27 613.552 3588
1311.85 613.552 3588
1320.43 613.552 3588
1331.61 614.749 3595
1340.2 614.749 3595
1348.8 614.749 3595
1360.42 616.117 3603
1372.07 617.485 3611
1380.71 617.485 3611
1389.34 617.485 3611
1397.98 617.485 3611
1394.54 612.184 3580
1403.1 612.184 3580
1402.59 608.251 3557
1405.15 605.686 3542
1404.84 601.924 3520
1395.59 594.4 3476
1403.9 594.4 3476
1397.59 588.244 3440
1385.79 579.865 3391
1374.17 571.657 3343
1382.16 571.657 3343
1384.75 569.434 3330
1384.35 566.014 3310
1386.79 563.791 3297
1394.68 563.791 3297
1394.48 560.542 3278
1399.32 559.345 3271
1401.55 557.122 3258
1409.34 557.122 3258
1417.13 557.122 3258
1422.3 556.096 3252
1430.08 556.096 3252
1432.11 553.873 3239
1439.85 553.873 3239
1447.6 553.873 3239
1455.34 553.873 3239
1463.09 553.873 3239
1470.83 553.873 3239
1478.58 553.873 3239
1483.57 552.847 3233
1488.53 551.821 3227
1496.25 551.821 3227
1501.17 550.795 3221
1505.59 549.598 3214
1507.63 547.546 3202
1503.93 543.442 3178
1511.53 543.442 3178
1513.39 541.39 3166
1506.55 536.26 3136
1500.05 531.301 3107
1507.48 531.301 3107
1500.77 526.342 3078
1499.8 523.435 3061
1480.04 514.029 3006
1471.4 508.557 2974
1478.51 508.557 2974
1467.14 502.23 2937
1458.6 496.929 2906
1457.98 494.364 2891
1464.9 494.364 2891
1466.72 492.654 2881
1471.05 491.799 2876
1472.79 490.089 2866
1479.64 490.089 2866
1481.83 488.55 2857
1488.66 488.55 2857
1490.26 486.84 2847
1494.44 485.985 2842
1501.23 485.985 2842
1508.03 485.985 2842
1512.16 485.13 2837
1514.13 483.591 2828
1520.89 483.591 2828
1524.95 482.736 2823
1528.99 481.881 2818
1533 481.026 2813
1539.73 481.026 2813
1541.51 479.487 2804
1548.21 479.487 2804
1552.15 478.632 2799
1558.84 478.632 2799
1560.5 477.093 2790
1567.17 477.093 2790
1573.84 477.093 2790
1582.78 477.777 2794
1592.3 478.632 2799
1599 478.632 2799
1608.56 479.487 2804
1615.26 479.487 2804
1621.97 479.487 2804
1628.68 479.487 2804
1640.63 481.026 2813
1647.36 481.026 2813
1657.02 481.881 2818
1663.76 481.881 2818
1673.46 482.736 2823
1680.22 482.736 2823
1686.97 482.736 2823
1693.72 482.736 2823
1700.47 482.736 2823
1707.22 482.736 2823
1717 483.591 2828
1726.2 484.275 2832
1732.98 484.275 2832
1739.75 484.275 2832
1740.97 482.736 2823
1747.72 482.736 2823
1754.47 482.736 2823
1754.98 481.026 2813
1761.71 481.026 2813
1768.44 481.026 2813
1775.16 481.026 2813
1781.89 481.026 2813
1786.07 480.342 2809
1792.79 480.342 2809
1799.51 480.342 2809
1806.23 480.342 2809
1806.49 478.632 2799
1807.35 477.093 2790
1814.02 477.093 2790
1820.7 477.093 2790
1824.09 476.238 2785
1830.75 476.238 2785
1837.41 476.238 2785
1838.11 474.699 2776
1838.77 473.16 2767
1845.39 473.16 2767
1852 473.16 2767
1858.62 473.16 2767
1865.24 473.16 2767
1868.47 472.305 2762
1875.08 472.305 2762
1875.55 470.766 2753
1875.98 469.227 2744
1882.54 469.227 2744
1889.1 469.227 2744
1895.66 469.227 2744
1902.23 469.227 2744
1908.79 469.227 2744
1915.35 469.227 2744
1921.91 469.227 2744
1928.47 469.227 2744
1935.04 469.227 2744
1944.43 469.911 2748
1957.39 471.45 2757
1963.98 471.45 2757
1970.57 471.45 2757
1977.17 471.45 2757
1983.76 471.45 2757
1987.46 470.766 2753
1983.91 468.372 2739
1990.46 468.372 2739
2003.57 469.911 2748
2016.72 471.45 2757
2023.32 471.45 2757
2029.91 471.45 2757
2036.5 471.45 2757
2043.09 471.45 2757
2040.02 469.227 2744
2053.3 470.766 2753
2062.87 471.45 2757
2076.97 473.16 2767
2083.59 473.16 2767
2100.03 475.383 2780
2106.67 475.383 2780
2113.32 475.383 2780
2119.97 475.383 2780
2126.62 475.383 2780
-2042.13 485.337 2799
-2045.62 487.765 2813
-2052.67 491.059 2832
-2045.89 491.059 2832
-2039.12 491.059 2832
-2025.89 489.499 2823
-2025.58 491.059 2832
-2018.81 491.059 2832
-2019.14 492.793 2842
-2054.12 503.024 2901
-2047.18 503.024 2901
-2040.24 503.024 2901
-2033.31 503.024 2901
-2022.88 502.157 2896
-2015.95 502.157 2896
-1981.97 495.394 2857
-1975.14 495.394 2857
-1968.31 495.394 2857
-1961.48 495.394 2857
-1954.64 495.394 2857
-1953.95 496.955 2866
-1957.28 499.556 2881
-1950.4 499.556 2881
-1943.51 499.556 2881
-1946.7 502.157 2896
-1946.47 503.891 2906
-1956.88 508.399 2932
-1949.86 508.399 2932
-1949.48 510.133 2942
-1956.31 513.774 2963
-1959.75 516.549 2979
-1952.63 516.549 2979
-1977.5 525.045 3028
-1995.64 531.808 3067
-1988.3 531.808 3067
-1999.06 536.663 3095
-2006.46 540.651 3118
-1999 540.651 3118
-1991.54 540.651 3118
-2007 546.893 3154
-2007.06 548.974 3166
-1999.49 548.974 3166
-1991.92 548.974 3166
-1995.63 552.095 3184
-1988.02 552.095 3184
-1984.13 553.135 3190
-1976.51 553.135 3190
-1976.28 555.216 3202
-1980.31 558.511 3221
-1972.61 558.511 3221
-1964.9 558.511 3221
-1957.2 558.511 3221
-1945.26 557.297 3214
-1937.58 557.297 3214
-1926.29 556.256 3208
-1929.98 559.551 3227
-1925.84 560.591 3233
-1975.66 577.411 3330
-1967.69 577.411 3330
-1987.39 585.561 3377
-1999.83 591.629 3412
-2020.27 600.126 3461
-2011.99 600.126 3461
-2020.51 605.154 3490
-2020.81 607.755 3505
-2016.45 608.969 3512
-2008.05 608.969 3512
-2016.73 614.171 3542
-2008.26 614.171 3542
-2003.74 615.385 3549
-1995.26 615.385 3549
-1986.77 615.385 3549
-1982.74 616.772 3557
-1974.24 616.772 3557
-1965.73 616.772 3557
-1957.23 616.772 3557
-1948.72 616.772 3557
-1940.21 616.772 3557
-1931.71 616.772 3557
-1923.2 616.772 3557
-1914.7 616.772 3557
-1906.19 616.772 3557
-1897.69 616.772 3557
-1889.18 616.772 3557
-1884.9 618.159 3565
-1876.38 618.159 3565
-1867.85 618.159 3565
-1859.33 618.159 3565
-1854.44 619.373 3572
-1850.03 620.76 3580
-1841.47 620.76 3580
-1832.91 620.76 3580
-1828.42 622.147 3588
-1819.84 622.147 3588
-1811.26 622.147 3588
-1798.66 620.76 3580
-1790.1 620.76 3580
-1781.54 620.76 3580
-1772.98 620.76 3580
-1768.36 622.147 3588
-1759.78 622.147 3588
-1758.53 624.748 3603
-1749.91 624.748 3603
-1749.03 627.523 3619
-1744.22 628.91 3627
-1739.37 630.297 3635
-1730.68 630.297 3635
-1729.1 632.898 3650
-1724.14 634.285 3658
-1730.87 640.007 3691
-1722.04 640.007 3691
-1735.96 648.504 3740
-1727.01 648.504 3740
-1725.88 651.451 3757
-1716.89 651.451 3757
-1712 653.012 3766
-1718.37 658.907 3800
-1729.08 666.537 3844
-1719.88 666.537 3844
-1710.69 666.537 3844
-1701.5 666.537 3844
-1692.31 666.537 3844
-1671.73 662.028 3818
-1654.76 658.907 3800
-1605.4 642.781 3707
-1582.75 637.233 3675
-1573.97 637.233 3675
-1554.53 632.898 3650
-1532.67 627.523 3619
-1501.28 618.159 3565
-1492.75 618.159 3565
-1474.65 614.171 3542
-1453.76 608.969 3512
-1439.19 606.368 3497
-1430.83 606.368 3497
-1404.98 598.912 3454
-1391.06 596.484 3440
-1365.95 589.202 3398
-1357.82 589.202 3398
-1344.13 586.774 3384
-1336.04 586.774 3384
-1327.95 586.774 3384
-1319.86 586.774 3384
-1311.77 586.774 3384
-1303.67 586.774 3384
-1308.98 592.843 3419
-1308.8 596.484 3440
-1303.22 597.698 3447
-1294.97 597.698 3447
-1286.73 597.698 3447
-1291.84 603.941 3483
-1286.09 605.154 3490
-1277.74 605.154 3490
-1274.86 607.755 3505
-1266.47 607.755 3505
-1258.09 607.755 3505
-1249.71 607.755 3505
-1241.33 607.755 3505
-1187.92 585.561 3377
-1179.85 585.561 3377
-847.625 479.789 2767
-841.008 479.789 2767
-837.105 481.349 2776
-830.467 481.349 2776
-827.983 483.777 2790
-821.312 483.777 2790
-814.64 483.777 2790
-916.183 644.342 3716
-911.204 647.116 3732
-902.279 647.116 3732
-893.355 647.116 3732
-890.355 651.451 3757
-881.371 651.451 3757
-872.387 651.451 3757
-863.403 651.451 3757
-854.419 651.451 3757
-841.609 648.504 3740
-832.666 648.504 3740
-735.47 619.373 3572
-726.929 619.373 3572
-718.387 619.373 3572
-709.845 619.373 3572
-695.413 614.171 3542
-686.943 614.171 3542
-654.623 607.755 3505
-650.298 611.57 3527
-641.864 611.57 3527
-633.429 611.57 3527
-628.894 615.385 3549
-620.407 615.385 3549
-611.92 615.385 3549
-603.434 615.385 3549
-596.288 616.772 3557
-589.104 618.159 3565
-583.022 620.76 3580
-574.461 620.76 3580
-567.165 622.147 3588
-559.674 623.361 3595
-551.078 623.361 3595
-542.481 623.361 3595
-535.072 624.748 3603
-526.456 624.748 3603
-520.14 627.523 3619
-511.486 627.523 3619
-503.944 628.91 3627
-495.27 628.91 3627
-486.597 628.91 3627
-477.924 628.91 3627
-468.215 627.523 3619
-459.561 627.523 3619
-450.907 627.523 3619
-442.253 627.523 3619
-434.557 628.91 3627
-426.824 630.297 3635
-418.936 631.511 3642
-410.227 631.511 3642
-403.282 634.285 3658
-396.368 637.233 3675
-389.268 640.007 3691
-380.441 640.007 3691
-373.226 642.781 3707
-366.819 647.116 3732
-360.292 651.451 3757
-351.308 651.451 3757
-345.513 657.52 3792
-337.155 658.907 3800
-328.068 658.907 3800
-318.981 658.907 3800
-309.894 658.907 3800
-300.807 658.907 3800
-293.102 662.028 3818
-283.972 662.028 3818
-276.065 664.976 3835
-266.895 664.976 3835
-257.724 664.976 3835
-247.97 663.416 3826
-238.322 662.028 3818
-227.091 655.96 3783
-217.064 653.012 3766
-208.059 653.012 3766
-197.256 647.116 3732
-187.524 644.342 3716
-109.702 395.691 2282
-104.245 395.691 2282
-98.3984 394.131 2273
-92.963 394.131 2273
-87.5276 394.131 2273
-81.9838 393.61 2270
-76.3532 392.57 2264
-70.9393 392.57 2264
-65.3228 391.356 2257
-59.9256 391.356 2257
-54.3835 390.316 2251
-48.87 389.276 2245
-43.3272 387.715 2236
-37.9802 387.715 2236
-32.4581 385.634 2224
-26.9324 382.686 2207
-21.5371 380.606 2195
-16.2882 380.606 2195
-11.0091 379.565 2189
-5.7534 378.178 2181
-0.536489 377.138 2175
4.6646 377.138 2175
9.80218 374.71 2161
14.949 374.19 2158
20.0628 373.323 2153
25.1762 372.803 2150
30.3175 372.803 2150
35.4093 372.283 2147
40.4868 371.762 2144
45.6137 371.762 2144
50.7407 371.762 2144
55.8676 371.762 2144
60.9946 371.762 2144
66.1216 371.762 2144
71.2485 371.762 2144
76.3755 371.762 2144
81.4264 371.416 2142
86.6294 371.762 2144
91.7563 371.762 2144
96.8833 371.762 2144
102.01 371.762 2144
107.437 372.803 2150
112.735 373.323 2153
117.884 373.323 2153
123.032 373.323 2153
129.133 376.097 2169
134.877 377.658 2178
140.086 377.658 2178
145.294 377.658 2178
266.869 669.658 3862
276.104 669.658 3862
285.339 669.658 3862
302.964 688.732 3972
313.249 690.466 3982
324.312 693.76 4001
333.879 693.76 4001
343.447 693.76 4001
351.338 690.466 3982
360.86 690.466 3982
370.382 690.466 3982
378.092 687.171 3963
390.307 692.026 3991
400.852 693.76 4001
411.343 695.321 4010
420.932 695.321 4010
430.522 695.321 4010
440.111 695.321 4010
449.7 695.321 4010
459.289 695.321 4010
468.878 695.321 4010
483.121 702.083 4049
494.02 703.817 4059
503.726 703.817 4059
513.433 703.817 4059
523.139 703.817 4059
532.845 703.817 4059
593.983 525.912 3033
601.236 525.912 3033
608.489 525.912 3033
615.742 525.912 3033
622.995 525.912 3033
629.208 525.045 3028
641.073 528.86 3050
648.367 528.86 3050
655.66 528.86 3050
662.954 528.86 3050
660.578 521.23 3006
662.879 517.416 2984
670.015 517.416 2984
674.881 515.682 2974
679.471 513.774 2963
673.349 503.891 2906
677.957 502.157 2896
684.882 502.157 2896
691.807 502.157 2896
697.526 501.29 2891
706.876 503.024 2901
717.75 505.798 2917
724.725 505.798 2917
731.701 505.798 2917
750.325 513.774 2963
757.41 513.774 2963
764.496 513.774 2963
775.748 516.549 2979
782.871 516.549 2979
789.995 516.549 2979
797.119 516.549 2979
804.242 516.549 2979
801.289 510.133 2942
808.324 510.133 2942
819.793 512.907 2958
835.812 518.456 2990
842.962 518.456 2990
850.112 518.456 2990
858.696 519.323 2995
865.858 519.323 2995
876.226 521.23 3006
884.884 522.097 3011
892.084 522.097 3011
899.284 522.097 3011
906.484 522.097 3011
922.181 526.952 3039
929.448 526.952 3039
936.715 526.952 3039
956.097 533.715 3078
975.978 540.651 3118
998.573 548.974 3166
1006.14 548.974 3166
1049.58 568.394 3278
1065.48 572.729 3303
1092.88 583.133 3363
1100.92 583.133 3363
1111.27 584.347 3370
1135.6 592.843 3419
1157.83 600.126 3461
1166.1 600.126 3461
1184.22 605.154 3490
1194.96 606.368 3497
1211.24 610.356 3520
1219.65 610.356 3520
1235.75 614.171 3542
1252.3 618.159 3565
1263.3 619.373 3572
1271.84 619.373 3572
1280.38 619.373 3572
1291.81 620.76 3580
1303.27 622.147 3588
1311.85 622.147 3588
1320.43 622.147 3588
1331.61 623.361 3595
1340.2 623.361 3595
1348.8 623.361 3595
1363.44 626.135 3611
1372.07 626.135 3611
1380.71 626.135 3611
1389.34 626.135 3611
1397.98 626.135 3611
1394.54 620.76 3580
1403.1 620.76 3580
1399.44 615.385 3549
1401.97 612.784 3534
1404.84 610.356 3520
1398.4 603.941 3483
1406.73 603.941 3483
1397.59 596.484 3440
1385.79 587.988 3391
1374.17 579.665 3343
1382.16 579.665 3343
1379.34 575.157 3317
1384.35 573.943 3310
1386.79 571.689 3297
1394.68 571.689 3297
1391.5 567.18 3271
1396.76 566.14 3265
1401.55 564.926 3258
1406.75 563.886 3252
1414.52 563.886 3252
1419.68 562.846 3246
1424.36 561.632 3239
1432.11 561.632 3239
1439.85 561.632 3239
1447.6 561.632 3239
1455.34 561.632 3239
1463.09 561.632 3239
1470.83 561.632 3239
1478.58 561.632 3239
1480.82 559.551 3227
1485.77 558.511 3221
1493.47 558.511 3221
1501.17 558.511 3221
1502.78 556.256 3208
1507.63 555.216 3202
1506.77 552.095 3184
1514.38 552.095 3184
1516.26 550.014 3172
1512.32 545.853 3148
1505.36 540.651 3118
1512.82 540.651 3118
1503.69 534.755 3084
1502.74 531.808 3067
1485.46 523.138 3017
1479.31 518.456 2990
1486.46 518.456 2990
1475.13 512.04 2953
1464.12 505.798 2917
1465.55 503.891 2906
1472.5 503.891 2906
1469.27 500.423 2886
1473.61 499.556 2881
1477.93 498.689 2876
1484.81 498.689 2876
1486.5 496.955 2866
1488.66 495.394 2857
1490.26 493.66 2847
1497.07 493.66 2847
1503.87 493.66 2847
1505.38 491.926 2837
1509.5 491.059 2832
1514.13 490.366 2828
1520.89 490.366 2828
1524.95 489.499 2823
1526.28 487.765 2813
1530.82 487.071 2809
1537.54 487.071 2809
1541.51 486.204 2804
1545.45 485.337 2799
1549.37 484.47 2794
1556.05 484.47 2794
1560.5 483.777 2790
1567.17 483.777 2790
1573.84 483.777 2790
1582.78 484.47 2794
1589.46 484.47 2794
1596.14 484.47 2794
1602.82 484.47 2794
1612.38 485.337 2799
1619.08 485.337 2799
1625.77 485.337 2799
1632.46 485.337 2799
1642.09 486.204 2804
1654.08 487.765 2813
1660.81 487.765 2813
1667.54 487.765 2813
1674.26 487.765 2813
1683.98 488.632 2818
1693.72 489.499 2823
1700.47 489.499 2823
1707.22 489.499 2823
1717 490.366 2828
1726.2 491.059 2832
1732.98 491.059 2832
1739.75 491.059 2832
1740.97 489.499 2823
1747.72 489.499 2823
1754.47 489.499 2823
1754.98 487.765 2813
1761.71 487.765 2813
1768.44 487.765 2813
1775.16 487.765 2813
1781.89 487.765 2813
1786.07 487.071 2809
1792.79 487.071 2809
1799.51 487.071 2809
1806.23 487.071 2809
1806.49 485.337 2799
1807.35 483.777 2790
1814.02 483.777 2790
1820.7 483.777 2790
1824.09 482.91 2785
1830.75 482.91 2785
1837.41 482.91 2785
1838.11 481.349 2776
1838.77 479.789 2767
1845.39 479.789 2767
1852 479.789 2767
1858.62 479.789 2767
1865.24 479.789 2767
1868.47 478.922 2762
1875.08 478.922 2762
1875.55 477.361 2753
1875.98 475.8 2744
1882.54 475.8 2744
1889.1 475.8 2744
1895.66 475.8 2744
1902.23 475.8 2744
1905.31 474.933 2739
1915.35 475.8 2744
1921.91 475.8 2744
1928.47 475.8 2744
1935.04 475.8 2744
1944.43 476.494 2748
1954.55 477.361 2753
1961.13 477.361 2753
1967.71 477.361 2753
1974.3 477.361 2753
1980.88 477.361 2753
1983.86 476.494 2748
1983.91 474.933 2739
1990.46 474.933 2739
2003.57 476.494 2748
2016.72 478.055 2757
2023.32 478.055 2757
2029.91 478.055 2757
2036.5 478.055 2757
2043.09 478.055 2757
2040.02 475.8 2744
2053.3 477.361 2753
2062.87 478.055 2757
2076.97 479.789 2767
2083.59 479.789 2767
2100.03 482.043 2780
2106.67 482.043 2780
2113.32 482.043 2780
2119.97 482.043 2780
2126.62 482.043 2780
-2045.62 494.503 2813
-2052.67 497.843 2832
-2045.89 497.843 2832
-2039.12 497.843 2832
-2025.89 496.261 2823
-2025.58 497.843 2832
-2018.81 497.843 2832
-2019.14 499.601 2842
-2054.12 509.973 2901
-2047.18 509.973 2901
-2040.24 509.973 2901
-2033.31 509.973 2901
-2022.88 509.094 2896
-2015.95 509.094 2896
-1981.97 502.238 2857
-1975.14 502.238 2857
-1968.31 502.238 2857
-1961.48 502.238 2857
-1954.64 502.238 2857
-1953.95 503.82 2866
-1957.28 506.457 2881
-1950.4 506.457 2881
-1943.51 506.457 2881
-1946.7 509.094 2896
-1946.47 510.852 2906
-1956.88 515.423 2932
-1949.86 515.423 2932
-1949.48 517.181 2942
-1956.31 520.872 2963
-1959.75 523.685 2979
-1952.63 523.685 2979
-1977.5 532.299 3028
-1995.64 539.155 3067
-1988.3 539.155 3067
-1999.06 544.077 3095
-2006.46 548.12 3118
-1999 548.12 3118
-1991.54 548.12 3118
-2007 554.448 3154
-2007.06 556.558 3166
-1999.49 556.558 3166
-1991.92 556.558 3166
-1995.63 559.722 3184
-1988.02 559.722 3184
-1984.13 560.777 3190
-1976.51 560.777 3190
-1976.28 562.887 3202
-1980.31 566.227 3221
-1972.61 566.227 3221
-1964.9 566.227 3221
-1957.2 566.227 3221
-1945.26 564.996 3214
-1937.58 564.996 3214
-1926.29 563.941 3208
-1929.98 567.281 3227
-1925.84 568.336 3233
-1975.66 585.388 3330
-1967.69 585.388 3330
-1987.39 593.65 3377
-1999.83 599.803 3412
-2029.03 611.054 3476
-2020.71 611.054 3476
-2024.56 614.745 3497
-2024.85 617.382 3512
-2021.04 618.788 3520
-2012.62 618.788 3520
-2016.73 622.656 3542
-2008.26 622.656 3542
-2003.74 623.886 3549
-1995.26 623.886 3549
-1986.77 623.886 3549
-1982.74 625.293 3557
-1974.24 625.293 3557
-1965.73 625.293 3557
-1957.23 625.293 3557
-1948.72 625.293 3557
-1940.21 625.293 3557
-1931.71 625.293 3557
-1923.2 625.293 3557
-1914.7 625.293 3557
-1906.19 625.293 3557
-1897.69 625.293 3557
-1889.18 625.293 3557
-1884.9 626.699 3565
-1876.38 626.699 3565
-1867.85 626.699 3565
-1859.33 626.699 3565
-1854.44 627.93 3572
-1850.03 629.336 3580
-1841.47 629.336 3580
-1832.91 629.336 3580
-1828.42 630.742 3588
-1819.84 630.742 3588
-1811.26 630.742 3588
-1798.66 629.336 3580
-1790.1 629.336 3580
-1781.54 629.336 3580
-1772.98 629.336 3580
-1768.36 630.742 3588
-1759.78 630.742 3588
-1758.53 633.379 3603
-1749.91 633.379 3603
-1749.03 636.192 3619
-1744.22 637.598 3627
-1739.37 639.005 3635
-1730.68 639.005 3635
-1729.1 641.641 3650
-1724.14 643.048 3658
-1730.87 648.849 3691
-1722.04 648.849 3691
-1735.96 657.463 3740
-1727.01 657.463 3740
-1725.88 660.451 3757
-1716.89 660.451 3757
-1719.73 665.022 3783
-1718.37 668.01 3800
-1729.08 675.745 3844
-1719.88 675.745 3844
-1710.69 675.745 3844
-1701.5 675.745 3844
-1692.31 675.745 3844
-1679.17 674.163 3835
-1658.68 669.592 3809
-1609.3 653.244 3716
-1589.64 648.849 3691
-1580.82 648.849 3691
-1561.77 644.63 3667
-1536.06 637.598 3627
-1504.23 627.93 3572
-1495.68 627.93 3572
-1474.65 622.656 3542
-1453.76 617.382 3512
-1439.19 614.745 3497
-1430.83 614.745 3497
-1407.82 608.417 3461
-1391.06 604.725 3440
-1365.95 597.342 3398
-1357.82 597.342 3398
-1344.13 594.881 3384
-1336.04 594.881 3384
-1327.95 594.881 3384
-1319.86 594.881 3384
-1311.77 594.881 3384
-1303.67 594.881 3384
-1308.98 601.033 3419
-1311.46 605.956 3447
-1303.22 605.956 3447
-1294.97 605.956 3447
-1291.96 608.417 3461
-1294.44 613.515 3490
-1294.2 617.382 3512
-1285.8 617.382 3512
-1277.4 617.382 3512
-1271.89 618.788 3520
-1263.48 618.788 3520
-1255.06 618.788 3520
-1251.6 621.25 3534
-1243.15 621.25 3534
-1234.7 621.25 3534
-847.625 486.417 2767
