-616.696 863.5 3627
-603.999 857.786 3603
-595.383 857.786 3603
-586.768 857.786 3603
-573.177 850.405 3572
-563.529 848.739 3565
-557.339 852.31 3580
-548.778 852.31 3580
-540.218 852.31 3580
-531.657 852.31 3580
-520.904 848.739 3565
-512.379 848.739 3565
-502.723 846.834 3557
-495.329 848.739 3565
-486.804 848.739 3565
-478.279 848.739 3565
-469.754 848.739 3565
-460.194 846.834 3557
-452.704 848.739 3565
-444.179 848.739 3565
-435.654 848.739 3565
-427.129 848.739 3565
-418.604 848.739 3565
-410.079 848.739 3565
-401.554 848.739 3565
-393.029 848.739 3565
-384.504 848.739 3565
-375.979 848.739 3565
-367.454 848.739 3565
-358.929 848.739 3565
-349.618 846.834 3557
-341.112 846.834 3557
-331.858 844.93 3549
-323.371 844.93 3549
-314.885 844.93 3549
-306.398 844.93 3549
-297.911 844.93 3549
-289.424 844.93 3549
-280.938 844.93 3549
-271.914 843.263 3542
-263.444 843.263 3542
-162.04 535.908 2251
-156.657 535.908 2251
-151.274 535.908 2251
-145.697 535.193 2248
-140.134 534.479 2245
-134.586 533.765 2242
-129.224 533.765 2242
-123.863 533.765 2242
-118.502 533.765 2242
-112.989 533.051 2239
-107.635 533.051 2239
-102.281 533.051 2239
-96.9266 533.051 2239
-91.5724 533.051 2239
-85.9873 531.622 2233
-80.6475 531.622 2233
-75.2065 530.908 2230
-69.6859 529.48 2224
-64.3677 529.48 2224
-59.0494 529.48 2224
-53.7312 529.48 2224
-48.5435 530.908 2230
-43.2109 530.908 2230
-37.8783 530.908 2230
-32.5457 530.908 2230
-27.1765 530.194 2227
-21.8216 529.48 2224
-16.5033 529.48 2224
-11.1398 527.337 2215
-5.82199 525.432 2207
-0.541422 522.576 2195
4.70749 522.576 2195
9.91558 520.433 2186
15.1291 519.957 2184
20.2678 517.814 2175
25.4689 517.814 2175
30.5854 516.386 2169
35.6897 515.195 2164
40.6567 512.576 2153
45.7414 511.862 2150
50.8827 511.862 2150
56.024 511.862 2150
60.9946 510.434 2144
66.0599 509.958 2142
71.182 509.958 2142
76.1973 509.243 2139
81.3123 509.243 2139
86.4273 509.243 2139
91.5423 509.243 2139
96.6573 509.243 2139
101.772 509.243 2139
106.887 509.243 2139
112.159 509.958 2142
117.282 509.958 2142
122.404 509.958 2142
127.169 508.529 2136
132.277 508.529 2136
137.384 508.529 2136
142.292 507.815 2133
147.393 507.815 2133
152.493 507.815 2133
157.594 507.815 2133
162.695 507.815 2133
167.795 507.815 2133
553.573 890.402 3740
563.87 892.545 3749
574.057 894.449 3757
583.041 894.449 3757
593.444 896.592 3766
602.449 896.592 3766
611.455 896.592 3766
616.177 890.402 3740
621.109 884.688 3716
628.469 882.546 3707
640.257 886.593 3724
649.162 886.593 3724
658.067 886.593 3724
666.972 886.593 3724
675.878 886.593 3724
683.312 884.688 3716
701.512 896.592 3766
715.423 902.782 3792
724.49 902.782 3792
733.558 902.782 3792
740.863 900.639 3783
749.91 900.639 3783
758.956 900.639 3783
768.002 900.639 3783
777.049 900.639 3783
858.465 900.639 3783
867.512 900.639 3783
876.558 900.639 3783
885.604 900.639 3783
894.651 900.639 3783
895.575 892.545 3749
904.54 892.545 3749
899.372 878.736 3691
896.142 867.071 3642
904.851 867.071 3642
907.791 861.595 3619
916.445 861.595 3619
925.099 861.595 3619
929.625 857.786 3603
938.241 857.786 3603
946.856 857.786 3603
955.472 857.786 3603
964.088 857.786 3603
972.704 857.786 3603
981.32 857.786 3603
987.738 855.881 3595
994.394 854.215 3588
996.545 848.739 3565
1005.07 848.739 3565
1009.05 844.93 3549
1015.53 843.263 3542
1019.66 839.692 3527
1028.09 839.692 3527
1036.53 839.692 3527
1040.52 836.121 3512
1048.92 836.121 3512
1055.21 834.454 3505
1063.59 834.454 3505
1071.97 834.454 3505
1080.35 834.454 3505
1086.25 832.55 3497
1094.61 832.55 3497
1102.97 832.55 3497
1111.33 832.55 3497
1119.7 832.55 3497
1128.06 832.55 3497
1136.42 832.55 3497
1144.78 832.55 3497
1153.15 832.55 3497
1164.17 834.454 3505
1172.55 834.454 3505
1180.93 834.454 3505
1189.31 834.454 3505
1197.69 834.454 3505
1206.07 834.454 3505
1214.46 834.454 3505
1228.07 838.025 3520
1241.41 841.358 3534
1252.69 843.263 3542
1261.16 843.263 3542
1275 846.834 3557
1288.92 850.405 3572
1305.82 855.881 3595
1314.41 855.881 3595
1331.84 861.595 3619
1343.46 863.5 3627
1352.13 863.5 3627
1360.81 863.5 3627
1378.16 868.975 3650
1386.89 868.975 3650
1395.62 868.975 3650
1404.35 868.975 3650
1413.08 868.975 3650
1409.73 861.595 3619
1418.38 861.595 3619
1417.57 855.881 3595
1423.39 854.215 3588
1422.79 848.739 3565
1413.25 838.025 3520
1421.67 838.025 3520
1408.96 825.646 3468
1402.95 817.313 3433
1399.65 810.647 3405
1407.79 810.647 3405
1395.98 799.219 3357
1398.15 795.886 3343
1397.73 791.125 3323
1405.68 791.125 3323
1399.58 783.268 3290
1404.88 781.84 3284
1404.56 777.316 3265
1406.75 774.221 3252
1414.52 774.221 3252
1419.68 772.793 3246
1427.44 772.793 3246
1435.2 772.793 3246
1442.96 772.793 3246
1450.73 772.793 3246
1455.34 771.126 3239
1466.25 772.793 3246
1474.01 772.793 3246
1481.77 772.793 3246
1489.54 772.793 3246
1497.3 772.793 3246
1505.06 772.793 3246
1512.82 772.793 3246
1520.58 772.793 3246
1528.35 772.793 3246
1536.11 772.793 3246
1543.87 772.793 3246
1548.29 771.126 3239
1550.27 768.269 3227
1555.09 766.841 3221
1562.79 766.841 3221
1561.23 762.317 3202
1563.01 759.461 3190
1564.73 756.604 3178
1572.33 756.604 3178
1567.99 750.89 3154
1563.55 745.176 3130
1559.49 739.7 3107
1549.27 731.368 3072
1556.61 731.368 3072
1555.3 727.32 3055
1529.36 711.845 2990
1506.71 698.037 2932
1513.72 698.037 2932
1502.06 689.466 2896
1495.96 683.514 2871
1492.88 678.991 2852
1491.81 675.42 2837
1498.59 675.42 2837
1497.95 672.087 2823
1502.03 670.896 2818
1508.77 670.896 2818
1515.51 670.896 2818
1514.69 667.563 2804
1518.68 666.373 2799
1522.65 665.183 2794
1529.33 665.183 2794
1536.01 665.183 2794
1537.72 663.04 2785
1541.61 661.85 2780
1551.04 663.04 2785
1560.5 664.23 2790
1567.17 664.23 2790
1576.1 665.183 2794
1582.78 665.183 2794
1605.96 672.087 2823
1612.71 672.087 2823
1619.46 672.087 2823
1626.21 672.087 2823
1632.96 672.087 2823
2027.31 827.55 3476
2047.92 832.55 3497
2056.28 832.55 3497
2086.49 841.358 3534
2103.83 844.93 3549
2117.08 846.834 3557
2125.59 846.834 3557
2134.09 846.834 3557
2147.42 848.739 3565
2155.94 848.739 3565
2164.47 848.739 3565
2172.99 848.739 3565
2181.52 848.739 3565
2190.04 848.739 3565
2198.57 848.739 3565
2197.19 844.93 3549
2205.68 844.93 3549
2214.16 844.93 3549
2218.27 843.263 3542
2226.74 843.263 3542
2221.32 838.025 3520
2224.67 836.121 3512
2233.07 836.121 3512
2213.39 825.646 3468
2212.71 822.312 3454
2207.47 817.313 3433
2215.68 817.313 3433
2219.35 815.646 3426
2191.13 802.314 3370
2186.14 797.553 3350
2194.15 797.553 3350
2202.16 797.553 3350
2205.55 795.886 3343
2200.31 791.125 3323
2208.25 791.125 3323
2220.87 792.791 3330
2228.83 792.791 3330
2236.79 792.791 3330
2249.47 794.458 3337
2261.51 795.886 3343
2269.51 795.886 3343
2277.5 795.886 3343
2290.28 797.553 3350
2298.29 797.553 3350
2306.3 797.553 3350
2314.31 797.553 3350
2313.31 794.458 3337
2311.55 791.125 3323
2319.5 791.125 3323
2323.24 789.696 3317
2331.18 789.696 3317
2325 784.935 3297
2332.89 784.935 3297
2327.28 780.411 3278
2316.6 774.221 3252
2324.38 774.221 3252
2332.15 774.221 3252
2339.93 774.221 3252
2338.32 771.126 3239
2327.96 765.174 3214
2335.64 765.174 3214
2338.96 763.746 3208
2337.85 760.889 3196
2332.28 756.604 3178
2331.05 753.747 3166
2338.62 753.747 3166
2346.19 753.747 3166
2353.76 753.747 3166
2352.38 750.89 3154
2359.92 750.89 3154
2367.46 750.89 3154
2365.97 748.033 3142
2378.02 749.461 3148
2399.18 753.747 3166
2434.12 762.317 3202
2460.84 768.269 3227
2468.56 768.269 3227
-2596.58 833.953 3468
-2588.28 833.953 3468
-2591.15 837.56 3483
-2610.26 846.458 3520
-2618.1 851.748 3542
-2609.63 851.748 3542
-2606.3 853.431 3549
-2626.36 862.81 3588
-2646.24 872.188 3627
-2637.56 872.188 3627
-2657.88 881.807 3667
-2649.11 881.807 3667
-2640.35 881.807 3667
-2631.58 881.807 3667
-2622.81 881.807 3667
-2614.04 881.807 3667
-2605.27 881.807 3667
-2573.84 874.112 3635
-2559.51 872.188 3627
-2545.21 870.264 3619
-2536.55 870.264 3619
-2527.9 870.264 3619
-2486.53 858.962 3572
-2451.62 849.824 3534
-2443.17 849.824 3534
-2409.23 840.927 3497
-2396.06 839.243 3490
-2382.93 837.56 3483
-2379.37 839.243 3490
-2371.02 839.243 3490
-2362.68 839.243 3490
-2354.33 839.243 3490
-2350.69 840.927 3497
-2342.33 840.927 3497
-2343.98 844.534 3512
-2335.58 844.534 3512
-2332.48 846.458 3520
-2324.07 846.458 3520
-2324.86 849.824 3534
-2316.41 849.824 3534
-2307.96 849.824 3534
-2299.51 849.824 3534
-2291.06 849.824 3534
-2287.77 851.748 3542
-2288.96 855.355 3557
-2285.58 857.279 3565
-2277.05 857.279 3565
-2268.53 857.279 3565
-2260 857.279 3565
-2251.48 857.279 3565
-2237.92 855.355 3557
-2229.41 855.355 3557
-2220.91 855.355 3557
-2212.4 855.355 3557
-2203.9 855.355 3557
-2195.39 855.355 3557
-2186.88 855.355 3557
-2178.38 855.355 3557
-2164.99 853.431 3549
-2143.14 848.141 3527
-2134.7 848.141 3527
-2126.27 848.141 3527
-2117.84 848.141 3527
-2109.4 848.141 3527
-2100.97 848.141 3527
-2092.53 848.141 3527
-2075.24 844.534 3512
-2062.72 842.851 3505
-2049.65 840.927 3497
-2041.29 840.927 3497
-2020.71 835.877 3476
-2007.77 833.953 3468
-1999.48 833.953 3468
-1991.18 833.953 3468
-1982.89 833.953 3468
-1966.63 830.587 3454
-1950.43 827.22 3440
-1942.2 827.22 3440
-1933.98 827.22 3440
-1914 822.17 3419
-1909.72 823.853 3426
-1901.53 823.853 3426
-1893.34 823.853 3426
-1889 825.537 3433
-1880.79 825.537 3433
-1876.4 827.22 3440
-1868.17 827.22 3440
-1863.73 828.903 3447
-1855.49 828.903 3447
-1847.24 828.903 3447
-1835.26 827.22 3440
-1830.76 828.903 3447
-1822.51 828.903 3447
-1814.27 828.903 3447
-1806.03 828.903 3447
-1797.79 828.903 3447
-1796.81 832.27 3461
-1796.29 835.877 3476
-1787.97 835.877 3476
-1783.25 837.56 3483
-1778.48 839.243 3490
-1770.14 839.243 3490
-1761.79 839.243 3490
-1753.45 839.243 3490
-1752.6 842.851 3505
-1747.7 844.534 3512
-1739.31 844.534 3512
-1730.91 844.534 3512
-1719.08 842.851 3505
-1699.96 837.56 3483
-1702.31 842.851 3505
-1693.93 842.851 3505
-1685.55 842.851 3505
-1677.17 842.851 3505
-1668.79 842.851 3505
-1656.62 840.927 3497
-1648.25 840.927 3497
-1653.96 848.141 3527
-1659.52 855.355 3557
-1651.02 855.355 3557
-1646.2 857.279 3565
-1640.89 858.962 3572
-1642.86 864.493 3595
-1634.27 864.493 3595
-1625.67 864.493 3595
-1617.07 864.493 3595
-1608.48 864.493 3595
-1593.2 860.886 3580
-1584.64 860.886 3580
-1586.21 866.417 3603
-1577.59 866.417 3603
-1568.98 866.417 3603
-1560.36 866.417 3603
-1551.74 866.417 3603
-1543.13 866.417 3603
-1511.51 853.431 3549
-1490.75 846.458 3520
-1476.01 842.851 3505
-1467.63 842.851 3505
-1455.92 840.927 3497
-1438.86 835.877 3476
-1421.5 830.587 3454
-1413.24 830.587 3454
-1399.28 827.22 3440
-1385.4 823.853 3426
-1380.02 825.537 3433
-1380.2 830.587 3454
-1371.94 830.587 3454
-1366.44 832.27 3461
-1358.17 832.27 3461
-1349.89 832.27 3461
-1338.9 830.587 3454
-1330.64 830.587 3454
-1327.74 833.953 3468
-1322.49 835.877 3476
-1314.18 835.877 3476
-1319.39 844.534 3512
-1324.81 853.431 3549
-1324.85 858.962 3572
-1316.31 858.962 3572
-1316.19 864.493 3595
-1313.41 868.34 3611
-1315.98 875.795 3642
-1307.27 875.795 3642
-1304.26 879.643 3658
-1298.7 881.807 3667
-1289.93 881.807 3667
-1281.17 881.807 3667
-1272.4 881.807 3667
-1257.77 877.719 3650
-1246.3 875.795 3642
-1240.31 877.719 3650
-1231.58 877.719 3650
-1222.86 877.719 3650
-1214.13 877.719 3650
-1208.04 879.643 3658
-1199.29 879.643 3658
-1190.55 879.643 3658
-1181.8 879.643 3658
-1173.05 879.643 3658
-1161.76 877.719 3650
-1153.03 877.719 3650
-1144.3 877.719 3650
-1135.57 877.719 3650
-1124.38 875.795 3642
-1115.67 875.795 3642
-1106.96 875.795 3642
-1098.25 875.795 3642
-1087.44 874.112 3635
-1078.75 874.112 3635
-1070.06 874.112 3635
-1068.08 879.643 3658
-1059.34 879.643 3658
-1057.77 885.654 3683
-1048.96 885.654 3683
-1040.15 885.654 3683
-1031.35 885.654 3683
-1022.54 885.654 3683
-1018.14 889.502 3699
-1011.47 891.426 3707
-1002.61 891.426 3707
-993.745 891.426 3707
-984.881 891.426 3707
-978.386 893.59 3716
-969.5 893.59 3716
-962.682 895.514 3724
-953.776 895.514 3724
-944.871 895.514 3724
-933.955 893.59 3716
-925.069 893.59 3716
-916.183 893.59 3716
-907.297 893.59 3716
-898.411 893.59 3716
-885.455 889.502 3699
-876.61 889.502 3699
-864.011 885.654 3683
-855.204 885.654 3683
-846.397 885.654 3683
-841.228 889.502 3699
-834.183 891.426 3707
-825.318 891.426 3707
-816.454 891.426 3707
-804.104 887.578 3691
-795.277 887.578 3691
-788.156 889.502 3699
-779.31 889.502 3699
-770.465 889.502 3699
-685.145 893.59 3716
-676.259 893.59 3716
-667.373 893.59 3716
-654.057 887.578 3691
-645.23 887.578 3691
-630.714 879.643 3658
-616.696 872.188 3627
-605.34 868.34 3611
-596.705 868.34 3611
-586.768 866.417 3603
-576.868 864.493 3595
-564.636 858.962 3572
-557.339 860.886 3580
-548.778 860.886 3580
-540.218 860.886 3580
-531.657 860.886 3580
-519.735 855.355 3557
-511.229 855.355 3557
-502.723 855.355 3557
-495.329 857.279 3565
-486.804 857.279 3565
-478.279 857.279 3565
-469.754 857.279 3565
-460.194 855.355 3557
-451.688 855.355 3557
-444.179 857.279 3565
-435.654 857.279 3565
-427.129 857.279 3565
-417.665 855.355 3557
-409.159 855.355 3557
-400.653 855.355 3557
-393.029 857.279 3565
-384.504 857.279 3565
-375.979 857.279 3565
-367.454 857.279 3565
-358.929 857.279 3565
-349.618 855.355 3557
-341.112 855.355 3557
-331.858 853.431 3549
-323.371 853.431 3549
-314.885 853.431 3549
-305.794 851.748 3542
-297.324 851.748 3542
-288.854 851.748 3542
-279.75 849.824 3534
-270.762 848.141 3527
-262.328 848.141 3527
-162.256 542.021 2254
-156.866 542.021 2254
-151.476 542.021 2254
-146.086 542.021 2254
-140.134 539.857 2245
-134.586 539.136 2242
-129.224 539.136 2242
-123.863 539.136 2242
-118.343 538.414 2239
-112.838 537.693 2236
-107.635 538.414 2239
-102.281 538.414 2239
-96.9266 538.414 2239
-91.5724 538.414 2239
-85.8717 536.25 2230
-80.5391 536.25 2230
-75.2065 536.25 2230
-69.6859 534.807 2224
-64.3677 534.807 2224
-59.1291 535.529 2227
-53.8036 535.529 2227
-48.5435 536.25 2230
-43.269 536.972 2233
-37.9293 536.972 2233
-32.5895 536.972 2233
-27.2497 536.972 2233
-21.851 535.529 2227
-16.5256 535.529 2227
-11.1851 534.807 2224
-5.84309 532.643 2215
-0.543642 529.998 2204
4.72679 529.998 2204
9.9564 527.834 2195
15.1291 525.188 2184
20.2958 523.746 2178
25.5041 523.746 2178
30.5854 521.581 2169
35.7392 521.1 2167
40.6001 517.012 2150
45.7414 517.012 2150
50.8827 517.012 2150
56.024 517.012 2150
60.9946 515.57 2144
66.0599 515.089 2142
71.182 515.089 2142
76.1973 514.367 2139
81.3123 514.367 2139
86.4273 514.367 2139
91.5423 514.367 2139
96.6573 514.367 2139
101.772 514.367 2139
106.887 514.367 2139
112.002 514.367 2139
117.117 514.367 2139
122.232 514.367 2139
126.99 512.924 2133
132.091 512.924 2133
137.191 512.924 2133
142.292 512.924 2133
147.393 512.924 2133
152.493 512.924 2133
157.594 512.924 2133
162.695 512.924 2133
553.573 899.361 3740
562.516 899.361 3740
571.46 899.361 3740
579.162 897.437 3732
588.086 897.437 3732
597.01 897.437 3732
605.935 897.437 3732
612.223 893.59 3716
615.593 885.654 3683
624.401 885.654 3683
633.208 885.654 3683
642.015 885.654 3683
713.725 909.701 3783
722.771 909.701 3783
731.817 909.701 3783
740.863 909.701 3783
749.91 909.701 3783
752.135 901.525 3749
761.1 901.525 3749
859.715 901.525 3749
874.473 907.537 3774
883.497 907.537 3774
892.522 907.537 3774
883.631 889.502 3699
892.476 889.502 3699
887.432 875.795 3642
888.514 868.34 3611
897.149 868.34 3611
900.015 862.81 3588
908.594 862.81 3588
915.13 860.886 3580
925.755 862.81 3588
934.334 862.81 3588
944.754 864.493 3595
953.351 864.493 3595
961.948 864.493 3595
968.654 862.81 3588
977.234 862.81 3588
985.814 862.81 3588
988.02 857.279 3565
992.073 853.431 3549
1000.56 853.431 3549
1002.79 848.141 3527
1009.22 846.458 3520
1017.64 846.458 3520
1023.72 844.534 3512
1032.12 844.534 3512
1040.52 844.534 3512
1046.83 842.851 3505
1055.21 842.851 3505
1063.59 842.851 3505
1071.97 842.851 3505
1080.35 842.851 3505
1086.25 840.927 3497
1094.61 840.927 3497
1102.97 840.927 3497
1111.33 840.927 3497
1119.7 840.927 3497
1128.06 840.927 3497
1136.42 840.927 3497
1144.78 840.927 3497
1153.15 840.927 3497
1164.17 842.851 3505
1172.55 842.851 3505
1180.93 842.851 3505
1189.31 842.851 3505
1197.69 842.851 3505
1206.07 842.851 3505
1214.46 842.851 3505
1225.28 844.534 3512
1236.49 846.458 3520
1249.86 849.824 3534
1258.31 849.824 3534
1269.63 851.748 3542
1286.4 857.279 3565
1303.27 862.81 3588
1311.85 862.81 3588
1323.01 864.493 3595
1340.5 870.264 3619
1349.15 870.264 3619
1357.81 870.264 3619
1369.48 872.188 3627
1386.89 877.719 3650
1395.62 877.719 3650
1404.35 877.719 3650
1401.08 870.264 3619
1406.61 868.34 3611
1415.25 868.34 3611
1414.81 862.81 3588
1414.27 857.279 3565
1416.41 853.431 3549
1413.25 846.458 3520
1421.67 846.458 3520
1406.12 832.27 3461
1402.95 825.537 3433
1396.77 817.12 3398
1404.9 817.12 3398
1393.06 805.578 3350
1398.15 803.894 3343
1397.73 799.085 3323
1405.68 799.085 3323
1399.58 791.149 3290
1404.88 789.706 3284
1404.56 785.138 3265
1406.75 782.011 3252
1414.52 782.011 3252
1419.68 780.569 3246
1427.44 780.569 3246
1435.2 780.569 3246
1442.96 780.569 3246
1450.73 780.569 3246
1455.34 778.885 3239
1466.25 780.569 3246
1474.01 780.569 3246
1481.77 780.569 3246
1489.54 780.569 3246
1497.3 780.569 3246
1505.06 780.569 3246
1512.82 780.569 3246
1520.58 780.569 3246
1528.35 780.569 3246
1536.11 780.569 3246
1543.87 780.569 3246
1548.29 778.885 3239
1550.27 776 3227
1555.09 774.557 3221
1562.79 774.557 3221
1564.15 771.431 3208
1565.95 768.545 3196
1567.68 765.659 3184
1575.29 765.659 3184
1573.96 761.331 3166
1572.54 757.002 3148
1571.03 752.674 3130
1560.87 744.257 3095
1568.27 744.257 3095
1563.96 738.727 3072
1537.55 722.856 3006
1506.71 705.061 2932
1513.72 705.061 2932
1502.06 696.404 2896
1495.96 690.392 2871
1492.88 685.823 2852
1491.81 682.216 2837
1498.59 682.216 2837
1497.95 678.849 2823
1502.03 677.647 2818
1508.77 677.647 2818
1515.51 677.647 2818
1514.69 674.28 2804
1518.68 673.078 2799
1522.65 671.876 2794
1529.33 671.876 2794
1536.01 671.876 2794
1537.72 669.711 2785
1541.61 668.509 2780
1551.04 669.711 2785
1560.5 670.914 2790
1567.17 670.914 2790
1576.1 671.876 2794
1582.78 671.876 2794
1605.96 678.849 2823
1612.71 678.849 2823
1619.46 678.849 2823
1626.21 678.849 2823
1632.96 678.849 2823
2039.56 840.927 3497
2065.49 848.141 3527
2073.93 848.141 3527
2091.22 851.748 3542
2103.83 853.431 3549
2117.08 855.355 3557
2125.59 855.355 3557
2134.09 855.355 3557
2147.42 857.279 3565
2155.94 857.279 3565
2164.47 857.279 3565
2172.99 857.279 3565
2181.52 857.279 3565
2190.04 857.279 3565
2198.57 857.279 3565
2197.19 853.431 3549
2205.68 853.431 3549
2214.16 853.431 3549
2218.27 851.748 3542
2226.74 851.748 3542
2221.32 846.458 3520
2224.67 844.534 3512
2233.07 844.534 3512
2213.39 833.953 3468
2212.71 830.587 3454
2207.47 825.537 3433
2215.68 825.537 3433
2219.35 823.853 3426
2191.13 810.387 3370
2186.14 805.578 3350
2194.15 805.578 3350
2202.16 805.578 3350
2205.55 803.894 3343
2200.31 799.085 3323
2208.25 799.085 3323
2220.87 800.768 3330
2228.83 800.768 3330
2236.79 800.768 3330
2249.47 802.451 3337
2261.51 803.894 3343
2269.51 803.894 3343
2282.27 805.578 3350
2290.28 805.578 3350
2298.29 805.578 3350
2306.3 805.578 3350
2314.31 805.578 3350
2322.32 805.578 3350
2330.34 805.578 3350
2319.5 799.085 3323
2323.24 797.642 3317
2331.18 797.642 3317
2325 792.833 3297
2332.89 792.833 3297
2327.28 788.264 3278
2316.6 782.011 3252
2324.38 782.011 3252
2332.15 782.011 3252
2339.93 782.011 3252
2338.32 778.885 3239
2333.03 774.557 3221
2340.73 774.557 3221
2338.96 771.431 3208
2342.24 769.988 3202
2332.28 764.217 3178
2335.46 762.774 3172
2343.05 762.774 3172
2346.19 761.331 3166
2353.76 761.331 3166
2352.38 758.445 3154
2359.92 758.445 3154
2367.46 758.445 3154
2365.97 755.56 3142
2378.02 757.002 3148
2399.18 761.331 3166
2434.12 769.988 3202
2460.84 776 3227
2468.56 776 3227
-2602.57 844.204 3476
-2594.25 844.204 3476
-2591.15 845.904 3483
-2610.26 854.89 3520
-2618.1 860.233 3542
-2609.63 860.233 3542
-2606.3 861.933 3549
-2626.36 871.405 3588
-2646.24 880.877 3627
-2637.56 880.877 3627
-2657.88 890.591 3667
-2649.11 890.591 3667
-2646.11 892.534 3675
-2637.32 892.534 3675
-2628.53 892.534 3675
-2619.74 892.534 3675
-2610.95 892.534 3675
-2573.84 882.819 3635
-2565.15 882.819 3635
-2561.38 884.52 3642
-2552.67 884.52 3642
-2543.96 884.52 3642
-2486.53 867.519 3572
-2451.62 858.29 3534
-2443.17 858.29 3534
-2429.9 856.59 3527
-2396.06 847.604 3490
-2392.51 849.304 3497
-2384.14 849.304 3497
-2375.78 849.304 3497
-2362.68 847.604 3490
-2354.33 847.604 3490
-2350.69 849.304 3497
-2342.33 849.304 3497
-2343.98 852.947 3512
-2335.58 852.947 3512
-2332.48 854.89 3520
-2324.07 854.89 3520
-2324.86 858.29 3534
-2316.41 858.29 3534
-2307.96 858.29 3534
-2299.51 858.29 3534
-2291.06 858.29 3534
-2287.77 860.233 3542
-2288.96 863.876 3557
-2285.58 865.819 3565
-2277.05 865.819 3565
-2268.53 865.819 3565
-2260 865.819 3565
-2251.48 865.819 3565
-2237.92 863.876 3557
-2229.41 863.876 3557
-2220.91 863.876 3557
-2212.4 863.876 3557
-2203.9 863.876 3557
-2195.39 863.876 3557
-2186.88 863.876 3557
-2178.38 863.876 3557
-2164.99 861.933 3549
-2143.14 856.59 3527
-2134.7 856.59 3527
-2126.27 856.59 3527
-2117.84 856.59 3527
-2109.4 856.59 3527
-2100.97 856.59 3527
-2092.53 856.59 3527
-2075.24 852.947 3512
-2062.72 851.247 3505
-2049.65 849.304 3497
-2041.29 849.304 3497
-2020.71 844.204 3476
-2007.77 842.261 3468
-1999.48 842.261 3468
-1991.18 842.261 3468
-1982.89 842.261 3468
-1966.63 838.861 3454
-1950.43 835.461 3440
-1942.2 835.461 3440
-1933.98 835.461 3440
-1914 830.36 3419
-1909.72 832.06 3426
-1901.53 832.06 3426
-1893.34 832.06 3426
-1889 833.76 3433
-1880.79 833.76 3433
-1876.4 835.461 3440
-1868.17 835.461 3440
-1863.73 837.161 3447
-1855.49 837.161 3447
-1847.24 837.161 3447
-1835.26 835.461 3440
-1830.76 837.161 3447
-1822.51 837.161 3447
-1814.27 837.161 3447
-1806.03 837.161 3447
-1797.79 837.161 3447
-1796.81 840.561 3461
-1796.29 844.204 3476
-1787.97 844.204 3476
-1783.25 845.904 3483
-1778.48 847.604 3490
-1770.14 847.604 3490
-1761.79 847.604 3490
-1753.45 847.604 3490
-1752.6 851.247 3505
-1747.7 852.947 3512
-1739.31 852.947 3512
-1730.91 852.947 3512
-1719.08 851.247 3505
-1699.96 845.904 3483
-1702.31 851.247 3505
-1693.93 851.247 3505
-1685.55 851.247 3505
-1677.17 851.247 3505
-1668.79 851.247 3505
-1656.62 849.304 3497
-1648.25 849.304 3497
-1653.96 856.59 3527
-1659.52 863.876 3557
-1651.02 863.876 3557
-1646.2 865.819 3565
-1640.89 867.519 3572
-1642.86 873.105 3595
-1634.27 873.105 3595
-1625.67 873.105 3595
-1617.07 873.105 3595
-1608.48 873.105 3595
-1593.2 869.462 3580
-1584.64 869.462 3580
-1586.21 875.048 3603
-1577.59 875.048 3603
-1568.98 875.048 3603
-1560.36 875.048 3603
-1551.74 875.048 3603
-1543.13 875.048 3603
-1511.51 861.933 3549
-1490.75 854.89 3520
-1476.01 851.247 3505
-1467.63 851.247 3505
-1455.92 849.304 3497
-1438.86 844.204 3476
-1421.5 838.861 3454
-1413.24 838.861 3454
-1399.28 835.461 3440
-1385.4 832.06 3426
-1380.02 833.76 3433
-1371.81 833.76 3433
-1363.6 833.76 3433
-1355.39 833.76 3433
-1347.18 833.76 3433
-1338.97 833.76 3433
-1330.76 833.76 3433
-1319.85 832.06 3426
-1311.66 832.06 3426
-1319.45 842.261 3468
-1314.18 844.204 3476
-1305.87 844.204 3476
-1313.98 854.89 3520
-1316.32 861.933 3549
-1307.83 861.933 3549
-1310.7 869.462 3580
-1307.59 873.105 3595
-1307.67 878.934 3619
-1299.01 878.934 3619
-1298.56 884.52 3642
-1298.7 890.591 3667
-1289.93 890.591 3667
-1281.17 890.591 3667
-1272.4 890.591 3667
-1257.77 886.462 3650
-1243.91 882.819 3635
-1237.59 884.52 3642
-1228.89 884.52 3642
-1222.86 886.462 3650
-1214.13 886.462 3650
-1205.4 886.462 3650
-1196.67 886.462 3650
-1187.94 886.462 3650
-1179.21 886.462 3650
-1170.49 886.462 3650
-1161.76 886.462 3650
-1153.03 886.462 3650
-1141.79 884.52 3642
-1133.08 884.52 3642
-1124.38 884.52 3642
-1115.67 884.52 3642
-1104.83 882.819 3635
-1096.14 882.819 3635
-1087.44 882.819 3635
-1078.75 882.819 3635
-1070.06 882.819 3635
-1068.08 888.405 3658
-1059.34 888.405 3658
-1057.77 894.477 3683
-1048.96 894.477 3683
-1040.15 894.477 3683
-1031.35 894.477 3683
-1022.54 894.477 3683
-1018.14 898.363 3699
-1011.47 900.306 3707
-1002.61 900.306 3707
-993.745 900.306 3707
-984.881 900.306 3707
-978.386 902.492 3716
-969.5 902.492 3716
-962.682 904.435 3724
-953.776 904.435 3724
-944.871 904.435 3724
-933.955 902.492 3716
-925.069 902.492 3716
-916.183 902.492 3716
-907.297 902.492 3716
-898.411 902.492 3716
-885.455 898.363 3699
-872.818 894.477 3683
-862.134 892.534 3675
-853.346 892.534 3675
-844.558 892.534 3675
-839.409 896.42 3691
-830.583 896.42 3691
-821.756 896.42 3691
-812.93 896.42 3691
-804.104 896.42 3691
-790.106 890.591 3667
-781.337 890.591 3667
-768.987 886.462 3650
-685.145 902.492 3716
-676.259 902.492 3716
-667.373 902.492 3716
-654.057 896.42 3691
-645.23 896.42 3691
-630.714 888.405 3658
-616.696 880.877 3627
-605.34 876.991 3611
-596.705 876.991 3611
-586.768 875.048 3603
-576.868 873.105 3595
-564.636 867.519 3572
-557.339 869.462 3580
-548.778 869.462 3580
-540.218 869.462 3580
-531.657 869.462 3580
-519.735 863.876 3557
-511.229 863.876 3557
-502.723 863.876 3557
-495.329 865.819 3565
-486.804 865.819 3565
-478.279 865.819 3565
-469.754 865.819 3565
-460.194 863.876 3557
-451.688 863.876 3557
-443.182 863.876 3557
-434.676 863.876 3557
-426.171 863.876 3557
-417.665 863.876 3557
-409.159 863.876 3557
-400.653 863.876 3557
-393.029 865.819 3565
-384.504 865.819 3565
-375.979 865.819 3565
-367.454 865.819 3565
-358.929 865.819 3565
-348.832 861.933 3549
-340.345 861.933 3549
-331.203 860.233 3542
-322.734 860.233 3542
-314.264 860.233 3542
-305.103 858.29 3534
-296.652 858.29 3534
-287.63 856.59 3527
-279.196 856.59 3527
-270.762 856.59 3527
-262.328 856.59 3527
-162.256 547.421 2254
-156.866 547.421 2254
-151.476 547.421 2254
-146.086 547.421 2254
-140.134 545.235 2245
-134.586 544.507 2242
-129.224 544.507 2242
-123.697 543.778 2239
-118.185 543.049 2236
-112.686 542.321 2233
-107.346 542.321 2233
-102.007 542.321 2233
-96.6668 542.321 2233
-91.327 542.321 2233
-85.8717 541.592 2230
-80.5391 541.592 2230
-75.0042 540.135 2224
-69.6859 540.135 2224
-64.3677 540.135 2224
-59.1291 540.864 2227
-53.8036 540.864 2227
-48.6088 542.321 2233
-43.269 542.321 2233
-37.9293 542.321 2233
-32.5895 542.321 2233
-27.2497 542.321 2233
-21.8805 541.592 2230
-16.5479 541.592 2230
-11.1851 540.135 2224
-5.84309 537.949 2215
-0.543642 535.278 2204
4.72679 535.278 2204
9.9564 533.092 2195
15.1291 530.42 2184
20.3517 530.42 2184
25.5743 530.42 2184
30.5854 526.777 2169
35.7392 526.292 2167
40.6567 522.891 2153
45.7414 522.163 2150
50.8827 522.163 2150
56.024 522.163 2150
60.9946 520.706 2144
66.0599 520.22 2142
71.182 520.22 2142
76.1973 519.491 2139
81.1983 518.763 2136
86.3061 518.763 2136
91.414 518.763 2136
96.5218 518.763 2136
101.63 518.763 2136
106.737 518.763 2136
111.845 518.763 2136
116.953 518.763 2136
122.061 518.763 2136
126.871 517.548 2131
131.967 517.548 2131
137.063 517.548 2131
142.159 517.548 2131
147.393 518.034 2133
152.493 518.034 2133
157.594 518.034 2133
162.695 518.034 2133
167.795 518.034 2133
551.205 904.435 3724
560.11 904.435 3724
569.015 904.435 3724
576.679 902.492 3716
585.565 902.492 3716
594.451 902.492 3716
603.337 902.492 3716
608.104 896.42 3691
615.593 894.477 3683
874.473 916.578 3774
883.497 916.578 3774
892.522 916.578 3774
866.431 880.877 3627
875.104 880.877 3627
879.879 876.991 3611
878.918 867.519 3572
887.459 867.519 3572
886.469 858.29 3534
894.92 858.29 3534
903.371 858.29 3534
919.82 865.819 3565
928.345 865.819 3565
938.71 867.519 3572
947.251 867.519 3572
955.793 867.519 3572
962.445 865.819 3565
970.97 865.819 3565
979.495 865.819 3565
981.646 860.233 3542
981.73 852.947 3512
990.128 852.947 3512
996.536 851.247 3505
1004.92 851.247 3505
1013.3 851.247 3505
1021.68 851.247 3505
1030.06 851.247 3505
1036.07 849.304 3497
1044.44 849.304 3497
1052.8 849.304 3497
1061.16 849.304 3497
1069.52 849.304 3497
1077.89 849.304 3497
1088.73 851.247 3505
1097.11 851.247 3505
1105.5 851.247 3505
1113.88 851.247 3505
1122.26 851.247 3505
1130.64 851.247 3505
1139.02 851.247 3505
1147.4 851.247 3505
1155.78 851.247 3505
1164.17 851.247 3505
1172.55 851.247 3505
1180.93 851.247 3505
1189.31 851.247 3505
1197.69 851.247 3505
1206.07 851.247 3505
1209.26 847.604 3490
1222.84 851.247 3505
1233.68 852.947 3512
1244.91 854.89 3520
1253.32 854.89 3520
1266.76 858.29 3534
1280.62 861.933 3549
1294.92 865.819 3565
1303.44 865.819 3565
1320.43 871.405 3588
1329.01 871.405 3588
1337.59 871.405 3588
1346.17 871.405 3588
1360.42 875.048 3603
1372.07 876.991 3611
1380.71 876.991 3611
1389.34 876.991 3611
1397.98 876.991 3611
1394.54 869.462 3580
1403.1 869.462 3580
1402.59 863.876 3557
1407.92 861.933 3549
1410.42 858.29 3534
1404.02 849.304 3497
1412.38 849.304 3497
1400.43 837.161 3447
1397.23 830.36 3419
1393.9 823.56 3391
1402 823.56 3391
1398.47 816.76 3363
1398.15 811.902 3343
1400.67 808.745 3330
1408.64 808.745 3330
1402.56 800.731 3297
1404.88 797.573 3284
1410.16 796.116 3278
1409.34 791.259 3258
1417.13 791.259 3258
1422.3 789.802 3252
1427.44 788.344 3246
1435.2 788.344 3246
1442.96 788.344 3246
1450.73 788.344 3246
1455.34 786.644 3239
1463.09 786.644 3239
1470.83 786.644 3239
1478.58 786.644 3239
1489.54 788.344 3246
1497.3 788.344 3246
1505.06 788.344 3246
1512.82 788.344 3246
1520.58 788.344 3246
1528.35 788.344 3246
1536.11 788.344 3246
1543.87 788.344 3246
1548.29 786.644 3239
1550.27 783.73 3227
1555.09 782.273 3221
1562.79 782.273 3221
1564.15 779.115 3208
1565.95 776.201 3196
1567.68 773.287 3184
1575.29 773.287 3184
1573.96 768.915 3166
1572.54 764.544 3148
1571.03 760.172 3130
1560.87 751.672 3095
1568.27 751.672 3095
1563.96 746.086 3072
1537.55 730.056 3006
1506.71 712.084 2932
1513.72 712.084 2932
1502.06 703.341 2896
1495.96 697.269 2871
1492.88 692.655 2852
1491.81 689.012 2837
1498.59 689.012 2837
1497.95 685.612 2823
1502.03 684.398 2818
1508.77 684.398 2818
1515.51 684.398 2818
1514.69 680.997 2804
1518.68 679.783 2799
1522.65 678.569 2794
1529.33 678.569 2794
1536.01 678.569 2794
1537.72 676.383 2785
1541.61 675.169 2780
1548.26 675.169 2780
1557.7 676.383 2785
1564.36 676.383 2785
1573.84 677.597 2790
1582.78 678.569 2794
1597.99 682.212 2809
1604.71 682.212 2809
1613.72 683.183 2813
1620.45 683.183 2813
1627.18 683.183 2813
2039.56 849.304 3497
2065.49 856.59 3527
2073.93 856.59 3527
2091.22 860.233 3542
2103.83 861.933 3549
2117.08 863.876 3557
2125.59 863.876 3557
2134.09 863.876 3557
2142.6 863.876 3557
2155.94 865.819 3565
2164.47 865.819 3565
2172.99 865.819 3565
2181.52 865.819 3565
2190.04 865.819 3565
2193.64 863.876 3557
2197.19 861.933 3549
2201.33 860.233 3542
2209.8 860.233 3542
2208.87 856.59 3527
2212.9 854.89 3520
2216.27 852.947 3512
2196.8 842.261 3468
2205.09 842.261 3468
2199.98 837.161 3447
2199.26 833.76 3433
2202.97 832.06 3426
2211.16 832.06 3426
2183.07 818.46 3370
2186.58 816.76 3363
2173.09 808.745 3330
2181.05 808.745 3330
2189.01 808.745 3330
2188.4 805.588 3317
2191.7 803.888 3310
2199.61 803.888 3310
2216.2 807.045 3323
2224.14 807.045 3323
2236.79 808.745 3330
2249.47 810.445 3337
2261.51 811.902 3343
2269.51 811.902 3343
2282.27 813.602 3350
2290.28 813.602 3350
2298.29 813.602 3350
2306.3 813.602 3350
2314.31 813.602 3350
2322.32 813.602 3350
2330.34 813.602 3350
2319.5 807.045 3323
2323.24 805.588 3317
2331.18 805.588 3317
2325 800.731 3297
2332.89 800.731 3297
2327.28 796.116 3278
2316.6 789.802 3252
2324.38 789.802 3252
2332.15 789.802 3252
2339.93 789.802 3252
2338.32 786.644 3239
2333.03 782.273 3221
2340.73 782.273 3221
2338.96 779.115 3208
2342.24 777.658 3202
2332.28 771.829 3178
2335.46 770.372 3172
2343.05 770.372 3172
2346.19 768.915 3166
2353.76 768.915 3166
2352.38 766.001 3154
2359.92 766.001 3154
2362.96 764.544 3148
2365.97 763.086 3142
2373.48 763.086 3142
2399.18 768.915 3166
2434.12 777.658 3202
2441.78 777.658 3202
2449.44 777.658 3202
-2602.57 852.53 3476
-2594.25 852.53 3476
-2591.15 854.247 3483
-2610.26 863.322 3520
-2618.1 868.718 3542
-2609.63 868.718 3542
-2606.3 870.435 3549
-2626.36 880 3588
-2646.24 889.565 3627
-2637.56 889.565 3627
-2657.88 899.375 3667
-2649.11 899.375 3667
-2646.11 901.338 3675
-2637.32 901.338 3675
-2628.53 901.338 3675
-2619.74 901.338 3675
-2610.95 901.338 3675
-2573.84 891.527 3635
-2565.15 891.527 3635
-2561.38 893.244 3642
-2552.67 893.244 3642
-2543.96 893.244 3642
-2486.53 876.076 3572
-2451.62 866.756 3534
-2443.17 866.756 3534
-2429.9 865.039 3527
-2396.06 855.964 3490
-2392.51 857.681 3497
-2384.14 857.681 3497
-2375.78 857.681 3497
-2362.68 855.964 3490
-2354.33 855.964 3490
-2345.99 855.964 3490
-2332.95 854.247 3483
-2333.97 857.681 3497
-2325.61 857.681 3497
-2322.54 859.643 3505
-2324.07 863.322 3520
-2315.65 863.322 3520
-2311.82 865.039 3527
-2303.39 865.039 3527
-2294.95 865.039 3527
-2286.52 865.039 3527
-2282.61 866.756 3534
-2283.81 870.435 3549
-2280.45 872.397 3557
-2271.94 872.397 3557
-2268.53 874.359 3565
-2260 874.359 3565
-2251.48 874.359 3565
-2237.92 872.397 3557
-2224.4 870.435 3549
-2215.91 870.435 3549
-2212.4 872.397 3557
-2203.9 872.397 3557
-2195.39 872.397 3557
-2186.88 872.397 3557
-2178.38 872.397 3557
-2164.99 870.435 3549
-2143.14 865.039 3527
-2134.7 865.039 3527
-2126.27 865.039 3527
-2117.84 865.039 3527
-2105.22 863.322 3520
-2092.03 861.36 3512
-2083.63 861.36 3512
-2071.1 859.643 3505
-2062.72 859.643 3505
-2049.65 857.681 3497
-2041.29 857.681 3497
-2016.06 850.568 3468
-2007.77 850.568 3468
-1991.41 847.135 3454
-1983.15 847.135 3454
-1974.89 847.135 3454
-1966.63 847.135 3454
-1946.46 841.984 3433
-1938.25 841.984 3433
-1926.11 840.267 3426
-1914 838.551 3419
-1905.82 838.551 3419
-1901.53 840.267 3426
-1893.34 840.267 3426
-1885.14 840.267 3426
-1876.95 840.267 3426
-1876.4 843.701 3440
-1868.17 843.701 3440
-1859.94 843.701 3440
-1851.72 843.701 3440
-1843.49 843.701 3440
-1835.26 843.701 3440
-1827.04 843.701 3440
-1822.51 845.418 3447
-1814.27 845.418 3447
-1806.03 845.418 3447
-1797.79 845.418 3447
-1796.81 848.852 3461
-1792.15 850.568 3468
-1783.86 850.568 3468
-1775.57 850.568 3468
-1771.35 852.53 3476
-1763.04 852.53 3476
-1754.73 852.53 3476
-1753.45 855.964 3490
-1748.6 857.681 3497
-1744.22 859.643 3505
-1735.84 859.643 3505
-1727.46 859.643 3505
-1719.08 859.643 3505
-1696.54 852.53 3476
-1702.31 859.643 3505
-1693.93 859.643 3505
-1685.55 859.643 3505
-1677.17 859.643 3505
-1668.79 859.643 3505
-1653.3 855.964 3490
-1644.95 855.964 3490
-1636.61 855.964 3490
-1645.52 865.039 3527
-1637.09 865.039 3527
-1628.66 865.039 3527
-1595.05 874.359 3565
-1586.53 874.359 3565
-1578 874.359 3565
-1572.56 876.076 3572
-1574.09 881.717 3595
-1565.49 881.717 3595
-1556.9 881.717 3595
-1548.3 881.717 3595
-1539.7 881.717 3595
-1499.16 863.322 3520
-1481.01 857.681 3497
-1463.8 852.53 3476
-1455.49 852.53 3476
-1447.17 852.53 3476
-1429.76 847.135 3454
-1415.73 843.701 3440
-1407.51 843.701 3440
-1390.74 838.551 3419
-1368.41 829.966 3384
-1371.57 836.834 3412
-1369.01 840.267 3426
-1360.82 840.267 3426
-1355.39 841.984 3433
-1347.18 841.984 3433
-1338.97 841.984 3433
-1330.76 841.984 3433
-1319.85 840.267 3426
-1311.66 840.267 3426
-1319.45 850.568 3468
-1314.18 852.53 3476
-1305.87 852.53 3476
-1313.98 863.322 3520
-1316.32 870.435 3549
-1307.83 870.435 3549
-1310.7 878.038 3580
-1307.59 881.717 3595
-1307.67 887.603 3619
-1299.01 887.603 3619
-1298.56 893.244 3642
-1298.7 899.375 3667
-1289.93 899.375 3667
-1281.17 899.375 3667
-1272.4 899.375 3667
-1260.53 897.168 3658
-1243.91 891.527 3635
-1237.59 893.244 3642
-1228.89 893.244 3642
-1222.86 895.206 3650
-1214.13 895.206 3650
-1205.4 895.206 3650
-1196.67 895.206 3650
-1187.94 895.206 3650
-1179.21 895.206 3650
-1170.49 895.206 3650
-1161.76 895.206 3650
-1153.03 895.206 3650
-1141.79 893.244 3642
-1133.08 893.244 3642
-1124.38 893.244 3642
-1115.67 893.244 3642
-1104.83 891.527 3635
-1096.14 891.527 3635
-1087.44 891.527 3635
-1078.75 891.527 3635
-1070.06 891.527 3635
-1068.08 897.168 3658
-1059.34 897.168 3658
-1057.77 903.3 3683
-1048.96 903.3 3683
-1040.15 903.3 3683
-1031.35 903.3 3683
-1022.54 903.3 3683
-1020.34 909.186 3707
-1013.93 911.393 3716
-1005.04 911.393 3716
-996.158 911.393 3716
-987.272 911.393 3716
-978.386 911.393 3716
-969.5 911.393 3716
-962.682 913.355 3724
-953.776 913.355 3724
-944.871 913.355 3724
-933.955 911.393 3716
-925.069 911.393 3716
-916.183 911.393 3716
-907.297 911.393 3716
-898.411 911.393 3716
-885.455 907.224 3699
-872.818 903.3 3683
-862.134 901.338 3675
-853.346 901.338 3675
-844.558 901.338 3675
-839.409 905.262 3691
-830.583 905.262 3691
-821.756 905.262 3691
-812.93 905.262 3691
-804.104 905.262 3691
-790.106 899.375 3667
-781.337 899.375 3667
-768.987 895.206 3650
-685.145 911.393 3716
-676.259 911.393 3716
-667.373 911.393 3716
-654.057 905.262 3691
-645.23 905.262 3691
-630.714 897.168 3658
-616.696 889.565 3627
-605.34 885.641 3611
-596.705 885.641 3611
-586.768 883.679 3603
-576.868 881.717 3595
-564.636 876.076 3572
-557.339 878.038 3580
-548.778 878.038 3580
-540.218 878.038 3580
-531.657 878.038 3580
-519.735 872.397 3557
-511.229 872.397 3557
-502.723 872.397 3557
-495.329 874.359 3565
-486.804 874.359 3565
-478.279 874.359 3565
-469.754 874.359 3565
-460.194 872.397 3557
-451.688 872.397 3557
-443.182 872.397 3557
-434.676 872.397 3557
-426.171 872.397 3557
-417.665 872.397 3557
-409.159 872.397 3557
-400.653 872.397 3557
-393.029 874.359 3565
-384.504 874.359 3565
-375.979 874.359 3565
-367.454 874.359 3565
-358.929 874.359 3565
-348.832 870.435 3549
-340.345 870.435 3549
-331.203 868.718 3542
-322.734 868.718 3542
-314.264 868.718 3542
-305.103 866.756 3534
-296.652 866.756 3534
-287.63 865.039 3527
-279.196 865.039 3527
-270.762 865.039 3527
-262.328 865.039 3527
-162.256 552.82 2254
-156.866 552.82 2254
-151.476 552.82 2254
-146.086 552.82 2254
-140.134 550.613 2245
-134.586 549.877 2242
-129.224 549.877 2242
-123.697 549.141 2239
-118.185 548.406 2236
-112.686 547.67 2233
-107.346 547.67 2233
-102.007 547.67 2233
-96.6668 547.67 2233
-91.327 547.67 2233
-85.8717 546.934 2230
-80.5391 546.934 2230
-75.0042 545.463 2224
-69.6859 545.463 2224
-64.3677 545.463 2224
-59.1291 546.198 2227
-53.8036 546.198 2227
-48.6088 547.67 2233
-43.269 547.67 2233
-37.9293 547.67 2233
-32.5895 547.67 2233
-27.2497 547.67 2233
-21.8805 546.934 2230
-16.5479 546.934 2230
-11.1851 545.463 2224
-5.84309 543.255 2215
-0.543642 540.557 2204
4.72679 540.557 2204
9.9564 538.35 2195
15.1291 535.652 2184
20.3517 535.652 2184
25.5743 535.652 2184
30.6277 532.709 2172
35.7721 531.973 2169
40.7512 529.275 2158
45.8052 528.049 2153
50.9537 528.049 2153
56.024 527.313 2150
60.9946 525.842 2144
66.0599 525.351 2142
71.182 525.351 2142
76.1973 524.615 2139
81.3123 524.615 2139
86.4273 524.615 2139
91.5423 524.615 2139
96.6573 524.615 2139
101.63 523.879 2136
106.737 523.879 2136
111.845 523.879 2136
116.953 523.879 2136
122.061 523.879 2136
126.871 522.653 2131
131.967 522.653 2131
137.063 522.653 2131
142.159 522.653 2131
147.255 522.653 2131
152.35 522.653 2131
157.594 523.144 2133
162.695 523.144 2133
167.795 523.144 2133
172.896 523.144 2133
177.997 523.144 2133
557.553 909.186 3707
566.417 909.186 3707
575.282 909.186 3707
584.147 909.186 3707
593.011 909.186 3707
601.876 909.186 3707
818.651 857.681 3497
827.014 857.681 3497
835.376 857.681 3497
843.739 857.681 3497
852.101 857.681 3497
860.463 857.681 3497
868.826 857.681 3497
864.646 845.418 3447
872.889 845.418 3447
879.342 843.701 3440
892.987 848.852 3461
906.992 854.247 3483
915.321 854.247 3483
923.65 854.247 3483
935.725 857.681 3497
944.087 857.681 3497
952.45 857.681 3497
960.812 857.681 3497
969.174 857.681 3497
973.623 854.247 3483
981.952 854.247 3483
990.281 854.247 3483
998.61 854.247 3483
1006.94 854.247 3483
1015.27 854.247 3483
1025.65 855.964 3490
1034 855.964 3490
1042.35 855.964 3490
1052.8 857.681 3497
1061.16 857.681 3497
1069.52 857.681 3497
1077.89 857.681 3497
1088.73 859.643 3505
1097.11 859.643 3505
1105.5 859.643 3505
1113.88 859.643 3505
1122.26 859.643 3505
1130.64 859.643 3505
1139.02 859.643 3505
1147.4 859.643 3505
1155.78 859.643 3505
1164.17 859.643 3505
1172.55 859.643 3505
1180.93 859.643 3505
1186.6 857.681 3497
1192.57 855.964 3490
1200.91 855.964 3490
1209.26 855.964 3490
1220.05 857.681 3497
1231.22 859.643 3505
1242.08 861.36 3512
1250.47 861.36 3512
1261.74 863.322 3520
1275.21 866.756 3534
1289.11 870.435 3549
1297.59 870.435 3549
1311.97 874.359 3565
1320.49 874.359 3565
1334.61 878.038 3580
1343.17 878.038 3580
1354.75 880 3588
1363.33 880 3588
1371.91 880 3588
1380.49 880 3588
1385.98 878.038 3580
1385.58 872.397 3557
1394.08 872.397 3557
1399.44 870.435 3549
1401.97 866.756 3534
1407.63 865.039 3527
1401.21 855.964 3490
1409.55 855.964 3490
1397.59 843.701 3440
1397.23 838.551 3419
1393.9 831.683 3391
1402 831.683 3391
1398.47 824.816 3363
1398.15 819.911 3343
1400.67 816.722 3330
1408.64 816.722 3330
1402.56 808.629 3297
1407.45 806.912 3290
1410.16 803.969 3278
1412.37 800.78 3265
1420.18 800.78 3265
1424.92 799.063 3258
1430.08 797.592 3252
1435.2 796.12 3246
1442.96 796.12 3246
1450.73 796.12 3246
1458.49 796.12 3246
1463.09 794.403 3239
1470.83 794.403 3239
1478.58 794.403 3239
1486.32 794.403 3239
1494.07 794.403 3239
1505.06 796.12 3246
1512.82 796.12 3246
1520.58 796.12 3246
1528.35 796.12 3246
1536.11 796.12 3246
1543.87 796.12 3246
1548.29 794.403 3239
1553.15 792.932 3233
1555.09 789.989 3221
1562.79 789.989 3221
1567.08 788.272 3214
1565.95 783.857 3196
1570.63 782.386 3190
1578.26 782.386 3190
1576.94 777.971 3172
1578.53 775.028 3160
1574.04 769.141 3136
1581.54 769.141 3136
1571.31 760.557 3101
1563.96 753.445 3072
1540.1 738.484 3011
1506.71 719.108 2932
1513.72 719.108 2932
1502.06 710.279 2896
1495.96 704.147 2871
1492.88 699.487 2852
1491.81 695.808 2837
1498.59 695.808 2837
1497.95 692.374 2823
1502.03 691.148 2818
1506.09 689.922 2813
1512.82 689.922 2813
1514.69 687.714 2804
1518.68 686.488 2799
1522.65 685.262 2794
1529.33 685.262 2794
1536.01 685.262 2794
1537.72 683.054 2785
1541.61 681.828 2780
1551.04 683.054 2785
1560.5 684.281 2790
1567.17 684.281 2790
1573.84 684.281 2790
1582.78 685.262 2794
1597.99 688.941 2809
1604.71 688.941 2809
1611.43 688.941 2809
1618.15 688.941 2809
1624.86 688.941 2809
2039.56 857.681 3497
2074.28 868.718 3542
2082.75 868.718 3542
2091.22 868.718 3542
2103.83 870.435 3549
2117.08 872.397 3557
2125.59 872.397 3557
2134.09 872.397 3557
2142.6 872.397 3557
2151.11 872.397 3557
2159.61 872.397 3557
2168.12 872.397 3557
2176.62 872.397 3557
2185.13 872.397 3557
2188.7 870.435 3549
2192.86 868.718 3542
2192 865.039 3527
2200.44 865.039 3527
2204.49 863.322 3520
2207.88 861.36 3512
2193.56 852.53 3476
2183.5 845.418 3447
2191.74 845.418 3447
2177.65 836.834 3412
2172.35 831.683 3391
2154.1 821.627 3350
2162.11 821.627 3350
2170.12 821.627 3350
2173.58 819.911 3343
2160.04 811.817 3310
2167.95 811.817 3310
2175.87 811.817 3310
2183.78 811.817 3310
2191.7 811.817 3310
2194.96 810.1 3303
2216.2 815.005 3323
2224.14 815.005 3323
2232.09 815.005 3323
2244.76 816.722 3330
2261.51 819.911 3343
2269.51 819.911 3343
2282.27 821.627 3350
2290.28 821.627 3350
2298.29 821.627 3350
2306.3 821.627 3350
2314.31 821.627 3350
2322.32 821.627 3350
2330.34 821.627 3350
2319.5 815.005 3323
2323.24 813.534 3317
2331.18 813.534 3317
2325 808.629 3297
2332.89 808.629 3297
2327.28 803.969 3278
2316.6 797.592 3252
2324.38 797.592 3252
2332.15 797.592 3252
2339.93 797.592 3252
2338.32 794.403 3239
2333.03 789.989 3221
2340.73 789.989 3221
2343.33 788.272 3214
2342.24 785.329 3202
2336.68 780.914 3184
2335.46 777.971 3172
2343.05 777.971 3172
2346.19 776.499 3166
2353.76 776.499 3166
2356.85 775.028 3160
2364.41 775.028 3160
2367.46 773.556 3154
2370.49 772.085 3148
2378.02 772.085 3148
2399.18 776.499 3166
2425 782.386 3190
2432.63 782.386 3190
2440.26 782.386 3190
-2602.57 860.857 3476
-2594.25 860.857 3476
-2591.15 862.591 3483
-2610.26 871.754 3520
-2618.1 877.203 3542
-2609.63 877.203 3542
-2606.3 878.936 3549
-2626.36 888.595 3588
-2646.24 898.254 3627
-2637.56 898.254 3627
-2639.76 901.968 3642
-2649.11 908.16 3667
-2646.11 910.141 3675
-2637.32 910.141 3675
-2628.53 910.141 3675
-2619.74 910.141 3675
-2610.95 910.141 3675
-2573.84 900.235 3635
-2565.15 900.235 3635
-2561.38 901.968 3642
-2552.67 901.968 3642
-2543.96 901.968 3642
-2486.53 884.632 3572
-2457.17 877.203 3542
-2448.7 877.203 3542
-2429.9 873.488 3527
-2411.17 869.773 3512
-2397.98 868.039 3505
-2389.6 868.039 3505
-2381.22 868.039 3505
-2367.42 866.058 3497
-2359.06 866.058 3497
-2350.69 866.058 3497
-2337.64 864.324 3490
-2329.3 864.324 3490
-2325.61 866.058 3497
-2317.24 866.058 3497
-2314.16 868.039 3505
-2305.78 868.039 3505
-2307.23 871.754 3520
-2303.39 873.488 3527
-2294.95 873.488 3527
-2286.52 873.488 3527
-2278.08 873.488 3527
-2274.15 875.221 3534
-2275.32 878.936 3549
-2266.83 878.936 3549
-2263.44 880.917 3557
-2254.93 880.917 3557
-2246.43 880.917 3557
-2237.92 880.917 3557
-2220.01 877.203 3542
-2215.91 878.936 3549
-2212.4 880.917 3557
-2203.9 880.917 3557
-2195.39 880.917 3557
-2186.88 880.917 3557
-2178.38 880.917 3557
-2164.99 878.936 3549
-2143.14 873.488 3527
-2130.47 871.754 3520
-2122.05 871.754 3520
-2113.63 871.754 3520
-2100.43 869.773 3512
-2092.03 869.773 3512
-2083.63 869.773 3512
-2071.1 868.039 3505
-2062.72 868.039 3505
-2049.65 866.058 3497
-2041.29 866.058 3497
-2016.06 858.876 3468
-2007.77 858.876 3468
-1991.41 855.409 3454
-1983.15 855.409 3454
-1974.89 855.409 3454
-1962.64 853.675 3447
-1942.49 848.474 3426
-1934.3 848.474 3426
-1922.17 846.741 3419
-1910.08 845.007 3412
-1898.02 843.274 3405
-1889.87 843.274 3405
-1881.73 843.274 3405
-1877.44 845.007 3412
-1869.28 845.007 3412
-1876.4 851.942 3440
-1868.17 851.942 3440
-1859.94 851.942 3440
-1851.72 851.942 3440
-1843.49 851.942 3440
-1820.33 845.007 3412
-1823.32 850.208 3433
-1815.11 850.208 3433
-1814.27 853.675 3447
-1806.03 853.675 3447
-1797.79 853.675 3447
-1793.18 855.409 3454
-1788.53 857.142 3461
-1780.26 857.142 3461
-1771.98 857.142 3461
-1763.71 857.142 3461
-1755.43 857.142 3461
-1754.73 860.857 3476
-1746.41 860.857 3476
-1741.6 862.591 3483
-1736.76 864.324 3490
-1728.41 864.324 3490
-1720.06 864.324 3490
-1704.85 860.857 3476
-1689.22 857.142 3461
-1680.94 857.142 3461
-1672.67 857.142 3461
-1671.6 860.857 3476
-1663.29 860.857 3476
-1654.98 860.857 3476
-1639.56 857.142 3461
-1631.28 857.142 3461
-1626.29 858.876 3468
-1618 858.876 3468
-1609.7 858.876 3468
-1554.54 869.773 3512
-1549.67 871.754 3520
-1557.45 880.917 3557
-1548.94 880.917 3557
-1540.44 880.917 3557
-1531.93 880.917 3557
-1523.43 880.917 3557
-1489.37 866.058 3497
-1475.08 862.591 3483
-1454.53 855.409 3454
-1446.28 855.409 3454
-1438.02 855.409 3454
-1423.96 851.942 3440
-1415.73 851.942 3440
-1407.51 851.942 3440
-1382.2 841.54 3398
-1368.41 838.073 3384
-1360.32 838.073 3384
-1363.42 845.007 3412
-1355.26 845.007 3412
-1347.1 845.007 3412
-1338.94 845.007 3412
-1330.78 845.007 3412
-1322.62 845.007 3412
-1314.46 845.007 3412
-1308.98 846.741 3419
-1303.47 848.474 3426
-1314.18 860.857 3476
-1305.87 860.857 3476
-1313.98 871.754 3520
-1313.72 877.203 3542
-1305.25 877.203 3542
-1307.77 884.632 3572
-1302.13 886.614 3580
-1307.67 896.272 3619
-1299.01 896.272 3619
-1296.06 900.235 3635
-1295.52 905.931 3658
-1289.93 908.16 3667
-1281.17 908.16 3667
-1272.4 908.16 3667
-1260.53 905.931 3658
-1243.91 900.235 3635
-1237.59 901.968 3642
-1228.89 901.968 3642
-1220.18 901.968 3642
-1214.13 903.95 3650
-1205.4 903.95 3650
-1196.67 903.95 3650
-1187.94 903.95 3650
-1179.21 903.95 3650
-1170.49 903.95 3650
-1161.76 903.95 3650
-1150.5 901.968 3642
-1139.6 900.235 3635
-1130.91 900.235 3635
-1119.74 898.254 3627
-1111.07 898.254 3627
-1102.4 898.254 3627
-1093.72 898.254 3627
-1085.05 898.254 3627
-1076.38 898.254 3627
-1065.35 896.272 3619
-1063.41 901.968 3642
-1054.7 901.968 3642
-1057.77 912.122 3683
-1048.96 912.122 3683
-1040.15 912.122 3683
-1031.35 912.122 3683
-1022.54 912.122 3683
