892.716 -113.52 2852
901.113 -113.719 2857
907.945 -113.719 2857
914.777 -113.719 2857
921.609 -113.719 2857
930.066 -113.918 2862
938.219 -114.077 2866
945.073 -114.077 2866
953.587 -114.276 2871
960.452 -114.276 2871
967.318 -114.276 2871
974.183 -114.276 2871
986.174 -114.873 2886
993.075 -114.873 2886
999.977 -114.873 2886
1257.99 -141.581 3557
1266.5 -141.581 3557
1277.87 -141.9 3565
1305.88 -144.049 3619
1314.53 -144.049 3619
1323.19 -144.049 3619
1331.84 -144.049 3619
1334.57 -143.412 3603
1343.19 -143.412 3603
1351.8 -143.412 3603
1366.46 -144.049 3619
1375.11 -144.049 3619
1383.77 -144.049 3619
1392.42 -144.049 3619
1391.78 -143.094 3595
1385.58 -141.581 3557
1394.08 -141.581 3557
1399.44 -141.263 3549
1407.92 -141.263 3549
1401.64 -139.79 3512
1407.23 -139.512 3505
1415.61 -139.512 3505
1420.74 -139.193 3497
1426.24 -138.915 3490
1425.55 -138.039 3468
1433.84 -138.039 3468
1436.31 -137.482 3454
1441.64 -137.203 3447
1432.22 -135.531 3405
1440.36 -135.531 3405
1436.59 -134.417 3377
1438.68 -133.86 3363
1438.12 -133.064 3343
1446.11 -133.064 3343
1454.11 -133.064 3343
1459.48 -132.825 3337
1464.38 -132.546 3330
1472.34 -132.546 3330
1480.3 -132.546 3330
1467.71 -130.715 3284
1472.87 -130.476 3278
1468.96 -129.441 3252
1476.74 -129.441 3252
1484.51 -129.441 3252
1486.32 -128.924 3239
1506.06 -129.959 3265
1534.73 -131.75 3310
1548.71 -132.267 3323
1556.66 -132.267 3323
1580.61 -133.621 3357
1601.41 -134.695 3384
1632.81 -136.646 3433
1641.02 -136.646 3433
1662.68 -137.76 3461
1674.34 -138.039 3468
1689.91 -138.636 3483
1698.24 -138.636 3483
1710 -138.915 3490
1736.56 -140.387 3527
1748.46 -140.666 3534
1756.91 -140.666 3534
1772.85 -141.263 3549
1781.34 -141.263 3549
1789.83 -141.263 3549
1798.31 -141.263 3549
1799.16 -140.666 3534
1777.95 -138.357 3476
1786.26 -138.357 3476
1526.11 -110.495 2776
1596.25 -115.072 2891
1608.71 -115.47 2901
1615.65 -115.47 2901
1622.58 -115.47 2901
1615.48 -114.475 2876
1614.46 -113.918 2862
1607.14 -112.923 2837
1613.92 -112.923 2837
1609.85 -112.167 2818
1608.56 -111.609 2804
1609.5 -111.211 2794
1616.19 -111.211 2794
1620.54 -111.052 2790
1624.3 -110.853 2785
1628.03 -110.654 2780
1634.68 -110.654 2780
1636.01 -110.296 2771
1640.27 -110.137 2767
1640.93 -109.739 2757
1645.14 -109.579 2753
1651.72 -109.579 2753
1655.29 -109.38 2748
1661.86 -109.38 2748
1666 -109.221 2744
1672.57 -109.221 2744
1676.07 -109.022 2739
1680.16 -108.863 2735
1683.62 -108.664 2730
1690.15 -108.664 2730
1691.08 -108.306 2721
1697.59 -108.306 2721
1704.09 -108.306 2721
1710.6 -108.306 2721
1717.11 -108.306 2721
1718.55 -107.987 2713
1725.03 -107.987 2713
1725.78 -107.629 2704
1732.24 -107.629 2704
1732.92 -107.271 2695
1736.79 -107.112 2691
1734.8 -106.594 2678
1741.2 -106.594 2678
1736.51 -105.917 2661
1742.88 -105.917 2661
1740.69 -105.4 2648
1747.03 -105.4 2648
1753.36 -105.4 2648
1754.37 -105.082 2640
1757.35 -104.883 2635
1760.98 -104.723 2631
1767.27 -104.723 2631
1770.86 -104.564 2627
1771.73 -104.246 2619
1778 -104.246 2619
1784.26 -104.246 2619
1790.52 -104.246 2619
1794.04 -104.086 2615
1797.54 -103.927 2611
1809.31 -104.246 2619
1815.57 -104.246 2619
1821.84 -104.246 2619
1828.1 -104.246 2619
1837.16 -104.405 2623
1846.25 -104.564 2627
1852.53 -104.564 2627
1858.81 -104.564 2627
1865.09 -104.564 2627
1871.37 -104.564 2627
1871.94 -104.246 2619
1878.2 -104.246 2619
1881.59 -104.086 2615
1887.84 -104.086 2615
1891.19 -103.927 2611
1894.53 -103.768 2607
1900.77 -103.768 2607
1907 -103.768 2607
1913.23 -103.768 2607
1919.47 -103.768 2607
1925.7 -103.768 2607
1931.94 -103.768 2607
1938.17 -103.768 2607
1944.4 -103.768 2607
1947.65 -103.609 2603
1950.87 -103.45 2599
1957.08 -103.45 2599
1963.3 -103.45 2599
1965.72 -103.251 2594
1968.89 -103.091 2590
1975.08 -103.091 2590
1981.27 -103.091 2590
-2047.76 -102.311 2735
-2057.64 -103.134 2757
-2058.49 -103.508 2767
-2051.87 -103.508 2767
-2048.21 -103.658 2771
-2041.58 -103.658 2771
-2038.63 -103.845 2776
-2031.99 -103.845 2776
-2025.35 -103.845 2776
-2018.71 -103.845 2776
-2022.22 -104.369 2790
-2015.55 -104.369 2790
-2011.76 -104.518 2794
-2015.84 -105.079 2809
-2009.13 -105.079 2809
-2002.41 -105.079 2809
-1992.14 -104.892 2804
-1981.89 -104.705 2799
-1975.2 -104.705 2799
-2301.08 -124.083 3317
-2306.98 -124.831 3337
-2326.56 -126.327 3377
-2318.48 -126.327 3377
-2315.2 -126.589 3384
-2307.1 -126.589 3384
-2313.28 -127.375 3405
-2305.14 -127.375 3405
-2325.33 -128.946 3447
-2326.49 -129.469 3461
-2318.22 -129.469 3461
-2309.94 -129.469 3461
-2292.35 -128.946 3447
-2233.09 -126.065 3370
-2225.03 -126.065 3370
-2212.37 -125.803 3363
-2204.32 -125.803 3363
-2196.28 -125.803 3363
-2211.01 -127.113 3398
-2202.89 -127.113 3398
-2203.81 -127.636 3412
-2195.65 -127.636 3412
-2187.49 -127.636 3412
-2179.33 -127.636 3412
-2180.08 -128.16 3426
-2194.07 -129.469 3461
-2195.27 -130.031 3476
-2186.96 -130.031 3476
-2178.65 -130.031 3476
-2170.33 -130.031 3476
-2162.02 -130.031 3476
-2148.75 -129.731 3468
-2118.86 -128.422 3433
-2110.65 -128.422 3433
-2115.3 -129.208 3454
-2107.04 -129.208 3454
-2120.66 -130.554 3490
-2125.63 -131.377 3512
-2122.05 -131.677 3520
-2113.63 -131.677 3520
-2105.22 -131.677 3520
-2096.8 -131.677 3520
-2101.43 -132.5 3542
-2092.96 -132.5 3542
-2093.32 -133.061 3557
-2084.81 -133.061 3557
-2080.98 -133.36 3565
-2072.45 -133.36 3565
-2063.93 -133.36 3565
-2050.79 -133.061 3557
-2042.29 -133.061 3557
-2012.62 -131.677 3520
-1995.67 -131.115 3505
-2016.77 -133.061 3557
-2021.25 -133.921 3580
-2012.69 -133.921 3580
-2004.13 -133.921 3580
-1995.56 -133.921 3580
-1987 -133.921 3580
-1978.44 -133.921 3580
-1969.88 -133.921 3580
-1973.92 -134.781 3603
-1986.58 -136.24 3642
-1977.87 -136.24 3642
-1969.16 -136.24 3642
-1960.45 -136.24 3642
-1951.74 -136.24 3642
-1935.03 -135.679 3627
-1917.86 -135.081 3611
-1900.77 -134.482 3595
-1892.17 -134.482 3595
-1871.52 -133.622 3572
-1862.98 -133.622 3572
-1866.38 -134.482 3595
-1861.92 -134.781 3603
-1853.3 -134.781 3603
-1844.68 -134.781 3603
-1836.07 -134.781 3603
-1827.45 -134.781 3603
-1818.84 -134.781 3603
-1794.65 -133.622 3572
-1782.6 -133.36 3565
-1770.1 -133.061 3557
-1761.59 -133.061 3557
-1753.09 -133.061 3557
-1744.58 -133.061 3557
-1743.39 -133.622 3572
-1734.85 -133.622 3572
-1726.31 -133.622 3572
-1717.77 -133.622 3572
-1713.06 -133.921 3580
-1704.5 -133.921 3580
-1695.93 -133.921 3580
-1691.14 -134.22 3588
-1682.56 -134.22 3588
-1673.98 -134.22 3588
-1665.4 -134.22 3588
-1656.82 -134.22 3588
-1634 -133.061 3557
-1629.15 -133.36 3565
-1620.63 -133.36 3565
-1618.89 -133.921 3580
-1620.67 -134.781 3603
-1615.63 -135.081 3611
-1607 -135.081 3611
-1598.36 -135.081 3611
-1589.73 -135.081 3611
-1581.09 -135.081 3611
-1562.44 -134.22 3588
-1546.94 -133.622 3572
-1531.93 -133.061 3557
-1523.43 -133.061 3557
-1508.53 -132.5 3542
-1493.71 -131.938 3527
-1476.01 -131.115 3505
-1467.63 -131.115 3505
-1453 -130.554 3490
-1444.66 -130.554 3490
-1295.56 -117.761 3148
-1288.03 -117.761 3148
-1280.51 -117.761 3148
-1272.98 -117.761 3148
-1265.45 -117.761 3148
-1225.56 -114.731 3067
-1218.22 -114.731 3067
-1201.81 -113.87 3044
-1181.58 -112.636 3011
-1159.95 -111.252 2974
-1152.83 -111.252 2974
-1137.63 -110.466 2953
-1122.53 -109.681 2932
-1113.62 -109.494 2927
-1104.73 -109.307 2922
-1097.74 -109.307 2922
-1088.89 -109.119 2917
-1083.77 -109.307 2922
-1076.78 -109.307 2922
-1069.79 -109.307 2922
-1062.8 -109.307 2922
-1055.82 -109.307 2922
-1047.03 -109.119 2917
-1040.06 -109.119 2917
-1030.96 -108.895 2911
-1022.24 -108.708 2906
-1013.54 -108.521 2901
-1006.61 -108.521 2901
-997.945 -108.334 2896
-989.309 -108.147 2891
-980.697 -107.96 2886
-973.795 -107.96 2886
-966.894 -107.96 2886
-961.656 -108.147 2891
-954.743 -108.147 2891
-947.829 -108.147 2891
-940.916 -108.147 2891
-934.003 -108.147 2891
-927.09 -108.147 2891
-920.176 -108.147 2891
-913.263 -108.147 2891
-906.35 -108.147 2891
-899.437 -108.147 2891
-892.523 -108.147 2891
-885.61 -108.147 2891
-878.697 -108.147 2891
-871.784 -108.147 2891
-864.87 -108.147 2891
-857.957 -108.147 2891
-851.044 -108.147 2891
-845.59 -108.334 2896
-838.665 -108.334 2896
-831.74 -108.334 2896
-824.815 -108.334 2896
-817.89 -108.334 2896
-810.964 -108.334 2896
-804.039 -108.334 2896
-797.114 -108.334 2896
-788.824 -108.147 2891
-781.911 -108.147 2891
-774.998 -108.147 2891
-766.756 -107.96 2886
-758.539 -107.773 2881
-751.649 -107.773 2881
-744.76 -107.773 2881
-737.87 -107.773 2881
-730.981 -107.773 2881
-724.092 -107.773 2881
-717.202 -107.773 2881
-709.08 -107.586 2876
-702.203 -107.586 2876
-694.117 -107.399 2871
-687.251 -107.399 2871
-680.386 -107.399 2871
-672.347 -107.212 2866
-664.565 -107.062 2862
-657.721 -107.062 2862
-649.74 -106.875 2857
-642.908 -106.875 2857
-636.076 -106.875 2857
-630.346 -107.062 2862
-623.502 -107.062 2862
-619.674 -107.586 2876
-614.928 -107.96 2886
-611.187 -108.521 2901
-606.332 -108.895 2911
-599.371 -108.895 2911
-597.701 -109.868 2937
-595.907 -110.84 2963
-588.822 -110.84 2963
-581.736 -110.84 2963
-629.536 -121.427 3246
-629.053 -122.848 3284
-621.2 -122.848 3284
-613.347 -122.848 3284
-605.494 -122.848 3284
-597.641 -122.848 3284
-589.788 -122.848 3284
-581.935 -122.848 3284
-574.082 -122.848 3284
-566.229 -122.848 3284
-558.376 -122.848 3284
-550.523 -122.848 3284
-541.678 -122.624 3278
-534.817 -122.848 3284
-526.964 -122.848 3284
-519.111 -122.848 3284
-511.258 -122.848 3284
-503.405 -122.848 3284
-495.552 -122.848 3284
-487.698 -122.848 3284
-477.946 -122.362 3271
-470.124 -122.362 3271
-287.986 -78.8937 2109
-282.943 -78.8937 2109
-277.899 -78.8937 2109
-273.244 -79.0059 2112
-268.194 -79.0059 2112
-263.143 -79.0059 2112
-258.093 -79.0059 2112
-253.043 -79.0059 2112
-247.288 -78.7815 2106
-242.252 -78.7815 2106
-237.215 -78.7815 2106
-232.179 -78.7815 2106
-227.143 -78.7815 2106
-222.107 -78.7815 2106
-217.071 -78.7815 2106
-211.834 -78.7067 2104
-206.507 -78.5944 2101
-201.771 -78.7067 2104
-197.955 -79.193 2117
-193.166 -79.3052 2120
-188.54 -79.4922 2125
-184.15 -79.7915 2133
-179.972 -80.203 2144
-174.845 -80.203 2144
-170.193 -80.4274 2150
-165.282 -80.5397 2153
-160.134 -80.5397 2153
-154.985 -80.5397 2153
-149.837 -80.5397 2153
-144.688 -80.5397 2153
-139.54 -80.5397 2153
-134.391 -80.5397 2153
-129.243 -80.5397 2153
-124.094 -80.5397 2153
-118.946 -80.5397 2153
-113.48 -80.3152 2147
-108.195 -80.203 2144
-103.068 -80.203 2144
-97.941 -80.203 2144
-92.814 -80.203 2144
-87.6053 -80.1282 2142
-82.3676 -80.016 2139
-77.2526 -80.016 2139
-72.0364 -79.9037 2136
-66.9286 -79.9037 2136
-61.7339 -79.7915 2133
-56.6333 -79.7915 2133
-51.5326 -79.7915 2133
-46.3884 -79.7167 2131
-41.2926 -79.7167 2131
-36.1967 -79.7167 2131
-31.0571 -79.6045 2128
-25.9318 -79.4922 2125
-20.8502 -79.4922 2125
-15.7465 -79.38 2122
-10.6721 -79.38 2122
-5.59776 -79.38 2122
-0.523416 -79.38 2122
4.55093 -79.38 2122
9.62527 -79.38 2122
14.6996 -79.38 2122
19.774 -79.38 2122
24.8483 -79.38 2122
29.9227 -79.38 2122
34.964 -79.3052 2120
40.0336 -79.3052 2120
45.1457 -79.38 2122
50.22 -79.38 2122
55.2944 -79.38 2122
60.3687 -79.38 2122
65.3814 -79.3052 2120
70.451 -79.3052 2120
75.5205 -79.3052 2120
80.5901 -79.3052 2120
85.7405 -79.38 2122
90.8148 -79.38 2122
95.8891 -79.38 2122
100.963 -79.38 2122
106.188 -79.4922 2125
111.426 -79.6045 2128
116.679 -79.7167 2131
121.775 -79.7167 2131
126.99 -79.7915 2133
132.091 -79.7915 2133
137.577 -80.016 2139
142.692 -80.016 2139
148.015 -80.1282 2142
153.137 -80.1282 2142
158.407 -80.203 2144
163.534 -80.203 2144
168.897 -80.3152 2147
174.274 -80.4274 2150
179.832 -80.6145 2155
184.986 -80.6145 2155
190.404 -80.7267 2158
196.108 -80.9512 2164
201.748 -81.1382 2169
206.934 -81.1382 2169
212.415 -81.2504 2172
217.608 -81.2504 2172
223.11 -81.3626 2175
228.311 -81.3626 2175
233.834 -81.4749 2178
239.372 -81.5871 2181
245.148 -81.7741 2186
250.375 -81.7741 2186
256.304 -81.9986 2192
263.336 -82.5597 2207
271.413 -83.4201 2230
276.745 -83.4201 2230
284.355 -84.0934 2248
292.179 -84.8042 2267
299.176 -85.2531 2279
304.626 -85.2531 2279
311.3 -85.5898 2288
317.74 -85.8516 2295
323.651 -85.9638 2298
329.146 -85.9638 2298
335.515 -86.1883 2304
342.061 -86.4501 2311
347.587 -86.4501 2311
353.113 -86.4501 2311
358.64 -86.4501 2311
364.166 -86.4501 2311
369.692 -86.4501 2311
374.569 -86.3005 2307
379.591 -86.1883 2304
384.6 -86.0761 2301
390.102 -86.0761 2301
395.604 -86.0761 2301
510.868 -108.147 2891
517.781 -108.147 2891
525.602 -108.334 2896
532.527 -108.334 2896
539.452 -108.334 2896
545.434 -108.147 2891
552.347 -108.147 2891
558.294 -107.96 2886
565.195 -107.96 2886
571.105 -107.773 2881
576.991 -107.586 2876
583.869 -107.586 2876
590.746 -107.586 2876
596.584 -107.399 2871
603.45 -107.399 2871
610.315 -107.399 2871
617.181 -107.399 2871
624.046 -107.399 2871
630.911 -107.399 2871
637.777 -107.399 2871
644.642 -107.399 2871
651.508 -107.399 2871
658.373 -107.399 2871
665.239 -107.399 2871
672.104 -107.399 2871
680.152 -107.586 2876
687.029 -107.586 2876
693.907 -107.586 2876
699.566 -107.399 2871
706.431 -107.399 2871
713.297 -107.399 2871
720.162 -107.399 2871
727.028 -107.399 2871
733.893 -107.399 2871
740.758 -107.399 2871
746.322 -107.212 2866
753.175 -107.212 2866
760.029 -107.212 2866
766.882 -107.212 2866
772.656 -107.062 2862
779.5 -107.062 2862
786.344 -107.062 2862
793.188 -107.062 2862
800.031 -107.062 2862
806.875 -107.062 2862
812.298 -106.875 2857
819.13 -106.875 2857
825.962 -106.875 2857
831.336 -106.688 2852
838.156 -106.688 2852
844.976 -106.688 2852
851.796 -106.688 2852
858.616 -106.688 2852
865.436 -106.688 2852
872.256 -106.688 2852
879.076 -106.688 2852
885.896 -106.688 2852
892.716 -106.688 2852
901.113 -106.875 2857
907.945 -106.875 2857
914.777 -106.875 2857
921.609 -106.875 2857
930.066 -107.062 2862
938.219 -107.212 2866
945.073 -107.212 2866
953.587 -107.399 2871
960.452 -107.399 2871
967.318 -107.399 2871
974.183 -107.399 2871
986.174 -107.96 2886
993.075 -107.96 2886
999.977 -107.96 2886
1257.99 -133.061 3557
1266.5 -133.061 3557
1275 -133.061 3557
1286.4 -133.36 3565
1308.72 -134.781 3603
1317.34 -134.781 3603
1325.95 -134.781 3603
1331.61 -134.482 3595
1343.19 -134.781 3603
1351.8 -134.781 3603
1366.46 -135.38 3619
1375.11 -135.38 3619
1383.77 -135.38 3619
1386.27 -134.781 3603
1389.07 -134.22 3588
1385.58 -133.061 3557
1394.08 -133.061 3557
1399.44 -132.761 3549
1405.15 -132.5 3542
1401.64 -131.377 3512
1404.02 -130.816 3497
1412.38 -130.816 3497
1420.74 -130.816 3497
1420.52 -130.031 3476
1422.67 -129.469 3461
1430.95 -129.469 3461
1433.4 -128.946 3447
1429.93 -127.898 3419
1429.28 -127.113 3398
1437.4 -127.113 3398
1430.64 -125.803 3363
1430.12 -125.055 3343
1426.93 -124.083 3317
1434.87 -124.083 3317
1442.8 -124.083 3317
1447.67 -123.821 3310
1452.5 -123.559 3303
1457.75 -123.335 3297
1465.63 -123.335 3297
1465.03 -122.624 3278
1467.02 -122.137 3265
1466.25 -121.427 3246
1474.01 -121.427 3246
1478.58 -121.165 3239
1483.57 -120.94 3233
1494.07 -121.165 3239
1531.49 -123.559 3303
1539.39 -123.559 3303
1547.29 -123.559 3303
1561.78 -124.083 3317
1588.64 -125.579 3357
1632.81 -128.422 3433
1641.02 -128.422 3433
1662.68 -129.469 3461
1674.34 -129.731 3468
1689.91 -130.292 3483
1698.24 -130.292 3483
1710 -130.554 3490
1736.56 -131.938 3527
1744.99 -131.938 3527
1753.43 -131.938 3527
1765.36 -132.2 3534
1781.34 -132.761 3549
1789.83 -132.761 3549
1798.31 -132.761 3549
1799.16 -132.2 3534
1777.95 -130.031 3476
1786.26 -130.031 3476
1596.25 -108.147 2891
1608.71 -108.521 2901
1615.65 -108.521 2901
1622.58 -108.521 2901
1615.48 -107.586 2876
1614.46 -107.062 2862
1607.14 -106.127 2837
1613.92 -106.127 2837
1609.85 -105.416 2818
1608.56 -104.892 2804
1609.5 -104.518 2794
1616.19 -104.518 2794
1620.54 -104.369 2790
1624.3 -104.182 2785
1628.03 -103.995 2780
1634.68 -103.995 2780
1636.01 -103.658 2771
1640.27 -103.508 2767
1640.93 -103.134 2757
1645.14 -102.985 2753
1651.72 -102.985 2753
1655.29 -102.797 2748
1661.86 -102.797 2748
1666 -102.648 2744
1672.57 -102.648 2744
1676.07 -102.461 2739
1680.16 -102.311 2735
1683.62 -102.124 2730
1690.15 -102.124 2730
1691.08 -101.787 2721
1697.59 -101.787 2721
1704.09 -101.787 2721
1710.6 -101.787 2721
1717.11 -101.787 2721
1718.55 -101.488 2713
1725.03 -101.488 2713
1725.78 -101.152 2704
1732.24 -101.152 2704
1732.92 -100.815 2695
1736.79 -100.665 2691
1734.8 -100.179 2678
1741.2 -100.179 2678
1736.51 -99.543 2661
1742.88 -99.543 2661
1740.69 -99.0567 2648
1747.03 -99.0567 2648
1753.36 -99.0567 2648
1754.37 -98.7574 2640
1757.35 -98.5704 2635
1760.98 -98.4207 2631
1767.27 -98.4207 2631
1770.86 -98.2711 2627
1771.73 -97.9718 2619
1778 -97.9718 2619
1784.26 -97.9718 2619
1790.52 -97.9718 2619
1794.04 -97.8222 2615
1797.54 -97.6726 2611
1809.31 -97.9718 2619
1815.57 -97.9718 2619
1821.84 -97.9718 2619
1828.1 -97.9718 2619
1837.16 -98.1215 2623
1846.25 -98.2711 2627
1852.53 -98.2711 2627
1858.81 -98.2711 2627
1865.09 -98.2711 2627
1871.37 -98.2711 2627
1871.94 -97.9718 2619
1878.2 -97.9718 2619
1881.59 -97.8222 2615
1887.84 -97.8222 2615
1891.19 -97.6726 2611
1894.53 -97.5229 2607
1900.77 -97.5229 2607
1907 -97.5229 2607
1913.23 -97.5229 2607
1919.47 -97.5229 2607
1925.7 -97.5229 2607
1931.94 -97.5229 2607
1938.17 -97.5229 2607
1944.4 -97.5229 2607
1947.65 -97.3733 2603
1950.87 -97.2237 2599
1957.08 -97.2237 2599
1963.3 -97.2237 2599
1965.72 -97.0366 2594
1968.89 -96.887 2590
1975.08 -96.887 2590
1981.27 -96.887 2590
-2047.76 -95.7595 2735
-2057.64 -96.5297 2757
-2058.49 -96.8799 2767
-2051.87 -96.8799 2767
-2048.21 -97.0199 2771
-2041.58 -97.0199 2771
-2038.63 -97.195 2776
-2031.99 -97.195 2776
-2025.35 -97.195 2776
-2018.71 -97.195 2776
-2018.6 -97.5101 2785
-2011.94 -97.5101 2785
-2005.28 -97.5101 2785
-2005.08 -97.8252 2794
-1998.4 -97.8252 2794
-1991.72 -97.8252 2794
-1988.59 -98.0003 2799
-1981.89 -98.0003 2799
-1975.2 -98.0003 2799
-2288.31 -115.892 3310
-2294.18 -116.592 3330
-2286.21 -116.592 3330
-2300.83 -117.747 3363
-2292.79 -117.747 3363
-2313.28 -119.218 3405
-2305.14 -119.218 3405
-2306.44 -119.708 3419
-2312.38 -120.443 3440
-2304.15 -120.443 3440
-2295.93 -120.443 3440
-2278.39 -119.953 3426
-2224.47 -117.537 3357
-2220.41 -117.747 3363
-2212.37 -117.747 3363
-2213.5 -118.238 3377
-2205.43 -118.238 3377
-2215.57 -119.218 3405
-2207.43 -119.218 3405
-2203.81 -119.463 3412
-2195.65 -119.463 3412
-2187.49 -119.463 3412
-2179.33 -119.463 3412
-2175.62 -119.708 3419
-2185.2 -120.688 3447
-2185.8 -121.179 3461
-2177.52 -121.179 3461
-2178.65 -121.704 3476
-2170.33 -121.704 3476
-2162.02 -121.704 3476
-2148.75 -121.424 3468
-2123.18 -120.443 3440
-2110.65 -120.198 3433
-2115.3 -120.934 3454
-2107.04 -120.934 3454
-2124.91 -122.439 3497
-2130.47 -123.244 3520
-2126.27 -123.489 3527
-2117.84 -123.489 3527
-2109.4 -123.489 3527
-2105.14 -123.735 3534
-2105.59 -124.26 3549
-2097.1 -124.26 3549
-2106.86 -125.345 3580
-2098.29 -125.345 3580
-2089.73 -125.345 3580
-2081.17 -125.345 3580
-2072.61 -125.345 3580
-2059.44 -125.065 3572
-2050.9 -125.065 3572
-2033.78 -124.54 3557
-2020.72 -124.26 3549
-2016.77 -124.54 3557
-2016.73 -125.065 3572
-2008.19 -125.065 3572
-1999.65 -125.065 3572
-1991.11 -125.065 3572
-1982.56 -125.065 3572
-1970.15 -124.82 3565
-1952.82 -124.26 3549
-1948.72 -124.54 3557
-1952.76 -125.345 3580
-1944.2 -125.345 3580
-1935.64 -125.345 3580
-1927.08 -125.345 3580
-1918.52 -125.345 3580
-1909.96 -125.345 3580
-1889.18 -124.54 3557
-1880.67 -124.54 3557
-1872.17 -124.54 3557
-1851.61 -123.735 3534
-1847.33 -124.015 3542
-1846.65 -124.54 3557
-1850.03 -125.345 3580
-1841.47 -125.345 3580
-1832.91 -125.345 3580
-1824.35 -125.345 3580
-1815.79 -125.345 3580
-1799.65 -124.82 3565
-1787.11 -124.54 3557
-1767.1 -123.735 3534
-1766.12 -124.26 3549
-1757.63 -124.26 3549
-1749.14 -124.26 3549
-1740.66 -124.26 3549
-1732.17 -124.26 3549
-1723.68 -124.26 3549
-1711.81 -124.015 3542
-1710.56 -124.54 3557
-1702.05 -124.54 3557
-1697.35 -124.82 3565
-1688.83 -124.82 3565
-1680.3 -124.82 3565
-1671.78 -124.82 3565
-1663.25 -124.82 3565
-1654.73 -124.82 3565
-1638.82 -124.26 3549
-1627.11 -124.015 3542
-1618.64 -124.015 3542
-1610.17 -124.015 3542
-1612.1 -124.82 3565
-1610.33 -125.345 3580
-1605.34 -125.625 3588
-1596.76 -125.625 3588
-1588.18 -125.625 3588
-1579.6 -125.625 3588
-1571.02 -125.625 3588
-1555.48 -125.065 3572
-1540.44 -124.54 3557
-1531.93 -124.54 3557
-1523.43 -124.54 3557
-1508.53 -124.015 3542
-1493.71 -123.489 3527
-1476.01 -122.719 3505
-1467.63 -122.719 3505
-1453 -122.194 3490
-1444.66 -122.194 3490
-1280.51 -110.22 3148
-1272.98 -110.22 3148
-1265.45 -110.22 3148
-1225.56 -107.384 3067
-1218.22 -107.384 3067
-1201.81 -106.578 3044
-1185.89 -105.808 3022
-1159.95 -104.127 2974
-1152.83 -104.127 2974
-1139.56 -103.567 2958
-1124.45 -102.832 2937
-1115.52 -102.657 2932
-1104.73 -102.307 2922
-1097.74 -102.307 2922
-1088.89 -102.132 2917
-1083.77 -102.307 2922
-1078.62 -102.482 2927
-1071.62 -102.482 2927
-1064.62 -102.482 2927
-1057.62 -102.482 2927
-1048.83 -102.307 2922
-1041.84 -102.307 2922
-1033.08 -102.132 2917
-1026.11 -102.132 2917
-1015.29 -101.747 2906
-1008.34 -101.747 2906
-997.945 -101.396 2896
-991.02 -101.396 2896
-982.396 -101.221 2891
-975.482 -101.221 2891
-968.569 -101.221 2891
-963.319 -101.396 2896
-956.394 -101.396 2896
-949.469 -101.396 2896
-942.543 -101.396 2896
-935.618 -101.396 2896
-928.693 -101.396 2896
-921.768 -101.396 2896
-914.843 -101.396 2896
-907.917 -101.396 2896
-900.992 -101.396 2896
-894.067 -101.396 2896
-887.142 -101.396 2896
-880.216 -101.396 2896
-873.291 -101.396 2896
-866.366 -101.396 2896
-859.441 -101.396 2896
-852.516 -101.396 2896
-847.05 -101.572 2901
-840.113 -101.572 2901
-833.176 -101.572 2901
-826.239 -101.572 2901
-817.89 -101.396 2896
-810.964 -101.396 2896
-804.039 -101.396 2896
-797.114 -101.396 2896
-790.189 -101.396 2896
-783.263 -101.396 2896
-776.338 -101.396 2896
-768.085 -101.221 2891
-761.171 -101.221 2891
-752.954 -101.046 2886
-746.052 -101.046 2886
-739.151 -101.046 2886
-732.25 -101.046 2886
-725.348 -101.046 2886
-718.447 -101.046 2886
-710.313 -100.871 2881
-703.424 -100.871 2881
-695.326 -100.696 2876
-688.448 -100.696 2876
-681.571 -100.696 2876
-673.52 -100.521 2871
-665.494 -100.346 2866
-658.641 -100.346 2866
-651.787 -100.346 2866
-644.033 -100.206 2862
-637.19 -100.206 2862
-630.346 -100.206 2862
-623.502 -100.206 2862
-619.674 -100.696 2876
-614.928 -101.046 2886
-608.026 -101.046 2886
-604.249 -101.572 2901
-597.312 -101.572 2901
-592.41 -101.922 2911
-590.678 -102.832 2937
-583.655 -102.832 2937
-576.632 -102.832 2937
-629.536 -113.651 3246
-624.073 -114.071 3258
-616.282 -114.071 3258
-609.799 -114.316 3265
-601.991 -114.316 3265
-594.183 -114.316 3265
-586.376 -114.316 3265
-580.872 -114.771 3278
-573.033 -114.771 3278
-565.194 -114.771 3278
-557.356 -114.771 3278
-549.517 -114.771 3278
-540.522 -114.526 3271
-533.84 -114.771 3278
-526.001 -114.771 3278
-518.162 -114.771 3278
-510.324 -114.771 3278
-502.485 -114.771 3278
-494.646 -114.771 3278
-486.807 -114.771 3278
-477.946 -114.526 3271
-470.124 -114.526 3271
-287.986 -73.8416 2109
-282.943 -73.8416 2109
-277.899 -73.8416 2109
-272.856 -73.8416 2109
-267.813 -73.8416 2109
-262.77 -73.8416 2109
-257.36 -73.7365 2106
-252.324 -73.7365 2106
-247.288 -73.7365 2106
-242.252 -73.7365 2106
-236.652 -73.5615 2101
-231.959 -73.6665 2104
-226.928 -73.6665 2104
-221.896 -73.6665 2104
-216.865 -73.6665 2104
-211.532 -73.5615 2101
-206.213 -73.4564 2098
-201.483 -73.5615 2101
-197.955 -74.1217 2117
-192.893 -74.1217 2117
-188.54 -74.4018 2125
-184.15 -74.6819 2133
-179.972 -75.067 2144
-175.09 -75.1721 2147
-170.431 -75.3821 2153
-165.666 -75.5572 2158
-160.506 -75.5572 2158
-155.345 -75.5572 2158
-150.185 -75.5572 2158
-144.823 -75.4522 2155
-139.67 -75.4522 2155
-134.516 -75.4522 2155
-129.363 -75.4522 2155
-124.094 -75.3821 2153
-118.946 -75.3821 2153
-113.639 -75.2771 2150
-108.346 -75.1721 2147
-103.212 -75.1721 2147
-98.078 -75.1721 2147
-92.814 -75.067 2144
-87.6871 -75.067 2144
-82.3676 -74.892 2139
-77.2526 -74.892 2139
-72.0364 -74.7869 2136
-66.9286 -74.7869 2136
-61.7339 -74.6819 2133
-56.6333 -74.6819 2133
-51.5326 -74.6819 2133
-46.3884 -74.6119 2131
-41.2926 -74.6119 2131
-36.1967 -74.6119 2131
-31.0571 -74.5068 2128
-25.9684 -74.5068 2128
-20.8502 -74.4018 2125
-15.7465 -74.2967 2122
-10.6721 -74.2967 2122
-5.59776 -74.2967 2122
-0.523416 -74.2967 2122
4.55093 -74.2967 2122
9.62527 -74.2967 2122
14.6996 -74.2967 2122
19.774 -74.2967 2122
24.8483 -74.2967 2122
29.9227 -74.2967 2122
34.964 -74.2267 2120
40.0336 -74.2267 2120
45.1457 -74.2967 2122
50.22 -74.2967 2122
55.2944 -74.2967 2122
60.3687 -74.2967 2122
65.4431 -74.2967 2122
70.5174 -74.2967 2122
75.5918 -74.2967 2122
80.6661 -74.2967 2122
85.7405 -74.2967 2122
90.8148 -74.2967 2122
95.8891 -74.2967 2122
101.106 -74.4018 2125
106.188 -74.4018 2125
111.426 -74.5068 2128
116.679 -74.6119 2131
121.775 -74.6119 2131
126.99 -74.6819 2133
132.277 -74.7869 2136
137.577 -74.892 2139
142.692 -74.892 2139
148.015 -74.997 2142
153.28 -75.067 2144
158.628 -75.1721 2147
163.763 -75.1721 2147
169.133 -75.2771 2150
174.517 -75.3821 2153
179.832 -75.4522 2155
184.986 -75.4522 2155
190.404 -75.5572 2158
196.108 -75.7673 2164
201.748 -75.9423 2169
206.934 -75.9423 2169
212.415 -76.0474 2172
217.608 -76.0474 2172
223.11 -76.1524 2175
228.311 -76.1524 2175
233.834 -76.2575 2178
239.701 -76.4675 2184
245.148 -76.5376 2186
250.375 -76.5376 2186
256.304 -76.7476 2192
263.336 -77.2728 2207
271.413 -78.0781 2230
276.745 -78.0781 2230
284.355 -78.7083 2248
292.179 -79.3736 2267
299.176 -79.7937 2279
304.626 -79.7937 2279
311.3 -80.1088 2288
317.74 -80.3539 2295
323.651 -80.459 2298
329.146 -80.459 2298
335.515 -80.669 2304
342.061 -80.9141 2311
347.587 -80.9141 2311
353.113 -80.9141 2311
358.64 -80.9141 2311
364.166 -80.9141 2311
369.692 -80.9141 2311
374.569 -80.7741 2307
379.591 -80.669 2304
384.6 -80.564 2301
390.102 -80.564 2301
395.604 -80.564 2301
401.107 -80.564 2301
510.868 -101.221 2891
517.781 -101.221 2891
526.509 -101.572 2901
533.447 -101.572 2901
540.384 -101.572 2901
547.321 -101.572 2901
553.303 -101.396 2896
559.261 -101.221 2891
566.174 -101.221 2891
571.105 -100.871 2881
577.994 -100.871 2881
583.869 -100.696 2876
590.746 -100.696 2876
596.584 -100.521 2871
603.45 -100.521 2871
610.315 -100.521 2871
617.181 -100.521 2871
624.046 -100.521 2871
630.911 -100.521 2871
637.777 -100.521 2871
644.642 -100.521 2871
651.508 -100.521 2871
658.373 -100.521 2871
665.239 -100.521 2871
673.275 -100.696 2876
680.152 -100.696 2876
687.029 -100.696 2876
693.907 -100.696 2876
700.784 -100.696 2876
707.662 -100.696 2876
713.297 -100.521 2871
720.162 -100.521 2871
727.028 -100.521 2871
733.893 -100.521 2871
740.758 -100.521 2871
747.624 -100.521 2871
754.489 -100.521 2871
761.355 -100.521 2871
766.882 -100.346 2866
773.736 -100.346 2866
780.589 -100.346 2866
787.443 -100.346 2866
794.296 -100.346 2866
800.031 -100.206 2862
806.875 -100.206 2862
813.719 -100.206 2862
820.563 -100.206 2862
825.962 -100.031 2857
832.794 -100.031 2857
839.625 -100.031 2857
846.457 -100.031 2857
853.289 -100.031 2857
860.121 -100.031 2857
866.953 -100.031 2857
873.785 -100.031 2857
879.076 -99.8559 2852
885.896 -99.8559 2852
894.281 -100.031 2857
902.69 -100.206 2862
909.534 -100.206 2862
916.378 -100.206 2862
924.512 -100.346 2866
931.366 -100.346 2866
939.856 -100.521 2871
946.721 -100.521 2871
953.587 -100.521 2871
965.47 -101.046 2886
974.056 -101.221 2891
980.969 -101.221 2891
1009.07 -103.392 2953
1021.29 -103.917 2968
1028.39 -103.917 2968
1035.49 -103.917 2968
1242.08 -122.964 3512
1250.47 -122.964 3512
1258.87 -122.964 3512
1283.51 -124.54 3557
1294.92 -124.82 3565
1303.44 -124.82 3565
1317.49 -125.345 3580
1326.05 -125.345 3580
1334.61 -125.345 3580
1343.17 -125.345 3580
1357.4 -125.87 3595
1365.99 -125.87 3595
1374.59 -125.87 3595
1380.49 -125.625 3588
1377.07 -124.54 3557
1382.46 -124.26 3549
1390.95 -124.26 3549
1396.68 -124.015 3542
1393.24 -122.964 3512
1398.85 -122.719 3505
1401.21 -122.194 3490
1409.55 -122.194 3490
1412.21 -121.704 3476
1414.39 -121.179 3461
1416.92 -120.688 3447
1425.16 -120.688 3447
1424.67 -119.953 3426
1421.15 -118.973 3398
1420.44 -118.238 3377
1428.52 -118.238 3377
1422.13 -117.047 3343
1419 -116.137 3317
1420.91 -115.647 3303
1426.21 -115.437 3297
1434.1 -115.437 3297
1441.98 -115.437 3297
1446.79 -115.191 3290
1449.35 -114.771 3278
1457.19 -114.771 3278
1459.22 -114.316 3265
1458.49 -113.651 3246
1460.38 -113.196 3233
1468.11 -113.196 3233
1473.1 -112.986 3227
1478.06 -112.776 3221
1488.53 -112.986 3227
1528.71 -115.437 3297
1536.59 -115.437 3297
1544.48 -115.437 3297
1555.18 -115.647 3303
1569.71 -116.137 3317
1622.82 -119.463 3412
1630.98 -119.463 3412
1649.23 -120.198 3433
1667.58 -120.934 3454
1679.24 -121.179 3461
1687.51 -121.179 3461
1703.14 -121.704 3476
1718.34 -122.194 3490
1726.69 -122.194 3490
1735.03 -122.194 3490
1746.88 -122.439 3497
1755.24 -122.439 3497
1763.6 -122.439 3497
1771.96 -122.439 3497
1769.63 -121.704 3476
1777.95 -121.704 3476
1786.26 -121.704 3476
1794.57 -121.704 3476
1791.47 -120.934 3454
1621.83 -103.742 2963
1628.92 -103.742 2963
1636 -103.742 2963
1623.13 -102.482 2927
1630.13 -102.482 2927
1631.53 -102.132 2917
1629.52 -101.572 2901
1636.46 -101.572 2901
1643.39 -101.572 2901
1628.14 -100.206 2862
1617.85 -99.1557 2832
1613.72 -98.4905 2813
1615.26 -98.1753 2804
1621.97 -98.1753 2804
1625.77 -98.0003 2799
1627.22 -97.6852 2790
1630.96 -97.5101 2785
1637.62 -97.5101 2785
1641.33 -97.335 2780
1642.64 -97.0199 2771
1646.88 -96.8799 2767
1653.5 -96.8799 2767
1654.12 -96.5297 2757
1658.3 -96.3897 2753
1664.89 -96.3897 2753
1668.43 -96.2146 2748
1675 -96.2146 2748
1679.13 -96.0746 2744
1680.16 -95.7595 2735
1686.7 -95.7595 2735
1693.24 -95.7595 2735
1699.78 -95.7595 2735
1706.32 -95.7595 2735
1709.73 -95.5844 2730
1716.26 -95.5844 2730
1722.79 -95.5844 2730
1723.61 -95.2693 2721
1727.58 -95.1292 2717
1728.33 -94.8141 2708
1734.81 -94.8141 2708
1735.49 -94.499 2699
1739.37 -94.359 2695
1739.98 -94.0439 2686
1746.4 -94.0439 2686
1747.61 -93.7638 2678
1742.88 -93.1685 2661
1740.69 -92.7134 2648
1747.03 -92.7134 2648
1753.36 -92.7134 2648
1754.37 -92.4333 2640
1760.69 -92.4333 2640
1763.65 -92.2582 2635
1769.95 -92.2582 2635
1773.56 -92.1182 2631
1774.44 -91.8381 2623
1780.71 -91.8381 2623
1786.98 -91.8381 2623
1793.26 -91.8381 2623
1796.78 -91.698 2619
1800.29 -91.558 2615
1812.07 -91.8381 2623
1818.35 -91.8381 2623
1824.62 -91.8381 2623
1830.89 -91.8381 2623
1839.96 -91.9781 2627
1849.06 -92.1182 2631
1855.35 -92.1182 2631
1861.64 -92.1182 2631
1867.93 -92.1182 2631
1874.22 -92.1182 2631
1877.66 -91.9781 2627
1883.94 -91.9781 2627
1884.46 -91.698 2619
1890.73 -91.698 2619
1894.09 -91.558 2615
1897.44 -91.4179 2611
1903.68 -91.4179 2611
1909.93 -91.4179 2611
1916.17 -91.4179 2611
1922.41 -91.4179 2611
1928.66 -91.4179 2611
1934.9 -91.4179 2611
1941.14 -91.4179 2611
1947.39 -91.4179 2611
1950.64 -91.2779 2607
1956.87 -91.2779 2607
1963.11 -91.2779 2607
1966.32 -91.1378 2603
1972.54 -91.1378 2603
1971.93 -90.8227 2594
1978.13 -90.8227 2594
1981.27 -90.6826 2590
-2047.76 -89.2078 2735
-2057.64 -89.9253 2757
-2058.49 -90.2515 2767
-2051.87 -90.2515 2767
-2048.21 -90.382 2771
-2041.58 -90.382 2771
-2038.63 -90.5451 2776
-2031.99 -90.5451 2776
-2025.35 -90.5451 2776
-2018.71 -90.5451 2776
-2018.6 -90.8386 2785
-2011.94 -90.8386 2785
-2005.28 -90.8386 2785
-2005.08 -91.1322 2794
-1998.4 -91.1322 2794
-1991.72 -91.1322 2794
-1988.59 -91.2952 2799
-1981.89 -91.2952 2799
-1975.2 -91.2952 2799
-2288.31 -107.963 3310
-2294.18 -108.615 3330
-2286.21 -108.615 3330
-2310.41 -110.148 3377
-2302.33 -110.148 3377
-2313.28 -111.061 3405
-2305.14 -111.061 3405
-2306.44 -111.518 3419
-2312.38 -112.203 3440
-2304.15 -112.203 3440
-2295.93 -112.203 3440
-2278.39 -111.746 3426
-2228.45 -109.691 3363
-2234.27 -110.376 3384
-2226.18 -110.376 3384
-2218.09 -110.376 3384
-2214.57 -110.605 3391
-2215.57 -111.061 3405
-2207.43 -111.061 3405
-2203.81 -111.29 3412
-2195.65 -111.29 3412
-2187.49 -111.29 3412
-2179.33 -111.29 3412
-2175.62 -111.518 3419
-2185.2 -112.431 3447
-2185.8 -112.888 3461
-2177.52 -112.888 3461
-2178.65 -113.377 3476
-2170.33 -113.377 3476
-2162.02 -113.377 3476
-2153.71 -113.377 3476
-2123.18 -112.203 3440
-2110.65 -111.974 3433
-2123.87 -113.116 3468
-2115.58 -113.116 3468
-2124.91 -114.062 3497
-2138.94 -115.269 3534
-2139.53 -115.758 3549
-2131.05 -115.758 3549
-2122.56 -115.758 3549
-2118.84 -116.019 3557
-2110.33 -116.019 3557
-2101.83 -116.019 3557
-2106.86 -116.769 3580
-2098.29 -116.769 3580
-2098.49 -117.258 3595
-2089.89 -117.258 3595
-2081.3 -117.258 3595
-2064.05 -116.769 3580
-2055.49 -116.769 3580
-2033.78 -116.019 3557
-2025.27 -116.019 3557
-2025.27 -116.508 3572
-2025.76 -117.03 3588
-2017.18 -117.03 3588
-2008.6 -117.03 3588
-1991.11 -116.508 3572
-1982.56 -116.508 3572
-1970.15 -116.28 3565
-1952.82 -115.758 3549
-1948.72 -116.019 3557
-1952.76 -116.769 3580
-1944.2 -116.769 3580
-1935.64 -116.769 3580
-1927.08 -116.769 3580
-1918.52 -116.769 3580
-1909.96 -116.769 3580
-1889.18 -116.019 3557
-1880.67 -116.019 3557
-1872.17 -116.019 3557
-1851.61 -115.269 3534
-1847.33 -115.53 3542
-1846.65 -116.019 3557
-1850.03 -116.769 3580
-1841.47 -116.769 3580
-1832.91 -116.769 3580
-1824.35 -116.769 3580
-1815.79 -116.769 3580
-1799.65 -116.28 3565
-1787.11 -116.019 3557
-1767.1 -115.269 3534
-1766.12 -115.758 3549
-1757.63 -115.758 3549
-1749.14 -115.758 3549
-1740.66 -115.758 3549
-1732.17 -115.758 3549
-1723.68 -115.758 3549
-1711.81 -115.53 3542
-1710.56 -116.019 3557
-1702.05 -116.019 3557
-1697.35 -116.28 3565
-1688.83 -116.28 3565
-1680.3 -116.28 3565
-1671.78 -116.28 3565
-1663.25 -116.28 3565
-1654.73 -116.28 3565
-1638.82 -115.758 3549
-1627.11 -115.53 3542
-1618.64 -115.53 3542
-1610.17 -115.53 3542
-1612.1 -116.28 3565
-1610.33 -116.769 3580
-1605.34 -117.03 3588
-1596.76 -117.03 3588
-1588.18 -117.03 3588
-1579.6 -117.03 3588
-1571.02 -117.03 3588
-1555.48 -116.508 3572
-1540.44 -116.019 3557
-1531.93 -116.019 3557
-1523.43 -116.019 3557
-1508.53 -115.53 3542
-1493.71 -115.04 3527
-1476.01 -114.323 3505
-1467.63 -114.323 3505
-1453 -113.834 3490
-1444.66 -113.834 3490
-1280.51 -102.679 3148
-1272.98 -102.679 3148
-1265.45 -102.679 3148
-1241.54 -101.341 3107
-1234.11 -101.341 3107
-1204.18 -99.4821 3050
-1185.89 -98.5689 3022
-1159.95 -97.0032 2974
-1152.83 -97.0032 2974
-1139.56 -96.4814 2958
-1126.36 -95.9595 2942
-1115.52 -95.6333 2932
-1104.73 -95.3072 2922
-1097.74 -95.3072 2922
-1088.89 -95.1441 2917
-1085.62 -95.4702 2927
-1080.46 -95.6333 2932
-1075.28 -95.7964 2937
-1068.26 -95.7964 2937
-1061.24 -95.7964 2937
-1052.42 -95.6333 2932
-1045.41 -95.6333 2932
-1036.62 -95.4702 2927
-1027.87 -95.3072 2922
-1019.13 -95.1441 2917
-1012.16 -95.1441 2917
-1003.11 -94.9484 2911
-996.153 -94.9484 2911
-985.794 -94.6222 2901
-978.857 -94.6222 2901
-971.919 -94.6222 2901
-966.645 -94.7853 2906
-959.696 -94.7853 2906
-952.747 -94.7853 2906
-945.798 -94.7853 2906
-938.849 -94.7853 2906
-931.9 -94.7853 2906
-924.951 -94.7853 2906
-918.002 -94.7853 2906
-911.052 -94.7853 2906
-904.103 -94.7853 2906
-897.154 -94.7853 2906
-888.673 -94.6222 2901
-881.736 -94.6222 2901
-874.799 -94.6222 2901
-867.862 -94.6222 2901
-860.925 -94.6222 2901
-853.987 -94.6222 2901
-847.05 -94.6222 2901
-840.113 -94.6222 2901
-833.176 -94.6222 2901
-826.239 -94.6222 2901
-819.302 -94.6222 2901
-812.365 -94.6222 2901
-805.427 -94.6222 2901
-797.114 -94.4591 2896
-790.189 -94.4591 2896
-783.263 -94.4591 2896
-776.338 -94.4591 2896
-769.413 -94.4591 2896
-761.171 -94.296 2891
-752.954 -94.1329 2886
-746.052 -94.1329 2886
-739.151 -94.1329 2886
-732.25 -94.1329 2886
-725.348 -94.1329 2886
-718.447 -94.1329 2886
-711.546 -94.1329 2886
-703.424 -93.9698 2881
-696.534 -93.9698 2881
-689.645 -93.9698 2881
-681.571 -93.8068 2876
-673.52 -93.6437 2871
-665.494 -93.4806 2866
-658.641 -93.4806 2866
-651.787 -93.4806 2866
-644.934 -93.4806 2866
-638.08 -93.4806 2866
-631.227 -93.4806 2866
-623.502 -93.3501 2862
-619.674 -93.8068 2876
-613.862 -93.9698 2881
-608.026 -94.1329 2886
-602.167 -94.296 2891
-595.253 -94.296 2891
-591.393 -94.7853 2906
-589.672 -95.6333 2932
-582.661 -95.6333 2932
-575.65 -95.6333 2932
-628.179 -105.647 3239
-625.414 -106.495 3265
-617.606 -106.495 3265
-609.799 -106.495 3265
-601.991 -106.495 3265
-594.183 -106.495 3265
-586.376 -106.495 3265
-580.872 -106.919 3278
-573.033 -106.919 3278
-565.194 -106.919 3278
-557.356 -106.919 3278
-549.517 -106.919 3278
-539.53 -106.495 3265
-533.84 -106.919 3278
-526.001 -106.919 3278
-518.162 -106.919 3278
-510.324 -106.919 3278
-502.485 -106.919 3278
-494.646 -106.919 3278
-486.807 -106.919 3278
-477.069 -106.495 3265
-469.262 -106.495 3265
-285.801 -68.2676 2093
-280.796 -68.2676 2093
-275.791 -68.2676 2093
-271.174 -68.3654 2096
-266.162 -68.3654 2096
-261.15 -68.3654 2096
-256.138 -68.3654 2096
-251.126 -68.3654 2096
-246.113 -68.3654 2096
-241.101 -68.3654 2096
-236.089 -68.3654 2096
-231.297 -68.4307 2098
-226.28 -68.4307 2098
-221.263 -68.4307 2098
-216.247 -68.4307 2098
-211.028 -68.3654 2096
-206.016 -68.3654 2096
-202.251 -68.7895 2109
-197.955 -69.0504 2117
-192.893 -69.0504 2117
-189.073 -69.507 2131
-185.358 -70.0289 2147
-180.224 -70.0289 2147
-175.579 -70.2246 2153
-170.827 -70.3877 2158
-165.896 -70.4855 2161
-160.729 -70.4855 2161
-155.561 -70.4855 2161
-150.394 -70.4855 2161
-145.024 -70.3877 2158
-139.864 -70.3877 2158
-134.704 -70.3877 2158
-129.543 -70.3877 2158
-124.383 -70.3877 2158
-119.222 -70.3877 2158
-113.639 -70.1268 2150
-108.498 -70.1268 2150
-103.212 -70.0289 2147
-98.078 -70.0289 2147
-92.9439 -70.0289 2147
-87.8098 -70.0289 2147
-82.3676 -69.768 2139
-77.2526 -69.768 2139
-72.1376 -69.768 2139
-66.9286 -69.6701 2136
-61.7339 -69.5723 2133
-56.6333 -69.5723 2133
-51.5326 -69.5723 2133
-46.3884 -69.507 2131
-41.2926 -69.507 2131
-36.1967 -69.507 2131
-31.0571 -69.4092 2128
-25.9684 -69.4092 2128
-20.8797 -69.4092 2128
-15.7465 -69.2135 2122
-10.6721 -69.2135 2122
-5.59776 -69.2135 2122
-0.523416 -69.2135 2122
4.55093 -69.2135 2122
9.62527 -69.2135 2122
14.6996 -69.2135 2122
19.774 -69.2135 2122
24.8483 -69.2135 2122
29.9227 -69.2135 2122
34.997 -69.2135 2122
40.0713 -69.2135 2122
45.1457 -69.2135 2122
50.22 -69.2135 2122
55.2944 -69.2135 2122
60.3687 -69.2135 2122
65.4431 -69.2135 2122
70.5174 -69.2135 2122
75.5918 -69.2135 2122
80.6661 -69.2135 2122
85.8617 -69.3113 2125
90.9432 -69.3113 2125
96.0247 -69.3113 2125
101.249 -69.4092 2128
106.338 -69.4092 2128
111.583 -69.507 2131
116.789 -69.5723 2133
121.889 -69.5723 2133
126.99 -69.5723 2133
132.277 -69.6701 2136
137.577 -69.768 2139
142.692 -69.768 2139
148.015 -69.8658 2142
153.28 -69.9311 2144
158.628 -70.0289 2147
163.763 -70.0289 2147
169.133 -70.1268 2150
174.517 -70.2246 2153
179.832 -70.2898 2155
184.986 -70.2898 2155
190.404 -70.3877 2158
196.108 -70.5834 2164
201.748 -70.7465 2169
206.934 -70.7465 2169
212.415 -70.8443 2172
217.608 -70.8443 2172
223.11 -70.9422 2175
228.311 -70.9422 2175
233.834 -71.04 2178
239.701 -71.2357 2184
245.148 -71.301 2186
250.375 -71.301 2186
256.304 -71.4967 2192
262.262 -71.6924 2198
271.413 -72.7361 2230
276.745 -72.7361 2230
284.355 -73.3232 2248
292.179 -73.943 2267
299.176 -74.3344 2279
304.626 -74.3344 2279
311.3 -74.6279 2288
317.74 -74.8562 2295
323.651 -74.9541 2298
329.146 -74.9541 2298
335.078 -75.0519 2301
342.061 -75.3781 2311
347.587 -75.3781 2311
353.113 -75.3781 2311
358.64 -75.3781 2311
364.166 -75.3781 2311
369.692 -75.3781 2311
374.569 -75.2476 2307
379.591 -75.1498 2304
384.6 -75.0519 2301
390.102 -75.0519 2301
395.604 -75.0519 2301
401.107 -75.0519 2301
526.509 -94.6222 2901
534.366 -94.7853 2906
541.315 -94.7853 2906
548.264 -94.7853 2906
555.213 -94.7853 2906
559.261 -94.296 2891
566.174 -94.296 2891
572.096 -94.1329 2886
577.994 -93.9698 2881
583.869 -93.8068 2876
590.746 -93.8068 2876
596.584 -93.6437 2871
603.45 -93.6437 2871
610.315 -93.6437 2871
617.181 -93.6437 2871
624.046 -93.6437 2871
630.911 -93.6437 2871
637.777 -93.6437 2871
644.642 -93.6437 2871
651.508 -93.6437 2871
658.373 -93.6437 2871
665.239 -93.6437 2871
673.275 -93.8068 2876
680.152 -93.8068 2876
687.029 -93.8068 2876
693.907 -93.8068 2876
700.784 -93.8068 2876
707.662 -93.8068 2876
713.297 -93.6437 2871
721.416 -93.8068 2876
728.294 -93.8068 2876
735.171 -93.8068 2876
742.048 -93.8068 2876
747.624 -93.6437 2871
754.489 -93.6437 2871
761.355 -93.6437 2871
768.22 -93.6437 2871
773.736 -93.4806 2866
780.589 -93.4806 2866
787.443 -93.4806 2866
794.296 -93.4806 2866
801.15 -93.4806 2866
806.875 -93.3501 2862
813.719 -93.3501 2862
820.563 -93.3501 2862
827.407 -93.3501 2862
834.251 -93.3501 2862
839.625 -93.187 2857
846.457 -93.187 2857
853.289 -93.187 2857
860.121 -93.187 2857
866.953 -93.187 2857
873.785 -93.187 2857
880.617 -93.187 2857
889.002 -93.3501 2862
895.846 -93.3501 2862
903.952 -93.4806 2866
910.805 -93.4806 2866
917.659 -93.4806 2866
926.125 -93.6437 2871
932.99 -93.6437 2871
943.13 -93.9698 2881
950.019 -93.9698 2881
960.23 -94.296 2891
968.816 -94.4591 2896
984.501 -95.3072 2922
991.488 -95.3072 2922
1014.19 -96.8075 2968
1070.84 -101.504 3112
1080.36 -101.7 3118
1087.82 -101.7 3118
1095.28 -101.7 3118
1206.71 -111.29 3412
1214.87 -111.29 3412
1240.59 -112.888 3461
1254.28 -113.377 3476
1275.67 -114.551 3512
1284.07 -114.551 3512
1295.41 -114.812 3520
1306.42 -115.04 3527
1329.02 -116.28 3565
1337.54 -116.28 3565
1346.07 -116.28 3565
1354.59 -116.28 3565
1363.12 -116.28 3565
1362.8 -115.53 3542
1362.75 -114.812 3520
1371.17 -114.812 3520
1376.45 -114.551 3512
1384.85 -114.551 3512
1384.52 -113.834 3490
1387.27 -113.377 3476
1389.56 -112.888 3461
1397.84 -112.888 3461
1400.43 -112.431 3447
1405.81 -112.203 3440
1405.41 -111.518 3419
1413.58 -111.518 3419
1413.02 -110.833 3398
1412.37 -110.148 3377
1412.03 -109.496 3357
1420.06 -109.496 3357
1416.6 -108.615 3330
1413.01 -107.734 3303
1415.32 -107.31 3290
1423.19 -107.31 3290
1431.05 -107.31 3290
1438.92 -107.31 3290
1438.43 -106.691 3271
1446.25 -106.691 3271
1454.08 -106.691 3271
1456.09 -106.266 3258
1452.65 -105.451 3233
1457.67 -105.255 3227
1465.38 -105.255 3227
1470.36 -105.06 3221
1478.06 -105.06 3221
1488.53 -105.255 3227
1522.68 -107.115 3284
1530.53 -107.115 3284
1538.39 -107.115 3284
1555.18 -107.734 3303
1569.71 -108.191 3317
1612.84 -110.605 3391
1620.95 -110.605 3391
1639.14 -111.29 3412
1654.06 -111.746 3426
1662.25 -111.746 3426
1670.45 -111.746 3426
1688.93 -112.431 3447
1697.17 -112.431 3447
1705.41 -112.431 3447
1713.66 -112.431 3447
1721.9 -112.431 3447
1733.66 -112.659 3454
1745.45 -112.888 3461
1753.72 -112.888 3461
1769.63 -113.377 3476
1777.95 -113.377 3476
1786.26 -113.377 3476
1794.57 -113.377 3476
1791.47 -112.659 3454
1735.12 -108.615 3330
1746.75 -108.843 3337
1761.56 -109.267 3350
1769.57 -109.267 3350
1777.59 -109.267 3350
1785.6 -109.267 3350
1793.61 -109.267 3350
1801.62 -109.267 3350
1788.02 -107.963 3310
1778.57 -106.919 3278
1786.41 -106.919 3278
1752.65 -104.44 3202
1724.03 -102.287 3136
1636 -96.6445 2963
1640.32 -96.4814 2958
1647.39 -96.4814 2958
1645.51 -95.9595 2942
1638.51 -95.1441 2917
1636.46 -94.6222 2901
1643.39 -94.6222 2901
1630.42 -93.4806 2866
1620.71 -92.5347 2837
1619.46 -92.0781 2823
1620.45 -91.7519 2813
1627.18 -91.7519 2813
1628.68 -91.4583 2804
1629.55 -91.1322 2794
1633.89 -91.0017 2790
1640.56 -91.0017 2790
1644.28 -90.8386 2785
1645.6 -90.5451 2776
1649.27 -90.382 2771
1655.89 -90.382 2771
1660.12 -90.2515 2767
1660.71 -89.9253 2757
1667.3 -89.9253 2757
1671.47 -89.7949 2753
1678.05 -89.7949 2753
1681.58 -89.6318 2748
1685.69 -89.5013 2744
1686.7 -89.2078 2735
1693.24 -89.2078 2735
1699.78 -89.2078 2735
1706.32 -89.2078 2735
1709.73 -89.0447 2730
1716.26 -89.0447 2730
1722.79 -89.0447 2730
1729.31 -89.0447 2730
1730.12 -88.7511 2721
1734.07 -88.6207 2717
1740.57 -88.6207 2717
1741.28 -88.3271 2708
1741.95 -88.0335 2699
1745.81 -87.9031 2695
1752.26 -87.9031 2695
1752.83 -87.6095 2686
1745.5 -86.9246 2665
1745.95 -86.631 2656
1752.3 -86.631 2656
1753.36 -86.3701 2648
1754.37 -86.1091 2640
1760.69 -86.1091 2640
1763.65 -85.946 2635
1769.95 -85.946 2635
1776.26 -85.946 2635
1779.85 -85.8156 2631
1780.71 -85.5546 2623
1786.98 -85.5546 2623
1793.26 -85.5546 2623
1799.53 -85.5546 2623
1803.05 -85.4242 2619
1812.07 -85.5546 2623
1818.35 -85.5546 2623
1827.4 -85.6851 2627
1833.68 -85.6851 2627
1842.77 -85.8156 2631
1849.06 -85.8156 2631
1855.35 -85.8156 2631
1864.47 -85.946 2635
1870.77 -85.946 2635
1877.07 -85.946 2635
1883.37 -85.946 2635
1883.94 -85.6851 2627
1890.22 -85.6851 2627
1896.5 -85.6851 2627
1899.89 -85.5546 2623
1906.16 -85.5546 2623
1912.43 -85.5546 2623
1918.7 -85.5546 2623
1924.98 -85.5546 2623
1931.25 -85.5546 2623
1937.52 -85.5546 2623
1943.79 -85.5546 2623
1950.07 -85.5546 2623
1956.34 -85.5546 2623
1959.62 -85.4242 2619
1962.88 -85.2937 2615
1969.13 -85.2937 2615
1975.38 -85.2937 2615
1975.58 -85.0328 2607
1978.77 -84.9023 2603
1984.99 -84.9023 2603
1984.33 -84.6087 2594
-2047.76 -82.656 2735
-2057.64 -83.3209 2757
-2051.05 -83.3209 2757
-2044.46 -83.3209 2757
-2041.56 -83.472 2762
-2041.58 -83.744 2771
-2034.96 -83.744 2771
-2028.33 -83.744 2771
-2021.71 -83.744 2771
-2015.08 -83.744 2771
-2008.45 -83.744 2771
-1998.94 -83.6231 2767
-1992.32 -83.6231 2767
-1992.16 -83.8951 2776
-1985.52 -83.8951 2776
-1978.89 -83.8951 2776
-1975.09 -84.016 2780
-1968.44 -84.016 2780
-1961.79 -84.016 2780
-2294.18 -100.638 3330
-2286.21 -100.638 3330
-2310.41 -102.058 3377
-2302.33 -102.058 3377
-2299.01 -102.27 3384
-2290.92 -102.27 3384
-2306.44 -103.328 3419
-2302.97 -103.539 3426
-2294.77 -103.539 3426
-2286.58 -103.539 3426
-2278.39 -103.539 3426
-2228.45 -101.635 3363
-2234.27 -102.27 3384
-2226.18 -102.27 3384
-2218.09 -102.27 3384
-2214.57 -102.481 3391
-2215.57 -102.905 3405
-2207.43 -102.905 3405
-2203.81 -103.116 3412
-2195.65 -103.116 3412
-2187.49 -103.116 3412
-2179.33 -103.116 3412
-2175.62 -103.328 3419
-2171.89 -103.539 3426
-2181.38 -104.385 3454
-2173.12 -104.385 3454
-2178.65 -105.05 3476
-2170.33 -105.05 3476
-2162.02 -105.05 3476
-2153.71 -105.05 3476
-2123.18 -103.962 3440
-2110.65 -103.751 3433
-2123.87 -104.808 3468
-2115.58 -104.808 3468
-2134.02 -106.138 3512
-2148.02 -107.256 3549
-2149.18 -107.74 3565
-2140.65 -107.74 3565
-2132.13 -107.74 3565
-2127.77 -107.952 3572
-2132.88 -108.647 3595
-2124.28 -108.647 3595
-2115.68 -108.647 3595
-2111.78 -108.888 3603
-2103.16 -108.888 3603
-2094.54 -108.888 3603
-2085.93 -108.888 3603
-2077.31 -108.888 3603
-2068.7 -108.888 3603
-2051.5 -108.435 3588
-2033.81 -107.952 3572
-2038.31 -108.647 3595
-2029.72 -108.647 3595
-2021.12 -108.647 3595
-2012.52 -108.647 3595
-2000.02 -108.435 3588
-1991.44 -108.435 3588
-1970.15 -107.74 3565
-1948.97 -107.045 3542
-1944.34 -107.256 3549
-1948.4 -107.952 3572
-1939.85 -107.952 3572
-1935.64 -108.193 3580
-1927.08 -108.193 3580
-1918.52 -108.193 3580
-1901.95 -107.74 3565
-1889.18 -107.498 3557
-1876.44 -107.256 3549
-1867.96 -107.256 3549
-1855.8 -107.045 3542
-1843.16 -106.803 3534
-1858.59 -108.193 3580
-1854.16 -108.435 3588
-1845.58 -108.435 3588
-1837 -108.435 3588
-1824.35 -108.193 3580
-1815.79 -108.193 3580
-1799.65 -107.74 3565
-1787.11 -107.498 3557
-1774.6 -107.256 3549
-1766.12 -107.256 3549
-1757.63 -107.256 3549
-1749.14 -107.256 3549
-1740.66 -107.256 3549
-1721.43 -106.592 3527
-1713 -106.592 3527
-1704.56 -106.592 3527
-1699.5 -106.803 3534
-1691.04 -106.803 3534
-1682.59 -106.803 3534
-1674.14 -106.803 3534
-1665.69 -106.803 3534
-1657.24 -106.803 3534
-1648.79 -106.803 3534
-1640.34 -106.803 3534
-1631.89 -106.803 3534
-1610.12 -105.927 3505
-1611.79 -106.592 3527
-1603.35 -106.592 3527
-1601.7 -107.045 3542
-1603.58 -107.74 3565
-1598.19 -107.952 3572
-1589.64 -107.952 3572
-1581.1 -107.952 3572
-1572.56 -107.952 3572
-1564.02 -107.952 3572
-1548.94 -107.498 3557
-1533.94 -107.045 3542
-1525.47 -107.045 3542
-1517 -107.045 3542
-1508.53 -107.045 3542
-1493.71 -106.592 3527
-1476.01 -105.927 3505
-1467.63 -105.927 3505
-1453 -105.473 3490
-1441.76 -105.262 3483
-1433.43 -105.262 3483
-1425.1 -105.262 3483
-1295.15 -96.2255 3184
-1287.54 -96.2255 3184
-1265.45 -95.1376 3148
